-2390.52 -1041.36 5745.04 
-2390.99 -1041.39 5745.17 
-2392.09 -1040.36 5745.06 
-2391.73 -1040.5 5745.05 
-2391.89 -1040.26 5745 
-2391.76 -1040.3 5744.99 
-2391.81 -1040.38 5745.02 
-2391.66 -1040.39 5745 
-2391.6 -1040.55 5745.04 
-2391.47 -1040.6 5745.04 
-2391.34 -1040.66 5745.04 
-2391.39 -1040.92 5745.12 
-2391.28 -1040.75 5745.05 
-2391.24 -1041.23 5745.2 
-2389.93 -1041.2 5744.91 
-2389.51 -1040.71 5744.76 
-2389.01 -1040.49 5744.72 
-2389.11 -1040.44 5744.66 
-2389.37 -1040.49 5744.71 
-2388.91 -1040.34 5744.7 
-2388.85 -1040.42 5744.78 
-2388.7 -1040.28 5744.8 
-2388.69 -1040.44 5744.89 
-2388.59 -1040.29 5744.87 
-2388.55 -1040.21 5744.89 
-2389.85 -1041.01 5744.87 
-2389.7 -1040.83 5744.81 
-2514.05 -1234.99 5822.53 
-2515.09 -1234.52 5822.27 
-2515.81 -1250.44 5832.3 
-2515.73 -1252.78 5834.05 
-2516.32 -1248.54 5830.84 
-2517.5 -1259.37 5838.61 
-2518.21 -1263.31 5842.15 
-2515.25 -1265.95 5845.42 
-2517.82 -1266.2 5845.44 
-2513.64 -1267.62 5847.63 
-2506.93 -1260.24 5843.07 
-2510.25 -1266.79 5848.46 
-2502.43 -1254.16 5838.84 
-2505.24 -1261.57 5845.31 
-2513.34 -1238.98 5824.86 
-2516.52 -1246.26 5829.62 
-2478.29 -1201.08 5809.8 
-2478.33 -1201.94 5810.09 
-2478.41 -1203.01 5810.86 
-2478.63 -1203.76 5811.17 
-2476.39 -1205.13 5813.07 
-2469.83 -1207.47 5813.41 
-2469.99 -1209.73 5815.94 
-2472.03 -1210.51 5817.22 
-2474.76 -1212.44 5820.57 
-2475.15 -1211.56 5819.4 
-2474.43 -1211.88 5819.55 
-2475.37 -1212.11 5820.14 
-2473.85 -1211.39 5818.61 
-2487.57 -1223.04 5819.76 
-2486.21 -1220 5819.93 
-2484.56 -1218.36 5820.04 
-2482.27 -1216.26 5820.54 
-2481.36 -1214.87 5818.96 
-2479.08 -1214.03 5820.29 
-2488.95 -1229.6 5825.16 
-2487.09 -1223.56 5821.01 
-2491.93 -1236.66 5829.85 
-2492.75 -1237.71 5829.92 
-2495.22 -1242.83 5832.93 
-2497.72 -1248.04 5836.03 
-2499.9 -1251.11 5837.43 
-2501.11 -1254.28 5840.29 
-2501.93 -1254.01 5839.18 
-2470.81 -1189.16 5801.1 
-2470.33 -1188.55 5800.83 
-2470.06 -1189.78 5800.86 
-2470.8 -1189.35 5801.22 
-2471.08 -1189.19 5801.33 
-2468.38 -1190.92 5800.15 
-2467.2 -1191.55 5799.54 
-2466.48 -1191.52 5799.17 
-2466.95 -1190.52 5799.46 
-2515.59 -1233.82 5821.94 
-2515.78 -1229.6 5819.57 
-2516.14 -1234.4 5822.53 
-2503.56 -1172.21 5797.49 
-2504.04 -1175.03 5796.81 
-2505.3 -1175.55 5797.08 
-2505.79 -1175.12 5797.34 
-2510.31 -1186.56 5806.36 
-2510.72 -1189.09 5807.43 
-2508.57 -1181.21 5802.61 
-2510.65 -1186.52 5806.8 
-2511 -1190.81 5807.86 
-2511.1 -1196.9 5807.79 
-2516.06 -1226 5818.3 
-2516.25 -1219.26 5815.68 
-2516.79 -1224.71 5818.16 
-2516.55 -1233.3 5822.22 
-2515.02 -1207.37 5810.64 
-2515.15 -1209.66 5811.41 
-2515.84 -1205.71 5810.98 
-2515.4 -1203.01 5810.25 
-2515.47 -1212.87 5812.64 
-2509.09 -1182.22 5804.05 
-2511.08 -1187.12 5807.6 
-2504.97 -1173.37 5797.6 
-2478.79 -1143.52 5763.02 
-2478.71 -1143.89 5763.11 
-2478.69 -1144.05 5762.96 
-2478.75 -1143.64 5762.78 
-2478.82 -1143.23 5762.6 
-2479.67 -1142.75 5762.38 
-2479.11 -1143.33 5762.49 
-2480.21 -1142.26 5761.55 
-2479.56 -1143.12 5762.25 
-2479.17 -1143.64 5762.57 
-2480.35 -1142.36 5761.53 
-2480.73 -1141.59 5761.35 
-2480.73 -1141.3 5761.51 
-2480.22 -1142.26 5761.98 
-2475.59 -1198.62 5809.91 
-2476.45 -1198.85 5810.04 
-2477.24 -1199.27 5810.24 
-2477.54 -1199.31 5809.58 
-2478.03 -1200.26 5809.8 
-2477.66 -1199.49 5810.14 
-2467.8 -1190.49 5800.15 
-2469.32 -1189.3 5800.6 
-2481.35 -1194.99 5811.15 
-2481.25 -1195.29 5811.08 
-2481.27 -1195.56 5811 
-2479.64 -1196.21 5811.09 
-2478.45 -1196.81 5811.12 
-2476.7 -1197.94 5811.13 
-2479.16 -1196.91 5811.03 
-2477.97 -1197.67 5811.13 
-2475.83 -1198.92 5811.06 
-2475.65 -1198.85 5811.25 
-2476.16 -1198.97 5810.84 
-2476.44 -1198.98 5810.57 
-2492.16 -1175.44 5811.17 
-2483.19 -1166.63 5810.94 
-2486.88 -1171.49 5811.12 
-2490.36 -1176.66 5811.24 
-2496.74 -1182.24 5811.12 
-2495.5 -1183.47 5811.12 
-2497.77 -1187.01 5810.55 
-2511.88 -1189.18 5808.8 
-2513.43 -1186 5811.8 
-2513.09 -1185.45 5811.51 
-2512.51 -1184.98 5811.14 
-2513.94 -1190.54 5811.38 
-2515 -1193.4 5812.99 
-2514.82 -1194.07 5812.78 
-2515.27 -1192.9 5813.32 
-2513.94 -1187.21 5812.39 
-2514.2 -1187.8 5812.7 
-2514.69 -1188.62 5813.19 
-2515.19 -1189.97 5813.77 
-2515.93 -1192.02 5814.94 
-2516.05 -1191.87 5815.43 
-2518.05 -1195.78 5819.01 
-2517.14 -1194.57 5816.79 
-2518.23 -1195.93 5819.54 
-2514.19 -1187.27 5812.8 
-2513.69 -1186.76 5812.44 
-2512.73 -1190.82 5809.74 
-2514.04 -1194.14 5811.79 
-2510.6 -1185.25 5810.86 
-2507.76 -1185.63 5810.39 
-2508.6 -1185.92 5810.77 
-2505.19 -1186.26 5810.15 
-2503.91 -1186.42 5810.06 
-2506.34 -1186.35 5810.46 
-2501.6 -1186.69 5810.14 
-2502.57 -1186.66 5810.04 
-2500.56 -1187.27 5810.15 
-2498.54 -1187.82 5810.32 
-2481.48 -1167.52 5811.03 
-2485.06 -1193.21 5811.03 
-2485.03 -1193.53 5810.95 
-2483.21 -1194.25 5811.05 
-2485.1 -1172.36 5811.2 
-2487.12 -1192.44 5810.91 
-2488.6 -1178.14 5811.31 
-2490.07 -1186.92 5811.26 
-2491 -1190.62 5810.78 
-2490.75 -1190.97 5810.72 
-2488.98 -1191.67 5810.82 
-2389.71 -1039.59 5744.83 
-2390 -1039.22 5744.74 
-2390.41 -1039.06 5744.74 
-2390.8 -1038.68 5744.66 
-2388.85 -1039.83 5744.81 
-2389.1 -1039.9 5744.86 
-2389.35 -1039.6 5744.79 
-2391.81 -1038.35 5744.67 
-2391.11 -1038.3 5744.57 
-2391.48 -1038.2 5744.58 
-2391.98 -1038.04 5744.59 
-2392.07 -1037.76 5744.51 
-2392.7 -1037.42 5744.45 
-2393.64 -1038.11 5744.75 
-2394.1 -1038.6 5744.94 
-2394.88 -1039.28 5745.22 
-2395.1 -1039.54 5745.32 
-2395.51 -1040.01 5745.49 
-2394.83 -1039.99 5745.37 
-2394.89 -1040.06 5745.4 
-2394.12 -1039.95 5745.25 
-2393.46 -1039.87 5745.12 
-2392.46 -1039.72 5744.92 
-2392.19 -1039.76 5744.89 
-2392.16 -1039.83 5744.91 
-2392.15 -1039.9 5744.93 
-2392.13 -1039.98 5744.95 
-2392.14 -1040.09 5744.99 
-2392.15 -1040.2 5745.02 
-2392.06 -1040.26 5745.02 
-2390.24 -1041.26 5744.97 
-2390.06 -1041.16 5744.92 
-2390.5 -1041.23 5745.01 
-2390.19 -1041.07 5744.93 
-2390.89 -1041.27 5745.12 
-2391.52 -1040.43 5744.99 
-2391.9 -1040.15 5744.97 
-2391.74 -1040.14 5744.94 
-2391.68 -1040.21 5744.95 
-2391.58 -1040.28 5744.96 
-2391.45 -1040.32 5744.95 
-2391.4 -1040.49 5744.99 
-2391.28 -1040.53 5744.99 
-2391.13 -1040.65 5745 
-2391.16 -1040.56 5744.98 
-2391.24 -1040.87 5745.09 
-2391.08 -1040.74 5745.02 
-2391.07 -1041.13 5745.14 
-2389.61 -1040.64 5744.77 
-2388.99 -1040.27 5744.63 
-2389.17 -1040.3 5744.65 
-2389.52 -1040.46 5744.73 
-2389.33 -1040.29 5744.67 
-2388.93 -1040.1 5744.59 
-2388.82 -1040.15 5744.65 
-2388.75 -1040.21 5744.72 
-2388.64 -1039.99 5744.67 
-2388.6 -1040.11 5744.76 
-2388.5 -1040.01 5744.77 
-2388.48 -1039.97 5744.81 
-2389.98 -1040.97 5744.88 
-2389.81 -1040.78 5744.82 
-2516.27 -1242.91 5827.64 
-2517.01 -1243.09 5827.77 
-2517.4 -1242.55 5827.6 
-2518.75 -1256.83 5836.92 
-2518.65 -1258.71 5838.3 
-2519.11 -1255.96 5836.4 
-2519.26 -1262.79 5841.28 
-2519.93 -1265.73 5844.54 
-2515.57 -1269.24 5848.84 
-2514.38 -1271.33 5851.7 
-2516.65 -1271.3 5851.17 
-2518.62 -1270.77 5850.28 
-2508.34 -1268.21 5851.16 
-2513.44 -1272.36 5853.15 
-2506.4 -1268.43 5852.1 
-2504.45 -1261.92 5845.91 
-2505.21 -1267.33 5851.33 
-2518.5 -1251.27 5832.95 
-2519.74 -1256.39 5836.77 
-2478.06 -1201.18 5810.25 
-2478.13 -1201.99 5810.43 
-2478.11 -1202.81 5811.05 
-2478.24 -1203.82 5811.62 
-2478.33 -1204.14 5811.7 
-2476.73 -1204.94 5812.96 
-2469.81 -1206.19 5812.16 
-2469.97 -1209.4 5815.8 
-2470.44 -1210.61 5817.07 
-2472.3 -1211.29 5818.19 
-2474.07 -1212.97 5821.37 
-2478.99 -1214.74 5821.52 
-2473.7 -1212.77 5820.68 
-2473.4 -1212.31 5819.73 
-2486.68 -1223.95 5822.66 
-2484.26 -1219.77 5823.03 
-2482.52 -1218.1 5823.7 
-2478.97 -1215.91 5823.56 
-2489.52 -1232.44 5828.58 
-2491.83 -1237.76 5831.42 
-2495.06 -1243.16 5833.53 
-2494.76 -1243.26 5834.08 
-2497.65 -1248.25 5836.51 
-2500.43 -1253.6 5840.15 
-2501.87 -1255.02 5840.39 
-2502.71 -1261.56 5846.34 
-2503.28 -1262.05 5846.48 
-2503.82 -1261.85 5846.06 
-2470.16 -1189.81 5801.13 
-2470.12 -1189.94 5801.09 
-2470.86 -1189.51 5801.42 
-2470.76 -1189.86 5801.85 
-2468.24 -1191.2 5800.27 
-2467.09 -1191.87 5799.71 
-2466.66 -1191.58 5799.46 
-2517.73 -1241.67 5827.27 
-2504.24 -1174.06 5797.24 
-2511.16 -1189.26 5807.95 
-2511.44 -1191 5808.32 
-2511.41 -1189.05 5808.27 
-2512.14 -1196.98 5808.78 
-2516.98 -1232.39 5822.08 
-2517.01 -1217.66 5815.71 
-2518.01 -1223.99 5818.89 
-2517.96 -1227.33 5819.81 
-2517.42 -1231.81 5822.07 
-2518.07 -1241 5827.13 
-2517.12 -1209.43 5812.96 
-2517.26 -1212.99 5814.28 
-2517.11 -1205.21 5811.94 
-2517.77 -1208.1 5813.24 
-2516.3 -1202.68 5811.25 
-2517.91 -1205.51 5813.07 
-2478.74 -1144.13 5763.12 
-2479.51 -1143.32 5762.54 
-2478.75 -1144.32 5762.99 
-2479.95 -1142.99 5762.23 
-2479.36 -1143.67 5762.5 
-2479.66 -1143.4 5762.3 
-2479.08 -1144.2 5762.78 
-2480.46 -1142.52 5761.5 
-2480.84 -1141.87 5761.28 
-2480.84 -1141.52 5761.47 
-2480.47 -1142.38 5761.83 
-2477.18 -1199.5 5810.65 
-2477.77 -1200.12 5810.69 
-2477.83 -1200.23 5810.5 
-2477.91 -1200.33 5810.25 
-2467.52 -1191.72 5800.19 
-2468.56 -1190.69 5800.4 
-2483.36 -1194.46 5810.96 
-2483.18 -1194.78 5810.91 
-2481.87 -1195.73 5810.92 
-2483.11 -1195.07 5810.85 
-2480.42 -1196.22 5810.97 
-2476.68 -1198.45 5811.25 
-2480.47 -1196.67 5811.05 
-2478.97 -1197.56 5811.18 
-2477.45 -1198.51 5811.33 
-2476.32 -1199.64 5811.37 
-2476.7 -1199.72 5811.19 
-2475.84 -1199.23 5811.38 
-2476.99 -1199.68 5810.96 
-2494.09 -1184.23 5811.16 
-2492.66 -1185.12 5811.21 
-2496.33 -1188.31 5810.52 
-2512.38 -1190.93 5809.3 
-2512.94 -1186.36 5812.06 
-2511.97 -1186.07 5811.66 
-2510.96 -1185.9 5811.32 
-2517.58 -1196.56 5817.01 
-2518.39 -1200.5 5816.76 
-2517.33 -1200.04 5814.43 
-2514.49 -1187.82 5813.07 
-2516.03 -1191.47 5815.7 
-2515.33 -1189.73 5814.28 
-2514.89 -1188.61 5813.8 
-2518.18 -1195.58 5819.63 
-2517.31 -1193.51 5818.13 
-2518.34 -1195.6 5820.29 
-2519 -1197.93 5821.11 
-2520.15 -1199.72 5824.92 
-2518.44 -1197.27 5819.49 
-2520.25 -1199.52 5825.52 
-2514.03 -1188.19 5813.37 
-2513.17 -1187.88 5812.99 
-2512.33 -1187.63 5812.64 
-2514.25 -1195.83 5811.64 
-2509.48 -1186.18 5811.12 
-2506.76 -1186.95 5810.91 
-2508 -1187.03 5811.25 
-2503.79 -1187.12 5810.3 
-2504.99 -1187.27 5810.67 
-2502.38 -1187.27 5810.17 
-2501.16 -1187.49 5810.14 
-2499.7 -1187.95 5810.16 
-2498.71 -1188.02 5810.24 
-2496.71 -1188.66 5810.39 
-2486.59 -1192.88 5810.87 
-2487.16 -1192.97 5810.75 
-2485.3 -1193.72 5810.85 
-2488.44 -1192.33 5810.72 
-2489.19 -1191.85 5810.74 
-2491.35 -1185.99 5811.26 
-2492.63 -1189.84 5810.72 
-2493.19 -1190.03 5810.58 
-2491.26 -1191.11 5810.6 
-2492.61 -1190.46 5810.56 
-2389.61 -1039.28 5744.72 
-2389.87 -1038.97 5744.65 
-2390.33 -1038.82 5744.65 
-2390.67 -1038.44 5744.57 
-2388.72 -1039.6 5744.72 
-2389.18 -1039.41 5744.71 
-2391.07 -1038.03 5744.48 
-2391.54 -1037.83 5744.47 
-2392.16 -1037.48 5744.43 
-2392.31 -1037.21 5744.36 
-2393.22 -1037.66 5744.57 
-2394.2 -1038.47 5744.91 
-2394.61 -1038.92 5745.09 
-2395.16 -1039.44 5745.3 
-2395.58 -1039.91 5745.47 
-2395.46 -1040 5745.47 
-2394.66 -1039.89 5745.31 
-2393.93 -1039.79 5745.17 
-2394.06 -1039.88 5745.22 
-2393.29 -1039.77 5745.06 
-2392.34 -1039.63 5744.87 
-2392.08 -1039.67 5744.85 
-2392.05 -1039.75 5744.86 
-2392.03 -1039.82 5744.88 
-2392.01 -1039.9 5744.91 
-2391.99 -1040 5744.93 
-2391.99 -1040.1 5744.96 
-2390.57 -1041.11 5745.01 
-2390.27 -1041 5744.93 
-2389.99 -1040.82 5744.86 
-2391.31 -1040.37 5744.94 
-2391.83 -1040 5744.91 
-2391.73 -1040.04 5744.9 
-2391.52 -1040.03 5744.87 
-2391.58 -1040.11 5744.9 
-2391.49 -1040.17 5744.91 
-2391.36 -1040.21 5744.9 
-2391.24 -1040.25 5744.89 
-2391.19 -1040.42 5744.94 
-2391.03 -1040.45 5744.92 
-2390.96 -1040.52 5744.93 
-2390.94 -1040.61 5744.96 
-2391.11 -1040.85 5745.06 
-2390.98 -1040.79 5745.02 
-2390.88 -1040.68 5744.97 
-2390.95 -1041.01 5745.08 
-2389.76 -1040.58 5744.78 
-2389.13 -1040.11 5744.61 
-2389.57 -1040.35 5744.72 
-2389.36 -1040.16 5744.65 
-2388.82 -1039.94 5744.55 
-2388.96 -1039.9 5744.55 
-2388.72 -1039.96 5744.61 
-2388.62 -1039.75 5744.55 
-2388.54 -1039.83 5744.65 
-2388.44 -1039.77 5744.67 
-2388.38 -1039.76 5744.72 
-2519.13 -1251.89 5833.47 
-2519.49 -1251.39 5833.26 
-2520.17 -1260.86 5839.64 
-2520.11 -1262.75 5841.43 
-2520.84 -1260.96 5839.83 
-2520.78 -1265.5 5844.22 
-2519.91 -1270.4 5849.6 
-2515.12 -1271.44 5851.65 
-2516.18 -1273.84 5854.43 
-2517.26 -1276.63 5856.87 
-2517.26 -1277.87 5858.08 
-2518.36 -1274.15 5854.35 
-2519.84 -1274.07 5853.97 
-2513.01 -1274.18 5855.61 
-2518.31 -1279.7 5859.74 
-2507.15 -1270.65 5854.31 
-2511.31 -1273.51 5855.89 
-2504.82 -1267.4 5851.52 
-2520.86 -1257.55 5837.72 
-2521.64 -1261.01 5840.09 
-2477.87 -1201.07 5810.59 
-2477.91 -1201.91 5810.73 
-2478.02 -1202.93 5811.28 
-2478.04 -1203.83 5811.81 
-2476.64 -1204.69 5812.92 
-2476.81 -1204.77 5812.9 
-2474.72 -1205.46 5813.52 
-2469.8 -1205.39 5811.71 
-2470.92 -1205.96 5812.7 
-2471.2 -1209.64 5816.56 
-2470.82 -1211.39 5818.07 
-2472.55 -1212.1 5819.21 
-2473.44 -1213.42 5822.11 
-2478.64 -1216.57 5825.17 
-2473.05 -1213.23 5821.32 
-2472.65 -1213.15 5820.82 
-2486.3 -1224.47 5824.27 
-2482.64 -1219.49 5825.92 
-2484.4 -1221.29 5825.09 
-2491.62 -1238.53 5832.72 
-2489.06 -1232.71 5830.04 
-2494.47 -1243.33 5834.7 
-2497.79 -1248.73 5837.38 
-2497.85 -1249.23 5838.31 
-2499.9 -1253.28 5840.45 
-2502.04 -1259.96 5845.37 
-2503.18 -1266.61 5851.18 
-2503.61 -1267.02 5851.45 
-2503.96 -1267.08 5851.41 
-2504.34 -1267.13 5851.36 
-2470.13 -1190.12 5801.27 
-2470.89 -1189.7 5801.66 
-2470.49 -1190.54 5802.48 
-2468.19 -1191.41 5800.42 
-2519.62 -1250.55 5832.87 
-2519.39 -1249.28 5832.1 
-2511.95 -1191.47 5808.92 
-2512.76 -1196.56 5809.61 
-2518.43 -1240.89 5827.28 
-2518.47 -1223.03 5819.02 
-2518.53 -1229.86 5821.66 
-2517.96 -1231.79 5822.45 
-2518.59 -1239.39 5826.65 
-2519.72 -1249.36 5832.45 
-2519.08 -1212.37 5815.93 
-2519.13 -1217.33 5818.04 
-2518.93 -1208.73 5814.62 
-2520.36 -1212.02 5817.08 
-2514.48 -1198.24 5811.04 
-2517.58 -1204.05 5813.06 
-2520.14 -1209.85 5816.17 
-2519.71 -1208.12 5815.58 
-2478.79 -1144.36 5763.11 
-2479.32 -1143.95 5762.73 
-2478.73 -1144.68 5763.13 
-2480.2 -1143.11 5762.07 
-2479.72 -1143.67 5762.44 
-2479.36 -1144.06 5762.63 
-2479.56 -1144.05 5762.54 
-2479.82 -1143.51 5762.27 
-2478.83 -1144.81 5763.11 
-2479.11 -1144.59 5762.9 
-2480.58 -1142.67 5761.49 
-2481.03 -1142.06 5761.23 
-2480.97 -1141.71 5761.39 
-2480.68 -1142.58 5761.71 
-2477.66 -1200.26 5810.99 
-2477.86 -1200.99 5811.05 
-2477.86 -1201.03 5810.82 
-2467.76 -1192.04 5800.69 
-2467.6 -1191.88 5800.24 
-2485.31 -1194 5810.78 
-2484.68 -1194.54 5810.8 
-2483.23 -1195.48 5810.94 
-2481.77 -1196.33 5811.06 
-2480.26 -1197.26 5811.2 
-2478.78 -1198.18 5811.34 
-2477.39 -1199.09 5811.48 
-2476.12 -1199.46 5811.48 
-2477.19 -1200.46 5811.51 
-2476.44 -1200.01 5811.51 
-2477.5 -1200.45 5811.29 
-2494.52 -1188.99 5810.63 
-2513.26 -1195.36 5810.49 
-2511.61 -1187.29 5812.27 
-2510.78 -1186.96 5811.88 
-2509.48 -1186.95 5811.56 
-2519.77 -1201.01 5821.53 
-2519.54 -1204.67 5816.87 
-2520.41 -1203.34 5821.95 
-2518.01 -1202.82 5814.34 
-2516.05 -1191.13 5816.05 
-2517.55 -1193.71 5818.88 
-2515.5 -1189.78 5814.92 
-2514.84 -1189.04 5814.55 
-2520.21 -1199.02 5825.7 
-2518.5 -1195.52 5821.07 
-2520.26 -1198.74 5826.18 
-2520.82 -1201.73 5826.43 
-2521.7 -1203.44 5828.51 
-2522.57 -1205.21 5830.19 
-2522.84 -1205.47 5830.79 
-2512.81 -1189.16 5813.72 
-2511.85 -1188.78 5813.19 
-2510.86 -1188.49 5812.78 
-2517.11 -1201.65 5813.17 
-2506.44 -1187.95 5811.4 
-2504.98 -1188.06 5811.11 
-2507.83 -1187.93 5811.73 
-2502.38 -1187.84 5810.38 
-2503.34 -1188.21 5810.8 
-2500.89 -1188.23 5810.32 
-2499.72 -1188.41 5810.28 
-2498.02 -1188.54 5810.23 
-2498.1 -1189.05 5810.33 
-2495.93 -1189.18 5810.37 
-2494.67 -1189.39 5810.52 
-2487.09 -1193.33 5810.69 
-2489.85 -1192.1 5810.57 
-2488.63 -1192.72 5810.62 
-2490.69 -1191.57 5810.57 
-2494.77 -1189.77 5810.4 
-2493.69 -1190.37 5810.42 
-2492.53 -1191.02 5810.46 
-2389.49 -1038.99 5744.61 
-2389.9 -1038.66 5744.55 
-2390.19 -1038.64 5744.58 
-2390.66 -1038.16 5744.48 
-2388.49 -1039.47 5744.65 
-2389.03 -1039.19 5744.63 
-2390.95 -1037.73 5744.37 
-2391.32 -1037.66 5744.39 
-2391.76 -1037.39 5744.36 
-2392.4 -1037.02 5744.31 
-2392.71 -1037.38 5744.43 
-2393.9 -1038.14 5744.78 
-2394.56 -1038.68 5745.01 
-2395.22 -1039.22 5745.24 
-2395.18 -1039.29 5745.26 
-2395.64 -1039.82 5745.45 
-2395.2 -1039.88 5745.39 
-2394.68 -1039.83 5745.3 
-2393.84 -1039.7 5745.13 
-2393.2 -1039.69 5745.02 
-2393.08 -1039.6 5744.98 
-2392.21 -1039.55 5744.83 
-2391.97 -1039.58 5744.8 
-2391.94 -1039.65 5744.82 
-2391.91 -1039.71 5744.83 
-2391.9 -1039.83 5744.87 
-2391.9 -1039.77 5744.85 
-2391.84 -1039.9 5744.88 
-2390.57 -1040.99 5744.98 
-2390.31 -1040.86 5744.92 
-2390.13 -1040.81 5744.88 
-2389.95 -1040.61 5744.82 
-2391.1 -1040.29 5744.88 
-2391.66 -1039.9 5744.85 
-2391.57 -1039.96 5744.85 
-2391.39 -1039.94 5744.82 
-2391.38 -1040.04 5744.85 
-2391.29 -1040.1 5744.85 
-2391.14 -1040.13 5744.84 
-2391.06 -1040.19 5744.85 
-2391 -1040.34 5744.88 
-2390.8 -1040.32 5744.85 
-2390.73 -1040.37 5744.86 
-2390.75 -1040.48 5744.89 
-2390.68 -1040.55 5744.9 
-2390.82 -1040.73 5744.98 
-2390.68 -1040.87 5744.99 
-2390.52 -1040.58 5744.9 
-2389.77 -1040.41 5744.76 
-2389.16 -1039.95 5744.59 
-2389.57 -1040.2 5744.69 
-2389.37 -1040 5744.63 
-2388.74 -1039.77 5744.5 
-2388.92 -1039.71 5744.51 
-2388.68 -1039.6 5744.46 
-2388.56 -1039.46 5744.43 
-2388.52 -1039.62 5744.54 
-2388.42 -1039.57 5744.57 
-2388.32 -1039.52 5744.61 
-2521.74 -1257.54 5838.18 
-2522.41 -1256.96 5838.17 
-2521.15 -1263.18 5842.16 
-2521.44 -1265.49 5844 
-2521.78 -1263.04 5842.16 
-2520.73 -1270.01 5849.14 
-2520.2 -1273.21 5852.93 
-2518.58 -1276.61 5856.67 
-2523.06 -1282.09 5860.97 
-2524.31 -1284.8 5863.8 
-2523.54 -1285.25 5864.52 
-2520 -1276.55 5856.38 
-2521.44 -1274.87 5854.73 
-2521.64 -1276.86 5856.41 
-2517.64 -1279.39 5859.97 
-2522.13 -1284.84 5864.18 
-2506.05 -1270.2 5854.15 
-2509.09 -1273.15 5856.41 
-2512.14 -1274.92 5857.25 
-2522.51 -1260.64 5840.07 
-2522.53 -1262.95 5842.25 
-2477.86 -1201.82 5810.92 
-2477.84 -1202.24 5810.96 
-2477.84 -1202.57 5811.23 
-2477.94 -1203.56 5811.78 
-2476.6 -1204.47 5812.88 
-2474.94 -1205.13 5813.49 
-2474.55 -1205.28 5813.42 
-2472.76 -1207.71 5815.23 
-2472.48 -1206.53 5813.88 
-2471.23 -1204.8 5811.86 
-2473.13 -1208.82 5816.51 
-2471.54 -1210.96 5818.04 
-2471.75 -1212.45 5819.48 
-2474.14 -1214.41 5824.31 
-2478.1 -1216.64 5826.58 
-2474.27 -1214.71 5824.82 
-2472.45 -1213.55 5821.44 
-2485.78 -1224.45 5825.45 
-2482.55 -1219.72 5827.59 
-2484.2 -1221.81 5826.36 
-2491.48 -1238.76 5833.51 
-2493.73 -1242.62 5835.09 
-2489.86 -1235.94 5832.74 
-2486.96 -1228.21 5828.5 
-2496.52 -1246.95 5837.34 
-2500.38 -1255.46 5842.79 
-2498.17 -1250.69 5839.91 
-2500.89 -1257.62 5844.89 
-2501.42 -1258.13 5844.33 
-2502.78 -1265.9 5850.65 
-2504.06 -1269.34 5853.53 
-2504.61 -1269.69 5853.79 
-2505.12 -1270 5854.04 
-2505.43 -1269.85 5853.88 
-2470.16 -1190.27 5801.46 
-2470.81 -1190.01 5801.96 
-2470.78 -1190.52 5802.8 
-2469.08 -1191.71 5802.13 
-2468.53 -1191.38 5800.75 
-2522.68 -1255.22 5837.23 
-2520.02 -1249.09 5832.64 
-2519.66 -1222.84 5820.11 
-2519.41 -1227.18 5821.12 
-2518.95 -1231.4 5822.92 
-2518.83 -1238.05 5826.15 
-2519.34 -1239.82 5827.5 
-2519.67 -1246.62 5830.81 
-2523.26 -1254.23 5837.13 
-2522.22 -1215.82 5820.27 
-2521.02 -1221.4 5821.19 
-2522.06 -1213.66 5819.4 
-2523.57 -1216.79 5822.21 
-2518.94 -1206.02 5814.76 
-2522.44 -1213.11 5819.58 
-2521.13 -1209.41 5817.52 
-2479.28 -1144.38 5762.8 
-2480.44 -1143.26 5761.93 
-2479.99 -1143.76 5762.28 
-2479.58 -1144.25 5762.59 
-2479.3 -1144.58 5762.82 
-2479.86 -1143.86 5762.37 
-2479.58 -1144.32 5762.63 
-2478.91 -1145.01 5763.11 
-2479.1 -1145.01 5763.02 
-2480.7 -1142.83 5761.47 
-2481.17 -1142.36 5761.15 
-2481.19 -1142.14 5761.29 
-2481.1 -1141.89 5761.34 
-2480.85 -1142.9 5761.63 
-2477.86 -1201.09 5811.33 
-2477.85 -1201.71 5811.1 
-2477.82 -1201.63 5811.29 
-2468.75 -1191.45 5801.08 
-2486.23 -1194.07 5810.79 
-2484.65 -1195.05 5810.93 
-2483.11 -1196.01 5811.08 
-2481.6 -1196.91 5811.21 
-2480.09 -1197.84 5811.35 
-2478.6 -1198.83 5811.51 
-2477.28 -1199.72 5811.65 
-2476.23 -1200.03 5811.64 
-2476.38 -1200.22 5811.61 
-2477.81 -1201.21 5811.61 
-2477.28 -1200.82 5811.67 
-2510.05 -1188.09 5812.36 
-2509.2 -1187.82 5812 
-2521.16 -1202.87 5826.61 
-2520.39 -1207.14 5817.11 
-2521.36 -1206.2 5822.7 
-2522.34 -1205.92 5826.65 
-2516.54 -1191.54 5817.32 
-2517.41 -1193.22 5818.86 
-2518.53 -1195.36 5821.35 
-2516.04 -1190.58 5816.76 
-2513.18 -1189.69 5814.79 
-2522.98 -1205.45 5831.19 
-2520.12 -1198.04 5826.18 
-2523.25 -1205.78 5831.78 
-2524.84 -1210.98 5832.26 
-2523.09 -1207.03 5829.68 
-2525.09 -1211.57 5833.62 
-2525.38 -1212.11 5834.77 
-2525.64 -1212.41 5835.48 
-2511.1 -1189.81 5813.71 
-2509.93 -1189.48 5813.12 
-2509.07 -1189.07 5812.68 
-2506.32 -1188.86 5811.9 
-2504.85 -1188.95 5811.59 
-2503.36 -1189.07 5811.3 
-2507.92 -1188.77 5812.23 
-2501.45 -1188.73 5810.65 
-2501.85 -1189.3 5811.07 
-2500.02 -1189.2 5810.58 
-2499.14 -1189.11 5810.43 
-2496.8 -1189.25 5810.29 
-2497.67 -1189.79 5810.5 
-2496.35 -1190 5810.46 
-2487.82 -1193.51 5810.76 
-2491.3 -1191.79 5810.55 
-2489.61 -1192.69 5810.67 
-2495.33 -1189.99 5810.37 
-2493.67 -1190.89 5810.49 
-2492.32 -1191.74 5810.62 
-2389.22 -1038.8 5744.52 
-2389.67 -1038.62 5744.51 
-2390.05 -1038.31 5744.46 
-2390.27 -1038.37 5744.5 
-2390.47 -1038.01 5744.41 
-2388.36 -1039.26 5744.57 
-2388.79 -1039.09 5744.56 
-2390.68 -1037.63 5744.31 
-2391.15 -1037.34 5744.27 
-2391.5 -1037.29 5744.29 
-2391.86 -1036.81 5744.24 
-2392.42 -1037.56 5744.42 
-2391.7 -1037.13 5744.28 
-2394.51 -1038.72 5745.01 
-2395.48 -1039.49 5745.34 
-2395.73 -1039.73 5745.44 
-2395.53 -1039.8 5745.42 
-2395.07 -1039.79 5745.35 
-2394.4 -1039.71 5745.22 
-2393.75 -1039.62 5745.09 
-2392.97 -1039.51 5744.93 
-2392.11 -1039.46 5744.78 
-2391.99 -1039.37 5744.74 
-2391.85 -1039.5 5744.75 
-2391.82 -1039.56 5744.77 
-2391.79 -1039.63 5744.79 
-2391.77 -1039.69 5744.8 
-2391.68 -1039.8 5744.82 
-2391.77 -1039.76 5744.82 
-2390.35 -1040.77 5744.91 
-2390.15 -1040.65 5744.86 
-2389.97 -1040.45 5744.8 
-2390.84 -1040.15 5744.81 
-2390.79 -1040.22 5744.82 
-2391.51 -1039.78 5744.79 
-2391.45 -1039.85 5744.8 
-2391.2 -1039.97 5744.8 
-2391.18 -1039.87 5744.77 
-2391.3 -1039.85 5744.78 
-2391.11 -1040.03 5744.8 
-2390.89 -1039.96 5744.76 
-2390.89 -1040.07 5744.79 
-2390.45 -1040.12 5744.77 
-2390.34 -1040.17 5744.78 
-2390.43 -1040.32 5744.83 
-2390.28 -1040.38 5744.83 
-2390.63 -1040.73 5744.95 
-2390.41 -1040.68 5744.91 
-2390.23 -1040.54 5744.85 
-2389.78 -1040.24 5744.73 
-2389.15 -1039.79 5744.56 
-2389.58 -1040.04 5744.67 
-2389.37 -1039.85 5744.61 
-2388.98 -1039.57 5744.5 
-2388.76 -1039.46 5744.45 
-2388.43 -1039.39 5744.47 
-2388.5 -1039.28 5744.39 
-2388.32 -1039.32 5744.5 
-2388.23 -1039.26 5744.52 
-2523.42 -1259.22 5839.63 
-2524.13 -1258.41 5839.57 
-2522.02 -1265.34 5843.82 
-2521.35 -1270.12 5849.29 
-2521.87 -1270.03 5849.29 
-2522.48 -1264.93 5843.59 
-2521.37 -1272.84 5852.74 
-2522.35 -1274.58 5854.44 
-2525.26 -1283.1 5861.47 
-2527.04 -1286.35 5864.61 
-2527.34 -1288.96 5867.89 
-2526.2 -1289.52 5868.77 
-2524.33 -1287.6 5867.02 
-2524.63 -1281.8 5860.34 
-2523.39 -1276.46 5856.28 
-2525.86 -1280.85 5859.47 
-2525.6 -1281.73 5860.16 
-2518.6 -1280.87 5861.26 
-2521.58 -1285.05 5864.54 
-2505.76 -1270.66 5854.58 
-2509.97 -1274.33 5857.58 
-2515.54 -1278.95 5860.24 
-2523.43 -1262.1 5841.72 
-2523.2 -1263.63 5843.27 
-2522.86 -1264.76 5843.58 
-2477.74 -1202.04 5811 
-2477.68 -1201.97 5811.14 
-2477.82 -1202.86 5811.49 
-2477.71 -1203.39 5811.91 
-2476.83 -1204.08 5812.67 
-2476.1 -1205 5813.9 
-2474.52 -1205.22 5813.58 
-2471.15 -1204.36 5811.6 
-2473.7 -1205.9 5813.73 
-2473.89 -1207.13 5815.11 
-2473.56 -1210.28 5818.26 
-2475.09 -1207.26 5815.83 
-2475.54 -1208.61 5817.54 
-2472.04 -1212.22 5819.54 
-2479.65 -1217.93 5829.71 
-2478.99 -1217.29 5828.61 
-2475.64 -1215.85 5827.4 
-2480.33 -1218.68 5830.85 
-2473 -1214.08 5822.71 
-2484.86 -1223.38 5826.52 
-2483.48 -1221.02 5828.05 
-2491.79 -1239.89 5834.97 
-2493.52 -1242.68 5835.86 
-2491.06 -1238.88 5834.94 
-2488.05 -1232.07 5831.57 
-2485.39 -1225.13 5827.93 
-2495.97 -1246.7 5837.94 
-2497.76 -1250.3 5840.21 
-2501.99 -1262.5 5847.64 
-2500.48 -1257.6 5845.63 
-2502.13 -1264.28 5849.81 
-2502.42 -1265.41 5850.58 
-2503.04 -1267.41 5852.33 
-2503.82 -1269.79 5854.01 
-2504.24 -1270.27 5854.35 
-2504.75 -1270.6 5854.61 
-2505.22 -1270.96 5854.79 
-2470.22 -1190.41 5801.66 
-2470.71 -1190.41 5802.38 
-2468.84 -1192.09 5802.29 
-2524.83 -1257.3 5839.36 
-2521.1 -1250.14 5834.28 
-2523.77 -1253.43 5837.15 
-2519.66 -1230.41 5823.4 
-2519.52 -1236.62 5826.42 
-2520.03 -1247.28 5831.41 
-2520 -1245.24 5830.56 
-2525.68 -1256.03 5839.47 
-2522.02 -1221.67 5822.5 
-2523.81 -1215.56 5821.85 
-2524.31 -1218.16 5824.31 
-2523.94 -1221.76 5825.83 
-2522.95 -1212.34 5820.95 
-2524.18 -1214.79 5822.87 
-2522.26 -1209.34 5822.11 
-2480.59 -1143.56 5761.87 
-2480.22 -1143.87 5762.14 
-2479.84 -1144.25 5762.42 
-2479.27 -1145.04 5762.96 
-2479.47 -1144.67 5762.78 
-2479.71 -1144.45 5762.61 
-2480.04 -1143.93 5762.32 
-2480.98 -1142.88 5761.26 
-2480.26 -1143.51 5762.07 
-2481.31 -1142.58 5761.1 
-2481.32 -1142.35 5761.23 
-2480.94 -1143.24 5761.6 
-2477.75 -1201.55 5811.46 
-2477.54 -1201.83 5811.31 
-2477.71 -1201.81 5811.23 
-2470.26 -1190.58 5801.88 
-2470.07 -1190.97 5802.18 
-2486.02 -1194.65 5810.93 
-2484.57 -1195.59 5811.08 
-2483.08 -1196.51 5811.22 
-2481.56 -1197.4 5811.34 
-2479.97 -1198.36 5811.48 
-2478.61 -1199.39 5811.66 
-2477.36 -1200.25 5811.8 
-2476.41 -1200.59 5811.8 
-2476.68 -1200.83 5811.79 
-2477 -1200.85 5811.74 
-2477.61 -1201.35 5811.75 
-2477.64 -1201.53 5811.6 
-2524.2 -1209.38 5829.28 
-2523.4 -1209.41 5826.05 
-2525.65 -1212.49 5829.05 
-2518.35 -1194.89 5821 
-2517.56 -1193.19 5819.49 
-2520.11 -1197.86 5826.23 
-2516.02 -1190.46 5817.05 
-2513.71 -1190.05 5815.82 
-2511.56 -1190.37 5814.93 
-2525.95 -1212.79 5836.15 
-2522.2 -1202.98 5830.1 
-2526.97 -1215.29 5837.86 
-2524.97 -1210.07 5834.59 
-2526.09 -1213.62 5831.94 
-2528.3 -1219.89 5836.15 
-2528.25 -1219.52 5836.69 
-2528.41 -1219.81 5837.74 
-2528.5 -1219.79 5838.6 
-2528.5 -1219.56 5839.33 
-2528.88 -1220.04 5840.79 
-2509.46 -1190.43 5813.7 
-2508.12 -1190.15 5813.07 
-2507.47 -1189.68 5812.64 
-2504.71 -1189.85 5812.08 
-2506.15 -1189.74 5812.36 
-2503.21 -1189.95 5811.77 
-2501.56 -1190.17 5811.5 
-2500.13 -1190.02 5811.06 
-2498.58 -1189.96 5810.67 
-2497.11 -1190.72 5810.76 
-2496.32 -1190.56 5810.61 
-2494.94 -1191.11 5810.65 
-2494.64 -1190.79 5810.54 
-2488.91 -1193.44 5810.82 
-2487.36 -1194.19 5810.91 
-2490.67 -1192.57 5810.72 
-2493.29 -1191.74 5810.7 
-2491.59 -1192.57 5810.79 
-2388.79 -1038.81 5744.47 
-2389.24 -1038.48 5744.42 
-2389.54 -1038.49 5744.46 
-2389.88 -1038.21 5744.41 
-2390.26 -1037.88 5744.34 
-2388.27 -1039.02 5744.48 
-2390.42 -1037.46 5744.22 
-2390.85 -1037.24 5744.21 
-2390.79 -1036.28 5744.08 
-2391.03 -1036.36 5744.14 
-2391.45 -1036.61 5744.19 
-2392.3 -1037.8 5744.46 
-2391.48 -1037.32 5744.3 
-2391.12 -1037.04 5744.25 
-2393.87 -1038.78 5744.91 
-2394.8 -1039.46 5745.21 
-2395.08 -1039.67 5745.31 
-2394.38 -1039.57 5745.17 
-2394.36 -1039.63 5745.18 
-2393.6 -1039.53 5745.04 
-2392.88 -1039.43 5744.89 
-2391.88 -1039.29 5744.69 
-2391.73 -1039.41 5744.71 
-2391.62 -1039.32 5744.66 
-2391.71 -1039.48 5744.73 
-2391.68 -1039.54 5744.74 
-2391.66 -1039.61 5744.76 
-2391.65 -1039.68 5744.78 
-2391.54 -1039.69 5744.77 
-2390.06 -1040.36 5744.8 
-2390.47 -1039.92 5744.72 
-2390.46 -1040.01 5744.74 
-2391.38 -1039.66 5744.73 
-2391.32 -1039.73 5744.74 
-2391.2 -1039.76 5744.73 
-2391.02 -1039.73 5744.7 
-2390.94 -1039.79 5744.71 
-2390.97 -1039.9 5744.75 
-2390.66 -1039.74 5744.68 
-2390.48 -1039.74 5744.67 
-2390.57 -1039.88 5744.72 
-2390.14 -1039.87 5744.69 
-2390.11 -1039.97 5744.72 
-2389.92 -1040 5744.71 
-2390.09 -1040.18 5744.77 
-2389.72 -1040.01 5744.69 
-2389.89 -1040.18 5744.74 
-2389.19 -1039.65 5744.55 
-2389.54 -1039.83 5744.63 
-2389.36 -1039.66 5744.57 
-2388.85 -1039.34 5744.44 
-2389.05 -1039.45 5744.49 
-2388.65 -1039.23 5744.39 
-2388.42 -1039.1 5744.34 
-2388.34 -1039.17 5744.4 
-2388.24 -1039.02 5744.38 
-2388.16 -1039.03 5744.43 
-2524.27 -1260.47 5840.88 
-2524.92 -1258.68 5840.08 
-2522.23 -1269.78 5849.11 
-2522.71 -1272.26 5852.53 
-2522.61 -1269.55 5848.83 
-2523.45 -1274.18 5854.27 
-2524.27 -1275.76 5855.87 
-2527.88 -1284.06 5862.21 
-2529.62 -1287.64 5865.81 
-2529.66 -1289.88 5868.49 
-2532.71 -1294.41 5873.64 
-2531.09 -1294.79 5874.46 
-2530.61 -1295.49 5875.66 
-2526.18 -1291.34 5871.34 
-2523.62 -1288.21 5868.04 
-2526.67 -1280.3 5859.22 
-2528.44 -1283.54 5861.27 
-2529.13 -1283.07 5860.77 
-2519.17 -1282.2 5862.07 
-2521.14 -1285.39 5865.07 
-2507.2 -1272.27 5856.09 
-2512.56 -1277.25 5860.11 
-2517.25 -1280.78 5862.02 
-2523.97 -1262.62 5842.82 
-2523.54 -1266.93 5846.55 
-2523.16 -1268 5847.27 
-2522.97 -1269.42 5848.75 
-2477.61 -1202.31 5811.34 
-2477.52 -1203.05 5811.7 
-2476.84 -1204.07 5813.29 
-2476.96 -1204.56 5813.97 
-2477.06 -1206.31 5815.89 
-2474.39 -1204.42 5812.97 
-2473.97 -1203.95 5812.95 
-2474.52 -1205.22 5813.58 
-2471.55 -1203.48 5811.8 
-2471.15 -1204.36 5811.6 
-2470.72 -1204.33 5811.05 
-2473.73 -1204.58 5812.61 
-2470.47 -1203.72 5810.8 
-2476.47 -1210.06 5819.63 
-2474.37 -1211.99 5820.66 
-2477.88 -1207.65 5817.81 
-2476.55 -1216.64 5829.53 
-2481.11 -1219.54 5831.95 
-2484.04 -1222.49 5828.3 
-2474.4 -1214.91 5825.27 
-2493.71 -1242.23 5837.58 
-2493.72 -1242.6 5836.64 
-2490.16 -1237.69 5835.15 
-2492.35 -1241.6 5838.43 
-2487.07 -1230.08 5831.42 
-2484.61 -1223.94 5829.04 
-2495.58 -1245.88 5838.66 
-2497.43 -1250.47 5840.96 
-2500.33 -1258.01 5846.65 
-2502.11 -1264.33 5850.2 
-2503.26 -1268.87 5853.61 
-2503.59 -1269.14 5853.65 
-2503.81 -1270.8 5854.87 
-2503.54 -1270.03 5854.44 
-2504.3 -1271.1 5855.05 
-2504.81 -1271.42 5855.14 
-2507.69 -1273.07 5857.01 
-2526.19 -1257.77 5840.46 
-2521.65 -1249.59 5834.2 
-2524.27 -1252.98 5837.3 
-2526.62 -1254.98 5839.72 
-2520.55 -1229.47 5824.53 
-2522.68 -1232.87 5829.37 
-2520.13 -1239.73 5828.7 
-2520.72 -1248.31 5832.6 
-2522.29 -1242.58 5832.82 
-2522.14 -1246.35 5834.14 
-2527.35 -1256.39 5841.02 
-2522.41 -1226.53 5825.72 
-2525.24 -1217.77 5825.37 
-2525.68 -1221.41 5828.89 
-2524.89 -1222.09 5827.82 
-2525.25 -1226.67 5830.41 
-2523.85 -1212.2 5824.66 
-2526.02 -1216.39 5826.28 
-2480.67 -1143.91 5761.85 
-2480.34 -1144.09 5762.08 
-2479.62 -1145.03 5762.81 
-2479.44 -1145.09 5762.91 
-2479.77 -1144.74 5762.69 
-2479.95 -1144.33 5762.48 
-2480.16 -1144.18 5762.35 
-2480.4 -1143.68 5762.04 
-2481.18 -1143.05 5761.19 
-2481.47 -1142.76 5761.05 
-2481.43 -1142.59 5761.19 
-2481.09 -1143.38 5761.52 
-2477.49 -1201.78 5811.5 
-2477.62 -1201.71 5811.44 
-2477.48 -1202.16 5811.43 
-2486.17 -1195.1 5811.07 
-2484.53 -1196.1 5811.22 
-2483.05 -1197.02 5811.36 
-2481.4 -1197.93 5811.48 
-2480.11 -1198.74 5811.6 
-2479.56 -1199.4 5811.74 
-2478.14 -1200.24 5811.86 
-2477.01 -1201.1 5812.01 
-2476.62 -1201.13 5811.95 
-2477.11 -1201.44 5811.93 
-2477.39 -1201.46 5811.84 
-2477.43 -1201.66 5811.68 
-2527.09 -1215.74 5831.47 
-2526.2 -1214.36 5827.93 
-2527.94 -1219.8 5832.99 
-2528.18 -1220.22 5834.03 
-2518.47 -1194.96 5821.48 
-2520.35 -1198.31 5826.76 
-2518.45 -1194.76 5821.55 
-2517.69 -1193.14 5819.85 
-2517.1 -1192.05 5818.89 
-2523.58 -1206.44 5832.33 
-2515.97 -1190.34 5817.38 
-2515.71 -1190.53 5817.69 
-2513.08 -1190.52 5816.26 
-2511.7 -1190.85 5815.91 
-2509.97 -1191.01 5815.01 
-2528.97 -1220.5 5841.89 
-2527.1 -1216.73 5838.8 
-2527.71 -1221.26 5842.03 
-2528.37 -1220.34 5835.59 
-2529.18 -1222.32 5839.03 
-2529.68 -1222.36 5840.44 
-2530.49 -1223.12 5842.51 
-2531.22 -1224.02 5844.7 
-2531.32 -1223.94 5845.8 
-2532.28 -1224.87 5849.44 
-2507.95 -1191 5813.69 
-2506.45 -1191.44 5813.53 
-2506.3 -1190.64 5812.91 
-2504.84 -1190.76 5812.63 
-2503.39 -1190.82 5812.31 
-2501.93 -1190.98 5812.05 
-2500.53 -1191.16 5811.82 
-2499.47 -1191.03 5811.48 
-2498.3 -1190.88 5811.12 
-2495.56 -1191.41 5810.8 
-2496.5 -1191.77 5811.19 
-2493.98 -1191.96 5810.81 
-2488 -1194.31 5810.99 
-2489.81 -1193.42 5810.89 
-2492.38 -1192.65 5810.88 
-2490.62 -1193.46 5810.96 
-2389.06 -1038.39 5744.37 
-2388.6 -1038.66 5744.41 
-2389.5 -1038.08 5744.32 
-2389.61 -1038.22 5744.38 
-2389.96 -1037.87 5744.3 
-2388.09 -1038.82 5744.39 
-2390.21 -1036.3 5744.04 
-2389.91 -1037.65 5744.23 
-2390.1 -1037.13 5744.13 
-2389.73 -1035.99 5743.97 
-2390.06 -1035.48 5743.95 
-2390.57 -1036.11 5744.1 
-2390.76 -1036.76 5744.2 
-2392.12 -1038 5744.46 
-2391.17 -1037.42 5744.3 
-2391.33 -1037.72 5744.34 
-2390.37 -1036.92 5744.21 
-2390.69 -1037.23 5744.26 
-2392.07 -1038.27 5744.51 
-2393.87 -1039.28 5745.01 
-2393.54 -1039.45 5745 
-2393.37 -1039.32 5744.94 
-2392.76 -1039.35 5744.85 
-2391.76 -1039.2 5744.65 
-2391.51 -1039.24 5744.62 
-2391.59 -1039.39 5744.68 
-2391.48 -1039.3 5744.64 
-2391.57 -1039.46 5744.7 
-2391.55 -1039.54 5744.72 
-2391.5 -1039.59 5744.73 
-2390.22 -1039.7 5744.65 
-2390.08 -1039.72 5744.65 
-2391.27 -1039.55 5744.68 
-2391.2 -1039.61 5744.69 
-2391.1 -1039.67 5744.69 
-2390.83 -1039.55 5744.64 
-2390.7 -1039.58 5744.64 
-2390.5 -1039.56 5744.63 
-2390.31 -1039.56 5744.62 
-2390.09 -1039.53 5744.6 
-2389.77 -1039.63 5744.61 
-2389.85 -1039.77 5744.65 
-2389.71 -1039.8 5744.65 
-2389.21 -1039.46 5744.52 
-2389.51 -1039.6 5744.59 
-2388.98 -1039.26 5744.45 
-2388.78 -1039.13 5744.4 
-2388.55 -1039.02 5744.34 
-2388.31 -1038.92 5744.3 
-2388.22 -1038.74 5744.26 
-2388.13 -1038.8 5744.32 
-2524.95 -1260.84 5841.68 
-2526.21 -1258.89 5841.18 
-2523.39 -1271.85 5852.21 
-2524.1 -1273.24 5853.83 
-2524.75 -1274.81 5855.3 
-2528.14 -1279.25 5858.6 
-2527.48 -1279.99 5859.09 
-2530.9 -1286.54 5864.61 
-2530.76 -1287.5 5865.68 
-2535.41 -1293.06 5871.59 
-2534.38 -1293.7 5872.55 
-2537.51 -1298.36 5877.51 
-2536.78 -1299.76 5879.16 
-2535.62 -1300.41 5880.45 
-2530.26 -1296.33 5876.88 
-2534.63 -1300.59 5881.19 
-2525.74 -1291.68 5872.31 
-2522.96 -1288.48 5868.94 
-2531.41 -1286.06 5864.2 
-2530.44 -1282.2 5860.48 
-2531.83 -1285.04 5863.29 
-2520.21 -1285.1 5865.29 
-2520.8 -1285.67 5865.64 
-2513.94 -1278.8 5861.63 
-2517.54 -1280.95 5863.02 
-2520.05 -1285.17 5865.98 
-2524.62 -1262.76 5843.38 
-2524.1 -1266.91 5847.02 
-2524.25 -1270.46 5851.27 
-2525.54 -1269.97 5852.02 
-2524.04 -1271.47 5852.12 
-2477.53 -1203.38 5812.97 
-2477.03 -1203.83 5813.29 
-2482.22 -1203.5 5815.77 
-2480.45 -1204.23 5815.54 
-2478.81 -1205.5 5816 
-2473.15 -1203.3 5811.86 
-2473.23 -1203.06 5812.36 
-2471.73 -1202.89 5811.82 
-2470.76 -1202.97 5810.88 
-2470.73 -1203.95 5810.81 
-2470.37 -1203.39 5810.44 
-2473.51 -1204.13 5812.23 
-2470.58 -1203.13 5810.52 
-2479 -1208.77 5819.65 
-2478.8 -1210.78 5822.1 
-2476.35 -1212.63 5823.15 
-2480 -1206.23 5817.45 
-2481.07 -1207.34 5819.26 
-2481.69 -1220.3 5832.66 
-2477.7 -1217.54 5832 
-2482.09 -1220.91 5833.4 
-2476.02 -1215.89 5828.26 
-2491.48 -1240.73 5839.18 
-2489.25 -1236.49 5835.56 
-2494.57 -1245.52 5840.75 
-2486.57 -1229.11 5831.86 
-2484.74 -1224.66 5830.74 
-2496.84 -1249.67 5841.46 
-2500.61 -1258.41 5847.66 
-2502.09 -1264.35 5850.62 
-2503.05 -1268.9 5853.84 
-2503.33 -1269.45 5854.23 
-2503.6 -1271.09 5855.4 
-2503.99 -1271.64 5855.64 
-2503.4 -1270.35 5855.06 
-2504.39 -1271.81 5855.45 
-2506.58 -1272.7 5857.14 
-2507.12 -1272.92 5857.08 
-2527.47 -1258.13 5841.69 
-2528.21 -1257.79 5842.26 
-2522.1 -1249.11 5834.22 
-2524.78 -1252.46 5837.55 
-2527.95 -1254.03 5840.49 
-2528.57 -1255.69 5841.46 
-2524.98 -1229.69 5830.73 
-2525.12 -1236.65 5834.24 
-2520.73 -1242.47 5830.87 
-2525.06 -1241.29 5835.6 
-2523.7 -1247.01 5836.14 
-2529.46 -1256.66 5842.9 
-2527.01 -1220.23 5830.3 
-2526.41 -1220.59 5829.4 
-2526.74 -1224.65 5833.48 
-2526.2 -1225.77 5832.29 
-2527.06 -1230.78 5835.72 
-2527.49 -1220.33 5831.82 
-2480.86 -1144 5761.73 
-2480.36 -1144.81 5762.26 
-2479.91 -1145.13 5762.72 
-2479.74 -1145.13 5762.79 
-2479.98 -1144.69 5762.59 
-2480.56 -1143.84 5762 
-2480.25 -1144.36 5762.37 
-2481.32 -1143.28 5761.21 
-2481.57 -1142.8 5761.12 
-2481.25 -1143.49 5761.42 
-2477.26 -1201.94 5811.64 
-2477.37 -1202.14 5811.57 
-2487.23 -1195.09 5811.15 
-2485.87 -1195.72 5811.22 
-2484.69 -1196.53 5811.35 
-2483.7 -1197.26 5811.47 
-2482.39 -1197.77 5811.51 
-2481.22 -1198.58 5811.64 
-2480.76 -1199.23 5811.79 
-2479.25 -1200 5811.88 
-2478.24 -1200.82 5812.03 
-2477.17 -1201.72 5812.29 
-2476.91 -1201.72 5812.06 
-2477.09 -1201.77 5811.93 
-2477.21 -1201.79 5811.79 
-2528.38 -1220.72 5835.22 
-2527.66 -1221.45 5833.96 
-2528.07 -1223.38 5836.66 
-2528.6 -1222.64 5837.83 
-2520.3 -1198.09 5826.72 
-2523.52 -1206.21 5832.22 
-2518.4 -1194.5 5821.57 
-2520.22 -1197.81 5826.6 
-2517.48 -1192.64 5819.75 
-2517.06 -1191.82 5818.99 
-2526.39 -1214.05 5837.15 
-2515.46 -1190.83 5818 
-2511.35 -1191.24 5816.4 
-2509.98 -1191.69 5816.3 
-2508.39 -1191.56 5814.95 
-2530.97 -1223.27 5847.56 
-2526.32 -1221.57 5841.86 
-2525.49 -1218.13 5839.67 
-2531.38 -1223.91 5849.75 
-2528.8 -1224.21 5847.14 
-2531.14 -1224.53 5842.97 
-2530.25 -1224.18 5840.89 
-2533.09 -1227.16 5847.65 
-2534.21 -1228.23 5852 
-2534.35 -1228.01 5853.66 
-2534.67 -1228.12 5855.41 
-2535 -1228.2 5857.41 
-2504.87 -1191.73 5813.21 
-2506.31 -1192.05 5814.41 
-2503.41 -1191.7 5812.82 
-2501.96 -1191.86 5812.56 
-2500.41 -1192.03 5812.28 
-2498.98 -1192.09 5811.97 
-2497.72 -1191.92 5811.57 
-2494.81 -1192.27 5811.07 
-2495.93 -1192.79 5811.64 
-2493.2 -1192.82 5811.02 
-2488.89 -1194.29 5811.06 
-2491.47 -1193.5 5811.04 
-2489.73 -1194.31 5811.13 
-2388.84 -1038.31 5744.32 
-2389.23 -1038.09 5744.29 
-2388.39 -1038.54 5744.34 
-2389.51 -1037.78 5744.22 
-2388.08 -1038.52 5744.3 
-2388.03 -1038.59 5744.27 
-2389.3 -1034.73 5743.82 
-2389.73 -1037.3 5744.12 
-2388.79 -1035.41 5743.9 
-2388.75 -1034.91 5743.87 
-2388.56 -1034.11 5743.84 
-2390.15 -1036.07 5744.08 
-2390.39 -1036.62 5744.17 
-2390.87 -1037.57 5744.31 
-2390.87 -1037.84 5744.35 
-2391.2 -1038.06 5744.39 
-2389.99 -1036.63 5744.16 
-2389.74 -1036.95 5744.19 
-2390.16 -1037.19 5744.24 
-2390.39 -1037.54 5744.29 
-2391.9 -1038.5 5744.52 
-2392.7 -1039.28 5744.82 
-2391.89 -1038.84 5744.59 
-2391.64 -1039.11 5744.6 
-2391.4 -1039.15 5744.58 
-2391.36 -1039.21 5744.59 
-2391.44 -1039.37 5744.65 
-2391.33 -1039.27 5744.6 
-2391.46 -1039.46 5744.68 
-2391.41 -1039.51 5744.69 
-2389.86 -1039.49 5744.58 
-2389.68 -1039.49 5744.57 
-2391.02 -1039.47 5744.63 
-2391.29 -1039.45 5744.65 
-2391.1 -1039.41 5744.62 
-2390.96 -1039.53 5744.64 
-2390.68 -1039.38 5744.59 
-2390.56 -1039.4 5744.59 
-2390.42 -1039.41 5744.58 
-2390.15 -1039.32 5744.55 
-2390.1 -1039.39 5744.56 
-2389.88 -1039.34 5744.54 
-2389.63 -1039.29 5744.51 
-2389.37 -1039.42 5744.53 
-2389.18 -1039.24 5744.47 
-2388.97 -1039.07 5744.41 
-2388.66 -1038.92 5744.34 
-2388.41 -1038.81 5744.29 
-2388.12 -1038.56 5744.21 
-2388.27 -1038.54 5744.22 
-2526.23 -1261.46 5843.27 
-2527.77 -1260.04 5843.22 
-2524.7 -1272.26 5853.37 
-2524.59 -1274.06 5854.76 
-2526.85 -1275.89 5856.47 
-2529.08 -1278.95 5858.68 
-2531.41 -1280.26 5859.7 
-2536.55 -1291.78 5870.28 
-2540.08 -1295.75 5874.6 
-2538.7 -1296.97 5875.96 
-2542.64 -1301.72 5880.66 
-2541.99 -1302.59 5881.67 
-2538.42 -1302.45 5882.12 
-2539.91 -1304.8 5884.99 
-2539.37 -1305.55 5886.22 
-2530.24 -1297.1 5878.25 
-2534.16 -1301.02 5882.1 
-2538.91 -1305.82 5886.88 
-2525.89 -1292.54 5873.94 
-2522.31 -1288.47 5869.65 
-2537.87 -1291.17 5869.99 
-2532.56 -1284.39 5862.84 
-2532.18 -1282.15 5860.95 
-2538.94 -1290.26 5869.34 
-2513.39 -1278.52 5862 
-2517.33 -1280.62 5863.99 
-2519.82 -1285 5866.54 
-2521.86 -1289.01 5870.88 
-2524.81 -1265.56 5846.5 
-2525.87 -1268.68 5851.06 
-2525.15 -1270.97 5852.61 
-2526.75 -1270.63 5853.8 
-2527.34 -1269.27 5853.12 
-2525.48 -1271.6 5853.36 
-2477.43 -1203.22 5812.93 
-2484.03 -1202.87 5816.12 
-2484.64 -1204.83 5818.52 
-2482.32 -1205.31 5817.74 
-2472.14 -1202.16 5811.24 
-2471.26 -1201.85 5810.23 
-2472.76 -1203.12 5811.41 
-2471.81 -1202.29 5811.74 
-2471.58 -1201.64 5811.12 
-2470.99 -1202.31 5810.93 
-2470.7 -1202.51 5810.31 
-2470.78 -1203.55 5810.58 
-2470.31 -1203.04 5810.19 
-2472.85 -1203.38 5811.49 
-2481.29 -1209.26 5821.67 
-2481.22 -1211.79 5825.72 
-2478.29 -1213.64 5826.42 
-2483.42 -1206.85 5820.02 
-2479.22 -1218.69 5835.22 
-2482.49 -1221.58 5834.03 
-2477.61 -1217.12 5831.62 
-2489.48 -1237.24 5837.5 
-2492.84 -1243.25 5842.74 
-2496.12 -1249.11 5844.39 
-2487.17 -1231.36 5833.78 
-2497.47 -1251.41 5843.99 
-2485.79 -1227.72 5833.24 
-2500.7 -1258.21 5848.31 
-2502.05 -1263.78 5851.41 
-2502.18 -1265.26 5851.74 
-2502.93 -1269.01 5854.19 
-2503.23 -1269.63 5854.84 
-2503.99 -1271.54 5856.5 
-2503.72 -1270.93 5856.09 
-2504.36 -1271.96 5856.51 
-2504.48 -1272.17 5856.03 
-2503.67 -1270.33 5856.05 
-2505.58 -1272.07 5857.02 
-2507.98 -1273.37 5858.71 
-2513.28 -1278.71 5862.75 
-2528.79 -1258.78 5843.84 
-2530.29 -1257.25 5844.27 
-2524.75 -1247.96 5837.33 
-2525.38 -1251.58 5838.1 
-2529.88 -1248.58 5842.04 
-2531.21 -1252.77 5843.3 
-2531.84 -1254.15 5844.4 
-2526.22 -1234.43 5835.25 
-2528.05 -1239.07 5837.3 
-2529.34 -1238.48 5838 
-2529.75 -1243.39 5840.75 
-2532.55 -1255.68 5846.03 
-2527.62 -1225.18 5835.73 
-2527.56 -1228.07 5836.4 
-2529.02 -1229.25 5838.68 
-2528.76 -1231.98 5838.53 
-2527.51 -1233.77 5837.11 
-2481.09 -1143.98 5761.58 
-2480.66 -1144.73 5762.05 
-2479.93 -1145.79 5763.19 
-2479.74 -1145.83 5763.31 
-2479.83 -1145.36 5762.92 
-2480.09 -1144.81 5762.58 
-2480.52 -1144.1 5762.17 
-2480.35 -1144.51 5762.38 
-2481.67 -1143.01 5761.07 
-2481.51 -1143.42 5761.13 
-2480.66 -1144.2 5762.1 
-2481.37 -1143.7 5761.37 
-2477.4 -1202.7 5812.66 
-2477.39 -1202.96 5812.77 
-2487.98 -1195.18 5811.23 
-2486.28 -1196.03 5811.33 
-2484.8 -1197.03 5811.5 
-2482.78 -1198.03 5811.62 
-2482.26 -1198.68 5811.76 
-2479.93 -1200.1 5811.98 
-2481.42 -1199.49 5811.97 
-2479.45 -1201.26 5812.9 
-2479.7 -1200.84 5812.44 
-2477.55 -1202.03 5812.56 
-2482.52 -1201.09 5814.18 
-2477.31 -1202.27 5812.5 
-2477.38 -1202.47 5812.57 
-2528.5 -1225.16 5837.2 
-2529.32 -1224.24 5839.35 
-2523.43 -1205.91 5832.07 
-2526.02 -1214.23 5837.29 
-2518.34 -1194.23 5821.56 
-2520.08 -1197.37 5826.37 
-2523.08 -1204.94 5831.49 
-2517.35 -1192.23 5819.66 
-2515.53 -1190.96 5818.36 
-2507.77 -1192.23 5815.76 
-2511.01 -1191.78 5817.19 
-2515.67 -1191.09 5818.7 
-2535.55 -1228.63 5859.92 
-2525.35 -1222.91 5842.64 
-2523.6 -1222.46 5841.92 
-2523.74 -1218.17 5839.68 
-2532.37 -1224.99 5853.13 
-2530.22 -1225.66 5851.76 
-2527.8 -1225.74 5848.3 
-2532.47 -1228.15 5845.32 
-2534.39 -1230.4 5849.9 
-2531.52 -1227.39 5843.04 
-2538.53 -1235.16 5858.51 
-2537.6 -1232.52 5862.57 
-2539.05 -1235.11 5862.08 
-2536.92 -1231.07 5863.13 
-2537.26 -1231.22 5864.85 
-2537.8 -1231.59 5867.29 
-2503.74 -1192.47 5813.51 
-2505.38 -1192.6 5814.79 
-2502.14 -1192.79 5813.19 
-2500.54 -1192.77 5812.74 
-2498.84 -1193.05 5812.49 
-2497.43 -1192.87 5812.04 
-2494.27 -1193.16 5811.45 
-2495.9 -1193.66 5812.13 
-2494.47 -1193.95 5811.95 
-2492.3 -1193.75 5811.31 
-2490.62 -1194.44 5811.3 
-2489.02 -1195.17 5811.35 
-2388.67 -1038.19 5744.26 
-2389.08 -1037.98 5744.24 
-2388.39 -1038.19 5744.23 
-2389.36 -1037.58 5744.14 
-2387.93 -1038.37 5744.22 
-2388.19 -1038.13 5744.19 
-2388.04 -1038.36 5744.16 
-2389.84 -1036.14 5744.05 
-2389.17 -1035.02 5743.88 
-2388.57 -1035.95 5743.95 
-2388.55 -1035.49 5743.93 
-2387.65 -1034.45 5744.7 
-2387.74 -1034.12 5744.64 
-2387.89 -1033.78 5744.5 
-2388.51 -1034.46 5743.9 
-2387.96 -1033.41 5744.51 
-2390.38 -1037.93 5744.34 
-2390.66 -1038.18 5744.38 
-2390.94 -1038.07 5744.38 
-2391.07 -1038.33 5744.42 
-2389.58 -1036.56 5744.14 
-2389.9 -1037.45 5744.26 
-2389.65 -1037.45 5744.23 
-2389.32 -1036.81 5744.15 
-2389.43 -1037.22 5744.19 
-2390.09 -1037.9 5744.31 
-2391.46 -1038.96 5744.54 
-2390.96 -1038.76 5744.46 
-2391.25 -1039.05 5744.53 
-2391.14 -1039.06 5744.53 
-2391.12 -1039.13 5744.54 
-2391.34 -1039.41 5744.65 
-2391.29 -1039.33 5744.62 
-2391.07 -1039.18 5744.55 
-2389.46 -1039.29 5744.51 
-2390.73 -1039.23 5744.55 
-2390.59 -1039.25 5744.55 
-2391.17 -1039.36 5744.61 
-2390.8 -1039.18 5744.54 
-2390.4 -1039.21 5744.53 
-2390.31 -1039.24 5744.53 
-2390.11 -1039.2 5744.52 
-2389.82 -1039.08 5744.47 
-2389.8 -1039.18 5744.49 
-2389.58 -1039.12 5744.47 
-2389.22 -1039.09 5744.44 
-2389.37 -1039.08 5744.44 
-2388.84 -1038.9 5744.36 
-2388.66 -1038.72 5744.31 
-2388.47 -1038.71 5744.28 
-2388.27 -1038.34 5744.19 
-2388.47 -1038.52 5744.25 
-2526.83 -1263.7 5847.12 
-2528.81 -1261.95 5846.81 
-2529.75 -1261.02 5847.04 
-2525.66 -1273.13 5854.3 
-2527.24 -1274.52 5855.88 
-2530.54 -1277.98 5858.39 
-2533.14 -1280.41 5860.26 
-2542.26 -1296.87 5875.8 
-2543.83 -1300.59 5879.34 
-2547.38 -1304.36 5882.9 
-2546.73 -1305.31 5883.75 
-2541.22 -1303.63 5883.17 
-2546.05 -1306.07 5884.77 
-2542.98 -1304.61 5884.65 
-2541.61 -1306.9 5887.65 
-2544.94 -1307.04 5886.34 
-2544.02 -1309.39 5889.7 
-2533.92 -1301.88 5883.32 
-2529.62 -1297.45 5879.27 
-2538.36 -1306.06 5887.45 
-2543.52 -1309.81 5890.47 
-2525.58 -1293.17 5875.24 
-2543.41 -1295.39 5874.51 
-2536.38 -1285.83 5865.08 
-2536.3 -1283.79 5863.57 
-2542.96 -1290.49 5870.74 
-2545 -1294.09 5873.96 
-2517.07 -1280.75 5864.84 
-2519.49 -1284.89 5867.04 
-2521.45 -1289.41 5872.16 
-2525.39 -1293.72 5876.63 
-2526.21 -1266.79 5850.01 
-2527.93 -1267.22 5852.01 
-2528.41 -1269.69 5854.38 
-2527.46 -1272.11 5854.53 
-2528.49 -1271.06 5854.87 
-2530.02 -1267.54 5853.52 
-2530.51 -1265.46 5853.01 
-2482.52 -1202.43 5815.05 
-2486.48 -1202.2 5816.74 
-2486.82 -1203.77 5818.6 
-2485.9 -1206.31 5820.84 
-2471.22 -1201.37 5810.45 
-2471.04 -1201.79 5810.54 
-2471.04 -1201.84 5809.94 
-2470.5 -1202.39 5809.97 
-2470.73 -1203.24 5810.35 
-2470.29 -1202.52 5809.86 
-2470.9 -1202.83 5810.21 
-2470.9 -1201.86 5809.81 
-2483.74 -1208.9 5822.98 
-2484.04 -1211.55 5827.65 
-2481.97 -1213.71 5829.56 
-2479.55 -1215.13 5829.96 
-2482.52 -1221.91 5836.76 
-2483.2 -1222.61 5834.59 
-2479.12 -1218.35 5834.91 
-2493.11 -1243.57 5844.44 
-2488.64 -1235.38 5838.19 
-2496.84 -1251.05 5846.74 
-2500.56 -1258.01 5848.97 
-2486.13 -1229.07 5835.64 
-2502.26 -1264 5852.11 
-2502.71 -1268.72 5854.22 
-2503.16 -1269.09 5855.08 
-2503.62 -1269.76 5856.08 
-2503.95 -1271.12 5857.01 
-2505.33 -1271.86 5858.45 
-2505.53 -1271.99 5858.08 
-2505.51 -1271.99 5857.49 
-2503.95 -1270.55 5857.1 
-2507.92 -1273.28 5859.39 
-2512.69 -1278.33 5863.21 
-2516.62 -1280.93 5865.54 
-2531.05 -1260.22 5848.03 
-2532.75 -1259.08 5849.27 
-2534.47 -1257.73 5850.42 
-2528.12 -1249.69 5840.56 
-2532.93 -1248.13 5844.52 
-2534.54 -1251.6 5846.77 
-2534.71 -1253.33 5847.66 
-2532.65 -1243.14 5842.5 
-2530.26 -1238.04 5838.73 
-2534.03 -1245.53 5844.72 
-2536.31 -1256.68 5852.07 
-2528.85 -1227.06 5838.06 
-2530.75 -1229.1 5841.35 
-2530.61 -1232.4 5840.53 
-2531.38 -1237 5841.3 
-2530.6 -1237.35 5839.65 
-2480.96 -1144.67 5761.87 
-2480.13 -1145.82 5763.13 
-2480.02 -1145.3 5762.81 
-2480.26 -1144.84 5762.53 
-2480.43 -1144.72 5762.42 
-2481.79 -1143.19 5761.02 
-2481.66 -1143.57 5761.09 
-2480.77 -1144.38 5762.11 
-2481.5 -1143.82 5761.3 
-2483.09 -1202 5815.01 
-2487.48 -1195.95 5811.43 
-2486.05 -1196.68 5811.51 
-2485.42 -1197.52 5811.81 
-2483.9 -1197.91 5811.69 
-2483.06 -1198.94 5812.05 
-2481.16 -1200.33 5812.5 
-2482.7 -1199.85 5812.66 
-2483.37 -1200.49 5814.11 
-2483.71 -1200.09 5813.73 
-2481.86 -1201.55 5814.2 
-2487.73 -1200.07 5815.76 
-2486.2 -1200.69 5815.5 
-2482.7 -1201.7 5814.66 
-2530.28 -1226.91 5840.9 
-2525.52 -1212.43 5836.2 
-2524.18 -1216.05 5838.41 
-2518.39 -1194.17 5821.8 
-2517.57 -1192.57 5820.15 
-2520.14 -1197.38 5826.57 
-2522.74 -1204.01 5830.94 
-2524.93 -1211.38 5835.57 
-2515.92 -1191.19 5819.11 
-2509.97 -1192.16 5817.18 
-2506.4 -1192.85 5815.97 
-2517.55 -1192.36 5820.28 
