-2045 -408.02 5058.06 
-2045.29 -407.562 5058.4 
-2045.84 -407.155 5058.61 
-2046.25 -406.684 5058.93 
-2046.48 -406.225 5059.28 
-2044.84 -411.147 5052.84 
-2044.76 -411.237 5053.38 
-2045.01 -411.645 5053.83 
-2045.51 -413.144 5054.45 
-2044.9 -412.162 5054.19 
-2045.31 -413.569 5054.8 
-2045.12 -413.969 5055.13 
-2002.14 -368.725 5084.7 
-1996.89 -364.899 5088.14 
-1992.98 -361.81 5090.8 
-1991.95 -358.934 5091.92 
-1989 -355.209 5094.22 
-1985.02 -351.74 5096.99 
-2045.66 -405.55 5060.24 
-2045.55 -403.175 5065.21 
-2045.85 -402.63 5066.51 
-2046 -401.152 5069.42 
-2045.31 -404.244 5063.07 
-2044.67 -396.118 5075.25 
-2044.37 -395.157 5076.07 
-2044.18 -394.157 5075.72 
-2044.15 -394.519 5076.19 
-2040.91 -390.625 5078.53 
-2043.43 -393.156 5076.39 
-2037.84 -388.029 5081.38 
-2033.54 -384.595 5084.36 
-2032.73 -383.854 5084.57 
-2029.96 -384.235 5083.99 
-2027.51 -384.494 5083.02 
-2024.91 -383.309 5081.74 
-2022.31 -381.782 5080.46 
-2020.49 -382.155 5079.19 
-2017.62 -380.392 5077.79 
-2014.29 -378.422 5077.12 
-2007.68 -373.632 5081.01 
-2039.03 -411.127 5053.45 
-2039.05 -411.289 5053.68 
-2042.8 -411.055 5052.48 
-2032.65 -410.862 5057.89 
-2029.75 -409.919 5059.67 
-2018.94 -403.899 5065.67 
-2026.21 -408.8 5062.5 
-2021.52 -406.028 5065.03 
-2009.21 -399.186 5071.43 
-1997.38 -393.742 5076.79 
-1989.61 -389.502 5080.48 
-1973.6 -376.952 5090.62 
-1971.96 -373.914 5088.99 
-1980.33 -383.117 5087.42 
-1965.21 -368.339 5092.32 
-1956.83 -361.493 5095.78 
-1953.34 -357.915 5096.22 
-1947.09 -354.002 5098.57 
-1940.42 -348.783 5100.56 
-1930.68 -340.808 5103 
-1924.14 -334.776 5104.29 
-1919.28 -327.932 5104.55 
-1917.44 -325.732 5104.77 
-1917.26 -327.206 5105.69 
-1912.21 -290.299 5124.52 
-1910.69 -290.893 5123.01 
-1907.95 -289.268 5123.33 
-1908.3 -290.854 5121.86 
-1911.05 -288.54 5126.06 
-1910.14 -293.972 5127.73 
-1909.86 -292.122 5127.74 
-1908.53 -288.103 5126.93 
-1912.54 -295.716 5116.6 
-1907.22 -291.911 5120.31 
-1906.9 -290.694 5121.45 
-1907.32 -292.985 5118.99 
-1950.48 -325.607 5113.77 
-1941.17 -319.694 5116.97 
-1932.6 -313.485 5119.9 
-1932.83 -311.97 5119.75 
-1924.22 -305.622 5122.68 
-1915.08 -299.127 5125.83 
-1909.96 -297.324 5127.98 
-1910.15 -295.6 5127.81 
-1971.54 -340.779 5106 
-1977.47 -344.692 5102.39 
-1959.51 -331.709 5110.67 
-1963.09 -334.881 5109.39 
-1982.16 -350.803 5098.67 
-1978.78 -347.309 5101.14 
-1899.7 -307.809 5110.46 
-1896 -302.857 5112.8 
-1895.8 -303.082 5112.96 
-1893.78 -301.171 5114.53 
-1891.63 -299.446 5115.85 
-1889.23 -295.765 5117.6 
-1889.82 -293.547 5117.87 
-1909.79 -319.892 5107.12 
-1907.13 -317.376 5107.75 
-1905.51 -314.958 5108.09 
-1901.26 -310.498 5109.68 
-1899.24 -308.12 5110.78 
-1890.32 -292.558 5117.89 
-1891.19 -292.736 5117.5 
-1891.89 -292.496 5117.28 
-1892.54 -292.477 5117.31 
-1893.56 -292.173 5117.38 
-1897.17 -291.008 5118.22 
-1900.35 -290.398 5119.2 
-1902.14 -290.304 5119.71 
-1903.96 -291.394 5119.39 
-1898.23 -290.401 5118.9 
-1905.26 -291.339 5119.96 
-1894.43 -291.031 5117.99 
-1893.68 -291.308 5117.86 
-1895.96 -290.916 5118.16 
-1895.37 -290.552 5118.25 
-2043.78 -412.412 5055.41 
-2043.52 -413.287 5055.61 
-2043.39 -410.917 5055.86 
-2043.56 -410.361 5056.32 
-2043.58 -409.757 5056.9 
-2043.5 -408.935 5057.99 
-2044.32 -409.084 5057.27 
-2043.02 -411.45 5055.52 
-2044.38 -413.415 5055.2 
-2043.62 -412.959 5055.34 
-2044.17 -407.33 5059.52 
-2043.66 -408.072 5059.17 
-2043.89 -407.352 5060.06 
-2044.41 -406.765 5060.09 
-2044.73 -406.647 5059.76 
-2045.16 -406.486 5059.5 
-2045.25 -405.777 5060.39 
-2043.4 -411.131 5052.98 
-2042.94 -411.205 5053.23 
-2044.01 -411.245 5053.61 
-2044.1 -411.393 5053.97 
-2044.71 -412.564 5054.53 
-2044.02 -411.637 5054.31 
-2044.51 -412.943 5054.86 
-2000.73 -369.257 5085.33 
-1995.66 -365.819 5088.59 
-1992.21 -363.462 5090.87 
-1989.23 -359.71 5093.18 
-1989.01 -357.599 5093.73 
-1985.79 -354.198 5096.09 
-2045.32 -403.132 5066.01 
-2045.65 -402.428 5067.79 
-2045.9 -401.49 5069.53 
-2044.88 -397.07 5075.08 
-2045.05 -404.193 5063.79 
-2044.46 -395.735 5076.4 
-2044.11 -395.072 5076.75 
-2042.89 -393.005 5077.21 
-2043.42 -393.929 5077.06 
-2040.64 -390.531 5079.04 
-2037.84 -388.073 5081.66 
-2033.93 -385.023 5084.35 
-2030.77 -385.144 5083.83 
-2028.44 -385.577 5082.95 
-2025.98 -385.507 5081.85 
-2023.35 -383.918 5080.58 
-2021.39 -384.1 5079.28 
-2018.46 -382.318 5077.85 
-2015.73 -380.868 5076.58 
-2010.57 -377.289 5078.9 
-2004.58 -373.206 5082.68 
-2038.72 -411.503 5054.12 
-2032.45 -411.195 5058.47 
-2041.98 -411.135 5052.74 
-2029.57 -410.217 5060.18 
-2011.89 -400.587 5070.29 
-2026.16 -409.124 5062.98 
-2021.77 -406.592 5065.52 
-2016.06 -402.838 5068.24 
-2001.74 -396.356 5075.62 
-1993.85 -392.319 5079.14 
-1988.42 -388.921 5082.16 
-1970.8 -374.323 5092.87 
-1980.57 -382.809 5088.55 
-1960.02 -365.054 5095.72 
-1956.05 -361.601 5097.08 
-1949.14 -356.143 5099.02 
-1947.28 -354.726 5099.33 
-1939.05 -348.694 5102.08 
-1939.26 -349.491 5102.67 
-1930.84 -341.69 5103.8 
-1923.95 -335.311 5105.04 
-1914.5 -325.7 5106.92 
-1911.82 -322.317 5106.95 
-1909.53 -320.825 5107.66 
-1907.33 -286.34 5125.88 
-1901.11 -281.567 5126.2 
-1904.16 -284.498 5125.74 
-1905.67 -288.438 5122.94 
-1902.41 -283.332 5125.55 
-1902.44 -283.836 5125.12 
-1900.2 -280.667 5126.38 
-1906.54 -294.857 5129.45 
-1906.7 -292.847 5129.16 
-1904.52 -287.557 5128.02 
-1900.61 -281.02 5126.62 
-1904.82 -289.959 5121.1 
-1904.97 -289.32 5121.74 
-1950.65 -327.507 5113.79 
-1941.7 -321.693 5116.86 
-1932.71 -315.402 5119.94 
-1924.34 -309.376 5122.79 
-1923.02 -306.708 5123.17 
-1915.49 -300.959 5125.75 
-1910.85 -298.95 5127.65 
-1906.75 -298.53 5129.53 
-1906.69 -296.633 5129.47 
-1973.91 -344.156 5104.46 
-1962.47 -336.022 5109.59 
-1958.6 -332.823 5111.05 
-1981.96 -352.658 5098.4 
-1978.61 -349.02 5100.88 
-1895.64 -303.29 5113.18 
-1893.61 -301.611 5114.58 
-1890.14 -299.636 5116.61 
-1884.67 -295.689 5119.83 
-1885.4 -294.596 5119.6 
-1886.2 -289.268 5119.67 
-1888.93 -291.524 5118.31 
-1889.76 -291.345 5117.99 
-1906.76 -318.055 5108.2 
-1904.18 -315.107 5108.88 
-1902.03 -312.034 5109.53 
-1898.75 -308.489 5111.17 
-1895.58 -303.694 5113.28 
-1891.07 -291.735 5117.66 
-1890.37 -290.834 5117.83 
-1891.68 -291.505 5117.57 
-1892.28 -291.461 5117.58 
-1892.71 -291.554 5117.79 
-1896.54 -290.326 5118.49 
-1897.26 -290.487 5118.55 
-1899.09 -288.677 5119.96 
-1900.61 -289.013 5120.16 
-1901.75 -288.775 5120.68 
-1903.36 -289.61 5120.72 
-1897.69 -289.174 5119.41 
-1896.81 -289.791 5118.87 
-1894.14 -290.456 5118.3 
-1893.08 -290.604 5118.17 
-1895.38 -289.822 5118.55 
-2042.84 -412.416 5055.49 
-2042.76 -409.956 5057.48 
-2042.51 -410.514 5056.95 
-2042.98 -409.347 5058.14 
-2043.18 -408.379 5059.62 
-2043.41 -407.098 5061.68 
-2042.1 -411.615 5055.81 
-2042.06 -410.493 5057.71 
-2043.71 -412.46 5055 
-2042.99 -412.08 5055.16 
-2043.97 -405.789 5063.05 
-2044.23 -405.53 5062.97 
-2043.68 -406.302 5062.68 
-2044.53 -405.091 5063.17 
-2044.82 -405.294 5062.07 
-2041.42 -411.274 5053.13 
-2042.78 -411.288 5053.56 
-2042.87 -411.367 5053.93 
-2043.86 -412.006 5054.65 
-2042.98 -411.451 5054.32 
-1998.83 -369.568 5086.25 
-1994.48 -367.096 5088.95 
-1990.79 -364.504 5091.39 
-1988.66 -361.239 5093.16 
-1985.54 -357.942 5095.46 
-1985.46 -355.924 5095.91 
-2045.44 -402.192 5068.87 
-2045.06 -403.176 5066.55 
-2045.65 -400.539 5071.73 
-2044.69 -396.743 5076.25 
-2044.79 -403.823 5065.24 
-2044.33 -395.871 5076.97 
-2043.64 -394.922 5077.5 
-2042.91 -393.762 5077.84 
-2040.15 -390.386 5079.81 
-2040.86 -391.475 5079.49 
-2037.46 -387.825 5082.29 
-2034.07 -385.397 5084.38 
-2031.34 -386.063 5083.59 
-2028.83 -386.592 5082.62 
-2026.49 -387.043 5081.67 
-2023.84 -385.875 5080.4 
-2021.59 -386.115 5078.9 
-2019.57 -384.265 5078.07 
-2016.97 -383.061 5076.71 
-2013.04 -380.62 5077.11 
-2006.71 -376.183 5081.08 
-2000.06 -371.974 5085.21 
-2037.51 -411.821 5055.28 
-2031.92 -411.437 5059.36 
-2029.52 -410.537 5060.61 
-2005.52 -398.356 5074.27 
-2026.28 -409.432 5063.25 
-2022.16 -407.055 5065.67 
-2013.97 -402.211 5070.02 
-2016.6 -403.615 5068.79 
-1994.97 -393.115 5079.5 
-1987.03 -387.52 5084.61 
-1972.33 -376.329 5094.35 
-1964.36 -368.875 5094.72 
-1978.85 -381.519 5090.87 
-1955.46 -361.673 5098.59 
-1951.33 -358.02 5098.96 
-1942.36 -352.366 5102.22 
-1940.1 -350.444 5102.74 
-1930.72 -342.707 5104.98 
-1931.17 -343.943 5105.81 
-1926.12 -338.592 5105.58 
-1923.06 -335.019 5106.03 
-1915.73 -327.554 5107.3 
-1909.05 -321.318 5108.27 
-1906.59 -318.638 5109.07 
-1904.26 -316.086 5109.46 
-1900.12 -281.021 5126.01 
-1897.84 -278.573 5125.94 
-1897.45 -278.483 5126.25 
-1898.54 -279.06 5125.63 
-1901.55 -283.173 5124.98 
-1903.02 -286.628 5123.3 
-1898.52 -278.843 5124.9 
-1898.57 -278.603 5123.66 
-1896.88 -278.354 5126.6 
-1903.15 -295.593 5131.06 
-1902.45 -292.582 5130.57 
-1901.51 -288.286 5129.27 
-1896.73 -281.131 5127.88 
-1897.86 -279.539 5126.97 
-1903.32 -288.506 5121.6 
-1902.59 -288.569 5121.22 
-1954.86 -331.91 5112.4 
-1944.61 -325.29 5115.93 
-1934.15 -318.149 5119.52 
-1924.89 -311.608 5122.68 
-1915.89 -305.34 5125.79 
-1915.59 -303.556 5125.83 
-1912.93 -301.293 5126.82 
-1909.35 -300.177 5128.41 
-1905.89 -300.352 5130.02 
-1903 -299.09 5131.3 
-1903.25 -297.279 5131.09 
-1968.33 -341.466 5107.25 
-1975.24 -347.204 5103.1 
-1958.75 -334.974 5111.01 
-1981.8 -354.583 5098.09 
-1978.47 -351.029 5100.54 
-1893.28 -301.929 5114.72 
-1889.42 -300.17 5116.99 
-1883.75 -296.312 5120.27 
-1880.44 -292.629 5121.86 
-1880.67 -291.833 5121.82 
-1881.76 -290.69 5121.52 
-1881.64 -288.872 5121.73 
-1881.01 -288.063 5122.08 
-1886.18 -286.458 5119.72 
-1888.43 -288.986 5118.57 
-1887.98 -286.42 5118.5 
-1887.95 -285.446 5118.53 
-1889.1 -288.613 5118.12 
-1889.64 -288.588 5117.93 
-1902.2 -313.465 5109.85 
-1899.81 -310.287 5110.78 
-1895.42 -303.984 5113.41 
-1895.54 -304.82 5113.37 
-1893.64 -302.378 5114.5 
-1890.81 -290.807 5117.87 
-1890.15 -288.57 5117.89 
-1892.02 -290.659 5117.74 
-1891.36 -290.761 5117.87 
-1892.66 -290.645 5117.93 
-1892.43 -290.276 5117.7 
-1895.98 -289.388 5118.9 
-1897.66 -288.175 5119.78 
-1900.05 -287.815 5120.72 
-1898.69 -287.548 5120.36 
-1901.1 -287.59 5121.21 
-1896.61 -288.685 5119.34 
-1894.31 -289.775 5118.24 
-1893.29 -289.822 5117.67 
-1894.55 -287.459 5118.71 
-1894.02 -287.523 5118.52 
-2041.84 -411.795 5055.44 
-2042.85 -408.14 5060.87 
-2042.59 -408.749 5060.25 
-2042.19 -409.235 5059.95 
-2043.14 -406.952 5062.68 
-2043.52 -405.008 5065.66 
-2043.17 -405.564 5065.12 
-2040.97 -410.963 5057.83 
-2041.05 -409.44 5060.62 
-2042.97 -411.622 5054.72 
-2041.95 -411.666 5054.97 
-2043.79 -404.549 5065.97 
-2044.07 -404.165 5066.15 
-2044.33 -403.922 5066.11 
-2044.6 -403.579 5066.36 
-2041.04 -411.448 5053.65 
-2036.6 -412.102 5056.31 
-2040.99 -411.558 5054.06 
-2040.87 -411.683 5054.51 
-2041.72 -411.568 5054.46 
-1994.18 -368.711 5088.81 
-1989.68 -365.478 5091.77 
-1986.59 -361.191 5094.25 
-1983 -357.414 5096.89 
-2045.16 -402.347 5069 
-2045.28 -400.582 5072.57 
-2045.27 -399.207 5074.21 
-2044.87 -402.662 5068.68 
-2044.53 -396.58 5077.13 
-2043.85 -395.621 5077.69 
-2042.48 -394.029 5078.83 
-2041.56 -392.724 5079.33 
-2037.94 -388.569 5082.15 
-2039.1 -390.096 5081.41 
-2034.51 -385.912 5084.36 
-2031.92 -386.878 5083.41 
-2029.33 -387.5 5082.37 
-2026.81 -388.181 5081.33 
-2024.36 -387.736 5080.27 
-2022.34 -388.014 5078.9 
-2019.73 -387.092 5077.46 
-2018.62 -385.255 5077.21 
-2015.35 -383.619 5075.97 
-2009.64 -379.836 5078.95 
-2003.89 -375.815 5082.59 
-1998.59 -372.917 5085.81 
-2029.15 -410.748 5061.4 
-2031.29 -411.651 5060.37 
-2001.64 -396.762 5076.28 
-2022.89 -407.638 5065.53 
-2027.2 -410.106 5063.09 
-2019.81 -405.793 5067.51 
-2007.24 -399.464 5073.86 
-2014.66 -402.802 5070.13 
-1991.33 -390.605 5082.6 
-1985.44 -386.446 5086.72 
-1969.83 -374.61 5096.51 
-1959.49 -365.272 5097.51 
-1977.05 -380.416 5092.99 
-1950.38 -358.105 5101.18 
-1947.19 -355.914 5101.23 
-1936.37 -348.961 5105.51 
-1933.17 -346.017 5105.88 
-1925.76 -339.104 5106.73 
-1925.59 -339.601 5107.59 
-1921.41 -334.209 5107.3 
-1913.56 -326.199 5108.26 
-1907.65 -320.354 5109.23 
-1904.41 -316.696 5110.28 
-1901.77 -313.841 5110.66 
-1899.52 -311.238 5111.29 
-1897.11 -278.532 5126.1 
-1897.47 -278.612 5125.59 
-1896.4 -278.344 5126.54 
-1897.75 -278.708 5124.94 
-1900.73 -282.131 5124.78 
-1900.27 -281.923 5124.31 
-1902.33 -286.471 5123.09 
-1897.46 -278.757 5122.92 
-1898.3 -276.64 5119.08 
-1898.01 -279.002 5122.24 
-1893.61 -277.68 5127.12 
-1892.81 -277.079 5127.24 
-1898.85 -295.446 5132.73 
-1898.53 -292.056 5131.68 
-1894.54 -284.856 5130.04 
-1894.93 -282.388 5128.91 
-1892.29 -279.784 5127.82 
-1901.93 -287.132 5121.82 
-1953.42 -332.564 5112.97 
-1956.17 -334.902 5111.97 
-1935.16 -320.445 5119.24 
-1944.59 -326.965 5116.01 
-1924.77 -313.362 5122.8 
-1915.78 -306.849 5125.9 
-1911.03 -304.897 5127.86 
-1911.3 -303.19 5127.65 
-1909.12 -301.775 5128.6 
-1905.24 -302.004 5130.4 
-1902.19 -300.915 5131.76 
-1899.45 -299.692 5132.97 
-1899.92 -297.823 5132.67 
-1963.56 -340.013 5109.08 
-1971.1 -345.196 5105.82 
-1975.13 -349.44 5102.66 
-1978.39 -353.154 5100.15 
-1889.52 -300.896 5117.07 
-1892.75 -302.402 5115.36 
-1883.64 -297.269 5120.39 
-1879.98 -293.255 5122.18 
-1877.34 -290.549 5122.56 
-1876.88 -291.291 5122.9 
-1877.83 -289.533 5122.86 
-1881.09 -287.281 5122.16 
-1885.99 -285.937 5119.92 
-1887.96 -285.13 5118.63 
-1875.91 -287.183 5124.6 
-1888.31 -286.16 5117.85 
-1888.42 -285.435 5117.6 
-1889.14 -286.487 5117.66 
-1898.7 -309.8 5111.54 
-1895.39 -304.906 5113.64 
-1893.41 -302.618 5115 
-1894.14 -302.992 5115.08 
-1890.79 -288.482 5117.79 
-1890.05 -286.683 5117.51 
-1891.71 -288.591 5117.71 
-1891.34 -288.606 5117.74 
-1892.78 -289.847 5117.48 
-1892.16 -288.424 5117.73 
-1895.17 -287.017 5119.1 
-1897.35 -287.275 5120.03 
-1900.21 -287.051 5121.16 
-1899.04 -286.842 5120.77 
-1900.74 -286.412 5121.66 
-1895.73 -286.163 5119.51 
-1893.44 -287.621 5118.29 
-1892.82 -287.933 5117.93 
-1892.83 -285.263 5117.76 
-1893.38 -285.043 5118.45 
-1892.81 -285.743 5117.89 
-2039.92 -411.814 5057.1 
-2042.54 -407.145 5063.51 
-2042.86 -406.613 5063.94 
-2041.85 -408.065 5062.46 
-2043.05 -405.465 5065.83 
-2042.68 -403.502 5069.57 
-2042.73 -402.84 5070.7 
-2043.76 -403.472 5068.76 
-2042.31 -403.868 5069.21 
-2039.91 -410.492 5059.6 
-2038.22 -409.104 5063.4 
-2039.02 -408.357 5064.14 
-2039.43 -407.615 5065 
-2040.52 -411.95 5055.47 
-2044 -403.19 5068.95 
-2044.28 -402.897 5069.16 
-2044.59 -402.842 5068.8 
-2036.37 -412.324 5056.86 
-2035.51 -412.451 5057.86 
-2036.1 -412.663 5057.79 
-2035.32 -412.73 5058.96 
-2038.72 -412.39 5056.44 
-1992.35 -369.146 5089.67 
-1987.64 -365.756 5092.77 
-1986.11 -362.819 5094.17 
-1983.08 -359.582 5096.4 
-1980.02 -356.124 5098.7 
-2044.98 -400.64 5072.89 
-2044.97 -398.662 5076.26 
-2044.78 -397.546 5076.93 
-2044.72 -400.782 5073 
-2044.13 -396.393 5077.8 
-2043.09 -395.046 5078.59 
-2040.12 -392.02 5081.25 
-2039.64 -391.1 5081.31 
-2035.02 -386.786 5084.08 
-2036.25 -388.155 5083.51 
-2032.5 -387.829 5083.17 
-2030.24 -388.257 5082.31 
-2027.65 -388.951 5081.24 
-2024.86 -389.447 5080.06 
-2023.6 -390.578 5079.04 
-2021.37 -389.109 5078 
-2018.19 -387.763 5076.3 
-2016.75 -385.744 5075.89 
-2011.77 -382.776 5077.35 
-2004.58 -377.968 5081.87 
-1997.27 -373.601 5086.38 
-2029.93 -411.547 5061.82 
-1997.31 -394.39 5078.96 
-2022.49 -407.529 5066.06 
-2019.57 -405.852 5068.06 
-2026.14 -409.687 5064.06 
-2004.35 -398.212 5075.36 
-2014.39 -402.838 5070.51 
-1987.7 -387.882 5085.68 
-1979.75 -382.351 5091.34 
-1969.89 -375.136 5098.05 
-1963.06 -368.535 5097.43 
-1955.46 -361.988 5100.27 
-1948.92 -357.381 5103.36 
-1939.83 -351.939 5104.69 
-1939.85 -352.51 5105.59 
-1928.48 -342.758 5109.88 
-1927.65 -341.767 5107.73 
-1920.65 -334.257 5108.39 
-1921.13 -336.038 5110.05 
-1919.87 -334.158 5109.52 
-1912.69 -326.063 5109.24 
-1907.51 -320.42 5109.78 
-1902.94 -315.727 5111.27 
-1899.52 -312.246 5112.27 
-1898.12 -310.341 5112.57 
-1895.33 -305.549 5113.86 
-1895.25 -306.363 5114.17 
-1895.99 -278.653 5125.61 
-1896.51 -278.767 5124.38 
-1896.84 -278.876 5123.59 
-1892.51 -277.487 5126.91 
-1899.74 -281.661 5123.79 
-1897.4 -279.737 5121.27 
-1900.94 -285.176 5123.24 
-1897.06 -277.998 5119.35 
-1896.4 -279.116 5121.76 
-1897.35 -278.246 5119.31 
-1890.19 -277.363 5127.3 
-1887.71 -276.013 5127.66 
-1895.49 -295.835 5134.06 
-1890.48 -289.222 5133.04 
-1891.34 -287.441 5132 
-1891.91 -285.22 5130.89 
-1888.81 -283.124 5130.01 
-1890.56 -281.598 5129.01 
-1889.16 -279.823 5127.93 
-1900.33 -285.283 5122.4 
-1949.7 -331.743 5114.32 
-1953.23 -334.226 5113.08 
-1960.33 -339.793 5110.29 
-1937.79 -323.903 5118.41 
-1927.45 -316.749 5121.95 
-1917.06 -310.22 5125.55 
-1914.75 -307.725 5126.35 
-1910.37 -306.545 5128.25 
-1907.81 -303.365 5129.28 
-1907.36 -304.872 5129.56 
-1903.99 -303.544 5131.06 
-1900.87 -302.452 5132.45 
-1898.02 -301.267 5133.72 
-1895.48 -299.86 5134.83 
-1896.95 -298.411 5134.07 
-1968.85 -345.365 5106.8 
-1974.03 -350.484 5103.07 
-1976.72 -354.072 5100.83 
-1888.7 -301.338 5117.72 
-1883.55 -298.277 5120.57 
-1889.32 -302.046 5117.56 
-1879.82 -294.298 5122.43 
-1876.64 -291.851 5123.91 
-1875.37 -287.882 5124.73 
-1875.01 -288.618 5124.93 
-1874.43 -289.051 5125.37 
-1873.58 -289.207 5126.06 
-1883.14 -286.487 5121.57 
-1876.95 -285.388 5124.65 
-1876.19 -286.289 5124.77 
-1885.78 -285.465 5120.22 
-1887.69 -285.005 5118.85 
-1888.65 -285.175 5117.67 
-1872.38 -284.755 5127.05 
-1873.29 -284.14 5126.74 
-1888.82 -285.658 5117.36 
-1889.52 -285.346 5117.33 
-1889.61 -285.945 5117.28 
-1894.75 -303.286 5114.72 
-1893 -302.937 5115.64 
-1893.94 -303.272 5115.79 
-1894.85 -303.49 5115.08 
-1890.75 -286.591 5117.27 
-1890.57 -286.024 5117.1 
-1891.3 -286.342 5117.08 
-1891.72 -286.319 5117.29 
-1892.12 -286.318 5117.57 
-1894.32 -284.037 5119.24 
-1896.34 -285.743 5119.89 
-1896.74 -284.995 5120.12 
-1899.76 -286.048 5121.32 
-1897.42 -284.263 5120.53 
-1899.29 -285.111 5121.74 
-1895.35 -283.152 5119.86 
-1892.44 -285.999 5117.71 
-1892.41 -285.267 5117.41 
-1891.99 -284.534 5117.11 
-1892.87 -284.68 5118.28 
-1893.7 -284.163 5119 
-1892.36 -285.693 5117.52 
-2038.66 -411.989 5057.87 
-2039.09 -411.067 5059.23 
-2041.14 -405.224 5067.52 
-2039.99 -406.764 5065.98 
-2040.53 -405.907 5066.93 
-2041.86 -404.478 5068.45 
-2037.4 -403.008 5071.97 
-2042.86 -401.674 5072.78 
-2036.09 -402.211 5073.48 
-2038.81 -401.861 5073.5 
-2037.83 -403.79 5070.59 
-2037.65 -409.855 5062.54 
-2032.08 -408.905 5065.76 
-2033.2 -407.525 5066.84 
-2033.28 -406.16 5068.08 
-2043.6 -401.181 5073.3 
-2043.42 -400.41 5074.66 
-2044.45 -401.343 5072.24 
-2030.77 -412.121 5061.79 
-2035.62 -412.139 5060 
-2030.19 -412.119 5062.77 
-1990.29 -369.338 5090.7 
-1985.58 -365.785 5093.84 
-1983.25 -361.983 5095.82 
-1979.82 -358.052 5098.41 
-2044.78 -398.57 5077.07 
-2044.32 -397.098 5078.02 
-2043.42 -399.594 5076.03 
-2044.02 -398.817 5077.13 
-2043.57 -395.975 5078.5 
-2042.01 -394.27 5079.86 
-2038.4 -391.677 5082.09 
-2035.43 -390.207 5082.5 
-2036.49 -389.25 5083.1 
-2031.7 -389.108 5082.35 
-2028.96 -389.536 5081.37 
-2026.2 -390.258 5080.24 
-2024.76 -391.692 5079.19 
-2022.01 -391.448 5077.82 
-2019.86 -389.685 5076.89 
-2017.1 -388.838 5075.33 
-2014.88 -386.232 5075.5 
-2008.47 -382.02 5079.18 
-2001.73 -377.693 5083.39 
-1994.59 -373.366 5087.79 
-2027.12 -410.374 5063.91 
-1994.62 -392.357 5081.34 
-2021.95 -407.343 5066.68 
-2019.59 -406.041 5068.39 
-2022.57 -407.8 5066.5 
-2002.21 -397.042 5076.8 
-2015.59 -403.545 5070.12 
-2006.28 -399.245 5074.82 
-1986.56 -386.783 5087.15 
-1979.85 -382.328 5091.57 
-1972.79 -377.323 5096.77 
-1966.59 -372.29 5099.47 
-1959.77 -365.668 5099.42 
-1952.09 -359.606 5103.76 
-1941.13 -353.577 5107.17 
-1933.27 -347.159 5109.29 
-1932.79 -347.368 5111.21 
-1926.18 -341.218 5114.15 
-1922.19 -337.924 5111.43 
-1921.85 -337.268 5110.66 
-1912.54 -326.562 5110.34 
-1914.61 -329.693 5112.19 
-1912.49 -327.049 5111.36 
-1908.18 -321.598 5110.17 
-1903.81 -317.055 5112.08 
-1898.64 -311.976 5113.33 
-1899.62 -313.391 5113.31 
-1895.31 -308.206 5114.96 
-1895.22 -307.257 5114.59 
-1894.89 -304.553 5115.17 
-1893.78 -278.749 5125.79 
-1894.79 -278.981 5124.06 
-1895.63 -279.062 5122.5 
-1888.99 -277.095 5126.93 
-1899.32 -281.364 5123.43 
-1897.77 -280.157 5121.61 
-1896.78 -280.331 5120.76 
-1896.57 -279.929 5120.46 
-1898.81 -282.02 5122.85 
-1895.85 -279.276 5119.66 
-1896.25 -279.554 5119.91 
-1895.04 -279.315 5120.9 
-1887 -278.222 5127.24 
-1885.31 -277.238 5126.99 
-1893.02 -297.568 5135.49 
-1888.41 -290.461 5134.09 
-1886.34 -287.261 5132.67 
-1886.99 -285.127 5131.31 
-1885.97 -283.167 5130.11 
-1886.87 -281.031 5128.75 
-1898.18 -282.467 5122.31 
-1949.46 -333.32 5114.47 
-1942.47 -328.285 5116.86 
-1952.3 -335.173 5113.41 
-1967.75 -346.448 5107.19 
-1959.39 -341.186 5110.61 
-1930.21 -320.191 5121.07 
-1920.8 -313.952 5124.3 
-1913.02 -309.94 5127.19 
-1911.41 -308.289 5127.85 
-1907.81 -307.998 5129.51 
-1906.85 -306.361 5129.87 
-1903.69 -305.188 5131.28 
-1900.19 -304.048 5132.85 
-1896.65 -302.922 5134.43 
-1893.98 -301.345 5135.6 
-1891.46 -299.514 5136.59 
-1972.65 -351.476 5103.65 
-1975.97 -355.521 5100.93 
-1883.21 -299.03 5120.91 
-1878.56 -294.578 5123.19 
-1889.25 -302.433 5117.76 
-1882.98 -299.672 5121.32 
-1873.26 -290.113 5126.38 
-1871.89 -285.569 5127.27 
-1870.95 -286.24 5127.75 
-1869.07 -286.289 5128.83 
-1879.26 -285.108 5123.77 
-1873.89 -283.186 5126.76 
-1875.46 -282.949 5126.35 
-1885.78 -284.995 5120.47 
-1887.71 -284.696 5118.6 
-1888.47 -284.709 5117.73 
-1889.41 -284.853 5117.37 
-1868.52 -282.387 5129.09 
-1868.72 -281.065 5129.11 
-1869.8 -280.563 5128.78 
-1889.8 -285.626 5117.16 
-1890.59 -285.466 5117.03 
-1890.32 -284.998 5117.11 
-1892.74 -303.306 5116.2 
-1895 -303.695 5115.65 
-1892.93 -303.64 5116.52 
-1894.08 -303.682 5116.32 
-1891.54 -285.968 5117.03 
-1890.84 -285.753 5116.99 
-1891.98 -285.941 5117.34 
-1894.95 -282.783 5119.85 
-1894.32 -283.039 5119.56 
-1896.11 -282.178 5120.42 
-1897.56 -283.402 5121.01 
-1896.78 -281.447 5120.85 
-1897.57 -282.873 5121.75 
-1895.65 -281.725 5120.41 
-1891.52 -284.436 5116.68 
-1891.9 -285.153 5116.98 
-1892.23 -284.163 5117.95 
-1893.38 -283.729 5119.05 
-1891.94 -285.658 5117.18 
-2037.32 -410.622 5061.44 
-2036.28 -411.371 5060.87 
-2034.29 -405.247 5069.05 
-2035.3 -404.416 5070.15 
-2033.84 -403.523 5071.9 
-2034.03 -402.431 5073.45 
-2038.14 -400.949 5075 
-2039.84 -400.57 5075.31 
-2035.43 -401.045 5075.06 
-2036.85 -400.802 5075.29 
-2032.62 -410.43 5064.33 
-2028.07 -409.172 5065.85 
-2024.84 -407.479 5067.69 
-2028.68 -407.3 5067.42 
-2028.27 -406.212 5068.82 
-2028.97 -405.453 5069.86 
-2040.74 -399.524 5076.65 
-2030.6 -411.435 5063.65 
-2025.79 -409.745 5064.94 
-1987.71 -369.132 5092.07 
-1983.03 -365.559 5095.21 
-1981.9 -362.792 5096.36 
-1978.97 -359.311 5098.6 
-2044.2 -397.423 5078.5 
-2043.61 -396.442 5078.79 
-2042.37 -398.393 5077.94 
-2043.66 -397.455 5078.89 
-2042.71 -395.381 5079.56 
-2039.65 -393.117 5081.51 
-2034.83 -392.286 5081.26 
-2031.93 -390.97 5081.44 
-2029.83 -390.246 5081.32 
-2027.29 -390.894 5080.29 
-2026.06 -392.232 5079.34 
-2023.46 -393.007 5078.19 
-2020.87 -392.717 5076.78 
-2019.06 -390.832 5076.09 
-2015.83 -389.759 5074.7 
-2012.65 -386.309 5076.31 
-2006.05 -381.906 5080.45 
-1999.11 -377.516 5084.76 
-1992.12 -373.262 5089.08 
-1993.58 -391.326 5082.73 
-2019.66 -406.22 5068.59 
-2021.66 -407.417 5067.38 
-2019.78 -406.37 5068.66 
-1998.17 -394.166 5080.11 
-2015.76 -403.785 5070.28 
-2006.3 -399.238 5075.11 
-1977.7 -380.635 5093.58 
-1984.29 -384.943 5089.35 
-1970.1 -375.299 5098.97 
-1962.53 -368.409 5100.18 
-1958.19 -364.415 5101.58 
-1948.45 -358.019 5107.76 
-1930.24 -345.231 5115.75 
-1938.86 -351.646 5112.46 
-1924.68 -340.307 5117.61 
-1920.99 -337.088 5113.39 
-1916.06 -331.527 5112.81 
-1916.39 -332.057 5113.56 
-1909.6 -323.905 5113.39 
-1908.01 -321.886 5112.14 
-1906.01 -319.593 5112.28 
-1900.83 -315.089 5114.28 
-1895.3 -309.129 5115.44 
-1895.77 -310.312 5116.14 
-1894.98 -304.952 5115.64 
-1894.58 -306.276 5115.8 
-1891.18 -278.66 5125.94 
-1892.77 -279.201 5124.35 
-1893.45 -279.321 5122.56 
-1887.4 -278.034 5126.29 
-1897.35 -280.778 5121.09 
-1896.68 -280.807 5120.83 
-1896.32 -280.325 5120.7 
-1896.13 -280.012 5120.3 
-1895.71 -279.777 5119.79 
-1894.84 -279.943 5119.42 
-1893.65 -279.662 5120.66 
-1884.41 -279.743 5128.01 
-1881.56 -276.868 5126.14 
-1885.96 -293.879 5136.24 
-1886.78 -291.774 5135.09 
-1883.66 -288.731 5133.66 
-1883.44 -286.508 5132.27 
-1883.51 -284.438 5130.97 
-1883.94 -282.037 5129.46 
-1897.23 -281.287 5120.95 
-1944.69 -331.455 5116.17 
-1950.4 -335.555 5114.11 
-1947.24 -333.786 5115.3 
-1935.04 -324.546 5119.46 
-1966.54 -347.583 5107.62 
-1957.69 -341.982 5111.22 
-1924.81 -318.268 5122.99 
-1915.51 -312.151 5126.24 
-1910.72 -311.323 5128.32 
-1909.18 -309.663 5128.96 
-1905.16 -308.998 5130.79 
-1904.11 -307.054 5131.18 
-1900.72 -305.889 5132.7 
-1897.25 -304.917 5134.26 
-1893.78 -304.117 5135.83 
-1891.98 -302.575 5136.59 
-1889.63 -300.929 5137.59 
-1884.68 -295.943 5137.48 
-1971.89 -352.988 5103.75 
-1975.41 -357.213 5100.87 
-1877.82 -295.444 5123.81 
-1872.8 -290.965 5126.8 
-1888.76 -302.658 5118.22 
-1884.59 -301.486 5120.63 
-1877.86 -296.614 5124.21 
-1867.73 -286.393 5129.74 
-1867.48 -283.186 5129.57 
-1866.02 -283.481 5130.39 
-1862.02 -282.074 5132.48 
-1880.69 -284.438 5123.43 
-1877.26 -282.874 5125.68 
-1874.88 -280.093 5127.49 
-1871.62 -279.464 5128.53 
-1876.74 -279.898 5127 
-1885.97 -284.472 5120.77 
-1887.78 -284.421 5118.75 
-1888.63 -284.227 5117.59 
-1889.5 -284.48 5117.45 
-1860.96 -278.116 5132.7 
-1861.89 -277.52 5132.3 
-1861.06 -275.797 5132.86 
-1857.56 -274.748 5134.38 
-1860.62 -275.005 5133.22 
-1891.51 -285.589 5116.89 
-1891.23 -285.247 5116.94 
-1890.46 -284.788 5117.4 
-1888.88 -303.014 5118.47 
-1895.15 -303.964 5116.21 
-1891.85 -303.827 5117.25 
-1892.97 -304.036 5117.01 
-1894 -304.09 5116.87 
-1895.03 -281.619 5120.24 
-1894.07 -282.329 5119.72 
-1896.35 -281.04 5120.83 
-1895.94 -280.662 5120.74 
-1891.7 -284.059 5117.51 
-1891.63 -284.643 5117.11 
-1891.65 -285.189 5116.87 
-1892.99 -283.264 5119.08 
-1892.07 -283.668 5118.35 
-2030.44 -404.628 5070.84 
-2031.65 -403.907 5071.71 
-2032.68 -402.381 5073.58 
-2033.42 -401.193 5074.96 
-2038.44 -399.239 5077.1 
-2039.42 -399.473 5076.77 
-2034.43 -400.18 5076.12 
-2036.83 -399.658 5076.66 
-2026.23 -409.848 5065.33 
-2022.8 -408.044 5067.19 
-2025.47 -406.457 5068.95 
-2021.03 -407.051 5068.39 
-2022.71 -406.338 5069.22 
-2026.2 -405.32 5070.32 
-2028.71 -404.377 5071.35 
-2041.31 -398.177 5078.25 
-2022.18 -407.787 5067.19 
-1985.7 -369.398 5093.06 
-1981.48 -366.074 5095.91 
-1978.75 -361.377 5098.29 
-2043.24 -396.383 5079.43 
-2042.94 -396.831 5079.64 
-2041.18 -394.691 5080.77 
-2035.68 -393.756 5080.62 
-2030.41 -392.431 5080.36 
-2028.48 -391.539 5080.36 
-2027.25 -392.907 5079.4 
-2024.95 -393.516 5078.45 
-2022.51 -394.366 5077.29 
-2020.05 -394.096 5075.9 
-2018.11 -391.938 5075.2 
-2014.08 -390.34 5075 
-2010.09 -386.129 5077.66 
-2003.57 -381.698 5081.76 
-1996.52 -377.33 5086.13 
-1990.26 -373.636 5089.98 
-1989.41 -388.216 5086.21 
-2019.69 -406.375 5068.82 
-2016.69 -404.412 5070.07 
-1992.44 -390.017 5084.64 
-1999.62 -394.801 5079.83 
-2008.25 -400.276 5074.36 
-1969.97 -375.138 5099.39 
-1976.67 -379.607 5094.99 
-1982.44 -383.306 5091.43 
-1961.66 -367.801 5102.01 
-1955.18 -362.377 5106.35 
-1946.4 -356.239 5113.95 
-1921.91 -338.287 5120.97 
-1929.34 -343.499 5120.92 
-1937.76 -349.711 5117.68 
-1920.28 -336.461 5115.23 
-1916.48 -332.356 5114.55 
-1910.46 -325.249 5115.12 
-1910.79 -325.832 5116.59 
-1902.53 -317.219 5118.22 
-1904.6 -318.84 5118.12 
-1902.18 -316.738 5116.14 
-1896.49 -312.018 5118.61 
-1896.44 -311.695 5117.03 
-1894.6 -306.986 5116.55 
-1894.56 -308.291 5118.4 
-1895.22 -305.075 5116.22 
-1890.54 -279.297 5125.1 
-1891.31 -279.529 5123.25 
-1892.44 -279.942 5121.12 
-1887.55 -279.037 5125.65 
-1882.12 -277.224 5126.15 
-1895.86 -280.32 5120.43 
-1895.53 -280.221 5120.02 
-1894.98 -280.341 5119.5 
-1893.71 -280.484 5119.49 
-1894.12 -280.911 5119.23 
-1881.58 -281.156 5129.01 
-1881.05 -278.091 5127.3 
-1879.11 -276.029 5125.77 
-1878.25 -276.041 5126.23 
-1881.72 -292.814 5136.27 
-1882.74 -290.743 5134.95 
-1879.88 -289.305 5134.14 
-1880.2 -287.312 5132.89 
-1880.28 -285.085 5131.52 
-1880.67 -282.825 5130.12 
-1942.96 -332.135 5116.84 
-1935.53 -326.331 5119.36 
-1948.48 -336.06 5114.81 
-1944.94 -333.933 5116.16 
-1965.31 -348.651 5108.06 
-1956.2 -342.869 5111.75 
-1915.54 -313.644 5126.3 
-1925.89 -320.525 5122.69 
-1906.62 -310.721 5130.2 
-1907.31 -312.444 5129.97 
-1910.89 -312.894 5128.32 
-1901.76 -307.906 5132.31 
-1902.38 -309.946 5132.12 
-1898.21 -306.849 5133.91 
-1894.5 -305.948 5135.59 
-1890.97 -305.65 5137.21 
-1889.83 -303.941 5137.65 
-1887.81 -302.192 5138.49 
-1883.4 -298.15 5138.77 
-1880.24 -294.912 5137.62 
-1970.81 -354.127 5104.13 
-1974.53 -358.42 5101.08 
-1873.1 -292.421 5126.92 
-1868.54 -289.584 5130.07 
-1866.15 -286.784 5130.91 
-1884.15 -302.031 5121.44 
-1878.83 -298.978 5124.42 
-1878.95 -298.151 5123.99 
-1872.37 -293.069 5127.8 
-1860.6 -282.683 5133.54 
-1860.52 -278.799 5132.91 
-1860.14 -279.54 5133.13 
-1854.41 -278.996 5135.77 
-1853.54 -277.967 5136.13 
-1879.62 -282.709 5124.93 
-1882.09 -283.901 5122.95 
-1877.68 -279.443 5126.81 
-1875.23 -277.018 5128.17 
-1875.23 -276.499 5128.2 
-1874.16 -277.411 5128.55 
-1870.95 -278.259 5128.97 
-1864.52 -275.926 5131.74 
-1875.16 -276.096 5128.25 
-1886 -283.737 5121.37 
-1887.91 -284.089 5119.01 
-1888.63 -284.146 5118.13 
-1889.66 -284.293 5117.91 
-1852.44 -273.455 5136.72 
-1851.01 -274.408 5137.28 
-1851.72 -270.247 5137.28 
-1847.7 -268.995 5138.87 
-1859.31 -274.135 5133.88 
-1851.69 -269.209 5137.42 
-1891.36 -284.857 5117.32 
-1890.64 -284.349 5117.84 
-1888.88 -303.519 5118.82 
-1885.41 -303.079 5121.03 
-1895.02 -304.237 5116.83 
-1888.98 -304.064 5119.19 
-1892.86 -304.432 5117.5 
-1894.06 -304.487 5117.33 
-1895.15 -280.934 5120.21 
-1894.32 -281.528 5119.78 
-1893.49 -282.208 5119.42 
-1891.62 -283.754 5118.37 
-1891.56 -284.315 5117.82 
-1892.57 -282.858 5118.97 
-1891.72 -283.212 5118.84 
-2030.77 -403.055 5072.85 
-2030 -401.871 5074.26 
-2030.22 -400.438 5075.79 
-2035.82 -398.68 5077.74 
-2037.5 -397.755 5078.65 
-2040.23 -398.033 5078.47 
-2032.28 -399.267 5076.92 
-2020.45 -406.872 5068.44 
-2019.25 -406.147 5069.49 
-2018.89 -406.017 5069.49 
-2021.85 -405.513 5070.21 
-2025.08 -404.509 5071.3 
-2027.9 -403.575 5072.32 
-2041.89 -396.661 5079.96 
-1984.02 -370.04 5093.82 
-1979.65 -366.289 5096.82 
-1977.85 -362.529 5098.52 
-2040.28 -395.333 5080.55 
-2034.86 -395.108 5079.73 
-2030.43 -393.805 5079.62 
-2026.49 -394.161 5078.62 
-2024.33 -394.688 5077.76 
-2022.48 -395.641 5076.79 
-2020.33 -395.763 5075.65 
-2017.48 -393.188 5074.48 
-2014.36 -392.371 5074.49 
-2008.7 -388.154 5078.03 
-2007.38 -385.761 5079.11 
-2001.04 -381.356 5083.12 
-1995.51 -378.385 5086.47 
-1989.83 -374.918 5089.99 
-2015.96 -404.125 5070.6 
-2018.57 -405.757 5069.56 
-1986.87 -386.054 5088.89 
-1993.76 -390.567 5084.44 
-2001.7 -395.929 5078.97 
-2008.41 -400.231 5074.75 
-1967.56 -373.005 5101.64 
-1961.87 -368.237 5105.24 
-1973.45 -376.871 5097.94 
-1978.81 -380.252 5094.64 
-1955.15 -362.512 5110.48 
-1942.98 -351.734 5116.44 
-1952.13 -358.556 5112.84 
-1920.41 -336.73 5123.94 
-1918.85 -334.823 5115.51 
-1923.91 -337.72 5123.93 
-1933.64 -344.655 5120.11 
-1913.12 -328.634 5118.9 
-1911.3 -326.439 5118.27 
-1905.45 -320.303 5118.59 
-1896.16 -311.582 5120.41 
-1897.9 -309.748 5120.44 
-1902.62 -314.424 5120.47 
-1895.54 -308.433 5119.86 
-1895.17 -305.978 5117.01 
-1895.3 -307.054 5118.56 
-1895.59 -304.628 5116.86 
-1889.48 -279.759 5124.04 
-1891.28 -280.259 5121.55 
-1892.65 -280.858 5119.67 
-1882.39 -277.647 5126.38 
-1884.95 -278.645 5126.1 
-1878.93 -276.071 5125.77 
-1894.72 -280.897 5119.69 
-1893.04 -281.441 5119.27 
-1893.84 -281.542 5119.26 
-1877.82 -276.57 5127.43 
-1879.31 -277.052 5126.92 
-1878.22 -275.982 5126.33 
-1878.48 -276.063 5125.91 
-1878.29 -276.188 5126.23 
-1878.26 -276.194 5126.49 
-1878.26 -276.162 5126.39 
-1878.29 -276.286 5126.43 
-1878.61 -293.253 5136.65 
-1879.28 -291.262 5135.38 
-1876.76 -287.209 5133.63 
-1877.15 -284.891 5132.2 
-1877.45 -282.549 5130.78 
-1877.73 -280.437 5129.49 
-1877.96 -278.323 5128.22 
-1940.23 -332.076 5117.85 
-1933.26 -326.463 5120.2 
-1942.58 -333.899 5117.03 
-1946.29 -336.276 5115.62 
-1964.13 -349.773 5108.48 
-1954.47 -343.47 5112.38 
-1916.76 -315.597 5125.9 
-1911.98 -314.461 5127.9 
-1923.84 -320.96 5123.47 
-1908.3 -314.173 5129.59 
-1904.61 -313.736 5131.28 
-1903.81 -311.7 5131.55 
-1899.28 -308.744 5133.51 
-1899.82 -311.086 5133.37 
-1895.61 -307.84 5135.16 
-1892.09 -307.387 5136.77 
-1888.2 -306.897 5138.55 
-1887.25 -305.138 5138.91 
-1885.78 -303.368 5139.5 
-1881.55 -299.855 5139.98 
-1878.78 -296.783 5138.84 
-1876.52 -292.88 5136.9 
-1969.61 -355.199 5104.61 
-1973.66 -359.611 5101.3 
-1867.2 -290.11 5131.36 
-1863.37 -286.731 5132.81 
-1858.44 -282.777 5135.03 
-1883.47 -302.926 5122.63 
-1878.97 -300.067 5125.04 
-1871.76 -294.687 5129.11 
-1872.12 -293.816 5128.36 
-1854.57 -279.737 5135.88 
-1853.63 -276.791 5136.1 
-1848.11 -276.183 5138.74 
-1847.9 -276.992 5139.05 
-1848.48 -275.473 5138.42 
-1881.66 -282.577 5124.18 
-1878.87 -279.804 5126.4 
-1881.5 -281.396 5124.99 
-1883.65 -283.412 5122.87 
-1876.27 -276.77 5127.48 
-1875.21 -275.748 5128.14 
-1873.69 -277.016 5128.77 
-1870.83 -277.559 5129.35 
-1865.11 -275.786 5131.55 
-1859.63 -274.031 5133.78 
-1873.4 -276.604 5128.95 
-1886.32 -282.738 5121.58 
-1887.95 -283.398 5119.55 
-1888.63 -283.706 5118.53 
-1889.17 -283.751 5118.39 
-1890.03 -283.807 5118.36 
-1843.55 -268.639 5140.51 
-1849.36 -275.167 5138 
-1844 -270.599 5140.44 
-1843.1 -266.482 5140.91 
-1840.62 -266.859 5141.73 
-1853.57 -270.016 5136.57 
-1844.28 -265.517 5140.63 
-1842.55 -265.586 5141.28 
-1890.87 -283.889 5118.27 
-1884.39 -304.192 5122.39 
-1895.3 -304.694 5117.39 
-1888.44 -304.57 5119.98 
-1893.48 -304.828 5117.82 
-1892.34 -304.825 5118.08 
-1894.64 -304.925 5117.79 
-1892.99 -282.139 5119.04 
-1890.78 -283.329 5118.73 
-1892.01 -282.419 5119.16 
-1891.13 -282.899 5119.11 
-2027 -402.781 5073.27 
-2024.6 -401.912 5074.05 
-2026.94 -401.008 5074.98 
-2023.49 -399.585 5075.19 
-2027.3 -399.172 5076.13 
-2032.11 -397.604 5077.87 
-2038.7 -396.629 5079.59 
-2033.4 -396.347 5078.79 
-2027.92 -397.901 5076.93 
-2017.38 -405.153 5070.6 
-2015.26 -403.991 5071.47 
-2015.52 -404.047 5071.05 
-2020.93 -404.748 5071.13 
-2023.72 -403.72 5072.26 
-1980.14 -368.606 5096.09 
-1985.14 -372.649 5092.78 
-1976.5 -365.355 5098.65 
-1976.25 -363.068 5099.24 
-2029.24 -395.116 5078.69 
-2024.9 -395.58 5077.54 
-2022.4 -396.735 5076.3 
-2019.88 -397.054 5075.04 
-2017.87 -394.938 5074.29 
-2014.63 -394.227 5074.05 
-2009.11 -390.14 5077.48 
-2003.39 -385.823 5081.16 
-2002.09 -383.484 5082.22 
-1996.66 -380.762 5085.48 
-1991.05 -377.332 5088.95 
-1984.03 -383.473 5091.44 
-1989.86 -387.417 5087.72 
-2000.21 -394.653 5080.56 
-2007.36 -399.288 5076.04 
-1969.5 -372.855 5100.81 
-1964.67 -369.024 5104.28 
-1959.29 -364.396 5108.78 
-1975.77 -376.783 5096.91 
-1981.29 -379.901 5093.54 
-1941.61 -348.933 5117.03 
-1950.06 -355.254 5113.7 
-1957.75 -361.172 5110.28 
-1918.65 -334.91 5125.52 
-1919.12 -335.119 5118.08 
-1914.5 -330.208 5119.86 
-1924.65 -336.542 5123.69 
-1921.01 -334.904 5125.06 
-1933.22 -342.478 5120.33 
-1909.87 -325.18 5123.93 
-1907.53 -322.674 5120.71 
-1903.47 -318.176 5121.28 
-1900.22 -307.955 5120.19 
-1897.99 -307.021 5119.65 
-1901.68 -313.01 5122.49 
-1897.12 -306.154 5118.71 
-1896.21 -305.263 5117.74 
-1888.58 -280.143 5123.95 
-1890.21 -280.6 5121.87 
-1891.51 -281.155 5119.96 
-1891.95 -281.719 5119.48 
-1879.36 -276.641 5126.24 
-1886.19 -279.39 5125.33 
-1880.75 -277.604 5126.55 
-1878.43 -276.322 5126.17 
-1877.17 -275.544 5127.04 
-1875.48 -275.9 5128.67 
-1873.63 -274.897 5129.47 
-1873.39 -274.866 5129.52 
-1878.23 -276.108 5126.55 
-1878.33 -276.475 5126.5 
-1878.25 -276.349 5126.72 
-1878.29 -276.402 5126.63 
-1878.32 -276.577 5126.72 
-1876.32 -289.59 5135.13 
-1874.18 -287.499 5135.6 
-1874.61 -284.458 5133.71 
-1874.86 -281.516 5132.02 
-1875.17 -278.648 5130.32 
-1930.53 -326.362 5121.22 
-1937.39 -331.84 5118.9 
-1940.14 -333.924 5117.94 
-1943.68 -336.065 5116.6 
-1962.47 -350.514 5109.1 
-1950.74 -342.45 5113.8 
-1914.88 -316.267 5126.69 
-1910.45 -315.851 5128.67 
-1919.76 -319.988 5124.95 
-1906.71 -315.619 5130.4 
-1903.19 -315.284 5132.02 
-1900.18 -314.182 5133.36 
-1901.43 -312.757 5132.71 
-1897.23 -309.72 5134.51 
-1897.71 -312.562 5134.42 
-1895.63 -311.071 5135.31 
-1893.67 -309.313 5136.14 
-1890.19 -308.69 5137.72 
-1884.39 -306.135 5140.28 
-1886.56 -308.283 5139.38 
-1883.54 -304.439 5140.59 
-1880.02 -301.659 5141.18 
-1876.11 -297.344 5139.62 
-1875.8 -294.609 5138.15 
-1873.88 -290.799 5137.52 
-1969.56 -357.175 5104.16 
-1972.95 -361.305 5101.32 
-1865.94 -290.373 5132.53 
-1860.38 -286.332 5134.9 
-1853.62 -281.385 5137.24 
-1854.01 -280.847 5136.62 
-1854.83 -280.572 5136.08 
-1882.77 -303.63 5123.87 
-1878.51 -300.858 5126.07 
-1872.31 -296.072 5129.3 
-1867.4 -291.903 5132.17 
-1848.31 -277.829 5139.04 
-1841.27 -272.029 5141.81 
-1843.09 -271.74 5140.95 
-1841.2 -272.962 5142.1 
-1882.81 -281.056 5124.62 
-1883.84 -282.316 5123.49 
-1878.89 -279.1 5126.62 
-1879.29 -278.924 5126.53 
-1876.48 -276.471 5127.34 
-1875.22 -275.407 5127.92 
-1873.41 -276.09 5129.05 
-1870.38 -276.914 5129.71 
-1862.42 -274.682 5132.62 
-1854.59 -270.044 5136.27 
-1886.6 -281.884 5122.17 
-1888.73 -283.082 5118.91 
-1889.12 -283.076 5118.84 
-1889.89 -283.214 5118.77 
-1840.35 -268.681 5141.91 
-1839.09 -267.08 5142.25 
-1838.81 -269.396 5142.3 
-1839.44 -265.631 5142.34 
-1838.2 -265.564 5142.63 
-1844.38 -265.066 5140.67 
-1839.81 -264.523 5142.53 
-1838.99 -264.857 5142.65 
-1884.55 -305.036 5123.23 
-1883.13 -304.618 5124.24 
-1896.79 -305.179 5118.13 
-1888.56 -305.313 5120.75 
-1892.64 -305.247 5118.53 
-1894.08 -305.275 5118.39 
-1895.83 -305.339 5118.43 
-1890.41 -282.82 5119.12 
-1891 -282.386 5119.46 
-2021.7 -402.81 5073.04 
-2019.45 -401.623 5073.27 
-2021.32 -400.559 5074.23 
-2023.3 -398.192 5075.88 
-2020.78 -399.283 5074.7 
-2028.08 -396.388 5077.78 
-2024.23 -396.937 5076.72 
-2016.18 -404.035 5071.67 
-2010.53 -400.617 5074.88 
-2005.39 -397.345 5078.06 
-2018.85 -403.806 5071.93 
-1980.86 -370.836 5095.3 
-1976.55 -367.578 5098.17 
-1986.36 -375.199 5091.73 
-1973.19 -363.614 5100.72 
-2021.21 -398.075 5075.35 
-2018.66 -398.452 5073.91 
-2017.72 -396.569 5073.78 
-2015.14 -396.26 5073.54 
-2009.42 -392.072 5076.99 
-2003.9 -387.89 5080.54 
-1998.21 -383.287 5084.25 
-1992.38 -379.87 5087.83 
-1987.51 -384.284 5089.59 
-1994.37 -390.228 5084.97 
-1999.81 -393.724 5081.57 
-1967.6 -369.744 5102.4 
-1971.86 -372.982 5099.57 
-1962.93 -365.757 5106.17 
-1976.97 -375.745 5096.47 
-1984.72 -380.767 5091.63 
-1941.48 -346.956 5117.13 
-1949.65 -353.122 5113.91 
-1957.64 -359.104 5110.57 
-1962.81 -363.722 5106.75 
-1918.11 -334.245 5121.18 
-1919.12 -334.146 5125.75 
-1916.17 -332.222 5124.4 
-1909.18 -325.731 5128.43 
-1926.57 -336.205 5122.98 
-1923.52 -334.567 5124.13 
-1921.3 -334.138 5124.94 
-1934.22 -341.273 5119.99 
-1905.56 -321.564 5128.26 
-1904.5 -320.194 5124.65 
-1900.81 -315.95 5125.25 
-1900.03 -307.472 5121.88 
-1899.64 -306.182 5119.73 
-1898.43 -305.711 5118.95 
-1900.16 -312.037 5125.21 
-1889.71 -281.172 5121.29 
-1890.77 -281.825 5119.78 
-1878.47 -276.588 5126.43 
-1886.73 -279.934 5124.52 
-1879.34 -277.388 5126.81 
-1878.5 -276.858 5126.69 
-1876.98 -275.476 5127.09 
-1873.39 -274.884 5129.46 
-1873.6 -276.109 5130.28 
-1872.92 -274.924 5130.04 
-1872.76 -275.072 5129.98 
-1872.71 -275.184 5129.89 
-1872.73 -275.256 5129.8 
-1876.58 -275.321 5127.23 
-1878.36 -276.759 5126.76 
-1878.18 -276.475 5126.83 
-1876.46 -275.259 5127.21 
-1878.31 -276.744 5126.89 
-1872.75 -285.934 5135.98 
-1872.49 -289.574 5138.05 
-1872.97 -282.903 5134.25 
-1873.12 -279.485 5132.39 
-1937.42 -333.392 5118.94 
-1932.62 -330.528 5120.62 
-1927.17 -325.744 5122.44 
-1941.26 -336.091 5117.5 
-1937.92 -334.254 5118.77 
-1964.5 -353.968 5107.87 
-1956.58 -347.844 5111.47 
-1947.3 -341.906 5115.1 
-1912.75 -317.34 5127.68 
-1908.95 -317.353 5129.45 
-1916.44 -319.558 5126.2 
-1905.31 -317.189 5131.13 
-1901.72 -316.49 5132.76 
-1898.15 -315.433 5134.36 
-1895.91 -313.93 5135.33 
-1893.59 -312.406 5136.33 
-1891.8 -310.723 5137.07 
-1888.53 -310.06 5138.56 
-1879.76 -306.68 5142.46 
-1880.7 -305.161 5141.95 
-1883.36 -307.476 5140.83 
-1884.79 -309.603 5140.27 
-1875.87 -301.671 5142.27 
-1875.42 -299.296 5140.96 
-1873.23 -294.021 5139.7 
-1873.44 -296.875 5140.97 
-1871.87 -292.986 5140.31 
-1969.02 -359.073 5104.03 
-1863.01 -290.111 5134.85 
-1858.4 -287.016 5136.81 
-1853.01 -282.011 5138.04 
-1848.34 -278.299 5139.25 
-1843.97 -276.455 5141.47 
-1878.06 -301.742 5127.25 
-1881.21 -304.074 5125.89 
-1872.37 -296.98 5129.95 
-1866.91 -292.972 5133.4 
-1841.57 -274.234 5142.22 
-1836.33 -268.492 5143.07 
-1835.87 -268.466 5143.95 
-1837.69 -270.38 5143.3 
-1884.48 -281.334 5124.07 
-1883.24 -280.085 5125.18 
-1879.37 -278.525 5126.57 
-1876.62 -276.125 5127.22 
-1875.12 -275.117 5127.76 
-1873.22 -276.043 5129.15 
-1869.91 -276.418 5129.96 
-1862.64 -274.451 5132.53 
-1858.45 -273.428 5134.31 
-1856.17 -269.863 5136.12 
-1850.1 -265.896 5138.52 
-1887.01 -281.282 5122.75 
-1888.53 -282.425 5120.09 
-1888.81 -282.214 5120.23 
-1889.63 -282.669 5119.19 
-1838.71 -268.334 5142.27 
-1837.41 -266.821 5142.21 
-1836.52 -265.425 5142.44 
-1835.12 -267.03 5142.8 
-1834.92 -267.167 5143.69 
-1837.86 -264.374 5142.98 
-1836.56 -264.704 5142.77 
-1844.24 -264.32 5140.94 
-1840.54 -263.74 5142.37 
-1838.66 -263.565 5142.96 
-1837.85 -263.804 5143.1 
-1885.22 -305.731 5123.35 
-1883.5 -305.316 5124.56 
-1881.87 -305.014 5125.95 
-1897.4 -305.676 5118.95 
-1889.12 -306 5121.14 
-1894.1 -305.823 5119.28 
-1892.38 -305.816 5119.4 
-1895.38 -305.675 5119.02 
-1896.99 -305.925 5119.39 
-1890.14 -282.394 5119.54 
-2017.58 -402.496 5072.17 
-2017.06 -400.56 5072.49 
-2018.91 -400.175 5073.58 
-2013.02 -400.678 5073.68 
-2006.56 -396.412 5077.73 
-2000.48 -392.447 5081.53 
-1980.23 -371.901 5095.44 
-1975.48 -368.858 5098.46 
-1972.62 -365.25 5100.68 
-1986.12 -376.58 5091.61 
-1969.65 -361.621 5103.05 
-2016.02 -398.327 5072.96 
-2009.96 -394.03 5076.38 
-2003.54 -389.46 5080.46 
-1998.08 -384.768 5084.07 
-1991.65 -380.996 5088.02 
-1991.07 -385.356 5087.58 
-1994.44 -388.775 5085.27 
-1967.33 -367.748 5103 
-1971.31 -370.868 5100.24 
-1974.57 -372.099 5098.33 
-1979.92 -376.536 5094.82 
-1985.06 -379.144 5091.73 
-1990.09 -383.268 5088.44 
-1939.14 -343.218 5118.1 
-1948.07 -350.131 5114.58 
-1957.15 -356.845 5110.94 
-1963.41 -362.215 5106.75 
-1968.26 -366.727 5102.7 
-1919.34 -333.307 5125.66 
-1915.27 -331.723 5126.89 
-1907.73 -326.34 5130.17 
-1902.57 -320.982 5131.88 
-1900.85 -321.449 5132.9 
-1929.4 -336.366 5121.92 
-1926.11 -334.543 5123.16 
-1921.96 -333.506 5124.69 
-1924.35 -333.788 5123.8 
-1900.9 -317.202 5129.97 
-1899.11 -317.475 5133.07 
-1897.65 -313.321 5129.78 
-1898.94 -308.999 5125.82 
-1898.9 -307.225 5121.76 
-1898.67 -306.214 5119.83 
-1895.62 -310.555 5131.66 
-1889.69 -281.824 5120.27 
-1887.03 -280.388 5123.88 
-1879.86 -277.698 5126.74 
-1878.26 -276.843 5126.98 
-1877.99 -276.721 5127.03 
-1873.46 -274.929 5129.38 
-1872.9 -275.242 5129.72 
-1872.69 -275.223 5130.5 
-1872.1 -277.816 5132.38 
-1872.57 -274.888 5130.18 
-1872.55 -275.012 5130.08 
-1872.45 -275.147 5129.98 
-1872.38 -275.25 5129.91 
-1872.45 -275.388 5129.78 
-1876.37 -275.195 5127.17 
-1877.96 -276.427 5126.9 
-1873.51 -274.989 5129.3 
-1871.33 -288.328 5138.39 
-1871.06 -285.564 5137.21 
-1870.64 -291.672 5140.68 
-1871.7 -282.233 5134.98 
-1871.11 -280.423 5134.54 
-1935.59 -334.033 5119.63 
-1933.64 -332.667 5120.32 
-1925.08 -327.409 5123.29 
-1923.31 -324.797 5123.83 
-1938.73 -336.24 5118.44 
-1954.74 -348.285 5112.14 
-1963.03 -354.645 5108.51 
-1946.54 -343.398 5115.34 
-1911.46 -318.846 5128.35 
-1907.39 -318.922 5130.25 
-1915.21 -320.559 5126.75 
-1902.82 -318.306 5132.34 
-1899.26 -317.131 5133.93 
-1895.86 -316.858 5135.5 
-1893.99 -315.316 5136.29 
-1891.71 -313.834 5137.27 
-1889.77 -312.248 5138.09 
-1886.81 -311.272 5139.42 
-1875.65 -303.792 5143.35 
-1874.72 -305.685 5144.64 
-1881.36 -308.529 5141.81 
-1875.89 -306.947 5144.19 
-1875.05 -306.386 5144.62 
-1882.55 -310.809 5141.34 
-1880.89 -309.696 5142.06 
-1872.62 -302.424 5144.49 
-1872.31 -299.933 5143.48 
-1871.89 -297.302 5142.5 
-1870.86 -296.209 5142.81 
-1869.73 -294.981 5143.13 
-1964.72 -357.705 5107.03 
-1862.29 -291.036 5136.08 
-1854.44 -285.257 5138.79 
-1855.75 -287.392 5138.93 
-1851.31 -281.624 5139.14 
-1843.41 -276.766 5142.04 
-1841.25 -274.61 5142.49 
-1838.66 -274.352 5143.79 
-1837.82 -271.642 5143.88 
-1876.92 -302.156 5128.82 
-1872.58 -297.963 5130.5 
-1879.1 -304.047 5128.26 
-1867.16 -294.34 5134.33 
-1838.32 -271.444 5143.18 
-1835.2 -267.622 5144.68 
-1835.86 -268.427 5145.11 
-1836.11 -269.188 5145.57 
-1885.02 -280.431 5124.51 
-1879.23 -278.025 5126.71 
-1883.97 -279.569 5125.45 
-1879.48 -277.847 5126.7 
-1877 -276.274 5127.19 
-1875.22 -275 5127.57 
-1873.08 -276.012 5129.23 
-1869.19 -275.979 5130.25 
-1862.75 -274.196 5132.51 
-1858.73 -273.292 5134.21 
-1857.27 -270.827 5135.48 
-1851.99 -265.503 5138.56 
-1858.51 -266.209 5137.45 
-1887.29 -280.852 5123.15 
-1889.36 -282.138 5119.97 
-1835.29 -266.516 5142.13 
-1835.04 -265.653 5141.93 
-1835.2 -265.178 5142.12 
-1833.41 -266.706 5144.33 
-1830.12 -264.708 5143.78 
-1830.56 -263.956 5141.97 
-1829.16 -265.015 5145.17 
-1832.26 -267.028 5146.11 
-1836.81 -264.155 5143.08 
-1835.7 -264.601 5142.56 
-1844.82 -263.754 5141.06 
-1840.92 -262.693 5142.72 
-1839.26 -262.88 5142.98 
-1838.48 -262.363 5143.31 
-1837.68 -262.933 5143.34 
-1836.8 -263.569 5143.23 
-1886.21 -306.329 5122.92 
-1884.56 -306.021 5124.25 
-1882.83 -305.696 5125.68 
-1880.54 -305.224 5127.87 
-1889.67 -306.516 5121.38 
-1896.11 -306.125 5119.75 
-1893.08 -306.237 5119.88 
-1893.99 -306.629 5120.42 
-1895.26 -306.468 5120.25 
-1897.9 -306.432 5120.23 
-2014.03 -399.804 5073.32 
-2011.94 -396.931 5074.87 
-2008.43 -396.099 5076.82 
-2002.71 -392.259 5080.42 
-1996.76 -388.526 5084.11 
-1979.94 -373.24 5095.36 
-1974.87 -370.376 5098.48 
-1971.63 -366.411 5100.96 
-1967.66 -361.995 5104.16 
-1985.3 -377.606 5091.87 
-2006.13 -392.87 5078.55 
-2000.61 -389.285 5082 
-1996.93 -385.515 5084.54 
-1990.51 -381.822 5088.47 
-1971.37 -368.369 5100.7 
-1979.72 -374.741 5095.22 
-1995.12 -385.881 5085.41 
-1931.33 -336.013 5121.21 
-1938.88 -341.174 5118.26 
-1946.53 -347.129 5115.24 
-1955.02 -353.496 5111.9 
-1962.81 -359.616 5107.75 
-1967.86 -364.291 5103.49 
-1914.24 -330.813 5127.64 
-1918.03 -331.265 5126.09 
-1905.87 -325.407 5131.03 
-1899.35 -320.731 5133.61 
-1894.29 -316.595 5135.47 
-1892.64 -315.94 5136.27 
-1928.63 -334.408 5122.23 
-1926.82 -333.725 5122.89 
-1921.36 -331.923 5124.86 
-1924.12 -332.304 5123.85 
-1895.07 -312.839 5134.2 
-1893.12 -313.831 5135.58 
-1898.04 -308.644 5125.14 
-1895.53 -309.912 5129.94 
-1897.75 -307.512 5122.34 
-1888.55 -310.25 5135.76 
-1887.95 -310.266 5136.56 
-1879.76 -277.751 5126.7 
-1877.67 -276.494 5127.04 
-1877.78 -276.412 5126.96 
-1872.93 -275.291 5129.64 
-1872.5 -274.996 5130.47 
-1871.72 -277.621 5132.55 
-1871.7 -275.652 5131.3 
-1871.65 -275.526 5131.23 
-1871.41 -275.885 5131.56 
-1871.34 -275.422 5131.35 
-1871.14 -274.86 5131.12 
-1870.81 -274.261 5130.94 
-1870.83 -274.174 5130.8 
-1872.34 -275.449 5129.73 
-1870.56 -274.052 5130.82 
-1876.31 -275.136 5127.1 
-1873.74 -274.88 5128.99 
