-1901.48 -1041.54 6468.68 
-1901.62 -1041.51 6468.8 
-1900.78 -1039.87 6468.46 
-1900.9 -1039.97 6468.43 
-1901.09 -1040.35 6468.5 
-1901.09 -1040.14 6468.5 
-1901.46 -1041.08 6468.72 
-1901.63 -1041.34 6468.82 
-1901.42 -1040.84 6468.69 
-1901.32 -1040.6 6468.63 
-1883.21 -1043.03 6475.05 
-1883.46 -1042.64 6475.97 
-1884.03 -1042.71 6475.89 
-1882.76 -1042.57 6475.52 
-1882.54 -1042.8 6475.18 
-1898.75 -1036.74 6471.77 
-1901.5 -1040.25 6470.63 
-1901.69 -1040.56 6470.26 
-1899.08 -1036.77 6472.46 
-1899.25 -1037.1 6473.11 
-1998.62 -1025.81 6400.95 
-1997.53 -1024.52 6398.79 
-1996.78 -1023.97 6399.21 
-1995.4 -1021.17 6396.25 
-1994.96 -1020.79 6396.31 
-2002.63 -1028.98 6410.16 
-2000.54 -1027.53 6406.59 
-1998.76 -1026.14 6402.89 
-2012.2 -1038.6 6393.17 
-2011.41 -1038.75 6394.99 
-2001.76 -1028.58 6417.64 
-2032.21 -1067.08 6418.2 
-2030.94 -1067.13 6422.74 
-2030.19 -1065.95 6422.6 
-2029.64 -1063.63 6418.31 
-2008.73 -1031.74 6385.77 
-2008.56 -1032 6385.45 
-2008.68 -1032.54 6385.31 
-2009.07 -1034.73 6385.57 
-2009.6 -1037.84 6385.62 
-2008.56 -1032.66 6385.17 
-2004.55 -1034.62 6387.33 
-2005.22 -1035.69 6387.05 
-2004.3 -1033.35 6387.26 
-2004.25 -1031.69 6386.8 
-2004.71 -1030.62 6385.36 
-2007.6 -1039.13 6385.97 
-2005.9 -1036.5 6386.71 
-2009.36 -1039.67 6385.64 
-2009.4 -1038.6 6385.67 
-2009.31 -1037.67 6385.6 
-2005.36 -1030.33 6384.64 
-2005.93 -1030.19 6384.33 
-2006.69 -1030.61 6384.6 
-2007.67 -1031.03 6385.15 
-2007.5 -1031.17 6385.02 
-2008.31 -1031.46 6385.46 
-1974.12 -991.855 6376.02 
-1996.25 -1023.82 6401.04 
-1996.34 -1023.74 6401.85 
-1997.46 -1024.92 6403.34 
-1999 -1026.27 6406.09 
-2000.61 -1027.31 6411.95 
-2001.5 -1028.11 6414.34 
-1994.44 -1024.28 6432.42 
-1997.89 -1029.91 6431.01 
-2007 -1042.04 6430.65 
-2001.84 -1036.35 6434.22 
-2029.3 -1074.13 6426.18 
-2030.05 -1071.4 6420.02 
-2031.9 -1069.36 6422.11 
-1994.64 -1020.46 6396.56 
-1994.37 -1020.46 6397.33 
-1994.05 -1020.47 6398.17 
-1996 -1023.52 6399.94 
-1790.08 -1069.29 6583.87 
-1791.78 -1071.1 6582.3 
-1788.9 -1067.37 6584.99 
-1786.09 -1067.07 6587.45 
-1783.57 -1066.08 6589.69 
-1780.76 -1065.2 6592.18 
-1778.73 -1061.35 6594.13 
-1777.59 -1064.44 6594.82 
-1776.08 -1060.3 6596.07 
-1770.41 -1061.88 6597.62 
-1765.61 -1061.82 6598.87 
-1760.34 -1062.45 6600.15 
-1754.48 -1063.64 6601.49 
-1748.36 -1064.75 6602.73 
-1741.97 -1065.08 6602.24 
-1736.91 -1064.15 6601.52 
-1734.62 -1065.11 6601.47 
-1735.95 -1062.81 6601.54 
-1735.04 -1062.67 6601.56 
-1732.61 -1063.48 6601.81 
-1722.92 -1067.94 6603.72 
-1713.5 -1071.98 6605.68 
-1710.54 -1072.25 6605.74 
-1709.09 -1070.62 6605.99 
-1707.66 -1069.01 6606.34 
-1706.76 -1067.99 6605.86 
-1747.75 -1069.79 6573.51 
-1747.04 -1070.18 6573.86 
-1746.03 -1074.11 6573.44 
-1744.8 -1077.6 6573.01 
-1745.27 -1078.74 6572.62 
-1744.09 -1077.7 6573.26 
-1742.09 -1078.19 6574.44 
-1741.48 -1070.22 6577.25 
-1742.1 -1076.45 6575.11 
-1743.08 -1078.34 6573.48 
-1736.6 -1067 6580.68 
-1731.63 -1067.92 6585.23 
-1726.34 -1068.4 6588.65 
-1715.08 -1072.62 6597.79 
-1718.12 -1071.7 6595.49 
-1715.46 -1072.96 6597.48 
-1713.53 -1072.23 6599.05 
-1711.79 -1070.07 6601.23 
-1712.58 -1070.74 6600.41 
-1712.84 -1072 6599.79 
-1709.46 -1068.7 6602.77 
-1708.17 -1067.16 6603.76 
-1707.76 -1067.99 6603.84 
-1706.79 -1067.94 6604.94 
-1707.43 -1068.22 6604.16 
-1828.72 -1054 6523.54 
-1826.38 -1057.9 6529.59 
-1823.31 -1059.2 6532.12 
-1822.27 -1059.78 6532.92 
-1822.52 -1062.07 6534.82 
-1809.44 -1069.05 6541.11 
-1811.25 -1068.44 6539.91 
-1813.25 -1067.47 6538.19 
-1815.02 -1066.87 6537.63 
-1819.29 -1066.26 6537.56 
-1818.99 -1065.89 6537.44 
-1814.14 -1067.66 6537.84 
-1816.05 -1067.2 6537.9 
-1822.09 -1064.3 6536.49 
-1793.48 -1038.23 6527 
-1792.12 -1035.87 6527.91 
-1792.6 -1038.51 6526.45 
-1790.89 -1034.24 6528.48 
-1792.49 -1040.93 6524.81 
-1792.11 -1040 6525.23 
-1792.02 -1039.16 6525.79 
-1792.04 -1043.3 6524.08 
-1791.64 -1045.05 6523.77 
-1792.24 -1041.74 6524.2 
-1791.42 -1044.96 6522.8 
-1791.22 -1044.41 6522.83 
-1791.22 -1044.66 6522.63 
-1790.66 -1043.78 6522.29 
-1790.68 -1044.06 6522.1 
-1790.48 -1042.52 6523.22 
-1789.33 -1040.08 6524.63 
-1790.13 -1042.16 6522.6 
-1790.26 -1042.38 6522.71 
-1790.45 -1043.24 6522.13 
-1788.67 -1039.02 6525.1 
-1787.85 -1037.24 6526.34 
-1787.09 -1035.81 6527.14 
-1789.58 -1032.32 6529.22 
-1789.78 -1031.58 6529.81 
-1790.3 -1031.36 6530.23 
-1790.15 -1031.32 6530.15 
-1788.33 -1031.46 6530.06 
-1787 -1031.99 6529.53 
-1785.35 -1032.98 6528.4 
-1785.46 -1033.03 6528.48 
-1786.03 -1034.27 6527.37 
-1785.96 -1033.58 6528.31 
-1785.98 -1034.16 6527.61 
-1786.28 -1034.12 6528.13 
-1792.71 -1071.86 6555.93 
-1786.82 -1072.4 6558.4 
-1782.67 -1073.35 6560.64 
-1801.96 -1070.72 6548.84 
-1798.82 -1073.06 6555.81 
-1797.17 -1073.35 6556.52 
-1806.28 -1069.82 6543.66 
-1778.18 -1075.12 6565.33 
-1773.33 -1074.68 6567.59 
-1770.03 -1072.02 6566.01 
-1763.37 -1070.64 6566.62 
-1760.84 -1071.87 6567.66 
-1757.6 -1071.46 6569.18 
-1751.67 -1072.35 6572.18 
-1752.38 -1072.8 6572.15 
-1753.91 -1072.76 6571.88 
-1752.94 -1073.26 6572.67 
-1749.84 -1071.03 6572.55 
-1748.71 -1070.06 6572.85 
-1750.45 -1072.28 6572.57 
-1890.19 -1040.09 6481.38 
-1890.33 -1040.51 6480.87 
-1890.85 -1040.94 6480.11 
-1890.88 -1041.15 6478.95 
-1894.28 -1037.15 6475.81 
-1891.79 -1039.88 6481.22 
-1896.24 -1038.85 6481.32 
-1894.97 -1039.1 6481.34 
-1893.44 -1039.34 6481.44 
-1893.27 -1039.78 6480.98 
-1896.47 -1038.72 6481.58 
-1896.53 -1038.64 6481.69 
-1896.59 -1038.56 6481.8 
-1897.22 -1038.12 6482.59 
-1897.21 -1038.06 6482.65 
-1896.77 -1038.46 6482 
-1896.96 -1038.37 6482.2 
-1897.22 -1038.26 6482.45 
-1897.18 -1038.21 6482.48 
-1901.58 -1038.06 6481.35 
-1900.21 -1037.63 6483.92 
-1899.78 -1037.26 6484.85 
-1901.83 -1040.05 6476.63 
-1902.72 -1039.12 6477.44 
-1903.03 -1042.37 6470.28 
-1902.98 -1042.39 6470.01 
-1902.71 -1042.6 6470.07 
-1902.69 -1042.56 6469.87 
-1899.84 -1037.34 6484.63 
-1899.86 -1037.18 6484.82 
-1902.52 -1042.67 6469.79 
-1902.33 -1042.81 6469.81 
-1899.81 -1037.33 6484.33 
-1899.92 -1037.27 6484.44 
-1899.91 -1037.29 6484.53 
-1901.13 -1043.15 6469.27 
-1900.98 -1042.85 6468.67 
-1900.29 -1042.85 6468.25 
-1899.56 -1042.79 6467.79 
-1902.21 -1042.81 6469.61 
-1897.93 -1037.81 6483.44 
-1898.16 -1037.82 6483.59 
-1898.4 -1037.85 6483.73 
-1899.03 -1037.81 6484.17 
-1898.63 -1037.89 6483.86 
-1898.83 -1037.88 6484.01 
-1899.01 -1037.82 6484.1 
-1899.42 -1037.58 6484.16 
-1899.67 -1037.41 6484.18 
-1899.91 -1037.26 6484.21 
-1897.52 -1037.93 6482.96 
-1897.77 -1037.91 6483.16 
-1897.67 -1037.86 6483.15 
-1897.84 -1037.85 6483.29 
-1897.76 -1037.81 6483.29 
-1791.05 -1084.89 6582.33 
-1789.75 -1082.89 6583.55 
-1788.14 -1081 6585.04 
-1790.17 -1078.4 6583.38 
-1790.08 -1073.92 6583.66 
-1788.39 -1076.62 6585.02 
-1792.13 -1085.62 6579.63 
-1787.36 -1088.42 6584.98 
-1789.67 -1087.63 6583.26 
-1788.9 -1088.75 6584.03 
-1789.03 -1087.56 6583.97 
-1824.53 -1060.01 6532.77 
-1823.22 -1060.27 6533.26 
-1823.04 -1061.79 6534.47 
-1823.44 -1063.98 6536.33 
-1819.32 -1067.77 6538.3 
-1804.43 -1080.57 6564.51 
-1814.54 -1070.18 6537.85 
-1814.17 -1071.32 6541.2 
-1813.71 -1071.08 6542.39 
-1812.59 -1071.48 6544.73 
-1809.41 -1071.45 6547.11 
-1809.64 -1072.12 6549.88 
-1809.01 -1075.77 6555.58 
-1804.11 -1079.78 6562.38 
-1796.75 -1081.9 6570.61 
-1790.82 -1085.04 6577.29 
-1790.99 -1084.37 6575.3 
-1788.5 -1086.74 6580.89 
-2030.84 -1074.33 6461.27 
-2033.7 -1074.53 6460.78 
-2031.16 -1076.7 6454.55 
-2030.36 -1076.89 6451.34 
-2030.3 -1076.94 6448.36 
-2031.09 -1074.94 6438.27 
-2027.99 -1070.18 6465.89 
-2024.87 -1064.78 6467.34 
-2016.44 -1060.8 6473.94 
-1996.26 -1030.78 6435.92 
-1992.28 -1024.35 6434.68 
-1989.06 -1021.67 6445.79 
-1980.73 -1028.86 6488.49 
-1981.13 -1030.35 6488.01 
-1988.82 -1020.07 6453.89 
-1989.51 -1020.68 6453.77 
-2016.64 -1060.46 6466.6 
-2016.51 -1060.83 6470.43 
-2025.94 -1067.17 6461.71 
-2027.77 -1070.52 6456.82 
-1991.63 -1022.27 6444.11 
-2027.46 -1069.89 6440.67 
-2028.41 -1066.66 6430.11 
-2028.12 -1072.56 6449.54 
-1878.95 -1001.14 6431.39 
-1878.91 -1000.61 6432.66 
-1878.69 -1000.94 6431.67 
-1879.16 -1001.81 6430.21 
-1878.89 -1000.35 6433.24 
-1886.2 -999.242 6443.15 
-1885.74 -999.341 6442.42 
-1886.41 -999.889 6440.69 
-1885.31 -999.739 6440.79 
-1885.52 -999.44 6441.79 
-1886.34 -999.993 6439.75 
-1884.69 -999.895 6439.79 
-1884.29 -999.508 6440.45 
-1883.74 -999.424 6440.18 
-1882.3 -999.48 6438.62 
-1883.63 -999.325 6440.62 
-1882.88 -999.361 6439.73 
-1881.55 -999.506 6437.83 
-1880.99 -999.826 6436.49 
-1880.38 -1000.15 6435.15 
-1879.63 -1000.17 6434.36 
-1878.95 -999.512 6435.35 
-1879.09 -999.391 6436.13 
-1878.21 -999.376 6435.44 
-1877.57 -999.348 6435.03 
-1879.04 -1000.01 6434.18 
-1879.35 -999.64 6435.34 
-1876.87 -999.316 6434.58 
-1876.79 -999.226 6435.04 
-1876.85 -999.136 6435.62 
-1876.23 -999.108 6435.22 
-1886.53 -998.999 6443.68 
-1886.67 -999.104 6443.76 
-1886.47 -999.124 6443.68 
-1885.11 -998.05 6444.27 
-1885.37 -998.248 6444.1 
-1885.92 -998.575 6444.03 
-1885.66 -998.396 6444.17 
-1886.23 -998.754 6443.92 
-1886.59 -998.874 6443.94 
-1882.85 -996.79 6447.01 
-1882.98 -996.935 6446.4 
-1883.11 -997.089 6445.69 
-1883.36 -997.211 6445.28 
-1883.58 -997.34 6444.81 
-1883.93 -997.457 6444.55 
-1884.26 -997.552 6444.37 
-1884.71 -997.747 6444.42 
-1884.91 -997.9 6444.47 
-1882.62 -996.654 6447.48 
-1881.91 -996.465 6447.91 
-1881.6 -996.435 6447.67 
-1881.39 -996.361 6447.64 
-1881.18 -996.239 6447.81 
-1882.23 -996.477 6448.09 
-1882.47 -996.495 6448.14 
-1883.55 -978.669 6434.49 
-1887.82 -978.148 6437.6 
-1889.18 -977.874 6437.88 
-1884.61 -979.09 6434.76 
-1887.23 -978.577 6437.39 
-1879.47 -996.338 6444.21 
-1879.78 -995.934 6446.24 
-1879.24 -996.218 6444.26 
-1879.62 -996.242 6446.63 
-1879.9 -996.324 6446.69 
-1880.16 -996.42 6446.69 
-1879.96 -995.541 6448.28 
-1880.14 -995.635 6448.23 
-1879.48 -996.058 6446.92 
-1880.47 -996.507 6446.75 
-1873.1 -997.464 6438.35 
-1872.38 -996.401 6439.16 
-1872.36 -995.448 6440.28 
-1872.67 -997.613 6437.58 
-1872.52 -994.358 6441.17 
-1872.61 -994.024 6442.86 
-1872.04 -994.216 6444.15 
-1872.15 -994.151 6445.36 
-1873.83 -998.655 6435.72 
-1873.44 -998.585 6435.78 
-1872.79 -998.573 6435.27 
-1872.11 -998.53 6434.81 
-1872.26 -998.352 6435.27 
-1872.29 -997.865 6436.75 
-1876.13 -999.028 6435.61 
-1875.86 -998.946 6435.85 
-1875.68 -998.857 6436.2 
-1875.43 -998.773 6436.47 
-1875.12 -998.684 6436.71 
-1874.57 -998.623 6436.57 
-1873.14 -994.357 6447.4 
-1873.95 -994.323 6447.8 
-1874.8 -994.515 6447.36 
-1875.59 -995.025 6445.74 
-1876.37 -995.523 6444.17 
-1877.79 -996.335 6441.69 
-1877.33 -995.647 6444.17 
-1878.16 -996.505 6441.34 
-1873.15 -995.001 6445.59 
-1878.42 -996.482 6441.87 
-1878.76 -996.278 6443.22 
-1879.09 -996.013 6444.77 
-1900.15 -1039.08 6469.19 
-1900.91 -1039.97 6468.8 
-1901.58 -1040.46 6469.8 
-1901.74 -1040.59 6470.13 
-1901.16 -1040.15 6469.17 
-1901.44 -1040.36 6469.48 
-1901.8 -1042.18 6468.86 
-1901.65 -1041.89 6468.77 
-1901.72 -1041.79 6468.84 
-1900.31 -1042.56 6468.06 
-1901.06 -1042.46 6468.45 
-1901.89 -1041.77 6468.98 
-1901.86 -1041.56 6468.96 
-1901.05 -1040.07 6468.81 
-1901.16 -1040.15 6468.77 
-1901.25 -1040.38 6468.59 
-1901.34 -1040.3 6468.66 
-1901.31 -1040.26 6468.8 
-1901.77 -1041.3 6468.9 
-1901.63 -1041.06 6468.81 
-1901.57 -1040.79 6468.78 
-1901.46 -1040.54 6468.71 
-1883.42 -1042.7 6475.65 
-1901.9 -1040.68 6470.84 
-1901.94 -1040.74 6470.63 
-1902 -1040.78 6470.46 
-1901.92 -1040.63 6471.2 
-1894.09 -1039.09 6476.02 
-1898.83 -1038.22 6473.77 
-1902.18 -1040.82 6471.51 
-1901.77 -1040.61 6472.09 
-1997.03 -1024.24 6400.25 
-1997.58 -1024.88 6401.71 
-2030.79 -1069.54 6428.68 
-2028.97 -1068.45 6432.29 
-2029.48 -1069.97 6434.07 
-2008.41 -1032.14 6385.28 
-2008.21 -1031.64 6385.35 
-2008.74 -1034.54 6385.53 
-2008.41 -1032.73 6385.13 
-2008.36 -1032.32 6385.21 
-2004.89 -1034.86 6387.15 
-2004.45 -1033.61 6387.23 
-2005.68 -1035.8 6386.75 
-2004.48 -1032.2 6386.81 
-2004.34 -1031.91 6386.84 
-2004.78 -1031.06 6385.44 
-2005.09 -1030.48 6384.73 
-2007.29 -1038.34 6385.99 
-2008.77 -1038.66 6385.67 
-2006.82 -1037.34 6386.11 
-2009.11 -1038.3 6385.67 
-2008.9 -1036.97 6385.62 
-2008.39 -1034.28 6385.5 
-2006.18 -1030.64 6384.42 
-2005.6 -1030.51 6384.3 
-2007.12 -1031.13 6384.78 
-2008.07 -1031.76 6385.24 
-2031.48 -1072.37 6431.18 
-2030.95 -1071.36 6432.29 
-1788.24 -1072.06 6585.35 
-1786.04 -1070.13 6587.36 
-1782.92 -1069.44 6590.11 
-1780.27 -1068.25 6592.48 
-1776.86 -1067.4 6594.93 
-1774.11 -1063.37 6596.44 
-1772.25 -1066.61 6596.47 
-1768.39 -1065.21 6597.67 
-1763.28 -1064.83 6599.05 
-1757.35 -1065.61 6600.47 
-1750.96 -1066.8 6601.96 
-1744.48 -1067.92 6602.77 
-1738.26 -1068.97 6602.09 
-1736.03 -1066.55 6601.58 
-1732.88 -1067.6 6601.39 
-1730.82 -1068.63 6601.37 
-1732.56 -1066.2 6601.44 
-1731.96 -1065.82 6601.46 
-1730.14 -1066.33 6601.59 
-1721.95 -1070.05 6603.19 
-1713.04 -1073.53 6605 
-1711.57 -1073.41 6604.43 
-1710.08 -1071.73 6605 
-1708.27 -1069.69 6605.36 
-1708.02 -1069.34 6604.5 
-1747.37 -1070.82 6573.38 
-1748.16 -1070.89 6573.08 
-1746.5 -1074.35 6573.12 
-1747.03 -1075.09 6572.68 
-1745.83 -1078.95 6572.51 
-1744.55 -1078.95 6572.76 
-1745.51 -1079.87 6572.51 
-1744.74 -1079.94 6572.71 
-1743.85 -1078.92 6572.85 
-1742.67 -1079.03 6573.39 
-1741.09 -1079.47 6574.09 
-1739.59 -1080.62 6575.06 
-1740.88 -1079.6 6574.77 
-1743.44 -1079.66 6577.02 
-1742.56 -1078.48 6574.6 
-1743.51 -1079.36 6576.35 
-1742.04 -1075.21 6575.99 
-1741.16 -1070.15 6577.64 
-1742.23 -1076.93 6575.27 
-1736.15 -1067.59 6581.03 
-1730.84 -1068.57 6585.77 
-1726.37 -1069.2 6588.55 
-1718.82 -1072.38 6595.04 
-1713.8 -1073.12 6598.85 
-1715.96 -1073.17 6597.14 
-1714.91 -1074.13 6598.16 
-1710.33 -1070.11 6602.03 
-1712.04 -1071.57 6600.84 
-1712.7 -1072.52 6600.11 
-1713.14 -1073.17 6599.63 
-1708.73 -1068.74 6603.11 
-1709.08 -1069.74 6602.96 
-1708.7 -1069.74 6603.6 
-1822.9 -1064.25 6536.56 
-1809.55 -1069.75 6542.07 
-1811.46 -1069.31 6541.04 
-1812.75 -1068.37 6539.49 
-1819.51 -1066.75 6537.86 
-1814.35 -1068.16 6537.65 
-1814.79 -1068.48 6537.38 
-1813.48 -1068.73 6539.61 
-1819.36 -1067.13 6537.96 
-1792.84 -1037.55 6527.17 
-1791.64 -1035.76 6527.86 
-1791.58 -1038.43 6526.15 
-1792.11 -1037.48 6527 
-1790.46 -1034.29 6528.36 
-1791.45 -1040.81 6524.43 
-1791.07 -1040.01 6524.87 
-1791.23 -1039.31 6525.42 
-1791.63 -1039.63 6525.33 
-1791.72 -1044.09 6523.37 
-1791.8 -1042.48 6523.45 
-1791.39 -1045.3 6522.82 
-1791.34 -1041.7 6523.76 
-1790.69 -1044.61 6521.65 
-1790.72 -1044.85 6521.51 
-1790.67 -1044.35 6521.85 
-1790.43 -1043.42 6521.86 
-1790.45 -1043.75 6521.65 
-1789.99 -1041.83 6522.5 
-1790.37 -1042.93 6521.99 
-1788.44 -1038.86 6524.64 
-1787.27 -1036.63 6525.94 
-1789.14 -1032.27 6529.15 
-1789.29 -1031.49 6529.75 
-1789.75 -1031.24 6530.11 
-1790.08 -1031.06 6530.43 
-1788.56 -1031.14 6530.29 
-1786.58 -1031.93 6529.41 
-1785.27 -1032.95 6528.3 
-1785.56 -1033.91 6527.16 
-1786.47 -1035.18 6525.97 
-1786.34 -1034.92 6526.44 
-1788.11 -1038.16 6523.96 
-1788.03 -1038.04 6524.48 
-1794.08 -1073.82 6557.65 
-1786.23 -1074.98 6561.23 
-1783.51 -1075.46 6562.48 
-1780.96 -1078.21 6566.52 
-1801.99 -1071.36 6549.17 
-1805.95 -1070.22 6544.57 
-1801.59 -1073.31 6552.01 
-1798.28 -1074.89 6558.07 
-1778.23 -1081.08 6571.12 
-1775.1 -1080.64 6571.95 
-1770.68 -1075.64 6569.49 
-1771.81 -1081.1 6574.21 
-1764.9 -1073.35 6568.1 
-1763.62 -1071.97 6567.29 
-1759.33 -1074.77 6571.61 
-1758.54 -1073.78 6570.85 
-1758.21 -1072.79 6569.95 
-1751.26 -1073.26 6572.47 
-1751.81 -1073.28 6572.64 
-1755.13 -1074.4 6573.24 
-1752.55 -1073.29 6573.42 
-1751.92 -1073.32 6573.12 
-1749.18 -1071.62 6572.82 
-1750.28 -1073.22 6572.57 
-1891.57 -1040.24 6480.87 
-1891.82 -1040.63 6480.37 
-1892.26 -1041.02 6479.77 
-1892.28 -1041.31 6478.55 
-1894 -1040.79 6476.24 
-1893.02 -1040.22 6480.54 
-1896.91 -1038.92 6480.96 
-1896.77 -1038.73 6481.53 
-1896.1 -1039.26 6480.86 
-1894.63 -1039.53 6480.92 
-1894.66 -1040 6480.39 
-1896.79 -1038.62 6481.86 
-1896.88 -1038.53 6481.99 
-1897.01 -1038.44 6482.16 
-1897.66 -1037.99 6482.97 
-1897.42 -1038.11 6482.71 
-1897.61 -1037.96 6482.98 
-1897.25 -1038.32 6482.41 
-1897.55 -1038.21 6482.68 
-1897.49 -1038.16 6482.7 
-1903.15 -1038.25 6478.9 
-1901.04 -1037.87 6482.5 
-1900.34 -1037.44 6483.87 
-1899.88 -1037.09 6484.84 
-1902.73 -1041.21 6472.89 
-1903.48 -1040.16 6474.08 
-1904.36 -1039.35 6474.84 
-1903.38 -1042.05 6469.91 
-1903.23 -1042.16 6469.88 
-1903.15 -1042.1 6469.71 
-1902.99 -1042.31 6469.76 
-1902.9 -1042.25 6469.59 
-1902.77 -1042.39 6469.55 
-1899.99 -1037.04 6484.74 
-1899.92 -1036.9 6484.94 
-1902.6 -1042.49 6469.47 
-1900.22 -1037.05 6484.21 
-1900.06 -1037.17 6484.33 
-1900.26 -1037.01 6484.37 
-1900.14 -1037.04 6484.53 
-1901.95 -1042.74 6469.19 
-1901.64 -1042.52 6468.81 
-1902.46 -1042.52 6469.34 
-1898.01 -1037.85 6483.44 
-1898.23 -1037.86 6483.59 
-1898.45 -1037.89 6483.71 
-1899.39 -1037.58 6484.07 
-1898.6 -1037.93 6483.78 
-1898.83 -1037.91 6483.9 
-1898.89 -1037.88 6483.98 
-1899.21 -1037.7 6484 
-1899.77 -1037.33 6484.06 
-1899.98 -1037.2 6484.09 
-1900.24 -1037.03 6484.11 
-1897.9 -1037.95 6483.2 
-1898.04 -1037.93 6483.33 
-1897.88 -1037.89 6483.27 
-1898.05 -1037.89 6483.4 
-1787.5 -1085.77 6585.38 
-1786.27 -1083.8 6586.55 
-1784.55 -1081.93 6588.13 
-1786.29 -1079.15 6586.74 
-1786.34 -1075.07 6586.87 
-1784.11 -1077.68 6588.7 
-1785.15 -1089.11 6585.44 
-1785.12 -1090.09 6587.08 
-1786.59 -1089.91 6585.99 
-1785.3 -1088.48 6587.19 
-1819.39 -1067.41 6538.13 
-1797.8 -1080.59 6567.63 
-1813.96 -1070.19 6539.47 
-1814.57 -1069.18 6537.19 
-1811.91 -1071.08 6543.6 
-1813.7 -1070.24 6541.22 
-1808.61 -1071.17 6545.72 
-1806.14 -1072.13 6549.71 
-1807.52 -1073.45 6552.03 
-1804.35 -1077.86 6557.6 
-1800.53 -1079.8 6563.54 
-1789.15 -1084.15 6573.56 
-1792.3 -1082.1 6569.48 
-1784.02 -1087.7 6580.65 
-1784.47 -1088.1 6582.13 
-1782.48 -1087.83 6580.08 
-1781.16 -1091.17 6587.19 
-2030.41 -1076.01 6455.53 
-2029.55 -1075.58 6449.18 
-2029.85 -1076.24 6448.84 
-2030.26 -1074.07 6440.72 
-2027.76 -1069.58 6465.33 
-2029.83 -1074.85 6456.58 
-2024.81 -1065.4 6465.23 
-2027.82 -1069.48 6463.68 
-2028.53 -1072.14 6456.63 
-2027.88 -1071.6 6443.31 
-2028.88 -1074.04 6450.13 
-1886.15 -999.047 6443.67 
-1885.67 -999.169 6442.98 
-1885.17 -999.286 6442.21 
-1884.99 -999.412 6441.41 
-1884.38 -999.333 6441.25 
-1882.03 -999.378 6438.87 
-1884 -999.231 6441.5 
-1883.21 -999.257 6440.64 
-1882.47 -999.288 6439.79 
-1880.81 -999.533 6437.04 
-1881.2 -999.394 6438.03 
-1880.32 -999.854 6435.77 
-1879.72 -999.842 6435.22 
-1879.65 -999.441 6436.35 
-1879.96 -999.347 6437.19 
-1879.46 -999.29 6437.07 
-1878.79 -999.31 6436.34 
-1878.19 -999.276 6436.01 
-1877.51 -999.253 6435.53 
-1880.11 -999.536 6436.36 
-1877.52 -999.161 6436.08 
-1877.55 -999.06 6436.7 
-1876.88 -999.04 6436.21 
-1886.61 -998.936 6444.16 
-1886.33 -998.921 6444.16 
-1885.22 -998.03 6444.54 
-1885.4 -998.206 6444.34 
-1886.17 -998.51 6444.31 
-1886.47 -998.69 6444.19 
-1885.89 -998.319 6444.46 
-1886.53 -998.762 6444.55 
-1882.95 -996.683 6447.47 
-1883.22 -996.856 6446.91 
-1883.33 -996.991 6446.42 
-1883.57 -997.101 6446.07 
-1883.77 -997.223 6445.65 
-1884.03 -997.353 6445.23 
-1884.39 -997.538 6444.8 
-1884.47 -997.587 6444.59 
-1884.69 -997.732 6444.67 
-1885.05 -997.843 6444.76 
-1882.68 -996.5 6448.21 
-1882.13 -996.606 6447.76 
-1881.5 -996.654 6447.18 
-1880.86 -996.627 6446.79 
-1882.41 -996.604 6447.96 
-1882.64 -996.644 6448.02 
-1883.1 -978.337 6436.07 
-1887 -978.227 6438.08 
-1882.77 -978.746 6434.81 
-1884.31 -979.182 6435.46 
-1886.53 -978.787 6437.79 
-1879.58 -995.814 6446.35 
-1879.79 -995.44 6448.35 
-1879.41 -995.657 6446.65 
-1878.81 -996.589 6445.22 
-1878.84 -996.786 6444.82 
-1879.17 -996.792 6445.07 
-1879.51 -996.838 6445.24 
-1879.95 -996.823 6445.61 
-1879.29 -995.922 6447.06 
-1878.66 -996.457 6445.38 
-1880.52 -996.797 6446.09 
-1871.75 -996.202 6438.63 
-1871.51 -994.993 6439.98 
-1871.88 -997.017 6437.67 
-1872.14 -993.005 6442.71 
-1871.66 -993.643 6441 
-1871.66 -992.795 6444.35 
-1871.9 -995.764 6441.92 
-1872.57 -996.065 6442.32 
-1873.08 -995.631 6443.78 
-1874.08 -998.547 6436.56 
-1873.36 -998.477 6436.29 
-1872.63 -998.48 6435.66 
-1871.91 -998.462 6435.09 
-1871.86 -998.021 6436.06 
-1871.36 -997.064 6436.97 
-1876.65 -998.95 6436.53 
-1876.42 -998.868 6436.81 
-1876.21 -998.778 6437.14 
-1875.92 -998.7 6437.34 
-1875.17 -998.556 6437.37 
-1875.72 -998.588 6437.67 
-1874.6 -998.477 6437.21 
-1873.94 -994.984 6446 
-1874.65 -994.687 6447.16 
-1875.32 -994.43 6448.17 
-1875.83 -994.595 6447.58 
-1876.56 -995.099 6445.96 
-1878.13 -995.987 6443.3 
-1877.34 -995.058 6446.53 
-1878.1 -995.486 6445.24 
-1878.42 -996.051 6443.48 
-1873.94 -995.777 6443.76 
-1878.67 -995.979 6444.18 
-1878.95 -995.803 6445.31 
-1879.23 -995.5 6446.93 
-1901.76 -1040.6 6469.81 
-1901.9 -1040.7 6470.13 
-1901.31 -1040.27 6469.15 
-1901.61 -1040.48 6469.47 
-1902.19 -1042.4 6469.14 
-1901.96 -1042.12 6468.99 
-1902.01 -1042.01 6469.04 
-1902.2 -1042.01 6469.16 
-1902.11 -1041.78 6469.1 
-1902.01 -1041.52 6469.04 
-1901.47 -1040.37 6469.14 
-1901.57 -1040.45 6468.82 
-1901.56 -1040.44 6469.02 
-1901.91 -1041.25 6468.98 
-1901.77 -1041.02 6468.89 
-1901.82 -1040.88 6468.92 
-1901.67 -1040.65 6468.83 
-1902.2 -1040.93 6471.03 
-1902.19 -1040.92 6470.81 
-1902.17 -1040.9 6470.48 
-1902.38 -1041.05 6470.85 
-1902.3 -1040.96 6471.31 
-1898.54 -1039.49 6474.38 
-1901.75 -1040.86 6472.55 
-1902.55 -1040.82 6471.6 
-1902.69 -1040.71 6471.95 
-2029.46 -1072.7 6440.27 
-2028.43 -1072.93 6444.51 
-2008.2 -1032.76 6385.11 
-2008.23 -1032.31 6385.18 
-2004.67 -1033.97 6387.13 
-2005.27 -1034.94 6386.89 
-2004.73 -1032.57 6386.63 
-2005.94 -1035.65 6386.53 
-2004.92 -1031.42 6385.37 
-2004.99 -1030.59 6384.61 
-2008.13 -1038.25 6385.67 
-2008.47 -1037.7 6385.66 
-2008.77 -1037.6 6385.63 
-2006.77 -1036.69 6386.11 
-2007.66 -1037.25 6385.82 
-2008.32 -1035.41 6385.76 
-2007.9 -1033.68 6385.33 
-2007.94 -1032.86 6385.1 
-2006.23 -1031.03 6384.48 
-2006.87 -1031.3 6384.67 
-2005.54 -1030.73 6384.28 
-2007.78 -1031.78 6385.07 
-1784.94 -1072.98 6588.19 
-1782.01 -1072.54 6590.77 
-1779.17 -1071.35 6593.23 
-1775.86 -1070.44 6594.95 
-1771.24 -1069.79 6596.28 
-1766.96 -1068.85 6597.52 
-1763.45 -1067.75 6598.59 
-1758.62 -1068.21 6599.77 
-1753.39 -1068.71 6601.06 
-1747.32 -1069.99 6602.44 
-1740.99 -1071.28 6602.66 
-1733.51 -1072.03 6601.72 
-1732.42 -1069.42 6601.38 
-1729.41 -1070.8 6601.3 
-1729.17 -1069.13 6601.36 
-1727.33 -1071.58 6601.29 
-1728.1 -1069.21 6601.37 
-1724.35 -1070.57 6602 
-1714.25 -1074.63 6604.07 
-1710.59 -1072.3 6603.91 
-1711.85 -1073.69 6603.18 
-1712.83 -1074.82 6603.5 
-1709.24 -1070.79 6604.5 
-1709.57 -1070.98 6603.65 
-1748.22 -1072.04 6572.99 
-1747.8 -1072.47 6572.82 
-1749.12 -1072.53 6572.8 
-1746.24 -1079.68 6572.37 
-1747.34 -1076.29 6572.3 
-1744.1 -1079.81 6572.8 
-1744.91 -1080.96 6572.66 
-1745.83 -1080.74 6572.41 
-1744.22 -1080.97 6572.81 
-1743.48 -1079.62 6572.98 
-1741.63 -1079.53 6573.9 
-1742.44 -1079.94 6573.48 
-1740.07 -1080.63 6574.87 
-1739.16 -1080.56 6575.17 
-1742.18 -1080.05 6576.98 
-1737.84 -1081.41 6578.4 
-1738.34 -1081.61 6577.99 
-1745.2 -1080.02 6580.51 
-1744.98 -1080.24 6580.72 
-1744.02 -1079.29 6576.61 
-1743.33 -1078.56 6575.28 
-1742.65 -1077.24 6575.37 
-1745.43 -1079.84 6580.26 
-1740.87 -1071.13 6578.04 
-1742.07 -1075.23 6576.34 
-1742.45 -1075.75 6576.24 
-1735.74 -1068.32 6581.49 
-1729.46 -1069.23 6586.6 
-1725.26 -1070.34 6589.52 
-1719.06 -1073.25 6594.95 
-1716.76 -1074.27 6596.85 
-1713.83 -1073.84 6599.16 
-1715.32 -1074.36 6597.8 
-1714.77 -1074.76 6598.58 
-1711.44 -1071.87 6601.25 
-1710.02 -1070.41 6602.21 
-1712.79 -1073.3 6600.44 
-1713.05 -1073.5 6600.03 
-1713.5 -1074.17 6599.81 
-1710.16 -1071.24 6602.82 
-1710.84 -1071.63 6602.02 
-1809.63 -1070.32 6543.04 
-1812.18 -1069.81 6541.55 
-1813.73 -1069.28 6539.81 
-1813.92 -1069.44 6538.72 
-1791.27 -1035.8 6527.75 
-1790.7 -1039 6525.46 
-1790.41 -1038.43 6525.76 
-1790.84 -1037.62 6526.46 
-1791.37 -1036.65 6527.3 
-1790.12 -1034.45 6528.19 
-1790.52 -1041.28 6523.78 
-1790.35 -1040.52 6524.26 
-1790.26 -1039.69 6524.81 
-1791.27 -1045.27 6522.38 
-1791.6 -1043.49 6522.84 
-1790.81 -1042.74 6522.85 
-1790.55 -1042.07 6523.24 
-1790.73 -1045.08 6521.32 
-1790.4 -1044.03 6521.19 
-1790.46 -1044.04 6521.46 
-1790.41 -1044.32 6520.96 
-1790.28 -1042.78 6521.74 
-1790.32 -1043.19 6521.58 
-1790.35 -1043.54 6521.38 
-1789.95 -1041.76 6522.25 
-1788.48 -1038.9 6524.22 
-1788.73 -1032.2 6529.08 
-1788.83 -1031.36 6529.73 
-1789.31 -1031.12 6530.09 
-1789.88 -1030.88 6530.47 
-1789.06 -1030.7 6530.58 
-1787.06 -1031.55 6529.69 
-1785.05 -1032.68 6528.38 
-1785.02 -1032.87 6528.27 
-1785.71 -1034.23 6526.53 
-1786.6 -1035.44 6525.49 
-1788.19 -1038.27 6523.43 
-1789.65 -1041.12 6521.48 
-1789.7 -1041.22 6521.68 
-1789.73 -1041.3 6521.93 
-1789.84 -1041.53 6522.08 
-1794.05 -1075.32 6559.4 
-1787.67 -1076.47 6562.26 
-1782.86 -1080.02 6567.47 
-1779.12 -1082.51 6571.69 
-1805.46 -1070.6 6545.62 
-1805.53 -1070.93 6546.58 
-1803.12 -1074.34 6552.49 
-1798.58 -1076.52 6559.37 
-1775 -1084.42 6575.25 
-1774.85 -1083.45 6574.58 
-1766.44 -1076.86 6571.64 
-1769.86 -1082.23 6575.98 
-1761.49 -1076.29 6572.25 
-1756.67 -1075.57 6574.27 
-1751.24 -1073.75 6572.65 
-1751 -1074.36 6573.88 
-1753.91 -1073.95 6573.84 
-1750.86 -1074.87 6575.85 
-1750.75 -1074.94 6575.22 
-1749.92 -1074.01 6572.49 
-1750.01 -1075.31 6573.62 
-1893.29 -1040.67 6479.97 
-1893.81 -1041.06 6479.4 
-1893.36 -1041.36 6478.66 
-1894.52 -1041.45 6476.32 
-1893.63 -1041.54 6477.6 
-1894.35 -1040.38 6480.03 
-1897.35 -1038.78 6481.16 
-1897.48 -1039.01 6480.58 
-1896.73 -1039.37 6480.48 
-1897.12 -1038.64 6481.8 
-1895.79 -1039.7 6480.45 
-1895.74 -1040.36 6479.7 
-1896.26 -1039.93 6480.03 
-1897.15 -1038.52 6482.15 
-1897.21 -1038.45 6482.26 
-1897.34 -1038.36 6482.42 
-1897.78 -1038.02 6483.01 
-1897.98 -1037.99 6483.2 
-1897.84 -1038.05 6483.01 
-1897.61 -1038.25 6482.68 
-1897.99 -1038.13 6483.02 
-1897.92 -1038.09 6483.02 
-1904.42 -1038.41 6476.97 
-1901.59 -1038.01 6481.58 
-1900.86 -1037.6 6482.99 
-1900.42 -1037.19 6483.96 
-1903.44 -1041.52 6471.08 
-1904.64 -1041.02 6470.67 
-1905.18 -1040.28 6471.67 
-1906.07 -1039.59 6472.13 
-1903.5 -1041.85 6469.9 
-1903.31 -1041.83 6469.76 
-1903.2 -1041.92 6469.71 
-1902.99 -1041.85 6469.59 
-1902.94 -1042.02 6469.57 
-1902.75 -1041.98 6469.46 
-1902.67 -1042.11 6469.42 
-1902.57 -1042.22 6469.37 
-1900.06 -1036.78 6484.85 
-1900.01 -1036.73 6484.95 
-1902.43 -1042.26 6469.29 
-1900.54 -1036.8 6484.12 
-1900.41 -1036.86 6484.3 
-1900.23 -1036.77 6484.63 
-1902.24 -1042.26 6469.19 
-1898.19 -1037.89 6483.51 
-1898.38 -1037.92 6483.63 
-1899.51 -1037.5 6483.96 
-1899.77 -1037.32 6483.96 
-1898.51 -1037.95 6483.67 
-1898.78 -1037.93 6483.81 
-1899.1 -1037.75 6483.81 
-1899.17 -1037.71 6483.91 
-1899.52 -1037.48 6483.86 
-1900.1 -1037.11 6483.94 
-1900.24 -1037.02 6484 
-1900.51 -1036.85 6484.01 
-1898.13 -1037.98 6483.33 
-1898.25 -1037.96 6483.44 
-1898.26 -1037.93 6483.5 
-1783.94 -1086.72 6588.45 
-1782.94 -1084.51 6589.42 
-1780.02 -1084.02 6591.64 
-1782.47 -1080.68 6590 
-1782.59 -1075.46 6590.13 
-1780.62 -1078.55 6591.69 
-1781.18 -1091.75 6588.28 
-1783.34 -1091.22 6588.34 
-1783.5 -1091.26 6588.63 
-1781.51 -1089.75 6590.27 
-1796.74 -1079.89 6566.24 
-1792.15 -1081.5 6568.21 
-1812.73 -1070.32 6542.14 
-1809.68 -1070.77 6543.92 
-1801.56 -1077.48 6556.91 
-1801.05 -1078.13 6559.23 
-1797.29 -1078.66 6563.54 
-1785.98 -1084.9 6574.24 
-1780.68 -1088.05 6579.56 
-1776.85 -1091.04 6584.42 
-1778.49 -1091.14 6585.61 
-1779.03 -1091.91 6587.35 
-1775.98 -1091.05 6583.68 
-1777.6 -1093.23 6589.01 
-2029.37 -1075.08 6449.95 
-2029.24 -1073.63 6456.62 
-1886 -998.889 6444.01 
-1885.49 -998.977 6443.4 
-1885.1 -999.114 6442.74 
-1884.63 -999.224 6442.05 
-1881.65 -999.309 6438.93 
-1883.53 -999.147 6441.51 
-1884.01 -999.071 6442.1 
-1882.84 -999.183 6440.74 
-1882.12 -999.215 6439.9 
-1880.46 -999.407 6437.28 
-1880.79 -999.311 6438.14 
-1880.24 -999.252 6437.99 
-1879.7 -999.2 6437.81 
-1878.95 -999.21 6437.08 
-1878.24 -999.185 6436.58 
-1878.17 -999.094 6437.06 
-1878.15 -998.98 6437.7 
-1877.41 -998.963 6437.13 
-1886.22 -998.744 6444.6 
-1886.02 -998.709 6444.55 
-1885.5 -997.95 6444.86 
-1885.68 -998.134 6444.66 
-1886.37 -998.425 6444.59 
-1886.64 -998.601 6444.45 
-1886.46 -998.619 6444.86 
-1886.14 -998.235 6444.77 
-1885.97 -998.532 6445.04 
-1882.92 -996.509 6448.25 
-1883.28 -996.728 6447.41 
-1883.52 -996.852 6447.02 
-1883.68 -996.979 6446.59 
-1883.97 -997.106 6446.2 
-1884.13 -997.232 6445.78 
-1884.38 -997.446 6445.08 
-1884.46 -997.319 6445.55 
-1884.8 -997.637 6444.97 
-1885.28 -997.76 6445.06 
-1882.82 -996.59 6448.32 
-1882.48 -996.739 6447.62 
-1882.05 -996.772 6447.23 
-1881.16 -996.809 6446.5 
-1881.71 -996.88 6446.69 
-1882.72 -996.862 6447.46 
-1882.95 -996.824 6447.73 
-1882.28 -978.537 6436.04 
-1887.32 -978.492 6439.44 
-1884 -979.264 6435.95 
-1885.02 -978.758 6438.51 
-1879.61 -995.327 6448.46 
-1879.1 -995.784 6447.21 
-1879.42 -995.213 6448.57 
-1878 -997.018 6443.62 
-1878.28 -997.11 6443.63 
-1878.8 -997.109 6444.01 
-1879.33 -997.066 6444.5 
-1879.91 -997.043 6444.97 
-1880.36 -996.968 6445.5 
-1878.55 -996.276 6445.69 
-1877.91 -996.828 6443.97 
-1880.91 -996.965 6445.89 
-1871 -995.962 6438.03 
-1870.82 -995.111 6439.21 
-1870.78 -994.32 6439.94 
-1871.76 -992.516 6441.9 
-1871.49 -992.342 6443.42 
-1870.58 -993.164 6440.56 
-1870.99 -992.273 6441.44 
-1871.8 -996.09 6440.44 
-1872.71 -996.752 6440.5 
-1873.34 -996.317 6441.96 
-1873.91 -998.397 6436.96 
-1873.33 -998.296 6436.83 
-1872.77 -998.357 6436.27 
-1872.13 -998.365 6435.79 
-1871.65 -998.397 6435.2 
-1871.43 -997.805 6435.89 
-1870.93 -997.557 6435.82 
-1870.71 -996.577 6436.8 
-1870.5 -997.048 6435.93 
-1877.22 -998.874 6437.49 
-1876.95 -998.79 6437.74 
-1876.73 -998.688 6438.07 
-1876.31 -998.588 6438.09 
-1875.57 -998.404 6438.09 
-1875 -998.366 6437.8 
-1876.16 -998.427 6438.44 
-1874.35 -998.295 6437.55 
-1874.75 -995.485 6444.95 
-1875.49 -995.092 6446.4 
-1876.19 -994.635 6448.01 
-1876.59 -994.555 6448.14 
-1878.45 -995.606 6445.2 
-1877.25 -994.517 6448.68 
-1878.1 -994.939 6447.41 
-1878.5 -995.116 6447.11 
-1878.74 -995.503 6446.07 
-1874.03 -996.792 6440.97 
-1874.62 -996.394 6442.35 
-1879 -995.377 6447 
-1879.24 -995.109 6448.63 
-1901.9 -1040.69 6469.76 
-1902.09 -1040.84 6470.16 
-1901.74 -1040.58 6469.41 
-1902.38 -1041.98 6469.25 
-1902.25 -1041.7 6469.18 
-1902.14 -1041.43 6469.11 
-1901.81 -1040.62 6469.06 
-1901.81 -1040.62 6469.27 
-1902.02 -1041.15 6469.03 
-1902.03 -1040.94 6469.03 
-1901.87 -1040.7 6468.95 
-1902.46 -1041.08 6471.14 
-1902.54 -1040.98 6471.35 
-1902.39 -1041.06 6470.63 
-1902.62 -1041.19 6470.96 
-1902.7 -1041.1 6471.16 
-1902.74 -1040.79 6471.58 
-1898.54 -1040.45 6474.8 
-1900.11 -1041.65 6473.81 
-1902.07 -1040.73 6472.84 
-1902.81 -1040.61 6472.27 
-1902.98 -1040.62 6471.99 
-1903.14 -1040.5 6472.39 
-2008.13 -1032.38 6385.14 
-2004.99 -1034.23 6386.89 
-2004.98 -1032.91 6386.45 
-2005.52 -1034.81 6386.58 
-2005.04 -1031.6 6385.13 
-2006.32 -1035.71 6386.21 
-2004.99 -1030.69 6384.38 
-2007.98 -1036.48 6385.75 
-2008.08 -1035.67 6385.77 
-2006.77 -1035.92 6386.08 
-2007.41 -1036.21 6385.9 
-2007.58 -1033.79 6385.35 
-2007.67 -1033.12 6385.13 
-2007.98 -1032.46 6385.1 
-2007.75 -1032.78 6385.14 
-2006.12 -1031.24 6384.48 
-2006.85 -1031.6 6384.71 
-2007.56 -1031.82 6384.94 
-2005.59 -1031.06 6384.33 
-1779.13 -1076.22 6592.86 
-1778.21 -1074.16 6593.57 
-1773.83 -1073.87 6595.02 
-1770.09 -1072.87 6596.13 
-1765.5 -1072.04 6597.44 
-1760.9 -1071.02 6598.78 
-1755.33 -1071.32 6600.18 
-1750.23 -1071.66 6601.45 
-1744.73 -1073.19 6602.63 
-1738.23 -1074.19 6602.55 
-1732.14 -1075.6 6601.86 
-1727.99 -1074.46 6601.23 
-1729.02 -1072.25 6601.24 
-1726.29 -1073.96 6601.2 
-1725.57 -1073.82 6601.22 
-1725.35 -1072.45 6601.27 
-1723.23 -1075.19 6601.19 
-1723.75 -1072.67 6601.41 
-1715.9 -1075.59 6603.08 
-1713.27 -1075.21 6602.38 
-1712.56 -1074.14 6602.2 
-1711.02 -1072.51 6602.96 
-1714.11 -1076.26 6602.66 
-1748.55 -1073.39 6572.43 
-1749.16 -1073.6 6572.51 
-1747.42 -1077.16 6572.18 
-1746.59 -1080.59 6572.24 
-1746.58 -1079.37 6572.33 
-1743.84 -1080.51 6572.92 
-1744.52 -1081.98 6572.77 
-1745.35 -1081.78 6572.52 
-1746.16 -1081.72 6572.31 
-1743.94 -1081.73 6572.98 
-1744.23 -1082.15 6572.95 
-1743.13 -1081 6573.32 
-1741.57 -1080.01 6573.88 
-1740.51 -1080.53 6574.65 
-1741.96 -1080.77 6573.84 
-1738.83 -1081.83 6577.62 
-1738.86 -1080.54 6575.41 
-1737.54 -1081.2 6578.52 
-1741.22 -1080.66 6577.76 
-1744.61 -1080.46 6580.99 
-1736.73 -1081.39 6580.04 
-1737.01 -1081.67 6580.06 
-1737.23 -1081.96 6580.16 
-1744.14 -1078.49 6581.46 
-1743.52 -1078.58 6581.82 
-1743.17 -1078.93 6582.13 
-1744.62 -1079.26 6577.03 
-1743.36 -1077.76 6575.72 
-1744.11 -1078.69 6575.97 
-1745.79 -1079.75 6580.08 
-1742.82 -1076.23 6576.16 
-1744.61 -1078.45 6581.16 
-1740.81 -1071.85 6578.51 
-1742.32 -1074.24 6577.2 
-1742.74 -1074.55 6577.26 
-1735.1 -1069.02 6582.26 
-1728.9 -1069.87 6587.1 
-1724.39 -1071.34 6590.46 
-1718.91 -1074 6595.06 
-1715.85 -1074.77 6597.38 
-1716.85 -1075.54 6596.74 
-1713.91 -1074.5 6599.42 
-1715.3 -1075.01 6598.08 
-1714.42 -1075.27 6599.22 
-1714.98 -1075.52 6598.69 
-1712.32 -1073.16 6601.25 
-1713.62 -1074.55 6600.6 
-1713.64 -1074.49 6600.2 
-1714.17 -1075.25 6599.74 
-1714.28 -1075.44 6600.05 
-1711.68 -1072.86 6602.1 
-1789.66 -1039.24 6524.93 
-1789.66 -1038.6 6525.38 
-1789.74 -1037.96 6525.86 
-1790.75 -1036.67 6527.11 
-1789.93 -1037.18 6526.47 
-1790.13 -1035.06 6527.87 
-1788.56 -1032.33 6528.99 
-1789.74 -1041.77 6523.17 
-1789.67 -1040.99 6523.69 
-1789.49 -1040.09 6524.27 
-1791.33 -1044.18 6522.19 
-1791.09 -1045.38 6521.75 
-1790.72 -1045.34 6521.11 
-1790.78 -1043.52 6522.29 
-1790.03 -1043.2 6522.26 
-1789.84 -1042.55 6522.66 
-1790.42 -1044.6 6520.73 
-1790.26 -1043.4 6521.11 
-1790.28 -1043.7 6520.9 
-1790.28 -1043.96 6520.67 
-1790.18 -1042.57 6521.46 
-1790.2 -1042.92 6521.24 
-1788.53 -1031.14 6529.84 
-1789.03 -1030.98 6530.14 
-1789.45 -1030.75 6530.46 
-1789.49 -1030.47 6530.8 
-1787.86 -1031.04 6530.13 
-1786.3 -1031.69 6529.39 
-1784.78 -1032.72 6528.21 
-1785.6 -1034.22 6526.36 
-1787.05 -1036.21 6524.27 
-1786.81 -1035.76 6524.89 
-1788.2 -1038.27 6522.98 
-1789.55 -1040.89 6521.32 
-1789.94 -1042.05 6520.84 
-1790.06 -1042.29 6521.17 
-1795.48 -1077.06 6561.5 
-1790.15 -1078.37 6563.65 
-1788.77 -1077.42 6562.93 
-1783.7 -1080.98 6568.26 
-1779.77 -1083.57 6571.97 
-1775.63 -1085.03 6575.45 
-1772.35 -1084.95 6577.47 
-1765.42 -1081.39 6576.08 
-1769.03 -1084.73 6578.03 
-1750.83 -1074.76 6576.88 
-1754.82 -1075.3 6575.09 
-1749.56 -1076.44 6575.34 
-1748.73 -1078.68 6578.46 
-1749.47 -1074.7 6577.06 
-1748.52 -1077.25 6578.42 
-1748.68 -1075.78 6577.8 
-1749.48 -1075.25 6572.13 
-1748.4 -1078.08 6575.08 
-1748.55 -1077.35 6573.73 
-1748.18 -1079.64 6576.6 
-1894.93 -1040.76 6479.46 
-1895.46 -1041.14 6478.89 
-1894.45 -1041.44 6478.55 
-1896.62 -1041.43 6476.04 
-1896.72 -1041.74 6476.45 
-1897.95 -1038.83 6480.77 
-1897.11 -1039.54 6480.11 
-1897.93 -1039.16 6480.2 
-1897.69 -1038.69 6481.42 
-1897.52 -1038.54 6482.04 
-1896.21 -1040.66 6479.21 
-1896.7 -1040.1 6479.66 
-1897.55 -1038.42 6482.45 
-1897.52 -1038.36 6482.52 
-1898.08 -1038.02 6483.22 
-1898.23 -1038.02 6483.35 
-1898.13 -1038.06 6483.21 
-1897.77 -1038.26 6482.76 
-1898.08 -1038.16 6483.04 
-1898.28 -1038.12 6483.22 
-1898.26 -1038.09 6483.26 
-1906.07 -1038.63 6474.37 
-1903.69 -1038.27 6478.33 
-1902.15 -1038.16 6480.63 
-1901.41 -1037.78 6482.02 
-1900.97 -1037.36 6483.02 
-1900.55 -1036.96 6483.97 
-1903.95 -1041.65 6470.13 
-1906.21 -1040.3 6470.42 
-1904.96 -1041.01 6470.41 
-1907.35 -1039.6 6470.56 
-1903.27 -1041.68 6469.79 
-1903.55 -1041.77 6470.1 
-1903.07 -1041.69 6469.63 
-1902.87 -1041.61 6469.52 
-1902.76 -1041.74 6469.46 
-1902.59 -1041.73 6469.36 
-1902.49 -1041.86 6469.32 
-1900.16 -1036.51 6484.93 
-1900.08 -1036.55 6485 
-1900.71 -1036.58 6484.1 
-1900.58 -1036.43 6484.41 
-1900.5 -1036.62 6484.37 
-1900.33 -1036.59 6484.63 
-1899.78 -1037.3 6483.86 
-1900.06 -1037.12 6483.84 
-1898.46 -1037.98 6483.58 
-1898.73 -1037.96 6483.73 
-1899.08 -1037.75 6483.72 
-1899.42 -1037.53 6483.71 
-1899.37 -1037.57 6483.81 
-1899.68 -1037.36 6483.74 
-1899.96 -1037.18 6483.74 
-1900.37 -1036.91 6483.81 
-1900.47 -1036.86 6483.88 
-1900.72 -1036.69 6483.91 
-1898.38 -1038.01 6483.49 
-1780.47 -1087.09 6591.13 
-1778.68 -1081.5 6592.55 
-1775.75 -1087.53 6592.57 
-1775.24 -1084.47 6593.14 
-1776.28 -1079.06 6593.65 
-1780.39 -1092.64 6589.37 
-1780.53 -1093.01 6590.28 
-1778.09 -1093.52 6591.89 
-1777.03 -1089.99 6591.89 
-1791.47 -1080.86 6566.88 
-1792.51 -1079.64 6565.25 
-1785.5 -1084.22 6572.65 
-1779.76 -1087.61 6578.85 
-1775.41 -1090.77 6583.05 
-1772.84 -1092.99 6585.92 
-1774.11 -1093.4 6587.86 
-1775.37 -1093.18 6588.01 
-1776.48 -1093.62 6589.8 
-1885.76 -998.744 6444.25 
-1885.21 -998.79 6443.73 
-1884.85 -998.926 6443.1 
-1884.52 -999.054 6442.51 
-1881.35 -999.238 6439.07 
-1883.1 -999.034 6441.57 
-1883.58 -998.915 6442.24 
-1884.17 -998.881 6442.75 
-1882.51 -999.099 6440.9 
-1881.73 -999.148 6439.95 
-1880.85 -999.193 6438.89 
-1880.34 -999.137 6438.76 
-1879.59 -999.115 6438.22 
-1878.9 -999.112 6437.61 
-1878.7 -999.024 6437.94 
-1879.11 -998.939 6438.81 
-1878.64 -998.893 6438.66 
-1877.93 -998.885 6438.07 
-1885.73 -998.518 6444.89 
-1885.76 -997.867 6445.18 
-1885.96 -998.05 6444.98 
-1886.59 -998.331 6444.89 
-1886.76 -998.499 6444.71 
-1886.4 -998.47 6445.24 
-1885.92 -998.356 6445.51 
-1886.4 -998.15 6445.09 
-1885.69 -998.331 6445.41 
-1883.11 -996.507 6448.37 
-1883.64 -996.741 6447.47 
-1883.85 -996.862 6447.08 
-1884.03 -996.982 6446.69 
-1884.32 -997.071 6446.44 
-1884.41 -997.184 6446.05 
-1884.73 -997.454 6445.25 
-1884.75 -997.252 6445.9 
-1884.96 -997.382 6445.55 
-1885.13 -997.582 6445.28 
-1885.58 -997.687 6445.38 
-1883.1 -996.759 6448.04 
-1883.07 -996.578 6448.55 
-1882.35 -996.971 6446.88 
-1881.43 -997.026 6446.08 
-1882 -997.065 6446.37 
-1882.96 -997.037 6447.12 
-1883.27 -996.998 6447.47 
-1878.93 -995.644 6447.37 
-1878.32 -996.166 6445.74 
-1878.75 -995.506 6447.52 
-1877.47 -997.282 6442.58 
-1878.01 -997.32 6442.86 
-1878.64 -997.279 6443.41 
-1879.22 -997.262 6443.87 
-1879.76 -997.219 6444.37 
-1880.31 -997.224 6444.73 
-1880.66 -997.128 6445.25 
-1877.9 -996.596 6444.46 
-1877.27 -997.083 6442.89 
-1881.2 -997.183 6445.47 
-1870.42 -995.784 6437.52 
-1869.78 -994.868 6438.21 
-1870.02 -994.641 6438.94 
-1870.01 -993.922 6439.66 
-1871.27 -991.894 6442.52 
-1869.49 -993.224 6439.76 
-1869.99 -991.977 6440.46 
-1870.36 -992.381 6440.93 
-1870.56 -992.117 6440.82 
-1870.89 -991.374 6441.9 
-1871.68 -996.386 6439.07 
-1872.69 -997.583 6438.13 
-1873.38 -997.212 6439.49 
-1873.78 -998.194 6437.44 
-1873.21 -998.094 6437.32 
-1872.77 -998.183 6436.76 
-1872.31 -998.145 6436.52 
-1871.78 -997.541 6437.03 
-1869.77 -995.757 6436.97 
-1870.72 -995.64 6436.92 
-1870.15 -991.148 6440.45 
-1868.67 -993.456 6438.48 
-1870.41 -996.744 6436.21 
-1870.15 -996.333 6436.38 
-1870.08 -996.931 6435.46 
-1868.74 -994.31 6437.8 
-1877.71 -998.787 6438.42 
-1877.33 -998.668 6438.57 
-1876.82 -998.499 6438.7 
-1875.88 -998.252 6438.74 
-1875.3 -998.21 6438.45 
-1874.76 -998.187 6438.14 
-1876.51 -998.306 6439.03 
-1874.25 -998.1 6438.03 
-1875.76 -995.845 6444.43 
-1875.22 -996.225 6443.13 
-1876.34 -995.458 6445.77 
-1876.94 -995.138 6446.96 
-1878.71 -995.131 6447.43 
-1878.14 -994.584 6449 
-1877.55 -994.886 6447.95 
-1878.48 -994.667 6448.94 
-1878.52 -994.8 6448.79 
-1878.93 -994.952 6448.66 
-1873.77 -997.33 6439.5 
-1874.56 -996.855 6441.17 
-1879.04 -995.024 6448.71 
-1878.45 -995.478 6447.34 
-1902.02 -1040.78 6469.68 
-1902.17 -1040.89 6470.03 
-1902.4 -1041.06 6470.45 
-1902.36 -1041.59 6469.24 
-1902.26 -1041.35 6469.17 
-1902.07 -1040.81 6469.52 
-1902.08 -1040.81 6469.31 
-1902.21 -1041.15 6469.14 
-1902.26 -1041.01 6469.16 
-1902.11 -1040.84 6469.14 
-1902.81 -1040.94 6471.35 
-1902.9 -1040.8 6471.52 
-1902.76 -1041.24 6470.91 
-1902.96 -1041.06 6471.17 
-1903.07 -1040.9 6471.36 
-1903.1 -1040.62 6471.82 
-1901.7 -1040.69 6473.54 
-1902.96 -1040.45 6472.86 
-1903.07 -1040.48 6472.62 
-1903.36 -1040.45 6472.31 
-1903.57 -1040.33 6472.68 
-1903.45 -1040.34 6472.83 
-2005.23 -1033.28 6386.25 
-2005.18 -1031.88 6384.98 
-2005.85 -1034.94 6386.31 
-2005.46 -1033.59 6386.04 
-2004.97 -1030.85 6384.25 
-2006.32 -1034.26 6385.71 
-2006.11 -1034.25 6385.83 
-2007.39 -1034.02 6385.47 
-2007.23 -1034.31 6385.57 
-2006.58 -1034.28 6385.63 
-2006.95 -1034.35 6385.6 
-2007.46 -1033.19 6385.18 
-2007.48 -1032.21 6384.97 
-2007.42 -1032.75 6385.13 
-2006.19 -1031.66 6384.58 
-2006.57 -1031.64 6384.65 
-2006.9 -1032.1 6384.84 
-2005.39 -1031.31 6384.34 
-1773.38 -1076.98 6594.7 
-1768.56 -1076.38 6596.03 
-1764.97 -1075.2 6597.13 
-1760.28 -1074.25 6598.48 
-1755.58 -1073.94 6599.74 
-1749.35 -1074.44 6601.28 
-1742.91 -1076.03 6602.68 
-1736.87 -1077.42 6602.66 
-1730.97 -1078.81 6601.99 
-1725.6 -1077.76 6601.19 
-1724 -1077.5 6601.09 
-1725.52 -1075.41 6601.16 
-1722.2 -1078.23 6601.08 
-1722.45 -1077 6601.12 
-1721.49 -1075.7 6601.18 
-1719.24 -1079.45 6601.06 
-1719.94 -1077.99 6601.11 
-1717.49 -1076.69 6601.98 
-1714.9 -1077.05 6601.75 
-1714.27 -1075.98 6601.43 
-1713.15 -1074.41 6601.4 
-1747.89 -1077.36 6571.89 
-1749.27 -1074.87 6571.91 
-1746.95 -1081.33 6572.11 
-1745.04 -1082.28 6572.56 
-1744.7 -1082.42 6572.86 
-1745.87 -1082.26 6572.28 
-1746.69 -1082.15 6572.09 
-1743.47 -1082.01 6573.35 
-1743.99 -1082.42 6573.22 
-1744.38 -1082.46 6573.06 
-1742.57 -1081.52 6573.77 
-1740.73 -1080.73 6574.66 
-1741.4 -1081.23 6574.43 
-1740.73 -1081.2 6574.93 
-1739 -1082.12 6577.79 
-1737.44 -1082.24 6580.3 
-1738.24 -1080.67 6576.63 
-1737.45 -1080.95 6578.27 
-1736.64 -1081.12 6579.73 
-1743.87 -1080.73 6581.52 
-1740.59 -1080.77 6579.44 
-1742.38 -1079.04 6582.57 
-1736.27 -1081.11 6580.3 
-1736.12 -1081.29 6580.88 
-1736.4 -1081.54 6580.87 
-1736.4 -1081.73 6581.23 
-1736.39 -1081.9 6581.56 
-1743.16 -1077.21 6581.5 
-1741.49 -1076.92 6582.31 
-1740.79 -1077.22 6582.79 
-1740.43 -1077.66 6583.22 
-1746.12 -1079.58 6579.84 
-1743.47 -1077.25 6576.13 
-1744.6 -1078.66 6576.52 
-1745.3 -1078.75 6580.86 
-1743.09 -1075.6 6576.79 
-1744.25 -1077.61 6581.03 
-1740.42 -1071.7 6579.23 
-1742.45 -1073.22 6578.07 
-1742.66 -1073.16 6578.37 
-1743.16 -1074.19 6577.78 
-1734.81 -1069.68 6582.67 
-1728.97 -1070.5 6587.1 
-1724.72 -1071.97 6590.65 
-1719.17 -1074.25 6594.99 
-1717.45 -1076.24 6596.83 
-1716.04 -1075.66 6597.43 
-1716.87 -1076.52 6597.23 
-1715.62 -1075.86 6598.09 
-1714.69 -1075.94 6599.56 
-1714.78 -1075.8 6599.13 
-1715.38 -1076.15 6598.58 
-1714.39 -1075.74 6600.79 
-1714.41 -1075.65 6600.39 
-1715.01 -1076.49 6599.91 
-1715.06 -1076.61 6600.29 
-1788.69 -1039.22 6524.61 
-1788.78 -1038.36 6525.25 
-1789.05 -1037.57 6525.9 
-1789.65 -1036.46 6526.89 
-1790.13 -1035.85 6527.44 
-1788.77 -1036.97 6526.22 
-1789.17 -1034.13 6528.14 
-1787.98 -1032.06 6528.98 
-1787.98 -1031.29 6529.55 
-1788.94 -1042.46 6522.41 
-1788.77 -1041.63 6522.94 
-1788.79 -1040.78 6523.54 
-1788.36 -1040.03 6523.93 
-1790.7 -1045.65 6520.87 
-1790.86 -1045.05 6521.3 
-1790.6 -1044.35 6521.64 
-1790.49 -1045.07 6520.66 
-1789.92 -1043.92 6521.72 
-1789.22 -1043.3 6521.84 
-1790.31 -1044.35 6520.47 
-1790.41 -1044.88 6520.44 
-1790.15 -1043.06 6520.88 
-1790.13 -1043.27 6520.63 
-1790.2 -1043.8 6520.44 
-1790.07 -1042.59 6520.95 
-1788.5 -1030.78 6530.16 
-1788.95 -1030.76 6530.32 
-1788.11 -1030.94 6529.91 
-1789.07 -1030.47 6530.67 
-1787.61 -1030.97 6530.06 
-1786.18 -1031.51 6529.42 
-1784.64 -1032.52 6528.32 
-1785.26 -1033.93 6526.52 
-1786.11 -1034.98 6525.23 
-1787.26 -1036.62 6523.75 
-1789.38 -1040.56 6520.99 
-1789.54 -1040.88 6521.05 
-1789.85 -1041.9 6520.54 
-1789.99 -1042.55 6520.63 
-1791.2 -1079.12 6564.39 
-1784.37 -1081.69 6568.92 
-1784.92 -1082.23 6569.56 
-1777.79 -1085.86 6575.66 
-1776.3 -1085.66 6576.05 
-1772.05 -1085.87 6578.16 
-1765.69 -1085.24 6578.73 
-1760.55 -1080.94 6576.68 
-1768.09 -1086.34 6579.27 
-1752.16 -1077.59 6578.03 
-1748.52 -1073.61 6577.65 
-1748.58 -1075.3 6579.96 
-1748.9 -1076.87 6579.16 
-1748.46 -1080.29 6577.93 
-1747.76 -1078.46 6579.36 
-1750.07 -1080.28 6579.08 
-1749.46 -1078.54 6578.97 
-1748.18 -1077.49 6579.65 
-1747.61 -1074.4 6577.66 
-1747.65 -1073.53 6577.09 
-1746.85 -1077.3 6578.98 
-1747.21 -1075.92 6578.42 
-1748.36 -1077.26 6572.31 
-1748.2 -1078.89 6573.37 
-1748.27 -1079.66 6574.57 
-1748.37 -1080.57 6575.68 
-1748.92 -1081.19 6577.33 
-1895.54 -1041.57 6478.3 
-1896.32 -1041.35 6478.39 
-1896.56 -1040.84 6478.85 
-1897.17 -1042.11 6476.72 
-1900.17 -1041.28 6474.86 
-1898.53 -1038.89 6480.38 
-1898.26 -1038.74 6481.04 
-1897.52 -1039.7 6479.76 
-1898.42 -1039.26 6479.87 
-1898.09 -1038.61 6481.61 
-1898.05 -1038.48 6482.12 
-1897.05 -1040.27 6479.3 
-1898.05 -1038.35 6482.62 
-1897.82 -1038.31 6482.74 
-1898.31 -1038.06 6483.34 
-1898.44 -1038.05 6483.47 
-1898.18 -1038.19 6483.07 
-1898.45 -1038.11 6483.22 
-1898.49 -1038.09 6483.3 
-1898.51 -1038.07 6483.37 
-1907.27 -1038.77 6472.52 
-1904.74 -1038.44 6476.69 
-1902.83 -1038.31 6479.51 
-1901.98 -1037.92 6481.07 
-1901.5 -1037.56 6482.08 
-1901.1 -1037.12 6483.02 
-1900.64 -1036.72 6484.03 
-1903.88 -1041.6 6470.28 
-1907.02 -1039.72 6470.89 
-1905.76 -1040.48 6470.73 
-1904.3 -1041.37 6470.47 
-1908.19 -1038.82 6471.3 
-1908.05 -1039.13 6470.9 
-1903.06 -1041.53 6469.66 
-1903.32 -1041.7 6470.03 
-1903.65 -1041.62 6470.3 
-1902.84 -1041.41 6469.5 
-1902.66 -1041.49 6469.4 
-1902.49 -1041.49 6469.3 
-1900.27 -1036.3 6484.95 
-1900.16 -1036.36 6485.03 
-1900.86 -1036.43 6484.02 
-1900.69 -1036.28 6484.37 
-1900.55 -1036.1 6484.71 
-1900.43 -1036.34 6484.69 
-1900.28 -1036.97 6483.72 
-1898.67 -1037.99 6483.65 
-1899.02 -1037.78 6483.64 
-1899.38 -1037.55 6483.63 
-1899.72 -1037.32 6483.61 
-1899.95 -1037.18 6483.65 
-1900.27 -1036.96 6483.61 
-1900.59 -1036.76 6483.68 
-1900.72 -1036.68 6483.75 
-1900.81 -1036.62 6483.81 
-1898.62 -1038.02 6483.58 
-1773.41 -1082.12 6593.95 
-1771.83 -1091.19 6593.07 
-1769.18 -1089.9 6593.94 
-1771.78 -1087.12 6593.66 
-1769.97 -1084.94 6594.44 
-1771.14 -1080.11 6594.83 
-1776.97 -1094.62 6591.93 
-1774 -1093.58 6592.83 
-1772.53 -1098.01 6596.09 
-1785.27 -1083.11 6570.82 
-1779.37 -1086.95 6577.66 
-1774.54 -1089.79 6581.74 
-1771.68 -1092.29 6584.6 
-1772.3 -1094.48 6589.99 
-1774.34 -1094.8 6591.37 
-1885.51 -998.59 6444.51 
-1884.9 -998.609 6444.03 
-1884.55 -998.748 6443.39 
-1882.98 -998.856 6441.99 
-1882.43 -998.915 6441.44 
-1883.88 -998.708 6443.03 
-1883.31 -998.713 6442.63 
-1881.97 -999.04 6440.73 
-1881.2 -999.103 6439.73 
-1880.75 -999.051 6439.63 
-1880.11 -999.039 6439.13 
-1879.44 -999.016 6438.66 
-1879.11 -998.776 6439.51 
-1880.08 -998.935 6439.67 
-1879.66 -998.857 6439.65 
-1878.42 -998.791 6438.96 
-1885.46 -998.325 6445.25 
-1886.02 -997.778 6445.5 
-1886.24 -997.879 6445.26 
-1886.82 -998.265 6445.16 
-1886.27 -998.186 6445.85 
-1886.29 -998.303 6445.67 
-1885.83 -998.181 6445.96 
-1885.62 -998.146 6445.9 
-1886.67 -998.092 6445.36 
-1885.38 -998.118 6445.8 
-1883.34 -996.509 6448.45 
-1884.05 -996.774 6447.48 
-1884.2 -996.888 6447.09 
-1884.46 -996.979 6446.83 
-1884.7 -997.108 6446.42 
-1885.04 -997.213 6446.13 
-1885.31 -997.345 6445.82 
-1885.4 -997.509 6445.57 
-1885.81 -997.572 6445.73 
-1883.36 -996.862 6447.93 
-1883.4 -996.73 6448.36 
-1883.24 -996.515 6448.87 
-1882.54 -997.183 6446.41 
-1881.83 -997.207 6445.84 
-1883.23 -997.2 6446.84 
-1883.58 -997.087 6447.45 
-1883.54 -997.216 6447.04 
-1878.27 -995.966 6446.13 
-1877.62 -996.389 6444.68 
-1877.43 -996.72 6443.81 
-1877.95 -995.959 6445.89 
