-2113.71 -945.548 1328.09 
-2112.91 -948.443 1325.83 
-2112.59 -949.589 1324.88 
-2111.55 -951.667 1323.39 
-2109.08 -956.128 1321.23 
-2118.45 -930.574 1337.43 
-2118.13 -930.065 1337.38 
-2117.15 -928.859 1337 
-2117.39 -929.161 1337.09 
-2117.51 -929.416 1337.16 
-2117.8 -929.726 1337.26 
-2108.11 -958.26 1319.49 
-2108.12 -949.542 1320.81 
-2107.16 -949.305 1319.95 
-2107.2 -949.678 1319.82 
-2109.83 -950.127 1322.15 
-2105.85 -949.53 1318.89 
-2105.79 -949.232 1319.06 
-2109.47 -950.153 1322.43 
-2108.8 -952.106 1320.35 
-2107.37 -950.986 1319.29 
-2105.8 -950.058 1318.39 
-2105.79 -949.774 1318.62 
-2106.59 -949.317 1321.87 
-2105.84 -949.018 1321.17 
-2105.73 -949.049 1320.46 
-2105.72 -948.89 1319.21 
-2105.67 -950.14 1319.08 
-2105.65 -950.394 1318.72 
-2105.69 -950.7 1319 
-2105.72 -950.972 1319.39 
-2106.85 -953.623 1319.74 
-2105.77 -951.273 1319.8 
-2106.18 -952.383 1319.82 
-2108.26 -955.099 1319.72 
-2108.79 -954.055 1320.22 
-2108.89 -952.771 1320.38 
-2108.75 -953.245 1320.25 
-2107.72 -954.906 1319.74 
-2113.79 -930.33 1334.12 
-2114.24 -930.108 1334.37 
-2114.69 -929.987 1334.43 
-2113.41 -929.418 1334.22 
-2111.38 -931.368 1333.19 
-2111.63 -932.256 1333 
-2112.27 -930.174 1333.7 
-2111.84 -931.939 1333.12 
-2111.94 -932.462 1333.01 
-2113.87 -930.523 1333.94 
-2180.46 -869.857 1354 
-2180.3 -869.622 1354.42 
-2180.28 -870.268 1353.8 
-2178.83 -868.795 1356.53 
-2178.84 -868.937 1356.23 
-2178.94 -868.528 1356.16 
-2179.72 -869.389 1355.51 
-2179.38 -869.432 1355.95 
-2178.86 -869.192 1356.74 
-2178.97 -868.298 1356.47 
-2178.88 -868.625 1356.58 
-2178.95 -868.338 1356.38 
-2180.24 -869.547 1352.89 
-2180.35 -869.431 1352.91 
-2180.52 -869.175 1352.88 
-2180.69 -868.945 1352.85 
-2180.82 -868.958 1353.02 
-2180.85 -868.716 1352.82 
-2181.03 -868.473 1352.79 
-2181.01 -868.677 1352.98 
-2180.86 -869.237 1353.36 
-2181.08 -868.713 1353.11 
-2181.2 -868.383 1352.92 
-2180.93 -869.291 1353.5 
-2180.69 -869.738 1353.68 
-2181.06 -868.938 1353.31 
-2180 -869.919 1352.97 
-2179.05 -871.163 1353.14 
-2179.89 -870.023 1352.94 
-2179.53 -870.53 1353.02 
-2179.77 -869.459 1352.91 
-2179.94 -869.246 1352.87 
-2178.08 -869.46 1357.17 
-2178 -869.46 1357.2 
-2179.01 -868.393 1355.85 
-2178.99 -868.666 1355.57 
-2179.05 -868.366 1355.61 
-2178.92 -869.044 1355.55 
-2178.71 -869.903 1355.76 
-2178.89 -869.259 1355.44 
-2178.58 -870.092 1356.02 
-2178.15 -869.412 1357.21 
-2178.2 -869.763 1357.11 
-2178.16 -869.604 1357.17 
-2178.24 -869.937 1357.04 
-2178.32 -870.152 1356.86 
-2178.45 -870.19 1356.37 
-2177.94 -869.443 1357.24 
-2177.89 -869.413 1357.28 
-2177.85 -869.386 1357.32 
-2177.89 -869.35 1357.38 
-2177.85 -869.325 1357.41 
-2177.69 -869.449 1357.51 
-2177.74 -869.482 1357.47 
-2177.8 -869.508 1357.43 
-2177.85 -869.53 1357.39 
-2177.62 -869.58 1357.53 
-2177.67 -869.596 1357.49 
-2178.19 -870.587 1356.69 
-2178.15 -870.496 1356.93 
-2178.07 -870.453 1357.04 
-2178.28 -870.573 1356.33 
-2178.29 -870.64 1356.18 
-2177.98 -870.28 1357.14 
-2178.04 -870.282 1357.1 
-2178.38 -870.637 1355.82 
-2177.9 -869.977 1357.26 
-2177.94 -870.12 1357.2 
-2177.72 -869.62 1357.45 
-2177.77 -869.66 1357.41 
-2177.82 -869.686 1357.37 
-2177.86 -869.847 1357.32 
-2178.55 -870.565 1355.26 
-2178.61 -870.57 1355 
-2178.7 -870.538 1354.68 
-2178.47 -870.561 1355.57 
-2178.83 -870.573 1354.03 
-2178.84 -870.64 1353.84 
-2178.93 -870.25 1353.77 
-2178.81 -870.524 1354.19 
-2178.81 -870.445 1354.33 
-2179.04 -869.975 1353.41 
-2179.55 -869.909 1352.86 
-2179.33 -870.748 1352.98 
-2178.99 -871.188 1353.08 
-2229.33 -843.393 1370.15 
-2230.1 -842.453 1369.71 
-2229.65 -843.976 1370.69 
-2226.83 -852.264 1375.85 
-2230.28 -843.394 1370.47 
-2229.06 -846.209 1372.15 
-2227.99 -849.537 1374.26 
-2229.02 -847.015 1372.73 
-2227.04 -852.501 1376.08 
-2231.41 -838.188 1366.99 
-2230.55 -840.365 1368.31 
-2232.76 -835.398 1365.37 
-2234.31 -833.802 1364.67 
-2233.49 -834.56 1364.99 
-2235.85 -839.741 1369.16 
-2233.89 -838.12 1367.61 
-2234.33 -836.173 1366.34 
-2233.75 -835.766 1365.93 
-2234.85 -840.342 1369.36 
-2233.76 -840.912 1369.53 
-2233.38 -840.157 1368.92 
-2238.34 -837.819 1369.51 
-2242.26 -831.961 1368.69 
-2235.93 -840.924 1370.09 
-2244.42 -829.888 1369.67 
-2242.93 -829.51 1369.79 
-2245.84 -831.035 1369.55 
-2245.76 -830.806 1369.44 
-2244.91 -830.222 1369.8 
-2246.31 -832.676 1370.04 
-2246.25 -832.375 1370.26 
-2245.93 -831.856 1370.25 
-2246.12 -833.597 1371.79 
-2247.04 -835.343 1373.38 
-2246.22 -833.128 1370.94 
-2245.46 -831.335 1370.29 
-2245.35 -831.033 1370.14 
-2255.17 -843.831 1386.38 
-2255.08 -843.799 1386.65 
-2254.91 -843.749 1387.25 
-2254.98 -843.765 1386.9 
-2249.31 -855.209 1371.63 
-2249.58 -855.735 1371.76 
-2249.42 -855.662 1371.65 
-2249.09 -855.03 1371.49 
-2248.92 -854.873 1371.39 
-2248.89 -854.686 1371.41 
-2248.75 -854.775 1371.29 
-2248.59 -854.763 1371.18 
-2248.48 -854.692 1371.11 
-2248.54 -854.511 1371.2 
-2248.45 -854.416 1371.16 
-2248.38 -854.292 1371.13 
-2248.32 -854.155 1371.12 
-2248.19 -854.103 1371.04 
-2248.02 -853.932 1370.96 
-2248.05 -853.768 1371.02 
-2248.1 -853.612 1371.09 
-2248.07 -854.042 1370.97 
-2248.11 -853.442 1371.14 
-2248 -853.347 1371.11 
-2247.96 -853.312 1371.34 
-2248 -854.172 1371.53 
-2247.39 -854.769 1370.93 
-2247.67 -854.454 1371.19 
-2246.39 -856 1370.04 
-2246.15 -856.389 1369.85 
-2245.84 -856.73 1369.56 
-2246.87 -855.382 1370.47 
-2246.52 -855.594 1370.11 
-2246.98 -854.994 1370.51 
-2245.62 -857.454 1369.46 
-2245.76 -857.822 1369.68 
-2245.57 -857.065 1369.32 
-2250.26 -856.798 1372.12 
-2250.07 -856.726 1371.98 
-2249.74 -856.133 1371.82 
-2249.89 -856.519 1371.88 
-2250.39 -857.314 1372.14 
-2245.99 -858.362 1369.95 
-2246.42 -858.897 1370.47 
-2245.52 -857.859 1369.39 
-2246.9 -859.693 1371.04 
-2247.44 -860.253 1371.68 
-2248.03 -860.958 1372.38 
-2249.31 -864.422 1373.7 
-2249.87 -865.186 1374.36 
-2250.99 -866.669 1375.69 
-2250.43 -865.976 1375.03 
-2251.57 -867.432 1376.37 
-2251.75 -867.229 1376.57 
-2251.69 -866.815 1376.05 
-2251.39 -865.397 1375.28 
-2250.66 -862.586 1373.87 
-2251.1 -864.064 1374.56 
-2250.2 -859.509 1372.7 
-2250.1 -859.636 1372.45 
-2250.28 -861.007 1372.99 
-2230.22 -902.454 1372.58 
-2230.7 -902.655 1372.84 
-2230.88 -903.13 1372.55 
-2231.35 -903.467 1372.66 
-2231.72 -903.793 1372.7 
-2232.14 -904.127 1372.77 
-2232.94 -904.781 1372.9 
-2232.52 -904.539 1372.74 
-2233.21 -905.331 1372.61 
-2233.43 -905.692 1372.37 
-2233.89 -905.429 1372.64 
-2235.18 -906.592 1372.45 
-2238.69 -910.809 1371.64 
-2242.02 -913.693 1371.58 
-2250.42 -858.859 1372.81 
-2250.41 -859.352 1372.67 
-2250.38 -858.235 1372.48 
-2255.79 -897.748 1397.02 
-2255.71 -898.398 1396.71 
-2255.88 -898.863 1396.65 
-2255.93 -899.726 1397.35 
-2255.98 -899.962 1398.08 
-2256.05 -900.524 1398.68 
-2255.89 -899.44 1396.67 
-2256.25 -901.757 1399.32 
-2254.78 -904.529 1401.63 
-2256.15 -903.767 1400.65 
-2256.38 -903.499 1400.26 
-2256.41 -903.27 1400 
-2256.22 -885.66 1395.74 
-2255.01 -889.804 1393.82 
-2254.9 -889.894 1393.54 
-2257.16 -886.487 1398.43 
-2256.18 -895.682 1397.39 
-2257 -883.572 1397.02 
-2254.73 -891.865 1391.74 
-2254.33 -892.741 1390.91 
-2260.8 -913.201 1377.22 
-2260.47 -913.814 1378.07 
-2261.02 -913.093 1376.72 
-2260.24 -914.222 1378.63 
-2254.77 -913.413 1381.18 
-2256.91 -914.219 1380.32 
-2259.67 -914.408 1379.26 
-2258.25 -915.277 1379.52 
-2252.49 -912.669 1382.06 
-2250.35 -911.159 1383.15 
-2256.96 -899.926 1385.3 
-2255.93 -901.624 1384.15 
-2255.31 -905.978 1383.81 
-2254.06 -895.362 1389.5 
-2256.32 -898.906 1387.16 
-2259.38 -932.796 1387.17 
-2258.35 -936.405 1389.2 
-2257.62 -935.922 1391.2 
-2258.08 -943.451 1396.88 
-2257.37 -943.635 1400.97 
-2256.76 -943.251 1403.83 
-2255.53 -941.587 1408.05 
-2256.31 -943.298 1406.81 
-2254.84 -940.585 1410.48 
-2254.35 -941.2 1413.93 
-2253.35 -934.291 1410.82 
-2251.88 -930.778 1414.78 
-2252.57 -932.99 1413.38 
-2249.15 -910.557 1406.41 
-2250.4 -920.193 1410.67 
-2252.26 -930.695 1415.11 
-2249.52 -909.776 1406.07 
-2249.95 -909.741 1405.63 
-2250.33 -909.968 1405.3 
-2251.72 -907.273 1404.01 
-2253.4 -905.971 1402.75 
-2259.43 -932.352 1384.4 
-2259.94 -935.594 1384.82 
-2259.9 -935.806 1385.87 
-2261.27 -913.045 1376.28 
-2261.54 -912.965 1376.07 
-2261.7 -913.042 1375.98 
-2261.77 -913.378 1375.81 
-2262.54 -912.37 1375.9 
-2263.13 -911.846 1375.84 
-2262.94 -912.471 1375.61 
-2262.97 -910.646 1376.21 
-2263.09 -911.32 1375.64 
-2260.2 -909.468 1375.95 
-2262.12 -913.668 1375.45 
-2262.35 -913.061 1375.65 
-2259.22 -909.995 1375.24 
-2258.43 -910.392 1374.57 
-2256.49 -910.049 1374.05 
-2255.56 -910.33 1373.33 
-2252.24 -908.757 1373.45 
-2248.89 -906.606 1373.91 
-2248.68 -907.587 1373.04 
-2245.39 -905.5 1373.43 
-2242.89 -903.343 1373.8 
-2238.45 -898.587 1374.8 
-2240.38 -900.882 1374.26 
-2236.99 -898.838 1374.24 
-2235.65 -897.721 1374.35 
-2254.57 -927.931 1369.2 
-2258.06 -931.309 1369 
-2250.63 -923.663 1369.82 
-2246.22 -918.786 1370.57 
-2259.82 -932.728 1369.41 
-2260.35 -931.489 1371.18 
-2261.63 -932.235 1371.81 
-2262.44 -932.327 1373.49 
-2261.43 -933.144 1376.74 
-2260.36 -932.821 1379.43 
-2259.59 -933.728 1381.89 
-2259.27 -930.711 1382.88 
-2259.81 -935.409 1383.01 
-2227.32 -852.562 1376.23 
-2227.66 -852.604 1376.41 
-2229.89 -850.725 1376.92 
-2229.93 -851.751 1377.31 
-2233.41 -848.686 1377.97 
-2234.81 -848.062 1378.31 
-2238.16 -845.149 1378.95 
-2238.99 -845.21 1379.21 
-2242.35 -842.342 1379.85 
-2245.71 -839.991 1379.91 
-2246.42 -838.677 1376.75 
-2245.82 -838.26 1376.93 
-2230.83 -898.328 1372.6 
-2232.35 -898.297 1373.08 
-2229.03 -898.271 1371.98 
-2234.05 -898.406 1373.55 
-2225.22 -899.46 1370.26 
-2226.01 -900.063 1370.76 
-2227.76 -898.97 1371.3 
-2225.56 -899.717 1370.31 
-2226.41 -900.58 1370.76 
-2226.9 -900.825 1370.99 
-2227.31 -901.086 1371.13 
-2228.43 -901.984 1371.32 
-2229.14 -902.492 1371.51 
-2229.57 -902.597 1371.81 
-2228.72 -902.419 1371.18 
-2229.99 -902.744 1372.07 
-2227.58 -901.573 1370.91 
-2227.86 -902.062 1370.71 
-2228.26 -902.326 1370.83 
-2246.09 -832.932 1371.06 
-2245.58 -832.927 1371.94 
-2244.85 -832.678 1372.68 
-2244.48 -834.196 1374.76 
-2254.71 -843.684 1388.08 
-2254.78 -843.72 1388.04 
-2254.72 -843.676 1387.77 
-2254.82 -843.706 1387.37 
-2254.73 -843.69 1387.91 
-2254.67 -843.66 1387.95 
-2254.69 -843.673 1388.01 
-2252.96 -843.166 1387.7 
-2252.59 -843.096 1386.99 
-2253.36 -843.29 1386.95 
-2254.58 -843.62 1388.27 
-2254.68 -843.669 1388.14 
-2254.21 -843.499 1386.92 
-2254.9 -843.728 1387.04 
-2254.76 -843.658 1387.08 
-2254.81 -843.688 1387.15 
-2254.69 -843.62 1387.11 
-2125.18 -928.883 1341.71 
-2124.7 -929.427 1341.45 
-2123.92 -929.924 1341.01 
-2124.18 -929.733 1341.16 
-2124.05 -929.548 1341.07 
-2122.45 -930.608 1340.17 
-2122.59 -930.363 1340.24 
-2122.65 -930.125 1340.28 
-2123.22 -929.91 1340.6 
-2125.51 -927.816 1341.91 
-2125.23 -927.378 1341.81 
-2122.71 -935.17 1338.54 
-2122.76 -935.844 1338.41 
-2121.93 -938.55 1338.07 
-2121.29 -931.542 1339.11 
-2122.19 -930.918 1339.96 
-2121.33 -932.788 1338.58 
-2121.75 -933.484 1338.56 
-2122.15 -934.104 1338.57 
-2122.1 -934.599 1338.43 
-2124.71 -926.909 1341.57 
-2117.22 -943.068 1335.56 
-2117.37 -946.355 1334.26 
-2116.52 -949.524 1332.55 
-2114.75 -954.726 1330.88 
-2113.07 -956.625 1329.59 
-2112.27 -958.719 1328.24 
-2118.87 -941.7 1336.69 
-2112.22 -961.496 1325.88 
-2109.64 -966.516 1324.49 
-2107.18 -969.542 1320.25 
-2104.08 -974.043 1316.71 
-2103.54 -975.506 1316.13 
-2105.44 -971.977 1317.9 
-2106.89 -969.609 1320.07 
-2103.04 -976.737 1315.61 
-2102.57 -977.639 1315.16 
-2100.27 -979.72 1313.3 
-2098.49 -980.803 1312.45 
-2094.14 -984.803 1310.47 
-2093.69 -987.535 1310.31 
-2095.33 -983.399 1310.94 
-2096.24 -982.739 1311.13 
-2097.26 -981.677 1311.6 
-2093.76 -989.047 1310.03 
-2092.77 -990.364 1309.35 
-2090.68 -994.44 1307.43 
-2090.72 -994.05 1307.64 
-2088.73 -995.962 1305.97 
-2088.04 -997.41 1305.76 
-2085.63 -999.989 1305.05 
-2087.49 -998.566 1305.73 
-2085.36 -999.963 1305.16 
-2104.58 -967.43 1314.68 
-2103.53 -969.458 1313.24 
-2102.82 -971.034 1312.03 
-2102.73 -970.947 1312.26 
-2102.3 -972.206 1310.99 
-2106.8 -960.762 1318.58 
-2105.4 -964.433 1316.65 
-2104.3 -967.82 1314.76 
-2101.48 -973.343 1310.34 
-2100.88 -974.037 1310.03 
-2098.85 -976.048 1309.4 
-2096.7 -978.149 1308.28 
-2094.01 -981.163 1306.8 
-2090.46 -985.839 1304.22 
-2087.13 -991.436 1301.35 
-2087.09 -991.162 1301.75 
-2124.16 -926.87 1341.25 
-2124.19 -927.325 1341.2 
-2123.76 -927.635 1340.9 
-2123.25 -927.637 1340.6 
-2122.73 -927.579 1340.3 
-2121.98 -928.36 1339.83 
-2121.49 -928.271 1339.54 
-2120.31 -928.61 1338.86 
-2119.65 -928.699 1338.48 
-2118.91 -928.71 1338.05 
-2118.14 -928.687 1337.6 
-2120.73 -928.711 1339.11 
-2117.64 -928.875 1337.31 
-2118.52 -931.005 1337.32 
-2118.78 -932.487 1337.09 
-2118.88 -933.123 1336.99 
-2118.8 -933.955 1336.44 
-2118.68 -931.899 1337.14 
-2118.56 -931.446 1337.23 
-2114.79 -940.805 1333.38 
-2118.65 -934.607 1335.98 
-2118.18 -935.176 1335.53 
-2118.15 -935.189 1335.35 
-2117.07 -936.912 1334.6 
-2115.43 -939.515 1334.04 
-2114.24 -942.301 1332.49 
-2113.58 -945.805 1328.76 
-2112.89 -948.54 1326.19 
-2112.63 -949.495 1325.29 
-2111.65 -951.514 1323.74 
-2109.05 -956.182 1321.44 
-2107.9 -958.613 1319.61 
-2118.34 -930.547 1337.47 
-2118.18 -930.247 1337.42 
-2117.88 -929.95 1337.32 
-2117.26 -929.098 1337.08 
-2117.36 -929.318 1337.15 
-2117.58 -929.632 1337.21 
-2105.7 -948.592 1319.39 
-2105.87 -948.454 1319.76 
-2108.52 -949.353 1321.33 
-2107.04 -948.605 1320.08 
-2109.45 -949.805 1322.53 
-2106.3 -948.872 1321.98 
-2107.62 -951.711 1319.45 
-2105.79 -950.408 1318.24 
-2105.77 -948.598 1321.16 
-2105.6 -950.623 1318.74 
-2105.61 -950.854 1319.05 
-2106.68 -953.635 1319.53 
-2105.73 -951.387 1319.76 
-2106.18 -952.561 1319.67 
-2108.1 -954.657 1319.65 
-2108.12 -953.795 1319.73 
-2107.62 -952.945 1319.38 
-2107.6 -952.336 1319.4 
-2107.47 -954.911 1319.43 
-2114.39 -930.387 1334.12 
-2113.42 -929.967 1333.99 
-2112.67 -931.033 1333.54 
-2112.64 -931.926 1333.27 
-2111.73 -933.366 1332.78 
-2113.5 -931.583 1333.55 
-2180.75 -869.516 1353.89 
-2180.4 -869.414 1354.52 
-2180.13 -869.385 1354.93 
-2179.04 -868.067 1356.07 
-2179.11 -867.917 1355.81 
-2179.89 -869.302 1355.36 
-2179.51 -869.297 1355.91 
-2179.28 -869.346 1356.19 
-2178.87 -869.135 1356.83 
-2178.95 -868.427 1356.6 
-2179.12 -867.715 1356.26 
-2179.18 -867.441 1356.02 
-2179.08 -867.837 1356.17 
-2180.28 -868.79 1352.81 
-2180.45 -868.556 1352.78 
-2180.09 -868.611 1353.11 
-2180.94 -868.025 1352.62 
-2180.93 -867.885 1352.72 
-2181.2 -868.22 1352.76 
-2181.1 -867.667 1352.68 
-2181.27 -867.439 1352.65 
-2181.39 -867.944 1352.71 
-2181.17 -868.645 1353.15 
-2181.42 -868.115 1352.93 
-2181.42 -868.039 1352.85 
-2181.59 -867.643 1352.66 
-2181.3 -868.545 1353.21 
-2181.26 -868.711 1353.33 
-2181 -869.252 1353.54 
-2181.43 -868.199 1353.02 
-2180.11 -869.01 1352.84 
-2179.48 -870.561 1352.97 
-2179.68 -869.654 1352.88 
-2179.11 -869.493 1353.57 
-2179.13 -869.305 1353.69 
-2179.27 -868.769 1353.58 
-2178.1 -869.419 1357.23 
-2178.05 -869.413 1357.26 
-2179.24 -867.524 1355.5 
-2179.18 -867.822 1355.47 
-2179.22 -867.788 1355.22 
-2179.13 -868.234 1355.24 
-2179.06 -868.571 1355.21 
-2178.71 -869.991 1355.6 
-2178.89 -869.393 1355.23 
-2179.02 -868.87 1355.11 
-2178.55 -870.178 1356 
-2178.2 -869.996 1357.06 
-2178.15 -869.836 1357.13 
-2178.11 -869.646 1357.19 
-2178.28 -870.232 1356.87 
-2178.43 -870.266 1356.33 
-2178 -869.383 1357.3 
-2177.95 -869.349 1357.35 
-2177.95 -869.561 1357.31 
-2177.9 -869.597 1357.34 
-2177.87 -869.699 1357.34 
-2178.2 -870.399 1356.92 
-2178.29 -870.434 1356.55 
-2178.27 -870.508 1356.49 
-2178.09 -870.291 1357.07 
-2178.14 -870.249 1357.05 
-2178.37 -870.5 1356.1 
-2178.37 -870.568 1355.96 
-2177.99 -870.114 1357.17 
-2178.05 -870.112 1357.13 
-2177.91 -869.809 1357.29 
-2177.95 -869.941 1357.24 
-2178.57 -870.485 1355.31 
-2178.66 -870.491 1354.94 
-2178.79 -870.386 1354.51 
-2178.47 -870.495 1355.73 
-2178.95 -870.057 1353.94 
-2179.1 -869.66 1353.45 
-2178.95 -869.926 1354.13 
-2230.84 -840.393 1368.43 
-2231.66 -839.278 1367.88 
-2231.06 -841.158 1369.07 
-2228.16 -849.994 1374.65 
-2230.49 -843.878 1370.89 
-2231.98 -839.94 1368.46 
-2231.45 -841.641 1369.55 
-2229.26 -847.446 1373.13 
-2230.11 -845.382 1371.87 
-2232.05 -837.577 1366.74 
-2232.88 -836.519 1366.24 
-2234.7 -841.903 1370.42 
-2232.72 -839.937 1368.63 
-2233.22 -837.966 1367.36 
-2232.59 -837.983 1367.22 
-2233.87 -842.12 1370.4 
-2232.85 -843.166 1370.91 
-2232.56 -842.295 1370.24 
-2232 -841.948 1369.88 
-2242.32 -831.801 1369.37 
-2238.6 -837.378 1370.22 
-2242.88 -830.044 1369.55 
-2235.35 -841.95 1371.06 
-2242.92 -829.186 1370.52 
-2243.16 -829.523 1370.57 
-2245.16 -830.792 1370.15 
-2244.94 -830.462 1370.08 
-2243.3 -829.69 1370.82 
-2246.11 -832.515 1370.7 
-2245.72 -831.988 1370.66 
-2245.23 -831.459 1370.73 
-2244.89 -830.999 1370.68 
-2249.22 -855.531 1371.52 
-2249.56 -856.17 1371.69 
-2249.38 -856.072 1371.57 
-2249.01 -855.39 1371.39 
-2248.8 -855.065 1371.28 
-2248.64 -854.937 1371.18 
-2248.5 -854.985 1371.06 
-2248.41 -854.859 1371.02 
-2248.3 -854.808 1370.96 
-2248.38 -854.605 1371.06 
-2248.31 -854.483 1371.04 
-2248.23 -854.356 1371.01 
-2248.13 -854.269 1370.96 
-2248 -854.2 1370.88 
-2247.89 -854.098 1370.83 
-2247.89 -853.912 1370.87 
-2247.92 -853.743 1370.93 
-2247.97 -853.564 1371.01 
-2247.89 -853.338 1371.02 
-2247.89 -853.301 1371.24 
-2247.86 -853.513 1370.94 
-2247.83 -853.359 1371.17 
-2247.78 -854.061 1371.23 
-2247.4 -854.327 1370.86 
-2247.07 -854.617 1370.54 
-2245.98 -856.09 1369.59 
-2246.18 -855.729 1369.74 
-2245.71 -856.411 1369.35 
-2245.42 -856.753 1369.08 
-2246.59 -855.199 1370.1 
-2246.21 -855.364 1369.7 
-2246.69 -854.808 1370.14 
-2245.29 -857.389 1369.07 
-2245.13 -857.092 1368.81 
-2250.22 -857.184 1372.04 
-2250.09 -857.259 1371.93 
-2249.91 -856.931 1371.84 
-2249.72 -856.577 1371.75 
-2250.32 -857.703 1372.04 
-2245.5 -858.118 1369.36 
-2245.94 -858.569 1369.89 
-2246.4 -859.268 1370.43 
-2245.1 -857.629 1368.88 
-2247.74 -862.371 1371.86 
-2248.26 -863.048 1372.47 
-2248.77 -863.717 1373.09 
-2248.73 -863.197 1372.62 
-2249.34 -863.919 1373.3 
-2250.01 -864.827 1374.1 
-2250.67 -865.782 1374.92 
-2251.38 -866.747 1375.77 
-2251.43 -866.001 1375.46 
-2251.35 -865.112 1375.02 
-2250.78 -862.652 1373.8 
-2251.2 -864.008 1374.45 
-2250.32 -859.47 1372.42 
-2250.12 -859.96 1372.42 
-2250.5 -861.352 1373.1 
-2230.44 -902.93 1372.32 
-2230.66 -903.422 1372.05 
-2231.07 -903.602 1372.27 
-2231.4 -904.003 1372.19 
-2231.8 -904.254 1372.33 
-2232.15 -904.583 1372.34 
-2232.78 -905.083 1372.46 
-2232.39 -905.002 1372.17 
-2233.01 -905.719 1372.06 
-2233.7 -905.907 1372.21 
-2233.35 -906.147 1371.93 
-2235.09 -907.176 1372.03 
-2238.05 -910.933 1371.21 
-2241.71 -914.762 1370.72 
-2242.38 -914.773 1371.08 
-2250.45 -859.068 1372.61 
-2250.41 -858.455 1372.27 
-2255.94 -897.672 1396.82 
-2255.74 -898.326 1396.44 
-2256.01 -898.807 1396.36 
-2256.1 -900.535 1397.94 
-2256.15 -900.954 1398.75 
-2256.03 -899.945 1396.92 
-2256.05 -899.466 1396.31 
-2256.46 -903.276 1399.81 
-2256.35 -902.253 1399.41 
-2254.91 -905.445 1401.78 
-2255.9 -905.891 1401.31 
-2256.21 -905.885 1400.97 
-2256.43 -906.112 1400.68 
-2256.17 -886.084 1396.31 
-2255.56 -887.94 1395.39 
-2254.87 -890.206 1394.75 
-2254.86 -891.097 1392.53 
-2257.45 -885.031 1398.52 
-2256.35 -895.27 1397.29 
-2257.14 -883.045 1397.54 
-2254.5 -892.573 1391.24 
-2254.8 -891.925 1391.91 
-2260.44 -914.364 1378.05 
-2260.64 -914.108 1377.57 
-2260.23 -914.676 1378.43 
-2260.64 -914.435 1377.34 
-2260.85 -914.215 1376.9 
-2259.27 -915.049 1379.08 
-2254.11 -914.74 1380.88 
-2255.94 -915.098 1380.28 
-2257.2 -915.717 1379.66 
-2257.09 -916.001 1379.35 
-2251.61 -913.722 1381.94 
-2249.92 -911.643 1383.07 
-2256.59 -899.59 1387.06 
-2256.69 -900.797 1385.71 
-2255.8 -901.942 1384.7 
-2255.09 -905.722 1384.25 
-2254.52 -897.028 1389.28 
-2253.73 -893.594 1390.34 
-2259.08 -940.65 1389.11 
-2258.86 -944.503 1394.14 
-2258.79 -944.917 1396.35 
-2258.09 -944.464 1399.17 
-2257.54 -944.092 1402.11 
-2256.96 -943.705 1404.89 
-2255.74 -942.913 1409.81 
-2256.38 -943.31 1408.03 
-2255.12 -942.508 1412.56 
-2253.62 -940.337 1416.63 
-2254.67 -942.238 1415.24 
-2254.41 -942.158 1417.29 
-2253.28 -939.644 1418.82 
-2254.01 -940.483 1418.98 
-2250.58 -917.394 1409.39 
-2252.45 -928.428 1413.91 
-2254.3 -940.132 1418.73 
-2251.88 -918.218 1409.17 
-2252.59 -918.053 1408.47 
-2250.76 -910.329 1404.99 
-2253.9 -920.504 1408.77 
-2252.05 -907.476 1403.87 
-2253.56 -906.974 1402.9 
-2260.3 -938.399 1383.6 
-2260.38 -942.684 1386.01 
-2259.77 -943.032 1388.09 
-2261.07 -914.067 1376.33 
-2261.34 -913.695 1375.93 
-2261.47 -913.891 1375.73 
-2261.78 -914.032 1375.49 
-2262.74 -913.073 1375.4 
-2263.58 -912.022 1375.46 
-2263.34 -912.484 1375.36 
-2263.17 -913.133 1375.1 
-2263.2 -912.167 1374.81 
-2263.97 -911.903 1375.29 
-2262.5 -913.739 1375.18 
-2262.06 -914.137 1375.3 
-2263.14 -912.939 1373.99 
-2263.59 -913.955 1373.13 
-2260.06 -912.16 1373.47 
-2259.6 -912.688 1372.71 
-2259.66 -913.519 1371.87 
-2256.13 -911.615 1372.25 
-2252.5 -909.733 1372.56 
-2252.62 -910.625 1371.68 
-2248.6 -908.378 1372.19 
-2244.57 -906.192 1372.6 
-2241.23 -903.616 1373.17 
-2238.85 -901.516 1373.48 
-2235.78 -899.428 1373.59 
-2253.32 -927.3 1368.93 
-2258.03 -932.216 1368.32 
-2249.35 -922.915 1369.61 
-2245.56 -918.823 1370.19 
-2261.5 -933.974 1369.99 
-2261.01 -935.31 1368.16 
-2262.93 -934.475 1371.89 
-2262.24 -934.734 1374.46 
-2261.53 -935.964 1376.01 
-2260.64 -935.402 1378.3 
-2259.85 -935.824 1380.7 
-2260.36 -939.578 1381.59 
-2260.64 -941.13 1382.42 
-2228.5 -850.373 1375.03 
-2229.55 -850.039 1375.66 
-2233.94 -846.953 1377.62 
-2233.97 -845.06 1376 
-2237.2 -845.218 1378.64 
-2238.8 -842.227 1378.38 
-2242.32 -840.133 1379.25 
-2243.29 -839.978 1379.49 
-2240.87 -843.037 1379.49 
-2244.3 -839.679 1379.65 
-2245.06 -839.713 1379.63 
-2245.09 -837.738 1377.16 
-2243.55 -833.621 1376.18 
-2229.72 -899.514 1371.73 
-2231.5 -900.047 1372.01 
-2233.04 -899.918 1372.53 
-2235.05 -900.85 1372.67 
-2225.95 -900.353 1370.51 
-2227.11 -899.975 1370.7 
-2229.1 -900.847 1370.84 
-2226.11 -900.772 1369.8 
-2226.32 -901.312 1369.65 
-2226.5 -901.281 1370.01 
-2226.67 -901.07 1370.54 
-2227.1 -901.446 1370.58 
-2228.99 -902.896 1370.98 
-2229.42 -902.978 1371.31 
-2229.83 -903.134 1371.55 
-2228.63 -902.863 1370.64 
-2230.24 -903.265 1371.8 
-2227.73 -902.327 1370.13 
-2229.01 -903.974 1369.17 
-2229.25 -904.075 1369.39 
-2245.41 -832.19 1371.29 
-2244.12 -832.167 1373.32 
-2254.62 -843.633 1388.04 
-2254.61 -843.633 1388.09 
-2254.64 -843.634 1387.81 
-2254.73 -843.663 1387.44 
-2254.57 -843.597 1387.83 
-2254.59 -843.619 1387.98 
-2252.97 -843.134 1387.86 
-2252.65 -843.083 1387.17 
-2253.48 -843.297 1387.11 
-2254.17 -843.469 1387.07 
-2254.45 -843.552 1388.32 
-2254.58 -843.615 1388.14 
-2254.61 -843.581 1387.16 
-2254.67 -843.628 1387.41 
-2254.59 -843.588 1387.44 
-2124.71 -928.811 1341.43 
-2124.26 -929.336 1341.19 
-2123.63 -929.748 1340.84 
-2123.37 -929.558 1340.68 
-2123.68 -929.405 1340.85 
-2121.63 -930.761 1339.69 
-2121.85 -930.49 1339.81 
-2121.89 -930.244 1339.83 
-2121.89 -930.002 1339.83 
-2122.53 -929.865 1340.2 
-2123.1 -929.728 1340.52 
-2124.95 -927.826 1341.58 
-2124.71 -927.376 1341.5 
-2122.12 -935.239 1338.29 
-2122.26 -935.762 1338.23 
-2121.6 -938.436 1337.99 
-2121.24 -938.434 1337.89 
-2120.91 -931.191 1339.12 
-2120.72 -932.493 1338.4 
-2121.05 -933.29 1338.32 
-2121.59 -933.908 1338.39 
-2121.54 -934.527 1338.23 
-2116.87 -943.3 1335.38 
-2116.66 -947.917 1333.13 
-2114.12 -955.025 1330.58 
-2114.05 -954.741 1330.61 
-2111.58 -959 1327.81 
-2111.6 -959.131 1327.96 
-2111.93 -960.032 1326.97 
-2118.33 -941.696 1336.52 
-2111.95 -961.611 1325.67 
-2109.26 -966.559 1324.39 
-2104.09 -973.567 1316.66 
-2103.62 -974.835 1316.15 
-2103.19 -975.942 1315.68 
-2105.32 -971.745 1317.85 
-2106.91 -969.263 1320.29 
-2102.7 -977.041 1315.4 
-2100.07 -979.514 1313.33 
-2102.15 -977.979 1314.35 
-2098.41 -980.457 1312.7 
-2097.03 -981.453 1311.69 
-2097.88 -980.799 1312.3 
-2093.77 -984.664 1310.56 
-2093.38 -987.331 1310.29 
-2094.72 -983.447 1310.98 
-2095.8 -982.653 1311.21 
-2091.91 -991.379 1308.86 
-2092.72 -989.772 1309.58 
-2090.49 -994.275 1307.65 
-2088.03 -996.835 1305.83 
-2088.33 -996.062 1306.05 
-2087.45 -998.217 1305.76 
-2085.13 -999.749 1305.39 
-2085.28 -999.78 1305.29 
-2102.82 -970.489 1313.01 
-2102.1 -972.053 1311.73 
-2101.95 -972.491 1311.25 
-2101.79 -972.838 1310.83 
-2106.4 -961.494 1318.67 
-2106.15 -961.846 1318.25 
-2105.16 -964.952 1316.64 
-2104.17 -967.915 1315.06 
-2102.6 -970.765 1313.25 
-2100.78 -973.978 1310.44 
-2100.57 -974.278 1310.21 
-2098.6 -976.139 1309.65 
-2096.39 -978.291 1308.61 
-2093.99 -980.824 1307.48 
-2091.38 -984.452 1305.07 
-2088.13 -988.445 1303.7 
-2086.78 -991.503 1301.8 
-2084.49 -995.37 1299.68 
-2124.35 -927.786 1341.23 
-2122.94 -928.52 1340.39 
-2123.39 -928.577 1340.65 
-2122.47 -928.447 1340.11 
-2121.73 -928.846 1339.7 
-2121.21 -928.778 1339.4 
-2120.1 -928.821 1338.75 
-2119.29 -928.989 1338.28 
-2118.48 -928.921 1337.8 
-2120.64 -928.919 1339.07 
-2117.87 -929.106 1337.45 
-2118.44 -930.962 1337.38 
-2118.65 -932.106 1337.17 
-2118.75 -932.739 1337.12 
-2118.87 -933.317 1337.02 
-2118.87 -933.778 1336.82 
-2118.53 -931.7 1337.25 
-2118.41 -931.126 1337.37 
-2114.97 -940.372 1333.9 
-2114.52 -941.449 1333.39 
-2118.7 -934.594 1336.2 
-2118.21 -935.196 1335.68 
-2116.99 -936.895 1335.39 
-2117.02 -936.91 1335.01 
-2115.56 -939.282 1334.49 
-2114.09 -942.919 1332.22 
-2113.55 -945.878 1329.06 
-2112.92 -948.567 1326.6 
-2112.56 -949.633 1325.58 
-2111.75 -951.401 1324.06 
-2108.77 -956.748 1321.31 
-2107.66 -959.034 1319.71 
-2118.27 -930.613 1337.49 
-2118.04 -930.236 1337.4 
-2117.7 -929.893 1337.28 
-2117.47 -929.552 1337.22 
-2118.01 -929.342 1337.54 
-2105.69 -948.066 1319.81 
-2108.87 -949.194 1321.77 
-2107.17 -948.309 1320.32 
-2105.82 -947.556 1319.33 
-2109.55 -949.499 1322.69 
-2106.65 -948.648 1322.31 
-2105.8 -948.345 1321.57 
-2106.56 -951.412 1318.64 
-2105.55 -950.578 1318.07 
-2105.64 -947.968 1320.77 
-2105.5 -950.755 1318.07 
-2105.57 -950.94 1319.09 
-2106.56 -953.598 1319.39 
-2105.66 -951.396 1319.67 
-2105.99 -952.295 1319.61 
-2107.21 -954.315 1318.99 
-2107.14 -953.724 1318.97 
-2106.67 -952.87 1318.64 
-2106.34 -951.902 1318.44 
-2107.29 -954.935 1319.2 
-2180.96 -868.817 1353.73 
-2180.61 -869.262 1354.28 
-2180.29 -869.318 1354.78 
-2179.2 -867.472 1355.82 
-2179.3 -867.177 1355.52 
-2180.07 -869.229 1355.18 
-2179.62 -869.223 1355.82 
-2179.17 -869.234 1356.45 
-2178.92 -869.016 1356.88 
-2178.94 -868.562 1356.75 
-2179.06 -868.03 1356.47 
-2179.29 -867.001 1355.86 
-2179.22 -867.403 1356.21 
-2179.28 -867.107 1356.02 
-2179.38 -866.784 1355.54 
-2179.31 -868.52 1353.68 
-2179.47 -868.098 1353.61 
-2179.51 -867.831 1353.71 
-2179.64 -867.538 1353.68 
-2179.78 -867.264 1353.68 
-2179.92 -867.005 1353.66 
-2181.44 -867.215 1352.62 
-2180.09 -866.778 1353.62 
-2180.3 -866.577 1353.56 
-2181.63 -866.982 1352.58 
-2181.76 -867.404 1352.63 
-2181.69 -867.635 1352.78 
-2181.8 -866.746 1352.55 
-2181.63 -867.89 1352.96 
-2181.64 -867.947 1353.03 
-2181.54 -868.217 1353.18 
-2181.84 -867.424 1352.75 
-2179.1 -869.299 1353.95 
-2178.05 -869.644 1357.23 
-2179.41 -866.891 1355.18 
-2179.35 -867.223 1355.13 
-2179.41 -867.101 1354.86 
-2179.32 -867.538 1354.89 
-2179.25 -867.899 1354.88 
-2179.17 -868.295 1354.88 
-2178.78 -869.886 1355.29 
-2178.64 -870.172 1355.66 
-2179.11 -868.621 1354.81 
-2178.99 -869.141 1354.9 
-2178.52 -870.269 1355.96 
-2178.2 -870.229 1357.01 
-2178.15 -870.073 1357.07 
-2178.11 -869.967 1357.12 
-2178.09 -869.803 1357.17 
-2178.23 -870.348 1356.96 
-2178.3 -870.347 1356.69 
-2178.39 -870.348 1356.34 
-2178 -869.597 1357.28 
-2177.95 -869.758 1357.27 
-2178.37 -870.439 1356.22 
-2178.09 -870.105 1357.11 
-2178.47 -870.42 1355.85 
-2178 -869.946 1357.2 
-2178.06 -869.932 1357.17 
-2178.55 -870.417 1355.53 
-2178.65 -870.374 1355.2 
-2178.68 -870.421 1355.02 
-2178.77 -870.359 1354.69 
-2178.93 -869.854 1354.35 
-2229.41 -848.278 1373.76 
-2231.24 -843.851 1371.05 
-2230.48 -846.073 1372.44 
-2233.39 -843.882 1371.53 
-2232.22 -845.072 1372.11 
-2231.7 -844.408 1371.54 
-2242.29 -831.864 1370 
-2238.63 -837.269 1371 
-2234.66 -842.939 1371.87 
-2244.5 -830.716 1370.89 
-2244.62 -830.538 1370.57 
-2243.08 -830.644 1370.77 
-2245.04 -831.631 1371.16 
-2244.52 -831.062 1371.22 
-2249.19 -855.93 1371.44 
-2249.55 -856.631 1371.61 
-2249.33 -856.435 1371.48 
-2249.02 -855.844 1371.33 
-2248.85 -855.577 1371.24 
-2248.68 -855.351 1371.14 
-2248.35 -855.071 1370.94 
-2248.53 -855.437 1371.02 
-2248.21 -855.04 1370.84 
-2248.14 -854.893 1370.83 
-2248.23 -854.681 1370.94 
-2248.16 -854.553 1370.92 
-2248.07 -854.449 1370.88 
-2247.96 -854.367 1370.82 
-2247.83 -854.293 1370.74 
-2247.73 -854.196 1370.69 
-2247.76 -854.028 1370.75 
-2247.74 -853.879 1370.77 
-2247.8 -853.696 1370.86 
-2247.77 -853.338 1370.92 
-2247.73 -853.493 1370.85 
-2247.68 -853.659 1370.78 
-2247.76 -853.425 1371.08 
-2247.48 -853.92 1370.86 
-2247.1 -854.246 1370.49 
-2246.76 -854.429 1370.14 
-2245.85 -855.751 1369.36 
-2245.59 -856.074 1369.14 
-2245.31 -856.413 1368.88 
-2245.02 -856.744 1368.62 
-2246.32 -854.983 1369.74 
-2245.95 -855.083 1369.34 
-2245.83 -855.425 1369.28 
-2246.41 -854.615 1369.77 
-2244.69 -857.044 1368.31 
-2244.8 -857.353 1368.5 
-2250.17 -857.756 1371.91 
-2249.95 -857.373 1371.8 
-2249.75 -857.039 1371.71 
-2250.32 -858.215 1371.97 
-2245.01 -857.818 1368.77 
-2245.38 -858.3 1369.21 
-2245.86 -858.773 1369.79 
-2246.73 -861.096 1370.67 
-2247.25 -861.779 1371.28 
-2247.38 -861.292 1370.97 
-2248.02 -862.237 1371.77 
-2248.78 -862.316 1372.24 
-2248.21 -861.83 1371.69 
-2249.51 -863.376 1373.15 
-2250.22 -864.347 1374 
-2250.86 -865.405 1374.86 
-2250.7 -864.435 1374.32 
-2250.84 -863.888 1374.15 
-2250.94 -862.712 1373.77 
-2250.89 -863.045 1373.79 
-2250.25 -860.039 1372.39 
-2250.31 -859.558 1372.22 
-2250.46 -859.239 1372.4 
-2250.62 -861.322 1373.03 
-2230.49 -903.769 1371.55 
-2230.93 -903.919 1371.83 
-2231.23 -904.356 1371.7 
-2231.63 -904.547 1371.89 
-2231.97 -904.915 1371.85 
-2232.67 -905.442 1372.01 
-2232.26 -905.394 1371.67 
-2232.55 -905.806 1371.54 
-2232.92 -906.139 1371.57 
-2234.52 -907.314 1371.65 
-2233.36 -906.554 1371.55 
-2237.48 -911.127 1370.78 
-2241.17 -914.925 1370.34 
-2245.02 -918.984 1369.8 
-2250.43 -858.857 1372.14 
-2256.07 -897.587 1396.62 
-2255.81 -898.319 1396.18 
-2256.15 -898.818 1396.08 
-2256.18 -900.833 1397.37 
-2256.26 -901.485 1398.24 
-2256.28 -901.625 1398.87 
-2256.14 -900.166 1396.4 
-2256.21 -899.443 1395.98 
-2256.82 -905.812 1400.07 
-2256.75 -904.155 1399.36 
-2254.56 -907.55 1402.47 
-2255.81 -908.827 1401.99 
-2257.28 -909.984 1401.73 
-2258.57 -911.36 1401.54 
-2255.92 -887.243 1396.64 
-2254.98 -890.235 1394.95 
-2254.88 -891.186 1392.85 
-2257.84 -882.389 1398.77 
-2256.47 -895.121 1397.15 
-2257.22 -889.309 1397.96 
-2258.04 -881.506 1398.9 
-2257.53 -885.953 1398.13 
-2256.72 -885.301 1397.54 
-2254.85 -891.96 1392.08 
-2260.37 -914.69 1377.96 
-2260.52 -914.56 1377.66 
-2258.74 -915.43 1378.85 
-2260.26 -914.918 1378.06 
-2260.62 -914.757 1377.14 
-2260.77 -914.607 1376.81 
-2260.94 -914.451 1376.42 
-2253.75 -916.138 1380.53 
-2255.79 -916.298 1379.86 
-2255.96 -916.452 1379.58 
-2255.96 -916.639 1379.15 
-2255.66 -916.692 1379.37 
-2251.08 -914.802 1381.7 
-2249.47 -911.833 1383.09 
-2254.57 -897.455 1389.44 
-2256.4 -900.105 1387.53 
-2256.54 -901.385 1386.12 
-2254.84 -904.365 1385.18 
-2254.72 -905.746 1384.75 
-2253.58 -893.683 1390.36 
-2259.66 -945.501 1392.05 
-2259.47 -945.349 1394.07 
-2259.01 -945.025 1396.93 
-2258.29 -944.562 1399.65 
-2257.71 -944.167 1402.88 
-2257.03 -943.72 1405.95 
-2255.78 -942.911 1411.05 
-2256.6 -943.449 1409.07 
-2255.49 -942.823 1413.65 
-2254.11 -942.836 1420.19 
-2255.69 -943.419 1416.49 
-2255.44 -945.806 1421.87 
-2255.23 -943.884 1420.24 
-2255.94 -943.393 1419.04 
-2252.27 -922.978 1411.32 
-2254.67 -940.231 1418.65 
-2253.67 -931.705 1414.92 
-2256.46 -943.173 1418.6 
-2254.36 -927.695 1412.64 
-2254.12 -924.079 1410.99 
-2250.86 -910.045 1404.74 
-2253.85 -918.491 1406.67 
-2256.05 -926.062 1410.77 
-2255.84 -928.952 1412.57 
-2252.03 -911.926 1404.14 
-2252.36 -908.717 1403.9 
-2253.5 -909.801 1403.1 
-2261.26 -945.458 1383.24 
-2260.81 -944.136 1384.71 
-2261.11 -946.441 1386.2 
-2260.42 -945.989 1389.17 
-2261.12 -914.416 1375.9 
-2261.23 -914.219 1375.81 
-2261.33 -914.278 1375.71 
-2261.58 -914.311 1375.56 
-2262.87 -913.736 1374.96 
-2263.59 -913.01 1374.92 
-2263.9 -912.645 1374.93 
-2263.54 -913.697 1374.57 
-2263.2 -913.804 1374.72 
-2264.4 -912.201 1374.95 
-2264.31 -912.537 1374.74 
-2262.46 -914.113 1375.06 
-2261.99 -914.375 1375.31 
-2264.5 -913.061 1374.02 
-2263.84 -914.833 1372.31 
-2264.78 -913.688 1373.39 
-2263.93 -915.672 1371.48 
-2264.08 -916.559 1370.64 
-2260.13 -914.66 1370.9 
-2256.47 -912.696 1371.27 
-2256.7 -913.675 1370.36 
-2252.55 -911.382 1370.86 
-2248.8 -909.306 1371.31 
-2246.09 -908.029 1371.41 
-2242.75 -905.92 1372.08 
-2240.05 -904.478 1372.24 
-2237.47 -902.264 1372.7 
-2253.25 -928.01 1368.44 
-2256.7 -931.419 1368.11 
-2260.32 -935.647 1367.36 
-2249 -923.233 1369.22 
-2262.49 -936.218 1368.83 
-2263.32 -936.311 1370.55 
-2262.8 -938.002 1367.41 
-2262.36 -937.298 1373.73 
-2261.16 -938.455 1376.51 
-2260.19 -938.007 1379.29 
-2260.48 -940.797 1380.44 
-2261.15 -945.976 1380.62 
-2261.19 -945.779 1381.39 
-2261.39 -946.249 1382.25 
-2229.5 -849.755 1374.85 
-2232.67 -845.664 1374.82 
-2238.63 -840.564 1376.71 
-2237.69 -839.834 1374.94 
-2243.16 -837.635 1379.18 
-2242.84 -836.594 1377.77 
-2243.85 -836.328 1378.67 
-2242.42 -833.487 1379.08 
-2244.41 -837.161 1378.02 
-2242.61 -833.018 1377.65 
-2243.47 -831.539 1373.7 
-2231.95 -902.487 1370.68 
-2233.95 -903.103 1370.95 
-2235.24 -903.051 1371.5 
-2237.48 -903.94 1371.68 
-2229.17 -902.676 1369.1 
-2231.99 -904.135 1368.88 
-2228.39 -903.532 1367.65 
-2228.88 -904.599 1367.3 
-2228.68 -904.292 1367.87 
-2227.54 -902.518 1369.44 
-2228.83 -904.106 1368.55 
-2230 -904.661 1369.58 
-2229.32 -903.382 1370.8 
-2229.69 -903.534 1371.03 
-2230.08 -903.676 1371.26 
-2230.24 -905.225 1368.86 
-2230.46 -906.155 1367.31 
-2231.75 -907.719 1366.48 
-2231.95 -907.724 1366.83 
-2244.61 -831.742 1371.84 
-2254.52 -843.583 1388.07 
-2254.52 -843.579 1388.01 
-2254.49 -843.558 1387.86 
-2252.93 -843.086 1388.01 
-2252.5 -842.994 1387.44 
-2253.07 -843.172 1387.29 
-2253.69 -843.328 1387.25 
-2254.42 -843.511 1387.25 
-2254.22 -843.435 1388.51 
-2254.42 -843.536 1388.21 
-2254.49 -843.568 1388.13 
-2254.52 -843.548 1387.47 
-2124.24 -928.736 1341.16 
-2123.79 -929.22 1340.91 
-2122.67 -929.622 1340.27 
-2122.87 -929.439 1340.38 
-2123.24 -929.302 1340.59 
-2120.72 -930.785 1339.16 
-2121.15 -930.595 1339.41 
-2121.15 -930.369 1339.4 
-2121.18 -930.124 1339.42 
-2121.24 -929.864 1339.44 
-2121.95 -929.727 1339.85 
-2121.64 -935.164 1338.12 
-2121.75 -935.972 1337.98 
-2121.42 -935.795 1337.89 
-2120.97 -938.144 1337.87 
-2119.35 -940.911 1337.2 
-2120.24 -931.138 1338.79 
-2120.12 -932.153 1338.25 
-2120.41 -932.942 1338.15 
-2120.62 -933.605 1338.08 
-2121.15 -933.936 1338.21 
-2121.18 -934.961 1337.98 
-2120.87 -934.312 1338.01 
-2116.61 -943.599 1335.2 
-2117.06 -942.105 1335.91 
-2116.4 -947.743 1333.05 
-2113.8 -954.672 1330.53 
-2111.4 -958.882 1327.72 
-2111.23 -958.722 1327.64 
-2111.8 -961.42 1325.6 
-2109.21 -966.234 1324.37 
-2104.26 -972.846 1316.72 
-2103.57 -974.488 1316.03 
-2102.77 -976.642 1315.29 
-2103.04 -975.773 1315.45 
-2105.33 -971.263 1318.08 
-2106.9 -968.955 1320.5 
-2102.29 -977.285 1314.87 
-2099.31 -979.573 1313.24 
-2097.72 -980.507 1312.49 
-2099.46 -979.242 1313.33 
-2096.76 -981.205 1311.82 
-2095.97 -982.11 1311.42 
-2093.55 -984.311 1310.71 
-2093.03 -987.202 1310.24 
-2094.32 -983.211 1311.11 
-2095.21 -982.662 1311.26 
-2092.06 -990.266 1309.29 
-2089.99 -994.295 1307.52 
-2091.32 -992.825 1308.4 
-2088.38 -995.732 1306.2 
-2087.29 -998.062 1305.75 
-2087.7 -996.923 1305.79 
-2085.16 -999.533 1305.52 
-2101.88 -972.248 1311.9 
-2101.52 -972.924 1311.46 
-2101.45 -973.093 1311.15 
-2101.16 -973.497 1310.77 
-2106.57 -961.286 1319.12 
-2104.87 -965.629 1316.62 
-2104.06 -968.03 1315.29 
-2102.5 -970.863 1313.58 
-2101.71 -972.396 1312.06 
-2100.31 -974.373 1310.61 
-2098.21 -976.27 1310.22 
-2098.32 -976.249 1309.93 
-2096.1 -978.387 1309.01 
-2094.46 -980.043 1308.51 
-2091.46 -984.004 1305.66 
-2087.99 -988.327 1304.22 
-2086.55 -991.706 1301.92 
-2084.3 -995.408 1299.96 
-2123.8 -928.681 1340.9 
-2122.64 -929.037 1340.24 
-2122.22 -928.934 1339.99 
-2123.26 -929.112 1340.6 
-2121.76 -929.043 1339.72 
-2121.25 -928.968 1339.42 
-2120.06 -929.047 1338.73 
-2119.46 -929.207 1338.38 
-2118.68 -929.155 1337.93 
-2120.84 -929.113 1339.19 
-2118.63 -932.368 1337.2 
-2118.86 -932.895 1337.2 
-2118.88 -933.739 1336.99 
-2118.42 -931.438 1337.33 
-2118.51 -932.022 1337.28 
-2118.3 -930.929 1337.48 
-2114.98 -940.371 1334.23 
-2114.67 -941.219 1333.8 
-2114.32 -942.249 1333.07 
-2118.76 -934.594 1336.41 
-2118.3 -935.183 1335.99 
-2118.2 -935.242 1335.81 
-2117.03 -936.796 1335.61 
-2115.48 -939.489 1334.9 
-2115.58 -939.277 1334.77 
-2113.99 -943.5 1331.89 
-2113.55 -945.919 1329.33 
-2113.01 -948.468 1327.09 
-2112.64 -949.582 1326.01 
-2111.82 -951.533 1324.42 
-2111.66 -951.744 1324.05 
-2108.42 -957.388 1321.15 
-2118.13 -930.585 1337.49 
-2117.97 -930.302 1337.41 
-2117.59 -929.771 1337.3 
-2117.72 -930.061 1337.32 
-2118.17 -929.576 1337.64 
-2118.83 -929.394 1338.02 
-2108.74 -948.77 1321.84 
-2107.25 -948.021 1320.51 
-2105.76 -947.419 1320.13 
-2109.48 -949.072 1322.78 
-2107.57 -948.655 1322.58 
-2105.99 -947.953 1322.37 
-2105.82 -948.091 1321.93 
-2105.43 -950.857 1318 
-2105.94 -951.901 1318.03 
-2105.52 -950.998 1319.07 
-2106.36 -953.325 1319.33 
-2106.97 -954.752 1318.93 
-2105.52 -951.219 1319.36 
-2105.78 -951.959 1319.58 
-2106.57 -953.971 1318.37 
-2106.4 -953.372 1318.3 
-2106.19 -952.756 1318.17 
-2105.78 -951.912 1317.78 
-2180.95 -867.889 1353.8 
-2180.49 -868.108 1354.42 
-2180.43 -869.017 1354.65 
-2179.48 -866.511 1355.21 
-2180.2 -869.104 1355.09 
-2179.78 -869.148 1355.69 
-2179.36 -869.15 1356.29 
-2178.97 -868.914 1356.9 
-2179.03 -868.239 1356.69 
-2179.13 -867.818 1356.45 
-2179.43 -866.491 1355.64 
-2179.31 -867.085 1356.14 
-2179.38 -866.746 1355.92 
-2179.58 -866.07 1355.19 
-2179.09 -869.225 1354.14 
-2179.23 -868.649 1353.96 
-2179.26 -868.416 1354.05 
-2179.31 -868.142 1354.13 
-2179.38 -867.757 1354.14 
-2179.46 -867.367 1354.16 
-2179.53 -867.006 1354.19 
-2180.54 -866.394 1353.47 
-2179.61 -866.62 1354.2 
-2179.72 -866.259 1354.18 
-2180.81 -866.229 1353.35 
-2181.98 -866.509 1352.52 
-2182.01 -867.024 1352.56 
-2180.98 -865.983 1353.32 
-2181.97 -867.252 1352.74 
-2181.97 -867.321 1352.82 
-2181.86 -867.613 1352.97 
-2180.95 -866.95 1353.86 
-2182.18 -866.786 1352.53 
-2178.02 -869.787 1357.22 
-2179.52 -866.608 1354.82 
-2179.57 -866.315 1354.89 
-2179.6 -866.437 1354.53 
-2179.51 -866.879 1354.54 
-2179.42 -867.295 1354.54 
-2179.34 -867.715 1354.54 
-2179.27 -868.049 1354.49 
-2178.75 -870.079 1355.26 
-2178.94 -869.432 1354.85 
-2178.62 -870.252 1355.57 
-2179.17 -868.54 1354.51 
-2178.54 -870.335 1355.74 
-2178.45 -870.364 1356.06 
-2178.63 -870.321 1355.41 
-2178.76 -870.204 1354.98 
-2178.78 -870.245 1354.78 
-2178.93 -869.704 1354.53 
-2230.23 -848.012 1373.75 
-2231.13 -846.238 1372.7 
-2232.8 -845.433 1372.76 
-2231.41 -847.145 1373.45 
-2239.6 -835.791 1371.51 
-2236.14 -840.781 1372.26 
-2244.05 -830.481 1371.22 
-2243.25 -830.558 1371.12 
-2244.16 -831.284 1371.93 
-2243.64 -830.517 1371.85 
-2243.75 -830.856 1372.09 
-2249.13 -856.317 1371.34 
-2249.64 -857.221 1371.6 
-2249.45 -856.922 1371.5 
-2249.25 -856.77 1371.37 
-2248.93 -856.146 1371.22 
-2248.74 -855.853 1371.12 
-2248.37 -855.509 1370.89 
-2248.56 -855.892 1370.98 
-2248.05 -855.118 1370.71 
-2248.21 -855.479 1370.78 
-2247.99 -854.96 1370.7 
-2248.09 -854.758 1370.82 
-2248.02 -854.637 1370.8 
-2247.92 -854.553 1370.75 
-2247.82 -854.49 1370.68 
-2247.64 -854.359 1370.59 
-2247.71 -854.45 1370.62 
-2247.54 -854.287 1370.53 
-2247.61 -854.124 1370.62 
-2247.56 -854.004 1370.61 
-2247.62 -853.831 1370.7 
-2247.62 -853.4 1370.8 
-2247.66 -853.376 1370.93 
-2247.57 -853.587 1370.72 
-2247.51 -853.755 1370.63 
-2247.29 -853.606 1370.58 
-2247.13 -853.927 1370.46 
-2246.79 -854.039 1370.1 
-2246.48 -854.183 1369.77 
-2245.52 -855.723 1368.98 
-2245.21 -856.067 1368.7 
-2244.91 -856.399 1368.42 
-2244.63 -856.714 1368.16 
-2246.03 -854.737 1369.36 
-2245.68 -854.821 1368.99 
-2245.57 -855.26 1368.94 
-2246.16 -854.369 1369.45 
-2244.28 -857.089 1367.84 
-2244.52 -857.435 1368.17 
-2250.15 -858.244 1371.84 
-2250.02 -857.81 1371.8 
-2249.82 -857.577 1371.68 
-2250.29 -858.679 1371.88 
-2244.87 -857.939 1368.59 
-2246.18 -860.326 1370.03 
-2245.65 -859.594 1369.42 
-2246.15 -859.756 1369.56 
-2246.79 -860.558 1370.29 
-2246.83 -859.696 1369.92 
-2247.49 -860.622 1370.73 
-2247.98 -860.767 1371.07 
-2248.41 -860.873 1371.37 
-2249.08 -862.015 1372.28 
-2249.8 -863.089 1373.18 
-2250.17 -863.08 1373.39 
-2250.36 -862.575 1373.27 
-2250.86 -862.091 1373.35 
-2250.38 -861.671 1372.87 
-2250.56 -860.687 1372.65 
-2250.4 -859.535 1372.12 
-2230.36 -904.215 1370.98 
-2230.75 -904.232 1371.35 
-2231.5 -904.915 1371.41 
-2231.07 -904.645 1371.26 
-2231.88 -905.305 1371.39 
-2232.37 -906.117 1370.9 
-2232.98 -906.772 1370.72 
-2233.47 -907.225 1370.7 
-2234.59 -908.541 1370.62 
-2240.57 -915.343 1369.43 
-2237.94 -913.843 1368.61 
-2243.99 -918.711 1369.34 
-2247.45 -922.358 1368.93 
-2250.43 -859.135 1371.99 
-2256.2 -897.504 1396.41 
-2255.88 -898.32 1395.94 
-2256.26 -898.768 1395.77 
-2256.68 -903.484 1398.79 
-2256.37 -902.039 1397.99 
-2256.28 -901.25 1396.99 
-2256.31 -900.226 1396 
-2256.38 -899.27 1395.71 
-2256.31 -899.684 1395.83 
-2258.73 -910.448 1400.94 
-2258.81 -909.777 1399.99 
-2255.09 -911.278 1402.32 
-2259.29 -913.986 1402.39 
-2257.87 -913.578 1402.55 
-2260.3 -914.827 1402.04 
-2260.45 -914.736 1401.57 
-2254.87 -890.894 1395.28 
-2256.04 -891.566 1396.47 
-2255.02 -891.919 1395.17 
-2254.88 -891.425 1393.18 
-2256.51 -895.684 1396.9 
-2256.67 -895.233 1396.83 
-2256.98 -891.427 1397.15 
-2254.86 -892.073 1392.22 
-2260.48 -914.899 1377.51 
-2258.04 -915.864 1378.68 
-2260.26 -915.146 1377.81 
-2260.58 -915.057 1376.9 
-2260.76 -914.957 1376.44 
-2260.88 -914.741 1376.3 
-2261.04 -914.656 1375.89 
-2252.45 -917.172 1380.49 
-2253.47 -917.482 1379.99 
-2254.48 -917.1 1379.75 
-2254.55 -917.167 1379.52 
-2254.11 -917.483 1379.28 
-2253.93 -917.675 1379.03 
-2255.33 -917.032 1378.95 
-2250.16 -914.655 1381.97 
-2248.98 -912.038 1383.11 
-2254.55 -897.919 1389.74 
-2255.87 -900.076 1388.71 
-2256.3 -900.678 1387.88 
-2256.45 -901.796 1386.74 
-2254.46 -904.768 1385.69 
-2253.24 -894.029 1390.28 
-2260.2 -945.819 1391.3 
-2259.81 -945.535 1394.11 
-2259.31 -945.19 1397.04 
-2258.52 -944.682 1400.02 
-2258.01 -944.328 1403.03 
-2257.29 -943.861 1406.1 
-2256.59 -943.635 1411.6 
-2257.72 -944.509 1409.85 
-2257.8 -944.392 1407.64 
-2256.66 -943.894 1413.83 
-2256.96 -945.696 1417.54 
-2256.74 -949.012 1423.84 
-2256.86 -948.084 1423.34 
-2256.97 -945.915 1420.13 
-2257.68 -945.31 1418.82 
-2254.06 -930.236 1414.01 
-2255.02 -940.274 1418.57 
-2256.7 -942.988 1418.46 
-2258.29 -944.86 1418.14 
-2255.75 -937.668 1416.83 
-2256.35 -934.917 1415.2 
-2255.97 -923.499 1408.25 
-2258.39 -932.115 1412.85 
-2257.68 -933.595 1413.99 
-2257.29 -936.223 1415.36 
-2253.39 -914.07 1403.45 
-2255.06 -915.343 1403.35 
-2261.73 -946.862 1383.22 
-2261.7 -946.8 1384.85 
-2261 -946.328 1388.25 
-2261.09 -914.777 1375.76 
-2261.19 -914.542 1375.74 
-2261.26 -914.57 1375.71 
-2261.51 -914.527 1375.58 
-2262.83 -914.121 1374.85 
-2263.91 -913.466 1374.46 
-2264.25 -913.227 1374.39 
-2263.68 -914.007 1374.36 
-2263.2 -914.113 1374.63 
-2264.74 -912.505 1374.47 
-2264.64 -913.128 1374.21 
-2262.41 -914.335 1375.07 
-2262.16 -914.573 1375.19 
-2261.74 -914.649 1375.43 
-2264.98 -914.616 1372.53 
-2265.15 -912.936 1373.91 
-2265.16 -915.625 1371.61 
-2264.32 -917.51 1369.76 
-2265.34 -916.599 1370.72 
-2260.62 -915.833 1369.9 
-2260.7 -916.713 1369.02 
-2256.14 -914.115 1369.65 
-2252.01 -911.885 1370.09 
-2248.51 -910.135 1370.31 
-2244.49 -907.883 1370.83 
-2241.09 -906.088 1371.15 
-2257.29 -932.815 1367.54 
-2254.83 -930.65 1367.58 
-2251.01 -926.143 1368.44 
-2261.16 -937.34 1366.76 
-2263.89 -938.387 1369.01 
-2263.11 -938.958 1371.61 
-2264.26 -940.343 1367.58 
-2262.22 -939.775 1373.69 
-2261.35 -941.358 1375.57 
-2260.53 -941.019 1378.01 
-2260.62 -942.241 1379.16 
-2261.1 -945.788 1379.66 
-2260.96 -947.414 1380.64 
-2261.34 -947.235 1381.8 
-2261.62 -946.969 1382.45 
-2231.32 -847.574 1374.3 
-2234.96 -842.351 1373.89 
-2242.63 -835.169 1376.3 
-2238.48 -837.493 1373.3 
-2242.11 -834.341 1374.6 
-2242.09 -831.536 1377.19 
-2242.3 -831.218 1376.21 
-2242.95 -830.978 1374.12 
-2237.09 -906.021 1369.36 
-2234.92 -905.645 1368.66 
-2238.24 -905.755 1370.2 
-2240.52 -906.598 1370.36 
-2231.15 -905.71 1366.05 
-2234.04 -907.284 1365.81 
-2231.37 -907.679 1365.24 
-2231.52 -907.085 1365.07 
-2230.32 -906.368 1366.62 
-2231.85 -908.28 1365.47 
-2232.55 -908.298 1366.75 
-2232.4 -907.842 1367.42 
-2230.49 -905.048 1369.68 
-2230.57 -904.892 1370.14 
-2233.25 -910.011 1364.48 
-2234.81 -911.986 1363.28 
-2233.85 -910.456 1364.68 
-2234.91 -911.69 1364.09 
-2254.43 -843.533 1388.04 
-2254.43 -843.536 1388.09 
-2254.41 -843.518 1387.9 
-2252.9 -843.035 1388.19 
-2253.09 -843.156 1387.45 
-2253.85 -843.342 1387.44 
-2252.62 -842.985 1387.66 
-2254.31 -843.465 1387.37 
-2254.43 -843.505 1387.56 
-2254.07 -843.359 1388.57 
-2254.31 -843.476 1388.25 
-2254.37 -843.505 1388.13 
-2122.17 -929.509 1339.97 
-2122.39 -929.336 1340.1 
-2122.76 -929.212 1340.31 
-2119.93 -930.776 1338.7 
-2120.4 -930.548 1338.97 
-2120.48 -930.278 1339.01 
-2120.52 -930.024 1339.03 
-2120.54 -929.771 1339.03 
-2121.3 -929.589 1339.47 
-2121 -935.638 1337.76 
-2120.55 -938.135 1337.78 
-2120.41 -937.032 1337.75 
-2117.43 -941.604 1336.26 
-2119.21 -940.649 1337.23 
-2119.64 -931.048 1338.51 
-2119.46 -931.939 1338.02 
-2119.78 -932.594 1337.98 
-2120.05 -933.221 1337.94 
-2120.27 -933.924 1337.86 
-2120.64 -934.79 1337.8 
-2120.58 -935.477 1337.65 
-2116.3 -942.649 1335.45 
-2116.39 -944.181 1334.91 
-2116.03 -947.921 1332.76 
-2112.55 -955.953 1329.52 
-2111.68 -961.217 1325.52 
-2111.34 -961.484 1325.27 
-2109.31 -965.783 1324.23 
-2104.34 -972.256 1316.81 
-2103.73 -973.638 1316.14 
-2103.25 -974.8 1315.62 
-2102.54 -976.631 1315.09 
-2102.75 -975.996 1315.1 
-2106.01 -969.786 1319.21 
-2106.89 -968.658 1320.69 
-2102.05 -977.266 1314.53 
-2099.27 -979.035 1313.37 
-2097.35 -980.308 1312.56 
-2096.5 -980.964 1311.94 
-2097.01 -980.103 1312.63 
-2095.57 -981.984 1311.51 
-2092.77 -986.638 1310.27 
-2093.4 -983.781 1310.96 
-2093.93 -982.973 1311.25 
-2094.82 -982.426 1311.39 
-2094.87 -982.652 1311.3 
-2090.01 -994.049 1307.71 
-2087.79 -995.895 1305.89 
-2091.68 -990.323 1309.21 
-2087.44 -997.25 1305.76 
-2086.79 -998.34 1305.75 
-2085.16 -999.379 1305.6 
-2101.16 -973.261 1311.58 
-2100.82 -973.689 1311.18 
-2100.67 -973.927 1310.89 
-2106.28 -962.021 1319.2 
-2104.76 -965.764 1316.81 
-2102.68 -970.516 1314.25 
-2101.65 -972.328 1312.32 
-2101.09 -973.247 1311.86 
-2100.04 -974.554 1310.86 
-2098.15 -976.234 1310.61 
-2095.34 -978.983 1309.49 
-2092.39 -982.33 1307.17 
-2088.56 -987.499 1304.83 
-2086.23 -991.735 1302.42 
-2086.24 -992.025 1302 
-2083.83 -995.885 1299.96 
-2122.13 -929.169 1339.94 
-2121.41 -929.193 1339.52 
-2120.28 -929.28 1338.87 
-2119.63 -929.455 1338.49 
-2120.99 -929.351 1339.29 
