-2468.08 -945.66 4750.75 
-2466.99 -944.97 4752.77 
-2466.27 -943.777 4755.28 
-2465 -944.048 4755.93 
-2463.83 -944.038 4756.95 
-2471.09 -906.181 4777.44 
-2486.35 -948.298 4731.56 
-2484.72 -948.229 4731.84 
-2508.91 -978.047 4790.35 
-2509.62 -977.98 4790.76 
-2507.79 -978.553 4788.48 
-2507.16 -977.954 4787.5 
-2506.31 -977.541 4786.14 
-2505.39 -977.443 4784.63 
-2502.97 -975.948 4780.83 
-2503.76 -977.518 4781.93 
-2503.03 -977.042 4780.77 
-2504.36 -978.137 4782.87 
-2501.76 -975.669 4779.27 
-2497.69 -971.034 4778.73 
-2500.29 -975.254 4777.66 
-2496.72 -971.441 4776.46 
-2496.5 -971.705 4773.09 
-2509.96 -978.549 4790.39 
-2509.72 -980.446 4790.22 
-2495.96 -973.148 4769.2 
-2495.87 -973.685 4765.52 
-2495.76 -974.224 4761.88 
-2495.88 -973.921 4760.5 
-2496.04 -973.509 4759.67 
-2496.4 -972.777 4758.84 
-2496.71 -972.075 4757.8 
-2497.09 -971.326 4756.97 
-2497.35 -970.718 4755.98 
-2497.62 -970.075 4754.92 
-2513.12 -971.018 4763 
-2511.59 -972.215 4758.33 
-2510.92 -972.003 4753.75 
-2513.64 -971.757 4764.44 
-2513.95 -971.777 4768.02 
-2512.61 -972.488 4773.85 
-2512.01 -973.428 4779.07 
-2511.65 -977.807 4782.73 
-2511.79 -977.615 4783.11 
-2511.93 -983.052 4785.59 
-2512.25 -983.987 4786.92 
-2512.18 -984.105 4787.32 
-2512.05 -984.155 4787.57 
-2511.18 -983.941 4788.49 
-2510.95 -984.346 4788.5 
-2511.81 -984.277 4788.24 
-2511.78 -984.361 4788.08 
-2511.86 -984.333 4787.81 
-2510.77 -983.623 4788.73 
-2509.61 -983.61 4789.01 
-2509.15 -983.233 4789.28 
-2509 -982.797 4789.51 
-2508.75 -982.405 4789.73 
-2508.53 -982.01 4789.96 
-2508.47 -981.577 4790.16 
-2508.68 -981.071 4790.33 
-2510.39 -971.152 4750.64 
-2510.34 -971.475 4751.32 
-2508.38 -971.154 4746.75 
-2509.33 -971.084 4744.82 
-2509.54 -971.481 4744.98 
-2510.08 -971.207 4747.36 
-2509.69 -971.703 4746.08 
-2510.12 -971.491 4748.32 
-2510.14 -971.76 4749.2 
-2510.16 -971.908 4750.04 
-2510.37 -971.635 4751.55 
-2510.19 -972.441 4751.44 
-2510.35 -972.478 4751.94 
-2482.53 -920.255 4710.72 
-2483.01 -920.346 4710.39 
-2483.18 -920.508 4710.11 
-2484.28 -920.965 4709.14 
-2487.05 -922.233 4706.63 
-2487.83 -922.548 4705.94 
-2485.08 -929.498 4695.26 
-2485.3 -929.482 4695.01 
-2487.34 -929.074 4694.55 
-2485.97 -929.441 4694.68 
-2485.78 -929.643 4694.86 
-2488.69 -929.043 4694.88 
-2489.08 -929.002 4695.02 
-2489.44 -929.031 4694.97 
-2489.92 -929.204 4694.94 
-2490.8 -930.054 4695.64 
-2492.08 -931.687 4696.08 
-2481.86 -938.535 4716.46 
-2481.5 -939.029 4718.12 
-2482 -940.133 4721.05 
-2481.31 -938.412 4713.22 
-2482.23 -938.564 4711.53 
-2482.88 -939.142 4704.79 
-2482.9 -942.315 4693.66 
-2482.62 -939.102 4707.17 
-2484.09 -942.783 4689.33 
-2481.11 -938.483 4715.03 
-2484.79 -942.968 4686.92 
-2485.05 -943.122 4685.26 
-2485.18 -943.106 4683.9 
-2482.39 -942.893 4724.89 
-2485.2 -943.332 4682.74 
-2483.32 -940.572 4673.83 
-2483.68 -941.017 4674.15 
-2483.99 -941.451 4674.72 
-2483.78 -941.954 4675.25 
-2484.32 -942.009 4677.05 
-2483.06 -940.075 4673.7 
-2485.28 -942.884 4680.61 
-2484.39 -942.418 4678.02 
-2484.74 -943 4679.3 
-2485.12 -943.676 4681.79 
-2485.12 -943.584 4680.7 
-2485.11 -943.781 4681.25 
-2483.05 -938.658 4674.01 
-2482.1 -937.315 4673.28 
-2482.41 -938.124 4673.49 
-2482.79 -939.485 4673.67 
-2493.16 -933.071 4696.48 
-2492.01 -932.452 4696.24 
-2490.99 -931.983 4696.12 
-2487.03 -930.322 4695.27 
-2489.7 -931.405 4695.88 
-2488.34 -930.747 4695.5 
-2503.43 -971.477 4750.53 
-2506.82 -971.314 4747.88 
-2505.49 -971.528 4748.87 
-2504.24 -971.734 4749.8 
-2502.24 -971.747 4751.39 
-2500.29 -972.052 4752.8 
-2501.28 -972.067 4752.06 
-2499.48 -971.456 4753.32 
-2498.95 -971.34 4753.54 
-2499.7 -971.972 4753.06 
-2498.22 -970.716 4754 
-2497.9 -970.187 4754.3 
-2498.43 -971.238 4753.75 
-2480.4 -937.26 4672.31 
-2479.78 -936.793 4671.94 
-2479.17 -936.186 4671.58 
-2478.43 -935.573 4671.12 
-2477.75 -935.137 4670.64 
-2481.27 -936.672 4672.84 
-2480.91 -937.433 4672.57 
-2481.76 -936.686 4673.09 
-2461.07 -896.638 4770.76 
-2461.43 -896.906 4770.77 
-2461.93 -897.165 4770.7 
-2462.81 -897.578 4770.59 
-2462.31 -897.33 4770.65 
-2463.22 -897.741 4770.54 
-2469.34 -895.731 4776.93 
-2468.54 -895.514 4775.9 
-2467.5 -895.303 4774.5 
-2467.55 -894.887 4774.72 
-2463.3 -894.136 4768.76 
-2466.69 -891.098 4766.35 
-2467.81 -894.83 4769.87 
-2467.21 -893.699 4768.56 
-2469.79 -900.656 4778.13 
-2469.67 -900.468 4778.36 
-2470.59 -900.668 4778.99 
-2469.67 -899.977 4778.11 
-2469.24 -899.258 4777.09 
-2469.69 -899.439 4777.87 
-2468.59 -899.731 4775.26 
-2468.61 -899.336 4775.88 
-2468.94 -898.903 4776.56 
-2468.29 -898.521 4773.43 
-2472.13 -900.616 4780.79 
-2473.2 -900.565 4782.03 
-2470.74 -900.779 4779.21 
-2471.6 -900.758 4780.22 
-2474.75 -898.143 4781.74 
-2474.05 -900.549 4783.04 
-2475.59 -898.347 4782.94 
-2474.93 -895.659 4780.32 
-2474.15 -895.659 4780.07 
-2473.09 -895.196 4779.09 
-2473.37 -896.321 4780.72 
-2472 -896.834 4780.62 
-2470.79 -896.651 4779.32 
-2469.59 -896.115 4777.16 
-2470.1 -896.359 4777.93 
-2470.6 -896.528 4778.78 
-2464.73 -896.95 4770.98 
-2464.23 -897.553 4770.63 
-2413.18 -926.926 4800.55 
-2414.35 -927.043 4801.57 
-2413.76 -926.741 4799.7 
-2415.35 -926.529 4798.92 
-2408.22 -925.909 4789.19 
-2409.14 -925.38 4784.67 
-2414.22 -925.968 4795.44 
-2401.84 -930.49 4779.02 
-2401.65 -930.593 4779.75 
-2402.75 -929.477 4779.35 
-2405.55 -927.21 4782.44 
-2406.19 -926.746 4781.62 
-2402.22 -930.342 4777.88 
-2403.05 -929.935 4775.78 
-2404.15 -928.887 4773.91 
-2402.6 -930.196 4776.62 
-2403.88 -929.474 4773.61 
-2404.84 -928.559 4771.88 
-2405.73 -927.521 4770.74 
-2406.57 -926.597 4769.51 
-2406.89 -926.059 4769.47 
-2407.53 -925.214 4768.87 
-2409.41 -923.428 4766.09 
-2409.11 -923.912 4766.11 
-2408.21 -924.511 4767.77 
-2409.7 -924.25 4765.41 
-2409.71 -924.998 4765.67 
-2409.93 -925.328 4765.82 
-2414.99 -929.632 4764.76 
-2415.49 -930.33 4764.6 
-2413.57 -928.74 4765.47 
-2414.04 -929.083 4765.25 
-2412.8 -928.349 4765.91 
-2413.08 -928.573 4765.79 
-2416.14 -932.37 4764.39 
-2415.8 -931.678 4764.58 
-2415.96 -932.167 4764.51 
-2415.63 -931.222 4764.65 
-2415.51 -930.816 4764.72 
-2418.33 -936.803 4760.17 
-2420.66 -933.676 4754.78 
-2420.97 -931.272 4751.41 
-2420.75 -932.608 4752.14 
-2420.66 -932.506 4751.22 
-2420.4 -934.181 4752.34 
-2419.58 -938.375 4756.88 
-2420.17 -935.322 4752.79 
-2419.6 -938.588 4759.36 
-2417.8 -934.858 4765.19 
-2417.8 -935.968 4763.77 
-2418.06 -935.975 4760.7 
-2418.2 -936.392 4760.39 
-2416.08 -932.698 4764.6 
-2416.62 -933.34 4764.73 
-2417.28 -934.071 4764.93 
-2411.34 -926.626 4767.14 
-2411.61 -926.767 4767.29 
-2411.79 -927.289 4766.87 
-2411.91 -927.697 4766.5 
-2412.1 -927.87 4766.53 
-2412.35 -928.187 4766.22 
-2410.64 -926.699 4766.89 
-2410.65 -927.237 4766.68 
-2410.14 -926.987 4766.43 
-2409.93 -926.548 4766.24 
-2409.7 -926.197 4766.08 
-2419.06 -934.124 4755.25 
-2419.16 -933.923 4753.72 
-2419.51 -934.906 4751.89 
-2419.68 -933.328 4748.79 
-2419.76 -938.557 4757.63 
-2419.47 -937.053 4754.55 
-2419.26 -935.508 4754.77 
-2420.81 -938.643 4761.53 
-2420.75 -939.204 4761.46 
-2420.58 -939.191 4760.8 
-2420.6 -938.044 4761.79 
-2420.71 -938.454 4761.97 
-2420.9 -937.717 4762.41 
-2420.76 -937.962 4762.22 
-2420.72 -936.991 4764.1 
-2420.86 -937.221 4764.09 
-2420.78 -937.589 4764.4 
-2419.8 -938.634 4759.67 
-2419.97 -938.624 4760.11 
-2332.93 -943.742 4793.44 
-2332.42 -943.107 4793.3 
-2332.02 -942.557 4792.95 
-2332.75 -947.733 4793.9 
-2332.26 -954.054 4794.77 
-2327.8 -972.345 4810.33 
-2326.18 -979.977 4809.74 
-2328.69 -969.648 4807.42 
-2322.3 -989.506 4811.85 
-2328.86 -965.897 4801.14 
-2328.86 -968.596 4805.9 
-2329.22 -961.662 4799.09 
-2423.79 -915.201 4762.61 
-2423.95 -915.743 4762.48 
-2423.56 -915.201 4762.62 
-2424.02 -916.158 4761.69 
-2425.03 -916.418 4761.73 
-2425.95 -916.743 4761.63 
-2422.23 -915.475 4762.17 
-2420.84 -915.333 4760.99 
-2420.41 -915.76 4760.64 
-2421.55 -916.145 4760.37 
-2421.33 -925.168 4747.31 
-2421.04 -923.102 4743.47 
-2421.33 -923.63 4744.74 
-2421.34 -925.285 4748.41 
-2421.76 -924.328 4747.19 
-2421.83 -924.341 4747.6 
-2421.89 -924.362 4748 
-2419.67 -930.52 4747.87 
-2419.99 -928.6 4745.91 
-2420.28 -928.556 4743.97 
-2420.21 -927.009 4740.82 
-2419.88 -931.396 4745.01 
-2419.79 -925.886 4739.76 
-2419.62 -924.077 4738.87 
-2420.63 -922.326 4741.82 
-2420.26 -921.625 4740.27 
-2419.51 -922.125 4738.05 
-2419.88 -922.618 4739.51 
-2421.96 -924.37 4748.35 
-2422.31 -923.754 4755.39 
-2422.38 -923.333 4755.7 
-2422.37 -922.858 4756.19 
-2421.73 -925.457 4750.86 
-2421.8 -925.446 4751.15 
-2421.67 -925.99 4752.8 
-2421.91 -925.349 4751.3 
-2421.81 -925.754 4752.74 
-2421.93 -925.549 4753.56 
-2422.05 -925.201 4753.97 
-2422.24 -924.78 4754.37 
-2422.34 -924.239 4754.86 
-2421.69 -925.293 4750.06 
-2422.08 -924.439 4749.13 
-2422.01 -924.439 4748.71 
-2422.37 -922.323 4756.71 
-2422.99 -918.262 4759.05 
-2422.58 -920.999 4757.48 
-2422.91 -920.679 4757.65 
-2422.88 -921.856 4757.01 
-2319.98 -996.706 4811.56 
-2318.3 -1004.12 4809.72 
-2317.97 -1009.75 4808.37 
-2317.29 -1014.74 4808.58 
-2316.42 -1018.32 4808.46 
-2314.79 -1027.18 4807.61 
-2315.06 -1026.35 4807.73 
-2315.38 -1024.37 4807.89 
-2315.67 -1021.69 4808.18 
-2314.82 -1026.91 4807.73 
-2313.97 -1025.82 4805.39 
-2314.02 -1026.63 4806.1 
-2315.09 -1023.78 4804.36 
-2313.74 -1025.08 4804.18 
-2313.72 -1026.82 4805.76 
-2314.38 -1026.63 4806.66 
-2318.33 -1022.36 4804.87 
-2314.54 -1023.55 4803.59 
-2320.9 -1021.06 4804.28 
-2286.94 -1083.31 4818 
-2287.55 -1083 4818.43 
-2288.55 -1082.34 4818.46 
-2292.42 -1076.07 4815.7 
-2289.52 -1082.05 4818.47 
-2282.29 -1080.53 4816.5 
-2282.86 -1084.86 4818.1 
-2281.24 -1088.1 4819.22 
-2281.51 -1088.7 4819.4 
-2285.46 -1085.58 4818.62 
-2283.6 -1085.93 4818.62 
-2286.26 -1085.49 4818.93 
-2278.66 -1076.9 4815.35 
-2280.45 -1078.81 4816.21 
-2278.39 -1074 4813.51 
-2276.81 -1073.76 4812.83 
-2277.05 -1071.44 4811.87 
-2316.07 -1022.33 4803.91 
-2313.68 -1023.66 4801.82 
-2312.31 -1026.65 4802.87 
-2312.72 -1028.35 4805.7 
-2312.91 -1029.04 4806.75 
-2313.7 -1032.89 4809.15 
-2313.93 -1038.67 4810.91 
-2313.62 -1040.92 4811.8 
-2310.74 -1048.54 4814.87 
-2313.21 -1042.94 4812.55 
-2308.18 -1056.27 4818.35 
-2301.94 -1061.1 4816.58 
-2297.5 -1065.2 4813.93 
-2295.7 -1070.19 4815.78 
-2295.4 -1070.2 4815.11 
-2294.83 -1073.32 4815.56 
-2292.88 -1076.36 4816.2 
-2331.86 -911.878 4745.02 
-2330.58 -905.751 4743.08 
-2331.82 -903.623 4743.83 
-2330.55 -900.797 4742.42 
-2329.71 -898.888 4741.02 
-2327.34 -900.66 4737.42 
-2328.7 -896.02 4739.72 
-2327.55 -895.528 4739.29 
-2330.33 -908.982 4739.69 
-2328.58 -907.048 4736.44 
-2324.55 -902.893 4729.4 
-2326.98 -899.636 4734.16 
-2325.2 -900.346 4730.51 
-2285.31 -1032.63 4804.23 
-2285.51 -1028.75 4802.5 
-2285.36 -1031.41 4804.02 
-2285.07 -1032.09 4804.11 
-2285.63 -1034.81 4805.67 
-2284.53 -1035.81 4809.81 
-2284.04 -1037.04 4810.43 
-2284.93 -1037.68 4807.38 
-2285.18 -1032.4 4804.19 
-2292.86 -1021.58 4807.62 
-2291.77 -1023.6 4805.32 
-2288.06 -1025.48 4802.52 
-2292.2 -1021.67 4816.25 
-2292.43 -1022.53 4816.93 
-2293.15 -1021.72 4816.08 
-2293.4 -1021.82 4815.5 
-2285.5 -1035.42 4805.21 
-2284.88 -1038.94 4807.45 
-2284.47 -1040.48 4808.47 
-2284.75 -1040.66 4807.61 
-2285.06 -1040.5 4806.22 
-2286 -1033.89 4803.67 
-2284.61 -1041.61 4807.6 
-2286.13 -1039.4 4805.36 
-2285.5 -1041.71 4806.23 
-2286.75 -1037.7 4804.47 
-2287.19 -1051.71 4807.21 
-2286.72 -1053.11 4807.66 
-2286.95 -1054.28 4807.79 
-2287.93 -1049.51 4806.46 
-2287.57 -1050.69 4806.93 
-2287.07 -1046.22 4806.43 
-2290.94 -1015.52 4807.24 
-2291.8 -1016.66 4807.45 
-2291.58 -1020.62 4815.21 
-2277.91 -1066.59 4810.41 
-2277.48 -1066.26 4810.12 
-2277.26 -1065.67 4809.82 
-2277.54 -1068.72 4811.23 
-2277.27 -1067.88 4811.08 
-2285.84 -1055.63 4808.49 
-2284.8 -1057.36 4808.91 
-2284.28 -1058.55 4809.13 
-2279.44 -1061.98 4809.98 
-2279.83 -1062.47 4809.74 
-2276.83 -1070.64 4811.7 
-2327.94 -943.599 4794.82 
-2324.04 -948.633 4796.07 
-2325.78 -948.027 4795.44 
-2329.16 -944.072 4794.73 
-2331.26 -942.529 4793.9 
-2320.17 -966.566 4803.79 
-2319.92 -968.13 4807.23 
-2318.38 -970.137 4808.68 
-2316.2 -977.569 4810.99 
-2315.03 -984.091 4812.17 
-2322.07 -962.577 4799.72 
-2322.32 -965.109 4800.75 
-2321.18 -967.122 4804.75 
-2314.29 -990.13 4813.16 
-2312.42 -995.421 4813.66 
-2311.09 -1000.48 4814.3 
-2310.27 -1000.69 4814.13 
-2310.38 -1002.82 4814.74 
-2309.53 -1002.9 4814.54 
-2308.64 -1002.53 4814.22 
-2307.53 -1003.54 4814.34 
-2287.9 -1008.38 4811.07 
-2285.45 -1009.14 4810.89 
-2283.57 -1009.29 4811.07 
-2283.27 -1010.19 4810.28 
-2282.34 -1009.54 4810.75 
-2281.15 -1008.66 4811.51 
-2283.65 -1009.6 4811.16 
-2281.5 -1009.15 4811.21 
-2303.84 -1006.02 4814.29 
-2299.91 -1006.82 4813.36 
-2297.18 -1007.37 4812.61 
-2294.46 -1007.37 4812.43 
-2291 -1008.08 4811.45 
-2285.28 -1011.85 4809.28 
-2286.25 -1012.52 4808.78 
-2284.34 -1011.07 4809.74 
-2288.32 -1013.54 4807.66 
-2289.4 -1014.22 4807.09 
-2287.92 -1014 4808.29 
-2287.13 -1013.27 4808.46 
-2290.12 -1014.47 4806.67 
-2322.47 -957.318 4798.69 
-2323.32 -956.374 4798.5 
-2323.47 -953.549 4797.88 
-2322.56 -960.238 4799.28 
-2427.71 -927.861 4794.15 
-2421.93 -926.741 4793.23 
-2431.75 -929.176 4795.73 
-2417.15 -925.775 4789.6 
-2413.3 -925.454 4783.89 
-2438.21 -931.041 4794.15 
-2434.03 -928.971 4799.64 
-2443.99 -932.806 4794.84 
-2448.53 -935.314 4786.48 
-2457.11 -939.315 4773.52 
-2453.91 -937.748 4778.97 
-2458.93 -941.953 4765.96 
-2402.75 -929.432 4778.73 
-2426.02 -916.959 4761.16 
-2426.41 -917.166 4761.01 
-2426.51 -917.316 4760.77 
-2426.59 -917.571 4760.22 
-2426.67 -917.815 4759.71 
-2426.94 -918.117 4759.42 
-2428.57 -919.03 4758.84 
-2429.26 -918.898 4758.97 
-2429.63 -918.8 4759.01 
-2430.14 -917.448 4760.17 
-2430.12 -918.095 4759.59 
-2429.89 -918.589 4759.16 
-2430.37 -918.185 4759.45 
-2429.17 -919.453 4758.23 
-2427.81 -920.917 4756.9 
-2427.87 -919.03 4758.79 
-2427.47 -918.653 4759.03 
-2413.28 -930.534 4766.11 
-2414.8 -933.462 4765.47 
-2414.36 -933.254 4765.53 
-2414.16 -932.871 4765.58 
-2413.83 -932.53 4765.64 
-2413.62 -932.111 4765.7 
-2413.24 -931.575 4765.78 
-2412.88 -930.259 4766.14 
-2412.98 -930.415 4766.3 
-2413.02 -930.683 4766.28 
-2425.99 -924.845 4754.38 
-2426.34 -924.44 4754.52 
-2426.43 -923.968 4754.85 
-2424.74 -923.441 4754.94 
-2425.75 -923.188 4755.26 
-2426.55 -923.637 4755.1 
-2426.32 -923.364 4755.25 
-2423.61 -923.712 4754.75 
-2422.72 -923.905 4754.69 
-2415.43 -934.026 4765.45 
-2416.22 -933.802 4764.41 
-2415.07 -933.356 4765.71 
-2419.36 -930.478 4758.96 
-2422.41 -925.573 4753.5 
-2422.61 -924.313 4754.37 
-2422.57 -924.827 4753.85 
-2415.11 -933.834 4765.41 
-2427.11 -922.942 4755.55 
-2427.77 -925.369 4755.01 
-2427.11 -925.066 4754.68 
-2413.13 -930.668 4766.2 
-2413.35 -930.574 4766.06 
-2414.62 -929.809 4765.12 
-2414.84 -930.476 4765.14 
-2414.58 -930.67 4765.31 
-2413.99 -930.729 4765.65 
-2413.53 -930.73 4765.93 
-2413.35 -930.683 4766.04 
-2414.44 -930.854 4765.38 
-2413.04 -927.642 4767.83 
-2414.31 -925.259 4768.1 
-2412.79 -928.733 4766.17 
-2413.22 -928.906 4765.83 
-2413.65 -929.028 4765.53 
-2414.42 -929.465 4765.13 
-2412.8 -927.871 4767.3 
-2412.72 -928.302 4766.71 
-2414.38 -924.618 4768.44 
-2406.42 -926.542 4776.93 
-2403.58 -928.56 4777.3 
-2403.25 -928.913 4778 
-2409.54 -926.351 4772.44 
-2412.92 -926.713 4768.73 
-2412.73 -926.652 4768.66 
-2411.74 -926.129 4770.89 
-2464.75 -940.618 4726.7 
-2463.88 -938.855 4717.04 
-2463.8 -938.342 4716.05 
-2464.05 -939.678 4718.07 
-2463.84 -939.518 4715.15 
-2464.24 -940.085 4718.7 
-2464.49 -940.387 4720.92 
-2465.25 -940.805 4722.15 
-2460.89 -943.824 4744.37 
-2463.88 -942.935 4733.62 
-2465.49 -941.212 4725.94 
-2462.37 -944.211 4739.56 
-2460.96 -945.279 4748.8 
-2460.97 -944.681 4747.72 
-2461.58 -944.318 4743.99 
-2459.13 -943.668 4756.72 
-2460.99 -945.936 4749.93 
-2459.85 -944.594 4757.29 
-2460.21 -945.784 4754.23 
-2460.13 -946.035 4753.24 
-2477.16 -934.892 4670.2 
-2476.61 -935.302 4670.38 
-2472.32 -936.889 4672.07 
-2471.49 -937.362 4672.49 
-2470.76 -938.298 4673.12 
-2475.3 -936.665 4671.39 
-2476.05 -936.13 4670.95 
-2473.63 -937.61 4672.24 
-2474.44 -937.092 4671.79 
-2468.16 -938.267 4675.13 
-2467.46 -941.927 4678.53 
-2467.56 -939.912 4677.47 
-2467.16 -941.385 4679.71 
-2466.83 -940.306 4680.81 
-2467.71 -938.188 4676.48 
-2467.94 -939.129 4676.05 
-2468.43 -939.553 4674.78 
-2469.04 -940.959 4674.65 
-2469.92 -939.667 4673.89 
-2463.68 -938.333 4710.89 
-2463.78 -939 4705.21 
-2464.3 -941.383 4696.42 
-2464.56 -941.498 4692.71 
-2465.02 -941.677 4689.65 
-2465.57 -940.937 4687.27 
-2466.22 -940.534 4684.11 
-2466.57 -939.709 4682.13 
-2461.93 -944.357 4758.12 
-2461.09 -944.464 4760.91 
-2461.49 -943.1 4769.62 
-2461.03 -941.153 4778.15 
-2462.95 -944.926 4756.29 
-2456.67 -939.038 4784.53 
-2460.9 -941.093 4778.44 
-2425.6 -927.225 4802.4 
-2444.13 -932.755 4804.84 
-2436.41 -929.122 4803.13 
-2432.21 -927.664 4802.29 
-2448.99 -935.447 4797.37 
-2453.19 -937.411 4787.99 
-2456.16 -938.837 4784.36 
-2476.73 -950.03 4741.8 
-2478.6 -949.326 4737.97 
-2482.29 -949.754 4736.81 
-2482.86 -947.604 4731.15 
-2480.3 -948.797 4735.29 
-2470.32 -946.907 4746.88 
-2472.78 -949.32 4743.36 
-2469.19 -946.295 4748.8 
-2475.17 -949.729 4741.58 
-2468.19 -947.094 4748.38 
-2467.16 -946.542 4750.14 
-2466.14 -946.159 4751.61 
-2465.73 -944.951 4753.88 
-2464.17 -945.242 4754.75 
-2481.09 -942.808 4724.5 
-2508.32 -979.217 4789.28 
-2509.25 -978.901 4790.66 
-2509.61 -979.445 4790.47 
-2507.31 -979.797 4787.77 
-2506.76 -979.249 4786.71 
-2506.15 -978.605 4785.76 
-2505.16 -978.673 4784.13 
-2502.01 -977.062 4779.09 
-2503.28 -978.931 4781.01 
-2502.8 -978.199 4780.29 
-2501.88 -978.144 4778.77 
-2504.07 -979.274 4782.33 
-2501.03 -977.03 4777.49 
-2498.99 -975.1 4776.08 
-2499.96 -977.337 4775.68 
-2497.01 -973.813 4774.83 
-2496.05 -972.602 4772.96 
-2509.02 -980.512 4790.49 
-2495.38 -974.65 4765.64 
-2495.54 -973.981 4769.33 
-2495.4 -974.878 4762.62 
-2495.5 -974.653 4761.18 
-2495.62 -974.269 4760.28 
-2495.94 -973.561 4759.25 
-2496.31 -972.807 4758.39 
-2496.48 -972.363 4757.5 
-2496.89 -971.581 4756.78 
-2497.17 -970.932 4755.73 
-2497.41 -970.372 4754.72 
-2511.54 -972.916 4759.15 
-2510.55 -973.02 4753.76 
-2513.46 -972.159 4765.26 
-2513.52 -972.267 4767.95 
-2512.86 -973.042 4772.71 
-2511.75 -974.044 4778.36 
-2511.55 -974.966 4779.78 
-2511.36 -978.738 4782.83 
-2511.82 -982.957 4784.86 
-2512.13 -983.799 4786.09 
-2512.1 -984.255 4787.06 
-2512.04 -984.293 4787.37 
-2511.93 -984.354 4787.61 
-2509.43 -984.238 4788.78 
-2511.9 -984.431 4788.45 
-2509.57 -984.595 4788.74 
-2511.77 -984.511 4788.04 
-2511.95 -984.545 4788.33 
-2511.76 -984.538 4787.84 
-2507.88 -983.847 4789.31 
-2508.28 -984.182 4789.07 
-2507.63 -983.402 4789.56 
-2507.35 -982.996 4789.8 
-2507.08 -982.584 4790.04 
-2506.87 -982.162 4790.27 
-2507 -981.68 4790.46 
-2507.4 -981.112 4790.61 
-2510.19 -971.936 4750.69 
-2510.03 -972.771 4750.44 
-2510.12 -972.535 4750.99 
-2507.44 -971.671 4747.36 
-2508.95 -971.61 4746.59 
-2508.23 -971.943 4747.05 
-2508.5 -971.766 4743.73 
-2508.91 -972.328 4744.19 
-2509.79 -972.061 4747.19 
-2509.32 -972.67 4745.42 
-2509.9 -972.423 4748.28 
-2509.94 -972.79 4749.24 
-2509.96 -972.872 4749.91 
-2509.91 -973.452 4751.48 
-2509.76 -973.51 4750.72 
-2510.1 -973.606 4752.65 
-2487.57 -929.196 4694.16 
-2486.86 -929.703 4694.62 
-2487.01 -930.057 4695.06 
-2489 -929.184 4694.53 
-2489.55 -929.238 4694.54 
-2490.16 -929.702 4694.49 
-2491.04 -930.564 4695.28 
-2492.21 -931.991 4695.83 
-2481.03 -938.958 4716.38 
-2480.57 -939.441 4717.97 
-2480.98 -939.946 4719.98 
-2481.18 -938.756 4712.93 
-2482.2 -939.57 4707.08 
-2481.88 -939.137 4710.98 
-2482.65 -942.762 4693.69 
-2481.86 -941.972 4697.47 
-2484.42 -943.446 4687.61 
-2483.86 -943.391 4689.44 
-2480.46 -938.928 4714.6 
-2484.74 -943.702 4686.05 
-2484.98 -943.541 4684.28 
-2485.04 -943.815 4682.3 
-2484.93 -943.885 4683.43 
-2482.67 -940.649 4673.55 
-2483.07 -941.13 4673.93 
-2483.43 -941.605 4674.3 
-2483.22 -942.311 4674.69 
-2483.77 -942.397 4676.3 
-2482.48 -940.069 4673.28 
-2484.11 -943.034 4677.74 
-2484.59 -943.716 4679.39 
-2484.87 -944.352 4681.28 
-2484.85 -944.319 4681.84 
-2484.88 -944.335 4680.67 
-2482.32 -938.947 4673.36 
-2481.67 -938.184 4672.88 
-2481.44 -937.479 4672.83 
-2482.03 -939.733 4673.01 
-2492.04 -932.317 4695.69 
-2493.07 -933.094 4695.92 
-2490.86 -931.712 4695.52 
-2489.9 -931.265 4695.4 
-2488.89 -930.783 4695.25 
-2487.93 -930.313 4695.06 
-2502.97 -972.035 4750.72 
-2506.21 -971.847 4748.2 
-2504.99 -972.074 4749.1 
-2503.86 -972.252 4749.95 
-2501.88 -972.42 4751.47 
-2500.56 -972.522 4752.47 
-2499.9 -972.465 4752.82 
-2499.18 -971.872 4753.27 
-2498.66 -971.784 4753.48 
-2499.37 -972.403 4753.02 
-2497.89 -971.145 4753.96 
-2497.71 -970.635 4754.21 
-2498.18 -971.687 4753.68 
-2480.48 -937.921 4672.21 
-2479.91 -937.323 4671.88 
-2479.18 -936.67 4671.42 
-2478.62 -936.034 4671.11 
-2477.94 -935.575 4670.63 
-2481.05 -938.224 4672.53 
-2462.36 -896.611 4770.21 
-2462.43 -897.497 4770.58 
-2462.81 -897.758 4770.58 
-2463.86 -898.019 4770.46 
-2463.16 -897.952 4770.46 
-2468.72 -895.929 4776 
-2467.14 -896.13 4773.87 
-2467.18 -895.776 4773.97 
-2465.28 -893.14 4767.57 
-2466.59 -894.281 4768.69 
-2467.42 -896.923 4771.25 
-2466.82 -896.941 4770.85 
-2469.85 -900.777 4778.23 
-2469.74 -900.664 4778.43 
-2469.82 -900.474 4778.83 
-2469.79 -899.914 4778.43 
-2469.63 -898.85 4777.62 
-2469.89 -899.279 4778.3 
-2468.49 -899.791 4775.51 
-2468.35 -899.505 4775.26 
-2468.55 -898.631 4775.84 
-2469.16 -898.457 4776.83 
-2468.03 -899.644 4774.06 
-2472.66 -900.678 4781.44 
-2473.63 -900.677 4782.58 
-2469.95 -900.897 4778.39 
-2470.85 -900.891 4779.38 
-2471.67 -900.884 4780.34 
-2472.63 -900.795 4781.45 
-2474.83 -900.597 4783.97 
-2476.38 -898.96 4784.45 
-2475.46 -900.561 4784.71 
-2475.68 -900.627 4784.98 
-2475.65 -897.444 4782.99 
-2474.4 -896.843 4781.76 
-2472.37 -897.417 4781.36 
-2470.81 -897.116 4779.68 
-2470.67 -897.016 4779.2 
-2469.1 -896.318 4776.41 
-2469.51 -896.652 4777.07 
-2470.12 -896.809 4778.05 
-2470.54 -896.895 4778.77 
-2423.55 -927.054 4801.38 
-2423.89 -926.77 4799.39 
-2410.79 -925.199 4787.94 
-2401.76 -930.552 4778.85 
-2401.68 -930.604 4779.58 
-2402.17 -930.382 4777.63 
-2403.34 -929.844 4774.8 
-2402.96 -930.066 4775.43 
-2402.47 -930.276 4776.59 
-2404.01 -929.56 4772.83 
-2403.46 -929.867 4773.99 
-2404.44 -929.33 4771.67 
-2405.46 -928.076 4770.55 
-2406.3 -927.105 4769.4 
-2407.23 -926.021 4768.21 
-2407.65 -925.339 4768.1 
-2408.76 -924.495 4766.16 
-2409.06 -925.072 4765.58 
-2409.4 -924.739 4765.52 
-2409.4 -925.369 4765.74 
-2409.52 -925.804 4765.91 
-2415.1 -930.047 4764.82 
-2413.34 -928.794 4765.68 
-2412.61 -928.427 4766.1 
-2412.9 -928.665 4765.97 
-2415.18 -931.301 4764.92 
-2415.45 -931.904 4764.8 
-2415.3 -931.04 4764.86 
-2415.13 -930.494 4764.92 
-2415.01 -930.815 4765.04 
-2420.78 -932.971 4754.86 
-2421.21 -929.99 4750.73 
-2421.42 -927.853 4748.05 
-2421.16 -928.913 4748.1 
-2421.13 -928.5 4747 
-2420.73 -930.798 4748.45 
-2420.48 -932.247 4749.25 
-2419.64 -938.876 4756.76 
-2420 -935.996 4752.71 
-2420.31 -932.774 4748.9 
-2417.55 -935.451 4764.7 
-2417.87 -935.596 4761.24 
-2420.87 -931.803 4755.34 
-2420.82 -932.424 4755.14 
-2415.69 -932.583 4764.78 
-2416.83 -933.831 4764.9 
-2416.25 -933.304 4764.8 
-2417.26 -934.999 4765.02 
-2410.85 -925.97 4767.46 
-2411.22 -925.843 4767.87 
-2411.86 -926.942 4767.37 
-2411.65 -926.369 4767.78 
-2412.02 -927.399 4767 
-2412.25 -927.672 4766.93 
-2412.37 -928.106 4766.55 
-2410.08 -926.738 4767 
-2410.56 -927.413 4766.85 
-2409.89 -927.41 4766.53 
-2409.47 -927.052 4766.32 
-2409.26 -926.652 4766.15 
-2419.78 -935.489 4750.72 
-2419.82 -934.176 4748.68 
-2419.99 -932.191 4745.52 
-2419.67 -939.097 4757.12 
-2419.7 -937.767 4754.12 
-2420.87 -939.527 4761.84 
-2421.05 -938.552 4763.08 
-2420.84 -939.174 4762.78 
-2420.94 -938.504 4762.69 
-2421.07 -937.83 4764.49 
-2420.92 -937.71 4764.43 
-2420.66 -939.031 4762.88 
-2420.48 -938.269 4762.31 
-2420.74 -938.23 4763.29 
-2420.95 -938.146 4763.31 
-2332.31 -944.117 4794.18 
-2331.37 -943.268 4794.32 
-2331.65 -952.941 4794.89 
-2331.03 -947.783 4794.29 
-2326.68 -976.728 4810.86 
-2323.37 -985.468 4812.36 
-2327.56 -972.36 4811.17 
-2319.18 -997.772 4812.93 
-2320.11 -994.581 4813.29 
-2327.84 -965.437 4800.84 
-2327.92 -968.235 4805.49 
-2327.91 -970.316 4809.88 
-2328.09 -960.88 4799.14 
-2423.76 -915.751 4762.37 
-2423.71 -916.235 4761.19 
-2423.55 -915.634 4762.46 
-2424.88 -916.568 4761.21 
-2421.85 -915.831 4761.6 
-2420.86 -915.688 4761.03 
-2422.27 -916.001 4761.16 
-2421.66 -924.277 4746.62 
-2421.74 -921.779 4743.8 
-2422.19 -922.421 4745.45 
-2422.05 -923.138 4746.01 
-2422.15 -923.161 4746.46 
-2422.25 -923.109 4746.85 
-2422.33 -923.067 4747.21 
-2422.4 -923.071 4747.59 
-2422.53 -918.917 4741.16 
-2422.01 -923.604 4742.38 
-2420.85 -927.886 4742.89 
-2421.66 -919.185 4739.86 
-2420.71 -919.835 4738.54 
-2419.84 -920.188 4737.26 
-2421.48 -921.074 4742.5 
-2419.68 -920.559 4738.06 
-2420.5 -920.272 4739.64 
-2421.36 -920.388 4741.49 
-2419.29 -919.76 4736.29 
-2422.39 -923.274 4747.98 
-2422.41 -923.776 4755.22 
-2422.48 -923.288 4755.59 
-2422.46 -922.837 4756.08 
-2422.63 -922.373 4756.53 
-2422.13 -924.474 4749.43 
-2422.18 -924.488 4749.76 
-2422.23 -924.53 4750.02 
-2422.29 -924.518 4750.44 
-2421.85 -925.796 4752.91 
-2422.09 -925.204 4751.62 
-2421.99 -925.597 4752.91 
-2422.09 -925.275 4753.79 
-2422.21 -925.14 4753.85 
-2422.35 -924.702 4754.34 
-2422.43 -924.225 4754.73 
-2422.41 -923.389 4748.33 
-2422.6 -923.014 4748.51 
-2422.55 -923.295 4748.86 
-2423.54 -916.309 4760.84 
-2424.35 -916.834 4760.16 
-2423.75 -918.958 4758.61 
-2423.65 -920.497 4757.71 
-2423.56 -921.287 4757.3 
-2423.92 -921.938 4756.84 
-2317.9 -1003.39 4811.48 
-2317.54 -1008.36 4810.27 
-2317.11 -1012.69 4809.04 
-2316.41 -1015.68 4808.81 
-2314.81 -1019.83 4808.45 
-2314.77 -1016.84 4808.77 
-2315.35 -1028.47 4808.78 
-2314.31 -1029.06 4808.92 
-2312.63 -1027.66 4808.96 
-2313.74 -1025.65 4808.01 
-2312.54 -1026.5 4808.61 
-2313.69 -1023.22 4808.14 
-2315.21 -1029.54 4809.14 
-2315.17 -1028.97 4808.88 
-2313.33 -1026.53 4804.83 
-2313.45 -1026.93 4805.4 
-2314.68 -1027.55 4808.08 
-2312.94 -1026.18 4803.58 
-2312.97 -1026.53 4804.07 
-2286.79 -1084.52 4818.83 
-2287.27 -1085.19 4819.45 
-2287.95 -1084.52 4819.43 
-2288.91 -1083.94 4819.45 
-2290.32 -1081.86 4818.5 
-2289.79 -1083.94 4819.85 
-2280.02 -1081.59 4817.04 
-2280.46 -1087.88 4819.21 
-2282.27 -1089.43 4819.67 
-2279.29 -1091.48 4820.69 
-2280.2 -1091.52 4820.59 
-2281.06 -1091.45 4820.45 
-2285.49 -1086.18 4819.1 
-2284.45 -1086.77 4819.18 
-2283.39 -1089.51 4819.78 
-2286.62 -1085.75 4819.43 
-2286.04 -1086.26 4819.4 
-2276.86 -1077.33 4815.49 
-2277.82 -1079.29 4816.8 
-2275.58 -1074.96 4813.02 
-2279.34 -1080.41 4816.84 
-2276.2 -1072.63 4812.13 
-2274.98 -1073.91 4812.09 
-2274.38 -1074.79 4812.3 
-2313.89 -1028.34 4807.72 
-2313.87 -1028.63 4807.84 
-2314.1 -1032.71 4809.45 
-2314.25 -1038.22 4811.19 
-2313.87 -1040.99 4812.38 
-2311.63 -1047.76 4815.13 
-2313.69 -1042.88 4813.32 
-2308.83 -1056.03 4819.12 
-2303.38 -1064.1 4820.68 
-2300.81 -1064.45 4818.05 
-2296.18 -1070.23 4816.78 
-2293.79 -1075.76 4817.22 
-2293.05 -1076.52 4816.53 
-2291.65 -1080.92 4818.29 
-2290.49 -1082.78 4819.51 
-2332.44 -910.584 4745.44 
-2330.94 -907.221 4744.03 
-2332.84 -903.521 4745.09 
-2331.9 -905.192 4744.38 
-2331.16 -899.215 4743.46 
-2330.56 -896.988 4742.26 
-2330.22 -896.806 4741.61 
-2329.31 -893.906 4740.23 
-2326.56 -894.143 4737.01 
-2325.28 -896.75 4732.93 
-2327.66 -890.628 4739.36 
-2326.27 -890.49 4738.73 
-2329.1 -901.812 4738.13 
-2330.97 -905.159 4741.45 
-2323.6 -894.364 4728.56 
-2328.13 -893.216 4737.52 
-2326.35 -889.747 4734.28 
-2324.82 -893.34 4730.62 
-2285.57 -1034.62 4805.19 
-2285.48 -1028.7 4802.61 
-2285.27 -1030.9 4803.86 
-2285.93 -1033.59 4805.94 
-2284.9 -1038.19 4807.34 
-2284.63 -1034.99 4810.16 
-2283.38 -1036.24 4814.99 
-2283.92 -1035.23 4813.95 
-2283.44 -1037.72 4812.11 
-2283.9 -1039 4808.49 
-2292.91 -1023 4808.57 
-2292.72 -1024.47 4808.81 
-2288.8 -1025.99 4803.57 
-2287.66 -1025.97 4817.23 
-2287.64 -1027.23 4817.5 
-2289.27 -1026.81 4817.53 
-2291.53 -1024.94 4817.54 
-2293.01 -1023.55 4815.25 
-2291.3 -1025.75 4817.17 
-2284.11 -1039.78 4808.58 
-2284.26 -1041.79 4808.88 
-2283.52 -1041.07 4809.87 
-2283.74 -1041.94 4809.81 
-2285.4 -1038.09 4805.42 
-2284.88 -1042.34 4807.35 
-2286.29 -1034.05 4803.56 
-2284.07 -1043.05 4809.6 
-2284.3 -1043.19 4809.08 
-2286.47 -1045.98 4807.23 
-2287.02 -1051.94 4807.93 
-2286.17 -1053.36 4808.26 
-2285.8 -1054.69 4808.37 
-2287.88 -1050.09 4807.84 
-2287.3 -1049.43 4807.83 
-2287.81 -1048.85 4806.38 
-2287.73 -1050.91 4807.82 
-2290.15 -1017.11 4809.43 
-2290.6 -1020.37 4814.77 
-2287.27 -1025.09 4817.05 
-2277.14 -1066.89 4810.87 
-2277.03 -1065.98 4810.54 
-2276.81 -1065.06 4809.87 
-2276.6 -1065.55 4810.51 
-2276.55 -1069.83 4811.56 
-2276.25 -1068.93 4811.4 
-2283.91 -1057.06 4809.07 
-2279.47 -1060.85 4810.52 
-2279.15 -1061.51 4810.28 
-2276.29 -1064.07 4810.13 
-2275.96 -1071.83 4811.95 
-2327.14 -948.345 4795.12 
-2324.74 -954.623 4797.92 
-2329.61 -948.131 4794.54 
-2328.02 -950.605 4795.35 
-2320.84 -969.67 4809.07 
-2319.18 -972.032 4810.04 
-2317.23 -977.847 4811.46 
-2316.34 -984.004 4812.56 
-2323.2 -962.785 4799.78 
-2323.45 -965.291 4800.86 
-2322.23 -967.431 4805.16 
-2315.56 -990.119 4813.56 
-2313.59 -996.42 4814.23 
-2312.07 -1000.95 4814.69 
-2311.27 -1002.78 4814.95 
-2310.94 -1005.48 4815.22 
-2310.21 -1005.35 4815.12 
-2309.22 -1005.33 4814.98 
-2307.68 -1005.2 4814.78 
-2288.13 -1010.17 4810.65 
-2286.02 -1010.43 4810.77 
-2282.49 -1009.93 4810.72 
-2283.48 -1010.66 4810.22 
-2280.96 -1008.87 4811.63 
-2282.76 -1009.46 4811.38 
-2285.64 -1010.6 4810.92 
-2281.62 -1009.54 4811.2 
-2306.17 -1006.36 4814.26 
-2302.83 -1006.8 4813.58 
-2300.02 -1007.4 4812.77 
-2296.99 -1007.97 4811.97 
-2294.09 -1007.97 4811.77 
-2290.77 -1008.72 4810.89 
-2285.59 -1012.78 4809.53 
-2284.76 -1012.09 4809.77 
-2284.4 -1011.41 4809.76 
-2286.19 -1014.33 4810.26 
-2288.68 -1015.08 4808.45 
-2289.27 -1016.67 4809.29 
-2286.76 -1016.14 4811.26 
-2287.43 -1017.53 4811.81 
-2323.59 -959.81 4799.2 
-2324.27 -957.799 4798.8 
-2430.59 -927.484 4799.63 
-2437.88 -929.529 4798.42 
-2449.23 -935.509 4792.26 
-2444.61 -932.973 4800.97 
-2454.92 -938.298 4781.19 
-2459.18 -939.997 4774.85 
-2459.82 -942.59 4766.77 
-2460.12 -944.928 4757.18 
-2402.17 -930.08 4778.81 
-2426.21 -917.196 4760.73 
-2424.99 -916.805 4760.72 
-2426.48 -917.4 4760.49 
-2426.54 -917.631 4759.98 
-2426.7 -919.066 4758.64 
-2427.37 -919.464 4758.33 
-2427.85 -919.864 4758.06 
-2428.72 -920.629 4757.57 
-2429.13 -920.915 4757.39 
-2429.41 -921.267 4757.14 
-2429.77 -919.83 4758.06 
-2430.52 -917.694 4759.88 
-2430.11 -918.988 4758.74 
-2430.29 -920.984 4757.32 
-2430.53 -920.783 4757.44 
-2430.61 -918.502 4759.09 
-2430.3 -918.515 4759.05 
-2428.89 -921.367 4756.69 
-2427.97 -921.824 4756.24 
-2428.3 -920.275 4757.79 
-2413.2 -930.706 4766.15 
-2414.92 -933.714 4765.44 
-2414.85 -933.866 4765.43 
-2414.59 -933.546 4765.48 
-2414.48 -933.756 4765.47 
-2414.09 -933.371 4765.55 
-2413.89 -932.967 4765.6 
-2413.53 -932.533 4765.67 
-2413.29 -932.053 4765.74 
-2412.97 -931.595 4765.82 
-2412.69 -930.157 4766.25 
-2412.86 -930.578 4766.38 
-2412.86 -930.878 4766.38 
-2413.01 -930.805 4766.28 
-2427.22 -924.57 4754.7 
-2427.33 -924.03 4754.98 
-2427.49 -923.585 4755.32 
-2426.87 -922.928 4755.66 
-2426.1 -922.763 4755.64 
-2424.78 -923.078 4755.36 
-2423.45 -923.39 4755.17 
-2427.44 -923.167 4755.61 
-2422.61 -923.703 4754.99 
-2415.31 -934.105 4765.54 
-2414.96 -933.477 4765.9 
-2416.6 -934.149 4763.99 
-2415.84 -933.758 4765.12 
-2415.08 -933.156 4765.57 
-2413.46 -931.988 4766.1 
-2413.54 -932.251 4766.12 
-2419.67 -930.699 4758.33 
-2422.43 -925.739 4753.08 
-2422.65 -924.701 4752.48 
-2422.45 -925.155 4753.27 
-2422.53 -924.18 4754.63 
-2422.52 -924.671 4754.13 
-2422.42 -925.079 4753.65 
-2428.34 -923.677 4755.72 
-2428.85 -925.642 4755.29 
-2428.16 -925.273 4754.96 
-2413.06 -930.848 4766.24 
-2413.23 -930.788 4766.12 
-2413.85 -930.917 4765.73 
-2413.4 -930.948 4766 
-2413.27 -930.874 4766.08 
-2414.28 -931.033 4765.47 
-2414.84 -931.023 4765.13 
-2412.84 -927.472 4767.82 
-2412.99 -927.132 4768.33 
-2412.55 -928.433 4766.35 
-2412.59 -927.974 4766.95 
-2412.64 -927.475 4767.59 
-2403.91 -928.219 4776.67 
-2402.82 -929.404 4777.56 
-2402.61 -929.593 4778.03 
-2410.89 -925.985 4769.69 
-2408.58 -926.519 4772.47 
-2404.21 -927.895 4776.05 
-2412.76 -927.06 4768.22 
-2412.57 -926.971 4768.12 
-2412.52 -926.503 4768.61 
-2412.24 -925.641 4769.25 
-2463.77 -938.932 4711.95 
-2463.96 -939.971 4714.85 
-2463.83 -939.641 4709.91 
-2463.91 -940.207 4710.07 
-2464.8 -940.579 4716.95 
-2464.05 -940.247 4714.15 
-2465.28 -940.882 4717.79 
-2466.11 -941.304 4722.27 
-2465.86 -941.217 4718.37 
-2464.44 -943.472 4733.5 
-2466.2 -942.032 4725.82 
-2463.11 -944.452 4738.86 
-2462.76 -944.739 4741.75 
-2463.07 -945.042 4742.85 
-2463.54 -945.438 4743.35 
-2462.27 -946.175 4748.15 
-2460.65 -946.058 4754.37 
-2461.38 -946.608 4752.46 
-2461.12 -946.699 4751.84 
-2477.63 -935.709 4670.45 
-2477.3 -936.49 4670.92 
-2472.86 -938.093 4672.65 
-2471.99 -938.467 4673.02 
-2471.42 -939.729 4673.72 
-2475.74 -937.87 4671.99 
-2476.67 -937.363 4671.53 
-2473.99 -938.946 4672.93 
-2474.82 -938.294 4672.4 
-2468.2 -940.313 4675.7 
-2467.4 -943.074 4679.31 
-2467.6 -942.193 4678.15 
-2467.7 -939.679 4676.95 
-2467.06 -941.977 4680.46 
-2466.72 -940.844 4681.6 
-2467.77 -941.026 4677.23 
-2468.02 -941.262 4676.57 
-2468.46 -941.467 4675.37 
-2469.81 -942.134 4675.08 
-2470.69 -940.961 4674.4 
-2463.88 -940.245 4703.83 
-2463.96 -940.353 4702.04 
-2464.53 -942.678 4694.55 
-2464.77 -942.508 4691.64 
-2465.35 -941.928 4687.99 
-2466.05 -941.879 4685.06 
-2466.39 -940.324 4682.99 
-2460.92 -945.028 4758.54 
-2461.86 -945.622 4756.02 
-2461.33 -943.356 4768.31 
-2462.95 -946.103 4754.32 
-2460.66 -940.978 4778.27 
-2457.85 -939.556 4779 
-2476.57 -948.516 4736.88 
-2478.9 -945.711 4728.27 
-2477.83 -946.036 4728.86 
-2480.56 -946.31 4729.35 
-2480.01 -942.8 4723.97 
-2470.81 -948.607 4744.39 
-2469.29 -947.648 4746.56 
-2472.88 -948.555 4738.82 
-2474.45 -948.078 4736.67 
-2468.27 -948.441 4746.07 
-2467.26 -947.956 4747.72 
-2466.19 -947.472 4749.41 
-2465.08 -947.07 4750.97 
-2465.01 -945.934 4752.93 
-2463.98 -946.586 4752.66 
-2480.09 -940.355 4719.98 
-2509.04 -979.931 4790.53 
-2508.15 -980.024 4789.32 
-2506.91 -980.29 4788.01 
-2506.25 -979.996 4786.47 
-2505.65 -979.585 4784.99 
-2504.68 -979.707 4783.63 
-2500.86 -978.141 4777.1 
-2502.05 -979.181 4779.06 
-2502.63 -979.598 4780.4 
-2503.52 -979.793 4782.07 
-2501.07 -979.145 4777.48 
-2498.88 -977.208 4773.97 
-2498.91 -978.409 4773.85 
-2499.83 -978.478 4775.36 
-2495.69 -973.82 4772.43 
-2497.55 -976.789 4772.38 
-2507.78 -980.559 4790.67 
-2495.07 -975.519 4762.23 
-2494.87 -975.796 4764.3 
-2495.03 -975.118 4768.06 
-2495.21 -975.112 4761.27 
-2495.63 -974.077 4759.45 
-2495.3 -974.779 4760.4 
-2496.05 -973.207 4758.38 
-2496.28 -972.603 4757.22 
-2496.72 -971.781 4756.5 
-2496.99 -971.143 4755.47 
-2497.23 -970.665 4754.52 
-2511.35 -973.787 4759.89 
-2510.21 -973.97 4754.47 
-2512.76 -972.882 4764.8 
-2511.7 -974.728 4773.21 
-2512.31 -974.023 4773.3 
-2511.81 -974.602 4768.06 
-2511.07 -976.384 4778.36 
-2511.22 -975.567 4776.56 
-2510.96 -979.2 4781.97 
-2511.79 -983.375 4784.84 
-2512.1 -984.046 4786.15 
-2511.91 -984.483 4787.07 
-2511.91 -984.46 4787.33 
-2511.8 -984.548 4787.59 
-2507.57 -984.714 4789.02 
-2510.92 -984.619 4788.72 
-2512.06 -984.63 4788.63 
-2508.59 -984.85 4788.97 
-2511.9 -984.679 4788.18 
-2512.13 -984.722 4788.5 
-2511.73 -984.7 4787.88 
-2506.53 -984.519 4789.33 
-2506.41 -984.003 4789.58 
-2506.02 -983.615 4789.84 
-2505.77 -983.171 4790.09 
-2505.46 -982.746 4790.34 
-2505.22 -982.296 4790.6 
-2505.78 -981.682 4790.73 
-2506.26 -981.075 4790.75 
-2509.47 -973.876 4749.6 
-2509.62 -973.673 4750.18 
-2506.46 -972.365 4748.03 
-2507.29 -972.454 4747.68 
-2508.54 -972.764 4746.41 
-2508.02 -972.768 4747.45 
-2507.52 -972.882 4743.18 
-2508.15 -973.49 4743.65 
-2509.43 -973.074 4746.38 
-2508.92 -973.637 4744.53 
-2509.48 -973.467 4747.21 
-2509.31 -973.934 4747.72 
-2509.35 -973.978 4748.81 
-2509.34 -974.585 4750.92 
-2509.58 -974.567 4752.11 
-2509.13 -974.646 4749.93 
-2509.72 -974.691 4753.24 
-2487.77 -929.287 4693.75 
-2487.64 -929.952 4694.41 
-2488.94 -929.282 4694.06 
-2489.4 -929.375 4694.02 
-2489.37 -929.465 4693.65 
-2490.43 -930.138 4694.33 
-2491.27 -930.986 4695.09 
-2492.2 -932.092 4695.56 
-2480.15 -939.358 4716.32 
-2479.65 -939.867 4717.96 
-2480.65 -939.264 4712.72 
-2481.9 -939.945 4707.8 
-2481.54 -941.964 4698.73 
-2481.31 -939.66 4710.88 
-2483.18 -943.554 4691.32 
-2482.82 -944.026 4691.92 
-2484.22 -944.099 4687.46 
-2483.68 -944.029 4689.33 
-2479.47 -939.342 4714.5 
-2484.62 -944.228 4685.55 
-2484.82 -944.338 4682.64 
-2484.59 -944.598 4684.47 
-2482.08 -940.457 4673.21 
-2482.17 -941.115 4673.49 
-2482.49 -941.217 4673.72 
-2482.93 -941.764 4674.15 
-2483.46 -942.967 4676.07 
-2483.01 -942.976 4674.91 
-2482.77 -942.371 4674.31 
-2483.94 -943.695 4677.73 
-2484.42 -944.378 4679.37 
-2484.66 -944.91 4680.79 
-2484.63 -944.916 4681.44 
-2484.61 -944.892 4682.26 
-2484.39 -945.048 4679.74 
-2481.68 -939.076 4672.8 
-2481.12 -938.864 4672.46 
-2481.42 -939.656 4672.59 
-2481.75 -940.203 4672.91 
-2490.97 -931.59 4695.05 
-2492.08 -932.4 4695.01 
-2492.91 -933.064 4695.25 
-2489.81 -930.984 4694.72 
-2488.86 -930.572 4694.7 
-2502.83 -972.6 4750.66 
-2505.41 -972.477 4748.66 
-2504.13 -972.69 4749.59 
-2501.88 -973.076 4751.26 
-2501.05 -972.882 4751.99 
-2500.14 -972.967 4752.56 
-2499.59 -972.889 4752.78 
-2498.87 -972.278 4753.24 
-2498.4 -972.318 4753.38 
-2498.98 -972.795 4753.02 
-2497.33 -971.021 4754.2 
-2497.63 -971.544 4753.91 
-2497.89 -972.024 4753.66 
-2479.97 -937.891 4671.77 
-2480.52 -938.458 4672.08 
-2479.41 -937.225 4671.45 
-2478.56 -936.43 4670.95 
-2479.11 -937.252 4671.28 
-2478.23 -936.33 4670.78 
-2465.3 -894.712 4768.39 
-2463.61 -897.909 4770.28 
-2464.37 -896.492 4769.51 
-2463.72 -898.351 4770.44 
-2464.31 -898.151 4770.68 
-2467.13 -896.437 4773.81 
-2468.51 -896.291 4775.58 
-2466.18 -896.981 4770.44 
-2467.72 -899.402 4773.96 
-2467.47 -899.015 4773.84 
-2469.82 -900.782 4778.54 
-2469.9 -900.707 4778.94 
-2469.98 -900.38 4779.29 
-2469.91 -899.841 4778.75 
-2469.79 -898.379 4777.8 
-2470.02 -898.854 4778.42 
-2470.03 -899.591 4778.94 
-2468.29 -898.899 4775.23 
-2468.26 -898.277 4775.25 
-2468.7 -898.073 4776.03 
-2469.32 -897.986 4777 
-2473.36 -900.845 4782.33 
-2474.26 -900.74 4783.35 
-2470.05 -901.011 4778.55 
-2469.91 -900.884 4778.72 
-2470.9 -901.009 4779.48 
-2471.55 -901.029 4780.25 
-2472.4 -900.939 4781.22 
-2477.19 -899.546 4785.98 
-2476.77 -900.608 4786.26 
-2474.85 -900.795 4784.06 
-2475.78 -900.758 4785.15 
-2476.29 -899.258 4785.53 
-2475.24 -898.32 4783.99 
-2471.59 -897.766 4781.09 
-2470.81 -897.601 4780.01 
-2470.67 -897.476 4779.5 
-2470.53 -897.389 4779.03 
-2468.81 -896.707 4775.98 
-2469.71 -897.113 4777.45 
-2469.1 -897.124 4776.52 
-2470.36 -897.267 4778.53 
-2401.96 -930.488 4777.9 
-2401.63 -930.668 4778.92 
-2401.59 -930.754 4779.53 
-2402.72 -930.188 4775.66 
-2403.14 -930.012 4774.57 
-2402.22 -930.397 4776.87 
-2403.85 -929.721 4772.74 
-2403.47 -929.892 4773.47 
-2405.31 -928.465 4770.24 
-2404.76 -929.256 4770.54 
-2404.28 -929.554 4771.44 
-2406.11 -927.564 4769.12 
-2406.93 -926.583 4768.08 
-2408.07 -925.624 4766.32 
-2408.4 -925.087 4766.25 
-2408.72 -925.749 4765.74 
-2409.08 -925.588 4765.76 
-2409.15 -926.142 4765.96 
-2414.91 -931.627 4765.1 
-2414.67 -931.212 4765.22 
-2421.34 -929.751 4751.31 
-2422.63 -923.756 4748.6 
-2422.89 -922.682 4748.16 
-2423.15 -921.654 4747.68 
-2423.08 -921.703 4747.18 
-2423 -921.677 4746.29 
-2423.24 -921.02 4746.78 
-2421.03 -928.418 4745.92 
-2420.88 -928.848 4745.53 
-2419.96 -935.168 4750.82 
-2420.83 -928.732 4744.86 
-2420.22 -932.471 4747.57 
-2417.69 -935.214 4761.62 
-2421.05 -930.808 4755.08 
-2421.67 -928.655 4751.8 
-2421.5 -929.224 4751.57 
-2415.27 -932.432 4765.02 
-2416.4 -933.727 4764.95 
-2416.92 -934.623 4765.12 
-2415.67 -933.034 4764.98 
-2417.57 -934.769 4761.9 
-2410.19 -925.77 4767.4 
-2410.77 -925.156 4768.25 
-2411.33 -925.551 4768.32 
-2411.88 -926.381 4768.03 
-2412.05 -926.978 4767.53 
-2412.23 -927.248 4767.41 
-2412.44 -927.299 4767.58 
-2412.45 -927.689 4767.13 
-2409.53 -926.675 4767.19 
-2410.39 -927.519 4767 
-2409.92 -927.75 4766.67 
-2409.04 -927.532 4766.41 
-2408.84 -926.957 4766.18 
-2420.1 -932.518 4746.7 
-2420.75 -928.528 4743.58 
-2421.15 -939.178 4764.24 
-2421.19 -938.731 4763.58 
-2421.15 -939.178 4764.24 
-2421.02 -939.075 4764.33 
-2420.49 -939.125 4763.28 
-2420.33 -938.473 4762.92 
-2420.57 -938.396 4763.67 
-2420.95 -939.033 4764.46 
-2421.02 -939.075 4764.33 
-2420.95 -939.033 4764.46 
-2330.19 -952.884 4795.34 
-2324.11 -982.355 4812.94 
-2320.56 -992.638 4813.78 
-2325.86 -976.802 4812.94 
-2317.3 -1003.76 4813.11 
-2317.92 -1000.47 4814.02 
-2317.73 -1000.55 4814.54 
-2326.76 -962.829 4799.83 
-2326.79 -965.662 4800.95 
-2326.9 -967.87 4804.97 
-2326.95 -969.864 4809.28 
-2326.75 -972.78 4812.97 
-2327.09 -959.533 4798.98 
-2422.39 -921.126 4744.4 
-2422.47 -921.688 4745.21 
-2422.68 -921.491 4745.62 
-2422.41 -922.34 4746.05 
-2422.5 -922.302 4746.44 
-2422.64 -922.151 4746.85 
-2422.75 -922.044 4747.22 
-2422.75 -922.281 4747.72 
-2423.68 -917.805 4742.63 
-2423.61 -918.611 4743.35 
-2423.69 -917.463 4742.93 
-2422.97 -918.101 4742.18 
-2423.46 -919.273 4743.79 
-2422.02 -918.732 4740.98 
-2421 -918.989 4739.2 
-2420.22 -919.503 4738.21 
-2422.43 -920.423 4743.69 
-2421.21 -919.624 4740.34 
-2422.18 -919.611 4742.27 
-2421.92 -920.162 4742.38 
-2422.66 -922.678 4748.09 
-2422.5 -923.738 4755.11 
-2422.67 -923.272 4755.45 
-2422.81 -922.857 4755.91 
-2423.42 -922.406 4756.36 
-2422.6 -923.327 4749.21 
-2422.6 -923.525 4749.62 
-2422.33 -924.582 4750.62 
-2422.8 -923.184 4749.91 
-2422.62 -923.811 4750.34 
-2422.4 -924.578 4751.07 
-2422.11 -925.445 4752.94 
-2422.23 -925.259 4753.62 
-2422.42 -924.732 4754.18 
-2422.9 -922.16 4748.32 
-2422.92 -922.342 4748.76 
-2424.93 -918.806 4758.77 
-2425.49 -917.134 4760.3 
-2424.23 -920.947 4757.43 
-2424.97 -921.439 4757.11 
-2424.74 -922.073 4756.58 
-2317.14 -1007.99 4811.66 
-2316.84 -1011.52 4809.62 
-2315.01 -1013.72 4809.09 
-2313.27 -1019.69 4808.53 
-2313.13 -1016.51 4808.87 
-2313.24 -1029.84 4809.5 
-2312.1 -1028.51 4809.4 
-2309.59 -1027.57 4809.83 
-2310.27 -1026.66 4809.33 
-2311.73 -1025.03 4808.35 
-2310.04 -1025.44 4809 
-2312.01 -1022.1 4808.33 
-2311.69 -1024.35 4808.15 
-2315.37 -1030.24 4809.55 
-2314.21 -1031.09 4809.61 
-2314.03 -1027.85 4807.48 
-2314.74 -1028.78 4808.79 
-2314.7 -1028.22 4808.45 
-2314.61 -1027.64 4808.08 
-2287.36 -1086.01 4819.94 
-2288.08 -1085.74 4820.12 
-2288.62 -1085.33 4820.14 
-2289.32 -1085.17 4820.58 
-2290.58 -1084.17 4822.04 
-2290.3 -1084.71 4822.13 
-2279.44 -1087.12 4818.98 
-2278.62 -1084.44 4818.12 
-2279.23 -1081.6 4817.18 
-2277.57 -1092.77 4821.52 
-2278.14 -1093.25 4821.59 
-2282.06 -1091.6 4820.41 
-2278.72 -1093.95 4821.76 
-2279.15 -1094.54 4821.89 
-2280.75 -1092.29 4820.88 
-2281.63 -1092.13 4820.72 
-2285.68 -1087.05 4819.34 
-2284.55 -1089.39 4819.81 
-2283.11 -1091.62 4820.31 
-2286.79 -1086.35 4819.9 
-2286.28 -1086.76 4819.55 
-2274.77 -1077.3 4814.44 
-2277.19 -1079.62 4817.08 
-2274.05 -1077.27 4814 
-2278.18 -1080.48 4817.16 
-2275.23 -1073.49 4812.07 
-2273.33 -1075.03 4811.86 
-2273.65 -1074.74 4811.88 
-2273.37 -1077.26 4813.65 
-2314.52 -1032.64 4809.81 
-2314.98 -1032.53 4810.18 
-2314.82 -1029.68 4809.27 
-2314.66 -1037.13 4811.2 
-2314.24 -1040.08 4812.45 
-2312.3 -1047.46 4815.58 
-2314.12 -1042.22 4813.7 
-2307.47 -1060.41 4822.32 
-2302.97 -1066.09 4822.32 
-2296.67 -1071.73 4818.85 
-2296.55 -1072.62 4820.06 
-2296.22 -1070.91 4817.69 
-2293.73 -1076.13 4818.12 
-2292.4 -1080.13 4818.32 
-2291.64 -1081.82 4821.04 
-2291.15 -1082.61 4821.44 
-2291.16 -1082.05 4819.45 
-2290.89 -1083.52 4821.96 
-2332.57 -906.781 4745.22 
-2331.5 -907.626 4744.99 
-2332.36 -899.927 4745.26 
-2332.46 -905.521 4745.05 
-2331.18 -895.533 4743.09 
-2330.98 -894.455 4742.47 
-2330.56 -893.093 4741.88 
-2329.62 -892.103 4740.81 
-2328.8 -889.18 4740.22 
-2325.94 -888.659 4736.52 
-2324.63 -889.922 4732.41 
-2328.3 -886.781 4740.29 
-2327.39 -887.787 4739.53 
-2326.78 -888.353 4738.89 
-2329.8 -896.269 4740.59 
-2331.13 -897.422 4743.36 
-2322.75 -887.55 4727.32 
-2323.18 -884.17 4729.56 
-2328.79 -890.43 4738.81 
-2326.92 -886.833 4735.26 
-2324.33 -885.177 4730.72 
-2324.89 -882.89 4731.67 
-2285.34 -1030.36 4803.71 
-2285.89 -1033.25 4806.12 
-2284.91 -1034.22 4810.1 
-2284.31 -1034.36 4813.47 
-2282.37 -1037.48 4816.88 
-2282.28 -1036.61 4817.46 
-2283.7 -1034.35 4816.63 
-2282.85 -1035.1 4818.04 
-2284.07 -1033.37 4816.77 
-2283.22 -1038.59 4812.34 
-2283.28 -1040.37 4810.14 
-2282.93 -1039.25 4813.57 
-2289.5 -1027.21 4804.45 
-2292.6 -1025.9 4808.46 
-2292.04 -1025.88 4813.94 
-2286.48 -1028.83 4803.26 
-2285.11 -1027.12 4818.19 
-2285.46 -1028.22 4818.4 
-2285.24 -1029.59 4818.89 
-2286.4 -1029.54 4818.4 
-2288.14 -1028.91 4817.82 
-2288.53 -1029.44 4817.83 
-2290.24 -1028.19 4815.62 
-2288.64 -1030.03 4816.86 
-2283.84 -1043.12 4810.13 
-2282.72 -1042.72 4813.18 
-2282.66 -1041.24 4814.16 
-2283.04 -1044.06 4813.12 
-2285.76 -1046.04 4808.47 
-2284.04 -1046.12 4811.28 
-2284.73 -1046.24 4810.25 
-2285.15 -1046 4809.37 
-2286.68 -1048.63 4808.47 
-2287.67 -1051.6 4808.86 
-2286.83 -1052.71 4808.88 
-2284.91 -1054.04 4808.88 
-2284.96 -1052.77 4809.46 
-2284.2 -1055.82 4809.05 
-2288.17 -1050.74 4808.83 
-2287.27 -1049.8 4809.33 
-2287.79 -1050.33 4809.5 
-2286.73 -1049.16 4809.38 
-2287.63 -1022.18 4815.94 
-2287.65 -1023.38 4816.59 
-2284.79 -1025.72 4817.8 
-2276.37 -1067.31 4811.06 
-2276.29 -1064.88 4810.25 
-2275.82 -1065.87 4810.82 
-2275.83 -1067.08 4811.05 
-2275.74 -1070.82 4811.74 
-2275.58 -1068.77 4811.35 
-2275.36 -1070.24 4811.55 
-2279.1 -1060.43 4811.29 
-2278.73 -1061.06 4811.14 
-2276.12 -1063.37 4810.63 
-2275.87 -1064.14 4810.32 
-2275.28 -1072.43 4811.91 
-2325.35 -957.334 4798.66 
-2327.37 -955.729 4797.46 
-2322.07 -969.608 4809.31 
-2320.08 -975.874 4811.91 
-2318.58 -977.486 4811.85 
-2317.66 -983.573 4812.89 
-2324.3 -962.799 4799.8 
-2324.58 -965.404 4800.87 
-2323.37 -967.49 4805.01 
-2316.89 -989.555 4813.87 
-2314.78 -996.517 4814.62 
-2313.1 -1002.35 4815.32 
-2312.26 -1003.22 4815.32 
-2311.63 -1005.65 4815.33 
-2310.33 -1006.85 4814.12 
-2308.97 -1006.52 4814.29 
-2289.58 -1011.33 4810.46 
-2287.78 -1011.57 4810.63 
-2282.73 -1010.38 4810.64 
-2283.69 -1011.09 4810.13 
-2280.85 -1009.06 4811.75 
-2282.62 -1009.7 4811.51 
-2284.49 -1010.34 4811.17 
-2286.41 -1011.24 4810.92 
-2282 -1010.07 4811.03 
-2281.14 -1009.48 4811.48 
-2305.67 -1006.84 4813.73 
-2302.93 -1007.38 4812.99 
-2299.96 -1007.98 4812.16 
-2296.86 -1008.54 4811.37 
-2293.74 -1008.55 4811.15 
-2291.46 -1010.48 4810.46 
-2283.97 -1012.04 4810.47 
-2283.89 -1016.27 4813.87 
-2284.34 -1016.99 4814.12 
-2284.8 -1017.79 4814.4 
-2285.32 -1018.66 4814.71 
-2287.95 -1019.66 4813.45 
-2285.83 -1019.61 4815.09 
-2286.12 -1020.47 4815.46 
-2286.43 -1021.3 4815.68 
-2324.81 -960.404 4799.33 
-2460.49 -941.746 4772.19 
-2460.24 -944.664 4758.97 
-2461.17 -946.001 4754.82 
-2402.15 -930.17 4778.61 
-2401.6 -930.801 4779.41 
-2426.4 -917.409 4760.36 
-2426.31 -917.488 4760.09 
-2425.98 -918.969 4758.71 
-2426.89 -921.652 4756.78 
-2426.01 -921.451 4757.02 
-2427.52 -921.777 4756.61 
-2428.02 -921.926 4756.59 
-2428.27 -922.182 4756.45 
-2428.65 -922.43 4756.34 
