-2097.55 -946.52 543.858 
-2095.9 -948.885 545.177 
-2096.22 -948.574 544.627 
-2095.9 -948.999 544.97 
-2111.46 -927.402 524.486 
-2110.86 -927.916 524.689 
-2109.67 -932.245 536.492 
-2104.24 -938.153 538.597 
-2101.26 -941.385 539.901 
-2101.42 -941.225 539.291 
-2099.06 -943.621 539.57 
-2098.67 -943.869 538.883 
-2098.39 -943.816 537.934 
-2099.42 -943.268 540.208 
-2098.12 -943.741 537.037 
-2109.21 -929.713 526.928 
-2107.75 -931.778 529.284 
-2105.9 -933.711 530.399 
-2101.88 -937.546 531.699 
-2099.13 -941.487 534.384 
-2096.8 -943.763 535.437 
-2110.28 -928.349 525.004 
-2109.89 -928.64 525.245 
-2110.54 -927.91 524.378 
-2110.11 -928.058 524.267 
-2102.54 -926.507 523.367 
-2101.85 -928.038 523.971 
-2101.73 -928.141 523.949 
-2101.84 -927.709 524.07 
-2101.72 -928.271 523.947 
-2101.85 -928.562 524 
-2101.79 -926.903 524.147 
-2102.72 -925.655 523.242 
-2101.98 -929.018 524.106 
-2102.28 -929.591 524.359 
-2102.46 -929.604 524.416 
-2102.1 -929.761 524.356 
-2102.99 -930.115 524.715 
-2102.72 -930.373 524.737 
-2102.58 -930.165 524.627 
-2103.39 -930.176 524.851 
-2104.1 -930.157 525.135 
-2103.7 -930.203 525.005 
-2104.88 -929.752 524.915 
-2104.46 -930.1 525.143 
-2102.52 -925.197 523.495 
-2102.65 -924.424 523.527 
-2102.74 -922.262 521.708 
-2102.65 -922.615 521.516 
-2102.85 -923.257 523.028 
-2102.64 -922.95 523.096 
-2102.66 -923.668 523.53 
-2102.32 -923.024 523.684 
-2102.62 -922.765 523.108 
-2107.34 -928.97 524.345 
-2105.82 -929.721 525.087 
-2105.1 -929.85 525.048 
-2107.51 -929.15 524.61 
-2109.67 -928.207 524.151 
-2109.19 -928.381 524.087 
-2107.73 -929.239 524.935 
-2101.77 -924.539 524.423 
-2100.29 -926.306 525.093 
-2101.35 -925.242 524.652 
-2099.9 -927.919 524.838 
-2101.7 -923.7 524.406 
-2087.04 -943.014 533.264 
-2081.4 -946.764 536.973 
-2097.65 -930.652 526.799 
-2098.92 -929.49 525.565 
-2099.24 -929.806 525.109 
-2099.83 -929.468 524.615 
-2099.57 -929.976 524.672 
-2100.11 -928.943 524.543 
-2091.72 -941.917 530.89 
-2091.45 -940.8 530.941 
-2092.22 -941.972 530.558 
-2095.34 -936.612 529.162 
-2094.73 -940.544 529.673 
-2094.21 -940.958 529.751 
-2093.42 -941.31 529.967 
-2092.61 -942.053 530.164 
-2090.6 -939.737 531.229 
-2102.04 -923.442 524.175 
-2093.49 -951.406 546.504 
-2091.68 -951.978 547.906 
-2094.67 -950.263 545.671 
-2109.82 -932.028 536.942 
-2105.94 -936.069 539.121 
-2104.37 -937.984 539.287 
-2103.33 -939.069 540.138 
-2100.02 -942.781 542.148 
-2099.02 -943.95 542.515 
-2097.61 -946.562 543.581 
-2097.64 -946.601 543.324 
-2095.94 -949.076 544.578 
-2095.29 -949.866 545.043 
-2110.4 -928.105 524.607 
-2103.31 -939.181 539.462 
-2099.89 -942.797 541.141 
-2099.29 -943.379 540.815 
-2098.42 -944.511 540.499 
-2098.12 -944.805 539.843 
-2098.03 -944.568 538.881 
-2098.42 -943.943 538.448 
-2097.71 -944.512 537.947 
-2098.55 -944.342 540.785 
-2096.2 -944.753 536.045 
-2097.65 -944.221 537.169 
-2108.79 -929.624 526.452 
-2107.43 -931.414 528.445 
-2105.89 -932.524 528.858 
-2104.08 -933.856 529.047 
-2100.23 -938.471 531.305 
-2102.04 -934.635 527.997 
-2103.02 -933.636 527.795 
-2098.14 -941.172 532.946 
-2097.56 -941.385 532.722 
-2110.03 -928.373 524.796 
-2109.66 -928.641 525.078 
-2109.99 -928.227 524.446 
-2102.05 -926.197 523.81 
-2101.45 -928.248 523.994 
-2101.54 -928.044 524.053 
-2101.5 -928.509 524.03 
-2101.49 -927.771 524.171 
-2101.64 -928.861 524.101 
-2101.79 -929.181 524.164 
-2101.41 -926.376 524.335 
-2101.33 -927.371 524.29 
-2101.91 -929.665 524.281 
-2102.4 -930.397 524.649 
-2102.25 -930.287 524.566 
-2101.96 -930.371 524.508 
-2102.06 -930.624 524.627 
-2102.8 -930.656 524.862 
-2102.45 -930.761 524.799 
-2102.52 -930.933 524.886 
-2103.11 -930.477 524.903 
-2103.44 -930.47 525.047 
-2103.81 -930.441 525.195 
-2104.14 -930.46 525.341 
-2104.64 -930.251 525.3 
-2101.95 -925.53 524.017 
-2102.33 -924.808 523.762 
-2102.41 -924.147 523.798 
-2102.5 -923.344 523.525 
-2102.34 -923.153 523.639 
-2102.26 -923.7 523.976 
-2105.17 -930.062 525.257 
-2105.89 -929.985 525.368 
-2109.51 -928.402 524.384 
-2107.93 -929.368 525.286 
-2106.04 -930.24 525.811 
-2101.97 -924.006 524.267 
-2101.94 -925.006 524.17 
-2102.12 -924.424 524.051 
-2101.15 -925.916 524.629 
-2100.65 -927.188 524.663 
-2100.45 -928.523 524.452 
-2089.44 -942.174 531.453 
-2087.08 -943.971 533.16 
-2082.83 -946.271 536.048 
-2099.02 -929.938 525.35 
-2097.9 -930.877 526.602 
-2099.68 -930.236 524.623 
-2099.43 -930.193 524.881 
-2099.95 -929.574 524.362 
-2099.68 -929.991 524.423 
-2099.87 -930.247 524.354 
-2100.21 -929.095 524.305 
-2091.03 -942.367 530.951 
-2090.97 -942.979 530.95 
-2091.76 -942.724 530.823 
-2092.15 -942.745 530.558 
-2095.54 -937.415 529.099 
-2096.36 -933.163 528.3 
-2095.12 -940.7 529.356 
-2094.46 -941.339 529.343 
-2093.67 -941.578 529.577 
-2092.9 -942.169 529.679 
-2092.36 -942.844 530.15 
-2093.16 -951.858 546.27 
-2091.28 -952.579 547.864 
-2094.26 -950.932 545.637 
-2100.01 -942.798 541.651 
-2099.17 -943.712 542.236 
-2097.55 -946.715 543.112 
-2095.95 -949.134 544.378 
-2095.15 -950.15 544.871 
-2098.83 -944.058 541.253 
-2099.01 -943.937 541.635 
-2097.11 -946.911 542.345 
-2096.95 -947.155 541.986 
-2096.97 -947.329 541.947 
-2096.53 -947.439 540.994 
-2096.37 -947.445 540.453 
-2096.13 -947.471 539.889 
-2095.86 -947.458 539.195 
-2095.26 -946.65 537.296 
-2095.36 -944.026 534.063 
-2107.2 -930.913 527.537 
-2108.45 -929.538 525.932 
-2106.14 -931.617 527.881 
-2104.81 -931.896 527.255 
-2103.82 -932.379 526.988 
-2099.27 -939.555 531.819 
-2100.72 -936.929 529.748 
-2101.37 -935.125 527.827 
-2102.06 -933.875 526.898 
-2102.69 -933.31 526.927 
-2103.25 -932.554 526.712 
-2097.31 -941.379 532.382 
-2100.08 -937.42 529.713 
-2109.66 -928.494 524.712 
-2101.17 -928.3 524.057 
-2101.18 -928.608 523.984 
-2101.33 -928.727 524.093 
-2101.21 -928.032 524.153 
-2101.45 -929.156 524.182 
-2101.04 -927.942 524.264 
-2101.59 -929.483 524.261 
-2101.72 -929.779 524.325 
-2100.92 -927.787 524.379 
-2101.79 -930.26 524.431 
-2102.12 -930.868 524.739 
-2102.22 -930.965 524.81 
-2101.77 -930.856 524.566 
-2101.69 -930.65 524.446 
-2101.86 -931.059 524.693 
-2102.79 -931.004 524.997 
-2102.53 -931.206 524.997 
-2102.17 -931.324 524.935 
-2102.29 -931.395 525 
-2103.13 -930.815 525.035 
-2103.52 -930.719 525.171 
-2103.79 -930.793 525.318 
-2104.26 -930.721 525.598 
-2104.74 -930.519 525.594 
-2105.26 -930.332 525.565 
-2108.14 -929.522 525.627 
-2106.23 -930.539 526.331 
-2105.45 -930.668 526.098 
-2100.64 -928.541 524.309 
-2100.44 -928.905 524.214 
-2088.38 -943.879 532.216 
-2083.19 -946.614 535.736 
-2099.19 -930.125 525.193 
-2098.22 -931.131 526.339 
-2099.92 -930.404 524.562 
-2100.1 -930.38 524.358 
-2099.58 -930.367 524.809 
-2099.99 -929.706 524.086 
-2099.76 -930.026 524.142 
-2099.88 -930.213 524.159 
-2100.11 -930.468 524.058 
-2100.26 -929.314 524.068 
-2087.97 -944.776 532.595 
-2090.32 -943.616 531.139 
-2091.05 -943.446 530.897 
-2091.63 -943.546 530.772 
-2092.08 -943.642 530.616 
-2096.64 -933.587 528.23 
-2096.03 -936.003 528.793 
-2096.09 -938.06 528.898 
-2095.65 -939.526 529.061 
-2095.38 -940.637 528.499 
-2093.98 -940.799 527.647 
-2093.75 -941.755 528.791 
-2092.06 -940.569 526.215 
-2093.15 -942.044 528.826 
-2092.57 -942.97 529.74 
-2092.65 -942.437 528.925 
-2092.34 -943.637 530.269 
-2091.27 -952.904 547.531 
-2092.74 -952.339 546.15 
-2093.9 -951.327 545.571 
-2098.96 -944.069 541.995 
-2097.4 -946.764 542.945 
-2095.71 -949.531 544.318 
-2095.98 -949.185 544.028 
-2094.83 -950.632 544.858 
-2097.14 -946.867 542.615 
-2097.26 -946.804 542.796 
-2096.05 -949.215 543.058 
-2095.98 -949.3 543.637 
-2095.62 -949.757 543.435 
-2095.71 -949.516 542.575 
-2095.3 -949.799 542.026 
-2094.79 -950.236 541.752 
-2094.41 -950.262 541.183 
-2093.62 -949.798 539.297 
-2094.28 -946.847 536.27 
-2093.07 -949.164 537.468 
-2095.17 -943.802 533.492 
-2094.63 -944.695 534.188 
-2106.66 -930.792 526.983 
-2105.66 -931.033 526.726 
-2104.93 -931.209 526.466 
-2104.31 -931.587 526.517 
-2103.74 -931.768 526.288 
-2101.45 -934.417 526.725 
-2101.86 -933.794 526.133 
-2102.41 -933.331 526.391 
-2100.94 -935.494 527.743 
-2102.89 -932.729 526.329 
-2103.22 -932.169 526.199 
-2097.28 -941.181 531.936 
-2099.75 -937.491 529.321 
-2100.95 -928.663 523.949 
-2100.86 -928.49 524.168 
-2101.14 -928.988 523.855 
-2101.27 -929.103 524.014 
-2101.36 -929.46 524.069 
-2101.48 -929.747 524.183 
-2101.59 -930.117 524.3 
-2101.62 -930.476 524.377 
-2101.94 -931.337 524.839 
-2101.46 -930.874 524.308 
-2101.53 -931.105 524.431 
-2101.34 -930.748 524.194 
-2101.7 -931.279 524.623 
-2102.54 -931.518 525.123 
-2102.87 -931.312 525.144 
-2102.28 -931.715 525.123 
-2101.88 -931.635 524.874 
-2102.05 -931.779 525.046 
-2103.14 -931.148 525.212 
-2103.57 -931.033 525.296 
-2103.9 -931.094 525.585 
-2104.38 -931.023 525.951 
-2104.87 -930.835 525.976 
-2100.68 -928.827 524.063 
-2100.5 -929.133 523.972 
-2081.87 -948.162 536.354 
-2098.56 -931.338 526.018 
-2100.22 -930.632 524.365 
-2099.86 -930.924 524.712 
-2099.63 -930.792 524.871 
-2099.95 -930.719 524.217 
-2099.36 -931.019 525.092 
-2099.87 -930.127 523.854 
-2099.95 -929.896 523.774 
-2100.08 -930.281 523.874 
-2099.21 -930.765 523.491 
-2098.58 -931.025 523.2 
-2100.25 -929.506 523.823 
-2087.93 -945.394 532.661 
-2083.47 -947.514 535.483 
-2089.92 -944.259 531.439 
-2090.85 -943.996 531.068 
-2091.45 -944.201 530.905 
-2092.09 -944.295 530.658 
-2097.27 -933.637 527.864 
-2096.48 -934.617 528.415 
-2096.44 -937.694 528.709 
-2096.1 -939.972 529.047 
-2093.48 -940.235 525.906 
-2094.68 -939.38 526.435 
-2095.64 -939.436 527.863 
-2090.34 -939.618 523.324 
-2087.37 -939.864 522.695 
-2089.23 -939.967 523.971 
-2087.32 -939.207 521.159 
-2087.1 -941.128 522.886 
-2092.24 -943.06 528.695 
-2092.55 -943.548 529.906 
-2086.48 -942.876 522.494 
-2092.38 -944.043 530.326 
-2091.32 -953.271 547.279 
-2092.32 -952.789 545.99 
-2093.41 -951.901 545.382 
-2095.93 -949.332 543.866 
-2095.31 -950.117 544.329 
-2094.38 -951.214 544.852 
-2095.14 -950.128 543.096 
-2095.16 -950.378 544.163 
-2094.97 -950.534 543.965 
-2094.53 -950.888 543.77 
-2095.07 -950.313 542.583 
-2094.58 -950.767 542.439 
-2094.06 -951.049 541.971 
-2093.44 -951.307 541.411 
-2092.84 -950.628 539.506 
-2092.44 -949.866 537.466 
-2093.33 -948.547 536.819 
-2093.95 -946.757 535.796 
-2092.28 -949.724 536.864 
-2092.7 -949.182 536.744 
-2094.86 -944.098 533.4 
-2094.62 -944.556 533.887 
-2093.78 -946.544 535.095 
-2104.53 -931.289 526.318 
-2104.08 -931.415 526.078 
-2104.1 -931.575 526.352 
-2103.29 -931.873 525.967 
-2103.57 -931.511 525.725 
-2101.15 -934.581 526.321 
-2102.02 -933.33 525.882 
-2101.38 -933.891 525.747 
-2102.47 -933.015 526.062 
-2100.59 -936.213 528.03 
-2100.78 -935.215 526.89 
-2102.75 -932.584 526.031 
-2102.86 -932.241 525.894 
-2096.95 -941.456 531.803 
-2099.3 -938.208 529.463 
-2100.76 -929.015 523.826 
-2100.99 -928.877 523.755 
-2101.07 -929.333 523.714 
-2101.2 -929.547 523.866 
-2101.26 -929.971 523.995 
-2101.31 -930.292 524.11 
-2101.31 -930.514 524.16 
-2101.13 -930.694 524.049 
-2101.64 -931.52 524.636 
-2101.24 -931.088 524.171 
-2101.11 -930.956 524.051 
-2101.29 -931.251 524.256 
-2101.38 -931.382 524.369 
-2100.96 -930.872 523.946 
-2102.29 -932.019 525.245 
-2102.61 -931.821 525.267 
-2102.98 -931.58 525.285 
-2102.02 -932.068 525.112 
-2101.56 -931.779 524.639 
-2101.77 -931.921 524.859 
-2103.39 -931.322 525.339 
-2100.52 -929.326 523.747 
-2098.67 -931.471 526.062 
-2099.44 -931.493 525.242 
-2099.05 -931.44 524.469 
-2098.95 -931.222 524.044 
-2099.27 -931.321 525.388 
-2098.22 -931.219 523.106 
-2098.66 -932 526.314 
-2099.4 -930.569 523.355 
-2099.96 -930.253 523.589 
-2099.91 -930.142 523.434 
-2100.13 -929.773 523.551 
-2097.42 -931.128 521.922 
-2097.64 -930.966 521.903 
-2096.89 -931.357 521.674 
-2088.29 -945.956 532.42 
-2084.47 -947.574 534.922 
-2090.45 -944.453 531.348 
-2089.77 -945.174 531.653 
-2091.09 -944.595 531.133 
-2091.76 -944.755 530.905 
-2092.28 -944.688 530.537 
-2096.29 -935.599 526.405 
-2095.16 -935.133 524.607 
-2097.11 -934.952 528.121 
-2097.03 -936.534 527.977 
-2095.76 -937.503 526.881 
-2095.22 -938.212 526.597 
-2093.77 -939.574 525.217 
-2092.18 -939.783 524.118 
-2093.39 -938.022 523.811 
-2087.64 -939.012 520.247 
-2090 -939.167 521.688 
-2086.23 -940.173 520.458 
-2086.77 -939.958 519.746 
-2092.24 -943.558 528.536 
-2086.1 -944.626 522.504 
-2092.61 -943.785 529.949 
-2086.09 -942.341 520.259 
-2092.45 -944.322 530.221 
-2091.55 -953.73 547.042 
-2092.02 -953.218 545.889 
-2092.9 -952.517 545.103 
-2093.98 -951.716 544.663 
-2093.95 -951.439 543.169 
-2093.87 -951.629 543.503 
-2093.3 -952.322 544.393 
-2092.57 -952.912 544.226 
-2093.41 -951.835 542.617 
-2092.72 -952.29 542.058 
-2092.32 -952.404 541.622 
-2092.25 -951.195 539.664 
-2091.96 -950.188 537.331 
-2091.81 -950.049 536.702 
-2093.05 -948.581 536.286 
-2092.04 -949.667 536.285 
-2091.78 -949.962 536.27 
-2092.6 -948.889 535.976 
-2093.57 -946.662 534.68 
-2094.78 -944.093 533.143 
-2096.85 -941.503 531.534 
-2092.99 -948.425 535.86 
-2103.12 -931.773 525.593 
-2100.89 -934.209 525.686 
-2101.43 -933.54 525.535 
-2101.79 -933.125 525.553 
-2102.15 -933.004 525.766 
-2100.87 -933.596 525.401 
-2100.07 -937.072 528.314 
-2100.69 -935.723 527.387 
-2100.6 -935.351 526.078 
-2102.37 -932.768 525.793 
-2102.42 -932.504 525.655 
-2102.75 -932.046 525.545 
-2099.12 -938.531 529.222 
-2100.71 -929.294 523.582 
-2100.92 -929.161 523.594 
-2100.75 -929.86 523.62 
-2100.81 -930.136 523.744 
-2100.89 -930.32 523.846 
-2100.92 -930.481 523.889 
-2100.98 -930.607 523.936 
-2100.74 -930.807 523.789 
-2101.34 -931.633 524.403 
-2100.9 -931.158 523.919 
-2101.02 -931.301 524.041 
-2100.74 -931.081 523.806 
-2101.11 -931.507 524.158 
-2100.63 -930.984 523.723 
-2102.36 -932.299 525.425 
-2102.05 -932.345 525.233 
-2101.66 -932.155 524.83 
-2101.82 -932.288 525.016 
-2101.26 -931.878 524.408 
-2101.45 -932.058 524.616 
-2100.4 -929.6 523.471 
-2099.08 -931.949 524.906 
-2098.78 -932.432 526.256 
-2098.92 -932.56 525.799 
-2098.23 -931.652 523.662 
-2097.48 -931.568 522.695 
-2096.9 -931.483 521.911 
-2097.81 -930.824 521.841 
-2098.73 -930.552 522.507 
-2100.01 -930.033 523.245 
-2099.06 -930.363 522.521 
-2096.13 -931.26 520.54 
-2096.03 -931.401 520.676 
-2096.29 -931.123 520.458 
-2094.4 -931.978 519.912 
-2094.34 -931.845 519.544 
-2087.84 -946.757 532.883 
-2084.81 -947.976 534.754 
-2081.28 -950.142 536.729 
-2090.58 -945.012 531.465 
-2089.64 -945.883 532 
-2091.34 -945.137 531.144 
-2092.12 -945.248 530.832 
-2092.43 -944.929 530.263 
-2097.02 -933.419 525.935 
-2092.66 -934.854 520.867 
-2093.8 -936.777 523.694 
-2092.21 -936.602 521.266 
-2092.57 -939.211 523.419 
-2091.45 -937.73 520.839 
-2090.64 -936.37 518.808 
-2088.13 -938.826 519.353 
-2087.4 -939.818 519.128 
-2090.61 -938.885 520.976 
-2086.79 -941.008 518.926 
-2092.84 -943.593 529.205 
-2091.97 -944.569 527.202 
-2090.98 -944.391 526.784 
-2086.37 -945.412 522.979 
-2085.69 -945.125 521.337 
-2092.61 -944.09 530.065 
-2092.85 -943.863 529.263 
-2086.3 -943.07 519.792 
-2092.57 -944.58 530.006 
-2091.89 -954.207 546.738 
-2091.84 -953.583 545.764 
-2092.23 -953.152 545.097 
-2092.18 -953.15 543.863 
-2092.3 -952.959 543.245 
-2091.85 -953.611 545.165 
-2091.73 -953.691 544.771 
-2092.09 -953.057 542.839 
-2091.84 -953.248 542.559 
-2091.73 -952.89 541.775 
-2091.7 -951.679 539.814 
-2091.79 -950.377 537.581 
-2091.53 -950.325 536.541 
-2091.65 -950.448 535.923 
-2092.05 -949.503 535.824 
-2091.76 -950.403 535.516 
-2091.86 -950.132 535.451 
-2092.43 -948.882 535.399 
-2093.48 -946.695 534.243 
-2094.72 -944.069 532.893 
-2096.69 -941.675 531.331 
-2100.21 -935.268 525.006 
-2101.36 -933.254 525.28 
-2101.08 -933.785 524.893 
-2101.82 -932.898 525.414 
-2101.48 -933.004 525.209 
-2099.99 -935.188 524.223 
-2100.04 -937.024 527.922 
-2100.52 -935.827 527.041 
-2100.29 -935.753 525.877 
-2102.01 -932.73 525.449 
-2101.96 -932.557 525.29 
-2099.35 -938.227 528.401 
-2098.38 -939.533 529.56 
-2100.52 -929.874 523.483 
-2100.39 -930.33 523.511 
-2100.49 -930.444 523.59 
-2100.56 -930.556 523.641 
-2100.65 -930.675 523.713 
-2100.41 -930.858 523.562 
-2100.37 -931.005 523.542 
-2101.06 -931.738 524.191 
-2100.52 -931.282 523.668 
-2100.66 -931.354 523.769 
-2100.75 -931.464 523.85 
-2100.9 -931.595 524.016 
-2100.39 -931.173 523.569 
-2101.68 -932.493 525.034 
-2101.19 -932.281 524.53 
-2101.47 -932.355 524.79 
-2100.98 -931.942 524.175 
-2101.12 -932.113 524.377 
-2100.23 -930.039 523.349 
-2098.13 -932.449 524.273 
-2098.95 -932.621 525.387 
-2097.67 -932.868 524.93 
-2097.34 -932.297 523.239 
-2096.52 -932.15 522.164 
-2097.19 -930.859 521.081 
-2097.86 -930.676 521.517 
-2099.99 -930.18 523.101 
-2099.34 -930.287 522.55 
-2098.25 -930.587 521.701 
-2094.56 -931.582 518.98 
-2094.29 -931.647 518.911 
-2094.2 -931.739 519.09 
-2094.85 -931.492 519.084 
-2096.27 -931.114 520.27 
-2094.16 -932.73 520.633 
-2092.41 -932.053 518.28 
-2092.42 -931.95 518.198 
-2092.74 -931.835 518.169 
-2093.24 -931.741 518.275 
-2087.76 -947.152 533.127 
-2085.56 -948.157 534.387 
-2081.67 -950.388 536.73 
-2083.72 -949.388 535.635 
-2090.35 -945.722 531.833 
-2089.2 -946.642 532.547 
-2090.93 -945.847 531.559 
-2091.72 -945.584 531.081 
-2092.23 -945.811 530.867 
-2092.46 -945.339 530.293 
-2092.63 -944.909 529.831 
-2096.11 -933.295 524.527 
-2091.62 -933.805 518.662 
-2091.19 -935.127 518.875 
-2090.77 -935.238 518.191 
-2090.25 -937.999 519.276 
-2090.24 -936.461 518.121 
-2090.9 -935.335 518.214 
-2088.71 -938.665 518.607 
-2088 -939.693 518.432 
-2087.4 -940.804 518.431 
-2086.94 -942.105 518.976 
-2092.21 -945.102 526.933 
-2086.64 -945.801 523.125 
-2085.69 -946.015 522.338 
-2086.11 -944.425 521.035 
-2092.7 -944.26 529.939 
-2092.87 -944.046 529.379 
-2092.72 -944.596 529.811 
-2091.82 -954.31 546.07 
-2091.56 -953.697 544.244 
-2091.5 -953.624 543.64 
-2091.37 -954.632 545.618 
-2091.09 -954.691 545.054 
-2091.38 -953.658 542.931 
-2090.71 -954.38 543.038 
-2091.29 -953.95 543.068 
-2091.36 -953.738 542.357 
-2090.94 -953.531 541.746 
-2091.18 -951.984 539.654 
-2091.53 -950.556 537.609 
-2091.39 -950.496 536.827 
-2091.56 -951.021 535.406 
-2091.46 -950.832 536.029 
-2091.62 -951.068 534.951 
-2092.01 -949.867 535.117 
-2091.77 -950.823 534.674 
-2091.87 -950.552 534.606 
-2092.47 -948.998 534.738 
-2093.47 -946.735 533.638 
-2094.82 -943.927 532.565 
-2096.57 -941.822 531.249 
-2099.79 -936.094 524.632 
-2101.23 -933.26 524.876 
-2100.41 -935.486 523.17 
-2099.74 -936.158 523.172 
-2101.58 -932.737 525.114 
-2101.25 -932.917 524.979 
-2099.35 -936.542 523.574 
-2099.95 -937.037 527.492 
-2100.17 -936.27 526.554 
-2099.83 -936.349 525.306 
-2098.4 -939.265 528.978 
-2099.38 -938.454 527.725 
-2096.61 -942.076 530.662 
-2100.13 -930.301 523.318 
-2100.06 -930.41 523.205 
-2100.17 -930.523 523.357 
-2100.17 -930.643 523.346 
-2100.3 -930.745 523.478 
-2100.16 -930.872 523.318 
-2100.17 -930.956 523.235 
-2100.21 -931.105 523.342 
-2100.82 -931.81 523.998 
-2100.26 -931.307 523.432 
-2100.28 -931.415 523.408 
-2100.38 -931.521 523.572 
-2100.47 -931.606 523.653 
-2100.68 -931.665 523.84 
-2100.21 -931.145 523.194 
-2101.37 -932.596 524.865 
-2100.81 -932.292 524.243 
-2100.88 -932.471 524.384 
-2101.17 -932.483 524.644 
-2100.66 -931.998 523.954 
-2100.84 -932.1 524.151 
-2096.2 -932.928 523.736 
-2095.5 -932.745 522.529 
-2096.91 -930.953 520.672 
-2097.35 -930.851 520.897 
-2100.03 -930.206 522.958 
-2099.32 -930.324 522.335 
-2098.44 -930.558 521.705 
-2093.79 -931.873 518.326 
-2093.51 -931.813 518.298 
-2095.24 -931.394 519.249 
-2094.07 -931.754 518.4 
-2092.57 -933.327 519.268 
-2091.91 -932.287 518.265 
-2091.79 -932.859 518.335 
-2091.96 -932.99 518.31 
-2092.28 -932.475 518.1 
-2092.93 -931.977 518.151 
-2087.16 -947.799 533.524 
-2084.96 -948.919 534.883 
-2090.29 -946.529 532.184 
-2089.01 -947.083 532.767 
-2091.34 -946.245 531.479 
-2092.12 -946.326 531.079 
-2092.5 -945.803 530.335 
-2092.65 -945.216 529.779 
-2092.92 -945.429 528.499 
-2091.4 -934.08 518.258 
-2091.53 -934.303 518.294 
-2089.33 -938.29 518.118 
-2090.04 -937.008 518.102 
-2091 -935.485 518.247 
-2091.72 -934.409 518.336 
-2088.73 -939.309 518.189 
-2088.1 -940.325 518.345 
-2087.6 -941.324 518.513 
-2087.51 -942.271 519.009 
-2086.68 -944.117 520.732 
-2092.98 -944.953 527.982 
-2092.04 -945.876 526.117 
-2087.02 -946.103 523.084 
-2086.36 -945.998 522.435 
-2086.11 -945.776 522.247 
-2092.9 -944.312 529.404 
-2092.92 -944.835 529.017 
-2090.92 -954.579 544.492 
-2090.73 -954.522 544.013 
-2090.52 -954.539 543.579 
-2090.32 -954.462 542.456 
-2090.23 -954.062 541.732 
-2089.62 -953.752 541.109 
-2090.71 -952.117 539.34 
-2091.13 -950.768 537.606 
-2091.22 -950.669 537.399 
-2091.18 -950.713 536.795 
-2091.29 -951.017 536.189 
-2091.46 -951.451 535.225 
-2091.34 -952.121 534.909 
-2091.28 -952.708 534.567 
-2091.53 -951.387 534.422 
-2091.36 -952.084 534.523 
-2091.28 -952.413 534.712 
-2091.99 -950.267 534.246 
-2091.89 -951.05 532.949 
-2091.96 -950.787 532.826 
-2092.01 -950.525 532.833 
-2093.42 -946.979 533.136 
-2092.43 -949.441 533.639 
-2094.77 -944.282 532.272 
-2099.36 -937.049 523.991 
-2101.34 -933.763 524.139 
-2101.1 -933.113 524.438 
-2101.37 -934.632 523.316 
-2099.18 -936.024 522.059 
-2099.03 -937.17 522.352 
-2099.1 -937.648 522.606 
-2099.2 -937.533 523.131 
-2101.15 -932.763 524.804 
-2101.03 -932.933 524.59 
-2099.61 -937.098 527.214 
-2099.66 -937.263 526.527 
-2099.74 -936.85 525.834 
-2099.5 -937.336 524.733 
-2098.56 -938.89 528.241 
-2096.5 -942.325 530.449 
-2099.11 -939.062 527.386 
-2099.15 -938.146 527.154 
-2100.02 -930.261 522.812 
-2100.06 -930.445 523.008 
-2100.11 -930.704 523.153 
-2100.08 -930.503 522.904 
-2100.13 -930.737 522.96 
-2100.15 -930.796 522.849 
-2100.18 -930.943 522.946 
-2100.56 -931.867 523.799 
-2100.23 -931.22 523.09 
-2100.25 -931.275 522.981 
-2100.27 -931.423 523.167 
-2100.3 -931.567 523.341 
-2100.44 -931.746 523.654 
-2100.32 -931.698 523.331 
-2100.2 -931.025 522.844 
-2100.94 -932.672 524.496 
-2100.62 -932.202 523.937 
-2100.67 -932.441 523.544 
-2100.74 -932.547 523.733 
-2100.83 -932.714 523.749 
-2100.52 -932.162 523.497 
-2100.45 -932.021 523.442 
-2095.62 -931.301 519.422 
-2096.02 -931.212 519.597 
-2097.59 -930.808 520.944 
-2099.32 -930.355 522.151 
-2098.3 -930.627 521.415 
-2093.84 -931.946 518.222 
-2093.16 -932.033 518.139 
-2093.37 -932.073 518.125 
-2094.16 -931.7 518.343 
-2092.11 -933.254 518.34 
-2092.7 -932.645 518.295 
-2087.07 -948.243 533.616 
-2085.27 -949.053 534.82 
-2083.19 -950.304 536.293 
-2090.17 -946.864 532.216 
-2091.15 -946.636 531.644 
-2088.62 -947.725 533.028 
-2092.55 -946.294 530.341 
-2092.12 -946.664 530.965 
-2092.65 -945.917 529.965 
-2092.66 -945.517 529.825 
-2092.93 -945.909 528.164 
-2090.87 -947.216 524.272 
-2091.02 -946.704 524.823 
-2093.02 -945.569 527.448 
-2089.88 -937.565 518.097 
-2089.49 -938.872 518.19 
-2090.63 -936.292 518.201 
-2091.35 -935.315 518.314 
-2091.9 -934.523 518.377 
-2092.32 -933.406 518.379 
-2088.78 -939.92 518.322 
-2088.28 -940.822 518.466 
-2088.02 -941.6 518.621 
-2088.09 -942.285 518.937 
-2087.35 -944.034 520.497 
-2086.85 -945.647 521.895 
-2087.12 -946.534 522.64 
-2087.13 -945.928 522.075 
-2088.91 -953.804 540.902 
-2090.27 -951.983 538.945 
-2090.84 -950.811 537.485 
-2090.77 -950.925 536.642 
-2090.99 -950.938 536.523 
-2091.09 -951.124 535.531 
-2091.56 -951.228 534.004 
-2092.07 -951.788 531.831 
-2092.26 -951.34 531.726 
-2091.07 -953.687 534.709 
-2091.28 -953.521 533.92 
-2091.3 -953.143 532.603 
-2091.69 -952.017 533.192 
-2091.56 -952.909 533.164 
-2091.05 -954.083 534.386 
-2092.35 -949.886 532.429 
-2092.16 -950.945 531.992 
-2092.71 -950.156 530.889 
-2093.04 -949.626 530.432 
-2092.8 -949.57 530.758 
-2092.72 -949.393 530.903 
-2093.52 -947.03 532.728 
-2092.42 -949.136 532.145 
-2099.4 -937.986 523.768 
-2099.33 -938.417 523.088 
-2099.26 -940.61 522.881 
-2100.84 -934.266 522.965 
-2101.03 -933.095 523.905 
-2098.89 -936.054 521.629 
-2098.92 -937.373 521.945 
-2098.96 -938.543 522.022 
-2098.8 -941.232 522.075 
-2098.4 -942.021 521.623 
-2099.28 -938.836 522.545 
-2100.96 -932.903 524.17 
-2099.59 -938.277 526.183 
-2099.72 -937.783 525.609 
-2099.24 -940.625 523.911 
-2099.22 -940.682 523.325 
-2098 -939.777 528.597 
-2098.51 -939.217 527.777 
-2096.29 -942.752 530.308 
-2093.3 -947.184 532.184 
-2099.12 -939.658 526.985 
-2099.37 -939.086 526.542 
-2099.77 -930.27 522.369 
-2100.05 -930.338 522.749 
-2100.1 -930.561 522.776 
-2100.03 -930.287 522.53 
-2100.06 -930.363 522.51 
-2100.11 -930.586 522.567 
-2100.14 -930.687 522.514 
-2100.17 -930.835 522.587 
-2100.37 -931.87 523.314 
-2100.22 -931.098 522.698 
-2100.24 -931.221 522.478 
-2100.26 -931.374 522.585 
-2100.29 -931.518 522.736 
-2100.31 -931.664 522.761 
-2100.34 -931.822 522.739 
-2100.19 -930.947 522.464 
-2100.9 -932.872 523.73 
-2100.6 -932.352 523.24 
-2100.72 -932.66 522.89 
-2100.64 -932.503 522.773 
-2100.8 -932.794 523.042 
-2100.49 -933.36 522.473 
-2100.48 -932.16 522.823 
-2100.55 -932.326 522.724 
-2100.4 -931.994 522.78 
-2094.33 -931.598 518.343 
-2096.41 -931.119 519.769 
-2094.71 -931.452 518.497 
-2098.37 -930.629 521.336 
-2098.85 -930.515 521.6 
-2096.77 -931.034 519.93 
-2093.94 -931.963 518.162 
-2093.44 -932.339 518.135 
-2092.9 -932.75 518.248 
-2086.83 -948.853 533.937 
-2085.1 -949.382 535.174 
-2083.1 -950.758 536.605 
-2091.1 -946.845 531.622 
-2090.12 -947.192 532.291 
-2088.42 -948.222 533.175 
-2092.79 -946.64 529.628 
-2092.77 -946.233 529.643 
-2092.11 -946.909 530.782 
-2092.92 -946.331 528.05 
-2092.98 -946.761 527.691 
-2091.11 -947.738 523.906 
-2087.39 -947.285 521.997 
-2086.94 -946.682 522.121 
-2090.02 -937.903 518.166 
-2090.64 -936.545 518.217 
-2089.34 -939.688 518.332 
-2090.09 -939.049 518.358 
-2091.42 -935.499 518.34 
-2092.14 -934.564 518.426 
-2092.55 -933.484 518.402 
-2088.81 -940.721 518.493 
-2088.52 -941.625 518.674 
-2088.61 -942.235 518.882 
-2088.15 -943.745 520.017 
-2087.66 -945.436 521.43 
-2087.78 -945.754 521.691 
-2087.47 -946.366 521.753 
-2088.45 -952.887 539.546 
-2090.48 -950.872 537.273 
-2090.49 -950.773 536.396 
-2091.06 -950.797 534.561 
-2090.74 -950.515 534.989 
-2091.81 -950.959 532.159 
-2092.63 -951.002 530.458 
-2092.27 -951.284 531.659 
-2092.95 -950.539 530.559 
-2093.14 -950.526 529.671 
-2093.72 -949.787 528.599 
-2093.47 -949.994 529.389 
-2091.35 -953.894 533.53 
-2091.5 -952.979 532.578 
-2092.29 -951.145 531.667 
-2092.26 -951.016 531.743 
-2092.57 -949.205 531.123 
-2093.07 -950.081 530.458 
-2093.63 -949.493 529.699 
-2095.27 -947.974 527.125 
-2095.25 -948.159 527.001 
-2095.26 -947.703 527.205 
-2095.2 -947.437 527.351 
-2092.35 -948.796 531.434 
-2099.16 -940.866 522.531 
-2097.68 -944.822 521.532 
-2097.82 -944.378 521.452 
-2100.9 -933.861 522.91 
-2099.45 -934.86 521.437 
-2100.57 -933.571 522.675 
-2098.74 -936.01 521.28 
-2098.76 -937.527 521.619 
-2098.8 -938.523 521.783 
-2098.3 -941.639 521.339 
-2098.46 -941.532 521.59 
-2097.58 -944.929 521.041 
-2097.27 -945.52 520.368 
-2097.4 -946.083 520.481 
-2099.05 -941.098 524.932 
-2099.14 -940.876 524.437 
-2098.3 -943.648 522.336 
-2097.63 -945.118 521.716 
-2097.78 -941.075 528.763 
-2098.17 -940.646 528.068 
-2098.72 -940.168 527.398 
-2096.33 -942.937 529.929 
-2093.48 -947.227 531.419 
-2098.91 -941.57 525.236 
-2098.8 -941.889 525.646 
-2099.26 -930.421 521.796 
-2100.08 -930.435 522.461 
-2099.68 -930.329 522.002 
-2099.97 -930.299 522.126 
-2100.08 -930.372 522.206 
-2100.1 -930.471 522.222 
-2100.14 -930.677 522.297 
-2100.12 -930.543 522.186 
-2099.75 -930.705 521.218 
-2099.91 -931.083 521.411 
-2100 -931.272 521.502 
-2100.04 -931.445 521.577 
-2100.08 -931.604 521.644 
-2100.13 -931.765 521.718 
-2100.18 -931.942 521.793 
-2099.88 -930.925 521.339 
-2100.37 -933.072 522.013 
-2100.35 -932.865 521.988 
-2100.33 -932.642 521.971 
-2100.53 -933.153 522.298 
-2099.37 -934.406 521.388 
-2099.54 -933.825 521.463 
-2099.34 -934.143 521.402 
-2100.24 -932.183 521.878 
-2100.29 -932.415 521.94 
-2094.09 -931.851 518.152 
-2094.28 -931.672 518.176 
-2094.71 -931.438 518.38 
-2097.19 -930.941 520.11 
-2097.59 -930.846 520.291 
-2095.4 -931.28 518.754 
-2093.74 -932.361 518.13 
-2093.1 -932.966 518.281 
-2086.64 -949.313 534.553 
-2084.78 -950.051 535.986 
-2091.02 -947.064 531.619 
-2090.03 -947.592 532.434 
-2088.25 -948.578 533.371 
-2093.06 -946.997 527.53 
-2093.16 -946.992 527.671 
-2092.96 -947.023 529.093 
-2091.94 -947.14 530.804 
-2091.33 -948.274 523.512 
-2091.59 -948.812 523.129 
-2088.2 -947.882 521.93 
-2087.51 -946.974 521.607 
-2090.7 -936.738 518.242 
-2090.39 -938.063 518.282 
-2089.56 -940.135 518.462 
-2090.39 -939.501 518.518 
-2091.59 -935.572 518.379 
-2092.29 -934.707 518.462 
-2092.73 -933.655 518.435 
-2089.09 -941.169 518.613 
-2089.05 -941.977 518.832 
-2088.98 -942.983 519.223 
-2088.63 -944.812 520.607 
-2088.54 -945.555 521.229 
-2088.18 -946.09 521.377 
-2087.33 -953.227 539.643 
-2090.1 -950.895 537.244 
-2090.15 -950.091 535.661 
-2090.71 -950.298 534.261 
-2092.22 -950.608 530.937 
-2091.55 -950.516 532.068 
-2092.8 -950.822 529.837 
-2093.59 -950.177 528.223 
-2093.65 -950.002 528.406 
-2093.05 -950.296 530.522 
-2093.57 -949.758 529.528 
-2094.99 -948.721 525.962 
-2095.01 -948.605 526.286 
-2095.02 -948.547 526.582 
-2093.05 -948.505 530.432 
-2095.37 -947.041 527.187 
-2095.06 -948.414 526.814 
-2095.06 -948.28 527.103 
-2096.69 -947.008 523.985 
-2096.58 -947.564 523.886 
-2096.42 -947.767 524.439 
-2096.84 -946.371 524.098 
-2096.87 -945.82 524.365 
-2092.91 -948.401 530.829 
-2097.35 -946.76 521.01 
-2097.4 -946.57 520.812 
-2099.27 -934.752 521.341 
-2098.57 -936.033 521.078 
-2098.59 -937.926 521.48 
-2098.63 -939.472 521.623 
-2098.14 -941.811 521.082 
-2097.31 -945.667 520.143 
-2097.56 -946.832 520.574 
-2097.66 -946.825 520.137 
-2098.03 -947.536 520.236 
-2098.27 -944.157 522.944 
-2098.23 -943.939 522.615 
-2097.46 -945.71 521.88 
-2097.35 -947.002 521.214 
-2097.82 -941.641 528.547 
-2098.64 -942.152 526.105 
-2098.36 -942.582 526.452 
-2096.44 -943.025 529.562 
-2093.95 -946.701 530.844 
-2098.31 -944.432 523.244 
-2098.44 -944.303 523.886 
-2097.98 -930.755 520.456 
-2098.4 -930.659 520.635 
-2098.85 -930.554 520.856 
-2099.28 -930.465 521.083 
-2099.5 -930.444 521.125 
-2099.61 -930.438 521.022 
-2099.74 -930.565 521.126 
-2098.91 -930.474 519.763 
-2098.05 -929.971 518.857 
-2098.38 -930.17 519.476 
-2098.67 -930.549 519.446 
-2099.23 -931.101 520.278 
-2099.23 -931.261 520.274 
-2099.17 -931.403 520.197 
-2099.24 -931.558 520.3 
-2099.36 -931.742 520.485 
-2099.4 -932.074 520.639 
-2099.53 -933.489 521.325 
-2099.58 -933.147 521.258 
-2099.57 -932.772 521.121 
-2099.13 -934.572 521.326 
-2099.24 -933.759 521.212 
-2099.11 -934.19 521.338 
-2099.41 -932.429 520.78 
-2094.09 -932.002 518.069 
-2094.28 -931.749 518.052 
-2094.58 -931.468 518.168 
-2095.68 -931.207 518.839 
-2096.08 -931.113 518.994 
-2093.81 -932.689 518.2 
-2093.31 -933.113 518.299 
-2087.15 -949.206 534.35 
-2086.04 -950.046 535.756 
-2083.78 -951.328 537.196 
-2090.8 -947.39 531.759 
-2089.31 -948.333 532.981 
-2093.31 -947.313 527.164 
-2092.82 -949.701 523.116 
-2092.5 -949.332 523.248 
-2093.05 -947.379 528.734 
-2093.43 -947.579 526.821 
-2091.8 -947.363 530.801 
-2089.42 -948.544 521.979 
-2087.51 -947.687 521.263 
-2088.08 -946.822 521.127 
-2091.07 -936.445 518.315 
-2090.63 -937.356 518.277 
-2090.99 -938.927 518.553 
-2089.84 -940.54 518.602 
-2090.66 -940.029 518.686 
-2091.94 -935.504 518.444 
-2092.47 -934.807 518.501 
-2092.94 -933.774 518.455 
-2089.46 -941.56 518.745 
-2089.46 -942.787 519.119 
-2089.77 -942.419 519.029 
-2089.51 -943.879 519.637 
-2089.34 -945.339 520.736 
-2088.8 -945.975 520.995 
-2087.64 -952.459 538.805 
-2089.51 -950.891 537.179 
-2089.89 -949.655 535.39 
-2090.71 -950.133 533.589 
-2091.69 -950.09 531.582 
-2093.39 -950.465 528.317 
-2093.46 -950.395 527.932 
-2092.57 -950.314 529.974 
-2094.87 -949.035 525.523 
-2094.94 -948.869 525.715 
-2096.01 -948.24 524.384 
-2095.9 -948.41 524.206 
-2096.21 -948.124 524.197 
-2096.3 -947.954 524.357 
-2093.57 -947.882 529.99 
-2095.51 -946.627 527.043 
-2096.71 -947.344 523.262 
-2096.82 -946.868 523.454 
-2096.55 -947.755 523.277 
-2096.44 -947.901 523.615 
-2097 -946.255 523.454 
-2097.02 -945.732 523.933 
-2097.13 -945.297 524.393 
-2096.85 -945.478 524.654 
-2097.51 -947.731 520.95 
-2097.59 -947.581 520.764 
-2097.91 -947.748 520.488 
-2098.35 -936.137 520.96 
-2098.36 -938.339 521.315 
-2098.56 -939.57 521.475 
-2098.01 -941.349 520.884 
-2097.62 -943.921 520.449 
-2097.58 -946.452 519.719 
-2097.98 -947.086 519.786 
-2098.62 -947.884 519.837 
-2099.06 -948.45 519.926 
-2098.59 -948.372 520.191 
-2097.45 -945.542 522.377 
-2097.53 -945.467 522.78 
-2097.35 -946.981 521.574 
-2097.41 -947.83 521.151 
-2098.15 -942.817 526.753 
-2097.68 -941.854 528.604 
-2097.89 -944.647 524.166 
-2097.66 -944.679 524.742 
-2096.57 -943.277 529.046 
-2093.96 -946.658 530.244 
-2097.65 -945.219 523.231 
-2096.6 -931 519.226 
-2097.08 -930.893 519.436 
-2097.43 -930.806 519.556 
-2097.78 -930.722 519.68 
-2098.28 -930.523 519.822 
-2097.4 -930.281 518.061 
-2096.98 -930.414 518.507 
-2096.48 -930.641 517.783 
-2097.23 -930.673 519.096 
-2098.39 -930.753 519.111 
-2097.29 -930.725 518.037 
-2098.32 -931.05 519.074 
-2098.25 -931.344 519.088 
-2098.64 -931.553 519.501 
-2098.82 -931.864 519.798 
-2098.83 -932.253 519.991 
-2099.16 -933.338 520.886 
-2099.13 -932.928 520.623 
-2098.92 -932.624 520.27 
-2098.91 -933.591 520.857 
-2098.12 -936.409 520.884 
-2098.76 -934.268 521.091 
-2094.21 -932.37 518.185 
-2094.4 -931.772 518.013 
-2094.78 -931.388 518.177 
-2095.47 -931.199 518.503 
-2093.53 -933.306 518.328 
-2086.74 -949.989 535.518 
-2088.58 -948.873 533.583 
-2085.13 -951.017 536.999 
-2091.09 -947.608 531.535 
-2090.21 -948.006 532.353 
-2093.44 -949.616 523.066 
-2090.71 -949.761 522.458 
-2090.28 -949.262 522.069 
-2093.58 -948.027 526.11 
-2093.29 -947.663 528.049 
-2092.66 -947.539 529.304 
-2092.29 -947.663 529.764 
-2088.05 -948.404 521.177 
-2087.98 -947.575 520.861 
-2088.64 -946.772 520.823 
-2091.6 -936.052 518.411 
-2090.89 -937.615 518.374 
-2091.38 -939.521 518.752 
-2090.11 -940.968 518.749 
-2090.79 -940.726 518.853 
-2092.78 -935.039 518.572 
-2092.72 -934.814 518.548 
-2093.1 -933.946 518.484 
-2090.11 -941.727 518.9 
-2090.07 -943.41 519.358 
-2090.41 -942.729 519.221 
-2090.09 -944.491 519.86 
-2089.95 -945.543 520.383 
-2089.29 -945.969 520.662 
-2087.27 -952.082 538.34 
-2088.9 -950.764 536.876 
-2089.6 -949.379 535.382 
-2090.56 -949.869 533.405 
-2091.68 -949.7 531.423 
-2092.78 -950.06 529.278 
-2092.74 -949.793 529.168 
-2094.84 -949.137 525.273 
-2093.57 -950.249 527.418 
-2094.81 -949.241 525.015 
-2095.81 -948.558 524.027 
-2095.72 -948.71 523.823 
-2096.11 -948.307 524.011 
-2096.1 -948.446 523.591 
-2096.33 -948.108 523.472 
-2096.2 -948.331 523.425 
-2094.28 -947.212 529.347 
-2095.7 -946.123 527.124 
-2097.24 -945.028 524.924 
-2096.87 -946.954 522.918 
-2096.76 -947.274 522.628 
-2096.63 -947.58 522.835 
-2096.42 -948.052 523.026 
-2096.51 -947.889 522.607 
-2097.02 -946.569 522.9 
-2097.14 -945.935 523.418 
-2097.34 -945.247 523.972 
-2097.79 -948.042 520.728 
-2097.45 -948.011 521.108 
-2098.35 -938.984 521.243 
-2098.05 -941.233 520.849 
-2097.54 -944.002 520.249 
-2097.38 -946.291 519.585 
-2098.27 -947.463 519.497 
-2099.34 -948.403 519.534 
-2099.89 -949.102 519.596 
-2099.38 -949.015 519.864 
-2098.79 -948.864 520.175 
-2097.25 -946.446 522.232 
-2097.33 -945.884 522.907 
-2097.26 -947.715 521.457 
-2097.29 -948.054 521.357 
-2097.82 -943.059 527.19 
-2097.7 -944.572 525.127 
-2097.62 -944.585 525.449 
-2097.41 -945.454 523.456 
-2096.39 -944.824 527.476 
-2094.53 -946.006 529.249 
-2095.93 -931.097 518.704 
-2096.33 -931.005 518.865 
-2096.54 -930.942 518.877 
-2096.5 -931.044 517.888 
-2095.92 -930.928 518.26 
-2095.67 -931.072 517.858 
-2095.86 -931.433 518.108 
-2097.4 -931.253 518.446 
-2096.76 -931.402 518.262 
-2097.53 -931.846 518.973 
-2097.97 -932.023 519.246 
-2098.37 -932.094 519.464 
-2098.46 -932.525 519.791 
-2098.58 -932.944 520.152 
-2098.9 -933.049 520.524 
-2098.58 -933.52 520.492 
-2098.31 -934.36 520.693 
-2097.73 -936.596 520.631 
-2097.98 -938.797 521.017 
-2098 -940.959 520.757 
-2098.27 -934.844 520.858 
-2094.44 -932.432 518.247 
-2093.85 -933.254 518.335 
-2094.56 -931.872 518.049 
-2094.5 -931.574 517.968 
-2094.71 -931.409 518.004 
-2094.99 -931.281 518.048 
-2093.35 -933.998 518.482 
-2086.23 -950.956 536.876 
-2087.13 -949.697 535.141 
-2089.15 -948.882 533.576 
-2090.28 -948.326 532.357 
-2091.37 -947.836 531.172 
-2093.57 -949.477 522.89 
-2092.84 -949.36 522.984 
-2088.64 -949.837 521.895 
-2087.73 -949.28 521.268 
-2093.71 -948.321 525.629 
-2093.3 -947.923 527.818 
-2092.53 -947.977 529.032 
-2087.8 -948.385 520.837 
-2088.55 -947.503 520.606 
-2089.3 -946.539 520.423 
-2092.07 -935.825 518.493 
-2091.31 -936.802 518.405 
-2091.57 -938.705 518.675 
-2091.6 -940.118 518.921 
-2090.68 -941.674 518.996 
-2091.23 -940.945 518.959 
-2093.06 -935.07 518.622 
-2093.41 -934.311 518.543 
-2090.66 -943.874 519.575 
-2090.97 -942.812 519.352 
-2090.58 -945.135 520.008 
-2089.99 -946.136 520.214 
-2086.66 -951.859 538.006 
-2088.37 -950.511 536.448 
-2089.31 -949.049 535.062 
-2090.36 -949.637 533.412 
-2091.72 -949.345 531.162 
-2092.94 -949.547 528.504 
-2094.69 -949.423 524.915 
-2093.51 -949.991 527.34 
-2094.57 -949.484 524.827 
-2095.56 -948.825 523.728 
-2095.37 -948.912 523.587 
-2095.93 -948.599 523.451 
-2095.65 -948.611 523.171 
-2096.08 -948.581 523.021 
-2096.33 -948.281 522.755 
-2096.26 -948.32 523.069 
-2096.19 -948.516 522.726 
-2096.94 -947.203 522.32 
-2096.65 -947.718 522.242 
-2096.83 -947.681 522.024 
-2096.5 -948.075 522.101 
-2096.39 -948.2 522.347 
-2097.11 -946.82 522.391 
-2097.89 -948.465 520.837 
-2097.37 -948.285 521.305 
-2097.35 -944.308 519.922 
-2097.38 -946.853 519.473 
-2097.15 -945.992 519.405 
-2098.68 -948.001 519.393 
-2100.05 -949.09 519.351 
-2099.85 -949.291 519.403 
-2100.04 -949.567 519.552 
-2099.63 -949.523 519.812 
-2099 -949.369 520.172 
-2097.1 -947.47 521.875 
-2097.07 -948 521.591 
-2095.33 -931.168 518.129 
-2096.1 -931.79 518.399 
-2095.09 -931.391 517.921 
-2095.36 -931.741 518.137 
-2095.66 -932.129 518.388 
-2096.91 -931.945 518.757 
-2096.37 -932.136 518.651 
-2096.96 -932.793 519.121 
-2097.48 -932.841 519.342 
-2097.97 -932.893 519.564 
-2098.09 -933.429 519.923 
-2098.14 -933.958 520.289 
-2097.67 -935.027 520.398 
-2097.15 -937.959 520.308 
-2097.42 -936.682 520.525 
-2097.33 -940.655 520.329 
-2097.74 -940.82 520.558 
-2097.19 -944.114 519.729 
-2094.58 -932.636 518.336 
-2093.95 -933.528 518.416 
-2094.8 -932.342 518.277 
-2094.72 -931.721 518.003 
-2094.89 -931.592 517.968 
-2087.33 -950 535.619 
-2086.21 -951.556 537.603 
-2089.55 -948.947 533.419 
-2090.66 -948.464 532.073 
-2091.85 -948.134 530.171 
-2093.67 -949.383 522.822 
-2092.79 -949.185 522.942 
-2089.4 -949.411 522.176 
-2087.51 -949.441 521.111 
-2093.83 -948.505 525.376 
-2093.49 -948.18 527.248 
-2092.91 -948.299 528.075 
-2088.04 -948.71 520.858 
-2088.62 -947.999 520.651 
-2089.25 -947.13 520.446 
-2092.57 -935.707 518.586 
-2091.38 -937.332 518.475 
-2092.18 -939.393 518.927 
-2092.01 -940.402 519.045 
-2091.27 -941.903 519.17 
-2091.72 -941.143 519.073 
-2093.44 -934.97 518.658 
-2093.75 -934.233 518.543 
-2091.19 -944.763 519.859 
-2091.31 -943.779 519.671 
-2091.62 -942.932 519.506 
-2090.92 -945.52 520.029 
-2089.96 -946.69 520.294 
-2087.7 -950.435 536.245 
-2089.07 -948.947 534.759 
-2090.25 -949.418 533.204 
-2091.25 -949.178 531.762 
-2093 -949.272 528.155 
-2092.26 -948.95 529.802 
-2094.53 -949.459 524.599 
-2094.46 -949.386 524.357 
-2095.08 -948.924 523.306 
-2094.73 -948.907 522.976 
-2095.38 -948.624 523.043 
-2095.08 -948.63 522.79 
-2095.79 -948.628 522.666 
-2095.47 -948.621 522.497 
-2095.98 -948.652 522.345 
-2096.28 -948.472 522.278 
-2096.14 -948.643 522.175 
-2097.04 -948.468 521.633 
-2097.1 -948.75 521.69 
-2097.17 -948.405 521.523 
-2096.66 -948.602 521.783 
-2096.51 -948.637 521.921 
-2098 -948.912 520.942 
-2097.03 -946.527 519.374 
-2097.81 -947.55 519.348 
-2096.96 -945.696 519.173 
-2099.27 -948.703 519.308 
-2098.66 -948.69 519.412 
-2098.98 -949.117 519.532 
-2099.49 -949.587 519.624 
-2099.7 -949.915 519.776 
-2099.32 -949.91 520.103 
-2095.96 -932.476 518.624 
-2095.11 -931.988 518.164 
-2095.33 -932.393 518.369 
-2095.53 -932.887 518.612 
-2096.49 -932.941 518.992 
-2096.12 -933.21 518.947 
-2096.99 -933.764 519.473 
-2096.57 -933.902 519.359 
-2097.57 -933.672 519.673 
-2097.69 -934.326 520.032 
-2097.16 -935.441 520.137 
-2096.69 -939.535 519.909 
-2096.34 -939.046 519.831 
-2096.94 -943.849 519.325 
-2097.06 -943.916 519.546 
-2094.4 -933.308 518.466 
-2094.86 -932.917 518.472 
-2094.95 -932.182 518.228 
-2088.8 -948.992 534.54 
-2090.25 -949.193 532.879 
-2091.09 -948.565 531.715 
-2092.25 -948.457 529.491 
-2093.87 -949.382 522.939 
-2093.44 -949.143 522.614 
-2092.52 -948.985 522.939 
-2090.39 -948.913 522.574 
-2088.37 -949.185 521.395 
-2093.97 -948.611 525.189 
-2094.03 -948.861 524.853 
-2093.35 -948.557 527.091 
-2088.57 -948.713 520.887 
-2089.18 -947.795 520.545 
-2092.42 -936.087 518.593 
-2091.9 -938.181 518.701 
-2092.67 -939.82 519.098 
-2092.42 -940.572 519.125 
-2091.94 -942.114 519.352 
-2092.34 -941.403 519.239 
-2093.6 -935.114 518.708 
-2094.16 -934.077 518.592 
-2092.09 -945.125 519.876 
-2092.29 -944.489 519.786 
-2092.43 -943.442 519.691 
-2091.08 -945.756 520.08 
-2092.16 -945.434 519.965 
-2090.22 -946.841 520.321 
-2091.53 -948.735 531.19 
-2094.36 -949.304 524.339 
-2093.29 -949.037 527.238 
-2093 -948.761 527.784 
-2094.42 -948.936 522.741 
-2094.75 -948.634 522.548 
-2094.4 -948.619 522.188 
-2095.19 -948.614 522.363 
-2094.89 -948.606 522.091 
-2095.73 -948.626 521.958 
-2095.48 -948.619 521.99 
-2095.17 -948.564 521.873 
-2096.1 -948.556 521.745 
-2096.9 -950.077 521.958 
-2098.31 -949.441 520.898 
-2097.26 -949.238 521.879 
-2098.22 -949.815 521.206 
-2097.14 -949.455 522.095 
-2096.92 -949.781 522.18 
-2097.12 -947.169 519.293 
-2096.85 -946.183 519.149 
-2098.3 -948.2 519.289 
-2096.76 -945.414 518.939 
-2098.06 -948.627 519.622 
-2097.69 -948.172 519.45 
-2098.44 -949.053 519.772 
-2098.92 -949.51 519.812 
-2099.29 -949.926 519.957 
-2099.05 -950.143 520.393 
-2095.67 -933.504 518.881 
-2095.17 -932.599 518.431 
-2095.16 -933.196 518.607 
-2094.91 -934.132 518.83 
-2096.15 -934.193 519.306 
-2095.63 -934.419 519.197 
-2097.13 -934.585 519.809 
-2096.6 -934.861 519.712 
-2096.08 -935.174 519.624 
-2096.74 -935.636 520.012 
-2095.97 -938.679 519.751 
-2096.69 -944.336 518.909 
-2096.48 -943.454 519.065 
-2094.74 -933.496 518.586 
-2093.84 -949.155 522.611 
-2093.04 -948.909 522.641 
-2091.47 -948.734 522.714 
-2089.84 -948.619 522.123 
-2089.57 -948.553 521.326 
-2094.2 -948.939 524.691 
-2094.07 -949.26 522.928 
-2094.24 -949.094 524.498 
-2089.45 -948.096 520.655 
-2092.27 -936.679 518.619 
-2093.7 -935.6 518.854 
-2092.68 -938.795 518.953 
-2092.8 -940.018 519.138 
-2092.7 -940.803 519.197 
-2092.76 -942.621 519.591 
-2093.16 -942.059 519.518 
-2094.36 -934.401 518.729 
-2093.24 -945.452 519.888 
-2093.55 -945.318 519.775 
-2093.59 -944.685 519.687 
-2091.54 -945.829 520.085 
-2092.71 -945.656 519.993 
-2090.64 -946.971 520.415 
-2094.3 -949.196 524.434 
-2094.28 -949.076 522.827 
-2094.08 -948.658 522.084 
-2094.61 -948.55 521.906 
-2094.35 -948.448 521.791 
-2094.08 -948.386 521.736 
-2094.87 -948.436 521.756 
-2095.68 -948.396 521.692 
-2095.38 -948.394 521.697 
-2095.09 -948.296 521.628 
-2096.64 -948.531 521.363 
-2097.61 -950.219 521.451 
-2097.3 -948.981 521.144 
-2097.72 -950.071 521.697 
-2098.33 -950.224 520.941 
-2097.32 -947.722 519.315 
-2096.74 -947.155 519.229 
-2096.73 -946.546 519.115 
-2096.64 -945.81 518.87 
-2097.6 -948.268 519.783 
-2097.93 -948.657 520.003 
-2097.19 -947.827 519.641 
-2098.41 -949.148 520.114 
-2098.8 -949.549 520.15 
-2098.39 -949.517 520.539 
-2095.07 -934.724 519.099 
-2094.45 -935.577 519.102 
-2095.51 -935.432 519.486 
-2095.03 -935.743 519.371 
-2096.26 -936.037 519.896 
-2095.74 -936.116 519.706 
-2095.59 -938.475 519.693 
-2095.93 -942.8 519.288 
-2096.51 -945.134 518.635 
-2096.32 -944.907 518.721 
-2093.81 -948.951 522.372 
-2092.34 -948.642 522.511 
-2093.05 -948.725 522.461 
-2091 -948.542 521.735 
-2090.51 -948.113 520.909 
-2094.14 -949.121 522.779 
-2092.91 -936.795 518.79 
-2093.13 -939.003 519.074 
-2092.91 -940.058 519.156 
-2093.46 -941.281 519.405 
-2094.26 -944.546 519.618 
-2094.15 -943.092 519.597 
-2094.15 -945.726 519.935 
-2094.55 -945.602 519.835 
-2094.65 -945.432 519.711 
-2092.26 -945.967 520.091 
-2093.79 -945.886 519.998 
-2092.1 -946.769 520.413 
-2093.86 -948.784 522.229 
-2093.39 -948.529 521.94 
-2094.58 -948.289 521.646 
-2094.31 -948.176 521.564 
-2093.81 -948.186 521.508 
-2094.81 -948.164 521.53 
-2095.9 -948.165 521.442 
-2095.4 -948.075 521.457 
-2095.13 -947.975 521.385 
-2097.99 -949.118 520.628 
-2097.34 -948.661 520.895 
-2096.71 -947.369 519.509 
-2096.39 -946.897 519.372 
-2096.55 -946.459 519.05 
-2096.44 -945.735 518.854 
-2097.26 -948.034 520.031 
-2097.53 -948.374 520.271 
-2098 -948.86 520.368 
-2096.78 -947.553 519.853 
-2093.8 -937.086 519.075 
-2094.64 -937.38 519.379 
-2094.77 -939.38 519.49 
-2094.73 -938.258 519.462 
-2095.54 -942.81 519.375 
-2096.08 -944.819 518.957 
-2096.23 -945.465 519.001 
-2092.85 -948.43 521.784 
-2092.25 -948.355 521.657 
-2091.93 -947.846 520.88 
-2093.4 -939.124 519.14 
-2093.57 -940.606 519.341 
-2094.62 -942.776 519.54 
-2095.23 -945.132 519.531 
-2095.2 -945.405 519.691 
-2094.67 -945.889 520.006 
-2095.04 -945.6 519.847 
-2094.21 -946.085 520.031 
-2094.57 -946.134 520.122 
-2094.07 -946.561 520.289 
-2094.54 -947.984 521.395 
-2094.2 -947.924 521.356 
-2093.27 -948.096 521.28 
-2094.9 -947.851 521.295 
-2096.45 -948.156 521.143 
-2095.58 -947.791 521.189 
-2095.26 -947.581 521.08 
-2097.45 -948.464 520.634 
-2096.21 -947.116 519.652 
-2096.34 -946.239 519.219 
-2096.13 -946.612 519.538 
-2096.79 -947.697 520.185 
-2097.03 -947.984 520.46 
-2096.21 -947.287 519.976 
-2093.66 -939.732 519.259 
-2094.37 -940.652 519.451 
-2094.83 -942.281 519.481 
-2095.77 -944.718 519.206 
-2096.01 -945.281 519.172 
-2096.13 -946.015 519.384 
-2092.81 -947.943 521.034 
-2094.1 -947.063 520.676 
-2095.49 -944.889 519.369 
-2095.58 -945.333 519.627 
-2095.37 -945.575 519.854 
-2094.96 -945.919 520.035 
-2094.54 -946.329 520.202 
-2094.81 -946.274 520.23 
-2094.47 -946.707 520.454 
-2094.79 -947.63 521.134 
-2094.45 -947.67 521.162 
-2094.07 -947.619 521.1 
-2096.77 -948.039 520.834 
-2095.11 -947.346 520.911 
-2096.4 -947.735 520.71 
-2095.83 -946.84 519.785 
-2095.85 -946.313 519.707 
-2096.28 -947.477 520.328 
-2095.67 -947.039 520.086 
-2095.78 -945.259 519.383 
-2095.91 -945.813 519.557 
-2094.4 -947.3 520.892 
-2095.66 -945.724 519.773 
-2095.25 -945.94 520.044 
-2094.73 -946.57 520.385 
-2095.09 -946.324 520.232 
-2094.65 -946.998 520.675 
-2094.72 -947.334 520.919 
-2095.14 -947.104 520.667 
-2095.95 -947.426 520.59 
-2095.56 -946.598 519.944 
-2095.5 -946.168 519.941 
-2095.51 -947.077 520.344 
-2095.25 -946.639 520.174 
-2094.97 -946.79 520.444 
-2090.71 -962.222 530.248 
-2090.81 -961.258 531.88 
-2091.15 -960.776 534.148 
-2090.79 -961.083 531.717 
-2091.59 -959.858 536.078 
-2090.65 -959.547 532.81 
-2091.58 -960.471 535.058 
-2091.55 -958.948 538.181 
-2091.2 -957.401 538.093 
-2091.51 -959.383 536.399 
-2090.82 -958.556 534.787 
-2090.77 -958.556 533.922 
-2091.05 -958.816 534.468 
-2091.18 -958.994 535.221 
-2090.69 -956.565 535.514 
-2090.72 -957.207 536.596 
-2090.82 -955.932 536.896 
-2090.48 -958.129 533.303 
-2090.53 -957.307 533.894 
-2090.59 -958.008 533.454 
-2090.8 -958.155 534.828 
