-2397.34 -367.019 5566.08 
-2399.29 -363.848 5567.45 
-2399.63 -363.74 5567.4 
-2402.31 -362.869 5567.38 
-2403.74 -362.857 5567.43 
-2401.14 -362.721 5567.73 
-2402.66 -362.735 5567.71 
-2381.61 -405.111 5525.22 
-2385.87 -395.833 5531.59 
-2381.29 -405.353 5526.11 
-2381.25 -405.229 5527.09 
-2382.16 -402.872 5529.44 
-2377.95 -409.565 5528.99 
-2382.77 -401.228 5531.83 
-2379.59 -407.261 5534.01 
-2381.69 -403.7 5538.17 
-2381.07 -404.996 5539.7 
-2384.89 -396.525 5545.76 
-2408.48 -361.916 5570.04 
-2408.38 -361.867 5570.98 
-2408.28 -361.842 5571.44 
-2408.14 -361.738 5572.03 
-2407.5 -359.562 5570.47 
-2407.76 -360.604 5571.32 
-2408.02 -361.582 5572.06 
-2406.31 -355.447 5567.02 
-2406.56 -356.366 5567.77 
-2406.22 -354.661 5566.53 
-2406.97 -353.307 5566.75 
-2406.83 -357.358 5568.6 
-2407.08 -358.287 5569.37 
-2407.33 -359.229 5570.15 
-2403.25 -337.383 5562.65 
-2401.86 -333.51 5566.2 
-2401.06 -330.434 5569.15 
-2410.1 -343.471 5568.07 
-2406.32 -341.427 5564.65 
-2403.27 -338.808 5561.87 
-2403.46 -339.916 5561.99 
-2409.8 -349.182 5568.09 
-2410.73 -347.625 5568.44 
-2411.3 -346.052 5568.58 
-2410.57 -345.008 5568.07 
-2407.84 -351.747 5567.03 
-2408.74 -350.187 5567.34 
-2419.54 -311.848 5574.98 
-2420.3 -308.465 5576.32 
-2420.48 -304.015 5577.77 
-2420.14 -300.346 5578.91 
-2414.95 -321.937 5569.01 
-2412.41 -326.76 5565.51 
-2414.09 -322.046 5568.53 
-2405.13 -327.467 5571.8 
-2407.07 -326.604 5572.56 
-2408.73 -325.815 5573.25 
-2410.06 -325.03 5573.95 
-2403.15 -329.078 5570.38 
-2403.07 -328.216 5571.15 
-2410.71 -324.175 5574.71 
-2411.5 -323.12 5575.61 
-2413.8 -315.95 5580.12 
-2417.11 -307.424 5583.93 
-2418.49 -306.845 5583.88 
-2411.81 -320.1 5577.79 
-2418.68 -305.124 5585.07 
-2420.84 -304.595 5584.88 
-2424.47 -303.771 5584.51 
-2421.23 -304.095 5585.21 
-2423.01 -303.734 5584.96 
-2419.98 -299.473 5579.34 
-2421.57 -298.358 5580.05 
-2421.2 -298.277 5579.89 
-2423.23 -298.86 5581.08 
-2422.96 -298.465 5581.03 
-2423.24 -297.951 5581.28 
-2422.72 -297.995 5580.9 
-2422.49 -297.828 5580.75 
-2425.08 -303.077 5583.8 
-2424.28 -300.051 5582.25 
-2407.08 -362.825 5567.64 
-2407.32 -362.761 5567.52 
-2407.56 -362.663 5567.44 
-2406.5 -362.773 5568.04 
-2406.71 -362.835 5567.79 
-2407.75 -362.607 5567.32 
-2408.02 -362.477 5567.3 
-2408.41 -362.101 5567.99 
-2408.5 -361.971 5568.96 
-2391.34 -388.409 5535.4 
-2390.51 -389.117 5535.22 
-2394 -381.971 5540.89 
-2390.49 -388.467 5536.29 
-2395.86 -377.402 5544.11 
-2397.32 -370.702 5548.5 
-2396.45 -374.392 5546.45 
-2398.61 -366.592 5550.53 
-2403.55 -362.22 5551.86 
-2404.1 -362.396 5551.72 
-2405.41 -355.22 5555.19 
-2405.42 -346.649 5559.42 
-2404.71 -348.09 5558.7 
-2403.62 -347.474 5559.05 
-2404.51 -344.463 5560.26 
-2403.23 -342.944 5560.75 
-2403.27 -343.773 5560.52 
-2403.7 -343.089 5561.24 
-2407.14 -335.393 5562.92 
-2409.16 -329.638 5563.93 
-2406.69 -335.567 5562.78 
-2404.33 -342.784 5562.03 
-2403.78 -341.328 5561.89 
-2403.29 -339.972 5561.5 
-2404.45 -343.784 5561.82 
-2403.45 -339.56 5561.61 
-2403.52 -339.232 5561.71 
-2403.91 -338.976 5561.79 
-2403.67 -338.806 5561.82 
-2411 -325.939 5565.12 
-2411.74 -326.386 5565.31 
-2389.2 -389.959 5535.75 
-2405.66 -509.684 5232.26 
-2405.68 -509.553 5232.42 
-2405.7 -509.444 5232.54 
-2405.72 -509.324 5232.69 
-2405.82 -509.256 5232.83 
-2405.7 -509.096 5232.93 
-2405.68 -509.489 5232.48 
-2405.86 -509.84 5232.25 
-2405.68 -509.947 5231.99 
-2405.47 -509.946 5231.81 
-2405.45 -510.657 5231.04 
-2405.68 -510.304 5231.6 
-2405.69 -510.636 5231.25 
-2405.67 -511.012 5230.83 
-2407.77 -513.281 5229.9 
-2407.55 -512.902 5230.14 
-2407.46 -512.67 5230.33 
-2407.33 -512.375 5230.56 
-2406.99 -511.842 5230.85 
-2406.5 -510.874 5231.53 
-2406.26 -510.493 5231.75 
-2406.87 -511.544 5231.09 
-2406.8 -511.329 5231.29 
-2405.95 -509.996 5232.05 
-2405.93 -509.901 5232.15 
-2405.74 -509.764 5232.2 
-2405.94 -511.441 5230.58 
-2406.12 -511.974 5230.16 
-2406.29 -512.427 5229.81 
-2406.44 -512.839 5229.48 
-2406.74 -513.065 5229.45 
-2407 -513.213 5229.47 
-2407.62 -513.547 5229.58 
-2407.6 -513.546 5229.55 
-2408.11 -513.749 5229.71 
-2407.89 -513.28 5230.03 
-2407.75 -513.141 5230.06 
-2388.21 -387.964 5550.17 
-2386.16 -392.331 5551.39 
-2388.61 -387.002 5548.97 
-2389.1 -385.563 5551.16 
-2388.34 -387.481 5551.39 
-2388.46 -386.79 5552.04 
-2388.4 -386.637 5552.68 
-2389.97 -380.873 5556.65 
-2390.03 -380.608 5557.57 
-2392.52 -375.306 5561 
-2395.21 -370.057 5564.18 
-2395.94 -369.249 5565.06 
-2399.55 -363.142 5568.09 
-2399.26 -363.333 5567.81 
-2401.2 -362.5 5568.21 
-2401.59 -362.605 5568.01 
-2403.26 -362.791 5567.58 
-2405.98 -362.725 5568.21 
-2402.27 -362.666 5567.88 
-2405.34 -362.654 5568.38 
-2385.05 -396.919 5531.22 
-2388.93 -389.501 5536.99 
-2391.14 -386.296 5539.03 
-2385.28 -395.949 5532.97 
-2386.45 -393.318 5535.86 
-2381.27 -404.135 5533.04 
-2386.15 -394.718 5537.24 
-2387.47 -391.234 5538.65 
-2384.35 -398.592 5536.86 
-2385.12 -396.128 5543.65 
-2386.14 -393.794 5542.22 
-2388.95 -386.116 5547.77 
-2408.37 -361.911 5570.1 
-2408.25 -361.867 5570.96 
-2408.15 -361.854 5571.19 
-2407.58 -360.179 5570.94 
-2407.86 -361.274 5571.84 
-2408.03 -361.826 5571.66 
-2406.38 -356.033 5567.46 
-2406.12 -355.171 5566.73 
-2406.67 -357.067 5568.32 
-2406.01 -354.138 5566.05 
-2406.76 -352.693 5566.23 
-2406.93 -358.028 5569.12 
-2407.18 -358.98 5569.91 
-2407.44 -359.931 5570.7 
-2403.23 -337.054 5562.89 
-2401.69 -332.861 5566.77 
-2400.62 -328.818 5570.6 
-2400.83 -329.551 5569.94 
-2409.55 -343.286 5567.54 
-2405.96 -341.376 5564.28 
-2403.24 -339.049 5561.77 
-2403.36 -337.437 5562.57 
-2403.51 -340.106 5562 
-2409.66 -348.519 5567.63 
-2410.63 -346.845 5567.99 
-2410.37 -345.872 5567.59 
-2409.69 -344.644 5567.24 
-2409.05 -343.152 5567.04 
-2407.67 -351.081 5566.53 
-2408.55 -349.586 5566.86 
-2418.42 -312.205 5574.29 
-2420.09 -304.361 5577.42 
-2419.7 -304.638 5577.1 
-2419.67 -300.538 5578.79 
-2419.51 -299.673 5579.22 
-2413.32 -321.713 5568.29 
-2417.31 -311.931 5573.85 
-2402.61 -327.359 5571.92 
-2404.77 -326.515 5572.66 
-2406.48 -325.613 5573.46 
-2407.93 -324.671 5574.29 
-2408.86 -323.648 5575.2 
-2409.72 -322.631 5576.09 
-2411.92 -315.689 5580.71 
-2415.83 -307.296 5584.37 
-2417.05 -305.435 5585.28 
-2410.14 -320.17 5577.9 
-2417.31 -304.914 5585.68 
-2419.22 -304.56 5585.41 
-2424.83 -303.233 5584.85 
-2419.8 -303.933 5585.71 
-2421.74 -303.489 5585.54 
-2423.38 -303.162 5585.3 
-2420.48 -298.468 5579.71 
-2422.25 -297.643 5580.59 
-2421.9 -297.514 5580.35 
-2424.47 -299.838 5582.68 
-2423.58 -298.235 5581.48 
-2424.08 -297.583 5581.92 
-2423.92 -297.264 5581.85 
-2423.46 -297.284 5581.51 
-2423.23 -297.038 5581.37 
-2407.72 -362.37 5568.16 
-2407.49 -362.451 5568.26 
-2407.98 -362.25 5568.12 
-2408.23 -362.149 5568.08 
-2407.29 -362.417 5568.72 
-2407.43 -362.404 5568.52 
-2408.39 -361.965 5569.06 
-2393.37 -383.133 5540.3 
-2394.89 -378.206 5544.19 
-2392.87 -383.204 5541.05 
-2395.36 -375.088 5546.44 
-2396.42 -370.114 5549.19 
-2396.7 -366.858 5550.48 
-2395.8 -370.556 5549.25 
-2395.74 -374.021 5547.16 
-2398.07 -366.535 5550.69 
-2402.95 -362.056 5552.02 
-2404.28 -356.746 5554.56 
-2404.88 -356.074 5554.85 
-2403.54 -348.923 5558.34 
-2403.92 -344.809 5560.16 
-2403.62 -345.525 5559.9 
-2403.37 -345.59 5560.04 
-2403.7 -347.005 5560.19 
-2403.28 -344.676 5560.22 
-2403.98 -344.172 5561.18 
-2403.84 -345.007 5560.75 
-2409.35 -328.15 5564.58 
-2406.28 -335.447 5562.76 
-2408.08 -326.995 5566.23 
-2404.83 -342.779 5562.57 
-2404.11 -341.427 5562.24 
-2403.22 -340.141 5561.46 
-2404.98 -343.633 5562.45 
-2403.43 -339.411 5561.66 
-2405.36 -344.53 5562.57 
-2404.93 -344.912 5561.96 
-2403.85 -338.07 5562.03 
-2403.68 -338.554 5561.89 
-2403.99 -338.363 5561.95 
-2403.93 -337.919 5562.06 
-2409.7 -323.121 5567.5 
-2411.49 -320.817 5567.9 
-2412.46 -321.31 5568.05 
-2405.74 -509.635 5232.35 
-2405.89 -509.614 5232.47 
-2405.85 -509.46 5232.61 
-2405.81 -509.314 5232.75 
-2406.03 -509.647 5232.56 
-2406.09 -509.661 5232.6 
-2405.95 -509.435 5232.75 
-2406.11 -509.722 5232.58 
-2406.12 -510.136 5232.14 
-2405.92 -510.232 5231.88 
-2405.61 -510.078 5231.79 
-2405.97 -510.638 5231.48 
-2405.95 -510.996 5231.07 
-2407.63 -512.85 5230.29 
-2407.58 -512.675 5230.46 
-2407.21 -512.091 5230.78 
-2406.56 -510.88 5231.59 
-2406.31 -510.469 5231.83 
-2407.1 -511.813 5231.01 
-2407.15 -511.794 5231.09 
-2406.86 -511.3 5231.39 
-2405.92 -509.797 5232.26 
-2406.29 -510.347 5231.96 
-2406.18 -511.348 5230.89 
-2406.3 -511.777 5230.52 
-2406.48 -512.271 5230.13 
-2406.74 -512.785 5229.79 
-2406.86 -513.109 5229.52 
-2407.12 -513.264 5229.54 
-2407.37 -513.403 5229.56 
-2407.84 -513.658 5229.65 
-2408.19 -513.779 5229.77 
-2407.93 -513.258 5230.11 
-2390.3 -381.384 5552.4 
-2390.2 -381.35 5553.23 
-2390.54 -380.788 5552.02 
-2389.75 -382.302 5553.91 
-2390.76 -379.044 5555.67 
-2389.99 -381.105 5555.68 
-2391.99 -375.286 5559.99 
-2392.34 -375.068 5560.63 
-2395.18 -369.5 5564 
-2399.14 -363.327 5568.07 
-2398.75 -363.673 5567.89 
-2401 -362.464 5568.4 
-2402.14 -362.312 5569.12 
-2403.22 -362.372 5569.08 
-2404.28 -362.431 5569.03 
-2403.8 -362.511 5568.66 
-2404.61 -362.581 5568.53 
-2407.12 -362.444 5568.89 
-2406.81 -362.476 5569.03 
-2387.77 -391.034 5536.38 
-2391.33 -384.319 5541.73 
-2392.18 -382.829 5542.25 
-2393.02 -380.671 5543.25 
-2389.76 -386.894 5540.1 
-2389.88 -385.96 5541.63 
-2387.81 -389.28 5542.33 
-2389.29 -386.147 5542.95 
-2390.6 -382.665 5545.61 
-2388.94 -386.186 5546.21 
-2390.07 -383.274 5547.51 
-2390.66 -380.107 5551.69 
-2408.27 -361.916 5570 
-2408.15 -361.904 5570.19 
-2407.69 -360.847 5571.46 
-2407.88 -361.689 5571.95 
-2408.03 -361.877 5570.7 
-2406.52 -356.817 5568.08 
-2406.29 -356.014 5567.4 
-2406.1 -355.501 5566.95 
-2405.89 -354.527 5566.17 
-2406.78 -357.786 5568.88 
-2405.81 -353.547 5565.56 
-2406.65 -351.992 5565.78 
-2407.02 -358.678 5569.62 
-2407.3 -359.731 5570.5 
-2407.6 -360.796 5571.39 
-2401.73 -332.772 5566.81 
-2400.37 -328.301 5571.06 
-2405.69 -341.346 5563.99 
-2403.26 -339.949 5561.74 
-2403.36 -338.838 5561.84 
-2403.47 -338.338 5561.99 
-2402.97 -335.846 5563.88 
-2409.69 -347.694 5567.3 
-2409.77 -346.861 5567 
-2409.61 -345.595 5566.83 
-2408.87 -344.388 5566.43 
-2408.63 -343.042 5566.63 
-2407.5 -350.358 5566.01 
-2408.69 -348.701 5566.61 
-2419.24 -304.57 5576.91 
-2419.09 -300.754 5578.66 
-2419.12 -299.934 5579.07 
-2419.47 -298.932 5579.51 
-2415.81 -311.933 5573.23 
-2418.61 -304.658 5576.67 
-2402.35 -326.51 5572.69 
-2403.9 -325.624 5573.47 
-2405.23 -324.834 5574.16 
-2406.28 -323.926 5574.97 
-2407.01 -323.068 5575.73 
-2407.8 -322.137 5576.56 
-2410.16 -314.14 5582.04 
-2413.2 -307.823 5584.81 
-2414.63 -307.17 5584.79 
-2409.71 -317.543 5579.79 
-2415.51 -305.416 5585.78 
-2408.14 -320.751 5577.65 
-2416.15 -304.647 5586.14 
-2417.98 -304.268 5585.93 
-2425.01 -302.672 5585.15 
-2419.78 -303.063 5585.53 
-2421.54 -302.729 5585.33 
-2423.61 -302.098 5585.03 
-2424.59 -302.135 5585.05 
-2421.41 -297.496 5580.11 
-2422.88 -296.922 5581.12 
-2422.57 -296.789 5580.9 
-2424.72 -299.598 5583.19 
-2424.91 -297.205 5582.95 
-2424.85 -296.833 5582.78 
-2424.85 -296.486 5582.74 
-2424.66 -296.293 5582.55 
-2424.24 -296.359 5582.22 
-2424.33 -295.901 5582.36 
-2423.91 -296.018 5582.09 
-2408.01 -362.036 5568.89 
-2408.16 -361.971 5569.1 
-2407.93 -362 5569.2 
-2408.28 -361.972 5568.94 
-2407.69 -361.996 5569.57 
-2407.81 -361.993 5569.41 
-2393.86 -380.09 5543.16 
-2394.61 -375.936 5546.37 
-2393.81 -377.849 5545.14 
-2395.01 -374.586 5547.12 
-2395.07 -371.456 5549.08 
-2394.64 -372.18 5549.04 
-2395.26 -367.498 5550.61 
-2396.02 -366.891 5550.64 
-2397.45 -366.59 5550.85 
-2402.18 -362.293 5552.1 
-2403.6 -357.728 5554.12 
-2403.31 -352.287 5556.5 
-2403.45 -350.289 5557.55 
-2403.49 -347.899 5560.37 
-2404.13 -346.154 5560.69 
-2404.03 -347.602 5560.79 
-2403.62 -348.091 5560.58 
-2404.55 -345.435 5561.38 
-2405.73 -335.75 5562.68 
-2406.48 -328.279 5566.53 
-2406.64 -321.586 5570.82 
-2409.28 -319.696 5570.18 
-2405.41 -343.189 5563.07 
-2404.72 -341.742 5562.8 
-2403.24 -339.969 5561.51 
-2405.76 -344.3 5563.07 
-2403.59 -338.789 5561.83 
-2403.47 -339.129 5561.74 
-2405.79 -345.568 5562.68 
-2405.35 -346.104 5562.03 
-2403.78 -336.431 5563.01 
-2403.73 -336.513 5562.99 
-2403.8 -338.066 5562.03 
-2404.87 -335.906 5562.8 
-2403.82 -336.198 5563.16 
-2403.81 -336.267 5563.11 
-2414.14 -311.809 5572.61 
-2412.77 -312.328 5572.22 
-2405.89 -509.669 5232.39 
-2406.18 -510.095 5232.16 
-2406.28 -510.186 5232.16 
-2406.16 -509.927 5232.35 
-2406.24 -509.961 5232.39 
-2406.29 -509.97 5232.44 
-2406.32 -510.013 5232.43 
-2406.51 -510.364 5232.21 
-2406.2 -510.511 5231.8 
-2406.03 -510.464 5231.71 
-2406.26 -510.992 5231.34 
-2407.82 -512.996 5230.31 
-2407.69 -512.713 5230.53 
-2407.41 -512.323 5230.71 
-2406.61 -510.834 5231.7 
-2407.47 -512.299 5230.81 
-2407.31 -511.931 5231.09 
-2407.02 -511.468 5231.36 
-2406.39 -510.434 5231.97 
-2406.47 -511.481 5230.97 
-2406.62 -512.023 5230.51 
-2406.86 -512.474 5230.23 
-2407.13 -512.926 5229.96 
-2407.23 -513.29 5229.63 
-2407.26 -513.328 5229.59 
-2407.53 -513.484 5229.62 
-2407.98 -513.72 5229.72 
-2408.31 -513.848 5229.81 
-2408.1 -513.426 5230.08 
-2391.74 -376.418 5555.61 
-2391.49 -376.997 5556.02 
-2392.25 -374.156 5558.77 
-2391.62 -376.589 5554.76 
-2391.06 -377.691 5557.58 
-2392.35 -373.758 5559.81 
-2392.88 -372.861 5560.98 
-2395.48 -367.68 5564.09 
-2395.04 -369.198 5563.69 
-2398.74 -363.361 5567.29 
-2398.94 -363.206 5567.82 
-2402.11 -362.183 5569.6 
-2403.27 -362.23 5569.6 
-2404.95 -362.279 5569.7 
-2406 -362.333 5569.65 
-2406.76 -362.317 5569.6 
-2406.18 -362.475 5569.13 
-2407.54 -362.026 5569.67 
-2407.34 -362.097 5569.72 
-2391.46 -379.82 5547 
-2391.73 -378.702 5547.53 
-2392.08 -377.294 5548.08 
-2392.57 -375.692 5548.67 
-2391.17 -380.49 5546.92 
-2390.93 -379.958 5548.25 
-2390.57 -381.594 5548.56 
-2390.81 -379.212 5550.49 
-2391.27 -376.172 5552.87 
-2391.28 -377.171 5553.52 
-2392.58 -372.882 5557.04 
-2407.74 -361.549 5571.94 
-2407.89 -361.847 5571.26 
-2408 -361.909 5570.06 
-2406.37 -356.612 5567.86 
-2406.61 -357.429 5568.55 
-2406.15 -356.022 5567.34 
-2405.88 -354.839 5566.38 
-2405.63 -353.814 5565.55 
-2406.86 -358.429 5569.37 
-2405.69 -352.861 5565.09 
-2406.39 -351.483 5565.26 
-2407.12 -359.285 5570.1 
-2407.48 -360.566 5571.16 
-2407.29 -360.102 5570.75 
-2400.12 -327.422 5571.85 
-2401.21 -331.25 5568.21 
-2407.98 -342.79 5566 
-2404.66 -340.977 5563 
-2403.16 -339.649 5561.61 
-2403.46 -338.639 5561.89 
-2403.5 -337.249 5562.61 
-2403.37 -336.94 5562.89 
-2401.61 -332.095 5567.37 
-2408.81 -347.793 5566.33 
-2409.24 -346.469 5566.3 
-2408.77 -345.302 5566.02 
-2408.01 -344.064 5565.6 
-2407.42 -342.627 5565.44 
-2406.82 -350.27 5565.2 
-2407.85 -349.158 5565.86 
-2418.51 -300.666 5578.67 
-2418.54 -299.753 5579.14 
-2419.46 -298.601 5579.6 
-2417.04 -304.846 5576.08 
-2417.87 -304.763 5576.39 
-2418.13 -301.038 5578.47 
-2401.53 -325.697 5573.42 
-2402.12 -324.824 5574.2 
-2403.88 -324.153 5574.79 
-2403.99 -323.247 5575.6 
-2405.48 -322.467 5576.28 
-2405.1 -321.647 5577.02 
-2408.41 -314.049 5582.38 
-2410.6 -307.496 5585.73 
-2412.06 -307.145 5585.52 
-2407.93 -317.569 5579.94 
-2413.63 -305.702 5586.09 
-2414.57 -305.049 5586.31 
-2406.58 -320.698 5577.8 
-2416.04 -303.754 5585.93 
-2417.96 -303.399 5585.72 
-2425.09 -302.005 5585.23 
-2420.32 -301.988 5585.12 
-2422.01 -301.682 5584.94 
-2423.4 -301.452 5584.83 
-2423.97 -301.208 5584.96 
-2424.53 -301.554 5585.12 
-2421.21 -297.287 5580.09 
-2422.31 -296.627 5580.73 
-2423.65 -295.739 5582.06 
-2423.32 -295.352 5581.97 
-2425.08 -299.808 5583.95 
-2425.23 -297.367 5583.61 
-2425.71 -294.916 5583.74 
-2425.62 -294.706 5583.52 
-2425.56 -294.209 5583.28 
-2425.5 -293.672 5583.03 
-2425.46 -292.995 5582.76 
-2425.38 -292.209 5582.56 
-2425.17 -291.99 5582.44 
-2425.01 -291.645 5582.32 
-2407.87 -361.886 5570.48 
-2407.65 -361.875 5570.65 
-2407.75 -361.872 5570.75 
-2393.58 -373.526 5549.04 
-2394.12 -372.588 5549.15 
-2393.11 -374.628 5548.94 
-2393.58 -368.3 5550.77 
-2394.58 -367.289 5550.93 
-2401.01 -363.339 5552.14 
-2395.58 -366.706 5551.47 
-2403.13 -357.802 5554.3 
-2403.25 -354.325 5555.97 
-2403.54 -349.079 5560.27 
-2403.56 -350.655 5559.61 
-2403.75 -348.869 5561.19 
-2404.79 -346.634 5561.34 
-2404.94 -347.388 5561.73 
-2404.05 -348.504 5561.23 
-2403.82 -348.752 5561.14 
-2404.61 -326.186 5569.29 
-2405.11 -319.727 5573.21 
-2410.25 -314.048 5574.27 
-2411.84 -312.289 5573.49 
-2406.02 -343.639 5563.58 
-2405.9 -342.971 5563.68 
-2405.44 -342.011 5563.5 
-2403.19 -340.415 5561.49 
-2403.3 -339.671 5561.59 
-2406.43 -344.703 5563.67 
-2406.5 -345.606 5563.44 
-2403.71 -338.248 5561.99 
-2403.49 -338.96 5561.79 
-2405.75 -346.932 5562.47 
-2406.38 -346.579 5563.12 
-2402.46 -332.67 5566.47 
-2402.09 -331.909 5567.23 
-2403.73 -336.595 5562.92 
-2402.27 -332.576 5566.65 
-2403.69 -336.685 5562.89 
-2404.24 -335.584 5563.29 
-2403.11 -331.603 5566.74 
-2402.03 -331.338 5567.68 
-2416.2 -304.756 5575.83 
-2414.51 -305.316 5575.74 
-2406.57 -510.645 5231.89 
-2406.4 -510.285 5232.16 
-2406.45 -510.275 5232.23 
-2406.46 -510.799 5231.7 
-2406.75 -510.734 5232 
-2406.68 -510.613 5232.06 
-2406.61 -511.195 5231.4 
-2407.96 -513.117 5230.32 
-2407.79 -512.78 5230.56 
-2406.84 -511.106 5231.61 
-2407.59 -512.386 5230.83 
-2407.43 -512.018 5231.11 
-2407.15 -511.569 5231.38 
-2406.75 -511.757 5230.91 
-2406.98 -512.187 5230.63 
-2407.23 -512.611 5230.38 
-2407.52 -513.026 5230.16 
-2407.46 -513.326 5229.79 
-2407.75 -513.581 5229.73 
-2407.66 -513.541 5229.68 
-2408.09 -513.768 5229.77 
-2408.43 -513.899 5229.87 
-2408.22 -513.502 5230.12 
-2392.89 -372.254 5559.36 
-2393.16 -371.567 5559.12 
-2392.95 -372.013 5558.24 
-2394.63 -367.882 5562.59 
-2394.52 -368.553 5562.66 
-2394.99 -368.125 5563.35 
-2396.8 -364.915 5565.24 
-2398.68 -363.451 5566.84 
-2398.45 -363.645 5566.21 
-2402.54 -362.168 5569.77 
-2404.66 -362.138 5570.17 
-2406.06 -362.182 5570.21 
-2407.04 -362.053 5570.35 
-2407.24 -361.981 5570.32 
-2407.42 -361.919 5570.38 
-2407.53 -361.867 5570.78 
-2391.27 -374.615 5552.43 
-2391.22 -373.635 5551.92 
-2391.6 -371.817 5551.77 
-2392 -370.244 5551.45 
-2391.44 -374.903 5553.09 
-2391.69 -375.319 5554.34 
-2392.34 -372.105 5555.83 
-2392.27 -371.119 5555.44 
-2392.89 -371.183 5557.66 
-2394.08 -368.173 5560.34 
-2394.57 -367.38 5559.83 
-2407.54 -361.079 5571.56 
-2407.75 -361.796 5571.71 
-2406.41 -357.075 5568.21 
-2406.65 -357.875 5568.89 
-2406.26 -356.769 5567.93 
-2406.03 -355.953 5567.24 
-2405.9 -355.226 5566.67 
-2405.67 -354.301 5565.91 
-2405.42 -353.379 5565.14 
-2405.39 -352.828 5564.76 
-2407.04 -359.296 5570.07 
-2406.84 -358.765 5569.6 
-2405.77 -351.533 5564.57 
-2407.34 -360.631 5571.15 
-2407.1 -359.801 5570.45 
-2399.83 -327.025 5572.19 
-2403.76 -340.586 5562.13 
-2403.25 -339.467 5561.66 
-2403.59 -338.658 5561.97 
-2403.48 -336.902 5562.86 
-2402.07 -333.097 5566.38 
-2399.71 -325.908 5573.21 
-2400.59 -329.299 5569.99 
-2408.34 -347.635 5565.72 
-2408.53 -346.42 5565.51 
-2408.07 -345.124 5565.31 
-2407.3 -344.065 5564.83 
-2406.46 -342.363 5564.49 
-2406.8 -342.36 5564.86 
-2406.44 -349.875 5564.58 
-2407.41 -348.925 5565.25 
-2418.09 -299.535 5579.2 
-2419.69 -298.11 5579.74 
-2417.65 -301.393 5578.27 
-2417.16 -301.41 5578.22 
-2417.56 -299.961 5578.98 
-2399.46 -325.063 5573.98 
-2401.56 -323.896 5575.04 
-2401.3 -322.975 5575.87 
-2403.05 -322.289 5576.47 
-2402.75 -321.267 5577.39 
-2404.74 -320.656 5577.92 
-2409.03 -308.005 5585.88 
-2406.06 -318.226 5579.65 
-2406.8 -313.995 5582.57 
-2410.07 -305.956 5586.85 
-2411.78 -305.829 5586.54 
-2413.37 -305.006 5586.46 
-2414.69 -303.68 5585.96 
-2417.06 -302.457 5585.43 
-2418.54 -302.321 5585.32 
-2424.98 -301.544 5585.39 
-2420.99 -300.914 5584.71 
-2422.55 -300.666 5584.62 
-2423.28 -300.751 5584.77 
-2423.72 -300.68 5585.08 
-2424.32 -301.051 5585.25 
-2421.88 -296.541 5580.46 
-2422.86 -295.205 5581.78 
-2424.5 -291.891 5582.28 
-2424.84 -291.276 5582.24 
-2424.3 -291.529 5582.23 
-2425.23 -299.471 5584.19 
-2425.88 -295.809 5584.43 
-2425.74 -295.702 5584.18 
-2426.71 -291.803 5583.25 
-2427.02 -290.907 5583.04 
-2427.04 -290.623 5582.82 
-2426.78 -290.749 5582.68 
-2426.79 -289.87 5582.43 
-2426.83 -288.904 5582.18 
-2426.28 -289.002 5582.09 
-2426.21 -288.488 5581.99 
-2426.02 -287.293 5581.96 
-2407.5 -361.743 5571.74 
-2407.61 -361.798 5571.67 
-2407.61 -361.602 5571.86 
-2392.69 -368.528 5551.2 
-2396 -366.406 5552.19 
-2401.59 -362.973 5552.75 
-2403.35 -358.864 5554.56 
-2393.28 -367.209 5552.21 
-2403.62 -356.313 5556.26 
-2403.49 -353.637 5557.69 
-2403.92 -349.698 5561.84 
-2403.83 -351.131 5560.89 
-2403.98 -349.588 5561.8 
-2404.78 -348.328 5561.97 
-2404.15 -349.405 5561.78 
-2404.03 -349.419 5561.71 
-2403.14 -319.447 5574.86 
-2402.16 -327.285 5570.32 
-2408.64 -314.347 5575.8 
-2408.55 -307.115 5581.97 
-2405.35 -310.006 5583.24 
-2406.54 -343.612 5564.15 
-2405.98 -342.189 5564.03 
-2403.33 -340.449 5561.65 
-2403.35 -339.406 5561.68 
-2407.08 -344.95 5564.3 
-2406.87 -345.391 5563.91 
-2406.59 -347.212 5563.53 
-2407.29 -346.198 5564.14 
-2403.66 -336.834 5562.8 
-2403.65 -338.326 5561.97 
-2405.54 -348.016 5562.71 
-2401.09 -329.072 5569.86 
-2400.72 -328.486 5570.5 
-2400.39 -327.439 5571.45 
-2400.78 -328.838 5570.21 
-2402.25 -332.738 5566.54 
-2400.53 -326.945 5571.71 
-2400.04 -326.182 5572.56 
-2416.53 -301.832 5577.79 
-2413.54 -303.398 5578.53 
-2406.89 -511.091 5231.69 
-2406.65 -510.665 5231.96 
-2406.96 -511.091 5231.79 
-2406.88 -510.966 5231.83 
-2406.87 -511.478 5231.3 
-2408.06 -513.166 5230.37 
-2407.86 -512.788 5230.62 
-2407.7 -512.459 5230.86 
-2407.64 -512.27 5231.03 
-2407.38 -511.851 5231.28 
-2407.13 -511.437 5231.52 
-2407.09 -511.867 5231.07 
-2407.32 -512.262 5230.83 
-2407.57 -512.657 5230.6 
-2407.83 -513.09 5230.34 
-2407.82 -513.516 5229.88 
-2408.14 -513.786 5229.82 
-2408.52 -513.936 5229.93 
-2408.32 -513.551 5230.17 
-2394.53 -367.705 5562.16 
-2394.77 -367.605 5561.39 
-2395.92 -366.068 5563.24 
-2396.21 -365.67 5563.91 
-2396.48 -365.297 5564.56 
-2398.2 -363.994 5565.47 
-2402.42 -362.338 5569.32 
-2400.69 -362.941 5567.33 
-2405.08 -362.051 5570.55 
-2406.79 -361.986 5570.82 
-2407.12 -361.896 5570.91 
-2407.2 -361.777 5571.53 
-2407.31 -361.83 5571.4 
-2407.35 -361.751 5571.64 
-2407.39 -361.656 5571.77 
-2391.81 -370.478 5553.81 
-2392.05 -370.749 5554.64 
-2391.88 -369.401 5553.28 
-2392.32 -368.007 5552.88 
-2392.9 -370.18 5557.48 
-2393.52 -367.348 5557.41 
-2394.13 -367.042 5558.26 
-2393.34 -367.069 5556.7 
-2394.75 -366.927 5559.15 
-2397.28 -366.341 5560.75 
-2400.19 -364.787 5560.57 
-2406.58 -357.918 5568.88 
-2406.43 -357.644 5568.62 
-2406.19 -356.835 5567.94 
-2405.94 -355.972 5567.22 
-2405.77 -355.071 5566.5 
-2405.56 -354.159 5565.76 
-2405.34 -353.534 5565.22 
-2405.19 -352.756 5564.6 
-2405.18 -352.38 5564.33 
-2406.94 -359.453 5570.13 
-2406.7 -358.614 5569.43 
-2405.4 -351.248 5564.02 
-2407.18 -360.358 5570.88 
-2407.4 -361.159 5571.55 
-2403.48 -340.493 5561.84 
-2403.27 -339.389 5561.65 
-2403.56 -336.986 5562.75 
-2403.5 -338.398 5561.88 
-2401.9 -332.452 5566.94 
-2400.42 -328.656 5570.55 
-2407.59 -347.93 5565 
-2407.67 -347.037 5564.69 
-2407.79 -345.719 5564.81 
-2405.63 -350.245 5563.82 
-2406.63 -348.77 5564.29 
-2418.4 -298.726 5579.48 
-2420.79 -297.071 5580.09 
-2417.04 -299.925 5578.97 
-2416.54 -300.304 5578.81 
-2399.23 -324.298 5574.67 
-2399.02 -323.618 5575.27 
-2400.73 -321.954 5576.79 
-2400.72 -320.878 5577.75 
-2403.17 -320.134 5578.4 
-2407.59 -308.054 5586.23 
-2408.51 -306.039 5587.04 
-2404.82 -317.226 5580.47 
-2405.59 -312.574 5583.69 
-2411.04 -304.726 5586.49 
-2412.21 -304.857 5586.49 
-2413.54 -303.491 5585.95 
-2415.86 -302.333 5585.44 
-2419.57 -301.022 5584.81 
-2418.25 -301.112 5584.9 
-2424.65 -300.938 5585.5 
-2425.25 -301.397 5585.63 
-2421.5 -299.82 5584.37 
-2422.24 -300.042 5584.51 
-2422.6 -300.006 5584.74 
-2423.13 -300.285 5584.92 
-2423.37 -300.096 5585.16 
-2424.02 -300.474 5585.36 
-2422.44 -294.766 5581.84 
-2424.07 -291.362 5582.2 
-2425.6 -286.585 5581.88 
-2425.37 -285.657 5581.9 
-2425.4 -299.107 5584.43 
-2426.08 -297.034 5585.15 
-2426.1 -293.72 5584.03 
-2426.85 -291.808 5583.39 
-2427.98 -289.072 5583.04 
-2427.9 -288.978 5582.8 
-2428 -288.266 5582.55 
-2427.72 -288.732 5582.39 
-2427.62 -288.134 5582.25 
-2427.43 -287.654 5582.2 
-2426.9 -288.429 5582.11 
-2426.76 -287.481 5582.11 
-2426.4 -286.145 5582.09 
-2407.27 -360.997 5571.37 
-2401.11 -363.518 5553.15 
-2403.73 -359.409 5555.25 
-2394.5 -366.403 5553.02 
-2403.92 -357.055 5556.97 
-2403.75 -354.507 5558.68 
-2404.17 -350.441 5562.49 
-2404.15 -350.655 5562.63 
-2404.06 -351.798 5561.83 
-2404.21 -350.268 5562.39 
-2404.56 -349.457 5562.25 
-2404.4 -350.396 5562.57 
-2404.26 -350.124 5562.31 
-2400.98 -322.628 5574.3 
-2402.14 -316.664 5577.62 
-2407.05 -314.067 5577.02 
-2403.34 -310.253 5584.11 
-2403.47 -308.972 5585.98 
-2404.83 -307.481 5586.95 
-2406.48 -305.578 5586.69 
-2400.82 -311.712 5584.67 
-2406.68 -347.868 5563.93 
-2405.53 -348.806 5563.05 
-2403.62 -336.935 5562.75 
-2402.34 -333.195 5566.15 
-2399.58 -325.151 5573.58 
-2399.1 -324.195 5574.55 
-2399.21 -324.673 5574.14 
-2398.51 -322.493 5576.12 
-2399.39 -325.347 5573.54 
-2400.89 -329.319 5569.8 
-2398.63 -321.834 5576.5 
-2399.55 -321.774 5575.89 
-2398.26 -321.612 5576.9 
-2416.18 -300.828 5578.49 
-2414.28 -302.387 5578.47 
-2407.93 -304.319 5585.69 
-2407.21 -511.468 5231.58 
-2407.1 -511.288 5231.67 
-2408.15 -513.21 5230.41 
-2407.97 -512.871 5230.64 
-2407.91 -512.694 5230.8 
-2407.81 -512.45 5231 
-2407.57 -512.055 5231.22 
-2407.33 -511.667 5231.45 
-2407.44 -511.852 5231.36 
-2407.67 -512.228 5231.14 
-2407.9 -512.605 5230.92 
-2408.13 -512.966 5230.72 
-2408.11 -513.479 5230.16 
-2408.24 -513.82 5229.89 
-2408.62 -513.976 5229.99 
-2408.4 -513.551 5230.25 
-2395.95 -366.34 5562.5 
-2396.63 -366.358 5561.65 
-2397.73 -364.925 5563.43 
-2397.83 -364.653 5564.15 
-2398 -364.343 5564.79 
-2400.67 -363.187 5566.69 
-2402.93 -362.491 5569.03 
-2404.88 -361.996 5570.75 
-2406.78 -361.897 5571.22 
-2406.91 -361.544 5571.54 
-2407.03 -361.727 5571.58 
-2407.04 -361.469 5571.58 
-2406.99 -360.976 5571.23 
-2407.16 -361.315 5571.55 
-2407.14 -360.896 5571.25 
-2393.17 -366.619 5555.18 
-2393.18 -366.847 5555.93 
-2393.5 -366.247 5554.53 
-2393.73 -366.29 5553.84 
-2400.79 -364.31 5557.45 
-2400.44 -364.7 5558.06 
-2400.79 -364.549 5559.02 
-2400.38 -364.394 5556.57 
-2400.64 -364.806 5559.61 
-2399.02 -364.928 5561.87 
-2399.79 -364.883 5561 
-2403.22 -362.627 5561.72 
-2403.38 -362.681 5563.28 
-2401.61 -363.5 5563.25 
-2406.57 -358.425 5569.24 
-2406.36 -357.721 5568.64 
-2406.12 -356.86 5567.92 
-2405.88 -356.09 5567.27 
-2405.72 -355.26 5566.61 
-2405.53 -354.419 5565.93 
-2405.31 -353.787 5565.38 
-2405.13 -352.942 5564.7 
-2404.99 -352.22 5564.13 
-2404.95 -351.717 5563.76 
-2407.04 -360.181 5570.69 
-2406.82 -359.323 5569.98 
-2402.15 -332.925 5566.46 
-2400.24 -327.977 5571.15 
-2404.86 -350.776 5563.19 
-2405.68 -349.38 5563.48 
-2419.35 -297.687 5579.95 
-2417.25 -298.975 5579.56 
-2421.54 -295.918 5580.76 
-2416.54 -299.254 5579.63 
-2398.72 -323.021 5575.81 
-2398.57 -322.015 5576.72 
-2398.32 -321.233 5577.43 
-2400.55 -319.97 5578.57 
-2402.63 -319.043 5579.33 
-2406.17 -307.683 5586.82 
-2407.31 -305.858 5587.05 
-2409.75 -304.711 5586.54 
-2403.81 -315.545 5581.75 
-2404.25 -311.256 5584.74 
-2412.4 -303.321 5585.94 
-2414.75 -302.112 5585.41 
-2417.06 -301.013 5584.92 
-2420.7 -299.614 5584.29 
-2419.35 -299.858 5584.41 
-2424.52 -300.453 5585.67 
-2425.09 -300.895 5585.79 
-2425.57 -301.05 5585.63 
-2421.18 -299.053 5584.37 
-2421.83 -299.474 5584.55 
-2422.17 -299.38 5584.8 
-2422.77 -299.693 5585 
-2422.92 -299.373 5585.26 
-2423.49 -299.841 5585.36 
-2423.97 -300.016 5585.56 
-2422.31 -293.666 5582.51 
-2423.71 -290.393 5582.07 
-2423.87 -291.097 5582.14 
-2425.02 -285.825 5581.87 
-2425.94 -285.285 5582.08 
-2425.58 -283.381 5582.48 
-2425.54 -298.197 5584.44 
-2426.24 -297.212 5585.49 
-2426.34 -293.742 5584.49 
-2427.42 -291.06 5583.56 
-2428.15 -289.005 5583.26 
-2428.43 -287.601 5583.06 
-2428.31 -287.499 5582.79 
-2428.27 -286.651 5582.59 
-2428.05 -286.82 5582.4 
-2427.87 -286.092 5582.28 
-2427.36 -286.371 5582.2 
-2427.02 -285.173 5582.31 
-2426.53 -283.737 5582.53 
-2426.06 -283.252 5582.6 
-2401.59 -363.093 5553.9 
-2404.19 -359.024 5556.58 
-2404.09 -357.002 5558.48 
-2404.06 -353.906 5560.78 
-2404.41 -351.133 5563.09 
-2404.38 -351.358 5563.24 
-2404.36 -351.69 5563.38 
-2404.45 -350.931 5562.97 
-2404.64 -350.272 5562.71 
-2404.61 -351.072 5563.14 
-2404.65 -351.502 5563.46 
-2400.04 -317.16 5578.73 
-2405.75 -313.849 5577.94 
-2402.12 -311.029 5583.83 
-2399.13 -313.361 5583.61 
-2402.44 -311.644 5584.64 
-2408.53 -304.565 5586.54 
-2400.88 -315.079 5582.35 
-2399.14 -316.176 5581.73 
-2401.05 -329.927 5569.27 
-2397.57 -319.173 5579.27 
-2397.84 -320.028 5578.5 
-2398.09 -320.514 5578.07 
-2397.38 -318.357 5580.01 
-2399.65 -326.245 5572.74 
-2397.31 -316.456 5581.43 
-2398.19 -316.807 5580.21 
-2397.68 -315.31 5581.98 
-2397.18 -317.371 5580.88 
-2416.15 -299.925 5579.29 
-2414.18 -301.72 5579.29 
-2408.94 -303.13 5585.64 
-2409.63 -303.343 5586.06 
-2408.21 -513.176 5230.51 
-2408.08 -512.878 5230.75 
-2408.37 -513.328 5230.53 
-2408.34 -513.286 5230.53 
-2408.55 -513.702 5230.27 
-2408.7 -514.007 5230.04 
-2408.49 -513.596 5230.3 
-2398.36 -364.926 5562.64 
-2400.51 -363.58 5565.09 
-2400.35 -363.762 5564.18 
-2400.67 -363.398 5566.01 
-2403.21 -362.67 5568.58 
-2405.69 -361.963 5571.03 
-2406.75 -361.787 5571.48 
-2406.74 -361.198 5571.28 
-2406.65 -360.561 5570.78 
-2406.82 -360.926 5571.12 
-2406.79 -360.491 5570.8 
-2406.75 -360.031 5570.46 
-2406.94 -360.44 5570.83 
-2406.9 -359.98 5570.49 
-2401.68 -363.492 5555.07 
-2401.04 -363.985 5555.78 
-2401.76 -363.164 5554.46 
-2404.62 -361.748 5557.83 
-2404.88 -361.485 5559.5 
-2403.92 -362.209 5560.02 
-2404.88 -361.807 5561.84 
-2401.4 -363.557 5564.24 
-2405.37 -361.61 5563.68 
-2405.62 -361.559 5565.28 
-2403.72 -362.656 5564.9 
-2406.68 -359.099 5569.76 
-2406.48 -358.549 5569.28 
-2406.27 -357.714 5568.6 
-2406.05 -356.905 5567.92 
-2405.86 -356.372 5567.46 
-2405.67 -355.498 5566.76 
-2405.5 -354.657 5566.08 
-2405.27 -353.989 5565.51 
-2405.07 -353.074 5564.77 
-2404.87 -352.121 5564 
-2404.77 -351.431 5563.47 
-2420.98 -295.847 5580.97 
-2418.25 -297.826 5580.22 
-2416.37 -298.703 5580.18 
-2417.32 -297.9 5580.48 
-2399.91 -319.107 5579.35 
-2401.57 -317.845 5580.31 
-2411.01 -303.416 5586.03 
-2402.63 -314.507 5582.6 
-2413.73 -301.86 5585.36 
-2416.25 -300.667 5584.83 
-2418.65 -299.541 5584.33 
-2420.5 -298.793 5584.12 
-2424.36 -299.94 5585.84 
-2424.93 -300.363 5585.96 
-2425.47 -300.841 5586.04 
-2425.6 -299.884 5585.22 
-2421.51 -298.91 5584.64 
-2420.94 -298.372 5584.57 
-2420.68 -298.489 5584.35 
-2421.84 -298.76 5584.92 
-2422.36 -299.101 5585.06 
-2422.37 -298.722 5585.26 
-2422.86 -298.868 5585.49 
-2423.36 -299.357 5585.53 
-2423.82 -299.519 5585.72 
-2422 -293.509 5582.58 
-2423.32 -290.28 5582.09 
-2424.34 -286.47 5581.83 
-2424.83 -285.079 5582 
-2425.23 -283.33 5582.45 
-2425.48 -278.824 5583.93 
-2425.72 -278.925 5583.93 
-2425.86 -298.22 5585.01 
-2426.25 -297.647 5585.64 
-2426.81 -293.702 5585.14 
-2427.25 -291.748 5583.96 
-2428.3 -289.33 5583.71 
-2428.48 -288.172 5583.4 
-2428.71 -286.897 5583.29 
-2428.64 -286.305 5582.95 
-2428.52 -285.836 5582.82 
-2428.31 -284.722 5582.98 
-2428.2 -285.017 5582.73 
-2428.03 -284.966 5582.58 
-2427.6 -284.197 5582.62 
-2427.61 -282.991 5583.12 
-2427.21 -283.62 5582.73 
-2426.41 -278.377 5584.22 
-2425.94 -278.66 5584.06 
-2426.16 -278.209 5584.24 
-2404.47 -360.001 5556.94 
-2404.38 -358.067 5558.78 
-2404.25 -355.459 5560.99 
-2404.5 -352.703 5563.77 
-2404.63 -351.793 5563.66 
-2404.6 -352.032 5563.82 
-2404.58 -352.297 5563.99 
-2404.85 -352.412 5564.2 
-2400.26 -315.043 5580.08 
-2402.98 -312.488 5581.12 
-2401.75 -311.429 5583.39 
-2399.52 -318.069 5580.27 
-2398.28 -315.287 5581.18 
-2398.02 -314.761 5582.06 
-2414.97 -300.032 5580.1 
-2414.28 -301.001 5579.87 
-2410.07 -301.925 5585.29 
-2411.23 -301.857 5585.47 
-2411.92 -302.28 5585.59 
-2402.4 -363.161 5566.11 
-2403.37 -362.776 5567.92 
-2406.18 -361.842 5571.01 
-2406.62 -361.059 5571.12 
-2406.5 -360.343 5570.56 
-2406.4 -359.631 5570.01 
-2406.58 -359.999 5570.36 
-2406.55 -359.559 5570.03 
-2406.52 -359.088 5569.68 
-2406.7 -359.517 5570.07 
-2404.7 -360.947 5557.34 
-2404.97 -360.157 5559.56 
-2405.35 -360.799 5561.71 
-2405.09 -359.787 5561.43 
-2405.5 -360.436 5563.7 
-2404.01 -362.641 5566.41 
-2405.64 -360.102 5565.69 
-2405.86 -361.519 5566.87 
-2405.84 -359.725 5567.53 
-2406.31 -358.216 5568.97 
-2406.09 -357.346 5568.25 
-2405.89 -356.823 5567.79 
-2405.65 -355.782 5566.95 
-2405.46 -354.883 5566.22 
-2405.24 -354.234 5565.67 
-2405.05 -353.32 5564.93 
-2420.41 -295.851 5581.15 
-2417.31 -297.325 5580.99 
-2416.24 -298.257 5580.63 
-2420.21 -295.487 5581.51 
-2413.63 -300.95 5585.04 
-2415.59 -300.277 5584.72 
-2418.09 -299.103 5584.2 
-2419.85 -298.369 5583.97 
-2420.15 -298.135 5584.21 
-2424.03 -299.342 5586.01 
-2424.65 -299.788 5586.09 
-2425.34 -300.302 5586.24 
-2425.79 -300.216 5585.88 
-2420.34 -297.812 5584.49 
-2420.72 -297.812 5584.79 
-2421.31 -298.345 5584.81 
-2421.8 -298.32 5585.19 
-2422.31 -298.468 5585.72 
-2423.4 -299.008 5585.89 
-2422.84 -298.714 5586.01 
-2422.58 -289.949 5582.15 
-2423.02 -289.859 5582.08 
-2424.01 -285.146 5582.05 
-2424.67 -284.15 5582.23 
-2425.16 -279.836 5583.6 
-2425.43 -275.379 5584.88 
-2424.89 -272.62 5585.38 
-2425.07 -272.291 5585.52 
-2425.69 -274.482 5585.13 
-2425.22 -271.906 5585.66 
-2426.56 -297.967 5586.29 
-2427.32 -294.018 5585.98 
-2427.21 -292.297 5584.42 
-2428.17 -290.04 5584.07 
-2428.7 -287.983 5583.71 
-2428.83 -285.353 5583.33 
-2429.01 -286.327 5583.78 
-2428.55 -284.533 5583.33 
-2428.3 -283.796 5583.44 
-2427.96 -282.903 5583.52 
-2427.79 -282.903 5583.34 
-2426.84 -278.574 5584.34 
-2427.1 -277.944 5584.79 
-2426.92 -277.978 5584.64 
-2426.54 -277.64 5584.54 
-2426.46 -274.142 5585.42 
-2426.29 -271.925 5585.79 
-2426.09 -271.987 5585.7 
-2425.94 -274.046 5585.31 
-2404.67 -359.112 5559.18 
-2404.48 -357.291 5560.89 
-2404.64 -353.904 5563.99 
-2404.77 -353.2 5564.72 
-2404.82 -352.661 5564.36 
-2404.8 -352.936 5564.54 
-2400.93 -314.192 5580.38 
-2398.55 -314.385 5581.94 
-2399.12 -313.869 5581.94 
-2414.06 -299.77 5581.51 
-2411.62 -300.727 5585.05 
-2413.26 -300.33 5584.84 
-2404.82 -362.397 5568.23 
-2406.26 -361.546 5570.18 
-2406.37 -360.257 5570.36 
-2406.28 -359.57 5569.91 
-2406.35 -359.079 5569.6 
-2406.15 -358.537 5569.12 
-2406.18 -358.937 5569.42 
-2406.33 -358.635 5569.27 
-2404.78 -358.566 5561.28 
-2405.2 -359.179 5563.71 
-2404.93 -358.042 5563.24 
-2405.4 -358.541 5565.76 
-2406.14 -361.436 5568.54 
-2405.74 -357.816 5568.1 
-2406.1 -359.74 5569.17 
-2406.02 -358.61 5569.11 
-2406.1 -357.713 5568.52 
-2405.86 -357.073 5567.96 
-2405.68 -356.204 5567.26 
-2405.44 -355.18 5566.43 
-2405.01 -353.521 5565.05 
-2405.18 -354.347 5565.72 
-2416.9 -297.084 5581.35 
-2419.3 -295.707 5581.66 
-2416.37 -297.153 5581.5 
-2414.39 -298.979 5581.98 
-2420.99 -294.781 5581.74 
-2421.61 -293.469 5582.57 
-2415.34 -299.501 5584.46 
-2417.27 -298.819 5584.13 
-2419.19 -297.911 5583.83 
-2419.55 -297.741 5584.05 
-2419.79 -297.567 5584.28 
-2423.74 -299.122 5586.6 
-2424.34 -299.412 5586.55 
-2424.94 -299.731 5586.44 
-2425.54 -300.06 5586.55 
-2425.93 -300.164 5586.28 
-2419.81 -297.316 5584.66 
-2420.22 -297.49 5585.09 
-2421.23 -297.997 5585.09 
-2420.74 -297.727 5585.48 
-2421.31 -297.991 5585.74 
-2421.83 -298.233 5585.91 
-2422.48 -298.522 5586.52 
-2423.15 -298.841 5586.6 
-2422.29 -289.272 5582.16 
-2423.66 -284.094 5582.39 
-2424.55 -280.775 5583.3 
-2424.88 -279.528 5583.7 
-2424.67 -272.709 5585.32 
-2424.47 -272.918 5585.26 
-2425.14 -270.61 5585.55 
-2424.75 -270.295 5585.54 
-2425.52 -271.796 5585.7 
-2425.5 -270.656 5585.6 
-2427.05 -297.249 5587.04 
-2426.46 -299.02 5586.82 
-2427.87 -294.202 5586.82 
-2427.4 -292.886 5585.2 
-2427.79 -291.337 5584.57 
-2428.53 -289.84 5584.62 
-2428.74 -288.626 5584.07 
-2429.16 -286.911 5584.34 
-2428.87 -284.376 5583.84 
-2428.59 -283.584 5583.8 
-2429.17 -285.189 5584.34 
-2428.28 -282.427 5584.01 
-2428.03 -282.069 5583.95 
-2427.45 -277.837 5585.16 
-2427.26 -277.742 5585.02 
-2426.83 -274.298 5585.61 
-2426.76 -271.922 5585.87 
-2426.55 -271.934 5585.81 
-2427.15 -271.76 5586.13 
-2427 -274.328 5585.71 
-2427.3 -271.77 5586.41 
-2426.97 -271.805 5585.96 
-2426.28 -270.166 5585.79 
-2425.78 -271.681 5585.76 
-2425.98 -270.212 5585.72 
-2425.83 -270.596 5585.65 
-2404.68 -355.884 5563.27 
-2404.96 -354.112 5565.44 
-2404.98 -353.805 5565.24 
-2413.2 -299.406 5584.52 
-2414.98 -298.831 5584.24 
-2405.94 -358.027 5568.67 
-2405.91 -357.584 5568.34 
-2406.11 -358.077 5568.78 
-2405.23 -356.349 5566.1 
-2405 -355.35 5565.27 
-2405.53 -356.736 5567.47 
-2405.72 -357.15 5567.95 
-2405.67 -356.639 5567.56 
-2405.56 -355.959 5567.03 
-2405.34 -355.116 5566.34 
-2405.16 -354.635 5565.91 
-2418.35 -295.81 5581.92 
-2420.61 -294.498 5582.1 
-2421.36 -293.321 5582.71 
-2414.6 -298.295 5582.44 
-2417.66 -295.78 5582.19 
-2416.18 -296.918 5581.78 
-2416.94 -298.095 5583.89 
-2418.52 -297.596 5583.7 
-2419.01 -297.294 5583.96 
-2419.23 -297.096 5584.27 
-2424.09 -299.268 5587.29 
-2423.45 -298.962 5587.27 
-2424.68 -299.556 5587.15 
-2425.22 -299.816 5587.07 
-2426.08 -300.101 5586.78 
-2425.75 -300.051 5587.28 
-2419.35 -297.082 5584.95 
-2419.72 -297.236 5585.58 
-2420.27 -297.486 5585.89 
-2420.84 -297.748 5586.23 
-2421.36 -297.987 5586.49 
-2421.92 -298.251 5586.6 
-2422.23 -298.381 5587.21 
-2422.86 -298.679 5587.22 
-2422.04 -288.277 5582.3 
-2423.13 -283.999 5582.56 
-2424.19 -280.016 5583.59 
-2424.11 -273.154 5585.31 
-2424.29 -272.838 5585.28 
-2424.48 -270.543 5585.54 
-2425.29 -270.063 5585.57 
-2424.97 -269.961 5585.52 
-2424.93 -269.474 5585.56 
-2424.53 -269.921 5585.54 
-2425.62 -270.138 5585.64 
-2426.58 -297.923 5587.58 
-2427.47 -296.093 5587.6 
-2426.29 -299.135 5587.31 
-2428.27 -294.23 5587.66 
-2427.89 -293.165 5586.16 
-2428.08 -291.612 5585.7 
-2429.1 -288.147 5584.79 
-2428.98 -289.645 5585.79 
-2429.51 -286.493 5585.17 
-2429.34 -285.099 5584.9 
-2428.92 -283.506 5584.36 
-2428.62 -282.177 5584.39 
-2428.4 -281.604 5584.4 
-2429.16 -282.886 5585.33 
-2428.08 -276.931 5586.16 
-2427.9 -277.604 5585.64 
-2427.63 -277.26 5585.57 
-2427.6 -274.274 5586.56 
-2427.44 -271.894 5586.73 
-2426.79 -269.796 5586.06 
-2426.51 -269.773 5585.98 
-2427.29 -269.247 5587.69 
-2427.06 -269.805 5586.39 
-2427.5 -269.469 5587.92 
-2426.2 -269.693 5585.93 
-2425.89 -269.685 5585.85 
-2405.22 -355.18 5566.32 
-2414.96 -297.962 5583.93 
-2416.87 -297.287 5583.61 
-2405.47 -356.167 5567.14 
-2405.4 -355.626 5566.72 
-2420.56 -293.965 5582.53 
-2421.6 -289.21 5582.55 
-2414.95 -297.562 5582.7 
-2417.18 -295.672 5582.46 
-2420.32 -293.701 5582.77 
-2418.05 -296.959 5583.57 
-2418.51 -297.036 5583.78 
-2418.6 -296.772 5584.13 
-2418.78 -296.814 5584.77 
-2424.68 -299.528 5587.84 
-2423.7 -299.059 5587.92 
-2424.2 -299.293 5588.07 
-2423.16 -298.798 5588.02 
-2425.23 -299.796 5587.79 
-2426.05 -299.518 5587.62 
-2425.74 -299.809 5588.05 
-2419.08 -296.929 5585.51 
-2419.31 -297.018 5586.18 
-2419.87 -297.278 5586.45 
-2420.4 -297.524 5586.66 
-2420.95 -297.771 5587.09 
-2421.57 -298.065 5587.19 
-2421.91 -298.205 5587.81 
-2422.54 -298.508 5587.82 
-2422.56 -283.193 5583.05 
-2423.74 -279.59 5583.81 
-2423.28 -276.931 5584.62 
-2423.89 -273.063 5585.41 
-2424.03 -270.619 5585.6 
-2424.26 -270.338 5585.55 
-2425.62 -269.603 5585.82 
-2425.41 -269.481 5585.79 
-2425.24 -269.359 5585.69 
-2424.91 -269.176 5585.57 
-2425.85 -267.914 5586.44 
-2425.72 -267.751 5586.37 
-2424.55 -269.456 5585.58 
-2427.05 -296.413 5588.11 
-2426.3 -298.244 5588.02 
-2428.44 -293.539 5587.34 
-2427.93 -294.651 5588.25 
-2428.32 -292.353 5586.74 
-2428.86 -290.818 5586.9 
-2429.51 -287.73 5586 
-2429.53 -288.937 5587.01 
-2429.86 -285.395 5586.7 
-2429.61 -284.336 5586.04 
-2428.81 -281.349 5585.03 
-2428.32 -276.575 5586.65 
-2428.6 -276.926 5586.85 
-2429.46 -282.005 5586.61 
-2428.99 -277.099 5587.75 
-2428.23 -270.842 5588.69 
-2428.07 -270.9 5588.37 
-2427.9 -270.805 5588.09 
-2427.58 -271.854 5587.08 
-2427.72 -269.716 5588.18 
-2426.84 -268.82 5587.22 
-2427.06 -269.058 5587.44 
-2426.64 -268.653 5587.04 
-2427.71 -268.187 5588.94 
-2427.51 -267.78 5588.94 
-2427.26 -267.783 5588.63 
-2427.86 -268.62 5588.91 
-2426.45 -268.5 5586.92 
-2426.27 -268.362 5586.82 
-2415.63 -296.896 5583.52 
-2416.96 -296.428 5583.36 
-2417.57 -296.399 5583.56 
-2421.52 -287.343 5582.74 
-2415.43 -296.784 5582.75 
-2416.35 -295.759 5582.96 
-2418.33 -294.687 5582.78 
-2420.14 -293.376 5582.98 
-2418.05 -296.534 5583.86 
-2418.15 -296.519 5584.58 
-2418.5 -296.661 5585.35 
-2424.87 -299.598 5588.55 
-2423.68 -299.022 5588.67 
-2424.31 -299.32 5588.73 
-2422.74 -298.579 5588.48 
-2423.14 -298.753 5588.93 
-2425.4 -299.818 5588.52 
-2425.95 -298.912 5588.35 
-2425.64 -299.2 5588.89 
-2418.71 -296.731 5586.09 
-2418.88 -296.79 5586.8 
-2419.43 -297.052 5586.89 
-2419.86 -297.242 5587.35 
-2420.39 -297.495 5587.35 
-2420.71 -297.629 5587.93 
-2421.27 -297.901 5587.81 
-2421.62 -298.041 5588.47 
-2422.19 -298.315 5588.48 
-2422.33 -279.45 5584.29 
-2423.03 -274.393 5585.34 
-2423.69 -272.941 5585.53 
-2423.56 -270.915 5586 
-2423.8 -270.664 5585.74 
-2424.14 -269.831 5585.59 
-2423.89 -269.942 5585.61 
-2426.14 -268.215 5586.7 
-2426.01 -268.079 5586.56 
-2425.58 -267.643 5586.35 
-2426.01 -266.092 5587.65 
-2425.85 -265.683 5587.98 
-2425.8 -265.881 5587.82 
-2425.43 -267.584 5586.39 
-2424.61 -269.067 5585.61 
-2426.72 -296.539 5588.63 
-2426.16 -297.944 5588.63 
-2428.3 -294.257 5588.27 
-2428.87 -293.231 5588.2 
-2428.97 -291.893 5587.86 
-2427.46 -295.08 5588.76 
-2429.52 -290.101 5588.09 
-2429.87 -286.669 5587.45 
-2429.87 -287.842 5588.48 
-2430.14 -283.684 5588.55 
-2429.88 -282.791 5587.61 
-2428.84 -276.185 5587.58 
-2428.44 -270.526 5589.23 
-2428.53 -271.306 5589.37 
-2429.13 -276.569 5589.04 
-2429.45 -278.429 5589.61 
-2428.73 -271.054 5590.4 
-2428.72 -270.556 5590.11 
-2428.37 -268.702 5589.7 
-2428.37 -268.595 5589.59 
-2428.37 -268.326 5589.5 
-2428.03 -268.974 5588.99 
-2426.71 -266.97 5588.47 
-2427.01 -267.256 5588.65 
-2426.45 -266.739 5588.24 
-2428.11 -267.666 5589.47 
-2427.77 -266.891 5589.45 
-2427.37 -266.53 5589.31 
-2426.31 -266.466 5588.14 
-2426.2 -266.32 5587.97 
-2416.62 -295.861 5583.39 
-2417.09 -296.038 5583.78 
-2417.59 -296.262 5584.21 
-2421.15 -287.113 5582.88 
-2416.17 -295.583 5583.23 
-2419.91 -291.663 5583.08 
-2417.49 -294.612 5583.15 
-2417.5 -296.194 5584.91 
-2417.97 -296.412 5585.21 
-2418.13 -296.462 5585.94 
-2424.72 -299.498 5589.28 
-2425.29 -299.589 5589.26 
-2423.5 -298.907 5589.48 
-2424.07 -299.184 5589.35 
-2422.53 -298.457 5589.15 
-2422.88 -298.604 5589.73 
-2425.82 -298.37 5589.11 
-2425.49 -298.672 5589.69 
-2418.32 -296.532 5586.69 
-2419.31 -296.97 5587.58 
-2418.81 -296.737 5587.5 
-2419.59 -297.081 5588.25 
-2420.13 -297.346 5588.07 
-2420.49 -297.493 5588.73 
-2421.04 -297.762 5588.55 
-2421.41 -297.917 5589.15 
-2421.95 -298.178 5589.19 
-2421.96 -277.926 5584.85 
-2422.85 -271.594 5586.06 
-2423.28 -270.604 5585.94 
-2423.61 -270.012 5585.7 
-2424.37 -269.112 5585.62 
-2424.12 -269.175 5585.67 
-2426.11 -266.224 5587.79 
-2425.64 -265.459 5588.29 
-2425.84 -265.175 5588.46 
-2425.7 -264.366 5589.1 
-2425.63 -264.9 5588.79 
-2425.28 -267.583 5586.5 
-2425.61 -265.726 5588.06 
-2426.43 -296.551 5589.21 
-2426.01 -297.51 5589.34 
-2427.88 -294.724 5589.27 
-2428.7 -293.886 5589.39 
-2429.36 -291.844 5589.15 
-2429.23 -292.45 5590.18 
-2429.62 -290.555 5589.37 
-2427.07 -295.48 5589.37 
-2429.55 -288.843 5590.13 
-2429.98 -285.468 5589.03 
-2429.55 -286.745 5590.56 
-2429.43 -277.27 5590.86 
-2429.96 -280.362 5591.92 
-2429.74 -283.896 5591.45 
-2428.65 -269.262 5590 
-2428.77 -271.53 5590.75 
-2429.18 -269.41 5591.16 
-2429.12 -268.84 5590.87 
-2428.91 -268.413 5590.55 
-2428.62 -268.007 5590.11 
-2428.83 -267.308 5590.01 
-2428.77 -267.17 5589.87 
-2428.47 -266.503 5589.81 
-2426.99 -265.874 5589.24 
-2426.6 -266.136 5588.86 
-2427.12 -266.726 5589.12 
-2426.29 -265.582 5588.81 
-2428.15 -265.807 5589.72 
-2427.78 -265.334 5589.55 
-2427.45 -264.948 5589.35 
-2426.05 -265.313 5588.63 
-2425.93 -265.192 5588.47 
-2416.31 -295.674 5583.87 
-2416.65 -295.828 5584.14 
-2417.05 -295.999 5584.53 
-2421.23 -283.659 5583.52 
-2416.43 -295.177 5583.3 
-2419.54 -291.619 5583.27 
-2417.62 -296.235 5585.67 
-2417.2 -296.077 5585.35 
-2417.88 -296.363 5586.44 
-2424.49 -299.366 5589.95 
-2425.06 -299.493 5589.88 
-2423.31 -298.792 5590.19 
-2423.91 -299.082 5590.08 
-2422.25 -298.298 5589.85 
-2422.61 -298.447 5590.48 
-2425.74 -297.708 5589.84 
-2425.21 -298.671 5590.37 
-2425.48 -297.789 5590.41 
-2418.47 -296.616 5587.44 
-2418.12 -296.494 5587.2 
-2419.14 -296.884 5588.29 
-2418.8 -296.771 5588.2 
-2419.51 -297.052 5589.09 
-2419.94 -297.225 5588.86 
-2420.36 -297.403 5589.58 
-2420.9 -297.668 5589.34 
-2421.58 -297.973 5589.85 
-2421.55 -276.071 5585.55 
-2422.22 -271.624 5586.2 
-2422.78 -270.534 5585.93 
-2423.37 -269.817 5585.78 
-2423.42 -270.174 5585.74 
-2423.92 -269.141 5585.9 
-2425.1 -267.592 5586.72 
-2424.92 -267.612 5586.98 
-2425.54 -264.219 5589.26 
-2425.44 -264.815 5588.96 
-2425.88 -264.062 5589.1 
-2425.84 -263.265 5589.43 
-2426.38 -262.732 5588.98 
-2425.47 -265.512 5588.33 
-2426.1 -296.654 5589.85 
-2426.74 -295.83 5590.24 
-2427.58 -295.109 5590.64 
-2428.41 -294.367 5590.78 
-2429.09 -293.049 5591.32 
-2429.57 -290.643 5591.02 
-2429.57 -290.996 5592.02 
-2429.16 -289.832 5591.78 
-2428.99 -287.898 5592.51 
-2429.23 -285.398 5592.83 
-2428.84 -271.553 5591.88 
-2429.22 -276.003 5593.5 
-2429.07 -269.89 5591.71 
-2429.33 -278.382 5594.73 
-2428.98 -267.177 5591.79 
-2428.97 -267.817 5592.09 
-2429.08 -266.87 5591.41 
-2429.2 -267.031 5590.82 
-2429.21 -266.605 5590.47 
-2429.47 -265.743 5590.33 
-2429.18 -266.014 5590.1 
-2428.9 -265.577 5589.9 
-2428.64 -265.1 5589.63 
-2427.19 -264.479 5589.08 
-2426.67 -264.999 5589.16 
-2426.34 -264.38 5588.92 
-2428.34 -264.676 5589.35 
-2428.05 -264.251 5589.06 
-2427.75 -263.878 5588.81 
-2426.08 -264.16 5588.91 
-2416.45 -295.72 5584.49 
-2416.23 -295.236 5583.7 
-2416.83 -295.936 5584.95 
-2420.78 -283.391 5583.92 
-2417.65 -294.348 5583.32 
-2419.5 -290.53 5583.5 
-2417.47 -296.215 5586.1 
-2417.06 -296.069 5585.81 
-2417.73 -296.351 5586.88 
-2424.86 -299.32 5590.57 
-2424.31 -299.256 5590.68 
-2423.11 -298.672 5590.83 
-2423.71 -298.961 5590.78 
-2421.94 -298.126 5590.49 
-2422.28 -298.268 5591.11 
-2422.82 -298.513 5591.42 
-2425.82 -296.844 5590.44 
-2424.96 -298.44 5591.18 
-2425.22 -297.733 5591.09 
-2425.62 -296.874 5591.1 
-2418.42 -296.644 5588.02 
-2417.96 -296.476 5587.6 
-2419.17 -296.943 5589 
-2418.82 -296.828 5588.85 
-2419.47 -297.093 5589.8 
-2419.83 -297.225 5590.11 
-2419.89 -297.203 5589.55 
-2420.98 -297.682 5590.06 
-2420.54 -297.468 5590.38 
-2420.18 -297.345 5590.29 
-2421.35 -297.84 5590.65 
-2421.18 -275.066 5585.98 
-2421.59 -271.634 5586.29 
-2422.25 -270.628 5586.01 
-2423.09 -269.81 5585.99 
-2422.83 -269.898 5586.15 
-2423.76 -268.965 5586.4 
-2424.74 -267.647 5587.21 
-2425.34 -265.348 5588.57 
-2425.19 -265.24 5588.79 
-2425.86 -262.692 5589.6 
-2425.51 -263.588 5589.55 
-2425.35 -264.434 5589.23 
-2426.62 -262.926 5588.71 
-2426.69 -261.816 5588.9 
-2427.1 -261.92 5588.5 
-2427.32 -261.264 5588.42 
-2426.6 -295.886 5590.78 
-2427.54 -295.065 5591.36 
-2428.34 -294.415 5591.83 
-2428.94 -293.632 5592.42 
-2429.56 -291.412 5593.01 
-2429.04 -290.007 5593.49 
-2429.2 -290.411 5594.28 
-2428.61 -289.239 5593.99 
