-2314.4 -978.945 4247.78 
-2313.84 -977.707 4247.68 
-2312.25 -971.615 4244.55 
-2313.49 -978.462 4249.35 
-2315.5 -963.48 4229.45 
-2316.11 -970.201 4236.2 
-2316.33 -974.948 4240.95 
-2318.22 -964.354 4228.31 
-2310.68 -966.87 4245.15 
-2310.67 -969.221 4250.29 
-2311.35 -968.385 4243.94 
-2311.14 -976.464 4256.48 
-2310.82 -977.059 4258.67 
-2264.37 -839.283 4103.61 
-2265.58 -840.051 4105.11 
-2327.04 -994.953 4276.72 
-2324.19 -994.419 4276.18 
-2329.91 -995.749 4277.36 
-2319.17 -993.584 4275.28 
-2315.64 -991.668 4273.94 
-2316.62 -993.101 4274.79 
-2323.96 -994.654 4276.25 
-2321.36 -994.18 4275.76 
-2316.34 -986.584 4270.16 
-2313.24 -990.643 4272.22 
-2313.63 -991.189 4272.89 
-2316.45 -988.828 4271.71 
-2314.18 -991.645 4273.65 
-2312.14 -987.307 4269.65 
-2313.36 -992.745 4273.55 
-2311.09 -982.751 4267.38 
-2310.93 -982.344 4267 
-2310.14 -979.434 4265.52 
-2322.37 -953.671 4212.82 
-2325.13 -960.156 4218.54 
-2323.98 -960.246 4219.08 
-2357.76 -970.62 4235.02 
-2356.33 -974.181 4235.72 
-2359.14 -968.698 4233.29 
-2362.99 -971.42 4231.59 
-2355.35 -975.914 4236.03 
-2354.33 -976.635 4236.11 
-2353.45 -976.99 4236.36 
-2371.41 -978.847 4227.11 
-2368.17 -975.953 4230.1 
-2360 -968.603 4230.15 
-2365.31 -972.99 4230.55 
-2375.97 -982.108 4226.01 
-2374.28 -981.107 4225.15 
-2380.1 -985.377 4224.35 
-2392.55 -999.935 4226 
-2392.84 -994.638 4221.17 
-2392.6 -994.802 4220.83 
-2384.45 -988.554 4223.33 
-2387.96 -991.374 4221.81 
-2389.46 -992.338 4221.81 
-2399.2 -1000.59 4221.11 
-2398.37 -998.093 4220.7 
-2395.81 -995.521 4220.6 
-2395.13 -994.799 4220.43 
-2395.58 -995.163 4220.34 
-2395.07 -999.42 4222.6 
-2399.1 -1001.7 4221.32 
-2356.43 -969.637 4206.68 
-2350.18 -969.353 4207.18 
-2342.85 -968.566 4206.93 
-2337.63 -968.079 4205.26 
-2353.65 -965.817 4200.22 
-2356.35 -961.782 4194.21 
-2352.39 -968.268 4203.67 
-2353.57 -968.81 4204.29 
-2356.83 -958.998 4190.71 
-2355.23 -957.556 4190.89 
-2357.16 -969.871 4206.39 
-2356.07 -969.471 4205.72 
-2354.97 -969.273 4205.05 
-2354.89 -956.201 4189 
-2353.46 -953.891 4187.23 
-2353.48 -949.15 4184.07 
-2351.71 -946.171 4184.2 
-2352.68 -947.389 4183.95 
-2338.1 -960.67 4200.72 
-2338.13 -961.524 4200.95 
-2339.33 -957.234 4199.43 
-2339.46 -956.062 4199.48 
-2338.1 -962.912 4201.81 
-2338.3 -962.347 4201.32 
-2338.08 -964.152 4202.5 
-2337.91 -964.748 4202.94 
-2337.95 -965.675 4203.27 
-2337.99 -966.514 4203.56 
-2338.38 -963.471 4201.92 
-2338.02 -967.318 4203.85 
-2337.96 -968.101 4204.04 
-2337.66 -967.746 4204.13 
-2337.27 -968.427 4204.59 
-2341.51 -947.09 4193.39 
-2341.16 -951.83 4195.58 
-2342.16 -945.497 4191.75 
-2341.43 -943.849 4191.28 
-2341.97 -944.004 4190.83 
-2341.05 -941.462 4190.43 
-2341.2 -940.009 4189.39 
-2348.94 -937.255 4182.81 
-2347.8 -934.97 4182.83 
-2351.26 -940.452 4182.39 
-2350.07 -938.793 4182.6 
-2344.56 -936.578 4185.34 
-2346.96 -936.728 4182.61 
-2347.32 -939.216 4182.92 
-2348.46 -938.448 4180.84 
-2348.1 -939.266 4181.65 
-2352.01 -942.457 4182.57 
-2337.37 -968.966 4206.32 
-2352.84 -977.763 4236.7 
-2353.1 -980.428 4238.28 
-2354.42 -979.846 4237.49 
-2350.69 -983.449 4241 
-2352.89 -982.5 4239.81 
-2338.75 -987.23 4243.57 
-2344.87 -990.87 4247.36 
-2351.88 -989.144 4246.14 
-2334.9 -984.973 4241.81 
-2331.43 -977.783 4235.78 
-2325.87 -965.985 4224.54 
-2328.38 -971.767 4230.09 
-2345.87 -1019.05 4289.47 
-2347.61 -1020.41 4289.26 
-2348.99 -1021.86 4289.14 
-2344.95 -1017.43 4289.45 
-2344.22 -1015.99 4289.42 
-2342.88 -1013.17 4289.32 
-2342.49 -1015.27 4289.72 
-2341.28 -1012.11 4289.55 
-2341.4 -1010.3 4289.25 
-2340.66 -1008.87 4289.22 
-2341.68 -1007.33 4288.5 
-2359.34 -1001.47 4265.1 
-2360.24 -1004.96 4269.15 
-2360.29 -1000.46 4264.56 
-2363.32 -1002.43 4262.26 
-2363.94 -1003.13 4261.97 
-2362.37 -1001.67 4263.08 
-2361.36 -1000.89 4263.86 
-2364.36 -1004.09 4262.53 
-2364.13 -1003.59 4262.14 
-2388.57 -1005.58 4235.83 
-2385.46 -1005.53 4239.64 
-2383.22 -1005.51 4242.42 
-2380.73 -1005.46 4245.47 
-2378.26 -1005.47 4248.62 
-2375.91 -1005.51 4251.88 
-2373.09 -1005.4 4255.48 
-2371.11 -1005.49 4258.35 
-2365.49 -1005.3 4265.34 
-2368.17 -1005.48 4262.33 
-2364.43 -1005.09 4263.68 
-2364.53 -1004.93 4263.41 
-2364.6 -1004.65 4262.98 
-2364.57 -1005.02 4263.29 
-2364.39 -1005.5 4264.42 
-2364.34 -1005.41 4263.9 
-2364.7 -1005.46 4265.32 
-2391.32 -1005.66 4232.49 
-2394.62 -1005.1 4227.75 
-2393.22 -1005.21 4229.61 
-2393.2 -1005.41 4229.86 
-2393.01 -1005.6 4230.3 
-2394.74 -1003.89 4226.48 
-2397.84 -1004.93 4223.54 
-2396.4 -1005.04 4225.45 
-2356.94 -1020.89 4278.92 
-2357.01 -1019.04 4277.64 
-2357.05 -1015.68 4275.65 
-2359.83 -1006.36 4269.66 
-2356.45 -1021.94 4279.72 
-2356.4 -1023.06 4280.38 
-2351.69 -1025.51 4289.13 
-2355.7 -1033.09 4291.06 
-2359.61 -1033.56 4292.02 
-2366.35 -1031.59 4291.84 
-2360.34 -1027.72 4284.76 
-2363.64 -1033.12 4292.57 
-2357.16 -1024.18 4281.95 
-2350.25 -1023.39 4289.06 
-2333.3 -996.711 4278.27 
-2337.56 -1000.21 4282.04 
-2335.43 -999.509 4281.33 
-2339.31 -1006.1 4287.28 
-2346.75 -835.732 4115.12 
-2346.54 -835.991 4114.26 
-2346.97 -835.551 4115.61 
-2347.67 -835.916 4113.42 
-2346.73 -836.257 4113.4 
-2347.25 -836.136 4113.12 
-2347.74 -845.311 4110.43 
-2358.35 -846.941 4114.65 
-2351.47 -846.397 4111.26 
-2341.11 -841.523 4108.8 
-2341.33 -839.884 4109.89 
-2340.32 -840.365 4109.02 
-2343.41 -838.006 4112.25 
-2346.2 -835.804 4115.2 
-2358.89 -845.648 4115.21 
-2356.17 -845.719 4112.99 
-2355.29 -844.538 4109.93 
-2351.89 -841.64 4107.33 
-2349.07 -839.627 4105.31 
-2346.95 -838.368 4107.8 
-2345.75 -837.566 4110.35 
-2347.11 -836.689 4110.85 
-2346.12 -837.182 4110.8 
-2347.87 -835.975 4111.74 
-2347.67 -836.27 4111.17 
-2346.88 -836.66 4111.23 
-2310.28 -979 4263.38 
-2310.49 -980.601 4265.56 
-2321.31 -959.97 4220.42 
-2322.78 -960.085 4219.64 
-2322.24 -964.526 4225.36 
-2317.34 -981.511 4245.82 
-2316.58 -986.138 4251.25 
-2315.65 -984.931 4251.66 
-2317.35 -986.277 4250.14 
-2314.82 -983.908 4252.23 
-2314.08 -982.864 4253.01 
-2312.81 -977.847 4250.74 
-2313.23 -981.966 4254.49 
-2317.86 -968.778 4233.26 
-2318.36 -976.055 4240.12 
-2318.26 -980.995 4244.48 
-2321.06 -969.129 4231.09 
-2312.02 -976.124 4251.86 
-2311.44 -975.897 4254.1 
-2311.1 -980.218 4261.17 
-2310.65 -979.821 4262.74 
-2265.13 -840.405 4104.13 
-2265.92 -840.478 4105.91 
-2326.62 -995.138 4276.74 
-2331.46 -996.635 4278.15 
-2328.8 -995.769 4277.25 
-2318.46 -993.675 4275.23 
-2315.58 -993.11 4274.68 
-2326.41 -995.409 4276.83 
-2323.44 -994.835 4276.26 
-2320.6 -994.301 4275.73 
-2313.59 -991.329 4273.17 
-2315.35 -993.433 4274.78 
-2313.21 -991.987 4272.25 
-2313.51 -993.102 4273.59 
-2315.86 -993.85 4275.01 
-2313.39 -992.406 4272.31 
-2313.43 -993.325 4273.06 
-2312.8 -988.448 4268.68 
-2324.8 -966.155 4225.33 
-2358.85 -969.073 4234.07 
-2357.83 -971.428 4235.23 
-2356.93 -975.592 4236.17 
-2359.75 -968.235 4231.29 
-2361.83 -969.789 4232.28 
-2356.55 -977.154 4236.66 
-2355.27 -977.91 4236.9 
-2354.01 -978.178 4236.94 
-2370.37 -978.716 4229.08 
-2373.63 -980.911 4224.27 
-2368.18 -976.299 4230.25 
-2376.96 -983.241 4224.5 
-2376.28 -983.011 4222.91 
-2380.47 -986.048 4223.21 
-2384.25 -988.738 4222.5 
-2398.29 -1003.24 4222.01 
-2396.84 -1004.11 4224.07 
-2394.86 -995.865 4220.72 
-2396.43 -995.415 4220.21 
-2392.26 -994.781 4220.38 
-2394.26 -995.881 4220.94 
-2388.34 -991.998 4220.81 
-2397.74 -996.206 4220.43 
-2400.42 -1001.21 4221.13 
-2400.8 -1003.01 4221.19 
-2400.82 -1003.93 4221.1 
-2396.4 -994.481 4220.2 
-2395.65 -994.4 4220.19 
-2396.81 -994.914 4220.02 
-2396.7 -994.598 4219.97 
-2399.95 -1003.71 4221.18 
-2400.34 -1004.17 4221.31 
-2351.41 -969.837 4207.12 
-2342.84 -969.219 4207.04 
-2351.55 -968.006 4202.75 
-2353.58 -965.037 4198.6 
-2355.77 -961.604 4193.36 
-2352.58 -968.683 4203.67 
-2353.94 -969.226 4204.38 
-2356.89 -958.115 4188.92 
-2356.43 -969.875 4205.81 
-2355.69 -970.218 4206.75 
-2355.26 -969.678 4205.09 
-2355.44 -955.681 4187.13 
-2355.41 -951.961 4183.88 
-2354.35 -950.773 4184.07 
-2355.73 -947.598 4181.82 
-2354.63 -945.104 4181.75 
-2353.25 -943.567 4182.14 
-2338.39 -960.803 4200.51 
-2339.66 -957.401 4198.92 
-2338.45 -961.733 4200.83 
-2338.57 -962.865 4201.41 
-2338.75 -962.269 4200.91 
-2338.66 -964.296 4202 
-2338.31 -965.123 4202.6 
-2338.17 -965.958 4203.03 
-2338.2 -966.862 4203.34 
-2338.24 -967.683 4203.62 
-2338.89 -963.327 4201.42 
-2338.23 -968.405 4203.9 
-2337.55 -968.841 4204.65 
-2337.89 -969.106 4204.44 
-2336.87 -969.645 4207.01 
-2342.52 -947.348 4192.34 
-2342.86 -944.931 4190.55 
-2342.89 -951.762 4193.84 
-2342.21 -943.251 4190.03 
-2341.21 -941.42 4189.83 
-2340.97 -938.784 4188.71 
-2350.27 -936.624 4181.74 
-2349.12 -935.363 4182.06 
-2348.81 -933.909 4181.87 
-2347.68 -934.125 4182.82 
-2352.81 -941.173 4181.62 
-2352.54 -938.996 4181.07 
-2351.32 -938.079 4181.55 
-2343.56 -937.587 4186.18 
-2346.86 -935.946 4182.46 
-2348.01 -937.654 4180.8 
-2346.5 -939.538 4184.25 
-2348.71 -939.477 4181.3 
-2348.68 -940.598 4181.97 
-2349.02 -936.949 4180.15 
-2349.37 -937.655 4180.07 
-2349.35 -938.721 4180.37 
-2339.44 -969.822 4207.64 
-2355.55 -982.898 4239.11 
-2356.78 -981.748 4237.45 
-2355.9 -979.875 4237.02 
-2354.68 -987.376 4243.91 
-2355.14 -984.607 4241.21 
-2335.56 -994.639 4250.34 
-2338.95 -996.109 4251.42 
-2343.8 -997.45 4253.02 
-2350.23 -993.985 4251.19 
-2353.02 -992.669 4250.17 
-2357.18 -991.597 4248.55 
-2330.81 -986.45 4243.81 
-2328.19 -977.726 4236.54 
-2327.77 -984.678 4242.93 
-2326.55 -971.871 4230.87 
-2343.53 -1019.03 4290.02 
-2343.72 -1021.04 4290.27 
-2345.61 -1020.87 4289.8 
-2346.87 -1022.32 4289.71 
-2348.06 -1023.69 4289.63 
-2342.35 -1017.36 4290.06 
-2340.94 -1014.14 4289.92 
-2340.51 -1016.13 4290.32 
-2339.31 -1011.05 4289.86 
-2339.38 -1012.94 4290.12 
-2338.45 -1009.31 4289.8 
-2339.22 -1007.74 4288.87 
-2358.98 -1001.89 4264.7 
-2359.87 -1000.42 4264.2 
-2363.73 -1002.75 4261.68 
-2363.01 -1002.12 4262.23 
-2363.93 -1003.16 4261.74 
-2362.07 -1001.37 4263.03 
-2361.18 -1000.78 4263.5 
-2364.6 -1004.66 4262.78 
-2364.36 -1004.13 4262.36 
-2364.14 -1003.65 4261.94 
-2390.71 -1005.82 4233.42 
-2387.75 -1005.71 4236.99 
-2385.78 -1005.76 4239.5 
-2383.1 -1005.7 4242.78 
-2380.54 -1005.65 4245.92 
-2378.83 -1005.75 4248.39 
-2373.91 -1005.64 4254.86 
-2376.41 -1005.76 4251.7 
-2372.82 -1005.8 4256.66 
-2370.37 -1005.66 4259.72 
-2365.57 -1005.51 4265.69 
-2368.26 -1005.7 4262.67 
-2364.44 -1005.31 4263.62 
-2364.63 -1005.07 4263.13 
-2364.5 -1005.37 4263.45 
-2364.44 -1005.73 4264.59 
-2364.32 -1005.65 4263.92 
-2364.76 -1005.68 4265.53 
-2394.24 -1005.81 4229.01 
-2393.68 -1005.98 4229.89 
-2397.58 -1005.28 4224.25 
-2395.99 -1005.33 4226.29 
-2395.79 -1005.48 4226.71 
-2395.36 -1005.65 4227.43 
-2398.94 -1004.83 4222.01 
-2398.98 -1004.94 4222.06 
-2398.82 -1005.16 4222.56 
-2356.29 -1021.62 4278.81 
-2356.24 -1020.19 4277.83 
-2355.82 -1019.28 4276.97 
-2356.33 -1015.52 4274.42 
-2359.22 -1006.72 4268.47 
-2356.04 -1022.87 4279.3 
-2356.23 -1024.06 4280.27 
-2349.9 -1026.39 4289.87 
-2353.27 -1032.67 4291.17 
-2357.06 -1035.18 4292.58 
-2361.95 -1034.78 4293.34 
-2366.13 -1034.18 4293.82 
-2368.76 -1032.66 4292.94 
-2363.19 -1028.88 4286.59 
-2357.94 -1027.26 4282.52 
-2333.39 -999.491 4281.28 
-2337.16 -1006.5 4287.57 
-2335.11 -1006.58 4287.58 
-2359.84 -847.558 4114.38 
-2346.04 -835.822 4114.34 
-2345.83 -836.073 4113.51 
-2346.62 -835.462 4115.46 
-2346.28 -835.659 4114.78 
-2346.95 -836.371 4112 
-2346.37 -836.572 4112.15 
-2345.54 -836.493 4112.41 
-2347.43 -836.161 4111.81 
-2340.55 -843.713 4107.15 
-2344.45 -845.987 4107.51 
-2350.16 -846.807 4109.58 
-2337.86 -842.299 4106.4 
-2337.15 -842.451 4105.9 
-2340.6 -839.794 4109.53 
-2343.62 -837.45 4112.71 
-2346.18 -835.472 4115.36 
-2358.6 -847.137 4112.62 
-2356.66 -846.634 4109.72 
-2353.99 -844.399 4107.67 
-2350.55 -841.765 4105.19 
-2347.54 -840.517 4103.86 
-2346.63 -839.894 4105.52 
-2345.2 -838.492 4109.14 
-2341.84 -841.444 4107.09 
-2343.92 -838.272 4110.72 
-2344.76 -837.812 4110.85 
-2346.08 -837.091 4111.1 
-2344.97 -837.635 4111.06 
-2347.25 -836.391 4111.42 
-2346.27 -836.82 4111.58 
-2345.56 -837.227 4111.4 
-2310.97 -981.858 4265.49 
-2313.63 -991.255 4269.58 
-2323.71 -965.369 4225.02 
-2322.76 -970.582 4231.16 
-2318.59 -986.705 4248.88 
-2318.02 -991.769 4256.53 
-2319.05 -993.023 4255.69 
-2316.92 -990.036 4256.81 
-2318.83 -990.048 4252.44 
-2315.3 -987.108 4255.87 
-2314.61 -986.331 4257.43 
-2312.09 -980.818 4257.17 
-2313.92 -985.037 4259.03 
-2313.05 -984.397 4261.02 
-2320.17 -975.632 4238.07 
-2319.99 -981.633 4243.34 
-2319.6 -984.144 4245.28 
-2321.56 -976.173 4237.55 
-2311.53 -980.369 4259.17 
-2312.08 -984.089 4264.49 
-2311.55 -983.291 4265.38 
-2265.93 -840.879 4105.73 
-2329.48 -996.652 4278.15 
-2331.34 -999.86 4281.59 
-2317.34 -993.695 4275.11 
-2327.62 -996.636 4278.13 
-2325.21 -995.441 4276.72 
-2322.61 -994.962 4276.22 
-2319.89 -994.401 4275.68 
-2318.04 -994.169 4275.38 
-2315.8 -994.139 4275.12 
-2318.44 -994.611 4275.67 
-2315.44 -995.075 4276.18 
-2313.14 -994.829 4274.92 
-2314.83 -996.919 4278.44 
-2324.4 -971.618 4231.58 
-2359.18 -969.573 4234.47 
-2362.6 -970.348 4233.23 
-2358.16 -972.345 4235.61 
-2358.53 -977.186 4236.34 
-2358.32 -978.633 4236.61 
-2358.09 -979.879 4236.62 
-2371.82 -980.147 4227.96 
-2369.43 -978.5 4229.81 
-2375.42 -982.678 4222.06 
-2367.76 -976.177 4230.57 
-2378.74 -984.978 4222.42 
-2378.26 -984.885 4220.78 
-2384.87 -989.541 4221.44 
-2381.49 -987.178 4221.74 
-2399.16 -1004.62 4221.78 
-2402.22 -1004.71 4220.03 
-2396.01 -996.281 4220.49 
-2396.8 -995.804 4220.23 
-2398.08 -995.19 4220.03 
-2397.73 -994.841 4219.97 
-2391.67 -994.689 4219.46 
-2393.07 -995.376 4220.91 
-2395.41 -996.409 4220.72 
-2394.11 -995.981 4221.06 
-2388.27 -992.3 4219.89 
-2400.88 -1000.24 4220.95 
-2398.42 -995.78 4220.25 
-2398.06 -994.428 4219.92 
-2401.22 -1002.17 4221.03 
-2401.63 -1003.71 4220.8 
-2401.1 -1003.97 4221.04 
-2402.13 -1004.08 4220.38 
-2402.9 -1004.29 4219.71 
-2401.93 -1004.41 4220.28 
-2397.09 -994.075 4219.88 
-2397.62 -994.235 4219.89 
-2403.04 -1004.55 4219.53 
-2349.2 -970.175 4207.26 
-2352.78 -965.175 4198.27 
-2350.78 -967.979 4202.13 
-2351.72 -968.654 4203.1 
-2355.14 -961.528 4192.73 
-2352.97 -969.13 4203.76 
-2354.34 -969.651 4204.48 
-2357.1 -957.937 4187.68 
-2357.32 -970.418 4206.42 
-2356.49 -970.211 4205.72 
-2352.16 -970.581 4207.01 
-2355.57 -970.122 4205.13 
-2356.49 -955.948 4185.84 
-2356.12 -953.194 4183.73 
-2357.43 -950.962 4181.61 
-2357.28 -948.28 4180.6 
-2356.42 -945.289 4180.17 
-2354.23 -942.166 4180.97 
-2355.62 -942.742 4179.88 
-2338.64 -961.126 4200.36 
-2340.04 -957.754 4198.62 
-2339.94 -958.45 4198.88 
-2338.92 -961.688 4200.43 
-2339.1 -962.682 4200.88 
-2339.25 -962.109 4200.42 
-2339.23 -964.063 4201.38 
-2339.02 -965.078 4201.91 
-2338.7 -965.863 4202.47 
-2338.5 -966.802 4202.96 
-2338.5 -967.882 4203.32 
-2338.48 -968.795 4203.68 
-2339.39 -963.091 4200.88 
-2338.23 -969.426 4204.3 
-2337.16 -970.011 4207.01 
-2337.72 -970.176 4206.5 
-2336.88 -970.877 4209.38 
-2343.36 -945.104 4190.12 
-2343.5 -947.31 4191.11 
-2343.39 -941.547 4187.73 
-2344.76 -942.815 4187.09 
-2344.27 -950.625 4191.7 
-2343.77 -955.309 4194.42 
-2342.62 -940.258 4187.79 
-2340.62 -937.94 4188.26 
-2341.54 -939.034 4188.02 
-2351.41 -935.447 4180.6 
-2350.09 -934.388 4181.1 
-2349.91 -933.322 4180.99 
-2348.75 -933.465 4181.96 
-2347.92 -933.511 4182.66 
-2353.84 -939.765 4180.36 
-2353.64 -937.227 4179.48 
-2352.42 -936.697 4180.36 
-2346.88 -935.271 4182.23 
-2347.77 -936.705 4180.59 
-2348.66 -936.214 4180.25 
-2347.64 -941.435 4183.69 
-2349.4 -939.719 4180.9 
-2349.78 -940.739 4181.18 
-2349.07 -941.56 4182.22 
-2349.95 -935.059 4179.93 
-2350.3 -935.769 4179.83 
-2350.41 -936.982 4179.77 
-2350.23 -938.592 4179.86 
-2342.69 -970.26 4207.71 
-2358.99 -982.654 4239.22 
-2358.95 -983.439 4241.62 
-2358.98 -981.709 4236.29 
-2358.74 -989.41 4246.08 
-2360.28 -986.092 4244.98 
-2332.22 -995.724 4252.03 
-2336.87 -1003.6 4258.41 
-2334.96 -1005.21 4259.86 
-2340.09 -1003.3 4258.21 
-2349.31 -996.678 4253.39 
-2345.26 -1002.87 4258.08 
-2343.13 -1006.09 4261.22 
-2353.58 -995.077 4253.1 
-2353.22 -996.091 4254.17 
-2356.39 -993.541 4251.01 
-2354.77 -994.584 4252.56 
-2359.01 -994.39 4250.93 
-2360.62 -993.008 4248.56 
-2328.83 -992.464 4249.62 
-2325.46 -977.272 4237.01 
-2325.47 -983.512 4242.33 
-2325.47 -989.763 4247.52 
-2344.77 -1022.75 4290.27 
-2343.05 -1023.33 4290.82 
-2341.42 -1022.25 4290.99 
-2341.99 -1020.49 4290.6 
-2341.05 -1019.11 4290.63 
-2346.2 -1025.24 4290.53 
-2348.92 -1029.42 4291.16 
-2339.8 -1017.92 4290.75 
-2338.87 -1014.83 4290.52 
-2338.25 -1016.69 4290.94 
-2337.42 -1013.14 4290.61 
-2337.18 -1011.1 4290.37 
-2336.06 -1009.51 4290.28 
-2336.86 -1008.27 4289.27 
-2358.64 -1002.08 4264.17 
-2359.55 -1000.44 4263.82 
-2363.59 -1002.55 4261.44 
-2362.7 -1001.82 4262.25 
-2363.9 -1003.11 4261.5 
-2362.05 -1001.27 4262.65 
-2360.82 -1000.65 4263.18 
-2364.67 -1005.15 4262.98 
-2364.62 -1004.74 4262.63 
-2364.38 -1004.21 4262.21 
-2364.13 -1003.67 4261.73 
-2388.97 -1005.92 4235.7 
-2391.87 -1006.05 4232.22 
-2387.42 -1006.02 4237.74 
-2384.8 -1005.93 4240.91 
-2382 -1005.86 4244.35 
-2380.89 -1006.02 4246.14 
-2378.36 -1005.97 4249.49 
-2375.43 -1005.94 4253.41 
-2373.58 -1006.06 4256.17 
-2371 -1005.9 4259.35 
-2365.66 -1005.72 4265.96 
-2368.76 -1005.93 4262.46 
-2364.38 -1005.67 4263.75 
-2364.55 -1005.45 4263.3 
-2364.42 -1005.74 4263.6 
-2364.75 -1005.91 4265.53 
-2364.35 -1005.93 4264.3 
-2396.97 -1005.87 4225.66 
-2396.4 -1006.03 4226.55 
-2396.51 -1006.23 4226.64 
-2394.69 -1006.25 4228.92 
-2399.19 -1005.31 4222.21 
-2398.63 -1005.52 4223.21 
-2397.89 -1005.7 4224.32 
-2398.74 -1004.68 4222.04 
-2399.31 -1004.44 4221.56 
-2398.56 -1004.72 4222.17 
-2398.83 -1005 4222.19 
-2354.85 -1022.43 4277.91 
-2355.27 -1020.87 4277.52 
-2355.11 -1019.27 4276.5 
-2355.6 -1015.7 4273.48 
-2358.5 -1007.09 4267.25 
-2354.83 -1024.14 4278.48 
-2357.3 -1028.58 4281.88 
-2352.57 -1035.06 4292.28 
-2359.95 -1036.23 4293.91 
-2355.8 -1037.01 4293.56 
-2364.56 -1035.9 4294.66 
-2370.26 -1036.34 4296 
-2371.48 -1034.51 4294.33 
-2364.65 -1029.29 4286.21 
-2362.77 -1029.07 4285.69 
-2333.03 -1006.52 4287.47 
-2334.34 -1008.66 4289.51 
-2353.21 -847.519 4110.14 
-2344.83 -836.22 4112.81 
-2346.31 -835.452 4115.17 
-2345.86 -835.656 4114.4 
-2344.67 -836.095 4112.9 
-2345.03 -837.179 4111.76 
-2337.88 -844.597 4105 
-2341.03 -846.093 4105.07 
-2338.82 -845.636 4104.55 
-2343.49 -846.671 4105.48 
-2334.93 -844.284 4103.54 
-2335.5 -843.299 4104.5 
-2337.95 -841.487 4106.96 
-2341.01 -839.097 4110.19 
-2344.23 -836.61 4113.58 
-2346.03 -835.291 4115.31 
-2355.02 -846.275 4107.55 
-2351.71 -843.456 4105.49 
-2348.38 -841.103 4103.4 
-2345.25 -842.139 4103.18 
-2344.57 -841.85 4104.47 
-2344.21 -842.25 4103.83 
-2339.87 -842.149 4106.97 
-2341.59 -841.094 4107.9 
-2339.17 -841.432 4109.36 
-2341.8 -840.668 4108.44 
-2343.54 -838.162 4111.2 
-2342.67 -838.53 4111.09 
-2344.56 -837.714 4111.33 
-2344.29 -837.217 4111.85 
-2313.93 -991.808 4269.21 
-2312.64 -996.098 4276.69 
-2323.11 -976.886 4237.59 
-2319.89 -988.889 4249.67 
-2320.51 -992.844 4253.66 
-2318.83 -997.404 4263.86 
-2319.77 -998.464 4263.38 
-2320.77 -996.281 4257.28 
-2321.01 -999.966 4263.25 
-2317.01 -992.963 4261.43 
-2317.82 -996.885 4265.21 
-2316.16 -992.612 4263.05 
-2315.4 -991.637 4264.39 
-2312.52 -984.096 4262.6 
-2315.48 -994.364 4267.95 
-2315.05 -993.587 4268.05 
-2320.98 -982.443 4243.38 
-2320.45 -987.791 4247.68 
-2322.05 -982.515 4242.86 
-2314.38 -992.865 4269.08 
-2314.75 -993.42 4268.67 
-2265.5 -841.396 4105.27 
-2329.43 -1000.57 4282.2 
-2331.42 -1007.95 4288.69 
-2327.36 -1000.67 4282.25 
-2325.67 -996.867 4278.42 
-2323.52 -995.997 4277.33 
-2321.02 -995.084 4276.24 
-2317.71 -995.714 4276.98 
-2320.22 -996.291 4277.7 
-2316.86 -998.12 4279.71 
-2313.78 -999.861 4281.26 
-2315.86 -1004.45 4285.28 
-2363.49 -971.263 4233.74 
-2360.82 -969.986 4234.63 
-2359.05 -973.494 4235.68 
-2360.09 -979.092 4235.41 
-2360.03 -977.801 4235.6 
-2360.41 -980.634 4235.43 
-2372.14 -980.897 4228.25 
-2369.43 -979.027 4229.97 
-2375.76 -983.384 4221.92 
-2378.43 -985.325 4218.96 
-2367.66 -976.425 4230.67 
-2380.93 -987.015 4220.27 
-2380.87 -987.243 4218.64 
-2384.73 -989.782 4220.53 
-2383.64 -989.21 4219.58 
-2400.26 -1004.96 4220.81 
-2402.58 -1004.51 4219.49 
-2402.52 -1004.68 4219.42 
-2402.81 -1004.84 4219.58 
-2396.91 -996.743 4220.39 
-2397.65 -996.248 4220.23 
-2398.12 -995.722 4220.11 
-2399.23 -995.451 4220.06 
-2399.1 -995.489 4219.96 
-2399.95 -995.682 4220.07 
-2391.27 -994.756 4218.61 
-2392.17 -995.094 4219.72 
-2392.91 -995.387 4221 
-2395.1 -996.438 4220.87 
-2396.21 -996.806 4220.58 
-2393.75 -995.967 4221.2 
-2388.02 -992.434 4219.12 
-2401.61 -999.757 4220.79 
-2401.69 -1001.28 4220.84 
-2401.8 -1002.49 4220.8 
-2402.07 -1003.53 4220.63 
-2403.23 -1003.89 4219.63 
-2403.32 -1004.11 4219.5 
-2402.84 -1004.35 4219.47 
-2402.85 -1004.06 4219.52 
-2352.35 -964.714 4197.02 
-2350.11 -968.018 4201.69 
-2351.01 -968.718 4202.6 
-2352.17 -969.136 4203.22 
-2355.18 -960.489 4190.68 
-2353.48 -969.597 4203.93 
-2354.84 -970.129 4204.64 
-2357.2 -957.364 4186.13 
-2357.54 -970.734 4206.33 
-2356.77 -970.648 4205.74 
-2342.77 -970.6 4207.73 
-2345.86 -970.749 4207.27 
-2354.96 -970.994 4206.77 
-2356.05 -970.65 4205.26 
-2357.18 -954.554 4183.52 
-2358.88 -950.593 4179.98 
-2358.41 -953.003 4181.51 
-2357.94 -945.258 4178.63 
-2358.76 -947.714 4178.87 
-2357.11 -942.588 4178.3 
-2355.16 -940.232 4179.25 
-2356.48 -940.211 4177.92 
-2339.09 -961.098 4200.09 
-2340.48 -958.673 4198.45 
-2339.47 -961.607 4199.97 
-2339.64 -962.385 4200.27 
-2339.94 -961.839 4199.75 
-2339.74 -963.924 4200.85 
-2339.51 -965.045 4201.43 
-2339.2 -966.201 4202.1 
-2338.95 -967.317 4202.7 
-2338.85 -968.648 4203.23 
-2338.85 -969.684 4203.9 
-2339.86 -962.922 4200.39 
-2339.34 -970.008 4205.01 
-2338.99 -970.583 4207.64 
-2340.46 -970.208 4205.79 
-2346.1 -944.633 4186.8 
-2345.76 -943.917 4186.63 
-2344.4 -947.339 4190.02 
-2348.92 -942.671 4182.98 
-2345.13 -955.053 4192.76 
-2345.27 -950.125 4190.22 
-2352.05 -933.272 4179.09 
-2351.16 -933.501 4179.86 
-2350.81 -932.934 4180.02 
-2349.77 -932.937 4181.14 
-2349.14 -932.824 4181.69 
-2348.15 -932.948 4182.52 
-2354.67 -937.99 4178.77 
-2355.15 -935.997 4177.43 
-2354.21 -934.524 4177.7 
-2353.23 -935.04 4178.95 
-2346.97 -934.599 4182.01 
-2347.64 -935.484 4180.54 
-2348.74 -934.597 4180.29 
-2349.53 -934.392 4180.06 
-2350.1 -939.691 4180.33 
-2350.75 -939.961 4179.99 
-2350.71 -941.079 4180.66 
-2349.93 -941.986 4181.78 
-2351.45 -934.797 4179.53 
-2351.36 -936.586 4179.53 
-2351.27 -938.201 4179.53 
-2362.27 -983.344 4240.88 
-2361.37 -983.023 4237.67 
-2362.8 -983.993 4244.28 
-2361.7 -982.559 4235.26 
-2363.09 -989.385 4247.24 
-2332.63 -1003.08 4258.21 
-2337.77 -1009.92 4263.94 
-2339.49 -1008.72 4263.04 
-2336.86 -1011.36 4265.21 
-2335.19 -1010.45 4264.64 
-2348.98 -1001.07 4257.19 
-2353.49 -997.544 4255.88 
-2346.33 -1008.78 4264.1 
-2342.41 -1010.27 4264.66 
-2356.4 -996.376 4255.81 
-2356.61 -997.123 4257.23 
-2357.66 -998.491 4258.88 
-2357.66 -994.713 4252.32 
-2356.41 -995.112 4252.73 
-2361.25 -996.137 4251.08 
-2358.91 -996.132 4254.35 
-2360.87 -997.469 4254.22 
-2363.21 -995.519 4249.95 
-2329.41 -998.23 4254.5 
-2323.56 -983.179 4242.58 
-2326.53 -994.367 4251.73 
-2323.14 -989.032 4247.54 
-2345.55 -1029.64 4292.18 
-2343.11 -1028.39 4292.44 
-2340.13 -1024.58 4291.99 
-2339.94 -1021.07 4291.17 
-2338.67 -1019.9 4291.3 
-2348.68 -1034.61 4293.02 
-2351.88 -1037.61 4293.51 
-2337.54 -1018.6 4291.38 
-2336.82 -1015.15 4291.05 
-2336.13 -1017.12 4291.5 
-2335.14 -1014.13 4291.3 
-2335.57 -1012.46 4290.95 
-2334.81 -1010.91 4290.91 
-2333.39 -1009.61 4290.41 
-2358.33 -1002.28 4263.68 
-2359.2 -1000.51 4263.43 
-2363.61 -1002.54 4261.11 
-2362.96 -1001.97 4261.73 
-2363.85 -1003.04 4261.26 
-2362.82 -1001.8 4261.58 
-2361.87 -1001.1 4262.41 
-2360.35 -1000.5 4262.84 
-2364.6 -1005.52 4263.13 
-2364.73 -1005.23 4262.82 
-2364.63 -1004.8 4262.47 
-2364.39 -1004.25 4262.05 
-2364.3 -1004.08 4261.77 
-2364.06 -1003.52 4261.45 
-2390.18 -1006.15 4234.44 
-2392.81 -1006.27 4231.29 
-2389.32 -1006.29 4235.66 
-2386.68 -1006.18 4238.85 
-2383.92 -1006.09 4242.21 
-2382.98 -1006.26 4243.79 
-2380.3 -1006.24 4247.41 
-2377.66 -1006.15 4250.81 
-2375.94 -1006.24 4253.33 
-2374.08 -1006.32 4256.02 
-2371.42 -1006.14 4259.27 
-2365.7 -1005.92 4266.23 
-2368.38 -1006.11 4263.35 
-2364.3 -1006.03 4263.95 
-2364.48 -1005.82 4263.45 
-2364.35 -1006.09 4263.77 
-2364.91 -1006.13 4266.02 
-2364.52 -1006.13 4264.89 
-2399.28 -1005.9 4222.8 
-2399.15 -1006.08 4223.17 
-2398.64 -1006.24 4223.98 
-2399.26 -1006.43 4223.42 
-2397.38 -1006.49 4225.83 
-2395.08 -1006.49 4228.7 
-2398.73 -1005.06 4222.3 
-2399.13 -1005.37 4222.27 
-2399.42 -1005.66 4222.32 
-2398.87 -1004.29 4221.88 
-2399.61 -1004.16 4221.31 
-2399.98 -1004.38 4220.87 
-2399.83 -1004.64 4220.9 
-2398.33 -1004.73 4222.32 
-2398.64 -1004.16 4222 
-2353.63 -1024.38 4277.32 
-2354.41 -1021.01 4276.95 
-2353.7 -1022.55 4276.92 
-2354.29 -1020.19 4276.49 
-2354.34 -1018.56 4275.28 
-2355.27 -1014.97 4271.9 
-2357.66 -1007.45 4266.03 
-2355.35 -1027.64 4279.46 
-2357.85 -1031.48 4282.67 
-2360.01 -1030.44 4284.88 
-2362.68 -1037.53 4295.37 
-2358.84 -1037.87 4294.79 
-2355.56 -1038.82 4294.74 
-2368.96 -1037.39 4296.46 
-2367.45 -1038.75 4297.05 
-2374.01 -1038.2 4297.34 
-2373.94 -1040.25 4296.69 
-2373.16 -1040.69 4295.81 
-2371.14 -1035.16 4293.11 
-2365.48 -1029.61 4285.88 
-2373.81 -1042.3 4299.99 
-2371.57 -1043.22 4300.24 
-2356.79 -848.243 4111.02 
-2357.14 -852.617 4105.46 
-2355.09 -849.558 4106.66 
-2345.92 -847.255 4105.83 
-2343.85 -836.902 4112.11 
-2345.88 -835.382 4114.93 
-2345.83 -835.555 4114.51 
-2344.54 -836.017 4112.88 
-2343.78 -836.769 4112.15 
-2335.03 -845.136 4102.72 
-2335.4 -845.518 4102.29 
-2336.13 -845.657 4102.28 
-2334.79 -843.771 4104.22 
-2335.91 -843.171 4105.36 
-2334.19 -844.652 4103.55 
-2336.33 -842.336 4105.53 
-2335.44 -842.543 4105.39 
-2336.06 -842.284 4105.6 
-2338.56 -840.605 4107.86 
-2341.61 -838.259 4111.06 
-2344.94 -835.708 4114.54 
-2345.64 -835.227 4115.07 
-2350.67 -843.971 4104.56 
-2345.36 -842.784 4102.66 
-2337.69 -844.224 4102.67 
-2337.12 -845.232 4101.82 
-2338.22 -842.057 4107.68 
-2337.88 -842.188 4107.39 
-2338.49 -843.302 4104.31 
-2341.71 -839.223 4110.65 
-2339.75 -840.9 4109.74 
-2338.84 -840.811 4110.02 
-2343.58 -837.525 4111.72 
-2342.94 -838.002 4111.41 
-2342.37 -838.383 4111.17 
-2312.84 -996.267 4276.25 
-2312.33 -1003.63 4284.38 
-2322.07 -992.708 4252.04 
-2322.76 -996.538 4256.1 
-2322.96 -999.906 4260.25 
-2319.66 -1001.19 4268.35 
-2318.02 -1000.63 4270.11 
-2321.23 -1002.58 4267.92 
-2322.56 -1002.17 4264.2 
-2316.93 -997.986 4269.35 
-2316.27 -997.02 4269.69 
-2313.65 -997.862 4275.98 
-2314.37 -998.235 4275.2 
-2313.4 -997.12 4275.76 
-2321.69 -988.651 4247.94 
-2323.34 -993.045 4251.7 
-2313.09 -996.488 4275.88 
-2329.25 -1008.07 4288.73 
-2331.02 -1009.78 4290.44 
-2325.06 -1000.29 4281.87 
-2327.11 -1008.22 4288.8 
-2322.75 -997.746 4279.41 
-2319.05 -998.435 4280.06 
-2321.3 -1000.17 4281.69 
-2318.09 -1004.84 4285.67 
-2313.94 -1007.64 4287.99 
-2317.47 -1011.23 4291.18 
-2315.37 -1012.13 4291.92 
-2364.12 -972.313 4233.49 
-2360.06 -972.92 4235.45 
-2362.86 -971.531 4234.34 
-2361.88 -979.924 4235.2 
-2361.14 -977.719 4235.9 
-2360.82 -973.649 4235.5 
-2363.14 -982.086 4234.68 
-2373.75 -982.41 4226.7 
-2370.5 -980.653 4229.88 
-2368.88 -978.509 4230.11 
-2378.1 -985.499 4218.62 
-2380.91 -987.585 4216.81 
-2367.46 -976.555 4230.83 
-2383.66 -989.482 4218.05 
-2383.23 -989.376 4216.7 
-2386.12 -991.182 4219.05 
-2386.22 -991.517 4217.59 
-2399.96 -1005.42 4219.68 
-2400.99 -1005.16 4220.29 
-2402.86 -1004.97 4219.44 
-2401.59 -1004.33 4219.83 
-2401.78 -1004.12 4219.81 
-2400.78 -1004.35 4220.14 
-2400.97 -1004.66 4219.97 
-2398.16 -996.851 4220.21 
-2398.01 -997.322 4220.3 
-2397.18 -997.202 4220.43 
-2398.87 -996.226 4220.05 
-2399.75 -995.885 4219.97 
-2401.04 -996.861 4220.28 
-2390.61 -994.601 4217.91 
-2391.74 -995.05 4219.19 
-2392.6 -995.321 4220.94 
-2394.85 -996.481 4221 
-2396.17 -996.925 4220.66 
-2393.52 -996.004 4221.33 
-2392.39 -995.306 4220.97 
-2402.42 -1000.22 4220.56 
-2402.33 -1001.31 4220.6 
-2402.25 -1002.47 4220.63 
-2402.49 -1003.47 4220.49 
-2403.43 -1003.71 4219.68 
-2402.5 -1003.61 4219.7 
-2402.36 -1003.82 4219.68 
-2402.34 -1004.07 4219.66 
-2350.02 -967.026 4199.86 
-2350.07 -968.634 4202 
-2352.86 -963.056 4194.08 
-2351.32 -969.165 4202.64 
-2352.7 -969.6 4203.4 
-2354.34 -960.353 4189.82 
-2357.72 -955.661 4183.57 
-2353.95 -970.045 4204.07 
-2355.05 -970.528 4204.63 
-2357.72 -971.172 4206.31 
-2357.15 -971.176 4205.8 
-2341.57 -970.487 4206.57 
-2347.7 -970.992 4207.04 
-2352 -971.3 4206.8 
-2355.97 -971.047 4205.16 
-2359.93 -952.135 4179.49 
-2360.66 -951.054 4178.36 
-2360.11 -948.771 4177.96 
-2359.55 -945.141 4176.95 
-2358.55 -942.361 4176.75 
-2357.72 -939.879 4176.52 
-2355.88 -938.088 4177.6 
-2357.08 -937.7 4176.22 
-2340.61 -959.106 4198.41 
-2339.56 -960.89 4199.99 
-2339.99 -961.064 4199.79 
-2340.18 -962.403 4199.85 
-2340.5 -961.847 4199.42 
-2340.43 -961.342 4199.35 
-2340.28 -963.456 4200.18 
-2340.03 -964.765 4200.85 
-2339.73 -965.985 4201.54 
-2339.48 -967.139 4202.17 
-2339.28 -968.32 4202.79 
-2339.15 -969.606 4203.47 
-2339.67 -970.084 4204.28 
-2340.43 -970.273 4205.12 
-2341.18 -970.477 4205.9 
-2347.03 -945.218 4186.09 
-2349.6 -942.997 4182.68 
-2347.21 -946.176 4186.37 
-2345.81 -957.366 4192.95 
-2346.23 -952.197 4190 
-2347.8 -946.996 4186.13 
-2351.65 -932.576 4178.17 
-2352.59 -933.143 4177.95 
-2352.36 -934.465 4178.97 
-2350.44 -932.604 4180.35 
-2350.1 -932.341 4180.65 
-2349.09 -932.389 4181.77 
-2348.56 -932.232 4182.23 
-2356.3 -935.56 4176.08 
-2354.23 -933.745 4176.97 
-2350.84 -932.086 4177.54 
-2347.13 -934.012 4181.87 
-2348.17 -933.788 4180.8 
-2348.7 -933.78 4180.54 
-2351.91 -938.682 4179.35 
-2351.26 -939.985 4179.6 
-2351.74 -940.276 4179.54 
-2351.49 -941.569 4180.33 
-2350.73 -942.428 4181.43 
-2352.49 -935.71 4178.98 
-2352.78 -936.7 4178.83 
-2364.23 -983.842 4241.61 
-2364.56 -983.879 4238.53 
-2363.94 -983.709 4236.32 
-2364.79 -986.676 4243.87 
-2364.58 -983.285 4234.76 
-2364.85 -993.967 4247.74 
-2332.62 -1006.82 4261.87 
-2340.09 -1013.12 4266.49 
-2338.76 -1013.99 4267.06 
-2337.25 -1014.1 4267.19 
-2334.32 -1011.89 4265.96 
-2336.06 -1013.97 4267.2 
-2354.27 -998.81 4257.41 
-2350.62 -1002.4 4258.8 
-2349.04 -1007.03 4262.61 
-2358.56 -999.492 4260.02 
-2348.56 -1012.54 4267.46 
-2345.2 -1012.94 4267.19 
-2342.16 -1014.07 4267.29 
-2356.86 -995.778 4254.85 
-2358.71 -997.577 4257.81 
-2362.29 -1000.91 4259.01 
-2362.06 -1000.92 4259.46 
-2361.55 -1000.83 4260.02 
-2362.28 -1001.25 4260.35 
-2357.62 -995.547 4254.56 
-2362.77 -998.737 4254.35 
-2364.02 -999.045 4253.96 
-2359.38 -997.755 4256.85 
-2363.35 -1001.31 4258.15 
-2364.07 -1001.52 4257.89 
-2365.15 -999.682 4254.73 
-2329.64 -1002.3 4258.55 
-2325.83 -995.84 4253.58 
-2349.12 -1040.07 4294.97 
-2346.39 -1037.58 4294.68 
-2343.36 -1034.02 4294.31 
-2337.93 -1022.36 4291.92 
-2340.61 -1031.12 4294.08 
-2336.47 -1020.74 4291.95 
-2352.2 -1040.12 4294.92 
-2335.53 -1018.93 4291.91 
-2334.72 -1015.92 4291.66 
-2333.79 -1017.72 4292.14 
-2333.12 -1014.46 4291.83 
-2333.35 -1012.58 4291.5 
-2332.59 -1010.84 4291.34 
-2357.91 -1002.74 4263.23 
-2358.81 -1000.69 4263.03 
-2363.47 -1002.32 4260.85 
-2363.78 -1002.9 4260.99 
-2362.52 -1001.51 4261.57 
-2361.3 -1000.84 4262.23 
-2359.45 -1000.27 4262.62 
-2364.53 -1005.88 4263.29 
-2364.66 -1005.59 4262.96 
-2364.77 -1005.3 4262.64 
-2364.6 -1004.75 4262.24 
-2364.49 -1004.53 4261.93 
-2364.22 -1003.92 4261.48 
-2363.99 -1003.39 4261.19 
-2392.22 -1006.41 4232.19 
-2391.22 -1006.54 4233.57 
-2388.63 -1006.45 4236.7 
-2385.85 -1006.34 4240.09 
-2384.99 -1006.54 4241.63 
-2382.45 -1006.45 4244.91 
-2380.93 -1006.55 4247.18 
-2378.64 -1006.39 4249.97 
-2376.8 -1006.5 4252.69 
-2375.04 -1006.6 4255.28 
-2372.62 -1006.44 4258.25 
-2370.4 -1006.29 4260.97 
-2365.76 -1006.12 4266.56 
-2368.39 -1006.35 4263.82 
-2364.32 -1006.32 4264.27 
-2364.39 -1006.19 4263.63 
-2364.28 -1006.44 4263.94 
-2365.04 -1006.38 4266.45 
-2364.68 -1006.35 4265.39 
-2399.3 -1005.71 4222.41 
-2399.43 -1005.91 4222.47 
-2399.73 -1006.18 4222.48 
-2399.9 -1006.56 4222.71 
-2399.64 -1006.26 4222.59 
-2399.41 -1006.73 4223.56 
-2397.04 -1006.72 4226.51 
-2394.21 -1006.65 4229.96 
-2398.25 -1004.83 4222.45 
-2398.62 -1005.13 4222.42 
-2399 -1005.42 4222.39 
-2399.19 -1003.99 4221.61 
-2399.91 -1003.87 4221.04 
-2400.13 -1004.14 4220.77 
-2398.08 -1004.4 4222.37 
-2398.59 -1003.91 4221.99 
-2399.42 -1003.65 4221.39 
-2399.16 -1003.81 4221.6 
-2354.66 -1027.79 4278.93 
-2353.07 -1024 4276.76 
-2353.45 -1021.44 4276.3 
-2353.57 -1020.18 4275.84 
-2354.14 -1015.69 4272.06 
-2353.51 -1018.39 4274.32 
-2356.53 -1008.4 4265.43 
-2356.29 -1031.14 4280.39 
-2358.94 -1031.47 4284.64 
-2357.51 -1032.51 4282.39 
-2359.71 -1031.25 4285.12 
-2365.08 -1030.36 4285.39 
-2365.8 -1040.01 4297.56 
-2360.31 -1039.23 4296.03 
-2356.16 -1040.37 4295.93 
-2369.66 -1045.09 4301.08 
-2376.25 -1041.71 4299.7 
-2374.9 -1041.03 4297.43 
-2375.29 -1044.36 4297.74 
-2374.79 -1044.66 4297.5 
-2373.24 -1043.23 4296.29 
-2371.71 -1040.26 4295.16 
-2370.06 -1035.53 4291.92 
-2376.7 -1046.51 4302.81 
-2374.59 -1047.6 4303.17 
-2372.55 -1048.95 4303.69 
-2355.68 -849.049 4108.64 
-2351.31 -848.199 4107.5 
-2358.5 -849.708 4109.08 
-2358.67 -855.134 4103.32 
-2352.08 -854.805 4099.86 
-2352.21 -852.994 4102.56 
-2350.6 -848.947 4103.71 
-2342.47 -846.804 4104.11 
-2335.66 -845.645 4101.75 
-2343.3 -837.441 4111.74 
-2345.52 -835.317 4114.7 
-2345.68 -835.469 4114.5 
-2344.44 -835.948 4112.9 
-2343.66 -836.704 4112.15 
-2343.17 -837.368 4111.74 
-2334.93 -845.912 4101.01 
-2334.27 -843.619 4105.45 
-2335.56 -842.441 4106.88 
-2337 -842.279 4107.22 
-2336.38 -841.555 4109.21 
-2335.87 -841.39 4109.79 
-2336.77 -841.539 4106.33 
-2336.14 -841.394 4106.54 
-2334.94 -842.172 4106.86 
-2334.18 -843.181 4106.53 
-2336.66 -841.355 4106.6 
-2338.96 -839.922 4108.51 
-2342.44 -837.291 4112.13 
-2345.09 -835.179 4114.91 
-2345.3 -835.187 4114.82 
-2344.48 -844.639 4102.43 
-2337.62 -845.758 4101.4 
-2337.04 -840.827 4110.29 
-2341.18 -839.245 4110.77 
-2341.92 -837.988 4111.46 
-2339.73 -840.22 4110.28 
-2338.63 -840.288 4110.33 
-2337.46 -840.5 4110.5 
-2342.68 -838.014 4111.35 
-2342.19 -837.837 4111.5 
-2312.42 -1004.39 4284.5 
-2312.92 -1011.97 4291.57 
-2325.61 -1000.42 4258.74 
-2325.5 -1004.43 4263.5 
-2325.05 -1006.37 4266.74 
-2320.09 -1003.25 4269.66 
-2318.95 -1002.36 4270.54 
-2318.47 -1005.47 4274.16 
-2317.53 -1004.67 4275.06 
-2316.51 -1000.32 4273.65 
-2323.69 -1005.34 4267.72 
-2321.87 -1004.88 4269.5 
-2315.14 -999.529 4275.96 
-2315.76 -1005.54 4281.46 
-2315.22 -1006.74 4283.6 
-2316.44 -1006.62 4280.22 
-2313.36 -1005.26 4284.24 
-2326.95 -1000.69 4258.27 
-2328.59 -1010.21 4290.72 
-2330.14 -1010.94 4291.56 
-2325.21 -1008.51 4289 
-2323.25 -1004.88 4285.82 
-2326.25 -1010.75 4291.12 
-2320.2 -1005.16 4285.99 
-2321.82 -1009.83 4290.07 
-2319.75 -1010.99 4291.04 
-2319.53 -1012.51 4292.5 
-2317.29 -1013.14 4292.99 
-2315.06 -1013.76 4293.49 
-2366.84 -976.211 4231.3 
-2361.55 -973.947 4235.45 
-2363.82 -972.945 4233.77 
-2363.55 -980.528 4235.51 
-2362.24 -978.322 4235.92 
-2362.33 -976.889 4235.96 
-2371.7 -981.877 4229.58 
-2375.17 -983.837 4225.09 
-2369.58 -980.295 4230.29 
-2368.6 -978.374 4230.24 
-2378.77 -986.504 4218.36 
-2381.49 -988.346 4214.91 
-2383.94 -990.259 4214.7 
-2386.21 -991.722 4216.34 
-2385.66 -991.496 4215.18 
-2387.78 -992.68 4217.75 
-2389.81 -994.372 4217.05 
-2401.13 -1004.99 4219.56 
-2400.58 -1005.71 4219.07 
-2402 -1005.3 4219.73 
-2402.73 -1005.1 4219.27 
-2400.81 -1004.08 4220.16 
-2401.57 -1003.79 4219.9 
-2400.83 -1003.83 4220.18 
-2397.59 -997.557 4220.44 
-2398.63 -997.712 4220.28 
-2399.02 -997.428 4220.14 
-2399.24 -996.875 4220.05 
-2399.91 -996.436 4220 
-2400.53 -996.122 4220.05 
-2401.76 -996.943 4220.3 
-2402.61 -999.449 4220.48 
-2390.34 -994.727 4217.05 
-2391.16 -994.991 4218.43 
-2391.49 -994.947 4219.35 
-2394.62 -996.503 4221.11 
-2395.88 -996.94 4220.79 
-2396.88 -997.4 4220.6 
-2393.71 -996.215 4221.35 
-2392.26 -995.344 4221.06 
-2403.1 -1000.63 4220.3 
-2403.02 -1001.67 4220.33 
-2403.18 -1003.19 4220.06 
-2403.6 -1003.56 4219.73 
-2402.49 -1003.39 4219.8 
-2401.8 -1003.51 4219.87 
-2348.93 -968.335 4201.22 
-2350.5 -965.453 4197.12 
-2349.99 -968.961 4201.88 
-2352.23 -969.735 4203.09 
-2350.23 -969.5 4202.44 
-2353.34 -970.232 4203.79 
-2351.52 -963.156 4193.7 
-2352.1 -961.048 4191.28 
-2356.7 -955.941 4184.12 
-2360.11 -950.401 4178.21 
-2353.41 -970.814 4204.41 
-2355.37 -971.539 4206.51 
-2356.4 -971.709 4206.25 
-2354.37 -971.561 4205.78 
-2343.3 -970.825 4206.37 
-2349.81 -971.361 4204.81 
-2351.55 -971.473 4205.32 
-2361.84 -946.243 4174.31 
-2362.08 -947.69 4175.03 
-2362.05 -949.183 4176.1 
-2361.01 -947.081 4176.33 
-2359.85 -941.579 4175.11 
-2360.87 -943.993 4175.13 
-2358.89 -939.121 4175.02 
-2358.22 -937.003 4174.77 
-2356.99 -935.065 4175.01 
-2340.76 -959.574 4198.42 
-2340.8 -960.115 4198.35 
-2341.14 -960.773 4197.81 
-2340.68 -962.46 4199.47 
-2345.2 -964.004 4197.79 
-2343.53 -963.127 4197.73 
-2342.7 -961.44 4196.35 
-2342.11 -962.377 4197.58 
-2340.37 -964.548 4200.47 
-2340.81 -963.586 4199.86 
-2340.17 -965.878 4201.21 
-2339.93 -967.047 4201.86 
-2339.69 -968.218 4202.52 
-2339.53 -969.412 4203.14 
-2339.72 -970.248 4203.86 
-2340.5 -970.445 4204.73 
-2341.26 -970.647 4205.54 
-2349.92 -943.413 4182.75 
-2347.24 -954.269 4189.72 
-2346.02 -958.881 4192.94 
-2348.48 -947.803 4185.79 
-2350.37 -943.807 4182.69 
-2352.18 -932.718 4176.86 
-2353.36 -933.867 4177.56 
-2349.83 -931.979 4180.93 
-2349.37 -931.837 4181.26 
-2347.66 -933.039 4181.94 
-2353.71 -933.465 4176.82 
-2350.05 -931.598 4176.83 
-2351.47 -932.154 4175.73 
-2353.17 -937.72 4178.58 
-2352.47 -941.139 4179.38 
-2353.26 -939.089 4178.63 
-2351.96 -942.255 4180.37 
-2350.99 -942.946 4181.61 
-2353.7 -935.042 4177.53 
-2354.09 -936.016 4177.24 
-2365.74 -984.088 4239.62 
-2366.38 -984.171 4236.67 
-2365.76 -983.892 4235.31 
-2366.09 -991.782 4244.66 
-2366.53 -986.296 4240.73 
-2364.46 -981.73 4236.29 
-2365.91 -998.832 4253.43 
-2332.29 -1009.86 4264.72 
-2341.23 -1017.4 4269.24 
-2340.02 -1018.12 4269.67 
-2338.64 -1017.63 4269.41 
-2336.45 -1018.12 4269.88 
-2337.47 -1018.64 4270.14 
-2334.68 -1014.35 4268 
-2333.06 -1012.54 4267.77 
-2335.3 -1017.61 4269.84 
-2353.82 -1000.96 4259.13 
-2358.35 -999.821 4260.69 
-2351.81 -1005.56 4262.73 
-2350.81 -1011.51 4266.83 
-2361.44 -1000.93 4260.97 
-2349.53 -1015.34 4270 
-2346.62 -1015.43 4269.23 
-2344.2 -1015.93 4268.84 
-2342.88 -1018.08 4269.84 
-2362.85 -1001.17 4258.57 
-2363.32 -1002.01 4259.47 
-2363.46 -1002.36 4259.51 
-2363.09 -1001.7 4259.65 
-2362.94 -1001.66 4260.31 
-2363.32 -1002.01 4259.85 
-2364.7 -1001.73 4257.64 
-2363.63 -1002.74 4259.59 
-2363.87 -1003.02 4259.46 
-2364.56 -1003.24 4258.81 
-2365.26 -1003.18 4258.05 
-2330.15 -1006.74 4262.68 
-2353.12 -1041.89 4296.32 
-2350.14 -1043.24 4296.61 
-2346.73 -1042.98 4296.58 
-2344.04 -1040.96 4296.5 
-2337.95 -1027.99 4293.75 
-2341.44 -1038.49 4296.39 
-2335.65 -1025.05 4293.39 
-2334.45 -1020.69 4292.42 
-2333.49 -1019.41 4292.46 
-2332.73 -1016.19 4292.17 
-2331.68 -1019.48 4292.9 
-2331.55 -1017.72 4292.68 
-2330.93 -1015.65 4292.52 
-2331.38 -1013.83 4292.15 
-2331.1 -1012.24 4291.98 
-2357.12 -1002.8 4262.6 
-2357.44 -1001.55 4262.02 
-2363.57 -1002.46 4260.59 
-2363.02 -1001.85 4260.86 
-2363.8 -1003 4260.82 
-2362.04 -1001.15 4261.56 
-2360.46 -1000.57 4262.03 
-2358.66 -1000.37 4262.16 
-2364.45 -1006.23 4263.46 
-2364.58 -1005.97 4263.14 
-2364.7 -1005.71 4262.84 
-2364.8 -1005.51 4262.57 
-2364.75 -1005.12 4262.31 
-2364.67 -1004.98 4262.04 
-2364.42 -1004.4 4261.67 
-2364.25 -1004.04 4261.31 
-2364.03 -1003.52 4261.05 
-2392.94 -1006.77 4231.68 
-2390.24 -1006.71 4234.98 
-2387.57 -1006.61 4238.28 
-2386.36 -1006.81 4240.33 
-2383.62 -1006.69 4243.82 
-2381.96 -1006.83 4246.35 
-2379.34 -1006.67 4249.58 
-2377.55 -1006.77 4252.23 
-2375.51 -1006.86 4255.17 
-2373.1 -1006.69 4258.11 
-2370.7 -1006.53 4261.05 
-2365.82 -1006.29 4266.89 
-2368.64 -1006.59 4263.98 
-2365.93 -1006.48 4267.08 
-2364.47 -1006.55 4264.78 
-2364.31 -1006.57 4263.8 
-2364.29 -1006.72 4264.23 
-2365.15 -1006.63 4266.8 
-2364.8 -1006.6 4265.76 
-2398.88 -1005.48 4222.51 
-2398.94 -1005.64 4222.59 
-2399.25 -1005.93 4222.6 
-2399.47 -1006.28 4222.72 
-2399.77 -1006.54 4222.72 
-2399.14 -1005.99 4222.72 
-2399.61 -1006.94 4223.54 
-2400.04 -1006.78 4222.72 
-2397.79 -1006.96 4225.85 
-2395.53 -1006.88 4228.56 
-2397.81 -1004.62 4222.59 
-2398.16 -1004.92 4222.56 
-2398.53 -1005.2 4222.53 
-2400.2 -1003.62 4220.79 
-2398.16 -1003.86 4222.23 
-2398.72 -1003.44 4221.83 
-2399.34 -1003.42 4221.41 
-2400.62 -1003.45 4220.43 
-2354.41 -1028.68 4278.91 
-2356.05 -1031.62 4280.28 
-2352.36 -1024.02 4276.16 
-2352.73 -1021.31 4275.58 
-2352.84 -1019.79 4274.74 
-2353.17 -1015.68 4271.53 
-2355.3 -1008.3 4265.53 
-2352.63 -1018.11 4273.42 
-2359.28 -1033.21 4284.98 
-2357.2 -1033.65 4282.71 
-2364.18 -1030.93 4285.16 
-2360.08 -1032.58 4285.65 
-2364.28 -1041.25 4298.09 
-2367.72 -1046.72 4301.77 
-2359.11 -1040.95 4296.94 
-2356.52 -1042.41 4297.39 
-2370.62 -1050.8 4304.51 
-2378.57 -1045.18 4301.97 
-2377.33 -1044.74 4299.85 
-2376.08 -1044.92 4298.19 
-2376.25 -1047.49 4298.26 
-2377.35 -1048.88 4298.61 
-2374.46 -1046.34 4297.41 
-2375.94 -1048.32 4298.17 
-2371.11 -1045.29 4295.63 
-2369.25 -1043.18 4294.46 
-2367.57 -1041.32 4293.18 
-2368.8 -1036.79 4291.54 
-2368.5 -1032.26 4285.45 
-2379.62 -1050.39 4305.43 
-2377.76 -1051.96 4306.1 
-2375.62 -1052.9 4306.37 
-2373.63 -1054.59 4307.1 
-2350.02 -848.247 4106.11 
-2347.84 -847.806 4105.7 
-2357.74 -849.707 4108.27 
-2350.74 -848.423 4106 
-2350.71 -856.171 4096.67 
-2344.89 -851.159 4100.63 
-2345.46 -852.514 4099.21 
-2343.53 -848.892 4102.18 
-2342.12 -846.847 4102.08 
-2342.19 -846.809 4103.58 
-2335.54 -845.677 4101.36 
-2335.08 -846.097 4100.52 
-2345.22 -835.287 4114.46 
-2345.41 -835.421 4114.33 
-2344.34 -835.861 4112.92 
-2343.54 -836.649 4112.15 
-2343.06 -837.291 4111.75 
-2342.51 -837.67 4111.55 
-2337.16 -846.288 4100.71 
-2334.95 -842.106 4108.21 
-2335.62 -841.054 4110.85 
-2336.68 -840.706 4110.76 
-2336.56 -840.592 4111.04 
-2337.4 -840.691 4107.21 
-2337.28 -840.522 4107.47 
-2335.34 -841.318 4107.66 
-2334.05 -842.415 4108.71 
-2336.43 -840.338 4107.68 
-2336.97 -840.345 4107.69 
-2334.52 -842.142 4108.76 
-2339.74 -838.955 4109.56 
-2342.88 -836.611 4112.81 
-2344.32 -835.294 4114.44 
-2344.87 -835.046 4114.75 
-2345.01 -835.165 4114.57 
-2341.33 -838.166 4111.44 
-2341.66 -837.368 4111.86 
-2340.89 -838.506 4111.29 
-2339.57 -839.473 4110.81 
-2338.21 -839.824 4110.74 
-2337.32 -840.334 4110.82 
-2341.98 -837.299 4111.84 
-2356.88 -854.249 4098.67 
-2344.41 -855.228 4093.98 
-2342.35 -853.706 4094.13 
-2313.56 -1013.23 4291.75 
-2327.72 -1008.12 4265.99 
-2329.34 -1008.62 4265.16 
-2326.36 -1008.9 4267.95 
-2325.16 -1007.8 4268.66 
-2319.47 -1006.27 4273.41 
-2320.94 -1007.46 4272.57 
-2316.97 -1006.36 4278.07 
-2317.79 -1010.25 4279.32 
-2318.4 -1011.3 4279.18 
-2319.16 -1011.63 4278.72 
-2323.42 -1009.3 4271.41 
-2317.31 -1010.7 4282.64 
-2316.74 -1013.45 4286.54 
-2314.68 -1013.75 4290.32 
-2317.47 -1011.06 4281.01 
-2266.49 -842.84 4107.03 
-2265.47 -841.976 4105.27 
-2327.62 -1011.42 4291.9 
-2328.98 -1012.3 4292.46 
-2323.85 -1010.74 4290.97 
-2324.62 -1011.76 4292.06 
-2322.14 -1011.89 4292.03 
-2321.5 -1012.91 4293.03 
-2319.33 -1013.61 4293.61 
-2317.26 -1014.26 4294.14 
-2315.17 -1014.88 4294.65 
-2367.14 -976.855 4231.11 
-2362.57 -973.875 4235 
-2366.42 -976.397 4231.71 
-2363.61 -979.177 4237.08 
-2362.87 -977.828 4236.43 
-2363.17 -977.242 4235.71 
-2363.46 -975.318 4234.85 
-2369.95 -981.353 4230.42 
-2372.55 -982.829 4229.36 
-2376.09 -984.981 4224.48 
-2368.61 -978.953 4230.39 
-2378.84 -987.187 4219.72 
-2381.86 -988.993 4213.7 
-2384.81 -991.189 4213.26 
-2388.77 -993.722 4217.29 
-2389.49 -994.205 4216.97 
-2389.23 -994.063 4217.11 
-2390.92 -994.739 4219.58 
-2391.16 -994.84 4219.38 
-2401.33 -1005.59 4219.07 
-2398.36 -997.942 4220.39 
-2399.31 -998.176 4220.28 
-2399.55 -997.936 4220.17 
-2400 -997.85 4220.08 
-2400.2 -997.478 4220.06 
-2400.19 -997.015 4220.04 
-2400.81 -996.75 4220.09 
-2401.31 -996.471 4220.13 
-2402.51 -997.089 4220.29 
-2402.89 -998.784 4220.37 
-2403.31 -999.817 4220.21 
-2394.7 -996.665 4221.16 
-2395.53 -996.913 4220.93 
-2396.64 -997.463 4220.72 
-2397.81 -997.965 4220.53 
-2393.88 -996.463 4221.41 
-2393.08 -996.005 4221.51 
-2392.05 -995.323 4221.16 
-2403.72 -1000.89 4220.07 
-2403.75 -1001.92 4220.05 
-2403.66 -1002.96 4219.93 
-2403.44 -1003.1 4219.98 
-2401.81 -1003.09 4220.01 
-2400.83 -1003.2 4220.3 
-2344.3 -966.521 4200.56 
-2347.39 -966.609 4199.22 
-2345.49 -967.775 4201.04 
-2343.49 -968.522 4201.74 
-2343.73 -967.854 4201.35 
-2349.4 -970.148 4203.06 
-2343.46 -969.253 4202.17 
-2349.42 -970.658 4203.7 
-2345.97 -965.171 4198.58 
-2354.8 -956.887 4185.74 
-2350.34 -961.218 4192.33 
-2358.83 -950.809 4179.17 
-2360.22 -948.469 4176.92 
-2346.16 -971.207 4204.28 
-2346.35 -971.129 4205.99 
-2342.59 -970.91 4205.28 
-2342.17 -970.973 4204.74 
-2361.94 -943.998 4172.83 
-2363.47 -941.898 4170.37 
-2363.68 -942.634 4170.67 
-2363.79 -944.379 4171.68 
-2362.26 -946.354 4174.75 
-2363.26 -947.736 4174.26 
-2360.26 -938.447 4173.34 
-2361.24 -940.79 4173.37 
-2362.18 -943.359 4173.53 
-2359.24 -936.13 4173.27 
-2356.72 -934.604 4174.63 
-2353.07 -933.206 4176.79 
-2347.95 -958.632 4190.87 
-2348.71 -961.041 4192.94 
-2351.04 -957.639 4188.36 
-2340.57 -965.714 4200.92 
-2340.38 -966.929 4201.56 
-2340.09 -968.134 4202.26 
-2339.94 -969.325 4202.87 
-2339.91 -970.348 4203.51 
-2340.58 -970.612 4204.38 
-2348.28 -956.115 4189.3 
-2349.09 -948.576 4185.5 
-2349.48 -949.756 4185.5 
-2351.08 -943.924 4182.24 
-2351.61 -943.1 4181.26 
-2352.8 -932.983 4176 
-2353.91 -933.731 4176.45 
-2349.3 -931.12 4176.07 
-2350.99 -931.729 4174.61 
-2352.39 -932.59 4174.84 
-2354.56 -937.035 4176.86 
-2353.65 -940.452 4178.45 
-2352.88 -942.157 4179.61 
-2354.81 -938.389 4176.79 
-2354.76 -934.449 4176 
-2355.52 -935.12 4175.32 
-2367.72 -984.527 4237 
-2367.14 -983.848 4235.77 
-2365.33 -982.517 4236.94 
-2367.79 -989.734 4241.72 
-2367 -994.468 4247.52 
-2364.25 -979.821 4238.02 
-2366.77 -999.499 4254.24 
-2330.75 -1011.41 4267.79 
-2344.44 -1024.87 4273.75 
-2343.54 -1026.08 4274.46 
-2341.88 -1025.63 4274.26 
-2340.27 -1025.55 4274.39 
-2337.41 -1025.29 4274.74 
-2340.07 -1028.41 4276.36 
-2332.92 -1014.43 4269.04 
-2334.08 -1017.36 4270.2 
-2329.72 -1012.63 4269.52 
-2335.83 -1024.39 4274.47 
-2358.11 -1000.11 4261.3 
-2355.23 -1001.6 4260.54 
-2353.48 -1005.44 4263.58 
-2360.61 -1000.63 4261.58 
-2351.66 -1013.35 4268.93 
-2362.28 -1001.26 4261.07 
-2350.62 -1016.63 4271.4 
-2347.87 -1017.13 4270.72 
-2345.88 -1017.62 4270.32 
-2344.77 -1018.96 4270.78 
-2345.37 -1024.23 4273.47 
-2363.48 -1002.35 4259.86 
-2363.58 -1002.61 4259.83 
-2363.77 -1003.05 4259.98 
-2363.24 -1001.98 4260.37 
-2363.51 -1002.36 4260.17 
-2363.66 -1002.74 4260.25 
-2363.92 -1003.42 4260.02 
-2364.04 -1003.53 4259.77 
-2364.68 -1003.81 4259.2 
-2365.62 -1003.74 4258.06 
-2354.13 -1043.95 4297.93 
-2350.41 -1044.88 4297.78 
-2347.87 -1046.39 4298.27 
-2345.17 -1047.13 4298.65 
-2339.31 -1037.37 4296.6 
-2343.05 -1047.33 4299.1 
-2335.92 -1030.55 4295.2 
-2332.77 -1022.34 4293.3 
-2330.74 -1022.49 4293.91 
-2329.69 -1019.28 4293.34 
-2329.61 -1017.43 4293.09 
-2329.38 -1014.12 4292.66 
-2328.9 -1015.95 4293.05 
-2354.87 -1004.49 4262.93 
-2363.61 -1002.58 4260.46 
