-1859.99 -1095.53 1641.64 
-1861.58 -1094.46 1641.31 
-1859.44 -1096.26 1643.24 
-1858.38 -1097.29 1643.32 
-1856.54 -1098.76 1643.42 
-1853.74 -1100.28 1644.21 
-1851.78 -1101.43 1644.69 
-1854.54 -1100.23 1643.62 
-1849.74 -1102.72 1645.1 
-1848.88 -1102.84 1645.67 
-1846.01 -1104.07 1646.65 
-1846.63 -1104.24 1646.14 
-1844.88 -1104.02 1645.49 
-1862.83 -1094.01 1642.37 
-1862.72 -1094.13 1642.42 
-1832.87 -1111 1644.86 
-1832.61 -1111.18 1643.95 
-1825.64 -1115.31 1641.34 
-1818.2 -1118.85 1639.04 
-1817.79 -1118.74 1638.27 
-1820.37 -1117.59 1639.24 
-1817.85 -1118.87 1638.59 
-1819.58 -1117.91 1637.97 
-1817.51 -1118.75 1637.96 
-1817.45 -1118.65 1637.73 
-1897.47 -1083.26 1627.77 
-1896.7 -1084.58 1628.21 
-1896.64 -1084.49 1628.15 
-1899.4 -1081.34 1627.43 
-1899.66 -1081.25 1627.47 
-1898.53 -1082.19 1627.58 
-1899.84 -1081.14 1627.44 
-1899.75 -1081.33 1627.58 
-1899.97 -1081.37 1627.71 
-1899.87 -1081.38 1627.66 
-1901.24 -1081.87 1627.43 
-1901.68 -1082.78 1628.03 
-1900.91 -1081.45 1627.46 
-1900.7 -1081.34 1627.47 
-1900.47 -1081.2 1627.49 
-1900.23 -1081.05 1627.51 
-1900.06 -1081.16 1627.64 
-1901.34 -1083.37 1628.58 
-1901.65 -1083.19 1628.43 
-1900.6 -1083.69 1628.82 
-1900.97 -1083.56 1628.73 
-1900.24 -1083.78 1628.83 
-1897.79 -1084.7 1628.67 
-1898.22 -1084.55 1628.71 
-1898.63 -1084.46 1628.78 
-1898.87 -1084.24 1628.73 
-1897.39 -1084.83 1628.63 
-1899.05 -1084.29 1628.81 
-1899.49 -1084.1 1628.83 
-1899.91 -1083.95 1628.86 
-1886.67 -1091.07 1631.99 
-1887.11 -1089.85 1631.94 
-1885.12 -1092.03 1632.61 
-1883.5 -1093.11 1633.1 
-1883.31 -1092.78 1633.48 
-1883.32 -1093.59 1632.92 
-1887.14 -1088.31 1632.34 
-1888.61 -1084.29 1633.97 
-1889.43 -1083.92 1633.59 
-1889.93 -1083.48 1633.6 
-1891.56 -1082.77 1632.81 
-1890.67 -1083.05 1633.38 
-1888.09 -1084.74 1633.98 
-1887.3 -1085.98 1633.55 
-1887.39 -1085.2 1634.14 
-1892.67 -1082.4 1632.2 
-1893.87 -1082.01 1631.52 
-1881.33 -1094.38 1633.67 
-1878.41 -1094.71 1634.51 
-1876.09 -1095.46 1634.66 
-1874.54 -1096.12 1634.82 
-1875.03 -1095.73 1634.95 
-1876.64 -1095.03 1634.82 
-1891.55 -1074.99 1638.33 
-1893.75 -1073.97 1637.47 
-1892.73 -1074.48 1637.89 
-1875.97 -1086.66 1641.4 
-1875.36 -1086.87 1640.91 
-1876.68 -1086.44 1641.65 
-1883.12 -1081.77 1640.62 
-1872.06 -1088.2 1640.46 
-1873.4 -1087.78 1640.77 
-1864.98 -1091.49 1641.33 
-1863.53 -1091.86 1640.83 
-1862.52 -1092.62 1640.6 
-1862.21 -1092.51 1639.99 
-1862.62 -1093.2 1641.5 
-1863.34 -1093.35 1642.3 
-1866.21 -1092.2 1642.51 
-1867.5 -1091.71 1642.55 
-1867.31 -1091.86 1642.57 
-1868.48 -1091.52 1642.47 
-1867.53 -1091.96 1642.52 
-1866.77 -1092.35 1642.53 
-1865.78 -1092.84 1642.55 
-1865.09 -1093.22 1642.55 
-1934.14 -1053.65 1625.16 
-1934.05 -1053.65 1625.74 
-1933.99 -1053.72 1626.12 
-1933.94 -1053.8 1626.03 
-1934.11 -1054.59 1624.29 
-1934.22 -1054.17 1624.13 
-1934.15 -1054.88 1623.11 
-1933.08 -1053.87 1636.61 
-1930.98 -1056.17 1637.27 
-1928.25 -1058.93 1638.03 
-1926.37 -1060.13 1636.89 
-1923.97 -1061.33 1634.53 
-1925.22 -1060.53 1635.96 
-1922.83 -1062.57 1633.68 
-1922.3 -1064.79 1636.36 
-1915.6 -1069.31 1637.75 
-1914 -1072.9 1637.81 
-1911.03 -1074.86 1638.68 
-1938.87 -1049.36 1636.67 
-1933.87 -1053.09 1636.9 
-1936.35 -1050.3 1637.2 
-1933.74 -1052.94 1637.39 
-1902.43 -1075.83 1631.95 
-1904.44 -1075.51 1632.8 
-1902.71 -1075.63 1631.91 
-1908.06 -1076.17 1636.69 
-1901.64 -1076.86 1632.14 
-1900.92 -1077.66 1632.04 
-1898.76 -1079.66 1631 
-1898.11 -1079.68 1630.08 
-1899.35 -1079.58 1631.61 
-1897.53 -1080.17 1629.68 
-1894.85 -1081.66 1631.03 
-1895.67 -1081.36 1630.65 
-1897.05 -1080.78 1629.89 
-1896.14 -1081.17 1630.48 
-1929.82 -1051.75 1640.96 
-1928.86 -1052.72 1640.46 
-1927.93 -1053.56 1639.96 
-1927.48 -1053.76 1639.58 
-1927.23 -1053.69 1639.39 
-1926.94 -1053.64 1639.16 
-1926.61 -1054.06 1638.76 
-1926.02 -1054.49 1638.39 
-1924.78 -1055.41 1638.61 
-1924.41 -1055.41 1638.69 
-1923.29 -1056.4 1638.99 
-1921.46 -1058.02 1639.33 
-1920.58 -1058.5 1638.62 
-1919.82 -1059.14 1638.58 
-1918.8 -1059.99 1639.06 
-1918.05 -1060.37 1639.56 
-1916.36 -1061.54 1639.93 
-1914.24 -1063.53 1639.41 
-1911.52 -1067.39 1639.77 
-1922.44 -1057.38 1639.23 
-1900.64 -1072.06 1635.9 
-1899.61 -1072.18 1635.4 
-1904.87 -1071.36 1639.09 
-1904.5 -1071.73 1638.71 
-1902.27 -1071.85 1637.26 
-1905.55 -1070.91 1640.85 
-1911.2 -1068.05 1640.1 
-1908.07 -1070.06 1641.36 
-1906.05 -1070.9 1641.56 
-1898.82 -1072.36 1634.93 
-1898.17 -1072.83 1634.87 
-1897.56 -1073.41 1635.11 
-1896.07 -1074.02 1636.02 
-1895.46 -1074.03 1636.4 
-1894.95 -1073.92 1636.72 
-1894.43 -1073.83 1637.05 
-1896.78 -1073.93 1635.58 
-1933.53 -1050.46 1641.39 
-1932.13 -1050.96 1642.13 
-1931.41 -1051.2 1641.66 
-1931.21 -1050.96 1641.73 
-1931.96 -1051.45 1641.7 
-1930.16 -1051.88 1641 
-1933.6 -1050.65 1641.13 
-1933.46 -1052.41 1638.82 
-1933.65 -1052.77 1637.85 
-1933.53 -1052.61 1638.33 
-1933.36 -1052.22 1639.32 
-1932.59 -1052.68 1639.99 
-1932.48 -1052.5 1640.48 
-1932.46 -1052.21 1640.91 
-1932.48 -1051.85 1641.29 
-1839.97 -1111.33 1627.51 
-1839.97 -1111.3 1628.3 
-1840.05 -1111.16 1628.8 
-1840.4 -1110.66 1630.22 
-1840.2 -1110.9 1629.82 
-1839.89 -1111.32 1628.94 
-1839.94 -1111.2 1629.59 
-1839.9 -1111.27 1629.26 
-1841.05 -1109.97 1625.7 
-1841.03 -1109.95 1625.91 
-1841.24 -1109.68 1625.78 
-1841.81 -1109 1625.27 
-1841.49 -1109.33 1626.5 
-1840.25 -1110.97 1626.53 
-1840.64 -1110.49 1626.07 
-1856.46 -1112.47 1631.75 
-1867.56 -1105.97 1630.12 
-1871.4 -1103.22 1632.39 
-1870.16 -1105.11 1630.91 
-1872.66 -1101.26 1633.86 
-1859.28 -1111.31 1631.04 
-1857.96 -1111.86 1631.49 
-1857.62 -1112.62 1631.16 
-1857.05 -1112.45 1631.52 
-1852.61 -1112.72 1633.21 
-1848.97 -1112.43 1634.28 
-1846.76 -1109.85 1632.44 
-1855.21 -1112.76 1632.06 
-1844.31 -1110.13 1631.87 
-1842.87 -1109.49 1631.19 
-1841.62 -1109.61 1628.78 
-1856.27 -1112.62 1631.73 
-1855.63 -1112.22 1632.29 
-1872.95 -1096.97 1635.05 
-1873.5 -1096.24 1635.24 
-1872.83 -1099.13 1634.66 
-1888 -1100.24 1625.33 
-1888.47 -1100.09 1625.11 
-1889.85 -1099.48 1624.57 
-1890.94 -1098.61 1624.42 
-1888.53 -1100.89 1624.65 
-1890.89 -1098.64 1624.39 
-1889.77 -1100.2 1624.24 
-1830.73 -1116.79 1630.93 
-1830.87 -1116.4 1629.89 
-1830.3 -1116.44 1629.44 
-1830.89 -1117.09 1631.56 
-1830.88 -1117.29 1631.78 
-1831 -1117.65 1632.04 
-1830.74 -1116.78 1630.59 
-1830.88 -1117 1631.3 
-1830.6 -1116.81 1630.48 
-1830.84 -1116.68 1630.51 
-1830.91 -1116.6 1629.93 
-1830.79 -1116.63 1630.06 
-1831.08 -1116.52 1629.98 
-1813.28 -1119.74 1637.34 
-1826.98 -1108.42 1636.02 
-1828.15 -1108.42 1635.9 
-1828.68 -1108.58 1636.11 
-1825.32 -1108.22 1635.85 
-1826.48 -1108.24 1635.77 
-1817.02 -1118.71 1637.42 
-1813.3 -1119.65 1637.63 
-1812.59 -1119.7 1637.42 
-1810.83 -1120.7 1637.18 
-1811.35 -1120.22 1637.33 
-1825.38 -1110.74 1637.69 
-1823.45 -1109.68 1637.75 
-1827.47 -1110.91 1637.33 
-1827.72 -1109.14 1636.52 
-1828.49 -1108.46 1636.25 
-1822.55 -1109.43 1637.46 
-1821.53 -1109.17 1637.23 
-1829.28 -1107.69 1635.95 
-1821.15 -1108.87 1636.82 
-1820.94 -1108.68 1636.63 
-1820.71 -1108.45 1636.41 
-1820.6 -1108.4 1636.43 
-1820.32 -1108.1 1636.09 
-1820.54 -1108.12 1636.18 
-1829.94 -1107.21 1635.76 
-1821.14 -1107.94 1635.82 
-1822.38 -1107.93 1635.66 
-1823.04 -1108.06 1635.82 
-1824.02 -1107.93 1635.49 
-1824.85 -1108.05 1635.61 
-1831.28 -1107.06 1635.76 
-1830.41 -1108.64 1636.07 
-1829.74 -1108.58 1636.01 
-1830.34 -1107.92 1635.5 
-1830.19 -1108.26 1635.67 
-1830.3 -1107.59 1635.27 
-1829.92 -1106.84 1634.64 
-1830.32 -1106.83 1634.75 
-1829.96 -1107.13 1634.84 
-1832.03 -1106.98 1635.28 
-1830.24 -1106.37 1634.41 
-1830.95 -1106.39 1634.6 
-1832.89 -1107.24 1635.69 
-1833.2 -1107.28 1635.86 
-1833.57 -1107.06 1635.77 
-1832.69 -1107.06 1635.83 
-1828.66 -1118.57 1632.47 
-1826.47 -1119.42 1632.52 
-1816.12 -1124.73 1632.59 
-1818.34 -1124.12 1632.03 
-1821.79 -1121.86 1632.4 
-1821.84 -1121.7 1632.51 
-1811.43 -1127.37 1633.68 
-1808.64 -1129.13 1633.9 
-1809.32 -1129.31 1633.85 
-1807.7 -1129.66 1633.62 
-1807.18 -1129.55 1633.59 
-1808.21 -1129.69 1633.69 
-1806.53 -1129.41 1633.68 
-1803.2 -1124.58 1638.95 
-1802.45 -1127.07 1637.34 
-1803.67 -1122.19 1640.2 
-1802.85 -1122.55 1640.23 
-1803.4 -1127.72 1636.37 
-1804.95 -1120.25 1640.48 
-1804.3 -1129.04 1634.9 
-1803.74 -1128.76 1635.25 
-1804.72 -1129.16 1634.46 
-1805.12 -1129.3 1634.03 
-1805.51 -1129.35 1633.85 
-1806.08 -1129.49 1633.73 
-1805.58 -1120.59 1640.09 
-1805.39 -1120.26 1640.36 
-1809.63 -1121.35 1637.43 
-1809.03 -1121.8 1637.54 
-1807.44 -1122.22 1638.57 
-1807.53 -1122.03 1638.6 
-1806.55 -1121.81 1639.29 
-1805.78 -1120.93 1639.81 
-1829.96 -1117.56 1631.9 
-1830.16 -1117.39 1631.63 
-1830.35 -1117.19 1631.4 
-1830.54 -1116.98 1631.17 
-1829.31 -1118.07 1632.37 
-1829.8 -1117.73 1632.11 
-1840.27 -1111.44 1631.28 
-1839.88 -1112.59 1632.01 
-1840.08 -1111.14 1631.04 
-1837.57 -1114.39 1632.48 
-1833.63 -1117.01 1632.57 
-1832.96 -1117.34 1632.56 
-1831.25 -1118.02 1632.33 
-1836.2 -1108.41 1646.89 
-1842.88 -1104.73 1644.94 
-1861.67 -1094.88 1642.45 
-1862.34 -1094.34 1642.17 
-1864.02 -1093.8 1642.52 
-1860.01 -1096.49 1642.79 
-1858.08 -1098.12 1642.79 
-1855.81 -1099.83 1643 
-1852.35 -1101.65 1644.04 
-1850.28 -1102.92 1644.49 
-1853.49 -1101.42 1643.35 
-1848.08 -1104.31 1644.94 
-1847.38 -1104.27 1645.52 
-1844.33 -1104.87 1646.95 
-1844.41 -1105.52 1646.71 
-1845.12 -1105.66 1646.02 
-1842.89 -1105.25 1646.24 
-1864.65 -1093.52 1642.5 
-1831.34 -1112.51 1644.81 
-1825.99 -1115.82 1642.89 
-1826.65 -1115.09 1642.1 
-1818.25 -1118.98 1639.4 
-1815.38 -1120.24 1638.84 
-1815.05 -1120.13 1638.65 
-1814.88 -1119.92 1638.45 
-1813.89 -1119.66 1638.13 
-1814.22 -1119.78 1638.35 
-1814.46 -1119.67 1637.85 
-1897.24 -1083.45 1627.75 
-1896.47 -1084.66 1628.14 
-1898.12 -1082.56 1627.6 
-1899.08 -1081.82 1627.56 
-1899.68 -1081.93 1627.84 
-1899.77 -1081.84 1627.84 
-1899.91 -1082.18 1628.07 
-1900.11 -1082.08 1628.13 
-1900.03 -1082.25 1628.17 
-1901.27 -1081.79 1627.46 
-1901.83 -1082.86 1628.17 
-1900.93 -1081.31 1627.51 
-1900.73 -1081.22 1627.52 
-1900.51 -1081.09 1627.53 
-1900.29 -1080.96 1627.55 
-1900.17 -1081.23 1627.74 
-1900.21 -1082 1628.13 
-1901.29 -1083.7 1628.93 
-1901.67 -1083.53 1628.8 
-1902 -1083.36 1628.68 
-1900.9 -1083.88 1629.04 
-1900.52 -1083.99 1628.98 
-1900.12 -1084.07 1628.88 
-1897.47 -1084.98 1628.73 
-1897.91 -1084.83 1628.77 
-1898.37 -1084.66 1628.81 
-1898.79 -1084.57 1628.88 
-1896.41 -1084.8 1628.18 
-1899.26 -1084.37 1628.91 
-1899.69 -1084.21 1628.92 
-1886.17 -1090.85 1632.53 
-1884.12 -1092.04 1633.37 
-1886.42 -1089.73 1632.62 
-1881.07 -1094.05 1634.08 
-1880.81 -1093.73 1634.46 
-1880.69 -1093.44 1634.82 
-1882.53 -1092.69 1634.15 
-1886.54 -1088.24 1632.92 
-1889.03 -1083.8 1634.11 
-1888.18 -1084.15 1634.56 
-1887.64 -1084.63 1634.53 
-1889.68 -1083.35 1634.01 
-1891.75 -1082.66 1632.82 
-1890.68 -1082.99 1633.49 
-1887.06 -1085.08 1634.6 
-1886.76 -1086.03 1634 
-1886.31 -1086.02 1634.43 
-1892.87 -1082.3 1632.19 
-1893.82 -1081.98 1631.66 
-1878.37 -1094.36 1634.86 
-1876.57 -1094.59 1635.29 
-1875.09 -1095.34 1635.3 
-1873.93 -1095.78 1635.47 
-1875.63 -1094.92 1635.43 
-1887.97 -1078.06 1639.3 
-1894.19 -1074.23 1637.18 
-1893.36 -1074.51 1637.51 
-1889.08 -1077.7 1638.66 
-1869.91 -1089.69 1641.76 
-1874.26 -1087.57 1641.12 
-1872.24 -1089.08 1642.41 
-1870.42 -1089.86 1642.37 
-1875.5 -1087.39 1642.16 
-1883.05 -1082.24 1640.55 
-1876.86 -1086.76 1642.21 
-1867.05 -1090.89 1641.75 
-1864.04 -1092.29 1641.92 
-1863.51 -1092.25 1641.39 
-1862.82 -1092.8 1641.31 
-1863.55 -1093.09 1642.29 
-1863.12 -1093.24 1642.09 
-1864.58 -1092.85 1642.47 
-1867.03 -1091.78 1642.5 
-1868.78 -1091.09 1642.55 
-1870.15 -1090.67 1642.45 
-1869.36 -1091.07 1642.45 
-1869.83 -1091.38 1641.92 
-1868.94 -1091.8 1641.97 
-1868.05 -1092.21 1642.04 
-1867.19 -1092.62 1642.08 
-1866.39 -1093.05 1642.08 
-1865.89 -1093.47 1641.93 
-1933.99 -1053.7 1625.56 
-1934.01 -1053.76 1625.13 
-1933.89 -1053.85 1625.99 
-1933.91 -1054.4 1625.02 
-1933.85 -1054 1625.83 
-1934.16 -1054.15 1624.17 
-1934.12 -1055.05 1623.01 
-1933.86 -1054.47 1624.98 
-1929.14 -1057.79 1638.39 
-1927.28 -1059.48 1637.98 
-1925.89 -1060.06 1636.93 
-1923.78 -1061.14 1634.77 
-1922.68 -1062.25 1633.95 
-1924.73 -1060.48 1635.95 
-1922.24 -1063.58 1635.36 
-1922.17 -1065.65 1638.26 
-1915.85 -1069.6 1638.5 
-1914.74 -1073.09 1638.72 
-1911.89 -1074.89 1639.37 
-1929.33 -1057.27 1638.8 
-1902.11 -1076.2 1632.25 
-1905.24 -1075.68 1633.7 
-1902.82 -1075.57 1632.01 
-1902.28 -1076.01 1632.27 
-1907.77 -1075.99 1636.63 
-1901.13 -1077.46 1632.28 
-1901.63 -1076.75 1632.41 
-1899.55 -1079.45 1631.91 
-1898.19 -1079.73 1630.41 
-1898.61 -1080.09 1631.18 
-1897.6 -1080.16 1629.92 
-1894.57 -1081.71 1631.3 
-1895.15 -1081.49 1631.05 
-1896.79 -1080.9 1630.18 
-1895.49 -1081.35 1630.96 
-1929.22 -1052.86 1640.5 
-1928.2 -1053.78 1639.99 
-1927.68 -1054.18 1639.62 
-1927.41 -1054.19 1639.4 
-1927.12 -1054.17 1639.16 
-1926.86 -1054.09 1638.97 
-1926.12 -1054.84 1638.41 
-1925.11 -1055.48 1638.54 
-1924.24 -1056.2 1638.77 
-1923.72 -1056.35 1638.9 
-1921.73 -1058.11 1639.37 
-1920.78 -1058.65 1638.5 
-1919.44 -1059.75 1638.58 
-1918.28 -1060.8 1639.08 
-1917.55 -1061.13 1639.59 
-1915.64 -1062.58 1639.97 
-1914.14 -1064.36 1639.65 
-1922.95 -1057.24 1639.12 
-1921.98 -1058.11 1639.19 
-1901.27 -1072.24 1635.88 
-1900.35 -1072.28 1635.52 
-1899.71 -1072.44 1635.09 
-1905.23 -1071.51 1639.82 
-1905.03 -1071.95 1638.99 
-1903.52 -1072.22 1637.82 
-1902.73 -1072.06 1637.31 
-1911.17 -1068.5 1640.36 
-1908.96 -1070.15 1641.45 
-1907.04 -1071.04 1642.04 
-1905.98 -1071.29 1641.88 
-1905.56 -1071.69 1640.47 
-1898.96 -1072.63 1634.7 
-1898.4 -1073.1 1634.73 
-1897.35 -1073.94 1635.22 
-1897.98 -1073.57 1634.85 
-1896.07 -1074.41 1636.01 
-1895.28 -1074.5 1636.5 
-1894.71 -1074.37 1636.85 
-1896.71 -1074.4 1635.61 
-1932.07 -1051.8 1641.5 
-1930.79 -1052.24 1641.04 
-1930.25 -1052.29 1640.9 
-1930.92 -1052.64 1640.94 
-1930.52 -1055.02 1640.01 
-1930.14 -1055.76 1639.61 
-1929.75 -1056.51 1639.2 
-1930.16 -1054.97 1640.08 
-1930.73 -1054.09 1640.47 
-1931.03 -1053.39 1640.75 
-1930.99 -1053.01 1640.85 
-1839.63 -1111.71 1627.44 
-1839.68 -1111.63 1628.06 
-1839.8 -1111.47 1628.44 
-1840.22 -1110.83 1630.38 
-1840.14 -1110.95 1630.07 
-1839.93 -1111.17 1629.91 
-1839.62 -1111.58 1628.98 
-1839.66 -1111.59 1628.65 
-1839.68 -1111.45 1629.65 
-1839.66 -1111.51 1629.32 
-1840.2 -1110.95 1626.92 
-1840.12 -1111 1627.23 
-1840.23 -1110.83 1627.25 
-1840.33 -1110.68 1627.29 
-1841.08 -1109.81 1626.21 
-1841.33 -1109.5 1626.03 
-1841.31 -1109.48 1626.49 
-1839.57 -1111.73 1627.53 
-1839.79 -1111.45 1627.39 
-1856.97 -1112.51 1631.52 
-1866.31 -1107.66 1629.84 
-1869.84 -1104.32 1631.72 
-1871.02 -1102.48 1633.18 
-1868.43 -1106.5 1630.05 
-1872.01 -1100.68 1634.55 
-1859.8 -1111.95 1630.55 
-1858.13 -1112.3 1631.19 
-1858.74 -1111.71 1631.38 
-1857.49 -1111.87 1631.79 
-1849.79 -1113.62 1635 
-1849.25 -1114.15 1635.19 
-1845.27 -1118.17 1634.38 
-1845.58 -1116.57 1634.64 
-1847.83 -1111.33 1633.76 
-1846.48 -1112.81 1634.73 
-1844.75 -1113.19 1634.43 
-1851.52 -1113.48 1634.13 
-1853.85 -1112.83 1632.5 
-1854.66 -1112.64 1632.38 
-1845.43 -1110.43 1632.45 
-1854.99 -1111.78 1632.9 
-1844 -1110.19 1631.83 
-1842.73 -1109.52 1631.21 
-1841.59 -1109.67 1628.82 
-1855.88 -1111.29 1632.88 
-1856.44 -1111.75 1632.31 
-1855.3 -1110.87 1633.44 
-1872.26 -1096.77 1635.57 
-1872.14 -1098.69 1635.21 
-1872.71 -1096.07 1635.82 
-1889.07 -1100.1 1624.73 
-1890.15 -1099.62 1624.31 
-1890.94 -1098.88 1624.28 
-1888.26 -1100.35 1625.1 
-1888.49 -1100.97 1624.62 
-1888.63 -1100.27 1624.91 
-1891.17 -1098.53 1624.35 
-1889.06 -1101.6 1623.92 
-1891.36 -1098.61 1624.12 
-1890.6 -1099.9 1623.88 
-1889.47 -1101.7 1623.59 
-1830.31 -1116.73 1630.23 
-1830.52 -1116.62 1630.18 
-1831.02 -1116.35 1629.52 
-1827.47 -1115.96 1624.09 
-1828.12 -1116.05 1624.45 
-1827.26 -1115.95 1624.5 
-1830.49 -1116.87 1630.47 
-1830.63 -1117.42 1631.69 
-1830.4 -1116.94 1630.49 
-1830.67 -1117.78 1631.94 
-1830.91 -1117.93 1632.11 
-1830.68 -1116.71 1629.92 
-1830.57 -1116.74 1629.96 
-1830.44 -1116.82 1629.88 
-1830.98 -1116.62 1629.7 
-1830.86 -1116.7 1629.56 
-1830.77 -1116.7 1629.76 
-1831.23 -1116.48 1629.8 
-1831.08 -1116.61 1629.56 
-1827.74 -1108.24 1635.64 
-1828.87 -1108.17 1635.43 
-1829.1 -1108.35 1635.68 
-1829.59 -1108.45 1635.8 
-1826.12 -1108.05 1635.47 
-1827.3 -1108.06 1635.37 
-1812.12 -1119.46 1637.77 
-1811.55 -1119.92 1637.53 
-1810.33 -1120.82 1637.43 
-1810.45 -1120.56 1637.63 
-1823.52 -1109.64 1637.59 
-1825.23 -1110.38 1637.69 
-1827.07 -1109.78 1636.94 
-1827.32 -1109.24 1636.59 
-1828.29 -1108.37 1636.24 
-1828.99 -1107.75 1635.99 
-1822.59 -1109.39 1637.28 
-1821.57 -1109.14 1637.08 
-1830.37 -1106.92 1635.68 
-1829.65 -1107.05 1635.73 
-1821.19 -1108.85 1636.68 
-1820.95 -1108.61 1636.43 
-1820.76 -1108.44 1636.29 
-1820.53 -1108.19 1636 
-1820.47 -1108.2 1636.11 
-1820.27 -1107.96 1635.81 
-1820.26 -1107.84 1635.73 
-1821.18 -1107.74 1635.46 
-1822.25 -1107.73 1635.34 
-1823.47 -1107.77 1635.27 
-1824.8 -1107.73 1635.07 
-1825.45 -1107.88 1635.25 
-1831.85 -1106.86 1635.74 
-1830.06 -1107.74 1635.25 
-1829.94 -1107.37 1634.97 
-1829.85 -1107.83 1635.22 
-1829.71 -1108.15 1635.48 
-1829.63 -1106.68 1634.38 
-1829.63 -1106.4 1634.22 
-1829.62 -1106.16 1634.07 
-1829.63 -1106.95 1634.54 
-1831.67 -1106.34 1634.75 
-1829.79 -1105.72 1633.84 
-1829.43 -1105.74 1633.72 
-1830.55 -1105.8 1634.1 
-1832.62 -1106.6 1635.17 
-1833.95 -1106.92 1635.77 
-1832.78 -1106.26 1634.97 
-1833.14 -1106.88 1635.81 
-1828.87 -1118.5 1632.46 
-1828.49 -1118.78 1632.54 
-1826.36 -1119.55 1632.5 
-1816.39 -1125.08 1632.52 
-1812.36 -1127.79 1633.49 
-1822.12 -1121.75 1632.3 
-1822.08 -1121.95 1632.18 
-1818.22 -1124.49 1632.28 
-1826.11 -1119.76 1632.49 
-1808.74 -1129.71 1633.78 
-1809.38 -1129.92 1633.75 
-1810.45 -1129.95 1633.61 
-1807.61 -1129.89 1633.62 
-1808.07 -1130.01 1633.65 
-1807.2 -1129.84 1633.59 
-1806.72 -1129.62 1633.61 
-1808.48 -1130.08 1633.68 
-1801.88 -1124.17 1639.5 
-1800.61 -1128.26 1637.07 
-1800.06 -1127.64 1637.77 
-1805.2 -1118 1641.05 
-1804.82 -1117.55 1641.25 
-1802.88 -1128.46 1635.91 
-1799.95 -1128.79 1636.86 
-1803.71 -1119.4 1639.73 
-1804.78 -1117.88 1640.55 
-1804.4 -1129.72 1634.72 
-1803.88 -1129.43 1634.88 
-1803.28 -1129.13 1635.04 
-1804.75 -1129.9 1634.34 
-1805.01 -1129.91 1634.13 
-1805.26 -1129.77 1633.97 
-1805.62 -1129.61 1633.8 
-1806.18 -1129.7 1633.67 
-1802.33 -1121.18 1638.6 
-1803.62 -1122.5 1638.19 
-1809.3 -1121.3 1637.75 
-1808.64 -1121.76 1637.9 
-1808.46 -1121.62 1638.14 
-1807.58 -1121.9 1638.64 
-1806.93 -1121.15 1639.69 
-1806.18 -1122.06 1639.12 
-1806.83 -1122.08 1639.12 
-1806.41 -1122.75 1638.68 
-1805.4 -1126.18 1636.25 
-1805.34 -1125.63 1636.61 
-1805.39 -1122.96 1638.38 
-1829.99 -1117.58 1631.81 
-1830.03 -1117.01 1630.64 
-1829.88 -1117.17 1630.86 
-1830.13 -1116.85 1630.34 
-1829.37 -1118.09 1632.34 
-1829.79 -1117.78 1632.07 
-1840.28 -1111.37 1631.21 
-1839.92 -1112.67 1632.05 
-1840 -1111.26 1631.06 
-1837.77 -1114.5 1632.53 
-1833.97 -1116.93 1632.57 
-1831.05 -1118.31 1632.41 
-1830.95 -1118.5 1632.48 
-1830.61 -1113.2 1645.48 
-1839.49 -1106.73 1646.29 
-1862.31 -1094.79 1642.58 
-1863.84 -1094.18 1642.29 
-1864.97 -1093.88 1642 
-1862.55 -1095.1 1642.2 
-1860.25 -1096.8 1642.31 
-1859.02 -1098.02 1642.15 
-1857.07 -1099.38 1642.42 
-1854.62 -1101.15 1642.71 
-1851.07 -1102.95 1643.84 
-1848.86 -1104.33 1644.3 
-1852.13 -1102.72 1643.22 
-1846.49 -1105.78 1644.83 
-1845.6 -1105.86 1645.45 
-1841.85 -1106.28 1647.56 
-1842.91 -1106.11 1647.34 
-1843.18 -1106.8 1646.49 
-1841.77 -1107.33 1647.11 
-1843.08 -1107.44 1645.97 
-1840.4 -1106.59 1646.68 
-1821.86 -1117.94 1642.3 
-1818.26 -1119.14 1639.71 
-1818.37 -1119.26 1640.11 
-1815.56 -1120.39 1639.01 
-1814.56 -1120.56 1639.36 
-1814.44 -1120.3 1639.07 
-1812.94 -1119.52 1638.88 
-1813.02 -1119.47 1638.5 
-1811.76 -1119.35 1638.17 
-1896.96 -1083.7 1627.75 
-1897.81 -1082.83 1627.59 
-1899.1 -1082.37 1627.86 
-1899.85 -1082.49 1628.19 
-1899.71 -1082.63 1628.21 
-1899.99 -1083.15 1628.58 
-1900.06 -1083.01 1628.55 
-1900.19 -1083.14 1628.68 
-1900.25 -1082.89 1628.59 
-1901.24 -1081.63 1627.45 
-1901.84 -1082.69 1628.1 
-1901.04 -1081.34 1627.51 
-1901 -1081.21 1627.55 
-1900.75 -1081.06 1627.57 
-1900.74 -1081.14 1627.54 
-1900.54 -1080.96 1627.58 
-1900.36 -1080.91 1627.63 
-1900.3 -1081.37 1627.88 
-1900.34 -1082.15 1628.28 
-1900.36 -1082.87 1628.63 
-1901.29 -1084 1629.19 
-1901.63 -1083.85 1629.14 
-1902.03 -1083.73 1629.08 
-1902.22 -1083.36 1628.75 
-1900.97 -1084.12 1629.13 
-1900.32 -1084.23 1628.95 
-1900.66 -1084.21 1629.04 
-1899.89 -1084.33 1628.88 
-1896.26 -1084.94 1628.17 
-1897.51 -1085.14 1628.82 
-1897.95 -1085 1628.86 
-1898.28 -1084.83 1628.87 
-1899.02 -1084.64 1628.98 
-1898.54 -1084.84 1628.95 
-1899.43 -1084.49 1628.99 
-1885.55 -1090.64 1633.17 
-1884.32 -1091.54 1633.56 
-1882.62 -1092.22 1634.4 
-1885.72 -1089.5 1633.34 
-1878.14 -1094.04 1635.25 
-1877.37 -1093.75 1635.81 
-1880.45 -1093.06 1635.28 
-1878.04 -1093.41 1635.91 
-1885.93 -1088.18 1633.5 
-1888.68 -1083.69 1634.59 
-1887.65 -1084.06 1635.19 
-1887.34 -1084.47 1635.02 
-1886.62 -1084.94 1635.2 
-1889.6 -1083.32 1634.18 
-1891.59 -1082.67 1633.03 
-1892.57 -1082.36 1632.45 
-1890.67 -1082.96 1633.59 
-1886.27 -1085.37 1635.06 
-1885.75 -1086.13 1634.86 
-1893.5 -1082.05 1631.95 
-1876.56 -1094.17 1635.7 
-1875.57 -1094.48 1635.9 
-1873.96 -1095.37 1635.86 
-1874.67 -1094.97 1635.88 
-1872.85 -1095.69 1636.13 
-1893.83 -1074.69 1637.2 
-1890.83 -1076.84 1637.82 
-1884.56 -1081.61 1639.75 
-1866.95 -1091.4 1642.34 
-1868.63 -1090.67 1642.37 
-1875.18 -1087.97 1642.45 
-1873.57 -1088.61 1642.49 
-1872.57 -1089.08 1642.49 
-1870.2 -1090.11 1642.46 
-1878.8 -1086.07 1641.46 
-1877.46 -1086.75 1642.08 
-1865.3 -1092.13 1642.32 
-1863.7 -1092.82 1642.24 
-1863.26 -1092.9 1641.96 
-1864.47 -1092.7 1642.41 
-1866.06 -1092.08 1642.45 
-1865.29 -1092.47 1642.46 
-1867.78 -1091.39 1642.5 
-1869.45 -1090.72 1642.54 
-1871.11 -1090.21 1642.4 
-1871.45 -1090.57 1641.88 
-1870.66 -1090.98 1641.89 
-1871.06 -1091.32 1641.34 
-1870.16 -1091.73 1641.41 
-1869.23 -1092.15 1641.48 
-1868.33 -1092.59 1641.52 
-1867.41 -1093 1641.6 
-1867.1 -1093.42 1641.35 
-1866.21 -1093.82 1641.41 
-1933.9 -1053.84 1625.67 
-1934.06 -1054.14 1624.29 
-1933.89 -1053.95 1625.55 
-1933.92 -1053.98 1625.28 
-1933.78 -1054.01 1626.09 
-1933.96 -1055.04 1623.65 
-1933.92 -1054.8 1624.26 
-1933.59 -1054.1 1626.13 
-1933.76 -1054.15 1625.94 
-1927.6 -1058.98 1638.33 
-1925.41 -1060 1636.91 
-1927.02 -1059.21 1638.07 
-1923.55 -1060.95 1635.03 
-1922.82 -1061.79 1634.21 
-1921.68 -1063.21 1635.09 
-1924.34 -1060.38 1636.04 
-1922.11 -1066.48 1640.18 
-1922.3 -1065.04 1638.62 
-1916.12 -1070 1639.29 
-1915.35 -1073.46 1639.64 
-1911.75 -1075.29 1640.08 
-1928.45 -1057.8 1638.85 
-1904.93 -1075.62 1633.54 
-1902.71 -1075.67 1632.23 
-1902.05 -1076.31 1632.43 
-1907.67 -1075.82 1636.78 
-1900.92 -1077.63 1632.46 
-1901.4 -1077 1632.61 
-1899.45 -1079.48 1632.04 
-1898.7 -1079.99 1631.37 
-1898.09 -1079.9 1630.55 
-1897.55 -1080.29 1630.08 
-1894.23 -1081.78 1631.61 
-1897.09 -1080.73 1630.15 
-1896.04 -1081.13 1630.73 
-1894.34 -1081.7 1631.65 
-1894.98 -1081.47 1631.37 
-1929.26 -1053.3 1640.37 
-1928.35 -1054.09 1639.93 
-1927.7 -1054.51 1639.55 
-1927.36 -1054.59 1639.23 
-1926.97 -1054.67 1638.89 
-1926.76 -1054.5 1638.76 
-1926.24 -1055.16 1638.39 
-1924.75 -1056.11 1638.66 
-1925.24 -1055.95 1638.54 
-1923.42 -1057 1639 
-1923.88 -1056.88 1638.89 
-1920.94 -1058.82 1638.2 
-1920 -1059.5 1638.18 
-1919.02 -1060.47 1638.54 
-1917.76 -1061.57 1639.11 
-1916.93 -1062 1639.66 
-1915.36 -1063.21 1640.09 
-1912.15 -1067.92 1640.34 
-1922.31 -1058.16 1639.1 
-1901.89 -1072.39 1635.91 
-1900.77 -1072.47 1635.4 
-1899.98 -1072.65 1634.9 
-1905.53 -1072.12 1639.66 
-1904.24 -1072.4 1638.22 
-1902.51 -1072.57 1636.09 
-1912.06 -1068.42 1640.62 
-1909.26 -1070.53 1641.64 
-1907.19 -1071.64 1641.94 
-1906.08 -1071.83 1641.38 
-1899.21 -1072.88 1634.52 
-1898.69 -1073.37 1634.57 
-1898.1 -1073.89 1634.76 
-1897.46 -1074.31 1635.14 
-1896.06 -1074.87 1635.99 
-1895.47 -1074.84 1636.36 
-1894.33 -1074.82 1636.96 
-1894.68 -1075.03 1636.69 
-1896.84 -1074.75 1635.51 
-1929.63 -1053.33 1640.45 
-1930.04 -1053.32 1640.54 
-1929.74 -1054.04 1640.26 
-1929.46 -1055.98 1639.62 
-1929.04 -1056.79 1639.28 
-1929.27 -1055.71 1639.66 
-1929.83 -1054.78 1640.06 
-1929.98 -1054.22 1640.26 
-1839.44 -1111.97 1627.45 
-1839.43 -1112.09 1627.34 
-1839.16 -1112.04 1627.85 
-1839.32 -1111.9 1628.14 
-1839.49 -1111.76 1628.37 
-1840.02 -1111.02 1630.61 
-1839.97 -1111.1 1630.24 
-1839.68 -1111.41 1630.04 
-1839.22 -1111.76 1629.47 
-1839.22 -1111.82 1629.06 
-1839.3 -1111.62 1630.2 
-1839.28 -1111.68 1629.81 
-1839.71 -1111.47 1627.7 
-1839.81 -1111.32 1627.76 
-1839.91 -1111.16 1627.81 
-1840.37 -1110.59 1627.43 
-1840.01 -1111.01 1627.87 
-1840.62 -1110.27 1627.24 
-1840.92 -1109.89 1627 
-1841.55 -1109.73 1628.81 
-1839.59 -1111.65 1627.68 
-1839.46 -1111.87 1627.59 
-1856.89 -1111.31 1632.45 
-1865.22 -1108.32 1629.97 
-1861.73 -1110.47 1630.56 
-1868.09 -1105.88 1630.71 
-1869.37 -1103.7 1632.42 
-1870.48 -1101.86 1633.88 
-1866.89 -1106.83 1630.34 
-1871.34 -1100.08 1635.23 
-1859.81 -1111.41 1631.08 
-1857.76 -1110.87 1632.42 
-1858.21 -1111.4 1631.84 
-1858.41 -1110.48 1632.44 
-1858.99 -1110.69 1632.04 
-1857.24 -1110.71 1632.75 
-1848.72 -1115.6 1634.82 
-1842.83 -1119.74 1635.64 
-1843.34 -1117.99 1635.42 
-1843.01 -1118.85 1635.81 
-1844.68 -1115.26 1634.63 
-1843.71 -1117.59 1635.08 
-1844.84 -1113.28 1634.51 
-1844.36 -1113.07 1634.21 
-1846.62 -1111.42 1633.62 
-1843.86 -1113.89 1634.6 
-1843.28 -1113.89 1634.43 
-1843.39 -1114.03 1634.57 
-1851 -1114.83 1634.62 
-1852.52 -1113.14 1633.29 
-1853.13 -1113.23 1632.94 
-1853.7 -1112.51 1632.95 
-1854.1 -1111.69 1633.39 
-1845.1 -1110.7 1632.54 
-1854.41 -1110.81 1633.94 
-1843.87 -1110.44 1631.97 
-1842.62 -1109.56 1631.22 
-1855.72 -1110.06 1633.87 
-1856.3 -1110.53 1633.28 
-1854.8 -1109.96 1634.42 
-1871.62 -1096.52 1636.08 
-1871.41 -1098.28 1635.8 
-1871.71 -1095.88 1636.52 
-1889.65 -1100.12 1624.35 
-1890.46 -1099.76 1624.04 
-1890.96 -1099.13 1624.15 
-1889.16 -1100.29 1624.56 
-1891.17 -1098.7 1624.31 
-1888.74 -1100.97 1624.45 
-1888.68 -1100.42 1624.79 
-1891.54 -1098.68 1624 
-1890.77 -1099.82 1623.81 
-1889.64 -1101.47 1623.61 
-1826.78 -1115.96 1624.25 
-1831.35 -1116.25 1629.44 
-1828.58 -1116.12 1624.53 
-1827.24 -1116.15 1624.33 
-1827.53 -1116.1 1624.24 
-1828.01 -1116.14 1624.31 
-1827.13 -1116.27 1624.6 
-1830.36 -1117.41 1631.39 
-1830.27 -1116.94 1630.43 
-1830.04 -1117.19 1629.58 
-1830.1 -1117.04 1629.82 
-1830.74 -1118.34 1632.34 
-1830.54 -1118.3 1632.32 
-1830.63 -1116.8 1629.58 
-1830.53 -1116.82 1629.69 
-1830.09 -1117.21 1629.37 
-1830.95 -1116.7 1629.38 
-1830.8 -1116.79 1629.25 
-1830.72 -1116.79 1629.42 
-1831.39 -1116.42 1629.62 
-1831.13 -1116.64 1629.29 
-1831.02 -1116.72 1629.14 
-1828.43 -1108.1 1635.33 
-1828.65 -1107.82 1635.02 
-1828.96 -1107.73 1634.98 
-1829.32 -1108.09 1635.37 
-1826.73 -1107.86 1635.09 
-1828.24 -1107.91 1635.07 
-1827.79 -1107.88 1635.03 
-1811.07 -1119.95 1637.87 
-1809.54 -1121 1637.92 
-1810.16 -1120.45 1638 
-1824.64 -1109.94 1637.64 
-1826.78 -1109.75 1637.09 
-1823.5 -1109.58 1637.4 
-1827.27 -1108.68 1636.36 
-1827.85 -1108.44 1636.27 
-1828.9 -1107.55 1635.93 
-1822.57 -1109.33 1637.09 
-1821.59 -1109.09 1636.91 
-1830.88 -1106.72 1635.66 
-1829.75 -1106.77 1635.65 
-1821.22 -1108.8 1636.5 
-1821.03 -1108.62 1636.34 
-1820.84 -1108.4 1636.06 
-1820.7 -1108.31 1636.03 
-1820.47 -1108.05 1635.71 
-1820.3 -1107.93 1635.66 
-1820.06 -1107.71 1635.47 
-1820.51 -1107.59 1635.27 
-1821.78 -1107.53 1635.05 
-1823.08 -1107.58 1634.99 
-1824.34 -1107.57 1634.84 
-1825.62 -1107.52 1634.63 
-1826.12 -1107.69 1634.86 
-1832.3 -1106.63 1635.7 
-1829.75 -1107.34 1634.84 
-1829.51 -1107.42 1634.78 
-1829.37 -1107.79 1635.09 
-1829.36 -1106.2 1633.95 
-1829.35 -1106.48 1634.1 
-1829.27 -1105.84 1633.69 
-1829.45 -1106.96 1634.44 
-1829.23 -1106.56 1634.08 
-1830.41 -1105.33 1633.73 
-1831.57 -1105.81 1634.36 
-1829.47 -1105.12 1633.34 
-1829.22 -1105.3 1633.34 
-1829.09 -1105.4 1633.33 
-1834.37 -1106.75 1635.76 
-1833.46 -1106.24 1635.13 
-1831.58 -1105.37 1634.05 
-1832.4 -1105.62 1634.43 
-1833.59 -1106.69 1635.78 
-1828.67 -1118.76 1632.58 
-1828.99 -1118.48 1632.46 
-1815.73 -1128.33 1632.99 
-1813.58 -1130.2 1633.41 
-1821.9 -1122.12 1632.1 
-1824.69 -1120.65 1632.61 
-1826.62 -1119.66 1632.52 
-1818.83 -1124.3 1632.35 
-1819.04 -1124.11 1632.31 
-1817.71 -1125.26 1632.49 
-1808.93 -1130.25 1633.72 
-1809.65 -1130.74 1633.76 
-1810.67 -1130.75 1633.64 
-1812.54 -1131.47 1633.57 
-1807.64 -1130.16 1633.63 
-1808.07 -1130.27 1633.66 
-1808.61 -1130.44 1633.72 
-1806.76 -1129.85 1633.58 
-1807.21 -1130.12 1633.6 
-1801.32 -1124.1 1639.68 
-1799.27 -1126.93 1638.6 
-1804.54 -1116.92 1641.49 
-1798.94 -1128.04 1637.85 
-1805.08 -1116.91 1641.06 
-1802.23 -1129.01 1635.61 
-1798.16 -1130.23 1636.22 
-1798.3 -1128.47 1637.76 
-1798.67 -1121.09 1637.65 
-1799.76 -1122.51 1637.15 
-1798.65 -1119.91 1638.16 
-1804.49 -1130.49 1634.45 
-1803.99 -1130.09 1634.66 
-1803.43 -1129.81 1634.68 
-1802.8 -1129.57 1634.77 
-1804.78 -1130.5 1634.27 
-1805.08 -1130.41 1634.14 
-1805.4 -1130.12 1633.96 
-1805.73 -1129.94 1633.77 
-1806.22 -1129.92 1633.63 
-1801.61 -1123.65 1636.94 
-1804.45 -1124.75 1637.02 
-1803.18 -1123.87 1637.23 
-1808.65 -1121.33 1638.23 
-1807.6 -1121.78 1638.7 
-1807.76 -1121.22 1639.31 
-1807.2 -1121.07 1639.68 
-1807.13 -1121.96 1639.17 
-1805.13 -1125.55 1636.64 
-1807.02 -1123.07 1638.42 
-1806.37 -1123.8 1637.95 
-1804.69 -1129.61 1634.05 
-1804.37 -1129.66 1633.9 
-1804.19 -1129.43 1634.06 
-1804.89 -1125.66 1636.54 
-1829.92 -1117.69 1631.88 
-1829.84 -1117.35 1631.2 
-1826.81 -1116.12 1624.84 
-1826.98 -1116.32 1625.63 
-1827.15 -1116.5 1626.47 
-1829.39 -1118.1 1632.26 
-1829.77 -1117.86 1632.07 
-1840.11 -1112.6 1632.03 
-1840.31 -1111.28 1631.14 
-1839.98 -1111.32 1631.05 
-1838.53 -1114.33 1632.6 
-1835.34 -1116.43 1632.5 
-1834.32 -1116.9 1632.53 
-1830.92 -1118.61 1632.54 
-1830.55 -1118.61 1632.46 
-1828.87 -1119.67 1632.7 
-1828.88 -1119.56 1632.66 
-1834.83 -1109.64 1647.68 
-1828.9 -1114.88 1645.42 
-1864.31 -1094.37 1641.86 
-1865.21 -1094.28 1641.5 
-1862.75 -1095.48 1641.79 
-1861.06 -1096.74 1641.73 
-1859.95 -1097.81 1641.6 
-1858.29 -1099.08 1641.74 
-1856.29 -1100.39 1642.09 
-1854.58 -1101.83 1642.11 
-1852.88 -1102.73 1642.62 
-1849.68 -1104.34 1643.65 
-1847.29 -1105.76 1644.22 
-1850.89 -1104 1643.01 
-1845.05 -1107.22 1644.63 
-1844.13 -1107.28 1645.29 
-1839.74 -1107.55 1648.15 
-1840.79 -1107.49 1647.74 
-1841.12 -1108.29 1646.73 
-1839.42 -1108.92 1647.49 
-1841.88 -1108.79 1645.67 
-1840.58 -1109.19 1646.32 
-1836.6 -1108.83 1647.82 
-1821.56 -1118.38 1642.62 
-1816.73 -1120.28 1639.49 
-1815.94 -1120.47 1639.2 
-1815.25 -1120.78 1639.5 
-1813.79 -1120.53 1639.71 
-1811.12 -1119.25 1639.64 
-1811.68 -1119.23 1639.29 
-1811.25 -1119.27 1638.59 
-1810.82 -1119.22 1638.96 
-1810.67 -1119.86 1638.3 
-1896.68 -1083.94 1627.74 
-1897.69 -1083.08 1627.66 
-1898.97 -1082.95 1628.13 
-1899.72 -1083.15 1628.49 
-1900.19 -1083.88 1629.04 
-1900.02 -1084.03 1629.04 
-1900.34 -1083.99 1629.17 
-1900.39 -1083.63 1629.02 
-1901.24 -1081.49 1627.49 
-1901.54 -1082.05 1627.58 
-1901.83 -1082.52 1628.02 
-1901.25 -1081.37 1627.53 
-1901.05 -1081.14 1627.58 
-1900.79 -1080.97 1627.61 
-1900.53 -1080.83 1627.65 
-1900.41 -1080.89 1627.68 
-1900.42 -1081.54 1628.02 
-1900.49 -1082.39 1628.46 
-1900.5 -1083.15 1628.84 
-1900.52 -1083.88 1629.2 
-1901.25 -1084.27 1629.22 
-1901.57 -1084.16 1629.31 
-1901.87 -1084.05 1629.35 
-1902.18 -1084.08 1629.43 
-1902.4 -1083.75 1629.15 
-1902.1 -1082.94 1628.44 
-1900.9 -1084.38 1629.13 
-1900.52 -1084.47 1629.03 
-1900.16 -1084.43 1628.92 
-1899.85 -1084.59 1628.88 
-1899.57 -1084.61 1628.96 
-1896.2 -1085.12 1628.23 
-1897.59 -1085.28 1628.91 
-1898.09 -1085.08 1628.94 
-1899.18 -1084.8 1629.06 
-1898.79 -1084.89 1629.04 
-1898.39 -1085.1 1629.04 
-1884.97 -1090.44 1633.76 
-1883.55 -1091.39 1634.25 
-1880.24 -1092.69 1635.68 
-1882.24 -1091.94 1634.89 
-1884.73 -1089.91 1634.17 
-1885.31 -1088.29 1634.06 
-1876.27 -1093.49 1636.5 
-1875.86 -1093.96 1636.26 
-1877.25 -1093.09 1636.5 
-1886.66 -1084.59 1635.56 
-1886.91 -1084.2 1635.75 
-1888.47 -1083.67 1634.86 
-1887.83 -1083.84 1635.31 
-1885.61 -1085.43 1635.64 
-1885.81 -1085.07 1635.85 
-1888.99 -1083.47 1634.64 
-1890.05 -1083.13 1634.03 
-1891.33 -1082.71 1633.31 
-1892.3 -1082.41 1632.71 
-1885.24 -1086.17 1635.31 
-1893.24 -1082.09 1632.21 
-1874.59 -1094.59 1636.3 
-1874.83 -1094.18 1636.57 
-1872.98 -1095.3 1636.44 
-1873.67 -1094.94 1636.43 
-1871.96 -1095.44 1636.84 
-1892.15 -1076.3 1637.13 
-1885.85 -1081.11 1639.04 
-1879.66 -1085.81 1640.94 
-1868.14 -1091.04 1642.44 
-1865.71 -1092.1 1642.41 
-1874.42 -1088.36 1642.47 
-1876.96 -1087.5 1641.88 
-1875.68 -1088.18 1642.03 
-1872.99 -1088.99 1642.52 
-1870.89 -1089.87 1642.49 
-1877.84 -1087.29 1641.33 
-1866.89 -1091.65 1642.44 
-1868.56 -1090.99 1642.49 
-1870.29 -1090.29 1642.53 
-1871.62 -1089.85 1642.48 
-1872.74 -1089.77 1641.99 
-1872.31 -1090.2 1641.8 
-1872.8 -1090.51 1641.24 
-1871.92 -1090.9 1641.31 
-1872.25 -1091.27 1640.78 
-1871.34 -1091.7 1640.83 
-1870.39 -1092.11 1640.91 
-1869.42 -1092.53 1641.01 
-1868.44 -1093.01 1641.05 
-1868.09 -1093.47 1640.79 
-1867.3 -1093.84 1640.82 
-1866.39 -1094.24 1640.9 
-1934.02 -1054.37 1624.12 
-1933.92 -1054.07 1625.11 
-1933.86 -1054.17 1625.44 
-1933.94 -1055.16 1623.5 
-1933.53 -1054.21 1625.99 
-1933.6 -1054.27 1626.05 
-1933.75 -1054.31 1625.79 
-1927.09 -1058.91 1638.26 
-1925.93 -1059.55 1637.81 
-1924.87 -1059.99 1636.83 
-1923.31 -1060.75 1635.34 
-1922.69 -1061.5 1634.54 
-1922 -1062.31 1634.51 
-1921.07 -1063.37 1635.73 
-1921.79 -1065.11 1639.08 
-1921.77 -1067.5 1642.12 
-1916.52 -1070.29 1640.13 
-1921.49 -1067.73 1642.85 
-1916.07 -1073.62 1640.49 
-1913.37 -1074.93 1640.37 
-1910.56 -1075.43 1640.07 
-1928.24 -1057.59 1638.86 
-1904.18 -1075.51 1632.93 
-1906.61 -1075.78 1635.59 
-1902.79 -1075.66 1632.35 
-1902.28 -1076.14 1632.46 
-1901.69 -1076.75 1632.64 
-1907.6 -1075.63 1637 
-1900.53 -1078.09 1632.59 
-1901.08 -1077.38 1632.81 
-1898.81 -1079.19 1631.52 
-1899.52 -1078.84 1632.06 
-1898.2 -1079.75 1630.88 
-1897.63 -1080.21 1630.45 
-1896.98 -1080.59 1630.47 
-1896.21 -1080.71 1630.98 
-1893.28 -1082.04 1632.29 
-1893.9 -1081.8 1632.02 
-1895.62 -1080.67 1631.48 
-1928.46 -1054.49 1639.84 
-1927.76 -1054.87 1639.49 
-1927.41 -1054.91 1639.19 
-1927.02 -1055.03 1638.83 
-1926.32 -1055.47 1638.41 
-1925.07 -1056.49 1638.61 
-1924.41 -1056.76 1638.77 
-1923.24 -1057.43 1639.06 
-1923.6 -1057.45 1638.99 
-1921.12 -1059 1637.98 
-1920.02 -1059.77 1638 
-1918.77 -1061.04 1638.45 
-1917.43 -1062.17 1639.07 
-1916.39 -1062.82 1639.69 
-1915.1 -1063.82 1640.24 
-1922.56 -1058.28 1639.02 
-1901.42 -1072.6 1635.45 
-1900.78 -1072.75 1635.02 
-1900.01 -1072.9 1634.57 
-1904.93 -1072.58 1638.64 
-1905.98 -1072.3 1640.37 
-1903.32 -1072.73 1636.67 
-1901.82 -1072.8 1635.31 
-1912.17 -1068.78 1640.87 
-1910.06 -1070.76 1641.52 
-1907.92 -1071.96 1641.76 
-1906.71 -1072.31 1641.26 
-1899.37 -1073.22 1634.34 
-1898.83 -1073.73 1634.45 
-1898.22 -1074.23 1634.68 
-1897.61 -1074.67 1635.04 
-1895.39 -1075.4 1636.2 
-1896.24 -1075.21 1635.87 
-1894.93 -1075.33 1636.38 
-1893.47 -1075.7 1636.55 
-1894.04 -1075.79 1636.09 
-1897 -1075.08 1635.4 
-1928.95 -1054.4 1639.98 
-1928.86 -1055.24 1639.71 
-1928.46 -1055.25 1639.61 
-1928.54 -1056.83 1639.16 
-1928.75 -1055.76 1639.53 
-1928.37 -1056.55 1639.2 
-1839.39 -1112.07 1627.43 
-1839.54 -1112.16 1627.29 
-1839.58 -1112.18 1627.2 
-1838.99 -1112.45 1627.42 
-1839.15 -1112.65 1627.08 
-1838.85 -1112.09 1628.63 
-1838.82 -1112.19 1628.18 
-1839.06 -1111.94 1628.85 
-1839.83 -1111.23 1630.78 
-1839.77 -1111.29 1630.38 
-1839.31 -1111.54 1630.63 
-1838.7 -1111.97 1629.95 
-1838.85 -1111.87 1630.13 
-1838.67 -1112.04 1629.62 
-1838.96 -1111.71 1630.73 
-1838.82 -1111.82 1630.54 
-1839.6 -1111.59 1627.81 
-1839.67 -1111.47 1627.88 
-1839.79 -1111.3 1627.89 
-1839.87 -1111.17 1627.95 
-1840.11 -1110.84 1627.94 
-1839.97 -1111.01 1628.01 
-1840.24 -1110.66 1627.95 
-1841.49 -1109.8 1628.79 
-1840.4 -1110.44 1627.88 
-1839.5 -1111.75 1627.76 
-1839.4 -1112.03 1627.5 
-1856.74 -1109.99 1633.5 
-1865.48 -1107.81 1630.21 
-1863.28 -1108.91 1630.77 
-1861.82 -1109.57 1631.22 
-1867.76 -1105.32 1631.32 
-1866.65 -1106.15 1631.02 
-1867.55 -1104.67 1631.97 
-1869.03 -1102.89 1633.26 
-1870.05 -1101.03 1634.76 
-1865.3 -1107.04 1630.94 
-1870.68 -1099.11 1636.06 
-1860.06 -1110.44 1631.68 
-1857.32 -1109.68 1633.49 
-1857.91 -1109.87 1633.1 
-1858.3 -1109.07 1633.54 
-1858.72 -1109.69 1632.9 
-1859.19 -1109.48 1632.86 
-1843.12 -1121.3 1636.28 
-1839.36 -1120.62 1636.09 
-1840.71 -1118.24 1636.51 
-1841.83 -1117.63 1636.34 
-1843 -1116.24 1634.96 
-1842.59 -1116.14 1635.17 
-1842.65 -1117.59 1635.82 
-1843.54 -1116.33 1634.72 
-1843.43 -1114.75 1634.76 
-1844.08 -1112.93 1634.02 
-1842.91 -1113.74 1634.19 
-1845.86 -1111.58 1633.58 
-1843.08 -1114.33 1634.72 
-1842.8 -1114.01 1634.38 
-1851.03 -1115.8 1635.05 
-1853.24 -1113.32 1632.92 
-1852.8 -1114.58 1633.99 
-1852.49 -1112.96 1633.57 
-1852.62 -1112.12 1634.11 
-1844.2 -1112.03 1633.31 
-1852.93 -1111.2 1634.72 
-1842.8 -1109.87 1631.51 
-1856.16 -1109.21 1634.33 
-1855.33 -1109.15 1634.77 
-1853.54 -1110.13 1635.23 
-1870.87 -1096.79 1636.49 
-1870.39 -1096.34 1636.95 
-1870.89 -1095.66 1637.16 
-1890.22 -1100.16 1623.96 
-1890.76 -1099.91 1623.79 
-1891.02 -1099.34 1624.02 
-1889.73 -1100.28 1624.21 
-1891.15 -1098.96 1624.19 
-1889.03 -1100.45 1624.55 
-1889.42 -1100.44 1624.31 
-1891.41 -1098.66 1624.21 
-1888.93 -1100.8 1624.42 
-1891.85 -1098.76 1623.77 
-1891.6 -1098.99 1623.82 
-1891 -1099.5 1623.84 
-1889.77 -1101.25 1623.64 
-1826.89 -1116.32 1624.66 
-1831.63 -1116.15 1629.39 
-1828.94 -1116.18 1624.48 
-1827.92 -1116.62 1625.72 
-1827.99 -1116.47 1625.37 
-1828.25 -1116.42 1625.33 
-1828.39 -1116.31 1625.03 
-1828.71 -1116.25 1624.59 
-1827.79 -1116.71 1626.04 
-1829.98 -1117.52 1630.82 
-1830.15 -1116.88 1630.25 
-1829.71 -1117.38 1629.85 
-1829.28 -1117.8 1629.37 
-1829.04 -1117.53 1628.39 
-1829.16 -1117.71 1628.89 
-1829.91 -1118.78 1632.53 
-1829.89 -1118.91 1632.57 
-1830.23 -1118.35 1632.35 
-1829.85 -1118.67 1632.48 
-1830.25 -1117.17 1629 
-1830.18 -1117.19 1629.18 
-1829.19 -1117.44 1628.23 
-1830.88 -1116.79 1629.08 
-1830.45 -1117.11 1628.67 
-1830.35 -1117.14 1628.83 
-1831.27 -1116.59 1629.18 
-1831.69 -1116.24 1629.59 
-1831.12 -1116.72 1628.95 
-1831.03 -1116.8 1628.72 
-1830.94 -1116.81 1628.88 
-1828.2 -1107.55 1634.71 
-1828.53 -1107.43 1634.64 
-1828.68 -1107.21 1634.45 
-1829.05 -1107.42 1634.7 
-1827.08 -1107.6 1634.64 
-1827.49 -1107.74 1634.82 
-1827.81 -1107.54 1634.65 
-1809.12 -1121.02 1638.5 
-1809.85 -1120.47 1638.46 
-1826.05 -1109.66 1637.29 
-1824.36 -1109.67 1637.43 
-1826.9 -1108.71 1636.44 
-1823.48 -1109.52 1637.22 
-1828.36 -1107.7 1635.99 
-1827.77 -1107.91 1636.07 
-1829.45 -1106.75 1635.64 
-1822.53 -1109.27 1636.91 
-1821.6 -1109.04 1636.74 
-1830.94 -1106.48 1635.6 
-1821.24 -1108.75 1636.33 
-1821.01 -1108.52 1636.1 
-1820.76 -1108.26 1635.79 
-1820.6 -1108.13 1635.71 
-1820.41 -1107.9 1635.4 
-1820.26 -1107.81 1635.38 
-1820.1 -1107.68 1635.33 
-1819.93 -1107.45 1635.08 
-1820.88 -1107.39 1634.89 
-1822.01 -1107.31 1634.64 
-1822.84 -1107.4 1634.71 
-1823.98 -1107.4 1634.59 
-1825.27 -1107.35 1634.36 
-1826.24 -1107.31 1634.24 
-1826.67 -1107.45 1634.44 
-1833.8 -1106.25 1635.65 
-1832.27 -1106.17 1635.56 
-1829.17 -1107.02 1634.35 
-1829.02 -1105.68 1633.45 
-1829.11 -1106.04 1633.71 
-1828.98 -1106.11 1633.67 
-1828.83 -1105.23 1633.08 
-1829.02 -1106.47 1633.91 
-1830.6 -1104.96 1633.52 
-1829.18 -1104.58 1632.88 
-1829.64 -1104.56 1633 
-1829.03 -1104.88 1632.99 
-1828.86 -1104.44 1632.64 
-1828.86 -1104.94 1632.93 
-1834.74 -1106.47 1635.72 
-1833.83 -1106.03 1635.08 
-1832.78 -1105.45 1634.41 
-1830.62 -1104.5 1633.21 
-1831.6 -1104.88 1633.71 
-1828.65 -1118.86 1632.63 
-1828.93 -1118.62 1632.55 
-1829.13 -1118.43 1632.43 
-1816.24 -1126.13 1632.73 
-1816.18 -1130.66 1633 
-1815.66 -1132.91 1632.55 
-1816.42 -1132.74 1632.36 
-1821.95 -1122.15 1632.22 
-1824.81 -1120.77 1632.67 
-1827.08 -1119.6 1632.56 
-1817.91 -1125.35 1632.57 
-1818.69 -1124.63 1632.43 
-1821.64 -1122.54 1632.29 
-1809.15 -1130.85 1633.84 
-1809.85 -1131.4 1633.89 
-1811.07 -1131.76 1633.75 
-1814.23 -1133.08 1633.15 
-1807.64 -1130.53 1633.67 
-1808.09 -1130.85 1633.77 
-1808.44 -1130.78 1633.78 
-1808.93 -1131.17 1633.88 
-1806.81 -1130.11 1633.57 
-1807.27 -1130.53 1633.65 
-1799.85 -1124.72 1639.56 
-1804.22 -1116.34 1641.72 
-1801.49 -1120.87 1640.94 
-1798.44 -1124.34 1639.05 
-1799.08 -1125.55 1639.26 
-1798.6 -1127.47 1638.42 
-1805.4 -1115.75 1641.62 
-1800.51 -1118.15 1639.31 
-1802.05 -1129.38 1635.23 
-1800.9 -1129.94 1635.16 
-1799.53 -1130.36 1635.37 
-1798.58 -1131.51 1634.54 
-1798.03 -1131.82 1634.45 
-1796.94 -1131.21 1635.6 
-1797.67 -1128.97 1637.64 
-1795.56 -1130.62 1636.79 
-1792.11 -1132.14 1636.97 
-1797.95 -1128.23 1638.07 
-1797.47 -1123.53 1635.91 
-1795.52 -1122.48 1636.02 
-1799.03 -1124.85 1635.51 
-1794.31 -1121.17 1636.43 
-1804.13 -1130.57 1634.15 
-1804.35 -1130.57 1633.9 
-1803.81 -1130.48 1634.12 
-1803.48 -1130.35 1634.07 
-1802.37 -1129.86 1634.42 
-1803.15 -1130.14 1634.1 
-1804.92 -1129.66 1634.05 
-1804.88 -1130.56 1634.08 
-1805.68 -1128.76 1634.75 
-1805.14 -1129.73 1633.99 
-1805.12 -1130.52 1633.98 
-1805.89 -1128.78 1634.7 
-1806.05 -1129.03 1634.5 
-1806.06 -1129.67 1634.03 
-1806.35 -1130.12 1633.58 
-1802.98 -1125.1 1636.42 
-1800.99 -1125.59 1635.58 
-1803.48 -1129.22 1634.16 
-1803.63 -1129.66 1633.91 
-1807.98 -1121.05 1639.46 
-1807.45 -1120.98 1639.72 
-1807.86 -1122.51 1638.72 
-1807.49 -1121.93 1639.16 
-1803.91 -1129.57 1633.93 
-1806.4 -1124.6 1637.41 
-1807.05 -1124.25 1637.61 
-1807.42 -1123.02 1638.41 
-1829.82 -1117.54 1631.52 
-1827.61 -1116.75 1627.81 
-1827.26 -1116.63 1625.69 
-1827.35 -1116.78 1626.46 
-1827.25 -1116.78 1626.77 
-1829.48 -1118.13 1632.28 
-1829.57 -1117.8 1631.79 
-1829.71 -1117.68 1631.67 
-1840.94 -1111.57 1631.64 
-1840.12 -1113.02 1632.24 
-1840.32 -1111.18 1631.07 
-1840.03 -1111.26 1630.99 
-1838.37 -1114.52 1632.61 
-1839.97 -1113.42 1632.41 
-1837.75 -1114.59 1632.59 
-1835.28 -1116.64 1632.48 
-1831.3 -1118.6 1632.59 
-1828.86 -1119.87 1632.81 
-1825.44 -1121.38 1632.92 
-1825.6 -1121.46 1633.03 
-1827.38 -1120.24 1632.7 
-1828.99 -1114.74 1646 
-1864.4 -1094.71 1641.49 
-1865.35 -1094.55 1641.14 
-1862.78 -1096.14 1641.27 
-1861.2 -1097.28 1641.16 
-1862.79 -1096.76 1640.79 
-1860.1 -1098.16 1641.16 
-1856.4 -1100.9 1641.54 
-1858.42 -1099.5 1641.25 
-1854.51 -1102.46 1641.58 
-1852.71 -1103.43 1642.1 
-1850.72 -1104.66 1642.53 
-1849.08 -1105.47 1643.07 
-1847.93 -1105.82 1643.65 
-1845.82 -1107.24 1644 
-1843.58 -1108.75 1644.37 
-1842.92 -1108.63 1644.99 
-1836.04 -1109.38 1648.43 
-1837.76 -1108.88 1648.77 
-1838.87 -1108.71 1648.12 
-1839 -1109.77 1647.04 
-1837.21 -1110.4 1647.86 
-1840.89 -1110 1645.33 
-1839.48 -1110.47 1646 
-1838.23 -1110.86 1646.64 
-1829.08 -1114.59 1646.69 
-1821.14 -1119.03 1642.92 
-1817.14 -1120.42 1640.33 
-1815.98 -1120.75 1639.65 
-1815.19 -1121.09 1639.89 
-1814.23 -1120.96 1639.97 
-1811.47 -1119.8 1639.99 
-1810.34 -1119.47 1639.35 
-1810.59 -1119.75 1639.83 
-1810.28 -1119.83 1638.71 
-1896.72 -1083.91 1627.71 
-1895.93 -1085.13 1628.1 
-1898.41 -1083.54 1628.22 
-1899.43 -1083.57 1628.61 
-1900.23 -1084.87 1629.55 
-1900.34 -1084.62 1629.47 
-1899.2 -1084.01 1628.76 
-1899.66 -1084.62 1629.23 
-1900.51 -1084.55 1629.52 
-1900.49 -1085.05 1629.75 
-1901.52 -1081.87 1627.52 
-1901.83 -1082.33 1627.95 
-1901.26 -1081.26 1627.57 
-1901.48 -1081.7 1627.49 
-1901.03 -1081.01 1627.62 
-1900.84 -1080.89 1627.64 
-1900.62 -1080.81 1627.72 
-1900.6 -1081.35 1628.02 
-1900.51 -1081.41 1628 
-1900.56 -1082.15 1628.39 
-1900.67 -1082.84 1628.77 
-1900.59 -1082.71 1628.67 
-1900.63 -1083.31 1628.98 
-1900.65 -1084.14 1629.4 
-1900.66 -1084.84 1629.74 
-1901.2 -1084.52 1629.23 
-1901.57 -1084.42 1629.33 
-1901.91 -1084.32 1629.42 
-1902.5 -1084.14 1629.54 
-1902.25 -1084.37 1629.52 
-1902.59 -1083.71 1629.22 
-1902.34 -1083.3 1628.81 
-1900.83 -1084.61 1629.13 
-1900.17 -1084.66 1628.94 
-1900.49 -1084.74 1629.04 
-1899.81 -1084.83 1628.88 
-1899.46 -1084.86 1628.98 
-1897.94 -1085.27 1629 
-1897.4 -1085.48 1628.94 
-1898.83 -1085.07 1629.13 
-1899.11 -1085.1 1629.07 
-1898.01 -1085.39 1629.08 
-1898.37 -1085.3 1629.14 
-1883.23 -1091.04 1634.75 
-1881.96 -1091.62 1635.32 
-1880.02 -1092.35 1636.09 
-1877.01 -1092.76 1636.91 
-1884.72 -1088.23 1634.62 
-1884.05 -1089.77 1634.83 
-1883.03 -1090.67 1635.15 
-1875.81 -1093.17 1637.06 
-1875.12 -1093.72 1636.88 
-1885.92 -1084.72 1636.14 
-1886.19 -1084.38 1636.27 
-1887.09 -1084.06 1635.82 
-1888.43 -1083.61 1635.07 
-1884.68 -1086.21 1635.79 
-1884.85 -1085.54 1636.26 
-1885.02 -1085.18 1636.5 
-1889.54 -1083.26 1634.42 
-1890.62 -1082.91 1633.79 
-1891.51 -1082.6 1633.34 
-1892.27 -1082.37 1632.84 
-1873.69 -1094.53 1636.83 
-1873.99 -1094.06 1637.13 
-1872.54 -1094.95 1637.01 
-1871.34 -1095.18 1637.41 
-1887.55 -1080.28 1638.21 
-1880.81 -1085.36 1640.31 
-1879.06 -1086.48 1640.91 
-1869.1 -1090.69 1642.47 
-1874.59 -1088.59 1642.19 
-1877.13 -1088.16 1641.26 
-1875.55 -1088.63 1641.66 
-1873.39 -1089 1642.4 
-1871.15 -1089.84 1642.52 
-1878.77 -1087.07 1640.66 
-1872.58 -1089.41 1642.42 
-1873.82 -1089.34 1641.85 
-1873.83 -1089.71 1641.49 
-1873.48 -1090.11 1641.28 
-1874.11 -1090.4 1640.66 
-1873.18 -1090.84 1640.72 
-1873.43 -1091.21 1640.23 
-1872.5 -1091.66 1640.27 
-1871.54 -1092.08 1640.35 
-1870.58 -1092.5 1640.44 
-1869.64 -1092.89 1640.55 
-1869.13 -1093.28 1640.42 
-1868.72 -1093.74 1640.19 
-1867.76 -1094.14 1640.3 
-1866.85 -1094.53 1640.38 
-1865.82 -1094.75 1640.7 
-1933.9 -1054.77 1624.08 
-1933.92 -1054.16 1624.94 
-1933.85 -1054.32 1625.28 
-1933.47 -1054.3 1625.9 
-1933.56 -1054.38 1625.97 
-1933.74 -1054.48 1625.66 
-1926.54 -1059.25 1638.44 
-1925.35 -1059.62 1637.58 
-1926.32 -1059.13 1638.34 
-1927.32 -1058.43 1638.34 
-1924.19 -1060.11 1636.48 
-1923.08 -1060.56 1635.6 
-1922.35 -1061.38 1634.85 
-1921.68 -1062.19 1634.9 
-1920.58 -1063.13 1635.8 
-1921.11 -1064.9 1639.02 
-1921.07 -1067.42 1642.65 
-1916.63 -1070.59 1640.74 
-1916.25 -1070.48 1640.74 
-1916.05 -1073.61 1640.72 
-1912.77 -1075.01 1640.39 
-1910.12 -1075.28 1640.04 
-1927.8 -1057.75 1638.66 
-1904.51 -1075.53 1633.35 
-1906.56 -1075.59 1635.84 
-1903.86 -1075.44 1632.88 
-1902.1 -1076.39 1632.61 
-1902.66 -1075.86 1632.51 
-1901.34 -1077.15 1632.84 
-1907.44 -1075.43 1637.13 
-1900.19 -1078.27 1632.64 
-1900.69 -1077.68 1633.01 
-1897.88 -1079.5 1631.15 
-1898.45 -1078.9 1631.84 
-1899.2 -1078.53 1632.26 
-1897.35 -1079.7 1631.08 
-1897.13 -1079.27 1631.57 
-1892.64 -1082.21 1632.76 
-1894.34 -1081.22 1632.12 
-1896.89 -1078.97 1631.94 
-1927.88 -1055.41 1639.39 
-1927.67 -1055.29 1639.29 
-1927.44 -1055.22 1639.12 
-1927.11 -1055.35 1638.8 
-1926.43 -1055.77 1638.39 
-1925.3 -1056.67 1638.57 
-1924.46 -1057.34 1638.79 
-1924.08 -1057.35 1638.88 
-1922.82 -1058.37 1638.91 
-1921.28 -1059.17 1637.73 
-1920.02 -1060.05 1637.83 
-1917.97 -1062.04 1638.62 
-1919.29 -1060.93 1638 
-1916.6 -1063.12 1639.3 
-1915.06 -1064.67 1640.33 
-1914.62 -1064.81 1640.46 
-1922.1 -1058.68 1638.55 
-1900.96 -1072.97 1634.79 
-1900.12 -1073.16 1634.29 
-1905.62 -1072.75 1639.19 
-1904.24 -1072.92 1637.39 
-1906.6 -1072.75 1640.32 
-1902.69 -1072.93 1635.68 
-1901.83 -1073.06 1634.96 
-1912.28 -1069.24 1641.11 
