-2162.85 297.892 3933.24 
-2163.39 297.502 3931.91 
-2162.28 296.168 3933.97 
-2161.62 293.919 3934.61 
-2159.93 290.545 3936.27 
-2160.88 291.889 3935.35 
-2164.97 314.018 3936.22 
-2166.07 313.418 3939.62 
-2165.84 313.301 3939.96 
-2165.43 313.204 3937.78 
-2165.37 313.179 3937.98 
-2165.4 313.343 3937.19 
-2165.8 313.59 3939.18 
-2165.65 313.721 3938.69 
-2165.48 313.791 3938 
-2165.33 313.847 3937.44 
-2165.18 313.985 3936.71 
-2165.16 313.889 3936.8 
-2165.12 313.775 3936.86 
-2165.21 313.623 3936.96 
-2165.34 313.486 3937.05 
-2165.12 313.973 3936.94 
-2165.03 314.069 3936.47 
-2171.82 266.555 3910.76 
-2171.87 267.493 3911.48 
-2172.37 264.935 3910.92 
-2171.38 265.296 3910.97 
-2173.76 263.134 3910.86 
-2176.17 258.872 3910.85 
-2170.91 267.869 3912.19 
-2169.34 272.761 3911.57 
-2169.42 271.376 3911.77 
-2169.87 268.336 3912.82 
-2169.08 270.103 3912.66 
-2178.36 256.269 3911.12 
-2180.33 254.998 3911.82 
-2168.57 279.41 3918.48 
-2169.07 278.897 3918.05 
-2169.46 277.433 3917.05 
-2169.6 275.209 3914.52 
-2169.23 275.461 3914.87 
-2168.89 275.618 3915.23 
-2168.58 272.661 3912.41 
-2164.44 297.414 3930.35 
-2164.76 297.942 3929.45 
-2165.03 297.803 3927.06 
-2164.61 297.227 3927.06 
-2164.9 295.258 3925.11 
-2164.29 292.324 3924.2 
-2163.95 289.296 3923.28 
-2163.83 286.85 3922.59 
-2165.94 283.129 3920.71 
-2165.5 282.934 3920.87 
-2167.03 279.752 3919.35 
-2167.8 279.18 3918.75 
-2159.87 288.165 3936.89 
-2158.55 287.868 3939.7 
-2158.43 286.016 3941.14 
-2155.94 286.662 3945.22 
-2156.05 284.429 3947.33 
-2154.34 287.926 3949.75 
-2152.84 290.899 3952.35 
-2151.41 293.866 3955.36 
-2154.89 286.238 3951.61 
-2142.98 303.408 3956.28 
-2146.46 299.797 3955.77 
-2152.04 293.45 3956.63 
-2142.97 304.337 3957.58 
-2142.24 306.587 3957.8 
-2163.54 296.819 3930.45 
-2162.82 296.738 3932.51 
-2162.9 296.175 3930.9 
-2162.51 295.12 3933.69 
-2161.91 292.914 3934.29 
-2160.35 289.904 3935.56 
-2161.28 291.221 3934.88 
-2164.88 314.116 3936.26 
-2165.82 313.474 3939.61 
-2165.6 313.362 3940.16 
-2165.76 313.414 3939.86 
-2165.33 313.407 3940.2 
-2165.46 313.372 3940.22 
-2165.52 313.408 3939.95 
-2165.44 313.428 3940.13 
-2165.28 313.151 3938.1 
-2165.49 313.196 3939.3 
-2165.28 313.348 3937.2 
-2165.58 313.537 3939.55 
-2165.39 313.626 3939.36 
-2165.42 313.717 3939.02 
-2165.46 313.854 3938.25 
-2165.29 313.839 3938.67 
-2165.25 313.943 3937.57 
-2165.04 314.047 3936.7 
-2165.03 313.912 3936.78 
-2164.95 313.837 3936.81 
-2165.05 313.709 3936.89 
-2165.09 313.59 3936.97 
-2165.18 313.517 3937.02 
-2165.27 313.504 3937.03 
-2165.02 314.075 3936.96 
-2164.93 314.166 3936.5 
-2170.21 265.762 3911.18 
-2169.73 264.337 3911.31 
-2170.13 266.172 3912.08 
-2172 262.53 3911.19 
-2170.9 263.687 3911.24 
-2174.13 259.212 3911.07 
-2178.52 253.107 3910.94 
-2176.14 255.074 3911.01 
-2169.96 266.6 3913.06 
-2169.31 267.01 3913.86 
-2168.72 268.927 3913.68 
-2168.4 272.035 3913.21 
-2181.03 251.73 3911.84 
-2168.55 278.608 3918.12 
-2169.04 278.175 3917.69 
-2168.56 275.853 3915.63 
-2168.99 277.275 3917.01 
-2168.3 271.713 3914.1 
-2163.63 294.791 3927.12 
-2164.15 296.039 3927.12 
-2164.48 294.725 3925.08 
-2164.1 293.899 3924.93 
-2163.68 291.324 3924.23 
-2163.59 289.447 3923.57 
-2163.55 287.571 3922.98 
-2163.74 285.988 3922.45 
-2165.19 282.491 3920.92 
-2166.42 279.539 3919.57 
-2167.3 278.829 3918.96 
-2168.1 278.448 3918.5 
-2160.58 285.695 3937.32 
-2160.34 287.913 3935.4 
-2160.96 283.716 3938.02 
-2160.35 280.737 3941.02 
-2158.16 281.86 3944.26 
-2158.65 278.779 3946.07 
-2157.18 281.706 3948.11 
-2155.92 284.165 3949.88 
-2154.44 287.728 3953.31 
-2159.21 276.648 3947.36 
-2157.71 280.418 3950.12 
-2145.14 301.71 3957.7 
-2147.04 299.605 3957.09 
-2155.82 285.496 3953.93 
-2153.7 291.048 3957.87 
-2143.04 305.904 3959.02 
-2144.32 303.505 3958.96 
-2162.99 293.66 3927 
-2162.98 295.522 3929.56 
-2162.84 295.174 3932.19 
-2162.91 294.534 3930.33 
-2162.61 293.735 3933.51 
-2161.96 291.254 3934.08 
-2160.91 289.587 3934.61 
-2164.78 314.217 3936.28 
-2165.52 313.469 3939.83 
-2165.26 313.422 3940.17 
-2165.16 313.421 3940.25 
-2164.95 313.475 3940.22 
-2165.14 313.51 3940.1 
-2165.18 313.531 3939.97 
-2165.07 313.128 3937.9 
-2165.11 313.226 3937.45 
-2165.07 313.125 3938.26 
-2164.93 313.536 3939.83 
-2165.26 313.331 3937.17 
-2165.2 313.423 3937.07 
-2165.25 313.555 3939.71 
-2165.12 313.701 3939.28 
-2165 313.807 3938.98 
-2165.29 313.962 3938.14 
-2164.76 313.916 3938.75 
-2164.98 313.961 3938.44 
-2165.13 314.056 3937.53 
-2164.9 313.996 3936.71 
-2164.89 314.125 3936.64 
-2164.81 313.927 3936.74 
-2164.79 313.828 3936.8 
-2164.9 313.738 3936.86 
-2164.99 313.627 3936.93 
-2165.1 313.483 3937.03 
-2164.91 314.18 3936.96 
-2164.81 314.259 3936.5 
-2168.31 264.327 3911.5 
-2169.65 262.62 3911.51 
-2168.46 262.787 3911.65 
-2167.8 264.717 3912.12 
-2170.62 261.461 3911.48 
-2173.01 257.559 3911.36 
-2180.14 248.785 3911.02 
-2177.92 250.285 3911.03 
-2175.34 252.852 3911.3 
-2168.05 265.335 3913.3 
-2168.34 268.553 3914.76 
-2168.29 266.058 3914.55 
-2182.07 248.631 3912.12 
-2168.38 277.812 3917.61 
-2168.64 277.561 3917.31 
-2168.29 275.876 3916.15 
-2168.19 272.326 3914.96 
-2163 290.702 3924.66 
-2162.17 289.393 3924.97 
-2163.02 288.875 3923.92 
-2163.06 287.637 3923.48 
-2163.26 286.241 3922.9 
-2163.66 285.016 3922.36 
-2165.09 281.872 3920.88 
-2166.37 279.114 3919.57 
-2167.17 278.383 3919.11 
-2167.8 278.113 3918.92 
-2168.08 277.547 3917.9 
-2161.07 285.639 3935.59 
-2160.69 287.943 3934.17 
-2161.32 279.355 3938.63 
-2161.79 283.082 3935.68 
-2160.52 275.617 3941.69 
-2160.36 276.265 3943.68 
-2161.01 273.047 3944.45 
-2160.48 274.065 3945.52 
-2148.69 300.341 3962.58 
-2151.32 296.474 3961.14 
-2144.18 304.893 3960.36 
-2142.33 309.253 3959.01 
-2146.37 303.505 3963.34 
-2147.13 302.345 3962.89 
-2162.54 292.704 3927.02 
-2161.6 288.661 3925.46 
-2162.86 293.598 3931.95 
-2162.18 292.175 3927.67 
-2162.78 293.021 3930.53 
-2162.72 292.495 3933.27 
-2162.41 291.026 3933.01 
-2162.06 290.461 3933.59 
-2161.46 289.365 3933.73 
-2164.67 314.318 3936.31 
-2165.17 313.51 3939.92 
-2164.9 313.482 3940.2 
-2164.74 313.49 3940.28 
-2164.8 313.474 3940.29 
-2164.58 313.536 3940.24 
-2164.68 313.594 3940.12 
-2165.17 313.338 3937.15 
-2165.06 313.315 3937.22 
-2164.88 313.118 3938.27 
-2164.59 313.637 3939.8 
-2164.3 313.692 3940.1 
-2164.94 313.632 3939.64 
-2164.81 313.752 3939.3 
-2164.62 313.855 3939.06 
-2165 314.072 3938.03 
-2164.31 313.981 3938.82 
-2164.59 314.044 3938.41 
-2165.01 314.164 3937.52 
-2164.76 314.069 3936.66 
-2164.74 314.204 3936.58 
-2164.68 313.958 3936.71 
-2164.66 313.862 3936.76 
-2164.78 313.729 3936.85 
-2164.89 313.619 3936.93 
-2164.98 313.512 3937 
-2164.79 314.29 3936.92 
-2164.68 314.349 3936.47 
-2167.3 262.965 3911.83 
-2168.67 260.626 3911.96 
-2167.09 261.181 3912.25 
-2166.64 263.588 3912.28 
-2170.72 258.472 3911.74 
-2173.15 254.784 3911.56 
-2180.68 245.357 3911.11 
-2177.91 248.078 3911.21 
-2175.55 250.586 3911.46 
-2167 264.944 3913.56 
-2168 271.077 3915.7 
-2167.62 266.441 3915.09 
-2184.48 243.5 3912.56 
-2167.9 275.142 3916.49 
-2167.38 273.862 3916.78 
-2162.45 288.202 3924.28 
-2161.79 287.646 3924.8 
-2162.42 286.815 3923.82 
-2162.6 285.498 3923.38 
-2163.25 284.755 3922.72 
-2164.89 281.614 3921.01 
-2165.99 279.296 3919.8 
-2166.44 278.562 3919.51 
-2167.46 277.791 3919.41 
-2166.86 277.979 3919.55 
-2167.7 277.14 3918.49 
-2166.82 272.74 3917.17 
-2161.08 286.12 3934.24 
-2160.55 286.012 3931.47 
-2161.45 279.019 3935.75 
-2160.06 275.256 3939.84 
-2161.63 282.535 3931.89 
-2160.4 272.753 3942.18 
-2160.95 272.863 3943.63 
-2143.57 307.582 3960.92 
-2145.94 304.372 3964.17 
-2142.74 311.377 3960.73 
-2161.08 288.038 3926.23 
-2161.26 287.103 3925.44 
-2162.54 291.932 3931.62 
-2161.72 291.079 3928.17 
-2161.24 289.931 3928.87 
-2161.87 289.629 3932.92 
-2161.06 289.274 3929.86 
-2160.72 287.855 3930.33 
-2160.48 286.561 3930.88 
-2164.57 314.422 3936.32 
-2164.62 313.627 3939.87 
-2164.56 313.525 3940.28 
-2164.35 313.552 3940.32 
-2164.19 313.572 3940.36 
-2164.22 313.607 3940.25 
-2164.97 313.324 3937.2 
-2164.63 313.349 3939.1 
-2164.61 313.087 3938.22 
-2164.76 313.152 3937.63 
-2164.23 313.751 3939.78 
-2164.03 313.789 3940.04 
-2163.89 313.739 3940.16 
-2164.54 313.737 3939.54 
-2164.29 313.849 3939.31 
-2164.54 314.149 3938.07 
-2164.74 314.2 3937.75 
-2163.97 313.969 3939.09 
-2163.71 314.081 3938.86 
-2164.09 314.13 3938.44 
-2164.78 314.294 3937.35 
-2164.61 314.072 3936.64 
-2164.63 314.175 3936.58 
-2164.59 314.304 3936.5 
-2164.54 313.97 3936.69 
-2164.56 313.843 3936.76 
-2164.66 313.744 3936.83 
-2164.78 313.614 3936.92 
-2164.89 313.495 3937 
-2164.65 314.413 3936.87 
-2164.53 314.443 3936.42 
-2165.81 260.947 3912.64 
-2166.45 258.975 3912.75 
-2169.51 255.941 3912.31 
-2167.8 257.565 3912.55 
-2165.57 262.467 3912.76 
-2165.13 260.728 3912.89 
-2171.5 253.907 3912.05 
-2173.78 250.348 3911.9 
-2180.2 244.108 3911.13 
-2181.34 243.557 3911.22 
-2178.2 246.167 3911.33 
-2176.91 246.443 3911.57 
-2175.45 247.768 3911.79 
-2165.4 263.029 3913.24 
-2167.19 267.64 3915.88 
-2165.44 263.555 3913.7 
-2184.63 243.014 3912.72 
-2165.17 264.343 3914.79 
-2161.84 286.448 3924.28 
-2161.38 286.054 3924.82 
-2161.92 285.178 3923.96 
-2163.01 284.229 3922.92 
-2162.51 284.248 3923.39 
-2164.71 281.387 3921.12 
-2165.96 279.001 3919.81 
-2166.14 278.321 3919.84 
-2167.16 277.41 3919.87 
-2167.18 276.157 3919 
-2166.57 277.715 3920.14 
-2166.27 271.765 3917.6 
-2165.58 265.949 3916.14 
-2161.14 282.102 3929.06 
-2159.83 283.974 3928.59 
-2159.75 284.573 3928.59 
-2160.41 274.905 3936.66 
-2161.84 277.849 3932.78 
-2159.83 272.395 3940.28 
-2162.44 277.298 3929.82 
-2145.93 304.933 3965.42 
-2160.54 287.524 3927.02 
-2160.75 286.795 3926.19 
-2161.01 285.903 3925.46 
-2160.21 286.85 3927.8 
-2160.09 286.06 3928.11 
-2159.91 285.274 3928.89 
-2164.46 314.526 3936.33 
-2164.17 313.594 3940.29 
-2164.17 313.731 3939.8 
-2163.82 313.64 3940.37 
-2163.91 313.63 3940.33 
-2163.64 313.662 3940.41 
-2163.81 313.669 3940.29 
-2164.88 313.322 3937.18 
-2164.25 313.459 3939.07 
-2164.32 313.15 3938.14 
-2164.65 313.146 3937.63 
-2163.86 313.865 3939.75 
-2163.68 313.895 3939.99 
-2163.55 313.848 3940.1 
-2163.45 313.793 3940.21 
-2163.9 313.862 3939.52 
-2164.4 314.313 3937.58 
-2164.2 314.24 3937.97 
-2163.57 313.997 3939.26 
-2163.29 314.114 3939.03 
-2163.6 314.194 3938.54 
-2163.78 314.286 3938.09 
-2164.46 314.42 3937.15 
-2164.49 314.245 3936.52 
-2164.48 314.12 3936.6 
-2164.44 314.393 3936.44 
-2164.44 313.918 3936.71 
-2164.41 314.055 3936.63 
-2164.52 313.745 3936.81 
-2164.65 313.625 3936.9 
-2164.79 313.497 3936.98 
-2164.38 314.573 3936.44 
-2168 255.777 3912.82 
-2169.42 254.154 3912.64 
-2170.72 252.725 3912.45 
-2172.08 251.171 3912.27 
-2165.46 258.572 3913.18 
-2166.97 256.794 3912.99 
-2173.55 249.421 3912.1 
-2179.98 243.344 3911.32 
-2180.76 243.255 3911.35 
-2183 242.996 3912.15 
-2178.8 243.738 3911.47 
-2164.49 259.423 3913.36 
-2164.71 262.736 3913.88 
-2164.15 262.719 3913.87 
-2161.45 284.864 3924.57 
-2162.05 284.134 3923.82 
-2164.39 281.148 3921.4 
-2163.97 281.233 3921.81 
-2163.62 281.105 3922.18 
-2165.57 279.013 3920.16 
-2165.24 278.798 3920.59 
-2165.99 278.121 3920.61 
-2166.75 276.7 3920.49 
-2166.38 273.898 3919.26 
-2165.34 267.908 3917.28 
-2166.39 277.52 3920.99 
-2164.92 263.598 3914.71 
-2161.18 281.959 3927.53 
-2160.07 284.019 3927.48 
-2161.16 282.037 3926.42 
-2162.9 278.89 3927.32 
-2160.01 285.24 3928.03 
-2160.08 284.731 3927.24 
-2159.78 271.112 3937.49 
-2160.85 273.498 3933.73 
-2161.61 273.586 3931.52 
-2162.95 276.308 3926.91 
-2162.31 273.94 3928.86 
-2160.31 286.479 3926.94 
-2160.62 285.799 3926.11 
-2161.01 284.83 3925.28 
-2160.24 285.585 3927.01 
-2163.8 313.649 3940.34 
-2163.73 313.783 3939.92 
-2163.57 313.685 3940.37 
-2163.32 313.724 3940.4 
-2163.46 313.709 3940.36 
-2163.09 313.756 3940.44 
-2163.25 313.721 3940.46 
-2163.38 313.74 3940.32 
-2164.77 313.32 3937.17 
-2163.87 313.583 3939.07 
-2164.09 313.379 3938.02 
-2164.55 313.146 3937.62 
-2164.44 313.263 3937.54 
-2163.48 313.983 3939.73 
-2163.35 313.998 3939.94 
-2163.12 313.974 3940.05 
-2163.04 313.908 3940.17 
-2162.95 313.823 3940.34 
-2163.49 313.911 3939.62 
-2163.99 314.369 3937.65 
-2164.09 314.452 3937.29 
-2163.12 314.012 3939.51 
-2162.89 314.142 3939.2 
-2163.02 314.214 3938.86 
-2163.22 314.264 3938.55 
-2163.4 314.335 3938.17 
-2163.6 314.42 3937.73 
-2164.19 314.543 3936.89 
-2164.33 314.378 3936.44 
-2164.36 314.244 3936.52 
-2164.31 314.502 3936.36 
-2164.32 313.981 3936.74 
-2164.28 314.155 3936.64 
-2164.26 314.279 3936.55 
-2164.4 313.769 3936.84 
-2164.55 313.602 3936.9 
-2164.69 313.497 3936.97 
-2164.17 314.745 3936.29 
-2180.43 242.979 3911.56 
-2179.65 243.02 3911.55 
-2182.1 242.827 3912 
-2180.07 242.098 3912.51 
-2163.05 262.152 3914.02 
-2163.86 262.918 3914.75 
-2161.67 283.882 3924.24 
-2163.21 281.201 3922.66 
-2165.17 278.61 3921.26 
-2165.91 277.937 3921.44 
-2165.85 274.945 3921.38 
-2165.48 271.665 3919.76 
-2164.81 267.235 3917.8 
-2164.6 263.551 3915.31 
-2165.73 276.183 3921.87 
-2162.86 262.174 3914.42 
-2161.32 282.039 3925.7 
-2160.45 283.907 3926.41 
-2163.3 279.11 3925.45 
-2160.5 285.016 3926.15 
-2160.39 284.411 3926.26 
-2159.88 268.911 3935.3 
-2160.35 268.172 3932.16 
-2161.9 271.061 3929.33 
-2160.87 270.053 3931.08 
-2162.97 273.495 3927.22 
-2163.77 277.104 3925.41 
-2160.78 284.288 3925.59 
-2161.31 283.889 3924.8 
-2163.39 313.714 3940.39 
-2163.26 313.865 3939.94 
-2163.07 313.772 3940.39 
-2162.79 313.813 3940.43 
-2162.5 313.856 3940.48 
-2162.73 313.811 3940.49 
-2162.75 313.799 3940.52 
-2164.67 313.316 3937.16 
-2163.3 313.694 3938.79 
-2163.49 313.721 3939.1 
-2163.99 313.628 3937.83 
-2164.29 313.554 3937.39 
-2164.55 313.343 3937.13 
-2163.12 314.095 3939.7 
-2163.03 314.101 3939.89 
-2162.81 314.084 3939.98 
-2162.56 314.059 3940.1 
-2162.6 313.97 3940.22 
-2162.44 313.907 3940.37 
-2162.63 313.849 3940.42 
-2163.68 314.511 3937.36 
-2163.82 314.581 3937.01 
-2162.85 313.941 3939.94 
-2162.69 314.072 3939.59 
-2162.54 314.188 3939.28 
-2162.61 314.283 3938.89 
-2162.83 314.338 3938.55 
-2163.03 314.399 3938.19 
-2163.27 314.446 3937.87 
-2163.2 314.735 3937.24 
-2163.73 315.043 3936.34 
-2164.15 314.652 3936.35 
-2164.14 314.558 3936.44 
-2164.14 314.748 3936.28 
-2164.12 314.325 3936.65 
-2164.19 314.104 3936.76 
-2164.11 314.444 3936.56 
-2164.07 314.594 3936.48 
-2164.29 313.886 3936.85 
-2164.46 313.601 3936.92 
-2164.59 313.486 3936.97 
-2163.94 315.141 3936.03 
-2181.79 242.426 3912.2 
-2179.88 242.727 3911.76 
-2179.51 242.653 3912.03 
-2180 241.706 3913.17 
-2163.34 262.633 3915.45 
-2162.7 281.435 3923.22 
-2164.53 278.9 3922.04 
-2165.3 278.319 3921.97 
-2165.55 277.374 3922.3 
-2164.72 272.477 3922.24 
-2164.55 269.956 3920.69 
-2164.12 266.488 3918.55 
-2164.3 264.145 3916.47 
-2164.08 262.829 3915 
-2164.8 274.481 3922.72 
-2162.56 262.193 3914.87 
-2162.04 261.644 3915.77 
-2161.58 281.92 3924.93 
-2163.23 279.508 3924.77 
-2161.01 283.5 3925.49 
-2160.61 265.886 3928.71 
-2160.88 268.946 3928.45 
-2162.27 270.474 3927.54 
-2163.76 274.447 3925.27 
-2163.02 271.355 3925.61 
-2163.99 278.951 3924.1 
-2164.52 277.336 3924.09 
-2161.33 283.389 3924.92 
-2162.28 281.608 3923.66 
-2162.97 313.779 3940.44 
-2162.25 313.904 3940.47 
-2161.96 313.947 3940.52 
-2162.22 313.894 3940.53 
-2162.31 313.869 3940.56 
-2162.81 314.143 3939.61 
-2162.49 314.197 3939.5 
-2163.34 313.761 3938.48 
-2163.86 313.921 3937.62 
-2164.12 313.851 3937.29 
-2164.25 313.827 3936.97 
-2164.41 313.558 3937.05 
-2162.64 314.185 3939.89 
-2162.36 314.174 3939.99 
-2162 314.175 3940.1 
-2162.15 314.061 3940.23 
-2161.96 313.991 3940.4 
-2162.18 313.923 3940.45 
-2163.43 314.692 3937.03 
-2163.64 314.689 3936.81 
-2162.57 313.845 3940.48 
-2162.43 314.012 3939.98 
-2162.34 314.138 3939.59 
-2162.14 314.28 3939.21 
-2162.39 314.27 3939.08 
-2162.03 314.664 3938.43 
-2162.29 314.686 3938.16 
-2162.57 314.683 3937.88 
-2162.88 314.685 3937.58 
-2162.85 315.325 3936.75 
-2162.9 315.783 3936.16 
-2163.14 315.544 3936.23 
-2163.43 315.317 3936.24 
-2162.84 316.143 3935.85 
-2163.1 316.069 3935.75 
-2164.01 314.876 3936.28 
-2163.97 314.885 3936.32 
-2163.91 314.904 3936.37 
-2164.01 314.903 3936.2 
-2163.9 314.695 3936.56 
-2163.98 314.479 3936.66 
-2164.03 314.316 3936.74 
-2164.12 314.101 3936.83 
-2163.92 314.748 3936.49 
-2163.85 314.925 3936.42 
-2163.83 315.55 3935.73 
-2181.45 242.121 3912.4 
-2180.98 241.953 3912.64 
-2179.51 242.544 3912.45 
-2179.74 241.514 3913.59 
-2163.16 262.926 3916.56 
-2164.15 279.043 3922.76 
-2165.11 278.137 3922.8 
-2164.63 275.658 3923.26 
-2163.96 271.542 3923.18 
-2163.46 266.647 3919.58 
-2163.26 268.005 3921.53 
-2163.96 264.446 3917.32 
-2163.56 264.833 3917.98 
-2163.81 263.07 3915.92 
-2162.6 262.236 3915.47 
-2163.8 272.667 3923.8 
-2162.07 261.462 3916.7 
-2161.89 281.745 3924.18 
-2162.91 279.825 3924.23 
-2161.08 265.049 3925 
-2161.9 268.815 3925.86 
-2162.93 269.253 3923.95 
-2164.08 278.968 3923.46 
-2163.04 279.795 3923.59 
-2161.75 313.996 3940.48 
-2161.59 314.016 3940.52 
-2161.14 314.083 3940.58 
-2161.66 313.991 3940.56 
-2161.76 313.965 3940.59 
-2161.84 313.942 3940.62 
-2162.99 313.993 3938.64 
-2162.09 314.368 3939.52 
-2161.89 314.374 3939.84 
-2162.2 314.271 3939.89 
-2163.69 314.145 3937.53 
-2164.05 314.085 3937.03 
-2164.1 314.085 3936.87 
-2161.85 314.284 3939.99 
-2161.47 314.259 3940.15 
-2161.7 314.138 3940.25 
-2161.49 314.071 3940.43 
-2162.16 313.909 3940.52 
-2162.03 314.075 3940.02 
-2162.01 314.187 3939.63 
-2161.74 314.314 3939.36 
-2161.75 314.561 3938.78 
-2161.62 315.393 3937.8 
-2161.97 315.618 3937.2 
-2162.27 315.503 3937.06 
-2162.56 315.38 3936.94 
-2162.55 316.063 3936.14 
-2162.13 316.681 3935.83 
-2162.31 316.547 3935.84 
-2162.44 316.492 3935.8 
-2162.38 316.813 3935.55 
-2162.82 316.581 3935.47 
-2163.91 314.983 3936.23 
-2163.84 315.018 3936.29 
-2163.77 315.061 3936.34 
-2163.99 315.093 3936.03 
-2163.75 314.836 3936.58 
-2163.74 314.979 3936.47 
-2163.67 315.031 3936.5 
-2163.84 314.619 3936.68 
-2163.92 314.378 3936.83 
-2163.73 315.064 3936.41 
-2163.66 315.966 3935.45 
-2182.37 240.865 3913.52 
-2181.79 242.426 3912.2 
-2183.36 241.125 3913.4 
-2180.06 241.842 3913.12 
-2181.47 241.123 3913.38 
-2179.55 241.581 3913.63 
-2179.32 240.327 3914.99 
-2162.82 262.859 3917.46 
-2163.11 264.476 3918.18 
-2162.77 265.07 3918.81 
-2162.46 266.227 3920.02 
-2163.57 263.33 3916.89 
-2163.27 263.45 3917.58 
-2162.57 262.325 3916.16 
-2162.06 261.283 3917.64 
-2161.86 266.134 3922.07 
-2161.37 262.77 3922.58 
-2161.28 314.077 3940.51 
-2160.99 314.118 3940.56 
-2161.08 314.084 3940.62 
-2160.45 314.198 3940.64 
-2160.54 314.188 3940.61 
-2160.71 314.155 3940.61 
-2161.39 314.023 3940.63 
-2161.1 314.068 3940.66 
-2161.45 314.003 3940.66 
-2162.87 314.157 3938.54 
-2161.89 314.526 3939.39 
-2161.52 314.482 3939.79 
-2161.53 314.392 3939.93 
-2163.58 314.462 3937.28 
-2161.28 314.376 3940.03 
-2161.23 314.223 3940.28 
-2160.97 314.382 3940.12 
-2161.01 314.155 3940.46 
-2161.78 313.966 3940.58 
-2161.64 314.106 3940.17 
-2161.64 314.215 3939.78 
-2161.27 314.543 3939.26 
-2161.48 314.483 3939.08 
-2161.39 315.053 3938.42 
-2161.3 315.672 3937.75 
-2161.41 316.063 3937.16 
-2161.69 315.958 3937.03 
-2161.64 316.807 3936.07 
-2161.89 316.584 3936.11 
-2162.22 316.324 3936.12 
-2161.61 317.182 3935.72 
-2161.46 317.427 3935.61 
-2161.92 317.001 3935.69 
-2161.78 317.313 3935.5 
-2161.71 317.614 3935.27 
-2162.14 317.343 3935.23 
-2162.62 317.03 3935.19 
-2163.81 315.085 3936.16 
-2163.79 315.086 3936.22 
-2163.71 315.131 3936.28 
-2163.66 315.141 3936.36 
-2164.09 315.549 3935.55 
-2163.52 315.182 3936.51 
-2163.53 314.872 3936.83 
-2163.63 315.147 3936.42 
-2163.58 315.179 3936.45 
-2163.75 314.679 3936.73 
-2163.49 316.366 3935.2 
-2182.57 240.158 3914.13 
-2181.62 240.241 3914.18 
-2182.1 242.827 3912 
-2184.36 241.455 3913.23 
-2183.83 240.567 3913.84 
-2180.93 240.423 3914.13 
-2181.48 238.753 3916.49 
-2162.73 263.339 3918.23 
-2162.33 262.569 3918.97 
-2161.97 262.695 3919.98 
-2161.68 262.702 3921.18 
-2162.54 262.201 3917.43 
-2162.47 262.267 3918.44 
-2162 261.142 3918.58 
-2160.79 314.16 3940.54 
-2160.59 314.186 3940.58 
-2160.85 314.117 3940.66 
-2160.76 314.596 3939.85 
-2160.33 314.216 3940.67 
-2160.91 314.735 3939.58 
-2160.65 314.475 3940.08 
-2160.83 314.108 3940.71 
-2160.61 314.153 3940.69 
-2161.17 314.043 3940.71 
-2161.87 314.698 3939.14 
-2161.48 314.621 3939.58 
-2162.85 314.325 3938.31 
-2161.32 314.514 3939.8 
-2161.15 314.534 3939.82 
-2160.79 314.327 3940.26 
-2161 314.559 3939.82 
-2160.85 314.462 3940.02 
-2160.56 314.248 3940.46 
-2161.45 314.007 3940.65 
-2161.29 314.126 3940.33 
-2161.25 314.238 3939.97 
-2161 314.461 3939.57 
-2160.84 315.095 3938.87 
-2161.09 315.384 3938.3 
-2161.07 316.121 3937.41 
-2160.92 317.327 3936.1 
-2161.31 317.059 3936.06 
-2160.59 318.081 3935.57 
-2160.79 317.929 3935.58 
-2161.2 317.56 3935.65 
-2160.82 318.04 3935.47 
-2160.86 318.059 3935.43 
-2161.17 317.842 3935.43 
-2161.06 318.192 3935.18 
-2161.25 318.264 3934.99 
-2161.81 317.891 3934.95 
-2162.37 317.505 3934.92 
-2163.74 315.212 3936.06 
-2163.68 315.183 3936.19 
-2163.6 315.219 3936.27 
-2163.56 315.23 3936.36 
-2164.1 316.017 3935.11 
-2163.29 315.121 3936.85 
-2163.39 315.312 3936.5 
-2163.52 315.237 3936.43 
-2163.42 315.316 3936.44 
-2162.69 314.558 3938.19 
-2163.32 316.764 3934.95 
-2183.49 238.599 3915.78 
-2182.96 238.436 3916.54 
-2185.37 241.305 3913.29 
-2183 242.996 3912.15 
-2184.81 240.523 3913.7 
-2183.85 238.788 3915.04 
-2162.32 262.779 3918.87 
-2162.37 263.95 3919.29 
-2160.56 314.365 3940.28 
-2161.18 314.709 3939.52 
-2160.23 314.313 3940.56 
-2161.03 314.848 3939.36 
-2161.29 314.85 3939.26 
-2160.28 314.207 3940.73 
-2160.57 314.144 3940.75 
-2160.93 314.077 3940.75 
-2161.89 314.868 3938.81 
-2161.52 314.783 3939.3 
-2161.34 314.667 3939.55 
-2161.03 314.071 3940.7 
-2160.9 314.201 3940.33 
-2160.73 314.448 3939.84 
-2160.84 315.832 3937.97 
-2160.5 315.057 3939.24 
-2160.63 315.535 3938.54 
-2160.71 316.385 3937.42 
-2160.84 316.673 3936.95 
-2160.8 317.502 3935.99 
-2159.72 318.814 3935.48 
-2159.4 319.238 3935.31 
-2160.07 318.577 3935.46 
-2159.67 319.096 3935.27 
-2160.35 318.372 3935.47 
-2160.29 318.526 3935.38 
-2160.38 318.483 3935.37 
-2159.86 319.071 3935.18 
-2160.3 318.631 3935.29 
-2160.48 318.568 3935.23 
-2160.46 318.89 3934.95 
-2160.58 319.029 3934.74 
-2161.1 318.677 3934.71 
-2161.66 318.311 3934.67 
-2162.19 317.94 3934.65 
-2163.97 315.748 3935.45 
-2163.61 315.271 3936.12 
-2163.57 315.278 3936.19 
-2163.46 315.359 3936.22 
-2163.49 315.303 3936.29 
-2163.43 315.331 3936.35 
-2163.93 316.45 3934.78 
-2162.87 315.158 3937.26 
-2163.25 315.381 3936.55 
-2163.32 315.415 3936.37 
-2163.17 317.158 3934.7 
-2186.2 240.65 3913.24 
-2184.63 243.014 3912.72 
-2185.76 240.198 3913.55 
-2184.38 238.838 3914.51 
-2161.38 314.823 3939.28 
-2161.21 314.994 3939.07 
-2160.64 314.693 3939.79 
-2161.47 314.972 3939.01 
-2160.14 314.286 3940.66 
-2160.1 314.274 3940.71 
-2160.5 314.146 3940.79 
-2161.9 315.036 3938.52 
-2160.58 314.146 3940.74 
-2160.42 314.418 3940.16 
-2160.51 316.177 3937.86 
-2160.17 315.17 3939.4 
-2160.32 315.716 3938.6 
-2160.44 316.886 3937.05 
-2160.44 317.777 3935.98 
-2159.12 319.366 3935.37 
-2158.91 319.662 3935.25 
-2159.07 319.671 3935.16 
-2158.98 319.647 3935.24 
-2159.01 319.801 3935.08 
-2159.1 319.751 3935.08 
-2159.48 319.398 3935.13 
-2159.2 319.744 3935.02 
-2159.84 319.32 3934.97 
-2159.79 319.571 3934.78 
-2159.92 319.569 3934.71 
-2160.36 319.47 3934.49 
-2160.98 319.033 3934.46 
-2161.4 318.847 3934.35 
-2162.02 318.343 3934.39 
-2163.58 315.406 3935.98 
-2164.15 316.438 3934.72 
-2163.47 315.378 3936.12 
-2163.36 315.459 3936.16 
-2163.37 315.415 3936.27 
-2163.72 316.827 3934.52 
-2162.77 315.387 3937.07 
-2162.91 315.457 3936.78 
-2163.19 315.495 3936.37 
-2163.01 317.569 3934.44 
-2184.48 243.5 3912.56 
-2186.97 239.428 3913.49 
-2185.12 238.857 3914.05 
-2161.39 315.175 3938.71 
-2161.86 315.211 3938.32 
-2161.65 315.331 3938.3 
-2160.72 314.797 3939.61 
-2160.05 314.266 3940.76 
-2160.71 314.957 3939.43 
-2160.09 314.366 3940.57 
-2160.17 316.634 3937.61 
-2159.86 315.336 3939.48 
-2159.98 316.05 3938.5 
-2160.03 317.342 3936.87 
-2160.13 318.028 3935.96 
-2158.9 319.506 3935.38 
-2158.77 319.648 3935.35 
-2158.88 319.563 3935.37 
-2159.01 319.477 3935.38 
-2159.14 319.5 3935.28 
-2159.12 319.617 3935.19 
-2159.16 319.376 3935.39 
-2159.21 319.573 3935.2 
-2159.33 319.645 3935.05 
-2159.45 319.417 3935.23 
-2159.75 319.318 3935.12 
-2160.62 319.454 3934.33 
-2160.13 319.312 3934.86 
-2160.97 319.368 3934.18 
-2161.67 318.909 3934.11 
-2163.52 315.55 3935.87 
-2164.16 316.702 3934.48 
-2163.65 317.139 3934.26 
-2163.36 315.485 3936.07 
-2163.24 315.567 3936.12 
-2163.26 315.517 3936.22 
-2162.41 315.432 3937.4 
-2162.72 315.531 3936.84 
-2162.34 315.491 3937.36 
-2162.97 315.587 3936.44 
-2162.82 317.971 3934.19 
-2187.82 238.587 3913.45 
-2188.19 240.195 3913.65 
-2185.63 238.539 3913.83 
-2161.14 315.592 3938.41 
-2161.45 315.978 3937.7 
-2160.32 314.753 3939.94 
-2160.25 315.952 3938.65 
-2159.79 315.802 3939.15 
-2159.75 314.472 3940.65 
-2159.61 315.271 3939.87 
-2159.83 316.937 3937.55 
-2159.54 315.203 3939.92 
-2159.62 315.935 3938.97 
-2159.61 316.647 3938.1 
-2159.61 317.528 3937.03 
-2159.54 318.537 3935.89 
-2159.9 318.254 3935.89 
-2158.66 319.634 3935.43 
-2158.76 319.568 3935.43 
-2158.92 319.345 3935.57 
-2159.05 319.256 3935.58 
-2159.18 319.243 3935.5 
-2159.27 319.278 3935.43 
-2159.25 319.41 3935.32 
-2159.33 319.074 3935.6 
-2159.37 319.271 3935.4 
-2159.32 319.443 3935.27 
-2159.45 319.222 3935.42 
-2159.54 319.143 3935.46 
-2159.69 318.991 3935.53 
-2160.44 319.214 3934.75 
-2159.94 318.972 3935.38 
-2161.17 319.318 3934.1 
-2160.73 319.115 3934.65 
-2161.57 319.241 3933.89 
-2163.47 315.714 3935.75 
-2164.17 316.936 3934.28 
-2163.84 317.303 3934.04 
-2163.33 317.681 3933.93 
-2163.26 315.582 3936.04 
-2163.04 315.646 3936.23 
-2162.34 315.665 3937.04 
-2161.97 315.746 3937.4 
-2162.46 315.766 3936.74 
-2162.76 318.261 3933.99 
-2189.18 238.412 3913.68 
-2188.13 237.787 3913.43 
-2185.95 238.187 3913.65 
-2189.93 239.675 3914.32 
-2160.49 316.544 3937.81 
-2160.16 317.858 3936.55 
-2159.3 318.039 3936.97 
-2158.86 318.202 3937.09 
-2158.43 318.316 3937.26 
-2159.04 315.472 3940.01 
-2159.37 314.68 3940.54 
-2158.01 318.455 3937.4 
-2159.26 315.604 3939.6 
-2159.3 316.35 3938.75 
-2159.34 317.14 3937.75 
-2159.26 317.84 3936.97 
-2159.24 318.792 3935.85 
-2158.79 319.368 3935.66 
-2158.66 319.413 3935.74 
-2158.63 319.546 3935.54 
-2158.57 319.297 3935.97 
-2158.67 319.238 3935.94 
-2159.09 319.105 3935.73 
-2158.69 319.177 3935.97 
-2159.39 319.062 3935.58 
-2159.34 319.23 3935.45 
-2159.19 318.933 3935.9 
-2159.47 318.812 3935.85 
-2159.54 319.017 3935.57 
-2159.46 319.045 3935.57 
-2159.64 318.915 3935.63 
-2159.79 318.736 3935.76 
-2160.29 318.901 3935.2 
-2159.94 318.703 3935.67 
-2161.19 319.052 3934.37 
-2160.78 318.87 3934.85 
-2162.6 318.633 3933.76 
-2161.69 319.162 3933.89 
-2163.36 315.795 3935.74 
-2164.05 316.997 3934.29 
-2163.82 317.631 3933.75 
-2163.2 318.066 3933.65 
-2163.15 315.675 3936.03 
-2162.65 315.845 3936.37 
-2160.5 317.672 3936.45 
-2160.68 317.689 3936.23 
-2190.03 237.528 3913.65 
-2188.3 237.24 3913.29 
-2186.35 237.755 3913.45 
-2191.52 239.017 3914.85 
-2159.65 318.04 3936.73 
-2159.54 318.613 3936.09 
-2159.73 318.695 3935.85 
-2159.65 318.754 3935.82 
-2159.58 318.785 3935.81 
-2159.12 318.785 3936.18 
-2158.67 318.921 3936.35 
-2158.26 319.114 3936.4 
-2157.71 318.218 3937.87 
-2159.12 314.614 3940.75 
-2159.06 314.981 3940.27 
-2157.75 319.209 3936.69 
-2158.96 315.903 3939.34 
-2159.02 316.751 3938.45 
-2158.96 317.489 3937.66 
-2158.95 318.236 3936.77 
-2158.98 319.016 3935.81 
-2158.39 319.453 3935.98 
-2158.18 319.41 3936.19 
-2158.35 319.356 3936.1 
-2158.53 319.537 3935.65 
-2158.03 319.323 3936.38 
-2158.23 319.269 3936.26 
-2158.19 319.194 3936.36 
-2158.74 319.049 3936.1 
-2159.88 318.541 3935.96 
-2160.06 318.506 3935.81 
-2160.36 318.692 3935.35 
-2160.34 318.492 3935.55 
-2161.21 318.796 3934.6 
-2161.6 318.954 3934.17 
-2160.8 318.636 3935.06 
-2162.62 318.797 3933.63 
-2162.45 318.787 3933.68 
-2163.18 315.778 3935.86 
-2163.2 316.352 3935.32 
-2163.33 317.226 3934.4 
-2163.22 317.926 3933.77 
-2162.68 316.044 3936.03 
-2160.81 317.762 3935.96 
-2190.86 237.001 3913.56 
-2189.25 236.664 3913.08 
-2186.78 237.222 3913.26 
-2187.67 236.059 3912.98 
-2192.54 238.127 3914.97 
-2158.68 315.156 3940.48 
-2157.28 318.573 3937.77 
-2157.22 319.286 3937.03 
-2157.77 319.272 3936.62 
-2158.82 314.633 3940.72 
-2158.72 315.186 3940.1 
-2158.56 316.058 3939.24 
-2158.74 316.544 3938.71 
-2158.68 317.231 3938.02 
-2158.66 318.088 3937.14 
-2158.52 319.279 3935.92 
-2158.75 319.226 3935.75 
-2158.27 319.521 3936.02 
-2157.96 319.481 3936.31 
-2157.74 319.442 3936.51 
-2157.8 319.382 3936.51 
-2157.48 319.344 3936.79 
-2161.34 317.906 3935.32 
-2160.92 317.895 3935.67 
-2161.7 318.075 3934.9 
-2161.99 318.348 3934.44 
-2162.21 318.713 3933.94 
-2191.05 235.351 3913.23 
-2189.29 235.228 3912.75 
-2185.54 234.893 3912.94 
-2186.32 232.042 3912.31 
-2194.31 235.038 3916.09 
-2157.38 317.837 3938.47 
-2158.4 315.141 3940.5 
-2156.94 319.28 3937.2 
-2157.05 319.333 3937.07 
-2158.47 314.729 3940.66 
-2158.35 315.372 3939.95 
-2158.16 316.303 3939.03 
-2158.36 316.949 3938.35 
-2158.45 317.664 3937.61 
-2158.38 318.482 3936.78 
-2158.33 319.484 3935.83 
-2158.09 319.579 3936.12 
-2157.79 319.536 3936.39 
-2157.42 319.5 3936.69 
-2157.31 319.413 3936.85 
-2189.3 230.75 3912.26 
-2187.62 230.687 3911.99 
-2191.33 232.563 3913.85 
-2184.8 230.903 3912.27 
-2184.13 233.587 3913.17 
-2185.44 228.006 3911.67 
-2193.66 232.069 3915.91 
-2201.22 226.537 3919.29 
-2157.11 317.913 3938.53 
-2158.03 315.617 3940.27 
-2156.85 319.28 3937.27 
-2158 315.249 3940.44 
-2156.84 319.319 3937.2 
-2156.9 319.365 3937.1 
-2158.14 314.809 3940.6 
-2157.99 315.574 3939.79 
-2157.77 316.609 3938.76 
-2158.01 317.275 3938.06 
-2158.21 317.946 3937.35 
-2158.12 318.861 3936.43 
-2158.09 319.69 3935.77 
-2157.89 319.636 3936.24 
-2157.61 319.58 3936.49 
-2157.23 319.524 3936.75 
-2157.08 319.436 3936.93 
-2186.57 226.111 3911.24 
-2188.82 227.23 3912.34 
-2190.65 228.133 3913.82 
-2184.11 226.774 3911.61 
-2183.46 229.531 3912.19 
-2182.75 232.177 3913.65 
-2184.84 224.248 3910.99 
-2193.1 228.937 3915.76 
-2199.87 224.265 3918.86 
-2207.48 217.839 3922.02 
-2157.6 316.025 3940.07 
-2156.74 318.445 3938.19 
-2156.75 319.302 3937.3 
-2156.74 319.346 3937.23 
-2157.51 315.714 3940.22 
-2157.72 315.191 3940.46 
-2156.72 319.384 3937.17 
-2157.79 314.905 3940.53 
-2157.64 315.679 3939.73 
-2157.42 316.515 3938.9 
-2157.4 317.335 3938.07 
-2157.66 317.718 3937.65 
-2157.92 318.278 3937.04 
-2157.87 319.294 3936.05 
-2157.87 319.809 3935.78 
-2157.73 319.687 3936.31 
-2157.46 319.608 3936.54 
-2157.1 319.566 3936.76 
-2156.82 319.496 3936.98 
-2156.88 319.451 3937 
-2185.85 222.363 3910.54 
-2186.9 221.719 3910.58 
-2190.45 223.978 3913.37 
-2187.58 220.96 3910.43 
-2182.84 223.409 3910.59 
-2182.66 225.513 3911.51 
-2182.11 228.478 3912.22 
-2181.34 230.744 3914.35 
-2183.06 221.422 3909.6 
-2195.07 224.89 3916.93 
-2204.52 217.064 3920.92 
-2213.38 209.64 3924.61 
-2156.68 317.98 3938.68 
-2156.63 319.274 3937.4 
-2157.18 316.32 3939.93 
-2156.66 319.358 3937.27 
-2156.62 319.391 3937.22 
-2157.09 315.984 3940.09 
-2157.34 315.367 3940.38 
-2156.59 319.429 3937.17 
-2157.44 314.994 3940.48 
-2157.27 315.805 3939.64 
-2157.06 316.836 3938.62 
-2157.07 317.81 3937.62 
-2157.3 318.358 3937.04 
-2157.6 318.747 3936.61 
-2157.55 319.775 3935.74 
-2157.6 319.725 3936.33 
-2157.68 319.833 3936.11 
-2157.54 319.958 3935.59 
-2157.36 319.648 3936.53 
-2157.02 319.615 3936.73 
-2156.71 319.539 3936.97 
-2156.49 319.475 3937.16 
-2183.79 219.182 3908.87 
-2184.66 217.64 3908.43 
-2192.04 222.626 3914.11 
-2187.16 218.816 3909.47 
-2184.25 216.702 3908.2 
-2181.06 221.366 3908.98 
-2180.86 222.888 3909.93 
-2181.02 224.933 3911.32 
-2180.68 227.245 3912.52 
-2179.89 229.27 3915.08 
-2181.57 219.882 3908.57 
-2201.97 216.372 3920.02 
-2210.84 208.7 3923.76 
-2219.14 201.637 3927.25 
-2156.51 317.777 3938.96 
-2156.32 319.078 3937.76 
-2156.52 319.3 3937.43 
-2156.58 319.37 3937.31 
-2156.76 316.661 3939.77 
-2156.54 319.403 3937.27 
-2156.51 319.435 3937.22 
-2156.62 316.428 3939.87 
-2156.84 315.863 3940.14 
-2157.04 315.31 3940.4 
-2157.1 315.147 3940.34 
-2156.9 316.086 3939.4 
-2156.65 316.92 3938.58 
-2156.78 317.67 3937.8 
-2156.92 318.92 3936.62 
-2157.28 319.43 3936.1 
-2157.12 320.005 3935.66 
-2157.33 319.79 3936.34 
-2157.27 320.071 3935.57 
-2157.29 319.982 3936.02 
-2157.25 319.69 3936.53 
-2156.94 319.674 3936.7 
-2156.73 319.599 3936.88 
-2156.41 319.539 3937.11 
-2156.36 319.504 3937.19 
-2156.41 319.47 3937.22 
-2182.38 218.41 3908.27 
-2183.06 217.016 3907.97 
-2187.74 218.238 3909.95 
-2188.08 218.044 3910.34 
-2191.77 221.446 3913.76 
-2199.16 216.921 3919.4 
-2185.43 215.445 3909.2 
-2184.05 215.821 3908.7 
-2180.75 221.004 3908.15 
-2181.13 219.819 3907.93 
-2180.44 223.008 3909.61 
-2180.09 224.604 3911.04 
-2179.42 226.21 3913.22 
-2178.47 227.802 3915.79 
-2181.49 218.57 3907.69 
-2207.7 209.484 3923.1 
-2215.57 202.671 3926.49 
-2156.18 318.132 3938.78 
-2156.17 319.077 3937.84 
-2156.46 319.355 3937.4 
-2156.47 319.408 3937.32 
-2156.34 317.088 3939.56 
-2156.43 319.442 3937.27 
-2156.18 316.891 3939.65 
-2156.33 316.395 3939.88 
-2156.55 315.832 3940.15 
-2156.75 315.28 3940.41 
-2156.75 315.359 3940.16 
-2156.5 316.168 3939.36 
-2156.27 317.092 3938.45 
-2156.41 317.891 3937.63 
-2156.61 318.659 3936.92 
-2156.55 319.885 3935.99 
-2156.96 319.924 3935.82 
-2156.69 320.14 3935.66 
-2156.98 320.19 3935.53 
-2156.98 319.781 3936.51 
-2156.92 319.98 3936.18 
-2156.88 320.162 3935.86 
-2156.65 319.731 3936.73 
-2156.58 319.624 3936.92 
-2156.26 319.572 3937.14 
-2156.26 319.539 3937.2 
-2156.3 319.499 3937.25 
-2156.3 319.452 3937.33 
-2181.67 217.482 3907.34 
-2182.85 215.824 3907.99 
-2187.01 214.33 3910.37 
-2188.66 218.005 3910.79 
-2188.95 216.828 3911.3 
-2192.07 221.124 3914.86 
-2197.87 216.223 3919.72 
-2204.74 210.401 3922.61 
-2185.75 214.669 3909.79 
-2184.63 214.791 3909.2 
-2180.37 221.665 3908.24 
-2180.25 219.798 3906.59 
-2180.17 220.409 3906.79 
-2180.65 219.016 3906.73 
-2179.83 222.888 3909.87 
-2179.24 224.426 3912.01 
-2178.52 225.918 3914.25 
-2177.37 227.233 3916.74 
-2180.45 218.278 3906.13 
-2211.8 204.137 3925.73 
-2155.9 318.254 3938.79 
-2156.15 319.168 3937.76 
-2155.85 318.934 3938.16 
-2156.26 319.311 3937.56 
-2156.29 319.391 3937.43 
-2155.91 317.454 3939.38 
-2155.81 317.063 3939.57 
-2156.05 316.383 3939.89 
-2156.26 315.79 3940.16 
-2156.48 315.247 3940.42 
-2156.37 315.385 3940.18 
-2156.14 316.281 3939.29 
-2155.92 317.254 3938.33 
-2156.07 318.232 3937.42 
-2156.27 319.263 3936.56 
-2156.13 320.199 3935.87 
-2156.58 320.126 3935.75 
-2156.17 320.249 3935.76 
-2156.24 320.276 3935.66 
-2156.67 320.318 3935.46 
-2156.61 319.943 3936.37 
-2156.51 320.197 3935.96 
-2156.41 320.408 3935.48 
-2156.38 319.639 3937 
-2156.27 319.902 3936.58 
-2156.22 319.73 3936.91 
-2156.12 319.608 3937.16 
-2156.12 319.556 3937.24 
-2156.12 319.49 3937.35 
-2156.08 319.414 3937.48 
-2156.07 319.343 3937.6 
-2181.13 216.91 3906.37 
-2184.41 213.413 3908.89 
-2182.78 214.777 3907.5 
-2187.26 213.587 3910.64 
-2192.17 220.554 3915.76 
-2189.4 215.314 3912.05 
-2197.97 214.382 3920.6 
-2206.9 206.666 3924.44 
-2186.18 213.787 3910.18 
-2186.05 211.63 3909.93 
-2178.79 220.246 3905.77 
-2179.37 218.81 3905.01 
-2179.38 217.797 3904.63 
-2178.77 218.872 3904.37 
-2178.42 222.155 3909.1 
-2177.98 224.048 3912.33 
-2177.27 225.747 3915.17 
-2179.79 217.72 3905.04 
-2155.61 318.367 3938.82 
-2155.88 319.074 3938.01 
-2155.54 318.813 3938.45 
-2156.07 319.271 3937.7 
-2155.53 317.704 3939.26 
-2155.31 317.593 3939.31 
-2155.63 316.89 3939.64 
-2155.84 316.233 3939.95 
-2156.06 315.546 3940.27 
-2156.04 315.441 3940.17 
-2155.8 316.429 3939.18 
-2155.55 317.44 3938.22 
-2155.74 318.4 3937.39 
-2155.93 319.734 3936.32 
-2155.72 320.333 3935.87 
-2155.75 320.374 3935.76 
-2155.79 320.415 3935.66 
-2156.27 320.098 3936.23 
-2156.2 320.393 3935.73 
-2155.99 320.269 3936.04 
-2156.15 320.532 3935.38 
-2155.9 320.077 3936.42 
-2155.83 319.887 3936.8 
-2155.93 319.675 3937.13 
-2155.91 319.527 3937.38 
-2155.9 319.452 3937.5 
-2155.87 319.375 3937.63 
-2155.83 319.293 3937.77 
-2155.87 319.237 3937.84 
-2181.39 215.624 3906.12 
-2184.46 212.37 3908.55 
-2183.1 213.417 3907.29 
-2187.72 213.1 3911.17 
-2190.4 215.174 3913.18 
-2193.88 216.899 3919.14 
-2203.16 208.243 3923.62 
-2187.37 211.489 3910.83 
-2187.45 208.887 3910.63 
-2185.82 210.391 3909.38 
-2180.92 215.542 3905.57 
-2182.27 213.86 3906.51 
-2155.33 318.447 3938.87 
-2155.82 319.138 3937.99 
-2155.54 318.926 3938.35 
-2155.23 318.705 3938.72 
-2155.14 318.427 3938.94 
-2154.94 318.449 3938.99 
-2154.88 317.832 3939.2 
-2155.2 317.319 3939.44 
-2155.4 316.752 3939.7 
-2155.63 316.103 3940.01 
-2155.75 315.53 3940.28 
-2155.7 315.576 3940.06 
-2155.46 316.391 3939.26 
-2155.24 317.287 3938.43 
-2155.37 318.849 3937.17 
-2155.61 319.597 3936.53 
-2155.52 320.349 3935.96 
-2155.29 320.468 3935.87 
-2155.32 320.497 3935.78 
-2155.35 320.535 3935.69 
-2155.38 320.567 3935.6 
-2155.73 320.46 3935.8 
-2155.9 320.58 3935.52 
-2155.55 320.255 3936.26 
-2155.92 320.659 3935.26 
-2155.37 320.058 3936.7 
-2155.62 319.855 3936.97 
-2155.68 319.66 3937.26 
-2155.67 319.449 3937.6 
-2155.65 319.338 3937.77 
-2155.62 319.26 3937.91 
-2155.52 319.168 3938.09 
-2155.67 319.182 3938.01 
-2155.57 319.054 3938.21 
-2183.85 211.85 3907.59 
-2185.1 210.414 3908.5 
-2188.66 212.02 3911.96 
-2191.34 216.265 3914.72 
-2193.28 215.695 3919.71 
-2200.09 209.294 3923.07 
-2188.61 209.367 3911.52 
-2189 206.731 3911.54 
-2188.12 206.673 3910.63 
-2186.61 208.55 3909.57 
-2155.23 318.823 3938.63 
-2154.95 318.697 3938.88 
-2154.73 318.546 3939.02 
-2154.9 317.387 3939.4 
-2154.59 318.528 3939.07 
-2155.17 316.692 3939.73 
-2155.36 316.093 3940.01 
-2155.43 315.557 3940.26 
-2155.32 315.574 3940.12 
-2155.1 316.394 3939.3 
-2154.9 317.523 3938.34 
-2155.1 318.511 3937.52 
-2155.04 319.948 3936.45 
-2155.26 320.28 3936.11 
-2155.03 320.519 3935.92 
-2154.88 320.617 3935.82 
-2154.92 320.656 3935.71 
-2155 320.683 3935.61 
-2155.64 320.771 3935.21 
-2155.36 320.635 3935.65 
-2155.16 320.428 3936.12 
-2155.58 320.719 3935.4 
-2155 320.254 3936.52 
-2155.06 320.159 3936.68 
-2155.32 319.999 3936.85 
-2155.41 319.842 3937.08 
-2155.43 319.624 3937.42 
-2155.42 319.398 3937.77 
-2155.4 319.231 3938.04 
-2155.32 319.134 3938.23 
-2155.27 319.047 3938.38 
-2155.43 319.06 3938.28 
-2189.33 211.342 3912.68 
-2191.6 215.238 3915.76 
-2196 211.12 3922.12 
-2189.77 207.912 3912.29 
-2190.59 205.505 3912.66 
-2189.88 204.444 3911.84 
-2155.13 318.872 3938.64 
-2154.9 318.751 3938.86 
-2154.73 317.165 3939.5 
-2154.57 317.786 3939.28 
-2154.39 318.631 3939.1 
-2154.65 318.79 3938.95 
-2154.92 316.614 3939.76 
-2155.09 316.077 3940.01 
-2154.97 315.818 3940.13 
-2154.98 315.627 3940.11 
-2154.76 316.556 3939.19 
-2154.62 318.242 3937.88 
-2154.8 319.14 3937.14 
-2154.62 320.326 3936.3 
-2154.71 320.551 3936.06 
-2154.81 320.56 3935.98 
-2154.53 320.7 3935.87 
-2154.5 320.763 3935.76 
-2154.55 320.794 3935.66 
-2154.69 320.805 3935.56 
-2155.39 320.901 3935.1 
-2155.29 320.86 3935.27 
-2154.8 320.794 3935.62 
-2154.6 320.623 3936.03 
-2154.67 320.454 3936.31 
-2154.75 320.343 3936.49 
-2154.81 320.25 3936.65 
-2155.12 320.043 3936.88 
-2155.16 319.815 3937.23 
-2155.17 319.6 3937.56 
-2155.17 319.376 3937.91 
-2155.11 319.178 3938.24 
-2155.07 319.023 3938.5 
-2154.99 318.904 3938.69 
-2190.41 210.098 3913.8 
-2191.81 213.772 3916.94 
-2192.61 212.2 3919.07 
-2191.56 202.982 3913.14 
-2191.61 207.436 3914.61 
-2154.81 318.817 3938.86 
-2154.41 317.757 3939.33 
-2154.48 317.092 3939.54 
-2154.22 318.66 3939.14 
-2154.5 318.841 3938.97 
-2154.69 316.483 3939.82 
-2154.46 316.419 3939.84 
-2154.63 315.905 3940.09 
-2154.67 315.679 3940.1 
-2154.44 316.351 3939.43 
-2154.46 317.372 3938.59 
-2154.28 318.546 3937.76 
-2154.45 319.556 3936.94 
-2154.22 320.582 3936.22 
-2154.29 320.671 3936.08 
-2154.36 320.701 3935.97 
-2154.07 320.835 3935.88 
-2154.14 320.852 3935.81 
-2154.22 320.893 3935.67 
-2154.11 320.896 3935.73 
-2154.33 320.927 3935.54 
-2155.09 321.033 3935.02 
-2154.77 320.973 3935.3 
-2154.17 320.845 3935.82 
-2154.28 320.681 3936.08 
-2154.46 320.525 3936.29 
-2154.47 320.456 3936.43 
-2154.54 320.352 3936.6 
-2154.83 320.17 3936.8 
-2154.92 319.98 3937.06 
-2154.87 319.777 3937.4 
-2154.93 319.567 3937.71 
-2154.9 319.375 3938.02 
-2154.83 319.157 3938.39 
-2154.8 318.948 3938.73 
-2154.64 318.877 3938.88 
-2192.25 210.772 3918.35 
-2192.11 204.795 3915.04 
-2192.29 201.358 3914.12 
-2192.19 208.42 3918.2 
-2154.24 317.779 3939.38 
-2154.25 317.046 3939.59 
-2154.06 318.706 3939.18 
-2154.33 318.894 3939 
-2154.16 316.537 3939.79 
-2154.31 315.979 3940.05 
-2154.32 315.73 3940.09 
-2154.17 316.452 3939.4 
-2154.16 317.503 3938.59 
-2153.97 318.539 3937.87 
-2154.12 319.686 3936.95 
-2153.94 320.568 3936.34 
-2153.8 320.774 3936.17 
-2153.89 320.784 3936.1 
-2153.97 320.798 3936.02 
-2153.96 320.835 3935.95 
-2153.65 320.949 3935.91 
-2153.72 320.963 3935.84 
-2153.75 320.988 3935.77 
-2153.81 321.008 3935.69 
-2154.03 321.044 3935.51 
-2154.71 321.145 3935.01 
-2154 320.854 3935.9 
-2153.98 320.812 3935.99 
-2154.19 320.66 3936.18 
-2154.12 320.64 3936.26 
-2154.23 320.533 3936.42 
-2154.31 320.425 3936.59 
-2154.59 320.221 3936.82 
-2154.67 319.996 3937.14 
-2154.56 319.848 3937.42 
-2154.67 319.617 3937.74 
-2154.66 319.371 3938.12 
-2154.58 319.142 3938.49 
-2154.49 318.934 3938.91 
-2192.21 204.12 3916.22 
-2192.36 201.256 3915.51 
-2192.52 200.641 3913.8 
-2192.27 206.761 3920.07 
-2154.07 317.822 3939.42 
-2153.99 317.26 3939.59 
-2153.89 318.76 3939.21 
-2154.17 318.942 3939.04 
-2153.95 316.523 3939.82 
-2153.8 317.218 3939.66 
-2153.99 316.08 3940 
-2154.05 315.765 3940.1 
-2153.93 316.294 3939.6 
-2153.94 317.27 3938.84 
-2153.84 319.703 3937.03 
-2153.75 317.891 3938.44 
-2153.68 318.965 3937.64 
-2153.69 320.73 3936.29 
-2153.44 320.867 3936.21 
-2153.49 320.889 3936.14 
-2153.56 320.903 3936.06 
-2153.6 320.927 3935.99 
-2153.84 320.798 3936.11 
-2153.92 320.801 3936.06 
-2153.85 320.746 3936.21 
-2154.01 320.609 3936.4 
-2154.02 320.548 3936.52 
-2154.29 320.329 3936.77 
-2154.41 320.101 3937.08 
-2154.25 319.98 3937.33 
-2154.34 319.774 3937.62 
-2154.44 319.566 3937.91 
-2154.45 319.363 3938.2 
-2154.29 319.338 3938.26 
-2154.3 319.013 3938.9 
-2192.36 204.606 3920.78 
-2192.4 201.795 3917.04 
-2192.5 200.623 3915.42 
-2192.76 200.353 3913.63 
-2153.9 317.965 3939.43 
-2153.75 317.941 3939.48 
-2153.72 318.813 3939.25 
-2153.99 318.988 3939.08 
-2153.75 316.669 3939.82 
-2153.6 317.963 3939.52 
-2153.6 317.381 3939.67 
-2153.75 316.134 3939.99 
-2153.76 315.832 3940.06 
-2153.67 316.815 3939.28 
-2153.59 320.25 3936.7 
-2153.5 318.112 3938.35 
-2153.45 319.533 3937.29 
-2153.37 320.852 3936.29 
-2153.59 320.728 3936.41 
-2153.69 320.731 3936.34 
-2153.75 320.747 3936.27 
-2153.8 320.63 3936.48 
-2153.99 320.441 3936.71 
-2154.12 320.218 3937.01 
-2154 320.132 3937.2 
-2154 319.961 3937.46 
-2154.11 319.765 3937.71 
-2154.22 319.563 3937.96 
-2154.07 319.536 3937.99 
-2154.06 319.054 3938.88 
-2192.5 202.456 3921.61 
-2192.54 200.763 3917.14 
-2192.64 200.19 3915.19 
-2193.05 200.136 3913.46 
-2153.56 318.86 3939.28 
-2153.82 319.037 3939.12 
-2153.56 316.844 3939.83 
-2153.42 318.893 3939.31 
-2153.43 318.059 3939.54 
-2153.42 317.483 3939.7 
-2153.51 316.401 3939.96 
-2153.46 316.041 3939.93 
-2153.37 317.128 3939.1 
-2153.31 320.769 3936.41 
-2153.18 318.299 3938.21 
-2153.29 319.003 3937.73 
-2153.19 320.483 3936.67 
-2153.53 320.677 3936.53 
-2153.75 320.541 3936.66 
-2153.84 320.329 3936.95 
-2153.81 320.152 3937.24 
-2153.78 320.046 3937.38 
-2153.87 319.89 3937.56 
-2153.97 319.72 3937.77 
-2153.85 319.689 3937.8 
-2153.92 319.357 3938.42 
-2192.64 200.748 3921.91 
-2192.66 200.303 3916.9 
-2192.68 199.87 3921.47 
-2192.8 199.795 3914.99 
-2193.34 199.943 3913.32 
-2153.7 319.123 3939.05 
-2153.3 317.305 3939.78 
-2153.26 318.969 3939.34 
-2153.5 319.262 3938.89 
-2153.26 318.141 3939.57 
-2153.26 316.542 3939.9 
-2153 316.244 3939.69 
-2153.1 316.732 3939.29 
-2153.01 317.87 3938.45 
-2153.4 320.609 3936.69 
-2152.94 319.919 3937.04 
-2153.05 320.211 3936.85 
-2153.27 320.608 3936.69 
-2153.6 320.464 3936.84 
-2153.64 320.299 3937.07 
-2153.58 320.212 3937.17 
-2153.65 320.041 3937.37 
-2153.75 319.874 3937.57 
-2153.64 319.841 3937.61 
-2153.71 319.503 3938.25 
-2192.75 199.839 3916.72 
-2192.66 199.145 3920.83 
-2192.97 199.466 3914.82 
-2193.62 199.749 3913.21 
-2153.13 318.051 3939.62 
-2153.02 317.194 3939.68 
-2153.1 319.036 3939.3 
-2153.32 319.441 3938.63 
-2153.49 319.683 3938.01 
-2152.79 316.43 3939.6 
-2152.71 316.829 3939.08 
-2152.82 317.467 3938.67 
-2152.81 319.715 3937.16 
-2153.44 320.427 3936.91 
-2153.12 320.526 3936.78 
-2153.22 320.546 3936.76 
-2153.35 320.358 3936.99 
-2153.42 320.192 3937.18 
-2153.49 320.028 3937.38 
-2153.35 319.941 3937.56 
-2192.84 199.366 3916.46 
-2192.57 198.46 3919.28 
-2193.08 195.164 3924.75 
-2193.16 199.186 3914.69 
-2193.91 199.571 3913.1 
-2152.93 319.064 3939.2 
-2152.85 317.859 3939.49 
-2152.69 317.017 3939.48 
-2153.17 319.661 3938.26 
-2152.52 316.487 3939.27 
-2152.57 319.242 3937.46 
-2152.69 319.452 3937.33 
-2153.01 320.51 3936.79 
-2153.19 320.363 3936.97 
-2153.23 320.221 3937.14 
-2153.15 320.05 3937.45 
-2192.89 198.844 3916.28 
-2192.32 197.577 3919.47 
-2193.33 189.384 3922.72 
-2195.48 183.494 3923.75 
-2193.42 199.001 3914.34 
-2194.23 199.395 3912.99 
-2152.65 319.084 3938.99 
-2152.96 319.77 3938.16 
-2152.53 317.6 3939.31 
-2152.39 316.688 3939.31 
-2152.45 319.055 3937.6 
-2152.82 320.438 3936.87 
-2152.96 320.443 3936.87 
-2153.02 320.301 3937.04 
-2152.91 320.113 3937.47 
-2193.09 198.489 3915.82 
-2192.37 197.191 3918.46 
-2192.32 196.344 3918.36 
-2192.32 191.223 3921.67 
-2195.69 178.318 3921.77 
-2197.73 172.214 3922.56 
-2194.72 181.617 3921.4 
-2193.67 198.76 3914.18 
-2194.56 199.219 3912.89 
-2152.29 319.218 3938.7 
-2152.72 319.897 3938.04 
-2152.15 317.397 3939.22 
-2152.25 318.593 3937.99 
-2152.7 320.241 3937.34 
-2193.08 197.931 3916.17 
-2192.33 195.21 3918.32 
-2193.27 187.09 3920.98 
-2198.51 166.898 3921.37 
-2197.21 171.774 3921.15 
-2200.22 160.701 3921.64 
-2196.07 176.015 3920.78 
-2193.61 198.159 3914.98 
-2194.09 198.607 3913.64 
-2195.02 199.103 3912.7 
-2151.94 319.362 3938.39 
-2152.43 320.225 3937.48 
-2151.79 318.045 3938.57 
-2193.33 197.229 3916.02 
-2192.44 194.329 3918.1 
-2193.59 185.498 3920.3 
-2201.62 154.958 3920.77 
-2199.71 161.91 3920.95 
-2198.93 164.732 3920.66 
-2203.31 150.696 3920.42 
-2198.5 166.134 3920.12 
-2196.06 175.716 3920.09 
-2193.75 197.517 3915.14 
-2194.4 198.39 3913.47 
-2195.19 198.744 3912.73 
-2192.67 193.936 3917.63 
-2194.11 183.143 3919.61 
-2201.69 154.587 3920.24 
-2203.94 149.568 3919.16 
-2202.48 153.31 3918.69 
-2201.42 155.329 3919.97 
-2201.11 156.429 3919.63 
-2206.4 141.195 3918.94 
-2200.28 159.864 3918.73 
-2197.12 171.352 3919.3 
-2194.39 197.543 3914.09 
-2194.09 196.655 3915.17 
-2192.74 193.524 3917.35 
-2195.51 198.493 3912.59 
-2194.06 183.078 3918.95 
-2202.27 153.97 3917.79 
-2204.68 148.997 3917.96 
-2207.46 136.238 3916.66 
-2206.15 139.631 3915.92 
-2204.82 150.16 3915.55 
-2202.22 154.814 3917.13 
-2202.26 155.752 3916.53 
-2209.59 130.604 3917.13 
-2199.78 162.501 3917.34 
-2202.07 157.453 3915.37 
-2196.75 173.24 3917.92 
