-1981.98 -1314.82 3524.97 
-1985.63 -1309.52 3535.79 
-1983.2 -1311.55 3540.62 
-1986.63 -1310.07 3535.12 
-1986.85 -1309.93 3533.41 
-1985.81 -1310.23 3529.34 
-1984.91 -1312.18 3520.92 
-1986.39 -1312.5 3524.45 
-1990.99 -1329.34 3508.79 
-1993.67 -1333.38 3506.56 
-1997.88 -1331.65 3523.36 
-1998.29 -1334.26 3521.69 
-1996.54 -1335.47 3512.24 
-1986.75 -1313.91 3520.92 
-1990.05 -1317.72 3519.6 
-1993.22 -1324.32 3515.25 
-1993.35 -1323.72 3516.74 
-1995.63 -1330.96 3512.93 
-1994.05 -1328.96 3513.79 
-1937.87 -1294.5 3452.21 
-1938.04 -1294.72 3451.84 
-1937.84 -1294.73 3451.54 
-1938.22 -1294.53 3452.49 
-1938.08 -1294.63 3451.27 
-1937.96 -1294.91 3451.17 
-1938.08 -1295.12 3450.75 
-1938.19 -1295.32 3450.34 
-1938.08 -1295.37 3449.92 
-1937.61 -1295.24 3449.64 
-1937.39 -1295.24 3449.2 
-1937.5 -1295.34 3446.89 
-1937.6 -1295.34 3446.6 
-1937.13 -1295.25 3448.34 
-1938.51 -1295.34 3448.23 
-1937.85 -1295.39 3446.25 
-1937.75 -1295.34 3446.22 
-1937.78 -1295.38 3446.05 
-1937.76 -1295.39 3446.36 
-1937.74 -1295.43 3446.5 
-1938.29 -1295 3449.58 
-1938.38 -1294.94 3450.27 
-1927.65 -1295.86 3435.82 
-1928.23 -1295.06 3435.48 
-1930.57 -1292.39 3425.19 
-1930.06 -1293.48 3425.56 
-1930.21 -1293.31 3426.88 
-1929.52 -1293.73 3431.36 
-1928.08 -1295.22 3432.98 
-1941.4 -1276.49 3418.31 
-1943.46 -1274.65 3415.65 
-1944.43 -1272.02 3414.5 
-1944.76 -1270.75 3413.57 
-1944.7 -1270.72 3413.99 
-1938.67 -1280 3419.69 
-1939.54 -1278.58 3418.66 
-1940.3 -1277.89 3418.48 
-1932.24 -1289.91 3422.82 
-1929.92 -1292.04 3422.61 
-1929.18 -1292.3 3422.13 
-1929.52 -1291.94 3421.78 
-1936.94 -1282.94 3420.94 
-1929.76 -1292.31 3423.11 
-1941.21 -1276.7 3418.18 
-1945.32 -1304.62 3444.73 
-1945.5 -1304.67 3445.83 
-1943.83 -1302.82 3443.45 
-1944.89 -1304.46 3443.21 
-1940.43 -1298.25 3440.87 
-1940.73 -1296.75 3447.97 
-1940.35 -1296.81 3446.78 
-1940.02 -1296.89 3445.66 
-1942.44 -1297.82 3450.58 
-1941.2 -1296.64 3449.51 
-1940.69 -1296.61 3448.39 
-1942.35 -1297.52 3451.19 
-1943.16 -1298.28 3452.96 
-1943.13 -1298.47 3452.1 
-1943.36 -1299.12 3451.45 
-1943.49 -1299.66 3450.32 
-1939.55 -1296.95 3444.26 
-1939.54 -1296.98 3444.04 
-1939.69 -1297.11 3443.9 
-1944.99 -1303.87 3445.62 
-1944.23 -1302.67 3445.8 
-1943.89 -1302.09 3446.07 
-1942.95 -1300.75 3446.14 
-1943.55 -1301.56 3446.14 
-1943.32 -1300.31 3448.11 
-1942.37 -1300.03 3446.05 
-1943.09 -1299.64 3448.83 
-1940.69 -1298.21 3443.44 
-1940.3 -1297.67 3442.58 
-1939.98 -1297.38 3444.03 
-1941.65 -1299.43 3444.63 
-1942.62 -1300.62 3444.72 
-1941.91 -1299.69 3444.15 
-1904.78 -1267.6 3446.98 
-1907.35 -1271.64 3441.15 
-1911.96 -1274.05 3434.62 
-1917.08 -1276.93 3428.68 
-1923.63 -1310.63 3448.6 
-1922.5 -1315.11 3442.27 
-1922.33 -1315.58 3440.96 
-1923.88 -1308.68 3450.88 
-1922.27 -1315.67 3440.31 
-1922.64 -1312.96 3438.97 
-1922.46 -1314.86 3439.69 
-1921.69 -1316.4 3438.97 
-1920.77 -1317.73 3438.17 
-1920.99 -1317.46 3438.14 
-1922.39 -1314.33 3439.05 
-1922.22 -1315.66 3439.59 
-1921.82 -1313.9 3441.63 
-1921.87 -1314.67 3441.36 
-1921.06 -1317.03 3439.34 
-1920.5 -1318.08 3438.11 
-1923.71 -1306.99 3452.77 
-1922.68 -1306.82 3455.9 
-1924.39 -1307.54 3445.77 
-1923.37 -1307.34 3451.37 
-1922.04 -1307.46 3456.12 
-1921.58 -1307.93 3457.85 
-1920.97 -1308.79 3458.15 
-1927.24 -1295.88 3433.54 
-1928.46 -1293.77 3425.06 
-1928.47 -1294.35 3422.24 
-1928.62 -1294.44 3426.93 
-1928 -1295.14 3431.12 
-1928.9 -1294.3 3428.81 
-1928.63 -1294.59 3428.22 
-1928.9 -1295.93 3421.37 
-1929.2 -1296.08 3421.41 
-1929.17 -1296.08 3421.1 
-1929.28 -1296.08 3421.28 
-1929.03 -1296.06 3420.93 
-1928.39 -1295.78 3419.87 
-1928.56 -1295.77 3420.14 
-1928.65 -1295.76 3420.28 
-1928.4 -1295.66 3419.9 
-1928.74 -1295.75 3420.43 
-1928.9 -1295.92 3420.67 
-1928.29 -1295.8 3419.72 
-1927.93 -1294.77 3418.57 
-1927.79 -1293.52 3418.89 
-1928.08 -1295.7 3419.1 
-1928.16 -1295.63 3419.49 
-1927.31 -1288.08 3419.54 
-1927.3 -1288 3420.07 
-1927.2 -1287.53 3420.28 
-1927.06 -1287.24 3420.79 
-1926.96 -1286.7 3420.88 
-1927.29 -1288.16 3419.08 
-1927.24 -1288.59 3419.08 
-1927.18 -1289.19 3419.29 
-1927.23 -1289.72 3418.99 
-1927.31 -1290.22 3418.61 
-1927.39 -1290.78 3418.25 
-1927.59 -1292.14 3418.44 
-1926.49 -1286.36 3421.99 
-1926.69 -1286.13 3421.46 
-1925.12 -1284.08 3423.14 
-1926.87 -1286.12 3420.87 
-1914.18 -1249.04 3486.89 
-1916.71 -1247.72 3489.6 
-1911.31 -1247.25 3484.05 
-1910.17 -1249.73 3482.54 
-1907.89 -1249.38 3479.37 
-1905.69 -1251.61 3474.87 
-1906.15 -1254.03 3467.84 
-1906.56 -1257.05 3459.95 
-1908.05 -1257.88 3454.48 
-1910.08 -1258.07 3452.45 
-1914.55 -1256.51 3451.09 
-1915.96 -1257.01 3450.19 
-1917.21 -1257.59 3449.33 
-1919.09 -1257.85 3448.33 
-1921.85 -1257.72 3447.03 
-1917.82 -1260.45 3446.79 
-1912.66 -1263.38 3446.97 
-1909.2 -1266.53 3445.84 
-1998.52 -1331.34 3529.59 
-1996.19 -1328.89 3529.41 
-1993.56 -1326.18 3528.66 
-2001.01 -1334.46 3526.6 
-1998.65 -1331.93 3526.67 
-2001.4 -1334.38 3529.74 
-1987.28 -1319.85 3526.21 
-1991.55 -1324.11 3528.07 
-2022.53 -1518.82 3528.44 
-2022.76 -1518.09 3529.45 
-2022.55 -1518.54 3528.9 
-2023.16 -1517.88 3527.05 
-2023.11 -1517.76 3527.41 
-2022.73 -1518.32 3528.19 
-2023.08 -1517.63 3527.73 
-2023.14 -1517.44 3528.39 
-2023.12 -1517.36 3529.1 
-2023.03 -1517.42 3529.87 
-1925.3 -1228.16 3466.25 
-1925.67 -1228.95 3463.87 
-1925.42 -1227.94 3466.08 
-1925.09 -1228.51 3466.6 
-1925.57 -1227.32 3466.37 
-1925.72 -1228.34 3464.21 
-1925.53 -1227.69 3465.98 
-1925.81 -1228.07 3464.07 
-1923.66 -1230.36 3468.9 
-1922.34 -1231.67 3470.78 
-1919.62 -1232.92 3477.06 
-1918.43 -1232.98 3480.68 
-1920.93 -1232.98 3472.97 
-1925.08 -1232.77 3461.77 
-1924.36 -1233.77 3462.66 
-1922.95 -1235.79 3473.29 
-1924.11 -1231.19 3470.73 
-1924.44 -1230.61 3469.71 
-1922.37 -1241.49 3470.08 
-1922.97 -1236.91 3472.3 
-1924.55 -1231.33 3466.78 
-1924.06 -1233.63 3464.55 
-1924.12 -1233.74 3464.05 
-1921.8 -1243.46 3467.46 
-1919.84 -1245.21 3464.63 
-1923.88 -1234.5 3463.26 
-1923.93 -1234.61 3462.68 
-1924.01 -1234.52 3462.42 
-1924.1 -1234.44 3462.14 
-1918.65 -1246.02 3462.6 
-1918.68 -1246.12 3461.8 
-1920.18 -1248.64 3457.96 
-1923.97 -1246.66 3461.22 
-1919.37 -1248 3456.51 
-1919.41 -1247.41 3456.71 
-1919.36 -1248.53 3456.29 
-1919.43 -1246.82 3456.97 
-1919.46 -1246.23 3457.24 
-1926.87 -1245.07 3463.02 
-1928.42 -1244.1 3462.92 
-1929.46 -1242.91 3461.71 
-1928.59 -1243.63 3462.59 
-1929.57 -1242.34 3461.32 
-1919.51 -1245.8 3457.42 
-1919.34 -1245.9 3458.16 
-1919.01 -1246.15 3459.56 
-1919.3 -1245.77 3458.63 
-1918.74 -1246.2 3460.98 
-1918.98 -1245.96 3460.03 
-1926.12 -1246.64 3454.66 
-1926.23 -1246.35 3455.02 
-1926.44 -1246.03 3455.59 
-1926.18 -1245.72 3455.31 
-1926.24 -1245.91 3455.3 
-1926.09 -1245.55 3455.27 
-1926.04 -1245.32 3455.31 
-1926.35 -1245.09 3456.01 
-1926.49 -1242.03 3457.2 
-1926.01 -1242.86 3456.43 
-1926.32 -1244.66 3456.22 
-1915.91 -1233.36 3488.38 
-1917.57 -1233.13 3483.29 
-1917.22 -1233.21 3484.34 
-1915.77 -1233.71 3488.53 
-1918.59 -1233.15 3480.04 
-1915.45 -1236.19 3488.62 
-1917.02 -1243.03 3489.7 
-1918.65 -1249.45 3490.93 
-1919.92 -1254.47 3491.92 
-1943.69 -1247.23 3422.17 
-1946.74 -1250.09 3416.8 
-1930 -1245.66 3440.39 
-1928.05 -1246.19 3442.75 
-1927.84 -1245.33 3443.2 
-1939.58 -1246.23 3429.45 
-1942.98 -1245.44 3423.27 
-1934.75 -1242.92 3435.16 
-1932.03 -1243.65 3438.19 
-1927.94 -1244.1 3443.33 
-1927.42 -1244.95 3443.87 
-1926.84 -1246.22 3444.39 
-1926.67 -1245.88 3444.7 
-1925.9 -1248.21 3445.26 
-1925.02 -1250.79 3445.96 
-1925.42 -1248.57 3453.44 
-1925.63 -1248.55 3453.57 
-1925.92 -1248.35 3454.06 
-1924.63 -1247.7 3451.01 
-1924.62 -1247.88 3452.15 
-1924.64 -1247.53 3449.85 
-1924.67 -1247.89 3448.76 
-1924.62 -1247.16 3447.83 
-1924.72 -1247.28 3447.23 
-1925.7 -1246.36 3445.94 
-1925.39 -1246.49 3446.34 
-1925.22 -1246.15 3446.66 
-1925.56 -1248.41 3445.68 
-1926.01 -1246.28 3445.53 
-1925.13 -1248.38 3453.29 
-1924.82 -1247.94 3453.27 
-1924.61 -1247.98 3453.1 
-1926.09 -1247.82 3454.13 
-1926.2 -1247.46 3454.34 
-1925.9 -1247.45 3453.76 
-1925.99 -1247.18 3454.09 
-1926.04 -1246.92 3454.34 
-1949.7 -1261.57 3410.9 
-1949.99 -1260.88 3410.23 
-1950.37 -1260.14 3409.46 
-1952.16 -1251.62 3410.36 
-1951.27 -1259.21 3408.39 
-1951.51 -1257.76 3408.7 
-1951.91 -1254.92 3409.28 
-1952.33 -1252.45 3409.69 
-1950.91 -1247.23 3414.09 
-1952.47 -1247.65 3411.65 
-1952.89 -1248.84 3410.43 
-1952.84 -1247.84 3411 
-1953.46 -1245.28 3411.9 
-1953.13 -1244.63 3412.6 
-1952.83 -1243.94 3413.3 
-1949.97 -1261.48 3410.17 
-1950.26 -1261.43 3409.39 
-1946.16 -1269.07 3412.76 
-1949.13 -1264.61 3410.09 
-1949.07 -1264.98 3409.86 
-1950.51 -1261.5 3408.68 
-1981.14 -1312.74 3543.26 
-1980.6 -1313.1 3543.6 
-1982.76 -1315.74 3541.09 
-1984.72 -1318.09 3533.25 
-1986.2 -1318.79 3526.36 
-1988.89 -1314.35 3540.32 
-1987.13 -1312.67 3543.46 
-1984.04 -1315.23 3549.73 
-1986.49 -1315.41 3550.44 
-1988.2 -1312.23 3535.28 
-1991.62 -1318.27 3539.52 
-1987.84 -1311.42 3533.42 
-1988.32 -1313.28 3528.07 
-1988.5 -1315.17 3522.62 
-2000.41 -1338.2 3505.39 
-2000.16 -1337.93 3503.38 
-2004.06 -1339.16 3507.73 
-2001.08 -1336.66 3523.73 
-2003.85 -1338.69 3526.6 
-2002.29 -1339.5 3513.12 
-1990 -1316.98 3521.99 
-1991.81 -1320.04 3520.43 
-1993.6 -1323.45 3518.73 
-1996.09 -1328.55 3517.22 
-1996.59 -1328.02 3518.77 
-1997.49 -1330.59 3515.11 
-2005.33 -1339.08 3511.14 
-1938.37 -1294.74 3452.24 
-1938.51 -1294.96 3451.83 
-1938.21 -1294.93 3451.49 
-1938.71 -1294.77 3452.5 
-1938.59 -1294.88 3451.3 
-1938.39 -1295.15 3451.11 
-1938.59 -1295.4 3450.7 
-1938.55 -1295.49 3450.26 
-1938.39 -1295.51 3449.81 
-1937.88 -1295.37 3449.5 
-1937.62 -1295.35 3449.06 
-1937.62 -1295.44 3446.86 
-1937.7 -1295.44 3446.66 
-1937.33 -1295.36 3448.18 
-1938.69 -1295.22 3449.43 
-1938.89 -1295.46 3448.58 
-1937.95 -1295.48 3446.13 
-1938.59 -1295.53 3447.54 
-1937.87 -1295.42 3446.09 
-1937.89 -1295.45 3446.23 
-1937.9 -1295.49 3445.92 
-1937.88 -1295.5 3446.39 
-1937.85 -1295.53 3446.56 
-1938.87 -1295.18 3450.26 
-1929.09 -1292.8 3422.86 
-1928.97 -1292.98 3422.95 
-1929.62 -1293.87 3425.4 
-1929.41 -1293.8 3429.42 
-1943.35 -1275.04 3415.6 
-1944.54 -1272.64 3414.28 
-1944.84 -1271.11 3413.28 
-1946.05 -1269.2 3412.29 
-1946.09 -1269.13 3412.55 
-1939.19 -1278.95 3418.72 
-1938.6 -1279.84 3419.28 
-1939.87 -1278.23 3418.05 
-1940.33 -1277.71 3418.1 
-1941.24 -1276.66 3417.8 
-1933.05 -1289.07 3422.63 
-1929.98 -1291.59 3421.59 
-1928.74 -1292.68 3421.84 
-1928.81 -1292.48 3421.78 
-1929.05 -1292.18 3421.68 
-1929.16 -1292.04 3421.37 
-1937.9 -1280.91 3419.7 
-1934.34 -1286.86 3421.84 
-1928.62 -1293.01 3421.68 
-1943.33 -1275.45 3415.42 
-1944.21 -1303 3444.5 
-1943.37 -1301.92 3443.86 
-1943.21 -1302.19 3442.64 
-1944.71 -1304.31 3442.53 
-1941.03 -1299.61 3440.9 
-1943.54 -1302.99 3442 
-1942.56 -1301.02 3442.76 
-1942.75 -1301.08 3443.36 
-1940 -1297.56 3438.46 
-1940.11 -1297.46 3440.22 
-1940.17 -1296.67 3446.88 
-1939.86 -1296.75 3445.8 
-1939.41 -1296.82 3444.43 
-1941.06 -1296.51 3449.7 
-1940.4 -1296.47 3448.26 
-1940.09 -1296.55 3447.15 
-1942.34 -1297.15 3451.81 
-1941.54 -1296.49 3450.95 
-1942.34 -1296.91 3452.52 
-1942.8 -1297.77 3452.18 
-1942.96 -1298.61 3450.66 
-1942.32 -1297.76 3450.56 
-1942.38 -1298.72 3448.8 
-1939.39 -1296.85 3444.21 
-1939.47 -1296.87 3444.25 
-1939.63 -1297.01 3444.09 
-1943.89 -1302.22 3445.26 
-1943.33 -1301.49 3444.78 
-1941.03 -1298.63 3444.65 
-1940.25 -1297.64 3444.59 
-1941.6 -1299.05 3445.94 
-1939.94 -1297.24 3444.7 
-1940.93 -1298.18 3445.91 
-1941.32 -1298.91 3443.65 
-1940.74 -1298.13 3443.11 
-1940.25 -1297.55 3441.23 
-1939.69 -1297 3444.22 
-1942.79 -1300.78 3444.33 
-1908.29 -1270.38 3440.28 
-1913.29 -1273.09 3433.28 
-1918.23 -1275.94 3427.43 
-1925.72 -1283.01 3422.59 
-1923.43 -1311.95 3448.81 
-1922.34 -1316.43 3442.88 
-1922.16 -1316.96 3441.56 
-1923.6 -1310.07 3451.35 
-1922.1 -1317.06 3440.91 
-1923.72 -1308.68 3451.82 
-1922.05 -1317.07 3440.24 
-1922.53 -1313.4 3438.48 
-1922.44 -1315.01 3439.28 
-1921.35 -1317.05 3437.91 
-1920.9 -1317.7 3437.54 
-1919.47 -1319.73 3436.2 
-1919.61 -1319.58 3436.07 
-1919.75 -1319.43 3435.96 
-1922.11 -1316.08 3438.95 
-1922.29 -1314.73 3438.5 
-1922 -1317.11 3439.57 
-1921.66 -1313.95 3442.09 
-1920.18 -1318.11 3438.72 
-1920.34 -1318.21 3438.31 
-1919.3 -1319.93 3436.3 
-1923.47 -1307.01 3453.98 
-1922.31 -1307.03 3457.17 
-1923.92 -1307.8 3446.76 
-1923.1 -1307.57 3451.76 
-1921.46 -1308.17 3456.61 
-1920.32 -1309.71 3458.56 
-1920.47 -1309.22 3459.83 
-1920.06 -1309.97 3459.77 
-1918.24 -1311.97 3461.53 
-1928.66 -1293.26 3424.1 
-1928.51 -1294.35 3421.95 
-1928.52 -1293.38 3422.68 
-1929.2 -1295.9 3421.23 
-1928.99 -1294.1 3426.16 
-1929.38 -1293.98 3426.08 
-1929.01 -1295.92 3420.84 
-1929.12 -1295.91 3421.01 
-1928.22 -1295.58 3419.59 
-1928.26 -1295.49 3419.65 
-1928.44 -1295.56 3419.97 
-1928.57 -1295.58 3420.17 
-1928.3 -1295.43 3419.74 
-1928.68 -1295.58 3420.34 
-1928.84 -1295.74 3420.59 
-1927.75 -1293.47 3418.07 
-1927.91 -1295.3 3417.75 
-1928.08 -1295.6 3419.14 
-1928.13 -1295.33 3419.38 
-1927.34 -1287.66 3419.54 
-1927.34 -1287.7 3418.86 
-1927.11 -1286.89 3420.21 
-1927.25 -1287.12 3419.66 
-1927.01 -1286.31 3420.23 
-1927.33 -1287.76 3418.37 
-1927.25 -1288.17 3418.51 
-1927.24 -1288.45 3418.42 
-1927.19 -1288.87 3418.69 
-1927.17 -1289.03 3418.26 
-1927.2 -1289.42 3417.9 
-1927.24 -1289.69 3417.46 
-1927.42 -1290.93 3417.77 
-1927.59 -1292.08 3417.67 
-1926.7 -1285.31 3421.45 
-1926.77 -1285.57 3420.91 
-1926.99 -1285.69 3420.3 
-1912.94 -1245.23 3486.06 
-1915.83 -1244.52 3489.09 
-1908.98 -1247.03 3480.88 
-1909.81 -1244.97 3481.74 
-1907.04 -1249.31 3476.64 
-1907.18 -1251.59 3470.82 
-1908.37 -1252.7 3465.45 
-1907.63 -1255.68 3460.47 
-1910.37 -1256.1 3453.65 
-1912.73 -1256.16 3452.11 
-1917.41 -1254.57 3450.66 
-1919.14 -1254.9 3449.69 
-1920.42 -1255.45 3448.83 
-1921.82 -1255.84 3447.97 
-1922.99 -1255.99 3447.24 
-1923.28 -1256.9 3444.62 
-1923.93 -1254.27 3446.99 
-1919.75 -1261.6 3445.08 
-1915.8 -1263.17 3445.73 
-1913.51 -1265.83 3444.46 
-1911.48 -1269.99 3437.8 
-2004.6 -1337.29 3532.89 
-2001.84 -1334.44 3532.23 
-1998.93 -1331.49 3531.22 
-1996.54 -1329.03 3530.48 
-2006.71 -1341.09 3528.72 
-2004.36 -1337.5 3529.98 
-2007.47 -1340.31 3533.18 
-1992.61 -1325.07 3528.99 
-2022.7 -1518.04 3529.29 
-2022.68 -1518.19 3528.59 
-2023.05 -1517.49 3528.02 
-2023.1 -1517.29 3528.66 
-2023.08 -1517.21 3529.24 
-2023.02 -1517.29 3529.83 
-1925.57 -1231.82 3461.17 
-1925.08 -1229.54 3464.71 
-1925.71 -1227.29 3464.25 
-1925.88 -1227.81 3463.86 
-1925.65 -1231.69 3460.7 
-1925.7 -1231.56 3460.25 
-1923.95 -1231.46 3466.18 
-1922.39 -1232.83 3468.72 
-1919.8 -1233.24 3476.08 
-1921.23 -1233.45 3471.33 
-1924.4 -1233.83 3462.26 
-1924.13 -1231.84 3469.94 
-1924.43 -1231.62 3467.76 
-1922.35 -1242.25 3468.08 
-1923.48 -1236.72 3468.65 
-1924.02 -1234.04 3466.72 
-1923.99 -1233.72 3465.12 
-1923.84 -1234.44 3463.73 
-1920.09 -1244.75 3464.49 
-1918.72 -1245.75 3462.42 
-1923.74 -1234.92 3462.98 
-1923.78 -1234.97 3462.44 
-1923.8 -1235.15 3461.8 
-1923.88 -1235.02 3461.7 
-1923.96 -1234.91 3461.53 
-1924.07 -1234.73 3461.47 
-1918.78 -1245.78 3461.52 
-1918.91 -1245.8 3460.67 
-1919.59 -1248.95 3456.34 
-1922.39 -1247.57 3458.84 
-1925.71 -1245.84 3461.38 
-1919.66 -1247.16 3456.12 
-1919.62 -1247.69 3456.06 
-1919.67 -1246.64 3456.22 
-1919.58 -1248.28 3455.99 
-1919.71 -1246.06 3456.36 
-1919.77 -1245.6 3456.46 
-1927.14 -1244.67 3462.22 
-1929.1 -1242.94 3462.14 
-1928.83 -1242.32 3460.89 
-1927.41 -1244.05 3461.5 
-1925.75 -1242.11 3456.68 
-1919.83 -1245.38 3456.56 
-1919.58 -1245.49 3457.58 
-1919.23 -1245.68 3459.15 
-1919.56 -1245.4 3457.89 
-1919.51 -1245.33 3458.25 
-1919.2 -1245.5 3459.6 
-1925.75 -1246.92 3453.81 
-1925.82 -1246.65 3454.13 
-1926.06 -1246.16 3454.83 
-1925.87 -1246.41 3454.35 
-1925.86 -1246.01 3454.58 
-1925.76 -1245.83 3454.52 
-1925.76 -1245.59 3454.65 
-1925.72 -1245.32 3454.75 
-1926.05 -1245.06 3455.49 
-1925.76 -1243.54 3456.02 
-1926.15 -1244.73 3455.87 
-1917.18 -1233.33 3484.36 
-1918.97 -1233.34 3478.63 
-1918.4 -1233.37 3480.44 
-1915.92 -1233.6 3488.16 
-1919.88 -1233.37 3475.7 
-1915.45 -1236.17 3488.71 
-1915.75 -1233.76 3488.55 
-1916.82 -1242.13 3489.67 
-1917.7 -1245.54 3490.38 
-1919.32 -1251.94 3491.6 
-1945.81 -1249.12 3417.84 
-1951.84 -1244.21 3414.27 
-1948.99 -1245.96 3416.01 
-1929.91 -1244.29 3440.73 
-1928.62 -1244.05 3442.41 
-1928.5 -1243.26 3442.74 
-1940.32 -1243.42 3428.17 
-1945.59 -1247.46 3418.47 
-1942.75 -1244.62 3423.19 
-1939.15 -1241.36 3429.85 
-1934.54 -1240.82 3435.53 
-1932.25 -1242.17 3438.17 
-1928.11 -1242.64 3443.43 
-1928.62 -1241.89 3442.88 
-1927.46 -1243.8 3444.07 
-1927.27 -1243.44 3444.41 
-1926.35 -1246.08 3445.1 
-1925.32 -1248.24 3453.33 
-1925.49 -1248.08 3453.37 
-1925.67 -1247.96 3453.42 
-1924.58 -1246.61 3450.62 
-1924.53 -1246.59 3451.78 
-1924.46 -1246.71 3452.59 
-1924.58 -1246.37 3449.52 
-1924.61 -1246.9 3448.71 
-1924.66 -1245.89 3447.65 
-1925.01 -1245.56 3447.08 
-1926.5 -1244.15 3445.33 
-1926.19 -1244.25 3445.73 
-1925.9 -1244.31 3446.13 
-1925.58 -1244.37 3446.56 
-1926.83 -1244 3444.89 
-1924.99 -1247.66 3453.36 
-1924.65 -1246.87 3453.49 
-1924.53 -1247.25 3453.37 
-1924.47 -1246.88 3453.02 
-1925.88 -1247.72 3453.55 
-1925.86 -1247.9 3453.41 
-1925.76 -1247.51 3453.33 
-1925.81 -1247.82 3453.13 
-1925.73 -1247.21 3453.55 
-1950.3 -1260.78 3409.4 
-1950.95 -1259.98 3408.45 
-1952.83 -1250.08 3409.9 
-1951.93 -1258.87 3407.4 
-1952.21 -1256.68 3407.95 
-1952.5 -1254.26 3408.54 
-1952.8 -1251.97 3409.06 
-1953.34 -1249.75 3409.4 
-1953.81 -1245.98 3411.17 
-1954.53 -1247.55 3409.64 
-1954.18 -1246.78 3410.37 
-1954.9 -1244.12 3411.74 
-1955.04 -1244.96 3411.09 
-1954.43 -1243.22 3412.47 
-1953.83 -1242.29 3413.24 
-1950.66 -1260.72 3408.56 
-1949.06 -1265.11 3409.52 
-1950.79 -1261.54 3407.9 
-1951.07 -1260.73 3407.77 
-1983.04 -1314.88 3549.3 
-1983.47 -1315.9 3551.29 
-1984.11 -1316.9 3548.2 
-1986.31 -1319.35 3547.09 
-1988.62 -1322.12 3532.41 
-1989.38 -1322.81 3542.92 
-1990.55 -1323.13 3529 
-1992.2 -1320.5 3551.97 
-1990.04 -1317.75 3552.35 
-1989.27 -1316.33 3552.32 
-1985.92 -1317.31 3555.51 
-1987.77 -1318.57 3558.42 
-1990.38 -1319.2 3559.86 
-1993.28 -1320.31 3537.42 
-1995.18 -1323.9 3542.21 
-1991.57 -1318 3530.66 
-1991.45 -1318.75 3524.19 
-2008.09 -1342.86 3505.04 
-2008.21 -1342.87 3503.67 
-2007.63 -1342.44 3503.05 
-2005.87 -1341.86 3518.38 
-2010.1 -1344.14 3509.18 
-1993.72 -1323.23 3520.54 
-1994.14 -1323.6 3522.85 
-1995.28 -1326.93 3520.66 
-1999.1 -1330.84 3517.36 
-1998.94 -1330.16 3519.9 
-2002.28 -1334.81 3514.73 
-2005.92 -1338.71 3514.55 
-2008.33 -1341.58 3511.16 
-1938.85 -1294.99 3452.23 
-1938.93 -1295.19 3451.77 
-1938.65 -1295.17 3451.45 
-1939.17 -1295 3452.49 
-1939.07 -1295.13 3451.24 
-1938.91 -1295.4 3451.15 
-1939.03 -1295.59 3450.73 
-1938.88 -1295.61 3450.26 
-1938.78 -1295.65 3449.87 
-1938.52 -1295.62 3449.48 
-1938.11 -1295.49 3449.34 
-1937.82 -1295.46 3448.89 
-1937.71 -1295.53 3446.9 
-1937.78 -1295.54 3446.72 
-1937.49 -1295.47 3448.05 
-1939.09 -1295.52 3448.91 
-1938.07 -1295.6 3445.98 
-1938.69 -1295.66 3447.24 
-1938.81 -1295.61 3447.73 
-1937.99 -1295.5 3446.08 
-1937.98 -1295.52 3445.95 
-1938.01 -1295.56 3446.23 
-1938.03 -1295.61 3445.77 
-1937.99 -1295.59 3446.4 
-1937.92 -1295.63 3446.68 
-1937.98 -1295.63 3446.54 
-1939.27 -1295.56 3449.27 
-1928.6 -1294.02 3421.25 
-1928.9 -1293.09 3423.22 
-1928.51 -1293.43 3421.75 
-1944.11 -1273.75 3414.6 
-1945 -1272.77 3413.62 
-1945.14 -1271.35 3412.68 
-1946.15 -1269.13 3412.06 
-1948.93 -1265.34 3409.35 
-1947.73 -1267.2 3411.74 
-1939.27 -1278.76 3418.26 
-1938.77 -1279.35 3418.63 
-1939.89 -1277.97 3417.56 
-1940.39 -1277.32 3417.6 
-1942.62 -1276.02 3415.86 
-1942.93 -1275.66 3415.73 
-1930.69 -1291.24 3421.49 
-1929.4 -1291.81 3420.88 
-1929.06 -1292.07 3420.95 
-1928.92 -1294.04 3421.18 
-1929.07 -1294.02 3421.14 
-1929.15 -1293.88 3421.05 
-1929.02 -1293.56 3420.78 
-1928.92 -1293.32 3420.5 
-1937.9 -1280.53 3419.14 
-1934.65 -1286.26 3421.53 
-1931.38 -1290.42 3421.32 
-1928.79 -1294.1 3421.21 
-1942.26 -1300.07 3443.86 
-1942.61 -1301.51 3441.93 
-1942.59 -1301.28 3442.34 
-1944.05 -1303.56 3441.77 
-1943.94 -1303.54 3441.13 
-1941.35 -1300.23 3440.29 
-1942.2 -1300.72 3442.11 
-1941.8 -1299.89 3442.36 
-1942.05 -1300.06 3442.93 
-1941.72 -1299.34 3443.42 
-1940 -1297.6 3437.01 
-1940.11 -1297.44 3439.07 
-1939.66 -1296.62 3445.85 
-1939.25 -1296.69 3444.57 
-1939.24 -1296.71 3444.37 
-1941.29 -1296.37 3450.83 
-1940.71 -1296.37 3449.4 
-1940.15 -1296.32 3448.21 
-1939.86 -1296.42 3447.13 
-1939.57 -1296.49 3446.13 
-1941.75 -1296.26 3452.52 
-1942.02 -1296.39 3452.62 
-1942.06 -1296.92 3451.52 
-1941.48 -1297.78 3448.3 
-1941.18 -1296.86 3449.33 
-1940.44 -1297.57 3445.87 
-1939.33 -1296.74 3444.42 
-1939.36 -1296.71 3444.55 
-1939.52 -1296.86 3444.37 
-1939.54 -1296.82 3444.49 
-1939.49 -1296.71 3444.76 
-1939.4 -1296.59 3444.98 
-1940.48 -1297.75 3442.43 
-1940.3 -1297.55 3440.25 
-1940.12 -1297.43 3438.17 
-1915.95 -1272.41 3430.63 
-1919.56 -1274.91 3426.55 
-1926.36 -1282.08 3422.08 
-1927.11 -1283.75 3421.19 
-1922.03 -1318.22 3442.39 
-1922.9 -1315.15 3448.07 
-1923.25 -1313.26 3449.02 
-1923.35 -1311.68 3451.37 
-1921.94 -1318.39 3441.59 
-1923.26 -1310.64 3452.64 
-1923.53 -1308.99 3452.71 
-1921.88 -1318.46 3440.84 
-1921.83 -1318.46 3440.1 
-1922.38 -1313.96 3437.93 
-1922.35 -1315.22 3438.72 
-1921.36 -1317.13 3437.49 
-1920.03 -1319.11 3435.74 
-1920.16 -1318.99 3435.59 
-1919.85 -1319.34 3435.78 
-1918.95 -1320.35 3435.46 
-1919.07 -1320.18 3435.43 
-1919.21 -1320.02 3435.35 
-1919.4 -1319.83 3435.23 
-1922.13 -1315.58 3438.13 
-1921.93 -1317.11 3438.58 
-1921.82 -1318.15 3439.27 
-1921.51 -1313.86 3442.57 
-1920.1 -1317.6 3439.51 
-1918.82 -1320.41 3436.45 
-1918.91 -1320.36 3436.33 
-1919.15 -1320.08 3436.46 
-1918.85 -1320.48 3435.6 
-1922.24 -1306.99 3458.14 
-1923.44 -1306.8 3454.61 
-1921.96 -1307.37 3458.18 
-1923.44 -1308.37 3453.78 
-1923.49 -1308.2 3447.37 
-1922.91 -1307.86 3451.79 
-1921.02 -1308.8 3456.68 
-1919.95 -1310.24 3458.52 
-1918.04 -1312.29 3461.49 
-1918.01 -1312.47 3461.19 
-1920.49 -1309.16 3460.19 
-1917.79 -1311.93 3462.99 
-1917.81 -1312.06 3462.69 
-1917.71 -1312.33 3462.44 
-1916.92 -1312.56 3464.25 
-1916.8 -1312.65 3464.4 
-1928.82 -1293.17 3423.61 
-1928.51 -1293.37 3422.29 
-1928.51 -1294.37 3421.71 
-1929.03 -1295.53 3421.24 
-1929.11 -1295.76 3421.08 
-1928.94 -1295.74 3420.74 
-1929.01 -1295.7 3420.86 
-1928.18 -1295.25 3419.45 
-1928.23 -1295.15 3419.52 
-1928.4 -1295.38 3419.92 
-1928.31 -1295.26 3419.72 
-1928.52 -1295.42 3420.11 
-1928.57 -1295.35 3420.19 
-1928.74 -1295.53 3420.45 
-1927.7 -1293.94 3417.03 
-1927.8 -1295.16 3416.75 
-1928.02 -1295.88 3418.58 
-1928.09 -1295.01 3419.21 
-1927.37 -1287.37 3419.03 
-1927.37 -1287.41 3418.21 
-1927.39 -1287.26 3418.51 
-1927.17 -1286.55 3419.59 
-1927.38 -1286.81 3419.03 
-1927.2 -1285.84 3419.76 
-1927.39 -1287.56 3417.92 
-1927.29 -1288.02 3417.91 
-1927.23 -1288.48 3417.93 
-1926.98 -1289 3417.53 
-1927.16 -1288.88 3417.18 
-1927.16 -1288.96 3417.51 
-1927.2 -1289.17 3416.82 
-1927.35 -1290.58 3417.05 
-1927.31 -1290.18 3417.4 
-1927.52 -1292.39 3416.76 
-1927.06 -1284.38 3420.95 
-1928.21 -1282.59 3420.32 
-1927.08 -1285.17 3420.55 
-1928.13 -1283.26 3420.17 
-1928.08 -1283.93 3419.96 
-1927.27 -1285.46 3420 
-1912.01 -1241.89 3484.18 
-1915.34 -1241.68 3488.92 
-1910.76 -1243.31 3482.42 
-1908.55 -1247.29 3477.29 
-1910.58 -1245.58 3476.13 
-1908.75 -1249.72 3471.24 
-1910.22 -1250.72 3465.4 
-1910.77 -1253.05 3458.77 
-1909.37 -1254.51 3458.85 
-1911.39 -1254.8 3453.87 
-1915.42 -1254.26 3451.74 
-1922.27 -1252.7 3449.21 
-1920.11 -1252.73 3450.26 
-1922.98 -1253.2 3448.54 
-1923.46 -1253.46 3448.01 
-1923.72 -1253.67 3447.55 
-1924.62 -1258.94 3441 
-1926.54 -1253.24 3441.58 
-1926.15 -1250.4 3444.6 
-1924.4 -1251.72 3447.49 
-1924.77 -1252.25 3446.62 
-1923.46 -1261.63 3441.48 
-1918.47 -1264.13 3443.94 
-1916.04 -1267.98 3438.55 
-2010.15 -1342.74 3535.79 
-2007.17 -1339.71 3534.75 
-2004.55 -1337.03 3533.91 
-2001.73 -1334.17 3532.92 
-1998.16 -1330.54 3531.65 
-2010.06 -1343.74 3531.22 
-2012.01 -1345.72 3522.86 
-2013.35 -1346.25 3534.24 
-2014.61 -1347.04 3537.25 
-1995.13 -1327.47 3530.69 
-2022.69 -1517.97 3528.84 
-2022.75 -1517.75 3529.39 
-2023.02 -1517.35 3528.32 
-2023.06 -1517.11 3529.03 
-2022.99 -1517.16 3529.76 
-1924.5 -1233.75 3461.91 
-1925.81 -1227.37 3462.27 
-1925.48 -1229.16 3461.75 
-1925.97 -1227.67 3462.92 
-1926.02 -1227.58 3461.64 
-1925.75 -1231.44 3459.78 
-1924.57 -1233.73 3461.56 
-1924.08 -1232.5 3464.09 
-1922.65 -1233.57 3466.74 
-1922.33 -1233.71 3467.61 
-1921.06 -1233.56 3471.79 
-1924.16 -1234.52 3461.5 
-1924.45 -1231.65 3468.16 
-1924.02 -1233.87 3465.77 
-1923.54 -1237.38 3467.59 
-1922.42 -1242.3 3467.06 
-1920.18 -1244.43 3464.21 
-1923.72 -1235.95 3463.97 
-1923.73 -1235.61 3463.76 
-1923.75 -1235.11 3463.62 
-1923.81 -1234.6 3463.96 
-1918.81 -1245.49 3462.02 
-1923.64 -1235.43 3462.07 
-1923.66 -1235.48 3462.69 
-1923.7 -1235.37 3461.78 
-1923.65 -1235.78 3460.85 
-1923.74 -1235.63 3460.76 
-1923.82 -1235.49 3460.67 
-1923.92 -1235.32 3460.59 
-1924.02 -1235.16 3460.51 
-1919.1 -1245.42 3460.3 
-1918.99 -1245.37 3461.01 
-1919.85 -1249 3455.73 
-1921.15 -1248.41 3456.84 
-1924.49 -1246.65 3459.57 
-1926.53 -1245.35 3461.03 
-1919.9 -1246.81 3455.97 
-1919.9 -1246.34 3456.03 
-1919.83 -1247.4 3455.92 
-1919.97 -1245.76 3456.01 
-1919.81 -1248.14 3455.83 
-1920.07 -1245.38 3455.96 
-1920.12 -1245.2 3455.96 
-1926.54 -1244.81 3460.47 
-1928.17 -1242.47 3460.19 
-1927.93 -1243.4 3460.83 
-1925.51 -1242.37 3456.24 
-1926.5 -1244.35 3459.69 
-1925.79 -1243.86 3455.84 
-1919.85 -1245.19 3456.82 
-1920.12 -1244.97 3456.08 
-1920.21 -1244.96 3455.96 
-1919.45 -1245.26 3458.71 
-1919.8 -1245.12 3457.24 
-1919.73 -1245.08 3457.68 
-1919.37 -1245.14 3459.34 
-1925.64 -1246.89 3453.51 
-1925.69 -1247.24 3453.24 
-1925.61 -1246.59 3453.71 
-1925.67 -1246.28 3454.07 
-1925.53 -1246.15 3453.86 
-1925.48 -1245.88 3453.94 
-1925.49 -1245.59 3454.17 
-1925.82 -1244.98 3455.14 
-1925.38 -1245.52 3453.93 
-1925.52 -1245.22 3454.47 
-1925.87 -1244.72 3455.38 
-1918.5 -1233.51 3480.01 
-1917.54 -1233.5 3483.07 
-1920.27 -1233.56 3474.33 
-1919.59 -1233.58 3476.47 
-1917.09 -1233.57 3484.46 
-1915.5 -1236.38 3488.85 
-1915.7 -1233.85 3488.63 
-1915.7 -1237.3 3489.07 
-1917.33 -1243.95 3490.24 
-1918.8 -1249.77 3491.35 
-1952.42 -1242.24 3414.69 
-1955.34 -1239.62 3413.8 
-1952.07 -1241.91 3415.08 
-1950.85 -1242.52 3415.57 
-1930.42 -1242.51 3440.4 
-1929.45 -1241.93 3441.72 
-1929.18 -1241.63 3442.16 
-1929.18 -1240.73 3442.36 
-1944.81 -1246.38 3419.39 
-1950.67 -1242.19 3415.74 
-1941.88 -1242.81 3424.57 
-1938.61 -1239.22 3430.63 
-1933.01 -1240.42 3437.51 
-1935.41 -1238.97 3434.76 
-1928.86 -1240.29 3442.9 
-1928.15 -1241.66 3443.59 
-1929.5 -1238.98 3442.3 
-1928.05 -1241.02 3443.86 
-1927.63 -1241.51 3444.35 
-1925.16 -1247.39 3453.44 
-1925.34 -1247.15 3453.51 
-1925.69 -1247.53 3453.34 
-1924.52 -1245.51 3450.29 
-1924.37 -1245.15 3451.46 
-1924.28 -1245.16 3452.15 
-1924.36 -1245.76 3452.58 
-1924.55 -1245.78 3448.29 
-1924.53 -1245.38 3449.11 
-1925.36 -1243.74 3447 
-1924.95 -1244.12 3447.49 
-1925.9 -1242.7 3446.48 
-1927.23 -1241.98 3444.79 
-1926.96 -1241.99 3445.16 
-1926.64 -1242.19 3445.57 
-1926.29 -1242.41 3446.01 
-1924.81 -1246.59 3453.57 
-1924.34 -1246.2 3453.53 
-1924.45 -1245.82 3453.69 
-1924.35 -1245.84 3453.02 
-1925.84 -1247.95 3453.04 
-1925.78 -1247.87 3452.81 
-1925.73 -1247.56 3453.03 
-1925.82 -1248.06 3452.67 
-1951.6 -1259.81 3407.43 
-1952.61 -1258.27 3406.5 
-1952.76 -1256.07 3407.25 
-1953.12 -1253.36 3407.87 
-1953.54 -1251.38 3408.29 
-1953.68 -1250.22 3408.77 
-1954.88 -1248.25 3408.9 
-1955.24 -1245.66 3410.47 
-1956.29 -1247.2 3408.74 
-1956.42 -1246.55 3409.14 
-1955.8 -1246.15 3409.79 
-1955.92 -1244.3 3410.9 
-1955.51 -1242.78 3411.63 
-1956.17 -1245.24 3410.24 
-1955.13 -1241.29 3412.53 
-1951.06 -1261.7 3407.17 
-1951.59 -1260.67 3406.89 
-1952.06 -1259.8 3406.62 
-1986.41 -1318.14 3558.15 
-1986.23 -1318.6 3558.78 
-1987.56 -1320.29 3556.95 
-1987.51 -1320.39 3553.73 
-1990.47 -1323.57 3554.84 
-1993.04 -1326.84 3537.67 
-1993.78 -1327.32 3549.67 
-1995.75 -1329.23 3535.28 
-1998.07 -1329.63 3550.83 
-1994.85 -1325.48 3559.25 
-1993.21 -1323.55 3563.72 
-1991.49 -1320.86 3561.22 
-1989.29 -1320.33 3563.44 
-1992.14 -1322.31 3567.92 
-1993.59 -1323.91 3570.17 
-1999.53 -1330.96 3539.32 
-1997.7 -1327.94 3532.17 
-1995.86 -1325.21 3525.91 
-2011.75 -1345.25 3516.09 
-2009.01 -1341.9 3514.38 
-1997.76 -1328.45 3522.26 
-2005.35 -1337.85 3516.37 
-2005.31 -1337.32 3521.36 
-2006.11 -1338.43 3518.88 
-1939.29 -1295.22 3452.21 
-1939.27 -1295.39 3451.7 
-1939.6 -1295.22 3452.45 
-1939.54 -1295.36 3451.16 
-1939.34 -1295.57 3451.28 
-1939.52 -1295.73 3451.01 
-1939.31 -1295.72 3450.62 
-1939.22 -1295.75 3450.23 
-1939.14 -1295.79 3449.88 
-1938.87 -1295.76 3449.48 
-1938.6 -1295.73 3449.08 
-1938.25 -1295.6 3449.07 
-1937.94 -1295.55 3448.65 
-1937.77 -1295.61 3446.99 
-1937.85 -1295.63 3446.83 
-1937.73 -1295.6 3447.86 
-1938.21 -1295.72 3445.84 
-1938.92 -1295.78 3447.36 
-1938.12 -1295.59 3446.04 
-1938.14 -1295.64 3445.87 
-1938.17 -1295.65 3446.13 
-1938.12 -1295.65 3446.27 
-1938.18 -1295.73 3445.63 
-1938.11 -1295.7 3446.42 
-1937.97 -1295.72 3446.84 
-1938.04 -1295.73 3446.69 
-1938.1 -1295.73 3446.55 
-1939.62 -1295.66 3449.64 
-1939.42 -1295.81 3448.47 
-1928.57 -1294.14 3421.26 
-1928.65 -1294.67 3420.75 
-1928.7 -1295 3420.7 
-1928.79 -1295.16 3420.8 
-1928.63 -1294.78 3420.99 
-1928.47 -1293.47 3421.92 
-1928.49 -1294.23 3421.34 
-1945.19 -1273.48 3413.36 
-1945.37 -1272.05 3412.47 
-1946.12 -1269.39 3411.54 
-1946.17 -1269.21 3411.74 
-1947.42 -1267.43 3411.53 
-1948.73 -1265.7 3409.37 
-1947.7 -1267.22 3411.43 
-1951.22 -1261.73 3406.68 
-1939.25 -1278.5 3417.77 
-1938.69 -1279.2 3418.25 
-1939.95 -1277.64 3417.1 
-1940.46 -1276.96 3417.09 
-1942.69 -1276.42 3415.42 
-1942.83 -1276.1 3415.48 
-1929.77 -1291.54 3420.76 
-1929.05 -1292.05 3420.33 
-1928.79 -1292.95 3419.97 
-1928.86 -1293.13 3420.2 
-1928.72 -1294.74 3420.62 
-1928.84 -1294.74 3420.55 
-1928.74 -1294.63 3420.29 
-1928.66 -1294.36 3420.05 
-1928.63 -1294.07 3419.86 
-1937.58 -1280.78 3418.93 
-1934.93 -1285.66 3421.14 
-1932.09 -1289.14 3421.39 
-1930.2 -1291.13 3420.63 
-1942.17 -1301.01 3441.37 
-1941.83 -1300.23 3441.76 
-1943.36 -1302.77 3440.94 
-1943.62 -1302.94 3439.86 
-1941.33 -1300.51 3438.75 
-1941.1 -1300.1 3439.33 
-1940.81 -1298.61 3440.53 
-1940.76 -1298.12 3442.01 
-1941.12 -1298.55 3442.84 
-1939.98 -1297.59 3435.49 
-1939.08 -1296.54 3444.73 
-1939.09 -1296.58 3444.53 
-1939.18 -1296.62 3444.56 
-1941.37 -1296.12 3452.24 
-1940.7 -1296.25 3449.87 
-1940.08 -1296.18 3448.63 
-1939.68 -1296.26 3447.32 
-1939.4 -1296.34 3446.31 
-1938.96 -1296.4 3444.96 
-1941.63 -1296.27 3452.43 
-1941.17 -1296.39 3450.35 
-1941.26 -1296.34 3450.99 
-1939.96 -1296.98 3445.84 
-1940.67 -1296.98 3447.75 
-1940.28 -1296.39 3448.02 
-1939.37 -1296.51 3445.15 
-1939.18 -1296.57 3444.71 
-1939.22 -1296.54 3444.84 
-1939.38 -1296.67 3444.71 
-1939.28 -1296.53 3444.97 
-1939.25 -1296.43 3445.2 
-1940.12 -1297.4 3437.11 
-1917.77 -1270.97 3431.37 
-1923.64 -1274.28 3425.87 
-1927.94 -1279.69 3420.47 
-1926.31 -1278.73 3423.18 
-1928.15 -1281.77 3420.64 
-1928.21 -1282.14 3420.47 
-1921.9 -1319.39 3443.1 
-1921.8 -1319.61 3442.19 
-1922.79 -1316.13 3448.67 
-1922.88 -1314.91 3451.34 
-1923.12 -1313.27 3451.31 
-1923.07 -1312.22 3452.59 
-1921.72 -1319.78 3441.42 
-1922.96 -1311.49 3453.88 
-1923.24 -1309.85 3453.64 
-1921.65 -1319.88 3440.72 
-1921.63 -1319.71 3439.98 
-1922.24 -1314.61 3437.46 
-1922.27 -1315.46 3438.15 
-1921.33 -1317.26 3437.01 
-1920.28 -1318.87 3435.41 
-1919.51 -1319.69 3435.04 
-1919.68 -1319.51 3434.92 
-1918.4 -1320.82 3433.08 
-1918.69 -1320.6 3433.22 
-1918.9 -1320.41 3433.48 
-1919.01 -1320.21 3433.58 
-1919.12 -1320.03 3433.69 
-1919.24 -1319.94 3435.14 
-1921.99 -1316.35 3437.73 
-1921.67 -1318.81 3438.66 
-1921.78 -1317.87 3438.06 
-1921.6 -1319.61 3439.33 
-1921.18 -1314.27 3442.7 
-1919.71 -1317.88 3439.62 
-1918.64 -1320.51 3436.64 
-1916.96 -1321.76 3432.9 
-1917.77 -1321.27 3433.41 
-1918.09 -1321.03 3433.3 
-1923.29 -1306.71 3455.61 
-1922.2 -1306.98 3458.68 
-1920.76 -1308.81 3460.2 
-1923.21 -1309.11 3454.47 
-1923.28 -1308.12 3454.91 
-1923.2 -1308.64 3447.69 
-1922.56 -1308.17 3452.29 
-1919.56 -1310.81 3458.51 
-1920.52 -1309.52 3456.8 
-1917.85 -1312.77 3461.04 
-1916.86 -1312.85 3463.84 
-1916.85 -1313.01 3463.54 
-1917.85 -1311.75 3463.19 
-1916.85 -1312.02 3465.58 
-1916.79 -1312.16 3465.47 
-1916.8 -1312.33 3465.06 
-1916.58 -1312.31 3465.83 
-1916.49 -1312.44 3465.86 
-1928.51 -1294.32 3421.42 
-1928.89 -1295.28 3421.16 
-1928.99 -1295.52 3420.98 
-1928.85 -1295.55 3420.61 
-1928.9 -1295.5 3420.7 
-1928.14 -1294.94 3419.31 
-1928.16 -1294.79 3419.33 
-1928.25 -1294.96 3419.53 
-1928.42 -1295.22 3419.92 
-1928.33 -1295.07 3419.72 
-1928.45 -1295.09 3419.95 
-1928.53 -1295.17 3420.13 
-1928.71 -1295.36 3420.4 
-1927.56 -1293.58 3415.95 
-1927.69 -1294.95 3415.81 
-1927.94 -1295.85 3417.91 
-1928.05 -1295.28 3419.05 
-1928.07 -1294.63 3419.11 
-1927.42 -1287.09 3418.68 
-1927.83 -1287.01 3418.29 
-1927.68 -1286.9 3418.32 
-1927.53 -1286.76 3418.43 
-1927.42 -1286.26 3419 
-1927.41 -1285.9 3419.35 
-1927.6 -1286.27 3418.67 
-1928.19 -1284.12 3419.71 
-1927.8 -1287.31 3418.06 
-1928.05 -1287.02 3418.34 
-1927.39 -1287.94 3417.56 
-1927.25 -1288.32 3417.36 
-1927.29 -1288.42 3417.17 
-1927.45 -1288.42 3417.11 
-1927.34 -1289.36 3416.55 
-1927.94 -1288.08 3417.49 
-1927.37 -1291.52 3416.15 
-1929.24 -1279.32 3418.47 
-1928.98 -1279.28 3418.63 
-1929.23 -1281.2 3419.58 
-1929.12 -1281.57 3419.6 
-1929.13 -1281.9 3419.55 
-1912.69 -1240.05 3485.24 
-1914.1 -1238.74 3486.66 
-1913.45 -1240.98 3479.52 
-1912.37 -1243.6 3476.25 
-1910.39 -1248.01 3471.11 
-1912.22 -1246.32 3470.46 
-1912 -1248.94 3465.09 
-1912.23 -1251.62 3458.44 
-1915.13 -1251.37 3453.36 
-1913.25 -1253.09 3453.57 
-1915.57 -1253.21 3452.17 
-1919.89 -1251.77 3450.82 
-1923.17 -1250.49 3449.65 
-1923.63 -1250.09 3449.28 
-1923.82 -1250.45 3448.86 
-1924.02 -1250.78 3448.43 
-1924.24 -1251.13 3447.98 
-1927.53 -1260.83 3434 
-1928.57 -1258.34 3433.65 
-1927.37 -1251.94 3440.11 
-1926.47 -1248.99 3444.87 
-1925.75 -1249.08 3446.63 
-1924.77 -1252.25 3446.62 
-1925.98 -1248.6 3446.43 
-1924.94 -1249.08 3447.95 
-1925.07 -1249.7 3447.48 
-1925.35 -1250.15 3446.82 
-1921.84 -1264.66 3441.32 
-1923.87 -1262.94 3439.99 
-1926.81 -1263.54 3433.25 
-2014.95 -1347.21 3538.22 
-2011.09 -1343.59 3536.62 
-2009.83 -1342.26 3536.38 
-2008.24 -1340.6 3536.01 
-2004.16 -1336.5 3534.39 
-2001.64 -1333.91 3533.58 
-2014.35 -1346.72 3531.53 
-2012.75 -1345.29 3524.73 
-2014.46 -1346.08 3535.57 
-2014.83 -1346.32 3537.36 
-2000.01 -1332.24 3533.11 
-1998.5 -1331.23 3534.33 
-2022.72 -1517.66 3529.18 
-2023 -1517.19 3528.57 
-2022.93 -1517.13 3528.99 
-2022.96 -1517.08 3529.64 
-1924.25 -1234.41 3461.31 
-1926.09 -1228.05 3459.5 
-1926.14 -1227.91 3458.46 
-1925.4 -1230.12 3460.52 
-1925.69 -1231.62 3459.54 
-1925.95 -1230.9 3458.67 
-1924.63 -1233.74 3461.17 
-1924.34 -1234.28 3461.16 
-1925.16 -1231.54 3460 
-1923.82 -1233.62 3463.09 
-1923.94 -1233.97 3462.24 
-1923.44 -1234.01 3463.79 
-1921.72 -1233.76 3469.5 
-1924.11 -1235 3460.44 
-1923.55 -1237.72 3466.15 
-1920.26 -1244.06 3463.86 
-1922.66 -1241.7 3466.59 
-1918.96 -1245.08 3462.24 
-1923.3 -1236.83 3461.54 
-1923.19 -1237.15 3461.51 
-1923.08 -1237.46 3461.47 
-1923.68 -1235.7 3463.07 
-1918.98 -1245.18 3461.38 
-1923.56 -1235.93 3460.92 
-1923.48 -1236.14 3461.01 
-1923.42 -1236.37 3461.18 
-1923.35 -1236.63 3461.33 
-1923.61 -1236.05 3460.5 
-1923.71 -1235.89 3460.41 
-1923.79 -1235.74 3460.34 
-1923.88 -1235.58 3460.29 
-1923.98 -1235.42 3460.18 
-1924.07 -1235.28 3460.09 
-1919.27 -1245.1 3459.9 
-1919.22 -1245.01 3460.28 
-1920.11 -1249.02 3455.5 
-1921.18 -1248.65 3455.49 
-1923.09 -1247.55 3457.62 
-1925.81 -1246.02 3459.64 
-1926.01 -1245.38 3459.32 
-1920.21 -1246.36 3455.69 
-1920.24 -1245.91 3455.68 
-1920.28 -1245.46 3455.65 
-1920.03 -1247.15 3455.8 
-1920.38 -1245.14 3455.6 
-1920.08 -1247.96 3455.62 
-1920.46 -1244.95 3455.58 
-1920.5 -1244.67 3455.67 
-1925.88 -1244.91 3458.38 
-1927.86 -1242.79 3459.55 
-1925.48 -1242.71 3455.97 
-1927.26 -1243.48 3459.3 
-1925.78 -1244.12 3455.62 
-1925.99 -1244.31 3458.08 
-1920.07 -1244.91 3456.32 
-1920.34 -1244.81 3455.83 
-1920.4 -1244.59 3455.82 
-1920.32 -1244.62 3455.93 
-1919.7 -1245 3457.96 
-1919.65 -1244.96 3458.31 
-1919.96 -1244.88 3456.92 
-1919.63 -1244.89 3458.51 
-1919.64 -1244.77 3458.61 
-1925.66 -1247.2 3453.05 
-1925.61 -1246.88 3453.26 
-1925.71 -1247.58 3452.75 
-1925.56 -1246.52 3453.53 
-1925.53 -1246.51 3453.3 
-1925.49 -1246.21 3453.53 
-1925.46 -1246.14 3453.39 
-1925.42 -1245.83 3453.7 
-1925.52 -1245 3454.58 
-1925.41 -1245.97 3453.32 
-1925.37 -1245.65 3453.57 
-1925.33 -1245.28 3453.98 
-1925.59 -1244.67 3454.92 
-1920.26 -1233.79 3474.14 
-1918.99 -1233.69 3478.3 
-1918.35 -1233.74 3480.29 
-1921.04 -1233.78 3471.67 
-1917.9 -1233.81 3481.68 
-1916.84 -1233.67 3485.18 
-1915.71 -1233.93 3488.55 
-1915.56 -1236.61 3489.09 
-1915.74 -1234.01 3488.37 
-1917.03 -1242.65 3490.13 
-1918.08 -1246.79 3490.96 
-1956.3 -1237.68 3414.76 
-1957.91 -1237.55 3413.03 
-1959.12 -1235.28 3414.01 
-1956.09 -1238.18 3414.68 
-1931.3 -1240.55 3439.63 
-1930.28 -1239.78 3441.06 
-1929.86 -1239.83 3441.61 
-1929.92 -1238.72 3441.78 
-1944.21 -1245.09 3420.2 
-1947.09 -1243.36 3418.22 
-1948.85 -1241.52 3417.27 
-1952.17 -1242.33 3414.26 
-1956.36 -1238.23 3414.52 
-1941.85 -1242.56 3424.06 
-1940.57 -1240.13 3426.92 
-1938.5 -1237.35 3431.01 
-1934.03 -1238.5 3436.57 
-1936.46 -1237.09 3433.76 
-1929.49 -1237.89 3442.56 
-1928.76 -1239.62 3443.2 
-1930.33 -1236.74 3441.65 
-1930.04 -1236.8 3442.04 
-1928.73 -1238.64 3443.45 
-1928.28 -1239.2 3443.95 
-1927.84 -1239.71 3444.46 
-1925 -1246.41 3453.61 
-1925.41 -1246.92 3453.34 
-1925.79 -1247.56 3453.07 
-1924.45 -1244.37 3450.05 
-1924.18 -1243.61 3451.12 
-1924.13 -1243.77 3451.73 
-1924.22 -1244.47 3452.19 
-1924.58 -1244.48 3448.06 
-1924.47 -1244.41 3448.86 
-1926.16 -1241.19 3446.46 
-1925.69 -1241.9 3446.95 
-1925.28 -1242.33 3447.43 
-1926.61 -1240.68 3445.94 
-1927.47 -1239.86 3444.93 
-1927.01 -1240.36 3445.45 
-1924.68 -1245.73 3453.68 
-1924.17 -1245.15 3453.69 
-1924.38 -1245.11 3453.74 
-1924.25 -1244.66 3452.51 
-1924.21 -1244.89 3453.14 
-1925.82 -1247.83 3452.79 
-1925.79 -1248.15 3452.31 
-1925.75 -1247.91 3452.51 
-1925.8 -1247.9 3452.44 
-1953.01 -1258.48 3405.68 
-1953.47 -1254.66 3406.7 
-1953.56 -1255.7 3406.04 
-1953.54 -1253.21 3407.29 
-1954.18 -1251.51 3407.58 
-1955.24 -1249.05 3408.14 
-1956.51 -1247.85 3408.14 
-1957.51 -1247.24 3408.01 
-1957.64 -1246.39 3408.55 
-1956.92 -1245.77 3409.42 
-1957.02 -1244.55 3409.9 
-1956.58 -1243 3410.63 
-1956.28 -1241.28 3411.36 
-1958.29 -1238.19 3411.93 
-1952.08 -1260.63 3406.05 
-1952.54 -1259.8 3405.78 
-1988.96 -1320.59 3564.83 
-1989.08 -1321.37 3566.23 
-1990.13 -1322.8 3563.54 
-1991.18 -1324.07 3561.04 
-1994.7 -1327.87 3562.32 
-1997.61 -1331.58 3545.36 
-1998.16 -1331.78 3557.02 
-2001.23 -1335.37 3542.1 
-1999.51 -1331.64 3566.65 
-1996.36 -1327.55 3570.8 
-2002.21 -1335.48 3542.82 
-2005.15 -1339.05 3552.06 
-2004.17 -1337.71 3558.61 
-1994.08 -1324.6 3570.12 
-1997.3 -1328.49 3576.73 
-1993.71 -1324.4 3573.74 
-1991.31 -1322.4 3569.22 
-1995.13 -1325.96 3576.42 
-1998.04 -1329.61 3581.76 
-1997.95 -1329.25 3580.21 
-2003.32 -1335.54 3534.17 
-2002.45 -1334.03 3529.75 
-2001.19 -1332.25 3525.39 
-2010.45 -1343.15 3517.71 
-2007.88 -1340.03 3523.42 
-2010.95 -1343.11 3523.98 
-1939.78 -1295.4 3452.37 
-1939.62 -1295.48 3451.92 
-1939.84 -1295.74 3451.47 
-1940.09 -1295.43 3452.6 
-1939.97 -1295.52 3451.53 
-1939.91 -1295.74 3450.05 
-1939.84 -1295.86 3450.95 
-1939.62 -1295.85 3450.54 
-1939.63 -1295.92 3450.18 
-1939.31 -1295.89 3449.68 
-1938.99 -1295.86 3449.2 
-1938.68 -1295.82 3448.74 
-1938.28 -1295.67 3448.7 
-1937.88 -1295.7 3446.97 
-1937.9 -1295.75 3447.09 
-1937.9 -1295.72 3447.74 
-1938.28 -1295.73 3448.4 
-1938.34 -1295.84 3445.66 
-1938.97 -1295.9 3447 
-1939.42 -1295.91 3448.06 
-1938.26 -1295.71 3445.84 
-1938.31 -1295.72 3445.98 
-1938.21 -1295.64 3446 
-1938.33 -1295.83 3445.59 
-1938.27 -1295.75 3446.17 
-1938.22 -1295.75 3446.31 
-1938.3 -1295.86 3445.45 
-1938.25 -1295.82 3446.45 
-1938.02 -1295.81 3446.97 
-1938.09 -1295.81 3446.8 
-1938.17 -1295.82 3446.63 
-1939.86 -1295.92 3449.12 
-1928.73 -1295.1 3420.53 
-1928.8 -1295.32 3420.55 
-1928.88 -1295.31 3420.9 
-1928.74 -1294.98 3421.09 
-1945.46 -1273.94 3412.95 
-1945.6 -1272.34 3412.03 
-1946.16 -1269.44 3411.28 
-1947.35 -1267.44 3411.28 
-1948.55 -1265.98 3409.27 
-1951.08 -1262.01 3406.47 
-1952.58 -1260.47 3405.23 
-1939.53 -1277.97 3417.04 
-1938.97 -1278.44 3417.58 
-1938.47 -1279.19 3417.99 
-1940.16 -1277.18 3416.53 
-1940.45 -1276.88 3416.7 
-1942.65 -1276.64 3415.24 
-1944.98 -1275.17 3413.48 
-1929.19 -1291.86 3420.14 
-1928.75 -1292.66 3419.47 
-1928.77 -1292.79 3419.66 
-1928.52 -1294.13 3419.75 
-1928.57 -1293.63 3419.57 
-1928.65 -1295.01 3420.36 
-1928.57 -1294.85 3420.15 
-1928.52 -1294.61 3419.97 
-1937.39 -1280.53 3418.48 
-1934.64 -1285.81 3420.92 
-1934.66 -1285.33 3420.46 
-1932.47 -1288.38 3421.33 
-1931.07 -1289.9 3420.68 
-1929.8 -1291.3 3420.15 
-1929.22 -1291.67 3419.95 
-1942.41 -1301.51 3439.19 
-1942.05 -1301.03 3439.47 
-1941.07 -1299.78 3438.98 
-1939.98 -1297.63 3434.27 
-1938.95 -1296.45 3444.7 
-1939.04 -1296.48 3444.75 
-1940.91 -1296.16 3450.73 
-1941.23 -1296.11 3451.73 
-1940.96 -1295.84 3452.66 
-1941.15 -1296.07 3452.42 
-1940.43 -1296.1 3449.79 
-1939.8 -1296.03 3448.51 
-1939.47 -1296.13 3447.32 
-1939.18 -1296.2 3446.31 
-1938.77 -1296.26 3445.08 
-1938.78 -1296.3 3444.89 
-1941.13 -1296.3 3451.07 
-1941.21 -1296.19 3452 
-1940.34 -1296.35 3448.51 
-1940.34 -1296.32 3448.8 
-1939.57 -1296.46 3445.96 
-1939.28 -1296.41 3445.33 
-1939.38 -1296.34 3446 
-1939.02 -1296.4 3444.95 
-1939.09 -1296.4 3445.07 
-1939.12 -1296.36 3445.22 
-1939.1 -1296.28 3445.42 
-1925.89 -1274.03 3426.55 
-1921.13 -1269.41 3432.84 
-1928.62 -1278.83 3423.39 
-1928.7 -1279.15 3419.09 
-1928.93 -1278.7 3420.09 
-1929.3 -1277.32 3418.97 
-1930.37 -1274.91 3418.6 
-1929.11 -1276.01 3418.97 
-1928.79 -1279.28 3418.87 
-1922.58 -1317.38 3448.82 
-1921.69 -1320.96 3443.57 
-1921.65 -1320.83 3442.78 
-1921.58 -1320.94 3441.98 
-1922.86 -1313.82 3452.41 
-1922.59 -1314.87 3453.08 
-1922.6 -1315.97 3452.03 
-1922.75 -1313.14 3453.65 
-1921.47 -1321.34 3441.25 
-1922.59 -1312.81 3454.89 
-1922.73 -1311.37 3455.35 
-1923.01 -1310.12 3454.78 
-1921.45 -1321.11 3440.44 
-1921.41 -1321.04 3439.74 
-1922.12 -1315.2 3437.03 
-1922.14 -1315.71 3437.51 
-1921.39 -1317.26 3436.68 
-1920.43 -1318.73 3435.22 
-1919.92 -1319.28 3434.81 
-1919.24 -1319.87 3433.83 
-1919.35 -1319.71 3433.92 
-1919.69 -1319.46 3434.7 
-1916.83 -1320.87 3430.18 
-1917.31 -1320.57 3430.39 
-1917.83 -1320.33 3430.82 
-1918.12 -1320.04 3430.79 
-1918.53 -1319.8 3431.09 
-1921.87 -1316.84 3437.16 
-1921.5 -1319.73 3438.14 
-1921.44 -1320.44 3438.86 
-1921.68 -1318.3 3437.54 
-1920.62 -1315.4 3442.44 
-1922.86 -1309.66 3447.37 
-1918.37 -1320.86 3436.87 
-1919.3 -1318.96 3439.99 
-1916.51 -1322.03 3433 
-1915.14 -1321.95 3430.09 
-1915.88 -1321.76 3430.81 
-1915.41 -1321.58 3429.63 
-1916.45 -1321.61 3431.37 
-1916.13 -1321.17 3429.92 
-1923.03 -1306.75 3456.87 
-1920.79 -1308.65 3460.5 
-1917.89 -1311.58 3463.41 
-1923.08 -1308.82 3455.5 
-1922.3 -1308.67 3452.36 
-1917.72 -1313.05 3460.87 
-1919.07 -1311.52 3458.63 
-1920.1 -1310.29 3456.87 
-1916.77 -1313.15 3463.49 
-1916.45 -1312.64 3465.43 
-1916.39 -1312.78 3465.34 
-1916.92 -1311.89 3465.68 
-1916.96 -1311.78 3466.4 
-1916.86 -1311.91 3466.33 
-1916.71 -1312.1 3466.17 
-1916.82 -1312.04 3466.61 
-1916.66 -1312.22 3466.36 
-1916.64 -1312.29 3466.54 
-1916.47 -1312.48 3466.21 
-1928.1 -1294.46 3419.13 
-1928.19 -1294.63 3419.34 
-1928.27 -1294.77 3419.53 
-1928.36 -1294.93 3419.75 
-1928.38 -1294.76 3419.76 
-1928.46 -1294.88 3419.93 
-1928.63 -1295.19 3420.3 
-1928.53 -1294.95 3420.09 
-1927.37 -1292.19 3415.41 
-1927.45 -1293.39 3414.98 
-1927.53 -1294.47 3414.66 
-1927.76 -1295.39 3416.35 
-1927.97 -1296.1 3418.23 
-1928.03 -1295.26 3418.94 
-1928.02 -1294.33 3418.93 
-1928.85 -1285.49 3418.73 
-1928.73 -1285.03 3418.79 
-1928.59 -1284.72 3418.87 
-1928.51 -1284.4 3419.05 
-1928.29 -1284.27 3419.49 
-1928.41 -1284.3 3419.29 
-1929 -1282.58 3419.6 
-1928.23 -1287.15 3418.29 
-1928.97 -1285.92 3418.68 
-1929.1 -1286.16 3418.66 
-1927.81 -1287.66 3417.79 
-1928.17 -1287.49 3418.01 
-1928.37 -1287.47 3418.08 
-1927.23 -1290.2 3415.87 
-1927.43 -1289.19 3416.89 
-1928.38 -1287.78 3417.83 
-1928 -1288.44 3417.4 
-1929.54 -1286.91 3418.67 
-1929.42 -1279.37 3418.23 
-1931.03 -1277.57 3418.34 
-1930.34 -1277.71 3418.58 
-1929.91 -1277.53 3418.78 
-1929.75 -1279.51 3418.19 
-1929.87 -1279.83 3418.23 
-1929.47 -1281.72 3419.28 
-1915.24 -1239.02 3479.61 
-1914.69 -1237.02 3487.12 
-1914.52 -1242.13 3474.33 
-1914 -1244.74 3469.72 
-1913.87 -1247.38 3464.09 
-1913.87 -1250.28 3457.48 
-1917.88 -1249.38 3452.89 
-1919.45 -1249.84 3451.94 
-1917.61 -1251.52 3452.01 
-1921.8 -1249.89 3450.78 
-1923.18 -1249.44 3450.13 
-1923.91 -1247.2 3450.19 
-1924.09 -1247.68 3449.73 
-1924.4 -1247.68 3449.32 
-1924.59 -1248.06 3448.89 
-1924.75 -1248.58 3448.43 
-1929.87 -1264.76 3428.7 
-1930.45 -1262.43 3428.72 
-1931.19 -1260.53 3427.64 
-1929.21 -1256.24 3432.89 
-1927.73 -1250.5 3439.74 
-1926.96 -1248.97 3443.52 
-1926.32 -1247.77 3446.27 
-1926.03 -1248.15 3446.73 
-1925.69 -1248.71 3447.19 
-1925.5 -1249.18 3447.33 
-1925.16 -1248.34 3448.29 
-1925.36 -1248.87 3447.79 
-1925.44 -1249.25 3447.39 
-1924.15 -1266.57 3435.22 
-1929.1 -1270.38 3425.73 
-1926.84 -1269.66 3428.89 
-2014.96 -1347.16 3538.65 
-2014.77 -1345.93 3538.41 
-2015.03 -1347.04 3539.09 
-2014.76 -1346.72 3539.31 
-2015.24 -1347.15 3539.85 
-2010.28 -1342.53 3537.35 
-2006.5 -1338.73 3535.82 
-2005.78 -1337.93 3535.89 
-2013.66 -1345.47 3532.31 
-2014.02 -1344.88 3536.63 
-2013.52 -1344.72 3535.14 
-2002.77 -1335.13 3535.54 
-2004.4 -1338.11 3541.18 
-1924.2 -1234.84 3460.37 
-1925.85 -1231.77 3458.71 
-1926.02 -1231.26 3458 
-1926.17 -1227.94 3457.45 
-1925.17 -1233.05 3460.16 
-1924.55 -1233.93 3461.02 
-1924.29 -1234.7 3460.28 
-1924.38 -1234.54 3460.19 
-1924.75 -1233.64 3459.85 
-1926.15 -1228.18 3456.55 
-1925.31 -1232.07 3458.31 
-1924.13 -1234.22 3461.34 
-1924.63 -1234.11 3459.88 
-1923 -1234.06 3465.15 
-1923.56 -1234.29 3463.1 
-1922.53 -1234.08 3466.65 
-1924.16 -1235.11 3460.01 
-1923.23 -1238.17 3463.39 
-1920.85 -1242.95 3463.47 
-1919.19 -1244.56 3461.99 
-1919.17 -1244.86 3460.87 
-1922.92 -1237.78 3459.97 
-1923.02 -1237.52 3459.74 
-1923.14 -1237.18 3459.96 
-1922.8 -1238.16 3459.87 
-1923.49 -1236.3 3460.47 
-1923.32 -1236.74 3460.15 
-1923.57 -1236.27 3460.3 
-1923.71 -1236.01 3460.27 
-1923.82 -1235.82 3460.17 
-1923.92 -1235.62 3460.12 
-1924.02 -1235.47 3459.98 
-1924.14 -1235.28 3459.89 
-1919.41 -1244.91 3459.43 
-1919.54 -1244.74 3459.08 
-1919.4 -1244.73 3459.76 
-1921.62 -1248.6 3454.72 
-1920.17 -1249.04 3455.39 
-1922.73 -1248.05 3455.76 
-1924.39 -1247.04 3457.78 
-1925.46 -1246.1 3458.24 
-1925.5 -1245.53 3457.77 
-1920.37 -1246.59 3455.48 
-1920.7 -1245.58 3455.1 
-1920.69 -1245.26 3455.14 
-1920.64 -1245.1 3455.24 
-1920.62 -1244.98 3455.31 
-1920.82 -1244.05 3455.38 
-1920.78 -1247.32 3454.86 
-1920.78 -1243.82 3455.52 
-1920.7 -1243.78 3455.64 
-1920.5 -1244.58 3455.68 
-1920.66 -1243.54 3455.81 
-1925.39 -1244.84 3456.69 
-1925.11 -1245.45 3456.4 
-1925.66 -1242.97 3456.04 
-1925.68 -1244.24 3455.35 
-1926.72 -1243.44 3457.9 
