-2881.27 -565.424 1859.61 
-2881.57 -565.344 1858.98 
-2880.69 -565.175 1859.25 
-2880.12 -565.005 1858.97 
-2879.08 -564.809 1858.5 
-2879.56 -564.853 1857.93 
-2879.85 -564.95 1858.23 
-2879.95 -564.973 1858.43 
-2881.24 -565.324 1858.88 
-2881.02 -565.289 1858.7 
-2880.6 -565.18 1858.37 
-2878.65 -564.625 1858.12 
-2879.41 -564.737 1857.73 
-2879.54 -564.795 1857.84 
-2881.47 -565.094 1858.07 
-2881.25 -565.157 1858.3 
-2932.1 -567.502 1861.71 
-2934.31 -567.569 1861.55 
-2934.4 -567.808 1861.73 
-2936.92 -568.633 1862.15 
-2940.25 -568.926 1862.52 
-2941.71 -568.623 1862.16 
-2932.81 -568.36 1862.53 
-2934.64 -568.581 1862.61 
-2940.84 -569.578 1863.49 
-2931.94 -567.453 1861.71 
-2931.76 -567.377 1861.68 
-2921.37 -566.414 1861.38 
-2921.43 -566.315 1861.38 
-2924.03 -566.772 1861.07 
-2926.27 -567.046 1861.4 
-2931.17 -567.171 1861.56 
-2930.97 -567.087 1861.5 
-2931.65 -567.302 1861.66 
-2932.89 -568.608 1862.84 
-2933 -568.843 1863.2 
-2933.28 -569.199 1863.76 
-2933.89 -570.181 1866.22 
-2933.96 -569.147 1863.7 
-2933.53 -570.001 1865.87 
-2930.84 -569.76 1865.09 
-2931.24 -569.75 1864.74 
-2933.13 -569.934 1865.76 
-2923.92 -570.837 1870.94 
-2925.23 -570.012 1867.6 
-2926.87 -569.744 1866.75 
-2928.69 -569.635 1865.78 
-2928.95 -569.583 1866.27 
-2930.64 -569.785 1865.41 
-2816.75 -570.453 1858.28 
-2816.92 -570.616 1858.19 
-2817.58 -570.764 1857.76 
-2817.36 -570.851 1858 
-2817.79 -570.691 1857.63 
-2817.89 -570.572 1857.34 
-2818.1 -570.521 1857.37 
-2818.32 -570.194 1856.9 
-2818.53 -569.864 1856.42 
-2817.13 -570.615 1858.21 
-2817.35 -570.585 1858.24 
-2818.73 -569.604 1856.06 
-2818.63 -569.545 1855.79 
-2818.55 -569.527 1855.6 
-2818.45 -569.506 1855.38 
-2817.37 -569.398 1853.69 
-2816.06 -569.598 1852.71 
-2814.74 -569.807 1851.76 
-2817.74 -569.385 1854.08 
-2818.48 -569.499 1855.33 
-2818.34 -569.475 1855.07 
-2818.19 -569.45 1854.8 
-2817.91 -569.406 1854.33 
-2818.07 -569.426 1854.56 
-2821.23 -606.809 1892.95 
-2820.41 -612.181 1895.75 
-2821.99 -612.954 1896.3 
-2841.06 -600.492 1885.31 
-2836.17 -603.759 1888.2 
-2831.76 -606.733 1890.81 
-2828.4 -608.96 1892.8 
-2847.69 -594.732 1880.86 
-2859.61 -586.495 1874.23 
-2866.32 -585.922 1874.86 
-2853.13 -588.042 1876.38 
-2860.18 -585.363 1874 
-2871.59 -585.82 1875.62 
-2876.37 -586.398 1876.34 
-2878.44 -587.285 1876.68 
-2947.69 -1287.49 1847.23 
-2947.24 -1291.83 1847.99 
-2947.48 -1295.55 1848.22 
-2947.77 -1287.6 1847.34 
-2945.53 -1286.44 1847.8 
-2945.82 -1286.64 1847.34 
-2946.11 -1286.81 1846.81 
-2945.13 -1285.62 1847.11 
-2944.82 -1284.79 1847.03 
-2945.25 -1301.09 1847.01 
-2944.62 -1283.44 1846.86 
-2945.27 -1283.29 1846.08 
-2944.13 -1284.16 1847.67 
-2944.01 -1283.55 1847.63 
-2946.05 -1282.93 1845.54 
-2950.87 -1318.69 1833.54 
-2883.87 -1217.55 1801.98 
-2883.89 -1218.17 1801.89 
-2884 -1218.52 1801.86 
-2883.8 -1217.18 1801.98 
-2883.73 -1216.93 1801.95 
-2883.97 -1218.64 1801.73 
-2883.86 -1217.75 1801.84 
-2884.11 -1219.27 1801.65 
-2884.09 -1219.86 1801.56 
-2884.01 -1219.89 1801.56 
-2849.77 -1128.74 1792.02 
-2847.91 -1125.72 1789.24 
-2848.79 -1125.78 1790.85 
-2849.43 -1126.14 1792.13 
-2849.64 -1126.41 1792.5 
-2849.75 -1128.1 1792.14 
-2846.99 -1125.47 1788.43 
-2847.27 -1125.55 1788.61 
-2847.5 -1125.65 1788.79 
-2847.77 -1125.29 1789.5 
-2849.52 -1128.16 1791.45 
-2849.69 -1127.65 1792.05 
-2849.73 -1127.48 1792.25 
-2849.18 -1126.84 1790.9 
-2848.95 -1125.83 1790.74 
-2848.66 -1125.77 1790.35 
-2849.34 -1127.55 1791.16 
-2848.4 -1125.25 1790.27 
-2952.27 -1267.13 1853.09 
-2953.75 -1264.66 1845.35 
-2953.58 -1265.03 1846.34 
-2953.4 -1265.42 1847.35 
-2953.01 -1265.98 1849.33 
-2953.26 -1264.52 1846.95 
-2953.09 -1264.64 1847.65 
-2953.94 -1264.42 1844.45 
-2952.84 -1265.57 1849.48 
-2952.65 -1265.1 1849.66 
-2952.41 -1265.02 1850.24 
-2952.37 -1265.9 1851.47 
-2951.76 -1268.1 1855.48 
-2951.54 -1268.07 1855.92 
-2952.04 -1266.64 1853.35 
-2951.88 -1267.01 1854.29 
-2955.11 -1270.84 1848.48 
-2955.51 -1268.46 1847.71 
-2955.05 -1267.12 1846.18 
-2954.51 -1266.94 1845.32 
-2954.98 -1265.82 1845.38 
-2955.37 -1267.26 1846.84 
-2954.4 -1265.86 1844.56 
-2954.21 -1266.06 1845.16 
-2954.21 -1264.09 1843.39 
-2954.09 -1263.34 1842.89 
-2951.33 -1267.53 1858.23 
-2951.29 -1267.49 1858.55 
-2951.24 -1267.15 1858.8 
-2951.47 -1267.82 1856.84 
-2951.44 -1267.79 1857.12 
-2951.51 -1268.07 1856.51 
-2951.41 -1267.75 1857.41 
-2951.38 -1267.67 1857.68 
-2951.36 -1267.59 1857.94 
-2951.49 -1269.85 1866.61 
-2952.15 -1266.47 1865.02 
-2952.7 -1263.61 1863.68 
-2950.16 -1267.58 1861.39 
-2950.4 -1267.11 1861.59 
-2950.82 -1266.11 1861.28 
-2951.21 -1265.4 1861.5 
-2951.55 -1264.79 1861.75 
-2951.89 -1264.18 1861.95 
-2952.2 -1263.61 1862.17 
-2952.71 -1262.68 1862.51 
-2952.61 -1262.73 1862.11 
-2950.5 -1266.9 1860.38 
-2950.34 -1267.23 1860.83 
-2950.38 -1267.03 1860.89 
-2950.59 -1266.92 1859.98 
-2950.91 -1266.66 1859.33 
-2950.69 -1266.52 1859.9 
-2953.08 -1261.91 1862.56 
-2953.97 -1272.72 1851.1 
-2953.96 -1272.79 1850.58 
-2953.55 -1273.57 1849.87 
-2955.17 -1270.04 1850.22 
-2955.03 -1270.46 1849.99 
-2955.02 -1270.59 1849.78 
-2955.1 -1270.51 1849.54 
-2955.37 -1269.93 1849.26 
-2946.66 -1282.44 1845.9 
-2947.53 -1281.98 1846.39 
-2948.22 -1281.39 1846.64 
-2950.64 -1278.58 1847.77 
-2951.78 -1276.84 1848.42 
-2954.65 -1271 1851.63 
-2955.43 -1269.87 1848.8 
-2956.34 -1266.98 1848.48 
-2955.39 -1269.93 1848.55 
-2844.87 -1248.58 1826.64 
-2846.73 -1250.58 1827.21 
-2849.25 -1253.69 1827.87 
-2849.54 -1253.96 1828.23 
-2849.74 -1254.13 1828.66 
-2850.54 -1257.14 1827.68 
-2850.17 -1255.6 1828.08 
-2851.11 -1260.1 1827.2 
-2851.24 -1260.72 1826.98 
-2851.3 -1260.94 1826.88 
-2848.84 -1268.11 1819.14 
-2848.66 -1268.15 1820.55 
-2848.41 -1267.94 1819.86 
-2848.74 -1268.04 1821.39 
-2848.85 -1268.37 1818.17 
-2849.69 -1269.36 1817.41 
-2850.39 -1269.83 1816.59 
-2850.88 -1270.03 1816.24 
-2851.08 -1270.06 1816.32 
-2851.44 -1270.09 1815.61 
-2851.38 -1270.18 1815.83 
-2846.58 -1266.28 1824.1 
-2847.03 -1266.6 1823.99 
-2846.25 -1265.93 1824.24 
-2847.57 -1267.06 1823.58 
-2847.06 -1266.76 1823.59 
-2847.9 -1267.36 1823.21 
-2847.55 -1267.35 1822.65 
-2847.89 -1267.57 1822.23 
-2848.24 -1267.8 1821.66 
-2846.1 -1265.32 1824.53 
-2845.99 -1265.56 1824.26 
-2846.21 -1265.03 1824.75 
-2846.27 -1264.78 1824.85 
-2846.36 -1264.52 1824.98 
-2849.39 -1262.38 1825.96 
-2846.66 -1263.7 1825.32 
-2846.39 -1264.27 1825.15 
-2838.68 -1240 1817.1 
-2837.12 -1234.73 1816.99 
-2840.15 -1245.36 1816.93 
-2838.3 -1239.43 1815.75 
-2841.52 -1248.11 1818.99 
-2843.86 -1249.33 1822.81 
-2843.73 -1248.73 1823.45 
-2843.9 -1248.58 1824.02 
-2844.3 -1248.75 1824.64 
-2844.13 -1248.28 1825.18 
-2844.4 -1248.33 1825.83 
-2835.13 -1230.68 1820.19 
-2835.28 -1230.74 1818.71 
-2835.38 -1231.14 1817.28 
-2835.64 -1231.82 1816.68 
-2835.35 -1232.17 1823.43 
-2835.06 -1230.94 1822.05 
-2835.56 -1234.91 1826.5 
-2835.57 -1237.98 1830.5 
-2832.46 -1228 1827.04 
-2835.52 -1237.5 1830.04 
-2831.84 -1227 1825.41 
-2831.53 -1227.48 1824.47 
-2836.09 -1232.66 1816.64 
-2852.7 -1272.35 1808.37 
-2851.01 -1270.68 1809.49 
-2853.92 -1272.1 1810.01 
-2853.76 -1271.64 1810.25 
-2850.89 -1270.67 1809.96 
-2850.46 -1270.81 1809.96 
-2850.4 -1271.37 1810.5 
-2850.54 -1271.05 1810.18 
-2850.59 -1271.27 1810.38 
-2850.47 -1271.44 1810.77 
-2850.6 -1271.53 1811.07 
-2853.31 -1270.4 1815.76 
-2853.5 -1270.5 1815.79 
-2853.43 -1270.71 1814.37 
-2853.71 -1271.08 1813.1 
-2853.99 -1271.73 1810.25 
-2853.92 -1271.42 1811.78 
-2853.53 -1270.71 1814.72 
-2853.49 -1270.74 1814.43 
-2853.13 -1270.57 1814.33 
-2852.63 -1270.5 1814.37 
-2852.02 -1270.48 1814.47 
-2851.35 -1270.25 1814.73 
-2851.35 -1270.12 1815.22 
-2853.87 -1270.87 1814.83 
-2853.8 -1270.77 1815.17 
-2853.8 -1270.7 1815.51 
-2850.01 -1271.22 1811.21 
-2850.44 -1271.39 1811.27 
-2850.75 -1271.59 1811.38 
-2847.93 -1270.4 1811.35 
-2849.18 -1271.11 1811.22 
-2847.82 -1270.04 1811.66 
-2847.65 -1269.71 1811.97 
-2847.32 -1267.18 1815.13 
-2846.65 -1266.88 1814.79 
-2844.55 -1265.71 1813.55 
-2845.01 -1266.26 1814.07 
-2845.99 -1267.18 1814.98 
-2845.41 -1266.79 1814.59 
-2847.98 -1268.38 1815.55 
-2848.61 -1269.08 1815.34 
-2847.83 -1267.79 1815.66 
-2849.23 -1270.67 1811.81 
-2849.75 -1269.83 1815.41 
-2850.46 -1270.22 1815.25 
-2850.82 -1270.47 1814.71 
-2851.01 -1270.5 1814.4 
-2851.35 -1270.94 1813.85 
-2851.22 -1271.3 1812.72 
-2850.62 -1271.29 1811.98 
-2842.3 -1263.63 1812.2 
-2844.19 -1266.28 1814.05 
-2843.44 -1266.35 1814.08 
-2842.97 -1265.82 1813.56 
-2842.2 -1265.66 1813.36 
-2841.66 -1265.28 1812.83 
-2839.17 -1253.96 1809.5 
-2838.81 -1253.95 1809.25 
-2838.1 -1254.04 1808.75 
-2838.44 -1253.88 1809.02 
-2840.79 -1254.98 1810.99 
-2841.83 -1256.64 1810.94 
-2842.93 -1260.64 1810.76 
-2840.47 -1254.54 1810.93 
-2840.22 -1254.26 1810.63 
-2839.96 -1253.97 1810.34 
-2839.66 -1253.72 1810.05 
-2839.2 -1253.58 1809.79 
-2842.31 -1263.41 1812.42 
-2842.09 -1263.84 1813.01 
-2832.38 -1233.37 1815.16 
-2832.54 -1232.59 1816.66 
-2832.69 -1231.84 1818.09 
-2832.39 -1230.62 1819.99 
-2831.82 -1229.29 1821.78 
-2831.12 -1227.88 1823.61 
-2837.07 -1253.15 1809.28 
-2835.02 -1246.81 1812.21 
-2833.81 -1243.03 1812.28 
-2833.34 -1238.38 1812.07 
-2833.38 -1235.16 1812.97 
-2832.57 -1234.38 1813.49 
-2950.88 -1273.29 1868.77 
-2950.9 -1273.48 1869.13 
-2950.98 -1273.47 1868.75 
-2950.96 -1273.38 1868.61 
-2950.82 -1273.54 1869.48 
-2950.92 -1273.1 1868.17 
-2950.99 -1273.23 1868.17 
-2950.97 -1273.29 1868.36 
-2951.18 -1272.92 1867.99 
-2951.39 -1273.03 1868.03 
-2951.14 -1273.04 1868.01 
-2951.14 -1273.11 1868.08 
-2951.29 -1272.87 1867.99 
-2951.22 -1272.31 1867.93 
-2950.69 -1274.01 1871.3 
-2950.61 -1274.07 1869.62 
-2950.58 -1274.6 1870.97 
-2950.64 -1274.32 1871.02 
-2950.5 -1274.89 1870.77 
-2949.99 -1276.49 1872.16 
-2949.85 -1277.03 1871.59 
-2949.95 -1276.73 1871.46 
-2950.4 -1275.57 1870.06 
-2950.4 -1275.71 1869.42 
-2949.81 -1277.22 1870.98 
-2950.42 -1275.19 1870.69 
-2950.35 -1275.46 1870.48 
-2949.01 -1279.49 1870.78 
-2948.74 -1279.44 1871.63 
-2948.81 -1279.31 1868.48 
-2949.4 -1278.49 1869.79 
-2949.33 -1278.74 1869.99 
-2949.12 -1278.88 1867.46 
-2948.98 -1279.11 1868.02 
-2949.81 -1277.28 1869.98 
-2949.68 -1277.63 1869.91 
-2949.65 -1277.78 1868.99 
-2949.48 -1278.23 1869.59 
-2945.02 -1291.37 1849.22 
-2943.91 -1295.88 1850.02 
-2946.55 -1287.6 1848.25 
-2945.05 -1286.11 1848.65 
-2944.33 -1285.11 1848.67 
-2943.91 -1284.21 1849.02 
-2944.61 -1280.44 1847.63 
-2944.04 -1281.48 1848.15 
-2945.76 -1279.04 1850.82 
-2945.38 -1280.34 1850.55 
-2943.38 -1282.3 1848.67 
-2943.47 -1283.22 1849.36 
-2947.4 -1279.49 1854.9 
-2947.92 -1279.89 1859.68 
-2948.49 -1279.01 1864.25 
-2948.67 -1279 1863.31 
-2948.35 -1279.72 1869.77 
-2948.76 -1279.72 1869.14 
-2945.89 -1297.07 1849.19 
-2807.91 -573.454 1851.62 
-2809.33 -571.566 1850.46 
-2812.69 -570.276 1850.71 
-2808.94 -571.81 1850.39 
-2808.82 -572.006 1850.53 
-2808.71 -572.176 1850.58 
-2808.59 -572.365 1850.69 
-2808.47 -572.56 1850.82 
-2808.35 -572.748 1850.94 
-2808.24 -572.911 1850.99 
-2808.13 -573.086 1851.18 
-2808.02 -573.272 1851.38 
-2807.98 -573.575 1851.88 
-2808.59 -573.429 1852.23 
-2810.3 -572.859 1853.35 
-2810.75 -572.695 1853.75 
-2811.81 -572.177 1854.3 
-2812.33 -571.862 1854.5 
-2812.81 -571.577 1854.69 
-2813.09 -571.497 1854.98 
-2813.41 -571.328 1855.15 
-2814.33 -570.988 1855.75 
-2815.5 -570.809 1856.42 
-2816.46 -570.674 1856.89 
-2816.78 -570.586 1856.94 
-2816.69 -570.584 1857.55 
-2816.59 -570.5 1857.81 
-2816.54 -570.412 1858.01 
-2817.02 -570.504 1856.94 
-2817.03 -570.496 1857.08 
-2817.04 -570.489 1857.22 
-2816.9 -570.517 1857.47 
-2816.59 -570.222 1858.38 
-2816.66 -570.261 1858.2 
-2816.76 -570.119 1858.45 
-2843.93 -558.226 1862.76 
-2843.82 -558.275 1862.74 
-2843.71 -558.32 1862.73 
-2843.66 -558.425 1862.75 
-2845.21 -558.842 1863.23 
-2845.09 -558.739 1863.19 
-2844.96 -558.592 1863.12 
-2844.88 -558.535 1863.08 
-2844.71 -558.37 1862.99 
-2844.63 -558.319 1862.96 
-2844.48 -558.172 1862.88 
-2844.31 -558.012 1862.8 
-2844.11 -557.858 1862.7 
-2844.07 -557.962 1862.72 
-2843.98 -558.089 1862.74 
-2845.43 -558.859 1863.16 
-2845.53 -558.901 1863.15 
-2843.51 -559.331 1862.4 
-2843.8 -558.992 1862.3 
-2842.93 -559.701 1862.56 
-2843.18 -559.484 1862.47 
-2843.36 -559.385 1862.43 
-2842.95 -559.432 1862.59 
-2842.95 -559.551 1862.55 
-2843.14 -559.126 1862.65 
-2842.99 -559.282 1862.6 
-2844.09 -558.651 1862.2 
-2844.37 -558.339 1862.11 
-2843.18 -558.945 1862.66 
-2843.34 -558.653 1862.7 
-2843.53 -558.48 1862.72 
-2847.72 -557.65 1860.9 
-2848.07 -557.774 1861.22 
-2847.95 -557.885 1861.54 
-2844.95 -558.071 1862 
-2846.41 -557.597 1861.41 
-2846.92 -557.599 1861.16 
-2845.91 -557.594 1861.65 
-2847.9 -557.635 1860.82 
-2847.46 -557.584 1860.89 
-2845.04 -557.579 1862.06 
-2844.83 -557.695 1862.28 
-2845.56 -557.487 1861.84 
-2845.11 -558.362 1862.83 
-2845.25 -558.555 1862.96 
-2844.73 -557.735 1862.37 
-2844.81 -557.904 1862.51 
-2844.8 -558.014 1862.63 
-2844.92 -558.177 1862.74 
-2845.37 -558.722 1863.07 
-2933.41 -562.218 1867.04 
-2932.97 -562.226 1867.3 
-2939.01 -563.079 1866.37 
-2936.53 -563.46 1866.24 
-2934.23 -562.838 1866.85 
-2932.8 -562.181 1867.47 
-2932.64 -562.409 1867.7 
-2932.42 -562.554 1868 
-2925.41 -566.633 1861.28 
-2928.79 -566.674 1861.41 
-2924.06 -566.561 1860.97 
-2932.82 -566.322 1860.96 
-2935.95 -566.141 1860.47 
-2930.79 -566.878 1861.48 
-2939.87 -565.999 1860.61 
-2947.71 -566.209 1860.27 
-2952.74 -566.266 1858.4 
-2956.22 -565.845 1858.99 
-2958.67 -567.112 1859.92 
-2961.52 -567.388 1860.3 
-2961.9 -567.065 1860.45 
-2960.75 -567.414 1860.09 
-2960.02 -567.416 1859.97 
-2963.65 -566.562 1861.02 
-2962.1 -566.671 1860.54 
-2968.8 -565.787 1862.41 
-2971.68 -565.225 1863.21 
-2973.75 -564.665 1863.65 
-2979.33 -564.304 1864.42 
-2983.42 -563.943 1865.05 
-2988.33 -563.795 1865.95 
-2994.81 -561.593 1869.73 
-2994.27 -562.014 1868.63 
-2995.03 -561.824 1869.24 
-2994.16 -562.768 1866.87 
-2994.79 -562.461 1867.67 
-2994.51 -562.253 1868.1 
-2994.84 -561.063 1870.81 
-2995.19 -560.88 1871.19 
-2995.48 -561.583 1869.85 
-2995.46 -561.324 1870.33 
-2995.73 -560.761 1871.47 
-2996.28 -560.633 1871.77 
-2996.02 -560.509 1872.07 
-2991.1 -563.853 1866.5 
-2992.95 -563.529 1866.19 
-2991.23 -563.912 1866.45 
-2994.58 -562.979 1866.4 
-2995.46 -559.953 1874.06 
-2994.24 -559.921 1874.9 
-2992.81 -559.85 1875.32 
-2991.45 -559.42 1875.35 
-2941.83 -563.951 1866.1 
-2940.5 -563.529 1866.23 
-2943.17 -564.352 1865.99 
-2966.75 -562.727 1867.96 
-2968.57 -562.33 1868.36 
-2960.99 -563.165 1867.45 
-2969.56 -562.614 1869.01 
-2975.03 -563.316 1871.07 
-2976.23 -563.873 1871.77 
-2973.86 -563.27 1870.63 
-2972.79 -563.292 1870.22 
-2971.73 -563.134 1869.84 
-2970.57 -563.134 1869.4 
-2957.92 -563.792 1866.98 
-2953.07 -563.955 1866.65 
-2948.49 -564.295 1866.25 
-2988.2 -559.383 1875.4 
-2981.36 -559.862 1874.23 
-2980.63 -560.781 1874.11 
-2988.9 -559.127 1876.02 
-2979.3 -561.742 1873.46 
-2980.75 -561.43 1874.3 
-2978.68 -562.206 1873.15 
-2978.25 -562.875 1872.99 
-2977.62 -562.869 1872.55 
-2977.25 -563.524 1872.43 
-2976.9 -564.226 1872.34 
-2996.58 -560.389 1872.36 
-2996.79 -560.17 1872.9 
-2997.15 -560.267 1872.64 
-2996.87 -560.05 1873.26 
-2996.78 -559.94 1873.66 
-2879.1 -564.57 1857.41 
-2879.19 -564.622 1857.51 
-2879.02 -564.516 1857.31 
-2879.31 -564.677 1857.62 
-2879.39 -564.622 1856.91 
-2879.12 -563.593 1854.92 
-2878.57 -562.454 1852.74 
-2878.64 -561.608 1850.85 
-2878.48 -559.891 1846.87 
-2878.52 -560.804 1848.97 
-2878.57 -558.884 1844.6 
-2880.17 -559.479 1845.3 
-2883.14 -564.2 1851.72 
-2883.12 -564.98 1852.99 
-2882.29 -564.834 1853.72 
-2881.79 -564.802 1853.96 
-2881.17 -564.693 1854.5 
-2880.66 -564.582 1855.02 
-2880.06 -564.471 1855.57 
-2879.51 -564.694 1856.94 
-2881.04 -565.008 1857.98 
-2880.6 -564.973 1857.67 
-2880.25 -564.9 1857.28 
-2879.6 -564.765 1857.01 
-2879.89 -564.826 1856.96 
-2932.41 -562.907 1868.09 
-2932.07 -562.8 1868.48 
-2931.75 -562.651 1868.83 
-2931.51 -562.775 1869.15 
-2931.2 -562.61 1869.49 
-2930.94 -562.694 1869.8 
-2891.31 -572.027 1877.77 
-2885.69 -573.177 1877.08 
-2893.99 -569.825 1877.69 
-2909.51 -568.311 1874.93 
-2905.32 -566.489 1874.9 
-2897.85 -565.639 1876.7 
-2904.15 -566.61 1875.37 
-2898.02 -565.853 1876.89 
-2895.63 -568.024 1877.5 
-2918.68 -572.025 1878.91 
-2914.72 -571.85 1877.23 
-2921.99 -569.827 1879.02 
-2930.72 -562.937 1870.13 
-2929.45 -563.739 1871.45 
-2927.19 -566.026 1875.28 
-2929.15 -564.203 1871.95 
-2925.97 -566.978 1876.99 
-2924.42 -567.919 1878.55 
-2848.65 -578.217 1873.63 
-2844.28 -583.159 1877.13 
-2850.9 -578.361 1872.68 
-2885.68 -574.391 1877.13 
-2881.92 -575.581 1876.64 
-2875.73 -576.754 1875.79 
-2855.49 -579.119 1872.22 
-2859.64 -578.939 1872.19 
-2862.91 -577.443 1872.98 
-2865.09 -578.252 1874.13 
-2870.45 -578.028 1875.05 
-2826.76 -606.771 1892.42 
-2821.79 -612.505 1896.24 
-2820.82 -612.453 1896.12 
-2832.54 -600.169 1887.87 
-2843.63 -587.026 1878.94 
-2838.42 -593.465 1883.24 
-2655.3 -602.288 1886.85 
-2655.78 -601.513 1885.68 
-2655.25 -602.363 1886.99 
-2655.58 -601.874 1886.6 
-2655.8 -601.467 1885.65 
-2655.35 -601.953 1885.79 
-2654.97 -602.507 1886.34 
-2654.69 -602.879 1886.5 
-2654.59 -603.084 1886.78 
-2686.4 -911.933 1765.56 
-2686.02 -912.222 1765.4 
-2686.49 -911.229 1765.72 
-2685.13 -911.534 1765.37 
-2684.38 -910.635 1765.39 
-2686.5 -910.487 1765.87 
-2686.22 -910.165 1766.06 
-2686.22 -910.164 1765.97 
-2685.75 -909.546 1766.24 
-2685.37 -908.2 1766.56 
-2685.2 -907.942 1766.54 
-2685 -908.519 1766.22 
-2685.11 -908.601 1766.19 
-2685.02 -911.137 1765.37 
-2685.26 -911.053 1765.44 
-2685.15 -910.11 1765.59 
-2685.01 -909.258 1765.85 
-2882.72 -587.477 1877.3 
-2884.68 -588.245 1877.62 
-2889.33 -588.189 1878.29 
-2895.12 -587.149 1878.87 
-2899.04 -583.715 1877.64 
-2904.29 -578.298 1875.31 
-2907.55 -579.007 1874.51 
-2910.18 -578.236 1872.69 
-2912.93 -575.351 1873.24 
-2913.56 -575.081 1874.09 
-2918.21 -573.824 1876.27 
-2922.55 -572.172 1876.19 
-2924.46 -570.75 1871.57 
-2924.8 -570.824 1872.78 
-2881.83 -565.309 1858.41 
-2881.53 -565.332 1858.62 
-2881.36 -565.252 1858.49 
-2879.73 -564.888 1858.02 
-2879.84 -564.91 1857.34 
-2880.21 -565.047 1857.96 
-2880.23 -565.038 1857.68 
-2880.93 -565.206 1858.45 
-2880.54 -565.137 1858.08 
-2879.66 -564.82 1857.16 
-2880.92 -565.066 1858.09 
-2880.76 -565.117 1858.13 
-2934.28 -567.389 1861.42 
-2936.77 -568.331 1861.89 
-2940.11 -567.935 1861.45 
-2940.76 -568.22 1861.73 
-2944.92 -569.872 1863.89 
-2951.83 -567.98 1861.07 
-2950.28 -568.759 1862.1 
-2936.44 -569.604 1864.09 
-2935.28 -569.295 1863.8 
-2939.84 -569.775 1863.85 
-2939.54 -571.021 1866.31 
-2938.9 -570.653 1865.85 
-2934.3 -567.276 1861.35 
-2934.26 -567.16 1861.27 
-2924.06 -566.674 1861.02 
-2925.45 -566.887 1861.37 
-2928.75 -567.012 1861.43 
-2930.87 -567.018 1861.47 
-2934.11 -567.059 1861.21 
-2933.98 -566.992 1861.18 
-2933.84 -566.877 1861.13 
-2934.71 -569.129 1863.59 
-2934.39 -570.449 1866.68 
-2934.7 -570.535 1866.67 
-2934.41 -570.985 1868.14 
-2935.31 -571.636 1867.97 
-2934.28 -571.064 1867.99 
-2935 -570.584 1866.58 
-2934.27 -570.715 1868.23 
-2932.55 -569.949 1866.01 
-2932.83 -569.93 1865.8 
-2933.82 -570.16 1868.26 
-2934.61 -570.481 1868.15 
-2925.54 -569.896 1868.05 
-2927.07 -569.559 1867.57 
-2928.89 -569.512 1866.73 
-2931.95 -569.887 1866.49 
-2931.78 -569.758 1866.84 
-2931.72 -569.862 1866.43 
-2932.27 -569.946 1866.09 
-2816.87 -570.221 1858.43 
-2816.93 -570.393 1858.33 
-2817.11 -570.35 1858.37 
-2817.52 -570.845 1858.04 
-2817.7 -570.826 1857.97 
-2817.5 -570.652 1858.21 
-2817.91 -570.718 1857.73 
-2818.07 -570.689 1857.73 
-2818.24 -570.539 1857.54 
-2818.36 -570.306 1857.18 
-2818.57 -569.991 1856.72 
-2818.84 -569.635 1856.23 
-2817.28 -570.391 1858.36 
-2817.54 -570.211 1858.51 
-2817.64 -570.31 1858.45 
-2818.74 -569.551 1855.87 
-2818.61 -569.526 1855.61 
-2817.41 -569.401 1853.69 
-2816.06 -569.603 1852.67 
-2814.68 -569.821 1851.66 
-2817.8 -569.383 1854.09 
-2818.63 -569.517 1855.54 
-2818.5 -569.49 1855.26 
-2818.36 -569.467 1855.01 
-2818.23 -569.444 1854.76 
-2817.97 -569.404 1854.33 
-2818.14 -569.424 1854.56 
-2824.72 -611.275 1894.91 
-2843.13 -597.781 1883.55 
-2838.35 -601.315 1886.52 
-2834.5 -603.322 1888.56 
-2830.72 -604.96 1890.42 
-2848.69 -590.181 1878.66 
-2868.75 -584.803 1875.16 
-2853.92 -584.466 1874.62 
-2859.75 -584.435 1873.72 
-2866.8 -584.044 1874.84 
-2873.64 -584.475 1875.85 
-2876.91 -585.274 1876.36 
-2881.8 -585.389 1877.08 
-2882.55 -586.325 1877.23 
-2945.27 -1286.29 1848.15 
-2946.1 -1293.01 1848.67 
-2947.46 -1287.79 1847.61 
-2945.24 -1286.23 1848.29 
-2944.41 -1285.06 1847.97 
-2944.65 -1285.2 1847.59 
-2943.65 -1283.19 1848.26 
-2944.27 -1282.96 1847.23 
-2945.09 -1282.55 1846.09 
-2943.92 -1284.05 1848.22 
-2944.33 -1284.94 1848.11 
-2883.83 -1217.48 1801.94 
-2883.78 -1217.44 1801.92 
-2883.81 -1218.17 1801.83 
-2883.95 -1218.56 1801.78 
-2883.7 -1216.93 1801.93 
-2883.65 -1216.86 1801.89 
-2883.88 -1218.4 1801.7 
-2883.81 -1218.25 1801.68 
-2883.94 -1218.49 1801.71 
-2883.98 -1219.67 1801.55 
-2884.05 -1219.25 1801.58 
-2884.03 -1219.79 1801.5 
-2847.98 -1125.56 1789.39 
-2848.83 -1125.61 1790.93 
-2849.49 -1125.92 1792.29 
-2849.63 -1126.07 1792.5 
-2847 -1125.28 1788.5 
-2847.3 -1125.35 1788.7 
-2848.34 -1125.46 1790.13 
-2847.79 -1125.09 1789.57 
-2849.46 -1126.9 1791.73 
-2849.57 -1127.31 1791.85 
-2849.61 -1125.96 1792.44 
-2849.24 -1126.78 1791.21 
-2849.14 -1126.12 1791.18 
-2848.8 -1125.17 1790.8 
-2848.48 -1125.05 1790.44 
-2952.1 -1265.9 1852.2 
-2953.58 -1263.27 1844.51 
-2953.74 -1262.98 1843.65 
-2953.43 -1263.82 1845.63 
-2952.91 -1263.92 1847.45 
-2953.24 -1262.89 1845.24 
-2953.01 -1263.17 1846.16 
-2953.9 -1262.88 1843.01 
-2952.69 -1264.19 1848.4 
-2952.29 -1264.56 1849.54 
-2951.93 -1265.07 1850.78 
-2952.03 -1265.42 1851.42 
-2951.67 -1267.33 1855.28 
-2951.52 -1267.66 1856.19 
-2951.64 -1266.42 1853.68 
-2951.44 -1266.96 1854.88 
-2956.02 -1267 1847.9 
-2955.77 -1266.83 1847.36 
-2955.36 -1265.49 1845.92 
-2954.74 -1265.34 1844.71 
-2955.31 -1264.34 1845.24 
-2955.03 -1264.14 1844.64 
-2955.6 -1266.02 1846.62 
-2954.38 -1264.54 1843.71 
-2954.72 -1263.95 1843.97 
-2954.81 -1261.72 1842.9 
-2954.55 -1261.44 1842.29 
-2954.22 -1261.26 1841.72 
-2951.37 -1266.91 1857.9 
-2951.33 -1266.94 1858.22 
-2951.31 -1266.73 1858.43 
-2951.25 -1266.46 1858.67 
-2951.47 -1267.14 1856.86 
-2951.47 -1267.21 1856.63 
-2951.5 -1267.53 1856.51 
-2951.45 -1267.13 1857.14 
-2951.42 -1267.06 1857.4 
-2951.39 -1266.96 1857.65 
-2951.95 -1268.22 1865.91 
-2951.65 -1270.37 1867.07 
-2952.8 -1264.42 1864.14 
-2952.39 -1266.59 1865.19 
-2953.29 -1261.71 1862.8 
-2950.42 -1266.89 1861.15 
-2950.85 -1265.87 1860.82 
-2951.26 -1265.12 1861.09 
-2951.66 -1264.39 1861.33 
-2952.03 -1263.71 1861.55 
-2952.37 -1263.09 1861.78 
-2953.06 -1261.79 1862.05 
-2952.83 -1262.11 1861.67 
-2950.76 -1266.21 1859.88 
-2950.58 -1266.61 1860.36 
-2950.61 -1266.42 1860.43 
-2950.56 -1266.48 1860.69 
-2950.84 -1266.22 1859.44 
-2951.12 -1265.87 1858.82 
-2950.94 -1265.89 1859.36 
-2953.5 -1260.83 1861.96 
-2955.93 -1268.09 1850.83 
-2955.06 -1270.19 1850.59 
-2957.6 -1264.39 1849.67 
-2957.9 -1263.92 1850.23 
-2957.51 -1264.33 1849.33 
-2956.88 -1266.07 1849.29 
-2956.86 -1265.9 1848.94 
-2956.66 -1265.72 1848.42 
-2946.06 -1281.57 1845.54 
-2947.17 -1281.43 1846.27 
-2948.38 -1281.41 1846.95 
-2950.59 -1278.67 1848.16 
-2954.1 -1272.25 1854.46 
-2954.16 -1272.23 1852.43 
-2957.66 -1265.08 1851.56 
-2958.38 -1263.6 1851.1 
-2956.4 -1265.44 1847.81 
-2845.17 -1249.15 1826.18 
-2848.7 -1253.21 1827.46 
-2850.2 -1256.15 1827.96 
-2850.08 -1255.89 1828.04 
-2850.7 -1258.52 1827.46 
-2851.13 -1260.69 1826.79 
-2851.2 -1260.97 1826.66 
-2851.26 -1261.18 1826.57 
-2848.33 -1267.76 1819.09 
-2848.27 -1267.94 1820.9 
-2847.92 -1267.74 1820.17 
-2847.75 -1267.46 1819.32 
-2848.09 -1267.58 1818.54 
-2848.29 -1267.96 1817.85 
-2849.06 -1268.85 1817.38 
-2850.13 -1269.81 1816.38 
-2850.65 -1270.13 1815.68 
-2850.97 -1270.24 1815.59 
-2851.22 -1270.26 1815.66 
-2851.3 -1270.2 1815.43 
-2846.48 -1266.41 1823.58 
-2846.05 -1266.07 1823.83 
-2845.78 -1265.76 1823.9 
-2847.31 -1267.07 1823.14 
-2846.73 -1266.72 1823.13 
-2846.92 -1267.01 1822.63 
-2846.89 -1267.12 1822.04 
-2847.31 -1267.36 1821.87 
-2847.66 -1267.59 1821.51 
-2847.83 -1267.75 1820.98 
-2845.85 -1264.93 1824.28 
-2845.81 -1265.22 1824.13 
-2845.63 -1265.49 1823.84 
-2845.86 -1264.63 1824.37 
-2845.95 -1264.41 1824.52 
-2845.96 -1264.26 1824.72 
-2849.03 -1262.26 1825.76 
-2846.37 -1263.26 1825.14 
-2845.97 -1264.11 1824.94 
-2837.26 -1235.44 1816.27 
-2836.43 -1233.33 1816.27 
-2838.85 -1242.54 1814.1 
-2837.44 -1237.35 1813.76 
-2837.05 -1235.47 1814.74 
-2841.66 -1248.5 1818.75 
-2842.93 -1249.49 1820.57 
-2843.31 -1249.91 1820.99 
-2843.73 -1250.31 1821.4 
-2844.85 -1249.1 1825.43 
-2844.84 -1249.37 1824.75 
-2844.35 -1251.04 1821.63 
-2834.84 -1230.3 1820.6 
-2835.03 -1230.36 1818.68 
-2835.15 -1230.78 1817.21 
-2835.19 -1231.16 1816.36 
-2833.82 -1232.21 1827.78 
-2833.64 -1231.01 1826.76 
-2833.68 -1230.39 1825.81 
-2833.88 -1233.46 1829.3 
-2835.32 -1238.87 1832.51 
-2832.35 -1229.32 1829.65 
-2830.95 -1225.37 1827.49 
-2834.1 -1235.94 1831.58 
-2832.04 -1230.32 1830.95 
-2830.74 -1225.93 1826.47 
-2830.42 -1226.42 1825.53 
-2835.52 -1231.83 1815.99 
-2853.58 -1272.75 1807.95 
-2851.93 -1271.21 1808.87 
-2851.28 -1270.48 1809.92 
-2854.29 -1272.37 1809.11 
-2851.41 -1270.72 1810.15 
-2850.95 -1270.9 1810.17 
-2850.79 -1271.45 1810.64 
-2850.87 -1271.53 1810.9 
-2851.05 -1271.15 1810.4 
-2851.13 -1271.4 1810.64 
-2851 -1271.62 1811.19 
-2851.13 -1271.71 1811.5 
-2853.63 -1270.52 1816.03 
-2853.66 -1270.77 1814.74 
-2853.86 -1270.66 1815.91 
-2853.97 -1271.16 1813.39 
-2854.26 -1271.8 1810.65 
-2854.38 -1272.09 1809.34 
-2854.31 -1272.23 1808.72 
-2854.25 -1271.55 1812.02 
-2853.91 -1270.96 1814.53 
-2853.49 -1270.8 1814.11 
-2853.81 -1270.95 1814.25 
-2853.06 -1270.71 1814.09 
-2852.43 -1270.67 1814.21 
-2851.82 -1270.64 1814.31 
-2851.17 -1270.36 1814.57 
-2851.2 -1270.24 1815.03 
-2854.12 -1271.07 1814.88 
-2854.1 -1271.27 1814.49 
-2854.14 -1270.96 1815.24 
-2854.12 -1270.85 1815.62 
-2850.64 -1271.38 1811.59 
-2850.16 -1271.26 1811.61 
-2850.94 -1271.58 1811.68 
-2851.25 -1271.77 1811.79 
-2849.1 -1270.88 1811.51 
-2847.17 -1267.84 1815.71 
-2846.57 -1267.58 1815.4 
-2844.67 -1266.89 1814.64 
-2846.06 -1267.64 1815.82 
-2845.29 -1267.41 1815.24 
-2847.61 -1268.04 1816.18 
-2848.16 -1268.4 1816.3 
-2848.72 -1268.82 1816.45 
-2849.61 -1269.51 1816.36 
-2850.97 -1270.4 1815.01 
-2851.05 -1270.35 1814.82 
-2851.56 -1270.74 1814.19 
-2851.81 -1271.07 1813.77 
-2851.44 -1271.4 1812.83 
-2851.07 -1271.53 1811.98 
-2841.24 -1265.42 1812.92 
-2843.92 -1266.95 1814.68 
-2843.17 -1266.91 1814.7 
-2842.6 -1266.37 1814.06 
-2841.87 -1266.42 1814.05 
-2841.51 -1265.96 1813.47 
-2838.74 -1253.41 1809.57 
-2838.35 -1253.37 1809.3 
-2837.93 -1253.42 1809.01 
-2837.31 -1254.06 1808.77 
-2840.81 -1254.95 1811.2 
-2842.41 -1259.49 1811.66 
-2842.65 -1261.73 1811.93 
-2840.59 -1254.63 1811.23 
-2840.31 -1254.31 1810.91 
-2840.02 -1253.94 1810.61 
-2839.72 -1253.58 1810.34 
-2839.2 -1253.24 1810.08 
-2838.63 -1252.92 1809.88 
-2841.12 -1265.45 1813.18 
-2840.9 -1265.94 1813.81 
-2841.24 -1265.38 1813.9 
-2831.71 -1232.48 1816.3 
-2831.36 -1233.05 1815.05 
-2831.87 -1233.82 1814.02 
-2831.86 -1231.74 1817.7 
-2832.07 -1231.1 1818.98 
-2831.34 -1229.93 1820.5 
-2830.87 -1228.61 1822.33 
-2830.1 -1226.99 1824.44 
-2836.26 -1253.22 1809.33 
-2834.31 -1247.44 1811.71 
-2833.66 -1247.97 1811.08 
-2833.2 -1242.56 1811.33 
-2832.71 -1238.13 1811.05 
-2832.7 -1235.26 1812.11 
-2831.74 -1234.57 1812.61 
-2951.1 -1273.56 1868.42 
-2951 -1273.57 1868.87 
-2951.05 -1273.46 1868.38 
-2950.89 -1273.65 1869.29 
-2951.12 -1273.4 1868.24 
-2951.19 -1273.19 1868.12 
-2951.38 -1273.3 1868.16 
-2951.25 -1273.35 1868.19 
-2951.51 -1272.99 1868.01 
-2951.66 -1273.16 1868.09 
-2951.69 -1273.09 1868.06 
-2951.45 -1273.16 1868.09 
-2951.56 -1273.25 1868.14 
-2951.62 -1272.93 1868.03 
-2951.47 -1272.8 1868.18 
-2951.39 -1272.43 1868.17 
-2950.66 -1274.21 1869.43 
-2950.69 -1274.41 1869.25 
-2950.74 -1274.63 1869.04 
-2950.4 -1275.82 1868.9 
-2950.36 -1276 1868.32 
-2950.38 -1275.91 1868.31 
-2950.77 -1274.86 1868.85 
-2950.97 -1274.57 1868.55 
-2950.93 -1274.69 1868.07 
-2950.94 -1274.7 1867.57 
-2950.23 -1276.21 1867.97 
-2949.29 -1278.45 1865.63 
-2949.23 -1278.64 1866.71 
-2950.37 -1276.1 1867.13 
-2950.32 -1276.32 1866.92 
-2949.4 -1278.2 1864.61 
-2950.4 -1276.37 1865.06 
-2945.1 -1293.77 1849.24 
-2946.96 -1287.94 1847.97 
-2945.15 -1286.17 1848.46 
-2944.31 -1285 1848.47 
-2943.86 -1284 1848.71 
-2944.2 -1278.7 1846.75 
-2945.3 -1278.51 1845.99 
-2946.64 -1279.73 1846.07 
-2945.96 -1280.14 1845.44 
-2944.95 -1280.74 1845.54 
-2944.16 -1277.41 1847.02 
-2947.26 -1278.95 1848.9 
-2943.5 -1282.66 1848.23 
-2944.17 -1282.22 1847.12 
-2949.96 -1278.25 1853.45 
-2807.93 -573.406 1851.32 
-2807.82 -573.588 1851.54 
-2809.35 -571.491 1850.19 
-2812.62 -570.259 1850.52 
-2809 -571.714 1850.13 
-2808.93 -571.821 1850.27 
-2808.86 -571.916 1850.26 
-2808.76 -572.083 1850.31 
-2808.65 -572.254 1850.4 
-2808.53 -572.446 1850.54 
-2808.4 -572.65 1850.67 
-2808.28 -572.832 1850.74 
-2808.15 -573.04 1850.92 
-2808.04 -573.229 1851.11 
-2807.94 -573.65 1851.64 
-2809.37 -573.203 1852.57 
-2809.9 -573.007 1853 
-2810.58 -572.623 1853.22 
-2811.19 -572.403 1853.76 
-2811.74 -572.081 1853.98 
-2812.28 -571.755 1854.2 
-2812.71 -571.495 1854.35 
-2813.21 -571.333 1854.83 
-2814.16 -570.981 1855.44 
-2815.42 -570.786 1856.16 
-2816.5 -570.646 1856.71 
-2817.06 -570.495 1856.79 
-2816.89 -570.555 1856.77 
-2816.81 -570.418 1857.78 
-2816.73 -570.336 1858 
-2817.29 -570.418 1856.74 
-2817.28 -570.417 1856.87 
-2817.29 -570.413 1857 
-2817.34 -570.391 1857.1 
-2817.2 -570.434 1857.27 
-2817.09 -570.444 1857.48 
-2817.03 -570.336 1857.75 
-2816.85 -570.19 1858.17 
-2816.95 -569.967 1858.56 
-2816.94 -570.052 1858.35 
-2843.84 -558.165 1862.72 
-2843.73 -558.221 1862.7 
-2843.62 -558.262 1862.68 
-2843.6 -558.368 1862.71 
-2845.35 -558.829 1863.18 
-2845.26 -558.79 1863.19 
-2845.16 -558.723 1863.18 
-2845.02 -558.582 1863.11 
-2844.87 -558.431 1863.02 
-2844.79 -558.409 1863.02 
-2844.61 -558.232 1862.93 
-2844.54 -558.194 1862.9 
-2844.39 -558.056 1862.82 
-2844.21 -557.883 1862.73 
-2844.05 -557.769 1862.66 
-2843.97 -557.886 1862.67 
-2843.92 -557.998 1862.69 
-2843.8 -558.079 1862.68 
-2843.51 -559.178 1862.37 
-2843.8 -558.845 1862.28 
-2843.29 -559.256 1862.42 
-2842.88 -559.374 1862.52 
-2842.86 -559.516 1862.54 
-2843.07 -559.326 1862.47 
-2843.03 -559.131 1862.61 
-2842.9 -559.233 1862.51 
-2844.06 -558.545 1862.19 
-2844.23 -558.352 1862.13 
-2842.98 -559.072 1862.58 
-2843.1 -558.889 1862.63 
-2843.25 -558.612 1862.67 
-2843.43 -558.454 1862.69 
-2843.51 -558.355 1862.68 
-2848.21 -557.759 1861.14 
-2848.12 -557.89 1861.5 
-2848.34 -557.76 1861.12 
-2844.83 -558.096 1862.02 
-2847 -557.578 1861.11 
-2846.46 -557.576 1861.37 
-2845.99 -557.57 1861.59 
-2848.1 -557.611 1860.69 
-2848.54 -557.74 1861 
-2848.28 -557.599 1860.61 
-2847.63 -557.56 1860.78 
-2844.73 -557.586 1862.22 
-2845.62 -557.565 1861.76 
-2845.25 -557.544 1861.93 
-2844.92 -558.267 1862.83 
-2845.08 -558.434 1862.92 
-2845.09 -558.53 1863.02 
-2845.25 -558.656 1863.06 
-2844.65 -557.556 1862.23 
-2844.65 -557.746 1862.43 
-2844.66 -557.841 1862.52 
-2844.65 -557.931 1862.63 
-2844.76 -558.087 1862.73 
-2933.08 -562.455 1867.24 
-2932.98 -562.736 1867.42 
-2932.84 -562.542 1867.51 
-2937.43 -563.996 1866.05 
-2935.28 -563.515 1866.6 
-2933.23 -562.833 1867.24 
-2932.67 -562.786 1867.75 
-2925.43 -566.759 1861.33 
-2927.89 -566.73 1861.37 
-2930.2 -566.895 1861.44 
-2932.95 -566.484 1861.02 
-2936.22 -566.276 1860.55 
-2930.94 -566.904 1861.47 
-2940.4 -566.151 1860.63 
-2947.81 -566.364 1860.33 
-2953.02 -566.359 1858.22 
-2956.16 -565.995 1859.12 
-2958.62 -567.341 1859.98 
-2948.15 -566.552 1860.31 
-2962.05 -567.35 1860.49 
-2961.2 -567.505 1860.21 
-2962.19 -567.087 1860.55 
-2963.66 -566.753 1861.02 
-2960.13 -567.574 1860.03 
-2968.54 -565.948 1862.37 
-2971.81 -565.51 1863.18 
-2974 -564.81 1863.66 
-2979.79 -564.469 1864.5 
-2984.07 -564.039 1865.09 
-2988.46 -563.869 1865.95 
-2991.32 -564.027 1866.44 
-2995.82 -561.832 1869.37 
-2995.26 -562.065 1868.73 
-2995.93 -562.06 1868.88 
-2994.89 -562.709 1867.11 
-2995.8 -562.533 1867.75 
-2995.62 -562.303 1868.25 
-2995.6 -561.06 1870.82 
-2995.99 -560.889 1871.17 
-2996.23 -561.591 1869.85 
-2996.25 -561.343 1870.3 
-2996.54 -560.764 1871.46 
-2997.08 -560.628 1871.78 
-2996.86 -560.503 1872.08 
-2993.16 -563.669 1865.94 
-2994.6 -563.182 1865.92 
-2995.59 -563.05 1866.49 
-2995.66 -562.772 1867.15 
-2996.98 -559.819 1874.03 
-2995.78 -559.838 1874.52 
-2995.27 -559.781 1875.17 
-2993.8 -559.841 1875.66 
-2992.91 -559.665 1876.28 
-2939.21 -565.127 1865.66 
-2938.31 -564.529 1865.86 
-2943.85 -564.703 1865.84 
-2940.25 -565.748 1865.43 
-2967.29 -563.126 1867.81 
-2962.82 -563.583 1867.34 
-2968.22 -562.904 1868.08 
-2969.31 -563.202 1868.82 
-2975.67 -564.033 1871.41 
-2974.71 -563.848 1870.87 
-2976.52 -564.923 1872.23 
-2975.97 -565.17 1871.9 
-2973.59 -563.893 1870.43 
-2972.53 -563.972 1870.02 
-2971.5 -563.656 1869.67 
-2970.4 -563.734 1869.24 
-2961.11 -564.221 1866.94 
-2955.61 -564.408 1866.57 
-2950.9 -564.629 1866.22 
-2945.16 -565.151 1865.69 
-2982.9 -560.152 1875.08 
-2988.85 -558.957 1876.49 
-2982.65 -560.954 1875.28 
-2993.84 -559.729 1876.79 
-2980.35 -562.173 1874.19 
-2981.91 -561.75 1875.07 
-2979.42 -562.812 1873.74 
-2978.05 -563.818 1873.06 
-2979.26 -563.539 1873.77 
-2977.69 -564.575 1872.98 
-2977.26 -565.316 1872.85 
-2997.48 -560.372 1872.39 
-2997.58 -560.122 1872.99 
-2997.98 -560.226 1872.74 
-2997.79 -559.977 1873.33 
-2998 -559.837 1873.68 
-2879.45 -563.168 1853.87 
-2878.85 -560.81 1849.15 
-2879.8 -562.823 1853.02 
-2878.76 -559.056 1845.11 
-2878.74 -559.957 1847.15 
-2880.19 -558.948 1843.98 
-2878.8 -558.096 1842.94 
-2883.34 -564.168 1851.18 
-2883.35 -565.079 1852.58 
-2882.59 -564.94 1853.27 
-2880.25 -562.613 1852.37 
-2881.92 -564.805 1853.61 
-2880.22 -564.976 1857.46 
-2880.55 -565.04 1857.82 
-2879.91 -564.901 1857.11 
-2932.51 -563.306 1868.05 
-2932.22 -563.17 1868.37 
-2932.68 -563.127 1867.83 
-2931.83 -563.02 1868.81 
-2931.61 -563.217 1869.12 
-2931.29 -562.989 1869.46 
-2931.02 -563.104 1869.81 
-2891.46 -573.089 1877.84 
-2894.14 -570.921 1877.78 
-2895.65 -569.128 1877.59 
-2909.14 -568.738 1874.87 
-2903.9 -567.171 1875.62 
-2908.98 -569.209 1875.02 
-2909.19 -569.877 1875.23 
-2898.77 -566.067 1876.92 
-2896.99 -567.507 1877.42 
-2918.8 -572.113 1879.19 
-2915.08 -572.682 1877.58 
-2922.43 -570.079 1879.58 
-2930.75 -563.31 1870.18 
-2928.23 -565.257 1873.64 
-2927.2 -566.312 1875.74 
-2929.79 -564.049 1871.29 
-2926.16 -567.412 1877.57 
-2924.83 -568.523 1879.3 
-2848.42 -580.513 1874.72 
-2851.37 -579.649 1873.28 
-2852.59 -579.501 1872.56 
-2891.72 -574.129 1877.93 
-2886.56 -575.542 1877.31 
-2881.49 -576.734 1876.63 
-2876.53 -577.781 1875.96 
-2857.83 -579.474 1872.44 
-2856.1 -580.242 1872.43 
-2862.4 -579.144 1873.16 
-2865.39 -579.151 1874.27 
-2872.45 -578.876 1875.41 
-2836.44 -598.256 1885.85 
-2848.26 -583.683 1876.1 
-2842.91 -590.946 1880.79 
-2655.65 -601.735 1886.46 
-2655.17 -602.452 1887.11 
-2654.65 -603.032 1886.94 
-2655.84 -601.396 1885.78 
-2655.69 -601.665 1886.42 
-2655.69 -601.538 1885.88 
-2655.24 -602.144 1886.24 
-2655.05 -602.46 1886.65 
-2654.76 -602.852 1886.79 
-2686.15 -912.055 1765.46 
-2686.26 -911.35 1765.63 
-2685.44 -911.865 1765.35 
-2686.35 -910.674 1765.77 
-2684.51 -911.01 1765.37 
-2684.25 -910.666 1765.36 
-2686.19 -910.131 1765.88 
-2685.73 -909.517 1766.17 
-2685.73 -909.493 1766.1 
-2685.36 -908.23 1766.46 
-2685.24 -908.547 1766.24 
-2685.13 -909.261 1765.87 
-2685.03 -911.528 1765.29 
-2685.32 -911.546 1765.35 
-2685.42 -910.993 1765.48 
-2685.25 -909.884 1765.65 
-2887.7 -586.289 1877.97 
-2888.84 -587.156 1878.17 
-2895.64 -585.866 1878.7 
-2900.36 -581.379 1876.97 
-2904.07 -577.52 1875.38 
-2907.22 -578.577 1874.79 
-2910.02 -578.052 1873.02 
-2912.98 -575.201 1874.11 
-2918.36 -573.646 1877.65 
-2919.34 -573.551 1877.37 
-2923.28 -572.059 1877.09 
-2925.72 -570.042 1870.91 
-2925.87 -569.793 1868.51 
-2925.97 -569.765 1869.05 
-2936.77 -568.074 1861.66 
-2940.3 -567.653 1861.22 
-2948.06 -567.888 1861.24 
-2948.13 -568.151 1861.46 
-2947.73 -570.131 1863.84 
-2940.79 -572.998 1866.53 
-2952.53 -567.087 1860.3 
-2952.59 -569.288 1862.41 
-2955.81 -567.972 1860.82 
-2935.88 -571.139 1867.44 
-2935.56 -571 1867.24 
-2935.29 -570.846 1867.02 
-2937.99 -571.504 1867.05 
-2936.09 -571.667 1867.64 
-2936.21 -572.904 1867.56 
-2936.7 -567.816 1861.46 
-2936.62 -567.591 1861.31 
-2928.45 -566.875 1861.4 
-2930.7 -566.952 1861.44 
-2933.72 -566.775 1861.08 
-2936.68 -567.393 1861.18 
-2936.6 -567.191 1861.07 
-2936.88 -566.886 1860.89 
-2934.38 -571.309 1867.86 
-2935.93 -570.702 1867.74 
-2937.11 -571.279 1867.43 
-2935.49 -572.058 1867.9 
-2938.58 -571.682 1866.98 
-2934.44 -571.566 1867.7 
-2933.62 -570.082 1868.28 
-2933.45 -569.982 1868.12 
-2934.12 -569.935 1868.25 
-2927.99 -569.4 1867.79 
-2929.09 -569.464 1867.09 
-2931.79 -569.666 1867.08 
-2933.35 -569.741 1868.39 
-2933.48 -569.868 1868.5 
-2933.23 -569.591 1868.47 
-2817.04 -570.152 1858.49 
-2817.17 -570.15 1858.5 
-2817.42 -570.106 1858.56 
-2817.65 -570.711 1858.19 
-2817.79 -570.753 1858.17 
-2817.89 -570.811 1857.98 
-2817.76 -570.404 1858.4 
-2818.12 -570.759 1857.92 
-2818.31 -570.596 1857.72 
-2818.42 -570.393 1857.41 
-2818.62 -570.128 1857.05 
-2818.78 -569.857 1856.64 
-2818.98 -569.622 1856.34 
-2818.88 -569.565 1856.05 
-2817.88 -570.135 1858.67 
-2817.7 -570.071 1858.66 
-2817.97 -570.277 1858.57 
-2817.84 -570.198 1858.6 
-2818.76 -569.542 1855.8 
-2817.45 -569.395 1853.67 
-2815.95 -569.624 1852.54 
-2814.31 -569.883 1851.36 
-2817.85 -569.38 1854.08 
-2818.78 -569.533 1855.73 
-2818.64 -569.508 1855.47 
-2818.5 -569.48 1855.17 
-2818.36 -569.455 1854.91 
-2818.29 -569.438 1854.73 
-2818.02 -569.4 1854.31 
-2818.17 -569.417 1854.51 
-2844.02 -593.721 1881.59 
-2839.93 -596.637 1884.08 
-2847.7 -587.548 1877.88 
-2852.71 -583.169 1874.45 
-2872.55 -583.294 1875.64 
-2857.1 -582.918 1873.11 
-2857.68 -583.813 1873.28 
-2861.96 -583.299 1873.79 
-2868.24 -582.912 1875 
-2877.47 -583.155 1876.35 
-2878.62 -584.14 1876.56 
-2883.05 -584.273 1877.2 
-2887.88 -584.229 1877.9 
-2887.37 -585.269 1877.87 
-2944.31 -1284.94 1848.28 
-2883.73 -1217.36 1801.88 
-2883.74 -1218.15 1801.77 
-2883.91 -1218.58 1801.73 
-2883.67 -1217.27 1801.84 
-2883.64 -1217.41 1801.74 
-2883.74 -1218.07 1801.66 
-2883.88 -1219.72 1801.48 
-2883.92 -1219.76 1801.51 
-2883.81 -1219.14 1801.53 
-2883.99 -1219.23 1801.52 
-2883.98 -1219.75 1801.46 
-2849.4 -1125.68 1792.12 
-2847.03 -1125.09 1788.6 
-2847.29 -1125.15 1788.76 
-2848.41 -1125.33 1790.28 
-2848.23 -1125.22 1790.03 
-2847.83 -1124.88 1789.69 
-2849.52 -1125.48 1792.34 
-2849.38 -1126.39 1791.68 
-2849.29 -1125.36 1791.83 
-2848.88 -1124.99 1791.09 
-2848.67 -1124.73 1790.79 
-2951.66 -1265.97 1852.75 
-2953.56 -1261.81 1843 
-2953.34 -1262.27 1844.11 
-2953.7 -1260.83 1841.29 
-2953.7 -1261.58 1842.31 
-2952.56 -1263.44 1847.12 
-2952.5 -1263.84 1847.96 
-2952.89 -1262.66 1845.36 
-2952.48 -1263.08 1846.47 
-2953.97 -1260.82 1841.25 
-2952.14 -1264.29 1849.1 
-2951.76 -1264.77 1850.29 
-2951.57 -1265.6 1852.06 
-2951.46 -1265.24 1851.43 
-2951.29 -1267.48 1856.08 
-2951.41 -1267.44 1856.41 
-2951.09 -1266.9 1854.98 
-2951.24 -1266.46 1854 
-2951.02 -1267.37 1856.01 
-2956.14 -1265.3 1847.26 
-2955.9 -1265.13 1846.73 
-2955.68 -1264.55 1846.03 
-2955.82 -1262.55 1845.19 
-2955.54 -1262.28 1844.55 
-2955.27 -1262.06 1843.95 
-2955.02 -1261.83 1843.36 
-2955.64 -1260.67 1843.56 
-2955.33 -1260.1 1842.96 
-2954.9 -1260 1842.36 
-2954.49 -1260 1841.79 
-2954.05 -1259.37 1841.39 
-2951.4 -1266.17 1857.61 
-2951.37 -1266.37 1857.92 
-2951.35 -1266.18 1858.13 
-2951.33 -1265.92 1858.33 
-2951.32 -1267.25 1856.58 
-2951.37 -1267 1856.76 
-2951.41 -1266.74 1856.96 
-2951.42 -1266.55 1857.15 
-2951.42 -1266.38 1857.39 
-2952.11 -1268.64 1866.3 
-2951.68 -1271.9 1867.98 
-2953.42 -1262.3 1863.22 
-2952.98 -1264.88 1864.55 
-2952.52 -1267.02 1865.57 
-2953.78 -1260.35 1862.16 
-2950.78 -1265.85 1860.33 
-2951.09 -1265.19 1860.39 
-2951.36 -1264.77 1860.7 
-2951.74 -1264.08 1860.93 
-2952.14 -1263.33 1861.15 
-2952.52 -1262.63 1861.38 
-2953.26 -1261.2 1861.63 
-2952.97 -1261.65 1861.23 
-2950.81 -1265.99 1859.95 
-2951 -1265.54 1859.47 
-2951 -1265.64 1859.34 
-2950.81 -1265.86 1860.09 
-2951.11 -1265.51 1858.89 
-2951.28 -1265.19 1858.44 
-2951.33 -1265.31 1858.18 
-2951.21 -1265.16 1858.82 
-2953.64 -1260.2 1861.55 
-2953.89 -1259.71 1861.87 
-2958.34 -1262.89 1850.37 
-2958.5 -1262.8 1849.68 
-2958.45 -1262.69 1849.4 
-2957.35 -1263.85 1848.69 
-2957.97 -1262.97 1849.08 
-2957.11 -1263.66 1848.14 
-2956.86 -1263.45 1847.57 
-2948 -1281.04 1846.82 
-2950.75 -1278.49 1848.81 
-2953.59 -1272.94 1855.03 
-2955.54 -1269.81 1854.83 
-2955.65 -1271.04 1860.21 
-2955.93 -1270.66 1860.31 
-2957.38 -1265.03 1852.48 
-2958.99 -1262.87 1852.41 
-2958.62 -1262.49 1851.23 
-2958.7 -1262.14 1850.44 
-2956.6 -1263.22 1846.98 
-2848.14 -1252.75 1826.86 
-2850.01 -1256.07 1827.96 
-2850.37 -1257.78 1827.58 
-2851.01 -1260.19 1826.97 
-2851.15 -1261.18 1826.34 
-2851.08 -1260.89 1826.46 
-2851.23 -1261.47 1826.21 
-2847.29 -1267.42 1820.68 
-2847.14 -1267.15 1819.87 
-2846.87 -1266.76 1818.94 
-2847.47 -1267.14 1818.39 
-2847.64 -1267.47 1817.73 
-2848.42 -1268.33 1817.23 
-2851.15 -1270.32 1815.21 
-2845.85 -1266.15 1823.25 
-2846.13 -1266.42 1822.96 
-2845.65 -1265.93 1823.39 
-2845.48 -1265.75 1823.41 
-2846.32 -1266.67 1822.58 
-2846.36 -1266.83 1822.11 
-2846.21 -1266.83 1821.49 
-2846.63 -1267.07 1821.31 
-2847.02 -1267.29 1821.1 
-2845.57 -1264.74 1823.97 
-2845.55 -1265.13 1823.85 
-2845.34 -1265.53 1823.51 
-2845.56 -1264.34 1824.07 
-2845.56 -1264.17 1824.29 
-2845.56 -1264.05 1824.51 
-2848.19 -1262.08 1825.48 
-2848.26 -1261.86 1825.35 
-2845.95 -1263.29 1824.97 
-2845.53 -1263.93 1824.7 
-2836.58 -1234.03 1814.93 
-2835.8 -1232.47 1815.17 
-2839.92 -1247.54 1814.58 
-2838.33 -1242.39 1812.51 
-2837.11 -1237.6 1811.66 
-2836.71 -1235.08 1813.39 
-2836.55 -1235.92 1811.04 
-2840.59 -1248.8 1815.72 
-2841.08 -1249.87 1816.22 
-2841.77 -1253.06 1815.11 
-2842.62 -1253.99 1815.93 
-2846.31 -1252.75 1822.59 
-2847.3 -1251.9 1825.65 
-2847.66 -1252.32 1826.22 
-2843.53 -1253.58 1817.9 
-2834.61 -1229.87 1820.17 
-2833.63 -1229.96 1825.11 
-2833.74 -1229.82 1824.59 
-2834.72 -1229.9 1818.67 
-2834.9 -1230.37 1817.27 
-2834.68 -1230.39 1816.31 
-2830.06 -1225.71 1829.89 
-2830.65 -1227.13 1829.05 
-2830.75 -1227.25 1828.68 
-2829.7 -1224.95 1830.65 
-2833.9 -1236.26 1832.33 
-2835.04 -1239.22 1833.43 
-2832.89 -1233.04 1833.03 
-2830.51 -1225.15 1830.01 
-2829.89 -1224.29 1828.59 
-2831.48 -1229.59 1832.06 
-2828.56 -1220.74 1832.01 
-2828.77 -1222.73 1831.5 
-2829.67 -1224.89 1827.52 
-2829.36 -1225.43 1826.49 
-2834.81 -1230.81 1815.3 
-2854.38 -1273.08 1807.55 
-2852.94 -1271.81 1808.26 
-2851.62 -1270.28 1809.84 
-2851.85 -1270.53 1810.12 
-2851.88 -1270.78 1810.34 
-2851.45 -1270.95 1810.36 
-2851.22 -1271.6 1810.96 
-2851.36 -1271.69 1811.28 
-2851.53 -1271.21 1810.59 
-2851.65 -1271.45 1810.83 
-2851.5 -1271.64 1810.99 
-2851.51 -1271.78 1811.61 
-2851.71 -1271.76 1811.97 
-2853.96 -1270.66 1816.2 
-2853.94 -1270.87 1814.96 
-2854.18 -1270.81 1816.02 
-2854.28 -1271.32 1813.44 
-2854.89 -1272.32 1810.39 
-2854.92 -1272.58 1809.04 
-2854.39 -1272.22 1808.06 
-2854.63 -1272.81 1807.48 
-2854.96 -1272.17 1811.72 
-2854.05 -1271.45 1813.75 
-2853.37 -1271.05 1813.56 
-2853.72 -1271.11 1813.62 
-2853.95 -1271.3 1813.73 
-2852.81 -1270.87 1813.95 
-2852.18 -1270.84 1814.06 
-2854.2 -1271.41 1814.67 
-2854.25 -1271.29 1814.99 
-2854.23 -1271.6 1814.01 
-2854.4 -1271.79 1814.01 
-2854.29 -1271.15 1815.35 
-2854.34 -1271.03 1815.71 
-2851.38 -1271.65 1812.25 
-2851.84 -1271.63 1812.4 
-2846.93 -1267.74 1816.41 
-2844.63 -1267.3 1815.4 
-2846.46 -1267.47 1816.8 
-2845.53 -1267.36 1816.28 
-2847.25 -1267.57 1816.83 
-2847.79 -1267.82 1817.09 
-2852.42 -1271.06 1813.73 
-2851.88 -1271.37 1813.06 
-2840.97 -1266.17 1813.54 
-2843.97 -1267.07 1815.56 
-2842.47 -1266.78 1814.79 
-2843.37 -1266.82 1815.73 
-2841.53 -1266.44 1814.28 
-2842.04 -1266.58 1814.95 
-2838.23 -1252.86 1809.58 
-2837.83 -1252.86 1809.28 
-2837.17 -1253.4 1809.02 
-2836.47 -1254.16 1808.8 
-2842.18 -1257.46 1811.49 
-2842.39 -1262.41 1813.01 
-2841.63 -1264.97 1814.22 
-2842.03 -1257.15 1811.77 
-2840.62 -1254.57 1811.45 
-2840.35 -1254.15 1811.18 
-2840.06 -1253.7 1810.9 
-2839.6 -1253.16 1810.67 
-2839.26 -1253 1810.4 
-2838.74 -1252.68 1810.25 
-2838.22 -1252.3 1810.15 
-2837.95 -1252.35 1809.83 
-2841.27 -1265.88 1814.7 
-2841.43 -1266.18 1814.51 
-2841.48 -1265.51 1814.95 
-2831.05 -1233.73 1813.65 
-2830.49 -1232.85 1814.84 
-2830.8 -1232.19 1816.2 
-2831.07 -1231.53 1817.56 
-2831.24 -1230.77 1819.02 
-2830.48 -1229.81 1820.19 
-2830.18 -1228.68 1821.81 
-2829.71 -1227.38 1823.61 
-2828.96 -1225.8 1825.67 
-2835.49 -1253.2 1809.38 
-2833.21 -1250.06 1810.09 
-2832.91 -1245.37 1810.53 
-2834.83 -1253.53 1809.23 
-2832.38 -1241.14 1810.16 
-2831.93 -1236.8 1810.13 
-2832.1 -1235.45 1811.29 
-2831.28 -1235.14 1811.3 
-2830.75 -1234.33 1812.37 
-2951.12 -1273.65 1868.54 
-2951.35 -1273.69 1868.35 
-2951.26 -1273.56 1868.24 
-2951.73 -1273.45 1868.56 
-2951.04 -1273.66 1868.94 
-2950.9 -1273.86 1869.19 
-2951.46 -1273.45 1868.23 
-2951.49 -1273.53 1868.27 
-2951.75 -1273.36 1868.18 
-2951.64 -1273.4 1868.2 
-2953.08 -1272.52 1869.96 
-2951.83 -1273.07 1868.04 
-2952.97 -1272.53 1870.29 
-2953.06 -1272.57 1870.42 
-2951.9 -1273.18 1868.09 
-2952.08 -1271.77 1867.76 
-2953.56 -1272.22 1870.87 
-2951.94 -1272.99 1868.05 
-2951.79 -1272.85 1868.23 
-2950.95 -1274.03 1868.99 
-2950.97 -1274.33 1868.8 
-2950.9 -1274.81 1867.14 
-2951.12 -1274.42 1867.09 
-2951.09 -1274.54 1866.76 
-2950.6 -1275.07 1871.25 
-2950.51 -1275.35 1871.08 
-2950.57 -1275.38 1870.5 
-2950.65 -1275.34 1869.85 
-2950.99 -1274.78 1866.37 
-2951.19 -1274.48 1866.07 
-2951.16 -1274.49 1866.32 
-2950.97 -1274.84 1866.17 
-2950.3 -1276.84 1859.51 
-2951.2 -1274.55 1865.65 
-2951.27 -1274.62 1864.44 
-2948.55 -1280.45 1847.63 
-2951.17 -1277.38 1851.66 
-2807.95 -573.356 1851.02 
-2807.83 -573.542 1851.27 
-2809.32 -571.439 1849.94 
-2812.41 -570.285 1850.29 
-2812.16 -570.325 1850.06 
-2809.04 -571.626 1849.88 
-2808.94 -571.787 1850.03 
-2808.86 -571.926 1850.06 
-2808.74 -572.093 1850.06 
-2808.61 -572.298 1850.23 
-2808.48 -572.505 1850.39 
-2808.35 -572.712 1850.48 
-2808.2 -572.951 1850.66 
-2808.07 -573.156 1850.83 
-2807.74 -573.711 1851.31 
-2808.97 -573.345 1852.19 
-2809.93 -572.878 1852.69 
-2810.48 -572.545 1852.89 
-2811.14 -572.298 1853.45 
-2811.77 -571.934 1853.73 
-2812.32 -571.59 1853.91 
-2812.89 -571.305 1854.25 
-2813.18 -571.252 1854.61 
-2813.98 -570.968 1855.13 
-2815.41 -570.756 1855.93 
-2816.51 -570.623 1856.54 
-2817.12 -570.48 1856.62 
-2817.33 -570.409 1856.58 
-2816.76 -570.563 1856.5 
-2816.95 -570.246 1857.98 
-2817.54 -570.339 1856.54 
-2817.55 -570.332 1856.66 
-2817.54 -570.331 1856.79 
-2817.56 -570.32 1856.91 
-2817.59 -570.306 1857.03 
-2817.47 -570.345 1857.2 
-2817.3 -570.374 1857.43 
-2817.26 -570.253 1857.71 
-2817.18 -570.138 1857.99 
-2817.05 -570.09 1858.19 
-2817.14 -569.844 1858.66 
-2817.14 -569.939 1858.4 
-2843.67 -558.152 1862.67 
-2843.52 -558.247 1862.65 
-2844.71 -558.269 1862.94 
-2844.91 -558.347 1862.92 
-2844.55 -558.101 1862.85 
-2844.43 -558.055 1862.83 
-2844.29 -557.935 1862.76 
-2844.14 -557.782 1862.68 
-2844 -557.674 1862.61 
