-2250.37 -750.897 -1400.17
-2253.27 -744.061 -1300.37
-2256.16 -737.224 -1200.57
-2259.06 -730.388 -1100.78
-2261.95 -723.552 -1000.98
-2264.85 -716.716 -901.18
-2267.63 -710.098 -801.356
-2270.3 -703.704 -701.522
-2272.85 -697.536 -601.697
-2275.28 -691.599 -501.895
-2277.59 -685.891 -402.036
-2279.78 -680.415 -302.137
-2281.86 -675.175 -202.214
-2283.81 -670.173 -102.282
-2285.64 -665.414 -2.35379
-2287.35 -660.899 97.5573
-2288.94 -656.627 197.529
-2290.4 -652.604 297.46
-2291.75 -648.827 397.43
-2292.97 -645.299 497.426
-2294.07 -642.02 597.442
-2295.05 -638.992 697.469
-2295.92 -636.213 797.501
-2296.66 -633.686 897.535
-2297.29 -631.407 997.568
-2297.81 -629.376 1097.6
-2298.21 -627.591 1197.63
-2298.51 -626.049 1297.66
-2298.69 -624.748 1397.7
-2298.78 -623.683 1497.76
-2298.76 -622.85 1597.76
-2298.65 -622.245 1697.8
-2298.45 -621.86 1797.81
-2298.17 -621.69 1897.81
-2297.8 -621.726 1997.82
-2297.37 -621.962 2097.86
-2296.86 -622.386 2197.89
-2296.29 -622.99 2297.92
-2295.68 -623.763 2397.92
-2295.01 -624.692 2497.93
-2294.31 -625.765 2597.97
-2293.58 -626.97 2698.02
-2292.84 -628.291 2798.04
-2292.08 -629.713 2898.08
-2291.32 -631.221 2998.12
-2290.58 -632.797 3098.14
-2289.85 -634.426 3198.18
-2289.16 -636.09 3298.23
-2288.51 -637.771 3398.28
-2287.91 -639.449 3498.31
-2287.37 -641.107 3598.31
-2286.91 -642.726 3698.34
-2286.54 -644.288 3798.39
-2286.26 -645.772 3898.39
-2286.08 -647.162 3998.38
-2286.03 -648.44 4098.43
-2286.09 -649.586 4198.46
-2286.3 -650.584 4298.46
-2286.64 -651.417 4398.48
-2287.14 -652.07 4498.5
-2287.8 -652.527 4598.52
-2288.62 -652.773 4698.58
-2289.62 -652.796 4798.59
-2290.8 -652.581 4898.59
-2292.16 -652.118 4998.63
-2293.71 -651.395 5098.68
-2295.46 -650.403 5198.7
-2297.4 -649.133 5298.74
-2299.55 -647.578 5398.74
-2301.9 -645.73 5498.74
-2304.45 -643.584 5598.7
-2307.21 -641.133 5698.7
-2310.18 -638.376 5798.62
-2313.36 -635.307 5898.56
-2316.74 -631.926 5998.46
-2320.34 -628.227 6098.39
-2324.14 -624.212 6198.3
-2328.15 -619.88 6298.2
-2332.36 -615.235 6398.01
-2336.77 -610.274 6497.82
-2341.38 -604.997 6597.62
-2346.2 -599.406 6697.41
-2351.01 -593.816 6797.21
-2355.83 -588.225 6897.01
-2360.64 -582.635 6996.8
