-2004.79 -1951.49 4634.7 
-2005.7 -1954.46 4635.8 
-2007.43 -1960.26 4639.5 
-2007.82 -1962.01 4640.53 
-2005.9 -1958.68 4635.54 
-2016.69 -1923.21 4656.95 
-2015.69 -1922.31 4656.95 
-2016.39 -1922.74 4657.08 
-2016.36 -1922.42 4657.48 
-2017.24 -1938.89 4660.9 
-2017.49 -1938.04 4661.45 
-2017.09 -1944.76 4657.28 
-2017.5 -1951.16 4655.16 
-2018.16 -1954.08 4657.27 
-2017.19 -1943.58 4660.87 
-2017.32 -1942.87 4662.09 
-2017.31 -1941.75 4661.81 
-2017.52 -1955.77 4655.02 
-2017.28 -1956.62 4653.96 
-2018.13 -1929.94 4658.83 
-2018.22 -1931.12 4659.5 
-2017.91 -1932.42 4660.06 
-2017.62 -1934.41 4660.86 
-2017.78 -1937.66 4662.55 
-2015.71 -1955.15 4650.81 
-2014.78 -1954.98 4649.7 
-2017.22 -1956.47 4652.54 
-2016.72 -1956.72 4651.8 
-2013.35 -1956.72 4647.65 
-2018.13 -1959.66 4652.36 
-2018.49 -1959.57 4653.03 
-2017.47 -1924.06 4657.8 
-2017.31 -1923.79 4657.51 
-2017.2 -1923.48 4657.33 
-2017.53 -1924.37 4657.91 
-2017.61 -1925.02 4658.15 
-2017.73 -1924.7 4658.28 
-2018.13 -1925.6 4658.52 
-2018.34 -1925.21 4658.71 
-2020.44 -1927.52 4659.94 
-2020.61 -1927.82 4660.23 
-2020.96 -1928.25 4660.78 
-2018.34 -1926.35 4658.45 
-2020.2 -1927.18 4659.69 
-2020.26 -1926.72 4659.67 
-2010.56 -1959.56 4643.84 
-2008.46 -1962.15 4641.54 
-2014.61 -1918.61 4666.8 
-2014.5 -1918.42 4666.13 
-2014.63 -1918.46 4665.2 
-2015.21 -1919.61 4668.61 
-2014.96 -1919.38 4663.23 
-2016.62 -1922.08 4675.91 
-2016.86 -1921.93 4673.73 
-2018.64 -1925.46 4684 
-2021.79 -1929.21 4688.84 
-2021.43 -1929.81 4691.15 
-2019.16 -1930.86 4701.12 
-2016.97 -1930.23 4707.08 
-2016.38 -1921.4 4671.82 
-2016.6 -1921.25 4670.59 
-2017.09 -1921.93 4672.19 
-2016.65 -1920.82 4669.34 
-2017.2 -1921.29 4669.51 
-2015.06 -1919.56 4661.97 
-2014.46 -1920.27 4659.51 
-2014.87 -1919.79 4660.74 
-2014.88 -1920.91 4658.92 
-2015.18 -1921.36 4658.4 
-2015.17 -1921.67 4657.75 
-2015.83 -1922.09 4657.52 
-2006.37 -1956.02 4636.7 
-2005.99 -1957.99 4635.81 
-2005.31 -1957.16 4634.73 
-2004.23 -1956.32 4632.86 
-2005.66 -1959.57 4635.13 
-2006.63 -1961.74 4638.68 
-2006.92 -1963.03 4639.47 
-2006.91 -1964.12 4639.86 
-2004.28 -1959.29 4632.05 
-2004.22 -1958.48 4632.11 
-2003.88 -1959.06 4631.35 
-2016.95 -1922.94 4657.49 
-2017.13 -1923.21 4657.42 
-2016.24 -1922.24 4657.7 
-2016.81 -1922.62 4657.66 
-2016.92 -1922.45 4658.08 
-2016.74 -1922.25 4658.25 
-2017.67 -1940.48 4663.02 
-2018.07 -1939.41 4664.27 
-2018.04 -1948.72 4663.41 
-2018.63 -1961.08 4655.8 
-2018.52 -1956.46 4658.77 
-2018.57 -1960.66 4656.63 
-2018.48 -1947.77 4668.26 
-2018.36 -1946 4670.52 
-2017.82 -1942.82 4666.09 
-2017.73 -1941.76 4664.12 
-2018.63 -1960.19 4654.81 
-2018.64 -1959.72 4653.89 
-2020.93 -1928.94 4661.21 
-2020.51 -1930.19 4661.58 
-2020.14 -1931.66 4662.18 
-2018.39 -1934.33 4662.01 
-2018.11 -1936.78 4663.27 
-2018.59 -1938.38 4664.86 
-2016 -1956.68 4650.83 
-2014.95 -1956.09 4649.72 
-2017.57 -1959.98 4651.74 
-2017.16 -1959.87 4651.16 
-2012.34 -1958.7 4646.09 
-2014 -1957.65 4648.3 
-2018.82 -1962.37 4652 
-2019.21 -1962.69 4652.45 
-2019.36 -1962.51 4653.05 
-2017.82 -1924.15 4658.42 
-2017.69 -1923.8 4658.19 
-2017.52 -1923.58 4657.88 
-2017.5 -1923.3 4657.84 
-2017.85 -1924.41 4658.46 
-2018.59 -1924.89 4658.87 
-2018.52 -1924.53 4658.85 
-2020.56 -1925.63 4659.81 
-2020.81 -1924.97 4659.98 
-2020.9 -1924.53 4660.07 
-2022.8 -1925.78 4661.48 
-2022.55 -1925.7 4661.18 
-2023.13 -1925.8 4661.86 
-2022.77 -1926.73 4661.95 
-2020.38 -1926.31 4659.72 
-2022.53 -1925.36 4661.04 
-2022.08 -1925.35 4660.69 
-2010.46 -1961.43 4643.74 
-2008.3 -1963.45 4641.53 
-2007.24 -1964.71 4640.53 
-2016.4 -1920.3 4668.17 
-2016.25 -1919.83 4666.7 
-2015.57 -1919.48 4666.15 
-2015.33 -1919.36 4665.66 
-2015.57 -1919.49 4664.72 
-2015.6 -1919.92 4663.14 
-2015.95 -1919.98 4664.28 
-2017.16 -1922.98 4676.41 
-2017.44 -1922.6 4674.01 
-2017.27 -1922.95 4674.36 
-2017.7 -1922.48 4672.98 
-2019.62 -1926.26 4684.05 
-2022.35 -1929.32 4688.14 
-2022.69 -1933.1 4693.58 
-2021.85 -1932.02 4695.01 
-2015.43 -1929 4708.8 
-2017.39 -1930.01 4709.77 
-2016.06 -1928.78 4711.78 
-2020.1 -1933.12 4702.28 
-2018.82 -1931.76 4709.74 
-2018.21 -1930.69 4710.31 
-2015.29 -1928.78 4715.36 
-2016.74 -1930.32 4715.28 
-2013.79 -1928.63 4718.48 
-2017.52 -1921.88 4670.4 
-2018.76 -1921.87 4668.83 
-2019.03 -1922.01 4669.15 
-2017.81 -1922.21 4670.71 
-2017.78 -1922.38 4671.62 
-2018.26 -1921.29 4667.73 
-2018.62 -1921.51 4667.98 
-2018.98 -1921.63 4668.26 
-2015.53 -1919.97 4661.95 
-2015.17 -1920.44 4660 
-2015.48 -1920.08 4660.93 
-2015.64 -1921.22 4659.09 
-2015.57 -1920.81 4659.74 
-2015.96 -1921.86 4658.12 
-2016.11 -1921.65 4658.71 
-2016.39 -1922.08 4658.17 
-2003.98 -1958.15 4631.71 
-2003.6 -1957.78 4631.11 
-2005.43 -1960.03 4634.61 
-2004.19 -1959.76 4631.8 
-2005.56 -1963.32 4637.69 
-2005.95 -1962.21 4637.48 
-2005.27 -1960.4 4634.27 
-2005.79 -1963.98 4638.35 
-2005.73 -1964.84 4638.58 
-2006.37 -1965 4639.45 
-2003.38 -1960.08 4630.48 
-2003.09 -1959.38 4629.94 
-2017.43 -1923.02 4657.93 
-2017.3 -1922.69 4658.11 
-2017.49 -1922.52 4658.61 
-2017.24 -1922.34 4658.65 
-2017.23 -1922.17 4658.97 
-2016.88 -1922.05 4658.79 
-2018.13 -1940.35 4665.34 
-2019.02 -1938.84 4665.91 
-2019.15 -1953.23 4664.65 
-2019.06 -1966.77 4658.34 
-2018.98 -1966.5 4656.76 
-2018.93 -1963.89 4653.91 
-2018.25 -1957.89 4660.29 
-2018.39 -1961.67 4658.43 
-2018.92 -1965.03 4658.7 
-2019.54 -1951.3 4669.06 
-2018.26 -1943.86 4670.1 
-2018.62 -1946.7 4673.01 
-2018.81 -1939.37 4675.76 
-2018.76 -1938.94 4675.05 
-2019.47 -1948.7 4674.81 
-2019.28 -1949.6 4672.51 
-2018.24 -1941.24 4666.8 
-2018.3 -1942.4 4669.5 
-2022.7 -1927.53 4662.37 
-2022.58 -1928.42 4662.77 
-2020.32 -1932.73 4663.24 
-2022.47 -1929.67 4663.45 
-2020.27 -1933.79 4663.97 
-2020.21 -1935.01 4664.58 
-2021.03 -1935.31 4665.9 
-2020.69 -1935.2 4665.26 
-2016.71 -1959.71 4650.39 
-2015.95 -1959.68 4649.51 
-2018.39 -1962.27 4651.45 
-2017.84 -1962.66 4650.6 
-2012.62 -1959.72 4646.42 
-2015.24 -1960.69 4648.63 
-2018.47 -1963.32 4651.22 
-2018.96 -1963.74 4651.84 
-2018.83 -1964.04 4652.61 
-2017.96 -1923.9 4658.61 
-2018.26 -1924.2 4658.71 
-2018.23 -1923.97 4658.69 
-2018.04 -1923.62 4658.7 
-2017.79 -1923.48 4658.36 
-2017.81 -1923.19 4658.38 
-2020.67 -1924.3 4660.04 
-2020.27 -1924.09 4659.96 
-2022.37 -1924.65 4660.84 
-2022.34 -1924.26 4660.83 
-2022.22 -1923.94 4660.77 
-2023.2 -1925.16 4661.75 
-2023.08 -1924.83 4661.49 
-2023.46 -1925.33 4662.14 
-2023.3 -1926.13 4662.26 
-2022.78 -1924.67 4661.12 
-2010.46 -1962.8 4643.68 
-2008.6 -1964.48 4641.75 
-2007.56 -1965.32 4640.82 
-2006.6 -1965.8 4639.94 
-2017.91 -1920.99 4667.35 
-2017.84 -1920.69 4666.42 
-2017 -1920.26 4665.96 
-2016.72 -1920.22 4665.55 
-2016.34 -1920.11 4665.15 
-2016.76 -1920.21 4664.74 
-2016.12 -1920 4662.78 
-2016.3 -1920 4663.72 
-2016.94 -1920.16 4664.31 
-2018.85 -1933.5 4710.39 
-2015.43 -1930.6 4717.5 
-2018.13 -1935.12 4711.88 
-2016.99 -1937 4713.61 
-2014.71 -1931.77 4718.97 
-2017.59 -1923.7 4676.05 
-2017.44 -1923.77 4673.96 
-2018.22 -1923.38 4672.5 
-2017.92 -1923.74 4673.04 
-2018.34 -1922.93 4672.1 
-2020.03 -1926.31 4683.1 
-2022.62 -1929.63 4687.99 
-2023.6 -1935.4 4693.69 
-2023.66 -1937.27 4696.54 
-2022.51 -1935.47 4697.71 
-2020.74 -1934.79 4702.73 
-2019.24 -1922.17 4669.56 
-2020.19 -1920.61 4667.95 
-2020.29 -1921.05 4668.3 
-2020.44 -1921.55 4668.67 
-2019.24 -1922.51 4670.05 
-2018.48 -1922.76 4670.95 
-2019.98 -1919.99 4667.03 
-2020.09 -1920.08 4667.33 
-2020.11 -1920.22 4667.61 
-2001.23 -1968.98 4635.05 
-2001.35 -1970.18 4635.97 
-2001.65 -1968.97 4636.08 
-2016.13 -1920.01 4661.85 
-2015.87 -1920.46 4660.55 
-2016.13 -1920.19 4661.12 
-2016.38 -1921.49 4659.31 
-2016.14 -1921.16 4659.67 
-2016.23 -1920.85 4660.23 
-2016.52 -1921.89 4658.69 
-2016.71 -1921.72 4659.23 
-2004.33 -1960.03 4632.2 
-2003.91 -1960.28 4631.16 
-2003.13 -1960.47 4630.24 
-2002.93 -1959.85 4629.81 
-2005.22 -1964.38 4637.83 
-2005.33 -1962.92 4636.46 
-2004.98 -1963.84 4636.97 
-2005.06 -1960.77 4634.03 
-2005.34 -1962.43 4635.75 
-2005.33 -1965.22 4638.28 
-2005.8 -1965.67 4638.92 
-2006.04 -1965.54 4639.2 
-2017.8 -1922.9 4658.46 
-2017.85 -1922.66 4658.77 
-2018.28 -1922.37 4659.37 
-2017.75 -1922.36 4659.16 
-2017.59 -1921.99 4659.57 
-2017.82 -1922.16 4659.5 
-2017.06 -1921.88 4659.3 
-2019.07 -1939.47 4666.7 
-2021.35 -1935.23 4666.48 
-2018.88 -1955.31 4665.89 
-2018.97 -1967.73 4656.53 
-2020.23 -1971.94 4663.17 
-2020.3 -1971.07 4663.67 
-2018.8 -1965.21 4653.26 
-2018.53 -1963.61 4660.05 
-2018.05 -1961.03 4661.18 
-2019.12 -1966.35 4660.75 
-2018.01 -1958.28 4663.17 
-2020.33 -1970.26 4663.97 
-2018.99 -1951.64 4670.61 
-2018.75 -1942.01 4671.6 
-2018.91 -1944.16 4675.64 
-2018.93 -1940.51 4676.45 
-2019.73 -1947.87 4675.61 
-2018.75 -1935.24 4675.99 
-2018.78 -1933.81 4675.3 
-2018.72 -1937.7 4674.49 
-2018.72 -1933.46 4674.8 
-2020.74 -1948.41 4676.78 
-2019.44 -1949.86 4674.76 
-2020.21 -1949.49 4676.84 
-2019.2 -1950.49 4672.88 
-2019.36 -1939.73 4667.59 
-2018.67 -1941.29 4668.46 
-2018.71 -1940.92 4671.68 
-2018.52 -1941.32 4670.14 
-2023.37 -1926.98 4662.8 
-2023.11 -1928.22 4663.23 
-2022.59 -1930.24 4664.11 
-2022.7 -1930.45 4664.64 
-2022.68 -1931.05 4665.25 
-2016.71 -1965.25 4649.06 
-2016.2 -1964.89 4648.55 
-2017.08 -1966.38 4649.19 
-2014.63 -1962.44 4647.56 
-2011.36 -1963.04 4644.53 
-2015.12 -1969.22 4646.19 
-2017.56 -1966.77 4649.65 
-2018.06 -1966.69 4650.37 
-2018.47 -1965.85 4651.49 
-2018.56 -1967.71 4652.29 
-2018.36 -1966.73 4651.77 
-2018.31 -1923.67 4658.74 
-2019.62 -1923.75 4659.57 
-2019.21 -1923.42 4659.22 
-2018.1 -1923.32 4658.78 
-2018.39 -1923.32 4658.8 
-2018.11 -1923.04 4658.82 
-2022.12 -1923.62 4660.74 
-2021.89 -1923.38 4660.81 
-2022.66 -1924.22 4661.07 
-2022.5 -1923.93 4660.98 
-2022.36 -1923.57 4660.93 
-2023.55 -1924.84 4662.12 
-2023.26 -1924.6 4661.7 
-2022.93 -1924.35 4661.33 
-2023.71 -1925.07 4662.44 
-2023.48 -1925.59 4662.33 
-2023.45 -1926.16 4662.57 
-2009.06 -1965.44 4642.08 
-2008.05 -1965.97 4641.11 
-2007.09 -1966.42 4640.32 
-2006.73 -1966.79 4640.04 
-2006.36 -1966.18 4639.62 
-2019.81 -1919.88 4666.72 
-2019.69 -1919.63 4666.48 
-2018.35 -1920.84 4665.81 
-2017.98 -1920.71 4665.44 
-2017.62 -1920.52 4665.02 
-2017.92 -1920.48 4664.55 
-2016.66 -1920.02 4662.8 
-2016.97 -1920.07 4663.74 
-2017.98 -1920.36 4664.11 
-2020.37 -1935.82 4704.85 
-2019.62 -1937.39 4706.79 
-2015.94 -1938.91 4714.75 
-2018.96 -1938.64 4707.52 
-2017.94 -1924.28 4675.35 
-2017.62 -1924.61 4673.56 
-2018.15 -1924.69 4672.53 
-2018.68 -1924.58 4671.64 
-2018.79 -1923.74 4671.38 
-2018.6 -1924.39 4671.59 
-2018.86 -1923.24 4671.16 
-2020.11 -1926.14 4680.25 
-2022.67 -1929.58 4687.64 
-2024.36 -1936.85 4693.1 
-2024.66 -1938.95 4695.76 
-2022.82 -1936.67 4699.06 
-2023.89 -1938.13 4697.79 
-2020.6 -1922.07 4669.08 
-2020.52 -1920.31 4666.21 
-2020.43 -1920.57 4666.14 
-2020.63 -1921.05 4666.62 
-2021 -1921.64 4667.37 
-2019.58 -1922.93 4670.42 
-2020.8 -1922.56 4669.51 
-2021.25 -1919.82 4665.97 
-2021.04 -1919.99 4666.05 
-2020.78 -1920.16 4666.12 
-1999.55 -1976.33 4633.17 
-2000.18 -1977.56 4633.97 
-2000.63 -1973.96 4634.88 
-2001.18 -1975.34 4635.47 
-2002.2 -1971.53 4637.03 
-2001.47 -1968.22 4636.08 
-2002.52 -1968.74 4637.38 
-2001.64 -1967.58 4636.09 
-2002.22 -1969.31 4637.22 
-2001.98 -1970.16 4637.03 
-2016.69 -1920.07 4661.76 
-2016.51 -1920.58 4660.81 
-2016.76 -1920.36 4661.29 
-2016.75 -1921.18 4660.09 
-2017.02 -1921.33 4660.07 
-2017.05 -1921.52 4659.82 
-2016.92 -1920.9 4660.61 
-2017.42 -1921.66 4659.89 
-2002.6 -1960.33 4629.86 
-2003.9 -1960.61 4631.12 
-2002.71 -1960.89 4630.21 
-2004.88 -1964.82 4637.65 
-2003.52 -1965.74 4636.88 
-2002.93 -1965.44 4636.11 
-2004.94 -1963.33 4636.06 
-2004.57 -1964.44 4636.96 
-2002.47 -1965.12 4635.38 
-2004.84 -1960.94 4633.61 
-2004.15 -1960.57 4631.89 
-2005.02 -1962.55 4635.14 
-2004.2 -1966.21 4637.74 
-2001.24 -1966.38 4635.18 
-2001.84 -1966.83 4636.01 
-2004.82 -1966.77 4638.51 
-2018.32 -1922.7 4658.91 
-2018.5 -1922.41 4659.1 
-2018.44 -1922.15 4659.82 
-2019.56 -1921.66 4659.53 
-2019.56 -1921.42 4659.66 
-2018.35 -1921.96 4660.14 
-2018.41 -1921.74 4660.47 
-2017.78 -1921.78 4659.99 
-2021.61 -1935.22 4667.02 
-2022.9 -1931.07 4665.83 
-2018.5 -1955.27 4668.28 
-2017.9 -1959.14 4667.72 
-2018.75 -1969.18 4656.26 
-2020.24 -1973.2 4663.2 
-2021.33 -1973.57 4666.21 
-2021.4 -1974.52 4666.15 
-2021.44 -1972.98 4667.07 
-2017.94 -1961.74 4665.87 
-2018.32 -1963.24 4663.5 
-2018.9 -1966.25 4663.19 
-2017.74 -1960.69 4667.14 
-2020.52 -1969.99 4664.88 
-2020.38 -1969.49 4665.39 
-2021.65 -1972.48 4668.33 
-2018.62 -1952.25 4672.5 
-2019.38 -1944.56 4676.21 
-2019.05 -1937.26 4677.28 
-2020.47 -1946.98 4677.4 
-2018.93 -1934.79 4676.47 
-2018.95 -1933.37 4675.64 
-2019.03 -1930.67 4674.4 
-2018.86 -1930.83 4674.13 
-2018.68 -1934.79 4673.82 
-2018.68 -1930.72 4673.74 
-2020.91 -1947.53 4678.77 
-2020.75 -1948.88 4678.7 
-2019.41 -1950.78 4676.47 
-2019.74 -1951.51 4673.93 
-2019.88 -1950.36 4678.33 
-2019.42 -1940.12 4668.88 
-2021.82 -1935.84 4667.95 
-2021.85 -1935.25 4667.48 
-2018.66 -1938.97 4672.57 
-2018.57 -1940.29 4671.04 
-2019.31 -1939.98 4669.81 
-2023.6 -1927.04 4663.21 
-2023.47 -1928.4 4663.88 
-2023.55 -1928.7 4664.55 
-2023.52 -1929.16 4665.13 
-2015.49 -1970.61 4646.04 
-2015.89 -1971.59 4646.02 
-2016.08 -1972.21 4646.38 
-2012.53 -1964.81 4645.16 
-2014.64 -1969.54 4645.51 
-2013.94 -1969.3 4644.92 
-2009.61 -1966.07 4642.45 
-2015.2 -1972.64 4644.68 
-2014.56 -1972.89 4643.99 
-2016.33 -1971.98 4647.05 
-2016.78 -1971.58 4647.91 
-2017.41 -1973.04 4652.65 
-2018.14 -1972.17 4654.85 
-2017 -1974.65 4651.3 
-2017.25 -1971.52 4648.69 
-2019.17 -1923.05 4659.12 
-2021.54 -1923.06 4660.91 
-2020.9 -1922.68 4660.73 
-2018.44 -1922.95 4658.83 
-2019.18 -1922.67 4659.06 
-2022.21 -1923.3 4660.86 
-2022.12 -1923.29 4660.96 
-2022.62 -1923.74 4661.14 
-2022.81 -1923.96 4661.3 
-2022.46 -1923.35 4661.08 
-2022.31 -1923.09 4661 
-2023.8 -1924.57 4662.4 
-2023.27 -1924.38 4661.8 
-2023.07 -1923.99 4661.58 
-2023.62 -1925.5 4662.58 
-2023.8 -1925.01 4662.62 
-2023.58 -1926.16 4662.85 
-2008.51 -1967.16 4641.27 
-2007.3 -1967.35 4640.46 
-2007.81 -1967.21 4640.74 
-2005.84 -1968.53 4639.7 
-2005.33 -1967.37 4639.12 
-2005.73 -1968.01 4639.56 
-2019.56 -1919.34 4666.27 
-2020.88 -1919.3 4665.65 
-2021.2 -1919.6 4665.78 
-2019.47 -1919.28 4665.92 
-2018.53 -1920.49 4665.26 
-2018.54 -1920.18 4664.98 
-2018.57 -1919.73 4664.71 
-2017.43 -1920.09 4663.34 
-2017.1 -1920.03 4662.55 
-2018.05 -1920.21 4663.71 
-2018.51 -1919.53 4664.33 
-2022.76 -1936.75 4700.88 
-2022.88 -1937.58 4702.08 
-2021.78 -1938.45 4703.58 
-2018.95 -1939.56 4707.08 
-2017.77 -1924.95 4674.11 
-2018.34 -1925.57 4672.12 
-2017.99 -1925.7 4672.76 
-2018.72 -1925.62 4671.58 
-2018.9 -1925.32 4671.3 
-2018.92 -1923.95 4670.64 
-2018.91 -1924.55 4670.79 
-2018.79 -1925.21 4670.56 
-2019.48 -1923.39 4670.52 
-2021.65 -1926.59 4682.99 
-2019.85 -1926.08 4676.9 
-2023 -1929.91 4687.63 
-2024.4 -1936.63 4692.07 
-2025.65 -1939.93 4694.19 
-2025.42 -1940.6 4695.93 
-2024.68 -1939.39 4697.48 
-2023.95 -1938.12 4699.17 
-2021.44 -1922.23 4668.03 
-2020.88 -1920.49 4665.55 
-2020.78 -1920.75 4665.71 
-2021.11 -1921.15 4666.04 
-2021.45 -1921.69 4666.74 
-2021.07 -1922.84 4669.6 
-2021.29 -1923.04 4669.56 
-2021.77 -1922.74 4668.64 
-2021.82 -1920.02 4664.98 
-2021.52 -1920.18 4665.14 
-2021.21 -1920.36 4665.32 
-1999.13 -1977.65 4632.79 
-2000.18 -1979.37 4634.2 
-2000.2 -1978.49 4634.06 
-1999.31 -1978.81 4633.01 
-1998.19 -1977.29 4631.42 
-2000.97 -1978.87 4634.84 
-2001.08 -1979.94 4634.98 
-1998.49 -1978.49 4631.86 
-2001.65 -1975.95 4636.05 
-2002.87 -1971.84 4637.8 
-2002.65 -1967.97 4637.33 
-2004.44 -1964.1 4636.4 
-2003.22 -1969.67 4638.26 
-2002.99 -1970.55 4638.16 
-2003.63 -1969.04 4638.41 
-2017.4 -1920.12 4662.08 
-2017.37 -1920.41 4661.63 
-2017.23 -1920.67 4661.15 
-2017.79 -1921.23 4660.74 
-2017.71 -1921.07 4660.91 
-2017.43 -1920.97 4660.85 
-2017.75 -1921.44 4660.42 
-2017.81 -1920.71 4661.48 
-2018.29 -1921.54 4660.66 
-2003.04 -1961.15 4630.29 
-2003.52 -1961.12 4630.57 
-2004.63 -1963.27 4635.58 
-2004.66 -1961.23 4633.51 
-2004.05 -1960.92 4631.72 
-2004.61 -1962.71 4634.89 
-2019.36 -1922.18 4659.3 
-2019.49 -1921.93 4659.41 
-2019.5 -1921.23 4659.94 
-2020.26 -1921.26 4660.36 
-2020.12 -1920.79 4660.39 
-2019.97 -1920.58 4660.28 
-2019.39 -1921.02 4660.25 
-2019.22 -1920.77 4660.58 
-2023.14 -1931.04 4666.59 
-2023.47 -1929.72 4665.79 
-2017.57 -1956.06 4674.14 
-2017.44 -1957.82 4673.34 
-2017.14 -1960.37 4673.98 
-2016.95 -1959.5 4675.74 
-2019.71 -1974.96 4661.95 
-2021.49 -1975.5 4666.49 
-2021.84 -1974.14 4668.16 
-2021.7 -1974.74 4667.4 
-2021.97 -1973.66 4669.17 
-2018.36 -1964.63 4667.1 
-2017.68 -1963.1 4669.74 
-2017.29 -1961.67 4672.76 
-2018.92 -1966.51 4666.07 
-2020.25 -1969.07 4666.18 
-2021.67 -1971.89 4669.32 
-2022.04 -1973.03 4670.05 
-2017.58 -1955.26 4677.29 
-2018.16 -1953.85 4677.64 
-2019.85 -1943.94 4677.99 
-2019.23 -1936.75 4677.91 
-2021.22 -1944.92 4680.18 
-2020.08 -1940.74 4679.67 
-2019.2 -1935.17 4677.37 
-2019.16 -1933.29 4676.35 
-2019.06 -1933.26 4675.95 
-2019.2 -1930.62 4674.7 
-2019.11 -1928.75 4673.86 
-2019.41 -1928.88 4674.22 
-2018.86 -1928.78 4673.52 
-2018.64 -1933.25 4673.2 
-2018.39 -1928.86 4672.91 
-2018.56 -1928.47 4673.11 
-2022.87 -1946.33 4683.89 
-2022.96 -1944.92 4683.98 
-2020.47 -1949.91 4679.9 
-2022.98 -1947.77 4683.91 
-2019.14 -1951.66 4679.7 
-2018.64 -1952.5 4678.77 
-2019.78 -1951.15 4681.42 
-2022.22 -1935.24 4668.27 
-2023.26 -1931.09 4667.28 
-2019.06 -1938.65 4671.9 
-2018.71 -1934.87 4672.49 
-2019.85 -1939.4 4670.68 
-2022.43 -1935.03 4668.69 
-2023.73 -1926.83 4663.4 
-2023.76 -1927.65 4663.87 
-2023.95 -1927.52 4664.43 
-2023.9 -1927.07 4663.89 
-2023.86 -1928.14 4665.04 
-2015.29 -1973.25 4644.71 
-2015.44 -1973.48 4645.41 
-2015.24 -1974.3 4645.91 
-2012.94 -1969.24 4644.11 
-2010.32 -1966.7 4642.83 
-2013.97 -1973.2 4643.35 
-2009.08 -1967.82 4641.59 
-2014.42 -1974.03 4643.64 
-2013.87 -1974.11 4643.13 
-2015.56 -1974.2 4646.61 
-2016.15 -1974.4 4647.34 
-2017.98 -1980.05 4655.69 
-2018.65 -1979.82 4657.99 
-2017.71 -1981.12 4654.66 
-2016.62 -1979.93 4652.83 
-2016.07 -1977.4 4650.15 
-2020.6 -1922.31 4660.53 
-2021.73 -1922.9 4661.01 
-2021.3 -1922.33 4661.11 
-2019.21 -1922.39 4659.08 
-2020.47 -1922.06 4660.38 
-2022.14 -1922.81 4661.12 
-2021.68 -1922.43 4661.16 
-2022.6 -1923.24 4661.24 
-2022.79 -1923.61 4661.37 
-2022.43 -1922.86 4661.17 
-2023.92 -1924.2 4662.56 
-2023.63 -1923.99 4662.23 
-2023.93 -1924.58 4662.72 
-2023.23 -1923.68 4661.86 
-2023.06 -1923.25 4661.69 
-2023.69 -1925.58 4662.81 
-2023.82 -1925.06 4662.83 
-2023.76 -1926.17 4663.24 
-2007.87 -1968.05 4640.82 
-2008.23 -1968.49 4640.99 
-2005.99 -1968.98 4639.76 
-2004 -1969.96 4638.93 
-2021.83 -1919.75 4664.97 
-2021.24 -1919.32 4665.03 
-2019.36 -1918.88 4665.74 
-2020.69 -1918.96 4665.15 
-2019.28 -1918.62 4665.47 
-2018.92 -1918.2 4664.92 
-2019.13 -1918.29 4665.28 
-2017.79 -1920.05 4662.89 
-2018.25 -1919.74 4663.44 
-2018.46 -1919.23 4664.01 
-2018.58 -1918.05 4664.59 
-2018.12 -1940.74 4708.01 
-2014.8 -1942.25 4715.18 
-2023.95 -1938.92 4702.77 
-2021.6 -1939.92 4703.74 
-2024.37 -1938.62 4701.79 
-2024.46 -1939.07 4699.48 
-2017.97 -1925.89 4673.49 
-2018.74 -1926.45 4671.72 
-2018.5 -1926.63 4671.95 
-2018.22 -1926.75 4672.31 
-2018.88 -1926.14 4671.17 
-2018.79 -1926.84 4671.07 
-2018.5 -1926.05 4670.11 
-2019.06 -1924.11 4670.14 
-2018.61 -1924.55 4669.79 
-2018.47 -1925.13 4669.55 
-2018.36 -1925.71 4669.38 
-2021.58 -1923.23 4669.52 
-2022.35 -1926.6 4681.24 
-2023.12 -1928.99 4686.52 
-2020.22 -1926.56 4675.85 
-2022.91 -1933.03 4689.28 
-2024.81 -1937.43 4691.95 
-2026.3 -1940.46 4693.48 
-2026.21 -1941.67 4694.74 
-2025.51 -1941.99 4697.01 
-2025.03 -1940.55 4698.21 
-2021.94 -1922.06 4666.83 
-2021.96 -1922.52 4667.87 
-2021.5 -1920.65 4664.92 
-2021.35 -1921.06 4665.52 
-2021.79 -1921.48 4665.73 
-2022.12 -1922.96 4668.51 
-2022.31 -1922.81 4667.91 
-2022.24 -1920.06 4664.51 
-2022 -1920.29 4664.68 
-2021.61 -1920.39 4664.98 
-2021.46 -1920.58 4665.08 
-1999.87 -1979.91 4634.08 
-2001.1 -1980.71 4635.05 
-1999.21 -1979.64 4633.1 
-2002.02 -1979.82 4635.9 
-2002.26 -1976.58 4636.68 
-2001.8 -1980.63 4635.62 
-2003.12 -1972.3 4638.13 
-2004.17 -1963.69 4635.6 
-2002.41 -1964.79 4635.02 
-2003.13 -1961.37 4630 
-2003.25 -1961.13 4630.14 
-2002.57 -1961.29 4629.56 
-2002.91 -1960.92 4629.94 
-2003.54 -1970.94 4638.71 
-2017.93 -1919.92 4662.55 
-2017.99 -1920.21 4662.23 
-2018.06 -1920.46 4662 
-2018.56 -1920.88 4661.76 
-2018.49 -1921.08 4661.43 
-2018.42 -1921.3 4661.07 
-2018.2 -1920.8 4661.63 
-2018.45 -1920.32 4662.11 
-2019.06 -1920.51 4660.89 
-2004.54 -1961.42 4633.47 
-2003.91 -1961.33 4631.44 
-2003.61 -1961.38 4630.56 
-2004.49 -1962.5 4634.5 
-2004.08 -1963.17 4634.89 
-2020.47 -1921.54 4660.53 
-2020.01 -1920.28 4660.46 
-2020.52 -1921.05 4660.79 
-2020.28 -1920.53 4660.68 
-2020.68 -1920.94 4660.94 
-2020.23 -1920.31 4660.71 
-2019.99 -1920.1 4660.52 
-2019.98 -1919.77 4660.73 
-2023.44 -1929.97 4666.51 
-2023.78 -1928.63 4665.65 
-2016.64 -1958.46 4682.77 
-2016.38 -1959.83 4682.04 
-2016.08 -1962.29 4683.68 
-2016.78 -1962.91 4677.33 
-2016.4 -1963.69 4681.65 
-2020.32 -1976.4 4664.2 
-2019.12 -1980.96 4659.66 
-2021.61 -1975.51 4667.73 
-2021.44 -1976.26 4667.13 
-2020.53 -1977.67 4665.22 
-2021.73 -1974.92 4668.98 
-2021.89 -1974.46 4669.8 
-2022.07 -1973.96 4670.74 
-2017.88 -1964.57 4670.6 
-2019.55 -1967.82 4669.52 
-2017.57 -1963.95 4674.1 
-2017.25 -1964.66 4677.19 
-2019.81 -1968.27 4667.51 
-2021.28 -1971.18 4669.33 
-2022.03 -1972.47 4670.48 
-2022.04 -1973.23 4671.08 
-2017.1 -1956.35 4682.68 
-2017.92 -1954.01 4681.73 
-2019.62 -1936.84 4679 
-2020.45 -1940.47 4680.69 
-2022.93 -1943.48 4683.81 
-2019.5 -1934.35 4677.79 
-2019.58 -1935.55 4678.45 
-2020.75 -1929.28 4675.61 
-2020.36 -1929.64 4675.32 
-2019.3 -1932.45 4676.45 
-2021.24 -1928.02 4675.12 
-2018.97 -1928.24 4673.48 
-2021.48 -1927.79 4674.98 
-2021.35 -1927.71 4674.65 
-2018.46 -1931.15 4672.58 
-2018.12 -1929 4672.5 
-2018.25 -1928.39 4672.65 
-2018.71 -1927.91 4673.07 
-2018.23 -1928.01 4672.65 
-2027.02 -1946.54 4688.32 
-2026.75 -1945.64 4687.93 
-2025.82 -1943.89 4687.45 
-2022.99 -1949.16 4683.93 
-2023.15 -1949.26 4685.47 
-2026.95 -1946.93 4688.76 
-2019.25 -1952.05 4683.04 
-2018.53 -1953.05 4682.55 
-2023.31 -1949.24 4686.45 
-2023.39 -1930.42 4667.56 
-2020.66 -1938.03 4671.28 
-2019.16 -1936.64 4671.47 
-2018.7 -1933.34 4671.83 
-2022.75 -1934.57 4669.53 
-2022.59 -1934.99 4669.15 
-2023.45 -1930.41 4668.16 
-2024.16 -1926.68 4664.36 
-2023.98 -1926.49 4663.84 
-2024.18 -1927.14 4664.93 
-2014.33 -1974.78 4643.49 
-2014.66 -1974.75 4644.11 
-2014.78 -1974.93 4644.8 
-2014.88 -1976.14 4645.28 
-2014.74 -1976.33 4644.6 
-2012.27 -1969.81 4643.35 
-2013.61 -1973.19 4643.07 
-2010.12 -1968.03 4642.33 
-2013.39 -1974.11 4642.74 
-2009.01 -1968.93 4641.43 
-2008.22 -1969.1 4640.91 
-2013.83 -1974.81 4643.06 
-2013.36 -1974.76 4642.7 
-2015.4 -1976.11 4646.22 
-2015.26 -1978.64 4648.77 
-2014.96 -1979.28 4647.64 
-2018.39 -1983.87 4655.39 
-2018.68 -1983.56 4656.42 
-2017.64 -1981.96 4654.21 
-2018.09 -1983.71 4654.67 
-2015.81 -1980.74 4650.96 
-2016.5 -1981.05 4652.42 
-2021.03 -1922 4661.06 
-2021.43 -1922.18 4661.28 
-2020.74 -1921.63 4660.86 
-2022.28 -1922.47 4661.28 
-2021.96 -1922.34 4661.29 
-2021.73 -1922.22 4661.33 
-2022.74 -1922.67 4661.54 
-2023.94 -1924.04 4662.86 
-2023.65 -1923.71 4662.5 
-2023.32 -1923.4 4662.14 
-2023.89 -1924.57 4662.98 
-2022.97 -1923.05 4661.8 
-2023.76 -1925.29 4663.07 
-2023.88 -1925.82 4663.43 
-2006.3 -1969.79 4639.93 
-2006.49 -1970.66 4640.03 
-2004.4 -1970.9 4639.12 
-2022.03 -1919.74 4664.44 
-2021.31 -1919.28 4664.47 
-2020.45 -1918.77 4664.89 
-2020.03 -1918.51 4664.69 
-2019.75 -1918.33 4664.39 
-2018.06 -1919.19 4663.31 
-2018.28 -1918.04 4664.13 
-2019.36 -1918.15 4664.12 
-2018.64 -1941.25 4706.88 
-2018.79 -1942.25 4706.97 
-2014.47 -1943.52 4714.38 
-2026.29 -1939.27 4704.36 
-2026.16 -1939.83 4704.01 
-2022.6 -1940.93 4704.21 
-2024.84 -1940.47 4702.27 
-2018.33 -1926.83 4673.02 
-2018.78 -1927.28 4671.54 
-2018.64 -1927.4 4671.89 
-2018.39 -1927.52 4672.1 
-2018.15 -1927.59 4672.32 
-2018.54 -1926.67 4670.18 
-2018.17 -1927.18 4669.78 
-2018.23 -1927.47 4670.55 
-2018.04 -1926.41 4668.55 
-2018.14 -1926.81 4669.11 
-2018.78 -1924.82 4669.63 
-2020.56 -1923.92 4670.05 
-2018.22 -1925.25 4668.65 
-2018.05 -1925.81 4668.37 
-2021.85 -1923.7 4669.45 
-2022.42 -1923.15 4668.38 
-2022.31 -1923.3 4668.85 
-2023.29 -1929.15 4686.21 
-2022.97 -1926.67 4679.74 
-2020.7 -1927.06 4675.06 
-2022.97 -1933.23 4688.54 
-2024.57 -1937.19 4691.33 
-2026.76 -1940.79 4692.92 
-2026.73 -1942.05 4694.09 
-2026.05 -1943.38 4696.06 
-2025.05 -1943.48 4699.5 
-2024.99 -1942.08 4701.63 
-2022.39 -1922 4665.94 
-2022.44 -1922.57 4667.19 
-2021.44 -1920.91 4665.15 
-2021.94 -1921.36 4665.29 
-2022.5 -1921.81 4665.38 
-2022.63 -1923.01 4667.78 
-2022.85 -1922.86 4667.15 
-2022.31 -1920.32 4664.34 
-2022.33 -1920.08 4664.24 
-2022.33 -1920.57 4664.34 
-2021.98 -1920.57 4664.67 
-2021.79 -1920.84 4664.78 
-2011.23 -1958.94 4714.92 
-2010.16 -1963.14 4716.57 
-2010.69 -1957.22 4718.86 
-2000.39 -1980.83 4634.5 
-2001.63 -1981.6 4635.5 
-2002.03 -1981.21 4635.87 
-1999.27 -1980.26 4633.32 
-2002.96 -1977.33 4637.3 
-2002.49 -1980.56 4636.29 
-1997.77 -1979.59 4631.52 
-1998.19 -1980.27 4632.13 
-1998.61 -1979.64 4632.15 
-2003.6 -1972.87 4638.56 
-2003.56 -1977.78 4637.82 
-1994.11 -1997.56 4643.43 
-1992.99 -1995.4 4639.84 
-1992.39 -1995.96 4640.85 
-1994.84 -2000.18 4648.46 
-1996.62 -1998.01 4645.78 
-1991.15 -1999.86 4646.11 
-1995.45 -1995.98 4641.54 
-1991.53 -2003.88 4654.2 
-1996.7 -2001.01 4652.43 
-1997.25 -2000.35 4650.83 
-2003.64 -1963.95 4635.35 
-2002.3 -1964.55 4634.62 
-2003.31 -1961.75 4630.16 
-2002.74 -1961.67 4629.68 
-2017.7 -1918.93 4662.99 
-2017.76 -1919.03 4662.41 
-2017.95 -1919.25 4662.05 
-2018.15 -1919.46 4661.95 
-2018.61 -1920.2 4662.03 
-2018.74 -1919.67 4661.34 
-2018.43 -1918.93 4661.26 
-2018.93 -1920.25 4661.22 
-2017.93 -1917.99 4661.33 
-2019.58 -1919.36 4660.75 
-2004.41 -1961.6 4633.35 
-2003.95 -1961.48 4631.75 
-2003.56 -1961.81 4630.58 
-2004.2 -1962.63 4634.35 
-2003.66 -1963.3 4634.6 
-2002.98 -1964.05 4634.77 
-2020.88 -1921.46 4661.03 
-2020.39 -1920.21 4660.91 
-2021.1 -1921.37 4661.23 
-2020.7 -1920.72 4661 
-2020.63 -1920.49 4661.02 
-2021.17 -1921.12 4661.33 
-2020.3 -1919.98 4660.92 
-2020.23 -1919.63 4661.07 
-2020.53 -1919.95 4661.15 
-2023.6 -1929.26 4666.5 
-2024.02 -1927.79 4665.65 
-2015.81 -1960.66 4687.14 
-2016.05 -1959.42 4686.34 
-2015.48 -1963.31 4688.45 
-2015.55 -1966.69 4688.86 
-2014.66 -1967.8 4693.51 
-2016.62 -1967.82 4682.62 
-2015.99 -1971.3 4689.27 
-2019.13 -1981.68 4660.35 
-2018.64 -1984.34 4656.16 
-2021.44 -1976.47 4668.68 
-2021.62 -1975.71 4669.49 
-2020.97 -1978.08 4668.34 
-2020.38 -1978.9 4665.88 
-2021.77 -1975.19 4670.79 
-2021.95 -1974.58 4671.48 
-2022.14 -1973.91 4672.68 
-2021.93 -1973.19 4672.89 
-2019.13 -1967.49 4672.22 
-2019.29 -1968.14 4674.6 
-2021.39 -1971.22 4671.8 
-2019.43 -1968.95 4676 
-2019.43 -1970.13 4677.15 
-2018.56 -1970.61 4679.88 
-2021.74 -1972.5 4672.51 
-2016.15 -1958.78 4686.89 
-2017.12 -1956.06 4684.3 
-2018.17 -1953.67 4683.01 
-2021.19 -1937.39 4682.5 
-2020.9 -1936.56 4681.68 
-2022.99 -1942.33 4683.91 
-2021.79 -1939.64 4683.32 
-2020.46 -1938.32 4681.35 
-2020.83 -1934.24 4680.35 
-2020.91 -1935.56 4681.22 
-2020.98 -1929.13 4675.99 
-2025 -1926.78 4677.53 
-2024.77 -1926.98 4677.78 
-2024.69 -1926.87 4676.96 
-2020.68 -1933.07 4679.41 
-2019.66 -1931.43 4676.56 
-2021.25 -1927.67 4674.33 
-2025.3 -1926.4 4676.83 
-2025.92 -1925.88 4676.87 
-2018.43 -1931.07 4672.06 
-2017.97 -1928.58 4672.03 
-2018.04 -1928.09 4672.26 
-2018.7 -1927.58 4672.81 
-2021.63 -1927.46 4674.47 
-2027.85 -1945.48 4689.78 
-2027.72 -1945.96 4690.11 
-2027.64 -1944.62 4689.02 
-2025.11 -1942.21 4686.96 
-2026.81 -1942.89 4688.54 
-2027.16 -1947.15 4689.73 
-2027.45 -1946.51 4691.2 
-2019.19 -1952.2 4683.57 
-2023.45 -1949.38 4686.94 
-2027.1 -1947.38 4690.82 
-2023.58 -1929.45 4667.33 
-2020.4 -1936.08 4670.85 
-2022.76 -1934.15 4669.93 
-2018.9 -1934.11 4670.91 
-2018.63 -1932.33 4671.31 
-2023.61 -1929.76 4668.47 
-2023.71 -1928.84 4667.34 
-2024.27 -1926.07 4664.42 
-2024.08 -1925.96 4663.93 
-2024.39 -1926.4 4664.92 
-2014.21 -1976.38 4643.48 
-2013.95 -1976.33 4643.06 
-2014.48 -1976.47 4644.01 
-2013.98 -1980.52 4644.94 
-2013.78 -1980.34 4644.34 
-2013.54 -1980.21 4643.81 
-2011.97 -1970.47 4642.89 
-2013.34 -1973.44 4642.74 
-2011.5 -1971.15 4642.3 
-2012.89 -1974.71 4642.33 
-2012.81 -1973.96 4642.33 
-2008.67 -1970.08 4641.09 
-2008.21 -1969.67 4640.86 
-2006.63 -1971.66 4640.12 
-2013.7 -1976.23 4642.76 
-2013.42 -1976.02 4642.46 
-2014.37 -1980.24 4645.79 
-2014.4 -1984.16 4649.89 
-2015.5 -1981.43 4650.77 
-2018.52 -1984.69 4655.46 
-2018.14 -1984.58 4654.69 
-2017.56 -1982.61 4653.27 
-2017.89 -1983.64 4653.98 
-2017.77 -1984.14 4654.04 
-2021.22 -1921.89 4661.25 
-2021.62 -1922.08 4661.46 
-2022.48 -1922.36 4661.49 
-2022.18 -1922.25 4661.46 
-2021.93 -1922.16 4661.48 
-2022.73 -1922.5 4661.81 
-2023.62 -1923.51 4662.77 
-2023.93 -1924.11 4663.16 
-2023.81 -1923.67 4663.07 
-2023.28 -1923.16 4662.41 
-2022.94 -1922.83 4662.05 
-2023.82 -1924.74 4663.24 
-2023.92 -1925.46 4663.65 
-2004.38 -1972 4639.04 
-2004.53 -1973.94 4639.12 
-2021.93 -1919.7 4664.07 
-2020.83 -1918.99 4664.27 
-2021.55 -1919.44 4663.87 
-2020.49 -1918.77 4663.97 
-2020.14 -1918.56 4663.72 
-2017.87 -1917.87 4663.78 
-2018.89 -1918.03 4663.45 
-2019.52 -1918.24 4663.6 
-2023.98 -1941.56 4705.4 
-2019.08 -1943.39 4707.2 
-2028.29 -1939.62 4706.14 
-2027.82 -1940.66 4705.83 
-2026.53 -1941.92 4705.19 
-2018.3 -1927.8 4671.42 
-2018.26 -1927.95 4672 
-2017.79 -1927.72 4669.69 
-2017.77 -1927.32 4668.85 
-2017.84 -1928.02 4670.45 
-2017.78 -1926.41 4667.58 
-2017.74 -1927.05 4668.11 
-2018.87 -1925.37 4669.35 
-2018.67 -1925.92 4668.87 
-2017.91 -1925.86 4667.6 
-2021.98 -1924.32 4669.55 
-2022.69 -1923.37 4668.48 
-2022.75 -1923.55 4668.91 
-2022.89 -1923.24 4667.9 
-2023.64 -1928.59 4685.46 
-2023.81 -1926.78 4680.09 
-2021.41 -1927.38 4674.72 
-2023.04 -1932.16 4687.59 
-2022.97 -1934.16 4688 
-2024.54 -1937.52 4690.85 
-2027.15 -1941.39 4692.37 
-2027.14 -1942.54 4693.66 
-2026.74 -1943.79 4695.26 
-2025.36 -1945.12 4700.35 
-2026.09 -1943.73 4704.88 
-2023.05 -1922.25 4665.49 
-2022.98 -1922.59 4666.41 
-2022 -1921.2 4664.9 
-2022.54 -1921.64 4665.03 
-2023.18 -1922.18 4665.13 
-2023.14 -1923.1 4667.22 
-2023.67 -1922.96 4666.35 
-2022.4 -1920.37 4664.08 
-2022.4 -1920.62 4664.09 
-2022.1 -1919.98 4663.9 
-2022.24 -1920.83 4664.42 
-2022.38 -1920.86 4664.16 
-2022.22 -1921.13 4664.51 
-2013.53 -1949.5 4712.26 
-2014.03 -1952.52 4710.34 
-2012.55 -1952.56 4712.75 
-2020.02 -1944.31 4707.4 
-2013.39 -1945.56 4714.33 
-2012.24 -1955.12 4713.36 
-2012.24 -1962.52 4706.84 
-2011.4 -1960.88 4712.46 
-2013.04 -1956.14 4710.29 
-2009.74 -1967.08 4714.79 
-2025.92 -1941.86 4707.08 
-2010.29 -1960.2 4718.42 
-2009.22 -1965.11 4719.51 
-2009.77 -1960.23 4720.96 
-2008.97 -1968.94 4717.16 
-2009.02 -1968.05 4718.59 
-2001.28 -1982.13 4635.25 
-2000.24 -1981.23 4634.24 
-2001.82 -1982.2 4635.79 
-2002.49 -1981.89 4636.3 
-1999.03 -1980.52 4632.92 
-2003.53 -1980.84 4637.15 
-2003.64 -1981.7 4637.13 
-1998.43 -1980.87 4632.6 
-2004.26 -1978.32 4638.34 
-1989.48 -2006.5 4659.41 
-1996.12 -2002.94 4658.54 
-1992.86 -2004.55 4656.5 
-1991.18 -2005.64 4664.48 
-1996.98 -2002.5 4661.8 
-1989.77 -2006.55 4661.9 
-1993.67 -2004.29 4673.23 
-1997.07 -2003.48 4669.1 
-1989.66 -2007.11 4670.28 
-2000.22 -1997.3 4647.93 
-1997.99 -1995.79 4642.94 
-1997.1 -1994.95 4640.51 
-1994.6 -1995.17 4639.45 
-2005.63 -1997.19 4649.5 
-2004.95 -1998.01 4650.83 
-1997.33 -2001.24 4655.09 
-2004.06 -1998.53 4652.24 
-1994.67 -1994.3 4638.03 
-1992.56 -1994.62 4638.26 
-2002.91 -1962.16 4629.92 
-2002.19 -1962.4 4629.23 
-2002.6 -1962.5 4629.75 
-2003.3 -1963.4 4634.33 
-2017.48 -1917.73 4663.41 
-2017.53 -1917.78 4662.87 
-2017.64 -1917.81 4662.33 
-2017.75 -1917.83 4661.78 
-2018.02 -1918.13 4661.12 
-2019.26 -1918.94 4660.86 
-2019.18 -1918.68 4661.05 
-2018.76 -1918.26 4661.13 
-2018.77 -1918.01 4661.53 
-2019.07 -1918.3 4661.39 
-2019.98 -1919.32 4661.13 
-2004.27 -1961.79 4633.15 
-2003.82 -1961.75 4631.31 
-2003.25 -1962.2 4630.37 
-2003.97 -1962.73 4634.21 
-2021.42 -1921.79 4661.43 
-2020.92 -1920.51 4661.28 
-2020.74 -1920.24 4661.23 
-2021.74 -1921.84 4661.68 
-2021.5 -1921.51 4661.54 
-2021.09 -1920.81 4661.32 
-2021.9 -1921.63 4661.86 
-2021.57 -1921.26 4661.64 
-2020.58 -1919.81 4661.36 
-2020.94 -1920.16 4661.48 
-2023.82 -1928.39 4666.39 
-2024.25 -1926.94 4665.63 
-2015.41 -1960.74 4691.37 
-2014.94 -1963.54 4692.54 
-2014.29 -1966.3 4694.8 
-2015.29 -1971.64 4694.26 
-2014.67 -1972.65 4697.55 
-2012.98 -1966.8 4699.7 
-2018.3 -1973.08 4681.75 
-2016.24 -1975.08 4690.01 
-2018.56 -1974.95 4681.02 
-2019.09 -1982.46 4660.91 
-2018.66 -1984.49 4656.78 
-2018.52 -1985.17 4655.59 
-2020.98 -1978.12 4669.67 
-2021.32 -1976.9 4670.35 
-2021.55 -1975.98 4671.25 
-2019.68 -1981.25 4665.44 
-2019.92 -1981.37 4669.73 
-2021.84 -1974.8 4673 
-2021.83 -1973.44 4674.41 
-2022.02 -1974.07 4674.19 
-2021.37 -1972.65 4674.51 
-2021.18 -1971.48 4673.93 
-2020.94 -1973.74 4675.43 
-2016.4 -1957.83 4687.98 
-2015.68 -1958.99 4691.57 
-2017.36 -1955.67 4685.53 
-2018.43 -1953.3 4683.65 
-2022.6 -1937.61 4684.83 
-2022.59 -1936.63 4684.92 
-2022.24 -1935.92 4684.22 
-2022.34 -1935.15 4683.66 
-2023.38 -1940.17 4685.45 
-2023.17 -1937.38 4685.7 
-2022.25 -1934.09 4682.78 
-2022.66 -1932.8 4682.9 
-2024.16 -1927.36 4677.86 
-2021.14 -1929.23 4676.51 
-2026.22 -1926.12 4678.49 
-2025.96 -1926.47 4679.58 
-2025.84 -1926.38 4678.85 
-2025.56 -1926.52 4678.6 
-2027.28 -1925.35 4678.83 
-2020.77 -1931.63 4678.69 
-2022.5 -1932.36 4682.33 
-2025.16 -1926.29 4676.58 
-2028.35 -1924.62 4679.88 
-2027.38 -1925.4 4681.32 
-2018.29 -1930.52 4671.52 
-2017.94 -1928.41 4671.3 
-2024.38 -1926.85 4679.48 
-2027.88 -1945.36 4691.55 
-2027.98 -1944.35 4690.74 
-2027.55 -1946.05 4692.25 
-2027.85 -1943.56 4689.84 
-2023.72 -1939.43 4686.66 
-2023.97 -1938.74 4687.51 
-2027.36 -1942.2 4689.76 
-2024.21 -1938.68 4687.95 
-2027.24 -1946.98 4692.37 
-2027.6 -1946.76 4693.06 
-2023.59 -1949.55 4687.49 
-2019.36 -1952.22 4684.38 
-2023.44 -1949.85 4687.84 
-2026.83 -1947.66 4691.58 
-2027.38 -1947.24 4693.16 
-2020.46 -1934.4 4670.77 
-2022.84 -1933.38 4670.28 
-2023.61 -1929.89 4669.04 
-2019.16 -1933.38 4670.54 
-2018.93 -1932.89 4670.48 
-2018.55 -1931.94 4670.98 
-2023.74 -1928.78 4667.99 
-2023.97 -1927.72 4666.92 
-2024.06 -1927.48 4666.34 
-2024.33 -1925.76 4664.75 
-2024.13 -1925.65 4664.22 
-2024.48 -1926.01 4665.08 
-2012.68 -1980 4642.86 
-2012.82 -1980.38 4643.13 
-2012.24 -1980.06 4642.48 
-2013.14 -1980.41 4643.39 
-2011.68 -1986.91 4643.79 
-2012.03 -1987.16 4644.62 
-2011.33 -1986.73 4643.11 
-2010.82 -1986.6 4642.37 
-2011.04 -1971.58 4641.87 
-2012.5 -1973.77 4642.09 
-2012.99 -1975.85 4642.11 
-2012.47 -1974.61 4641.95 
-2008.38 -1970.76 4640.88 
-2010.62 -1971.98 4641.55 
-2007 -1974.8 4640.18 
-2005.97 -1978.6 4639.53 
-2006.98 -1978.3 4640.03 
-2011.62 -1979.66 4641.7 
-2011.87 -1979.95 4642.04 
-2011.49 -1979.11 4641.61 
-2013.16 -1987.02 4647.49 
-2013.16 -1983.83 4646.1 
-2016.8 -1983.02 4652.19 
-2015.65 -1983.92 4651.21 
-2016.11 -1985.31 4652.26 
-2014.18 -1988.85 4649.63 
-2016.38 -1985.86 4652.62 
-2018.4 -1985.27 4655.07 
-2017.58 -1984.81 4653.67 
-2017.95 -1985.37 4654.24 
-2017.51 -1984.04 4653.32 
-2021.89 -1922.04 4661.61 
-2022.49 -1922.25 4661.68 
-2022.31 -1922.12 4661.66 
-2022.69 -1922.37 4662 
-2023.51 -1923.19 4662.99 
-2023.22 -1922.91 4662.66 
-2023.86 -1923.66 4663.35 
-2023.88 -1924.19 4663.43 
-2023.64 -1923.28 4663.27 
-2022.9 -1922.61 4662.29 
-2023.96 -1924.97 4663.82 
-2005.27 -1978.89 4639.02 
-2021.19 -1919.2 4663.62 
-2021.69 -1919.62 4663.63 
-2020.87 -1919 4663.26 
-2020.34 -1918.67 4663.16 
-2018.45 -1917.89 4663.12 
-2019.33 -1918.23 4662.72 
-2019.8 -1918.39 4662.99 
-2030.16 -1940.02 4707.92 
-2029.5 -1941.22 4707.46 
-2028.15 -1942.75 4706.62 
-2027.28 -1944.51 4705.73 
-2017.98 -1928.74 4669.8 
-2018.28 -1930.35 4670.89 
-2017.77 -1927.68 4668.78 
-2017.72 -1927.03 4667.6 
-2017.7 -1926.42 4667.01 
-2017.84 -1928.09 4668.55 
-2017.95 -1926.13 4667.51 
-2018.71 -1927.35 4669.65 
-2022.32 -1924.93 4669.79 
-2019.97 -1927.04 4669.59 
-2022.98 -1923.83 4669.2 
-2023.12 -1923.57 4668.52 
-2023.28 -1923.39 4667.85 
-2023.98 -1928.41 4685.03 
-2023.2 -1931.68 4686.86 
-2022.91 -1933.39 4686.86 
-2024.42 -1937.85 4690.3 
-2022.83 -1934.91 4687.29 
-2027.5 -1943.19 4693.28 
-2027.54 -1942.47 4691.93 
-2027.16 -1941.54 4690.98 
-2027.38 -1944.12 4694.4 
-2025.9 -1945.75 4698.48 
-2026.01 -1944.94 4704.57 
-2023.5 -1922.7 4665.83 
-2023.58 -1922.64 4665.35 
-2022.61 -1921.51 4664.64 
-2022.98 -1921.92 4664.85 
-2023.24 -1922.25 4664.82 
-2023.5 -1922.57 4665.07 
-2023.56 -1923.34 4667.2 
-2023.8 -1923.16 4665.83 
-2024.08 -1923.47 4666.39 
-2022.41 -1920.41 4663.83 
-2022.46 -1920.7 4663.83 
-2022.45 -1920.91 4663.89 
-2022.19 -1920.05 4663.6 
-2022.38 -1921.12 4664.2 
-2022.43 -1921.12 4663.98 
-2022.58 -1921.45 4664.3 
-2019.52 -1945.59 4708.05 
-2013.82 -1946.93 4713.13 
-2015.13 -1948.38 4710.51 
-2013.79 -1957.88 4707.55 
-2026.71 -1943.06 4707.87 
-2009.48 -1969.52 4712.96 
-2011.48 -1966.5 4706.1 
-2012.97 -1964.56 4699.96 
-2014.12 -1962.11 4703.08 
-2007.95 -1973.74 4716.92 
-2008.01 -1972.08 4719.18 
-2032.93 -1941.26 4710.36 
-2009.28 -1968.08 4720.03 
-2008.99 -1965.17 4721.36 
-2009.59 -1967.22 4721.35 
-2009.05 -1964.35 4722.85 
-2008.72 -1970.12 4719.2 
-2009.16 -1969.42 4720.45 
-2000.66 -1982.3 4634.76 
-2000.84 -1982.91 4635.09 
-2001.28 -1982.72 4635.43 
-1999.58 -1981.16 4633.58 
-2002.25 -1983.69 4636.16 
-2002.98 -1983.21 4636.61 
-2003.59 -1982.51 4637.07 
-2006.18 -1983.82 4638.67 
-2004.8 -1985.14 4637.46 
-1999.09 -1981.36 4633.42 
-1996.82 -1981.67 4633.22 
-1992.92 -1993.49 4637.33 
-1995.3 -1993.37 4637.33 
-1993.76 -1992.59 4636.58 
-2003.36 -1999.87 4659.49 
-2003.21 -1999.55 4656.65 
-2002.76 -1999.22 4654.3 
-1997.88 -2002.02 4665.25 
-1994.23 -2004.17 4666.4 
-2003.74 -1999.94 4661.28 
-2001.16 -2001.46 4669.44 
-2001.66 -2001.28 4672.04 
-1995.62 -2002.4 4678.62 
-2002.68 -2000.69 4666.16 
-1994.37 -2002.51 4689.45 
-2000.04 -1999.47 4687.26 
-1995.19 -2002.16 4686.56 
-1999.01 -1999.77 4690.19 
-1992.67 -2003.48 4692.32 
-1995.69 -2001.76 4695.65 
-1995.3 -2001.81 4692.07 
-1996.6 -1994.32 4639.31 
-2000.34 -1996.21 4645.42 
-2005.67 -1996.74 4648.9 
-2004.9 -1996.06 4647.29 
-2001.21 -1994.44 4641.76 
-2002.27 -1994.85 4643.16 
-2000.72 -1993.95 4640.55 
-2009.12 -1995.63 4646.76 
-2008.19 -1995.32 4646.23 
-2008.82 -1996.87 4649.04 
-2008.05 -1997.67 4652.27 
-2000.34 -1993.06 4638.37 
-2000.34 -1993.26 4638.82 
-2002.21 -1963.06 4629.67 
-2002.84 -1962.81 4630.28 
-2002.34 -1962.8 4629.65 
-2003.83 -1962.75 4634.07 
-2003.11 -1963.37 4634.08 
-2018.6 -1917.95 4662.53 
-2018.75 -1918 4661.98 
-2020.01 -1919.18 4661.32 
-2019.53 -1918.74 4661.34 
-2019.61 -1918.46 4661.77 
-2019.89 -1918.8 4661.64 
-2020.45 -1919.57 4661.44 
-2004.14 -1961.96 4632.94 
-2003.68 -1962.03 4631.01 
-2002.98 -1962.55 4630.27 
-2021.33 -1920.74 4661.56 
-2021.2 -1920.47 4661.56 
-2022.13 -1921.92 4661.82 
-2021.55 -1921.05 4661.66 
-2022.12 -1921.49 4662.06 
-2022.38 -1921.81 4662.04 
-2020.9 -1919.95 4661.66 
-2021.28 -1920.32 4661.78 
-2024.43 -1926.17 4665.56 
-2014.03 -1961 4697.04 
-2013.61 -1963.26 4697.56 
-2013.46 -1972.06 4701 
-2015.36 -1978.04 4699.45 
-2016.4 -1978.36 4695.31 
-2020.99 -1974.52 4675.54 
-2016.4 -1976.45 4690.19 
-2016.91 -1977.14 4684.71 
-2018.87 -1976.34 4679.78 
-2021.34 -1974.84 4674.96 
-2018.78 -1984.36 4658.52 
-2018.51 -1985.3 4655.94 
-2018.33 -1985.95 4654.88 
-2018.4 -1986.04 4655.27 
-2020.37 -1980.07 4670.88 
-2020.96 -1978.15 4671.29 
-2021.15 -1977.11 4672.22 
-2021.42 -1975.7 4673 
-2018.92 -1983.5 4662.31 
-2018.77 -1983.85 4665.95 
-2019.19 -1982.92 4670.45 
-2020.97 -1975.77 4675.13 
-2016.79 -1956.5 4688.83 
-2015.88 -1957.61 4692.25 
-2014.47 -1959.08 4696.95 
-2017.9 -1954.33 4686.34 
-2022.7 -1935.84 4685.45 
-2022.55 -1934.94 4684.61 
-2022.7 -1934.31 4684.09 
-2022.85 -1933.25 4683.58 
-2022.89 -1931.74 4683.68 
-2022.81 -1931.45 4682.94 
-2025.22 -1926.72 4678.66 
-2023.1 -1928.01 4677.6 
-2021.65 -1930.03 4678.32 
-2024.8 -1928.34 4682 
-2024.86 -1928.28 4682.35 
-2024.86 -1928.24 4682.66 
-2024.79 -1928.19 4681.6 
-2024.75 -1928.01 4681.09 
-2024.98 -1928.01 4683.12 
-2024.87 -1928.07 4683.75 
-2022.62 -1931.43 4682.02 
-2024.78 -1926.95 4679.54 
-2025.98 -1926.24 4681.04 
-2024.86 -1927.92 4684.29 
-2024.71 -1927.76 4684.41 
-2027.66 -1945.98 4693.26 
-2027.94 -1944.95 4692.21 
-2027.79 -1943.83 4692.15 
-2027.78 -1943.01 4690.94 
-2024.33 -1938.38 4689.06 
-2024.06 -1938.3 4688.61 
-2022.72 -1935.43 4686.42 
-2027.76 -1947.11 4693.43 
-2028.23 -1946.63 4695 
-2028 -1947.22 4695.93 
-2023.31 -1950.15 4688.35 
-2019 -1953.2 4686.6 
-2026.19 -1948.18 4692.04 
-2027.07 -1947.77 4694.19 
-2027.04 -1948.28 4696.45 
-2027.49 -1947.82 4696.42 
-2020.72 -1932.88 4670.87 
-2022.96 -1932.4 4670.6 
-2023.65 -1929.71 4669.47 
-2023.78 -1928.71 4668.57 
-2018.8 -1932.27 4670.28 
-2020.54 -1932.34 4670.68 
-2023.96 -1927.7 4667.45 
-2024.29 -1926.52 4666.64 
-2024.35 -1926.41 4666.13 
-2024.47 -1925.71 4665.24 
-2024.36 -1925.43 4665.03 
-2024.17 -1925.27 4664.47 
-2010.5 -1983.82 4642.22 
-2010.34 -1986.4 4641.84 
-2010.33 -1983.53 4642.06 
-2011.14 -1989.69 4643.68 
-2011.95 -1990.66 4645.31 
-2010.61 -1989.58 4642.77 
-2010.12 -1989.57 4641.88 
-2009.57 -1989.24 4641.09 
-2012.04 -1974 4641.74 
-2011.31 -1978.73 4641.55 
-2012.72 -1976.03 4641.91 
-2012.31 -1974.92 4641.69 
-2008.46 -1972.15 4640.83 
-2010.25 -1972.51 4641.31 
-2011.59 -1973.98 4641.46 
-2007.61 -1975.69 4640.4 
-2008.96 -1979.49 4641.1 
-2008.72 -1978.39 4641.01 
-2008.17 -1981.55 4640.33 
-2009.02 -1980.21 4641.08 
-2009.29 -1982.78 4640.8 
-2010.02 -1983.25 4641.55 
-2008.71 -1981.63 4640.61 
-2017.1 -1984.4 4652.64 
-2016.78 -1986.48 4653.26 
-2014.46 -1989.69 4650.27 
-2012.86 -1991.09 4647.17 
-2016.95 -1987 4653.67 
-2017.77 -1985.82 4654.02 
-2022.52 -1922.01 4661.88 
-2022.68 -1922.13 4662.08 
-2022.78 -1922.28 4662.3 
-2023.34 -1922.82 4663.15 
-2023.06 -1922.54 4662.84 
-2022.9 -1922.44 4662.53 
-2023.89 -1923.67 4663.63 
-2023.67 -1923.25 4663.54 
-2024 -1924.41 4663.96 
-2023.45 -1922.87 4663.44 
-2021.3 -1919.33 4663.28 
-2021.62 -1919.65 4663.39 
-2020.91 -1919.09 4662.85 
-2021.29 -1919.44 4663.05 
-2020.52 -1918.79 4662.66 
-2020.22 -1918.62 4662.38 
-2019.55 -1918.32 4662.13 
-2031.89 -1941.33 4708.75 
-2030.62 -1942.55 4707.77 
-2029.32 -1943.91 4706.76 
-2028.24 -1945.56 4705.71 
-2026.89 -1945.74 4705.06 
-2018.27 -1930.55 4670.03 
-2018.48 -1931.57 4670.32 
-2017.72 -1927.12 4667.29 
-2018.42 -1929.58 4668.96 
-2017.73 -1927.43 4667.81 
-2017.78 -1926.82 4666.88 
-2018.62 -1930.9 4669.72 
-2018.71 -1928.13 4669.31 
-2022.76 -1925.55 4670.15 
-2023.37 -1924.14 4669.23 
-2023.32 -1924.57 4669.75 
-2023.48 -1923.77 4668.46 
-2023.6 -1923.66 4667.81 
-2023.44 -1930.9 4686.14 
-2023.09 -1932.56 4686.14 
-2022.78 -1934.03 4686.12 
-2024.22 -1938.03 4689.66 
-2027.72 -1944.62 4693.7 
-2027.62 -1945.28 4695.38 
-2025.69 -1946.28 4701.31 
-2023.82 -1923.2 4665.46 
-2022.91 -1921.85 4664.56 
-2023.2 -1922.24 4664.54 
-2023.5 -1922.62 4664.78 
-2023.72 -1922.97 4665.01 
-2023.82 -1923.98 4667.36 
-2024.01 -1923.74 4665.98 
-2023.99 -1924.03 4666.68 
-2022.51 -1920.68 4663.61 
-2022.18 -1920.33 4663.45 
-2022.51 -1921 4663.63 
-2022.49 -1921.2 4663.75 
-2021.73 -1919.88 4663.21 
-2022.54 -1921.38 4663.99 
-2022.75 -1921.71 4664.09 
-2022.91 -1921.88 4664.33 
-2021.92 -1946.14 4707.01 
-2021.13 -1947.55 4706.82 
-2015.59 -1950.19 4708.96 
-2020.12 -1948.93 4706.66 
-2014.95 -1953.81 4708.35 
-2014.93 -1956.79 4706.21 
-2016.17 -1952.67 4706.77 
-2014.97 -1959.95 4702.73 
-2031.08 -1941.8 4709.28 
-2030.26 -1943.19 4709.39 
-2008.87 -1972.93 4711.91 
-2007.91 -1975.75 4713.94 
-2011.39 -1971.02 4705.78 
-2007.34 -1979.01 4714.11 
-2007.02 -1976.84 4718.12 
-2007.29 -1973.8 4721.27 
-2008.08 -1972.06 4721.06 
-2033.15 -1941.62 4712.81 
-2035.03 -1942.38 4713.26 
-2034.92 -1943.31 4710 
-2035.76 -1946.37 4711.89 
-2011.44 -1958.37 4736.26 
-2013.5 -1961.23 4738.21 
-2013.28 -1961.02 4738.94 
-2008.86 -1961.34 4724.7 
-2009.14 -1962.6 4725.42 
-2009.01 -1959.76 4726.77 
-2009.53 -1968.75 4721.71 
-2009.91 -1967.92 4722.88 
-2008.84 -1970.63 4721.08 
-2009.27 -1970.04 4722.7 
-1999.99 -1982.1 4634.13 
-1998.8 -1984.64 4634.8 
-1998.71 -1985.63 4635.09 
-2000.14 -1984.45 4635.37 
-2000.91 -1984.24 4635.47 
-2001.57 -1984.63 4635.82 
-2003.39 -1986.69 4636.52 
-2003.95 -1986.33 4636.83 
-2004.46 -1985.88 4637.15 
-2006 -1987.75 4637.8 
-2007.33 -1985.43 4639.21 
-2008.51 -1982.66 4640.47 
-2006.05 -1988.15 4637.8 
-2005.73 -1988.4 4637.57 
-1998.89 -1982.86 4634.52 
-1998.04 -1982.03 4634.15 
-1996.89 -1983.22 4634.45 
-1993.96 -1991.61 4635.52 
-1995.03 -1991.71 4636.25 
-1994.81 -1991.06 4635.64 
-1995.14 -1990.42 4635.34 
-1995.48 -1990.48 4635.56 
-1995.99 -1989.61 4635.29 
-1995.56 -1991.13 4636.05 
-1996.88 -1988.54 4635.13 
-1997.43 -1987.61 4634.97 
-1995.88 -1988.17 4634.59 
-1996.27 -1987.39 4634.49 
-1996.96 -1989.44 4635.54 
-1996.98 -1985.21 4634.4 
-1995.53 -1987.11 4634.06 
-1995.53 -1992.59 4636.82 
-1997.17 -1992.44 4637.44 
-2000.72 -1992.8 4637.99 
-2006.28 -1998.48 4654.94 
-2003.53 -2000.27 4663.75 
-2006.96 -1998.79 4660.28 
-2006.61 -1999.9 4667.14 
-2003.29 -2000.29 4674.88 
-1999.26 -2000.45 4683.02 
-2006.2 -1999.66 4669.84 
-2007.31 -1999.6 4665.65 
-2005.43 -1998.77 4676.18 
-2004.58 -1997.68 4682.32 
-1999.9 -1998.75 4692.97 
-2004.56 -1996.36 4687.9 
-1999.82 -1997.84 4697.35 
-1995.42 -2001.61 4698.94 
-2000.56 -1993.46 4639.6 
-2003.7 -1995.33 4645 
-2006.21 -1994.73 4644.21 
-2003.79 -1993.69 4640.75 
-2005.4 -1994.18 4642.6 
-2003.38 -1993.45 4639.49 
-2009.64 -1995.88 4646.91 
-2008.84 -1995.22 4645.36 
-2007.23 -1994.77 4643.88 
-2009.63 -1996.44 4649.38 
-2009.28 -1996.88 4651.76 
-2004.1 -1993.36 4638.76 
-2003.99 -1993.43 4638.21 
-2003.55 -1962.29 4630.89 
-2001.98 -1963.35 4629.6 
-2002.6 -1963.12 4630.2 
-2003.36 -1962.59 4630.79 
-2003.65 -1962.81 4633.93 
-2002.84 -1963.4 4633.85 
-2004.01 -1962.13 4632.71 
-2020.21 -1919.17 4661.58 
-2020.58 -1919.53 4661.68 
-2020.33 -1918.99 4661.95 
-2020.26 -1918.76 4662.12 
-2020.5 -1919.28 4661.86 
-2021.83 -1921.03 4661.92 
-2021.66 -1920.75 4661.87 
-2022.84 -1921.28 4662.65 
-2022.6 -1921.69 4662.28 
-2022.68 -1921.91 4662.17 
-2021.32 -1920.16 4662.01 
-2020.98 -1919.86 4661.87 
-2021.7 -1920.54 4662.08 
-2024.48 -1925.7 4665.55 
-2014.02 -1977.83 4701.94 
-2015.63 -1979.6 4700.14 
-2017.05 -1981.21 4695.64 
-2016.59 -1978.27 4689.56 
-2018.35 -1978.41 4680.27 
-2018.46 -1985.65 4656.78 
-2018.26 -1986.3 4655.42 
-2016.34 -1988.51 4653.13 
-2015.79 -1989.6 4652.64 
-2020.52 -1979.4 4672.24 
-2019.7 -1981.46 4672.23 
-2020.27 -1978.72 4674.19 
-2020.73 -1977.11 4674.45 
-2018.58 -1985.52 4658.75 
-2018.02 -1985.44 4667.94 
-2018.61 -1985.07 4660.74 
-2018.57 -1984.3 4670.77 
-2017.46 -1955.31 4689.5 
-2016.13 -1956.44 4692.68 
-2014.99 -1957.31 4697.11 
-2015.14 -1957.17 4702.34 
-2022.67 -1934.52 4685.32 
-2022.85 -1933.73 4684.81 
-2023 -1932.88 4684.27 
-2023.07 -1931.49 4684.37 
-2023.47 -1930.53 4683.99 
-2023.24 -1930.8 4683.49 
-2023.25 -1930.71 4682.91 
-2023.1 -1930.86 4682.38 
-2024.7 -1927.9 4680.82 
-2024.89 -1926.81 4678.9 
-2023.25 -1928.51 4678.55 
-2022.28 -1929.31 4678.21 
-2022.98 -1930.42 4681.14 
-2023.81 -1929.88 4682.98 
