-1745.9 -1661.33 2622.29 
-1746.41 -1660.08 2613.47 
-1744.96 -1660.96 2621.03 
-1744.32 -1662.7 2630.28 
-1748.86 -1657.7 2597.59 
-1747.1 -1658.98 2606.05 
-1744.56 -1660.5 2617.27 
-1743.7 -1661.77 2625.84 
-1744.04 -1663.91 2635.93 
-1746.67 -1658.77 2603.68 
-1748.64 -1657.69 2595.57 
-1745.53 -1659.75 2611.43 
-1743.24 -1661.59 2624.57 
-1743.49 -1661.07 2620.26 
-1742.5 -1663.11 2631.45 
-1742.93 -1665.09 2641.27 
-1745.86 -1659.07 2604.69 
-1744.75 -1659.96 2611.71 
-1748.13 -1657.92 2595.74 
-1742.3 -1662.37 2627.86 
-1742.85 -1661.54 2621.97 
-1741.64 -1664.37 2636.65 
-1748.06 -1657.9 2594.8 
-1745.3 -1659.2 2604.55 
-1744.09 -1660.12 2611.68 
-1741.68 -1662.99 2630.36 
-1742.66 -1661.5 2620.13 
-1741.7 -1662.62 2627.82 
-1740.7 -1665.44 2640.18 
-1743.04 -1660.97 2602.63 
-1741.49 -1662.35 2607.27 
-1747.52 -1658.14 2595.24 
-1744.91 -1659.3 2604.2 
-1743.68 -1660.08 2610.19 
-1740.56 -1664.96 2637.65 
-1742.35 -1661.58 2618.88 
-1741.61 -1662.46 2625.89 
-1740.74 -1663.88 2633.18 
-1739.33 -1667.47 2648.25 
-1737.5 -1666.43 2622.09 
-1743.15 -1660.62 2603.18 
-1741.76 -1661.84 2609.1 
-1739.6 -1664.18 2612.89 
-1745.1 -1659.71 2595.01 
-1746.47 -1658.76 2590.93 
-1737.88 -1665.55 2618.82 
-1747.3 -1658.22 2594.59 
-1743.65 -1660.03 2607.42 
-1742.8 -1660.78 2612.97 
-1739.52 -1666.44 2642.68 
-1741.49 -1662.21 2622.27 
-1740.78 -1663.27 2629.32 
-1739.59 -1665.81 2639.43 
-1737.96 -1665.15 2623.8 
-1737.51 -1666.62 2629.83 
-1743.21 -1660.29 2603.6 
-1741.94 -1661.5 2609.6 
-1739.44 -1663.63 2618.43 
-1738.91 -1664.55 2619.55 
-1745.79 -1659.1 2594.22 
-1746.49 -1658.69 2595.44 
-1744.67 -1659.37 2603.71 
-1743.11 -1660.35 2609 
-1741.65 -1661.9 2618.1 
-1737.38 -1668.38 2649.48 
-1740.51 -1663.1 2626.31 
-1739.9 -1664.47 2633.66 
-1738.62 -1666.9 2642.13 
-1736.77 -1668.76 2649.32 
-1735.33 -1670.67 2656.99 
-1738.52 -1664.37 2624.07 
-1738.18 -1665.54 2630.23 
-1736.39 -1668.31 2637.49 
-1743.62 -1660.07 2603.24 
-1742.11 -1661.2 2610.04 
-1739.85 -1663.02 2618.66 
-1746.11 -1658.87 2594.72 
-1744.06 -1659.88 2603.03 
-1744.01 -1659.82 2604.12 
-1742.51 -1660.82 2610.74 
-1740.95 -1662.44 2620.04 
-1739.8 -1663.46 2625.02 
-1739.56 -1664.31 2631.29 
-1738.36 -1666.85 2640.36 
-1736.2 -1669.07 2649 
-1734.75 -1670.84 2656.59 
-1733.57 -1672.72 2663 
-1738.65 -1664.93 2630.03 
-1739.16 -1664 2624.37 
-1737.13 -1667.45 2637.79 
-1742.8 -1660.52 2607.98 
-1741.05 -1662.28 2617.25 
-1740.23 -1662.89 2619.58 
-1739.09 -1664.46 2629.9 
-1738.12 -1666.82 2638.75 
-1735.82 -1669.16 2647.44 
-1734.15 -1671.12 2656.37 
-1732.98 -1672.96 2663.03 
-1737.77 -1666.98 2637.98 
-1734.88 -1669.73 2645.76 
-1732.96 -1672.07 2654.14 
-1735.35 -1669.38 2646.39 
-1733.97 -1671.11 2654.95 
-1732.48 -1673.22 2662.74 
-1730.86 -1675.91 2670.89 
-1733.44 -1671.56 2654.74 
-1731.51 -1674.01 2661.47 
-1732.09 -1673.38 2661.61 
-1730.5 -1676.11 2670.37 
-1730.4 -1676 2668.74 
-1728.85 -1673.29 2660.27 
-1724.32 -1680.98 2675.04 
-1724.17 -1681.83 2675.39 
