-1705.34 -1773.9 2230.88
-1705.82 -1775.64 2227.89
-1705.66 -1775.23 2228.26
-1705.53 -1774.8 2229.4
-1705.36 -1774.36 2229.71
-1704.46 -1772.41 2226.92
-1704.42 -1772.24 2227.53
-1705.25 -1773.32 2230.97
-1704.59 -1772.04 2228.19
-1705.94 -1776.04 2226.81
-1704.69 -1773.76 2219.69
-1704.9 -1774.25 2219.78
-1704.69 -1773.29 2224.02
-1704.49 -1773.27 2219.44
-1704.47 -1772.5 2224.12
-1704.35 -1771.98 2222.73
-1704.22 -1772.03 2220.9
-1704.46 -1771.8 2224.13
-1705.36 -1767.46 2217.01
-1705.9 -1775.95 2223.96
-1704.49 -1771.34 2224.46
-1704.25 -1771.33 2221.28
-1704.59 -1771.33 2226.84
-1704.85 -1771.07 2228.38
-1705.06 -1774.56 2218.12
-1704.27 -1773.11 2215.47
-1704.59 -1773.81 2215.69
-1704.15 -1772.52 2218.3
-1704.1 -1772.5 2215.77
-1704 -1772.03 2218.1
-1704.04 -1771.16 2218.51
-1703.99 -1770.9 2216.45
-1703.96 -1771.32 2216.09
-1704.86 -1769.52 2222.35
-1705.09 -1769.36 2223.9
-1705.14 -1769.03 2222.43
-1704.85 -1770.62 2226.74
-1705.76 -1775.59 2218
-1705.1 -1774.71 2215.56
-1704.34 -1770.84 2222.35
-1704.07 -1770.63 2218.63
-1704.06 -1770.16 2215.97
-1704.73 -1774.2 2214.28
-1704.45 -1773.62 2213.52
-1704.27 -1773 2213.52
-1703.97 -1771.91 2215.85
-1704.07 -1772.6 2214.29
-1703.94 -1770.55 2215.26
-1703.88 -1771.04 2214.92
-1703.91 -1771.66 2214.56
-1704.94 -1769.95 2224.63
-1704.38 -1769.5 2219.18
-1704.57 -1768.68 2217.89
-1704.22 -1768.64 2216.52
-1705.51 -1768.44 2221.95
-1704.47 -1770.31 2222.52
-1704.47 -1769.96 2221.29
-1706.46 -1776.58 2218.7
-1706.21 -1776.1 2211.19
-1705.86 -1775.62 2211
-1705.83 -1775.44 2210.12
-1704.28 -1770.44 2221.32
-1704.04 -1769.79 2216.4
-1705.64 -1774.95 2209.58
-1705.53 -1774.19 2208.38
-1705.81 -1774.82 2207.97
-1705.33 -1773.61 2208.68
-1704.34 -1772.52 2212.41
-1703.99 -1770.72 2213.77
-1703.97 -1771.3 2213.8
-1704.07 -1771.94 2213.24
-1704.05 -1769.19 2216.59
-1704.5 -1768.4 2215.95
-1703.98 -1769.62 2216.96
-1707.09 -1777.21 2210.18
-1707.75 -1777.91 2205.77
-1707.32 -1777.34 2205.95
-1706.94 -1776.6 2205.6
-1703.94 -1769.68 2215.7
-1703.95 -1769.98 2214.68
-1704.04 -1770.21 2213.4
-1706.23 -1774.47 2204.58
-1706.73 -1775.97 2201.41
-1706.97 -1776.71 2200.98
-1705.42 -1773.29 2207.82
-1705.19 -1772.28 2207.83
-1705.38 -1772.81 2207.42
-1704.18 -1770.99 2212.27
-1704.22 -1770.52 2212.08
-1704.2 -1771.58 2212.26
-1705.04 -1771.85 2208.37
-1713.03 -1766.17 2159
-1704.03 -1769.08 2215.32
-1704.18 -1768.9 2213.31
-1704.37 -1768.6 2212.72
-1704.48 -1768.33 2215.32
-1704.57 -1767.93 2212.87
-1704.72 -1767.96 2216.05
-1708.36 -1779.17 2201.29
-1707.86 -1778.51 2200.88
-1707.54 -1777.95 2201.19
-1707.25 -1777.36 2201.15
-1704.01 -1769.52 2214.09
-1704.11 -1769.78 2212.92
-1704.4 -1770.13 2211.3
-1706.56 -1774.92 2200.42
-1706.73 -1775.7 2199.85
-1707.19 -1777.02 2196.42
-1707.43 -1777.7 2195.45
-1707.45 -1778 2196.53
-1706.48 -1774.34 2200.13
-1706.02 -1772.51 2203.33
-1705.19 -1770.86 2207.56
-1705.09 -1771.43 2208.03
-1705.51 -1770.49 2206.06
-1706.54 -1765.23 2207.79
-1706.43 -1765.08 2208.81
-1706.71 -1766.33 2204.63
-1706.17 -1765.47 2207.19
-1709.58 -1766.91 2187.32
-1712.78 -1766.37 2163.62
-1712.69 -1766.6 2159.23
-1713.05 -1766.32 2157.2
-1704.32 -1768.99 2212.28
-1705.03 -1768.15 2210.02
-1705.42 -1767.28 2209.2
-1705.48 -1766.5 2209
-1704.85 -1768 2215.54
-1704.33 -1767.99 2213.63
-1705.23 -1767.19 2213.87
-1705.77 -1766.89 2213.61
-1708.84 -1780.18 2197.05
-1708.32 -1779.5 2196.65
-1707.98 -1778.99 2196.47
-1707.7 -1778.53 2196.39
-1704.84 -1769.34 2209.75
-1705.67 -1769.98 2205.44
-1707.16 -1776.08 2194.98
-1707.16 -1776.55 2195.65
-1707.47 -1777.2 2194.42
-1707.63 -1778.23 2195.27
-1707.83 -1778.06 2194.16
-1707.74 -1777.67 2193.71
-1706.62 -1773.98 2198.38
-1707.18 -1775.24 2194.2
-1706.68 -1773.32 2197.77
-1706.11 -1772.04 2202.59
-1706.65 -1772.53 2198.25
-1706.99 -1771.81 2196.26
-1706.53 -1764.49 2210.05
-1705.9 -1765.02 2209.98
-1705.58 -1765.47 2209.33
-1705.51 -1765.45 2210.2
-1709.03 -1767.04 2188.28
-1707.11 -1767.32 2201.63
-1705.88 -1765.9 2207.45
-1705.92 -1765.42 2208.32
-1709.94 -1767.95 2184.38
-1709.21 -1767.47 2186.82
-1709.06 -1767.63 2187.59
-1708.7 -1767.54 2188.07
-1711.58 -1768.05 2170.62
-1712.32 -1767.14 2164.14
-1712.45 -1767.11 2159.3
-1712.71 -1766.72 2157.66
-1713.11 -1766.9 2155.92
-1714.06 -1766.2 2153.49
-1714.37 -1766.5 2151.79
-1704.97 -1768.74 2209.35
-1705.17 -1768.19 2208.8
-1705.35 -1767.59 2208.14
-1705.48 -1767.08 2208.02
-1704.89 -1767.51 2211.77
-1705.4 -1766.38 2209.56
-1705.56 -1766.32 2208.21
-1705.53 -1766.02 2208.66
-1705.44 -1766.71 2213.11
-1705.07 -1766.3 2213.33
-1706.29 -1765.87 2212.25
-1708.97 -1780.32 2196.09
-1708.59 -1779.88 2195.65
-1708.18 -1779.29 2195.37
-1707.8 -1778.7 2195.31
-1706.01 -1770.09 2203.42
-1705.74 -1769.2 2205.26
-1707.56 -1775.83 2192.6
-1707.55 -1776.73 2193.5
-1707.92 -1776.99 2192.13
-1708.04 -1778.3 2193.24
-1708.02 -1777.64 2192.39
-1707.32 -1774.16 2192.98
-1707.93 -1773.85 2189.65
-1707.57 -1772.64 2191.08
-1707.69 -1771.59 2190.2
-1707.42 -1771 2193.44
-1707.82 -1770.65 2188.84
-1705.66 -1766.05 2211.96
-1705.13 -1766.86 2211.73
-1708.87 -1767.18 2191.67
-1707.45 -1767.66 2200.24
-1709.33 -1767.39 2185.89
-1708.99 -1767.74 2186.42
-1708.56 -1768.06 2188.13
-1708.52 -1767.79 2191.67
-1711.63 -1768.4 2167.5
-1712.12 -1767.53 2164.4
-1709.69 -1768.7 2184.26
-1712.3 -1767.6 2159.21
-1712.6 -1767.23 2157.42
-1713.23 -1767.13 2154.76
-1714.39 -1767.04 2150.65
-1705.89 -1768.85 2204.72
-1706.12 -1768.15 2204.43
-1706.05 -1767.75 2205.11
-1706.14 -1767.21 2205.08
-1705.18 -1767.48 2215.41
-1706.38 -1765.93 2213.08
-1705.26 -1766.83 2214.44
-1704.69 -1767.04 2214.55
-1709.2 -1780.51 2195.33
-1708.87 -1780.17 2195.05
-1708.54 -1779.68 2194.94
-1708.16 -1778.99 2194.58
-1708.53 -1779.37 2194.12
-1706.78 -1770.43 2198.79
-1708.05 -1775.7 2190.55
-1708.32 -1774.29 2188.32
-1708.55 -1776.55 2189.78
-1708.58 -1775.5 2188.62
-1708.29 -1778.86 2193.64
-1708.23 -1778.44 2192.62
-1708.59 -1777.41 2190.62
-1707.95 -1772.34 2188.45
-1708.32 -1772.44 2186.87
-1708.41 -1773.18 2187.06
-1707.96 -1771.4 2187.84
-1707.98 -1770.72 2187.36
-1707.65 -1770.44 2192.09
-1708.02 -1770.13 2188.38
-1708.09 -1770.24 2187.21
-1705.02 -1767.26 2213.02
-1707.89 -1768.4 2196.64
-1707.13 -1768.34 2200.12
-1708.63 -1768.45 2187.66
-1708.26 -1768.37 2191.93
-1708.32 -1768.63 2188.67
-1711.31 -1768.41 2171.09
-1711.9 -1768.12 2163.45
-1712.12 -1767.74 2163.04
-1711.53 -1768.96 2167.63
-1711.08 -1768.96 2176.32
-1711.25 -1769.17 2170.41
-1708.94 -1768.02 2185.87
-1710.3 -1769.32 2182.74
-1712.41 -1767.73 2157.84
-1712.1 -1768.13 2159.56
-1712.61 -1767.77 2156.27
-1713.73 -1767.67 2152.24
-1706.98 -1769.82 2198.4
-1707.28 -1769.2 2197.9
-1704.52 -1767.5 2214.12
-1705.66 -1766.96 2214.73
-1705.46 -1766.7 2215.3
-1704.99 -1766.23 2213.9
-1709.57 -1780.69 2194.41
-1708.82 -1779.86 2194.14
-1708.8 -1779.47 2193.14
-1708.5 -1779.03 2192.98
-1707.67 -1770 2192.59
-1708.75 -1774.29 2186.9
-1708.66 -1773.36 2186.37
-1710.18 -1775.82 2184.94
-1710.24 -1775.18 2184.19
-1710.04 -1774.62 2184.13
-1708.8 -1778.04 2190.8
-1710.21 -1776.5 2185.66
-1708.58 -1772.57 2186.16
-1708.42 -1772.05 2186.34
-1708.21 -1771.81 2186.85
-1708.13 -1770.95 2186.62
-1708.21 -1770.28 2186.47
-1708.12 -1769.68 2188.6
-1708.13 -1769.74 2187.08
-1708.16 -1769.45 2187.59
-1708.32 -1769.74 2186.51
-1707.99 -1768.95 2192.68
-1708.68 -1768.29 2186.8
-1708.37 -1768.95 2187.54
-1708.25 -1769.15 2188.64
-1707.8 -1769.49 2192.63
-1711.72 -1768.58 2163.8
-1710.1 -1770.14 2182.76
-1709.61 -1769.46 2184.02
-1708.72 -1768.79 2185.77
-1710.9 -1769.63 2175.59
-1712.2 -1768.21 2158.04
-1712.45 -1768.24 2156.42
-1712.97 -1768.33 2154.34
-1714.12 -1768.28 2150.4
-1714.7 -1767.57 2149.05
-1709.58 -1779.93 2192.17
-1709.27 -1779.46 2191.86
-1709.07 -1778.68 2191.05
-1709.69 -1774.04 2184.39
-1709.56 -1773.41 2184.29
-1709.59 -1772.72 2183.92
-1710.8 -1773.93 2181.87
-1710.4 -1777.15 2185.96
-1709.59 -1772.2 2183.73
-1708.5 -1771.42 2186.05
-1708.52 -1770.15 2185.93
-1708.3 -1769.18 2186.74
-1708.64 -1769.68 2185.72
-1711.93 -1768.63 2159.64
-1712.1 -1768.68 2157.66
-1711.2 -1769.75 2170.08
-1711.56 -1769.35 2164.18
-1711.72 -1769.47 2159.98
-1709.35 -1770.35 2184.1
-1710.16 -1770.94 2182.46
-1710.7 -1770.83 2180.89
-1710.84 -1771.15 2180.08
-1710.78 -1770.6 2179.46
-1712.56 -1768.66 2155.47
-1713.54 -1768.88 2151.88
-1714.31 -1768.56 2149.56
-1714.72 -1768.23 2148.58
-1711.13 -1778.38 2186.2
-1710.54 -1773.27 2182.02
-1710.37 -1772.61 2182.03
-1710.36 -1771.99 2182.1
-1708.62 -1770.74 2185.72
-1709.48 -1771.25 2183.8
-1710.25 -1771.46 2182.31
-1711.92 -1769.22 2158.08
-1712.22 -1769.07 2156.15
-1710.81 -1770.33 2175.61
-1710.7 -1771.59 2181.42
-1710.88 -1771.72 2179.21
-1710.85 -1771.03 2176.01
-1713.16 -1769.01 2153.47
-1713.89 -1769.5 2150.29
-1714.47 -1768.93 2148.83
-1705.31 -1765.85 2213.13
-1705.29 -1765.71 2213.74
-1705.81 -1766.44 2214.75
-1705.65 -1766.41 2214.2
-1710.7 -1772.77 2181.49
-1710.7 -1772.21 2181.54
-1712.58 -1769.41 2154.81
-1711.83 -1769.76 2159.28
-1711.15 -1770.38 2169.99
-1713.55 -1769.92 2151.58
-1714.21 -1769.74 2149.28
-1705.29 -1765.79 2214.38
-1705.22 -1766.15 2215.13
-1705.63 -1766.75 2215.8
-1705.05 -1766.56 2214.87
-1712.16 -1774.14 2172.82
-1711.84 -1773.86 2174.47
-1711.41 -1773.2 2176.16
-1711.76 -1773.03 2171.62
-1711.17 -1772.61 2176.11
-1711.97 -1769.59 2157.31
-1712.42 -1769.93 2155.21
-1713.14 -1770.22 2152.82
-1711.52 -1770.03 2163.8
-1711.85 -1770.39 2159.07
-1710.93 -1771.74 2176.41
-1711.33 -1771.26 2169.83
-1711.57 -1770.76 2163.45
-1713.81 -1770.48 2150.34
-1715.35 -1770.48 2146.45
-1705.38 -1765.51 2212.69
-1705.14 -1766.87 2215.68
-1712.87 -1773.6 2162.11
-1712.56 -1773.18 2162.71
-1712.22 -1772.61 2163.32
-1711.72 -1772.33 2169.24
-1711.96 -1771.99 2162.98
-1711.51 -1771.78 2169.48
-1713.33 -1773.92 2159.72
-1712.13 -1770.31 2156.65
-1712.65 -1770.49 2154.31
-1713.56 -1771.05 2151.43
-1711.91 -1770.7 2158.34
-1715.24 -1771.5 2146.86
-1705.25 -1765.99 2215.66
-1705.67 -1767.21 2216.42
-1713.28 -1773.45 2156.46
-1712.64 -1772.72 2157.97
-1712.38 -1772.13 2157.88
-1711.64 -1771.07 2162.99
-1711.99 -1771.58 2159.02
-1712.54 -1770.95 2155.02
-1713.3 -1771.12 2152.29
-1715.17 -1772.05 2147.23
-1711.92 -1771.14 2158.59
-1712.41 -1771.19 2156
-1705.4 -1765.7 2214.97
-1704.98 -1767.11 2216.13
-1713.34 -1773.13 2154.77
-1715.21 -1774.44 2150.06
-1713.14 -1772.56 2154.56
-1712.45 -1771.67 2156.39
-1713.22 -1772.21 2153.38
-1713.14 -1771.29 2152.76
-1713.11 -1771.73 2153.14
-1705.74 -1765.92 2213.9
-1714.89 -1773.86 2150.01
-1714.79 -1773.41 2149.62
-1714.78 -1772.99 2149.12
-1714.84 -1772.68 2148.57
-1715.05 -1772.57 2147.92
-1705.08 -1766.4 2216.03
-1704.79 -1767.43 2216.59
-1705.55 -1766.63 2216.28
-1705.76 -1766.32 2215.48
-1705.49 -1766.42 2216.81
-1704.62 -1767.91 2216.77
-1704.85 -1767.07 2217.02
-1705.92 -1765.97 2214.47
-1705.24 -1766.86 2216.61
-1705.89 -1765.85 2215.03
-1705.05 -1766.57 2217.07
-1705.68 -1766.23 2215.98
-1705.48 -1765.38 2213.29
-1705.58 -1765.35 2214.02
-1705.69 -1765.06 2215.73
-1705.78 -1765.03 2213.09
-1705.62 -1765.29 2215.18
-1705.4 -1766.26 2217.36
-1705.62 -1765.36 2214.62
-1705.92 -1765.3 2213.63
-1705.45 -1765.54 2215.75
-1705.3 -1765.94 2216.27
-1705.42 -1765.72 2216.78
-1705.9 -1764.92 2214.15
-1705.37 -1766.01 2217.82
-1705.79 -1764.79 2216.37
-1705.56 -1765.33 2216.34
-1705.65 -1765.47 2217.9
-1705.48 -1765.64 2217.32
-1705.68 -1765.14 2217.1
-1705.87 -1764.86 2214.97
