-1896.59 -1629.21 2557.74 
-1899.5 -1624.57 2559.24 
-1896.66 -1629.09 2558.24 
-1900 -1623.93 2559.92 
-1896.77 -1629.11 2558.94 
-1896.82 -1628.82 2555.47 
-1899.26 -1624.59 2557.73 
-1896.63 -1628.78 2556.82 
-1900.36 -1622.7 2559.05 
-1896.93 -1628.5 2553.67 
-1900.05 -1624.05 2560.37 
-1897.12 -1629.18 2560.19 
-1898.09 -1628.09 2561.11 
-1898.74 -1627.66 2561.95 
-1900.42 -1623.9 2561.06 
-1899.51 -1628.08 2563.15 
-1900.25 -1623.87 2560.68 
-1901.38 -1624.13 2562.41 
-1900.21 -1628.88 2564.6 
-1906.54 -1627.29 2540.24 
-1905.46 -1625.49 2542.06 
-1905.73 -1627.51 2539.85 
-1904.91 -1625.37 2542.14 
-1905.05 -1627.43 2540.1 
-1904.49 -1625.27 2542.31 
-1904.45 -1627.24 2540.49 
-1905.94 -1633.68 2575.56 
-1906.71 -1632.09 2574.23 
-1907.01 -1633.51 2576.2 
-1901.32 -1621.03 2559.53 
-1901.34 -1621.17 2559.85 
-1899.54 -1624.02 2555.71 
-1901.23 -1620.7 2558.48 
-1901.73 -1619.94 2559.11 
-1897.04 -1628.26 2551.8 
-1899.59 -1623.94 2553.31 
-1897.2 -1628.1 2549.99 
-1901.36 -1621.34 2560.16 
-1899.25 -1624.62 2551.24 
-1901.53 -1621.63 2560.91 
-1901.4 -1621.44 2560.46 
-1902.14 -1625.46 2564.21 
-1900.78 -1630 2566.2 
-1902.61 -1620.3 2561.32 
-1902.85 -1622.54 2563.12 
-1904.48 -1632.16 2572.24 
-1906.55 -1630.28 2571.96 
-1906.15 -1631.42 2572.77 
-1904.14 -1625.18 2542.42 
-1906.2 -1625.4 2542.35 
-1907.21 -1628.37 2538.02 
-1907.65 -1627.26 2540.35 
-1904.77 -1623.06 2543.78 
-1905.3 -1623.43 2543.82 
-1904.42 -1623.13 2543.75 
-1904.05 -1623 2543.89 
-1907.7 -1630.67 2573.3 
-1907.92 -1632.12 2575.22 
-1908.38 -1627.45 2571.17 
-1902.38 -1618.79 2559.42 
-1902.38 -1618.93 2559.63 
-1902.44 -1618.99 2559.88 
-1901.05 -1621 2556.4 
-1902.35 -1618.7 2559.15 
-1902.09 -1619.21 2558.19 
-1900.56 -1621.96 2554.19 
-1902.44 -1619.14 2560.13 
-1897.45 -1627.83 2548.18 
-1899.09 -1624.91 2550.25 
-1900.02 -1623.01 2552.07 
-1902.45 -1619.29 2560.39 
-1902.58 -1627.21 2566.02 
-1901.52 -1630.63 2567.53 
-1903.47 -1624.62 2565.24 
-1903.68 -1631.58 2570.75 
-1906.14 -1627.9 2570.12 
-1905 -1631.08 2571.38 
-1904.91 -1628.6 2569.51 
-1907.22 -1627.35 2570.67 
-1903.94 -1620.06 2562.26 
-1903.08 -1618.66 2560.85 
-1904.25 -1621.8 2564.23 
-1907.97 -1627.31 2570.96 
-1899.1 -1624.86 2549.65 
-1897.62 -1627.78 2547.03 
-1903.91 -1626.93 2540.97 
-1903.79 -1625.09 2542.53 
-1903.49 -1627.06 2540.95 
-1903.47 -1625.06 2542.59 
-1903.25 -1627.17 2541.13 
-1903.16 -1625.09 2542.59 
-1903.01 -1627.23 2541.38 
-1903.77 -1623.31 2543.77 
-1909.42 -1628.57 2538.27 
-1910.22 -1625.99 2542.59 
-1911.87 -1626.29 2542.6 
-1906.82 -1625.28 2542.68 
-1905.9 -1623.63 2544.05 
-1905.74 -1622.91 2544.6 
-1904.24 -1622.2 2544.41 
-1904.6 -1621.79 2545.01 
-1905.12 -1622.42 2544.58 
-1903.64 -1622.89 2544.13 
-1903.83 -1622.27 2544.79 
-1909.22 -1630.54 2574.15 
-1908.2 -1632.55 2575.9 
-1908.67 -1630.44 2573.77 
-1909.71 -1630.87 2574.78 
-1908.95 -1627.1 2571.01 
-1908.1 -1624.69 2569.62 
-1908.96 -1624.41 2569.25 
-1902.91 -1617.86 2559.75 
-1903.06 -1617.74 2560.08 
-1903.12 -1617.78 2560.32 
-1903.1 -1617.94 2560.51 
-1901.53 -1620.07 2556.3 
-1902.87 -1618.44 2558.76 
-1902.38 -1619.01 2557.24 
-1900.89 -1621.35 2553.94 
-1903.05 -1618.1 2560.72 
-1899.7 -1623.69 2549.97 
-1900.46 -1622.21 2552.07 
-1903.84 -1629.4 2569.04 
-1904.68 -1624.48 2566.61 
-1905.91 -1624.05 2567.72 
-1903.64 -1626.82 2567.02 
-1902.52 -1630.35 2568.42 
-1907.06 -1624.27 2568.62 
-1904.32 -1619.01 2561.52 
-1905.18 -1620.8 2563.56 
-1903.34 -1617.77 2561.32 
-1905.5 -1622.23 2565.62 
-1897.76 -1628.03 2546.33 
-1898.8 -1625.44 2548.42 
-1902.84 -1625.16 2542.6 
-1902.76 -1627.28 2541.62 
-1903.43 -1623.29 2543.88 
-1903.17 -1623.57 2543.87 
-1902.88 -1623.9 2543.82 
-1908.06 -1624.45 2543.88 
-1911.87 -1624.85 2544.3 
-1912.51 -1624.78 2544.22 
-1912.78 -1625.32 2543.75 
-1912.32 -1627.41 2541.04 
-1912.13 -1628.9 2538.56 
-1911.88 -1629.62 2537.42 
-1906.26 -1623.53 2544.35 
-1906.38 -1622.89 2545.04 
-1905.31 -1621.69 2545.76 
-1905.93 -1622.07 2545.77 
-1904.59 -1620.87 2547.09 
-1903.92 -1620.89 2546.99 
-1903.37 -1622.3 2545.53 
-1903.31 -1623.24 2544.13 
-1903.38 -1620.82 2547.86 
-1910.22 -1631.14 2575.31 
-1908.73 -1632.9 2576.43 
-1910.46 -1627.4 2571.34 
-1909.92 -1627.29 2571.22 
-1909.41 -1627.24 2571.14 
-1911.03 -1627.58 2571.58 
-1909.76 -1624.18 2568.82 
-1908.06 -1623.49 2567.9 
-1909.17 -1623.42 2567.97 
-1903.61 -1616.86 2560.29 
-1903.4 -1617.56 2559.45 
-1903.73 -1616.65 2560.7 
-1903.53 -1617.08 2561 
-1903.69 -1616.76 2560.89 
-1903.41 -1617.27 2561.22 
-1901.63 -1619.94 2555.35 
-1903.54 -1618.12 2558.39 
-1902.21 -1618.99 2555.83 
-1902.98 -1618.78 2556.78 
-1901.22 -1620.78 2553.36 
-1899.08 -1624.93 2547.84 
-1899.82 -1623.6 2548.83 
-1900.51 -1622.17 2551.03 
-1906.8 -1622.65 2566.49 
-1905.64 -1619.86 2562.4 
-1904.76 -1618.19 2562.05 
-1906.43 -1621.35 2564.56 
-1903.64 -1616.95 2561.79 
-1898.49 -1626.05 2547.19 
-1898.38 -1626.48 2546.1 
-1902.27 -1625.75 2542.79 
-1901.98 -1626.12 2543 
-1902.36 -1627.93 2541.66 
-1902.51 -1625.34 2542.69 
-1902.51 -1624.27 2543.7 
-1903.07 -1623.58 2544.15 
-1902.83 -1623.9 2544.17 
-1908.9 -1623.82 2544.59 
-1912.29 -1624.37 2544.69 
-1913.27 -1624.75 2544.12 
-1913.09 -1624.51 2544.56 
-1913.19 -1625.33 2543.52 
-1912.63 -1626.94 2541.73 
-1913.29 -1630.27 2536.79 
-1912.53 -1630.35 2536.61 
-1913.44 -1624.88 2543.81 
-1906.64 -1622.32 2545.58 
-1905.69 -1621.15 2547.05 
-1905.17 -1620.66 2547.85 
-1906.3 -1621.51 2546.89 
-1904.38 -1619.57 2550.27 
-1903.94 -1619.84 2549.45 
-1903.32 -1619.33 2550.6 
-1902.88 -1620.86 2548.73 
-1902.99 -1622.39 2546.1 
-1902.84 -1619.53 2550.86 
-1910.63 -1631.68 2575.95 
-1909.19 -1633.38 2576.99 
-1912.01 -1627.76 2571.8 
-1911.62 -1627.47 2571.49 
-1911.2 -1624.03 2568.1 
-1911.98 -1624.01 2567.8 
-1910.4 -1624.17 2568.5 
-1910.25 -1623.34 2568 
-1910.76 -1623.6 2568.13 
-1907.88 -1622.14 2565.92 
-1909.16 -1622.22 2566.22 
-1904.23 -1616.17 2560.81 
-1904.11 -1616.96 2559.48 
-1904.18 -1615.95 2561.34 
-1903.88 -1616.27 2561.44 
-1903.79 -1616.41 2561.69 
-1904.23 -1617.7 2558.18 
-1902.7 -1618.57 2555.41 
-1901.87 -1619.56 2554.21 
-1903.46 -1618.59 2556.31 
-1901.26 -1620.77 2552.08 
-1899.27 -1625.51 2546.31 
-1900.35 -1624.45 2546.61 
-1900.71 -1622.07 2549.93 
-1901.2 -1622.98 2547.8 
-1907.25 -1620.75 2563.8 
-1906.43 -1619.49 2562.54 
-1904.64 -1616.89 2562.49 
-1906.12 -1618.37 2562.77 
-1903.87 -1616.14 2562.17 
-1899.85 -1625.97 2544.99 
-1899.36 -1626.05 2545.4 
-1898.77 -1626.71 2545.36 
-1901.64 -1626.5 2543.26 
-1900.67 -1625.61 2544.6 
-1900.8 -1626.97 2543.59 
-1900.16 -1627.7 2543.72 
-1901.32 -1625.11 2544.51 
-1902.09 -1624.67 2544.01 
-1902.52 -1624.29 2544.03 
-1902.66 -1622.81 2546.17 
-1902.13 -1623.77 2545.48 
-1909.53 -1623.34 2545 
-1913.02 -1624.3 2544.97 
-1912.4 -1624.19 2545.09 
-1913.53 -1624.54 2544.19 
-1913.46 -1624.44 2544.53 
-1913.48 -1624.22 2544.97 
-1913.01 -1625.78 2543.17 
-1913.18 -1628.77 2539.04 
-1913.59 -1625.38 2543.24 
-1913.67 -1624.99 2543.56 
-1913.65 -1624.68 2543.84 
-1907.2 -1622.13 2545.59 
-1905.84 -1620.47 2548.53 
-1904.96 -1619.7 2550.12 
-1907 -1621.72 2546.48 
-1906.52 -1620.75 2548.34 
-1903.55 -1618.61 2552.47 
-1904.01 -1618.67 2552.52 
-1903.01 -1618.3 2553.26 
-1901.73 -1620.38 2551.18 
-1902.19 -1621.46 2548.88 
-1902.34 -1618.84 2552.98 
-1912.4 -1628.05 2571.83 
-1911.09 -1632.19 2576.41 
-1912.77 -1628.57 2571.8 
-1911.8 -1632.97 2575.84 
-1913.64 -1623.66 2566.93 
-1912.86 -1623.76 2567.29 
-1911.5 -1623.37 2567.67 
-1912.19 -1623.27 2567.29 
-1913.02 -1623.03 2566.79 
-1911.45 -1622.87 2567.42 
-1910.35 -1622.26 2566.48 
-1908.51 -1621.03 2564.4 
-1909.69 -1621 2564.56 
-1904.93 -1616.09 2561.16 
-1904.69 -1616.33 2560.52 
-1904.71 -1616.87 2559.27 
-1904.24 -1615.7 2561.88 
-1904.9 -1615.85 2561.65 
-1904.2 -1615.56 2562.29 
-1904.72 -1617.61 2557.74 
-1902.09 -1619.18 2553.6 
-1902.96 -1618.35 2554.58 
-1903.68 -1618.45 2555.53 
-1900.55 -1625.31 2545.08 
-1901.83 -1624.64 2544.56 
-1907.74 -1619.72 2563.2 
-1904.27 -1615.52 2562.73 
-1905.43 -1616.19 2563.22 
-1906.04 -1617.37 2563.12 
-1907.49 -1618.52 2563.51 
-1910.12 -1622.84 2545.32 
-1913.44 -1624.08 2545.36 
-1913.03 -1624.16 2545.31 
-1912.68 -1623.81 2545.46 
-1913.68 -1624.34 2544.32 
-1913.63 -1624.21 2544.71 
-1913.72 -1624.05 2545.01 
-1913.75 -1624.05 2545.13 
-1913.5 -1628.4 2539.54 
-1914.15 -1630.58 2536.31 
-1913.58 -1627.55 2540.68 
-1913.9 -1625.37 2543.06 
-1913.88 -1625.07 2543.34 
-1913.85 -1624.8 2543.58 
-1914.9 -1630.41 2536.27 
-1913.84 -1624.58 2543.77 
-1913.76 -1624.41 2544.03 
-1907.96 -1621.79 2546.12 
-1905.09 -1619.41 2550.87 
-1905.86 -1619.71 2551.04 
-1904.44 -1618.77 2552.53 
-1907.1 -1621.07 2547.9 
-1906.88 -1620.16 2550.74 
-1904.13 -1618.5 2554.06 
-1903.69 -1618.31 2554.45 
-1904.86 -1618.48 2554.88 
-1913.19 -1628.93 2571.42 
-1913.43 -1629.94 2571.71 
-1912.58 -1634.53 2575.28 
-1914.22 -1623.91 2566.75 
-1913.85 -1622.74 2566.27 
-1914.39 -1622.83 2565.93 
-1912.39 -1622.71 2567.01 
-1913.07 -1622.62 2566.63 
-1913.91 -1622.27 2566.07 
-1912.33 -1622.19 2566.62 
-1911.05 -1621.53 2565.52 
-1908.84 -1619.69 2563.84 
-1910.19 -1620.11 2564.47 
-1905.69 -1616.06 2561.45 
-1905.69 -1616.27 2561.01 
-1905.21 -1616.42 2560.46 
-1905.26 -1616.78 2559.61 
-1904.91 -1615.6 2562.15 
-1905.65 -1615.83 2561.91 
-1904.85 -1615.3 2562.75 
-1904.72 -1617.99 2556.63 
-1905.94 -1614.67 2564.35 
-1907.34 -1614.93 2564.91 
-1907.13 -1617.27 2563.79 
-1908.83 -1618.58 2564.27 
-1927.78 -1635.01 2545.54 
-1926.19 -1633.5 2545.28 
-1930.24 -1638.79 2542.91 
-1925.19 -1633.22 2543.95 
-1910.93 -1622.29 2545.69 
-1913.34 -1623.99 2545.64 
-1913.82 -1624.09 2545.18 
-1913.08 -1623.72 2545.9 
-1910.84 -1622.32 2546.41 
-1913.85 -1624.16 2544.37 
-1913.77 -1624.11 2544.64 
-1913.83 -1624.06 2544.8 
-1914.49 -1623.85 2543.29 
-1914.72 -1623.67 2542.66 
-1914.81 -1623.88 2542.81 
-1914.12 -1628.69 2539.06 
-1913.87 -1625.68 2542.79 
-1914.13 -1625.38 2542.89 
-1914.08 -1625.14 2543.14 
-1914.04 -1624.89 2543.37 
-1914.02 -1624.65 2543.58 
-1913.97 -1624.42 2543.82 
-1913.93 -1624.21 2544.11 
-1908.25 -1621.29 2547.65 
-1905.14 -1618.92 2553.15 
-1906.69 -1618.25 2556.61 
-1905.8 -1617.9 2557.15 
-1907.84 -1620.52 2550.29 
-1908.02 -1618.9 2555.55 
-1907.33 -1618.4 2556.55 
-1905.21 -1617.85 2557.17 
-1906.38 -1616.89 2559.79 
-1913.83 -1630.32 2571.45 
-1914.6 -1624.52 2566.83 
-1914.95 -1625.1 2566.92 
-1914.71 -1623.15 2565.68 
-1914.33 -1622.55 2565.8 
-1914.64 -1622.86 2565.53 
-1913.47 -1622.05 2566.25 
-1914.06 -1621.97 2565.77 
-1914.29 -1622.31 2565.66 
-1913.09 -1621.55 2565.96 
-1911.72 -1620.89 2565.16 
-1910.57 -1619.28 2565.01 
-1906.49 -1616.32 2561.15 
-1906.46 -1616.08 2561.64 
-1906 -1616.48 2560.6 
-1905.87 -1616.69 2560.01 
-1905.78 -1615.43 2562.76 
-1906.6 -1615.6 2562.68 
-1906.8 -1614.42 2565.03 
-1908.88 -1613.76 2566.91 
-1909.33 -1614.29 2566.34 
-1908.19 -1616.55 2564.65 
-1909.65 -1617.22 2565.22 
-1926.91 -1635.55 2543.86 
-1929.18 -1637.83 2543.26 
-1931.41 -1640.44 2541.94 
-1927.55 -1634.49 2546.03 
-1924.76 -1631.18 2546.18 
-1923.51 -1631.19 2543.96 
-1924.73 -1633.25 2543.08 
-1922.05 -1631.43 2541.42 
-1922.03 -1630.97 2542.05 
-1913.89 -1624.15 2545.22 
-1914.97 -1624.04 2542.74 
-1913.43 -1623.88 2545.82 
-1910.87 -1622.26 2547.12 
-1914.5 -1623.06 2542.01 
-1914.53 -1623.15 2542.09 
-1914.51 -1623.45 2542.6 
-1915.3 -1622.45 2540.02 
-1916.04 -1622.66 2539.69 
-1916.36 -1622.94 2539.67 
-1916.59 -1623.37 2539.77 
-1913.93 -1626.95 2541.4 
-1914.87 -1629.61 2537.51 
-1914.2 -1625.64 2542.63 
-1914.33 -1625.37 2542.73 
-1914.25 -1625.18 2542.97 
-1914.23 -1624.94 2543.18 
-1914.2 -1624.68 2543.4 
-1914.16 -1624.41 2543.64 
-1915.67 -1630.39 2535.35 
-1916.17 -1630.22 2535.07 
-1914.11 -1624.1 2543.81 
-1914.5 -1622.83 2541.72 
-1909.03 -1621.09 2549.41 
-1906.84 -1617.43 2558.92 
-1907.84 -1616.95 2560.25 
-1908.29 -1617.06 2560.05 
-1907.31 -1616.78 2560.42 
-1909.05 -1618.91 2556.05 
-1908.75 -1617.18 2559.84 
-1906.8 -1616.56 2560.68 
-1914.24 -1630.73 2571.17 
-1913.37 -1635.18 2574.33 
-1915.25 -1625.75 2567.06 
-1914.38 -1634.84 2572.92 
-1915.01 -1623.64 2565.63 
-1915.3 -1624.3 2565.79 
-1914.96 -1623.19 2565.28 
-1914.59 -1622.59 2565.4 
-1914.89 -1622.91 2565.16 
-1913.62 -1621.22 2565.89 
-1914.32 -1622.04 2565.4 
-1913.79 -1621.25 2565.62 
-1912.21 -1619.88 2565.71 
-1911.31 -1617.7 2565.98 
-1907.27 -1616.38 2561.27 
-1907.45 -1615.88 2562.36 
-1907.86 -1614.49 2565.21 
-1907.92 -1615.18 2563.88 
-1908.89 -1613.71 2567.09 
-1909.91 -1614.22 2566.82 
-1909.94 -1614.56 2566.44 
-1910.42 -1615.43 2566.29 
-1924.91 -1633.75 2542.65 
-1925.93 -1635.2 2542.79 
-1930.53 -1637.72 2545.4 
-1926.58 -1633.12 2547.54 
-1928.77 -1635.6 2546.05 
-1924.86 -1631.02 2547.04 
-1929.64 -1637.05 2547.13 
-1926.47 -1632.86 2548.33 
-1923.96 -1630.25 2546.41 
-1922.81 -1630.3 2544.33 
-1921.16 -1630.08 2542.17 
-1922.7 -1632.61 2540.77 
-1921.86 -1631.84 2540.61 
-1921.14 -1630.56 2541.33 
-1921.09 -1631.1 2540.44 
-1915.07 -1624.25 2542.87 
-1914.19 -1624.31 2545.05 
-1916.77 -1623.77 2539.89 
-1911.41 -1622.38 2547.86 
-1914.89 -1622.38 2540.25 
-1915 -1622.38 2540.11 
-1915.26 -1622.43 2539.96 
-1916.15 -1622.73 2539.61 
-1916.97 -1622.98 2539.3 
-1917.49 -1623.18 2539.24 
-1918.05 -1623.39 2538.97 
-1914.75 -1628.38 2539.18 
-1914.38 -1625.69 2542.44 
-1914.43 -1625.31 2542.51 
-1914.41 -1624.99 2542.71 
-1914.35 -1624.88 2542.95 
-1914.31 -1624.59 2543.2 
-1914.26 -1624.28 2543.47 
-1914.13 -1623.99 2543.78 
-1914.98 -1628.22 2539.29 
-1916.95 -1629.77 2534.99 
-1916.61 -1630.45 2533.87 
-1917.1 -1630.05 2534 
-1914.47 -1622.5 2541.43 
-1914.76 -1622.34 2540.48 
-1908.01 -1616.36 2561.46 
-1908.55 -1616.32 2561.5 
-1909.01 -1616.41 2561.32 
-1909.91 -1619.05 2556.29 
-1909.8 -1617.09 2560.12 
-1909.4 -1616.79 2560.61 
-1915.26 -1628.27 2568.62 
-1915.59 -1625.11 2566.12 
-1915.6 -1631.28 2569.58 
-1915.29 -1623.56 2565.06 
-1915.56 -1624.19 2565.2 
-1916.67 -1634.79 2570.01 
-1916.3 -1637.22 2571.98 
-1915.21 -1623.25 2564.91 
-1914.62 -1622.31 2565.13 
-1914.98 -1622.73 2564.87 
-1912.75 -1619.27 2566.06 
-1913.81 -1620.99 2565.39 
-1914.15 -1621.33 2565.14 
-1912.85 -1619.47 2565.69 
-1911.77 -1616.91 2566.34 
-1908.2 -1615.8 2562.58 
-1909.05 -1614.48 2565.48 
-1909.56 -1614.31 2566.3 
-1908.67 -1615.29 2563.72 
-1910.2 -1614.8 2566.08 
-1910.46 -1614.67 2566.49 
-1910.86 -1614.87 2566.57 
-1923.53 -1633.69 2540.77 
-1924.21 -1635.94 2540.05 
-1924.72 -1630.51 2547.9 
-1923.58 -1629.57 2547.22 
-1929.27 -1637.19 2548.47 
-1926.75 -1633.2 2549.12 
-1924.81 -1630.53 2548.79 
-1922.75 -1629.11 2546.55 
-1921.88 -1629.39 2544.6 
-1920.42 -1629.26 2542.6 
-1919.34 -1629.01 2540.65 
-1922.59 -1633.32 2539.57 
-1921.9 -1632.45 2539.59 
-1921.13 -1631.58 2539.7 
-1919.66 -1629.79 2539.19 
-1919.48 -1629.43 2540.14 
-1919.94 -1630.05 2538.62 
-1915.29 -1624.48 2542.69 
-1917.01 -1624.2 2539.99 
-1915.25 -1624.71 2543.19 
-1912.77 -1622.9 2547.72 
-1918.17 -1623.81 2539.13 
-1914.99 -1622.47 2540.19 
-1915.34 -1622.61 2539.93 
-1915.29 -1622.54 2539.94 
-1915.65 -1622.62 2539.79 
-1916.57 -1622.94 2539.42 
-1917.45 -1623.22 2539.09 
-1918.13 -1623.4 2538.84 
-1919 -1623.65 2538.51 
-1919.31 -1623.71 2538.42 
-1914.47 -1625.7 2542.23 
-1914.5 -1625.25 2542.34 
-1914.5 -1624.85 2542.5 
-1914.45 -1624.59 2542.75 
-1914.39 -1624.48 2542.98 
-1914.33 -1624.21 2543.26 
-1914.22 -1624.05 2543.56 
-1914.05 -1623.84 2543.84 
-1914.28 -1622.45 2541.86 
-1914.38 -1622.47 2541.63 
-1918.4 -1629.24 2534.13 
-1916.82 -1630.63 2533.65 
-1916.42 -1629.44 2536.78 
-1914.69 -1627.25 2540.84 
-1918.55 -1627.23 2535.82 
-1918.23 -1629 2534.74 
-1914.64 -1622.29 2540.73 
-1914.85 -1622.45 2540.37 
-1916.74 -1631 2533.51 
-1918.43 -1629.9 2533.71 
-1918.46 -1629.56 2533.9 
-1908.88 -1615.7 2562.76 
-1909.48 -1615.92 2562.3 
-1910.56 -1618.83 2557.18 
-1910.33 -1617.05 2560.44 
-1909.89 -1616.41 2561.4 
-1915.85 -1626.16 2566.45 
-1915.82 -1624.94 2565.52 
-1916.31 -1628.64 2567.2 
-1915.59 -1623.63 2564.59 
-1915.88 -1624.28 2564.73 
-1917.37 -1632.7 2567.89 
-1918.33 -1632.73 2566.38 
-1918.43 -1637.37 2569.27 
-1920.84 -1638.03 2565.59 
-1915.36 -1623.2 2564.62 
-1914.48 -1621.73 2564.91 
-1914.92 -1622.3 2564.64 
-1913.48 -1620.17 2565.18 
-1912.82 -1619.32 2565.42 
-1913.87 -1620.51 2564.94 
-1911.72 -1616.82 2565.99 
-1919.34 -1632.23 2564.02 
-1922.88 -1636.12 2560.59 
-1925.38 -1638.41 2558.44 
-1920.05 -1628.71 2559.99 
-1924.61 -1634.37 2556.26 
-1919.04 -1628.78 2562.05 
-1909.57 -1615.01 2564.5 
-1909.98 -1614.95 2565.25 
-1910.42 -1615.33 2565.25 
-1910.64 -1615.22 2565.65 
-1910.86 -1615.12 2566.04 
-1923.19 -1628.72 2549.09 
-1922.21 -1628.07 2548.42 
-1921.74 -1628.1 2547.28 
-1928.33 -1636.35 2550.08 
-1926.44 -1632.68 2549.84 
-1925.06 -1630.94 2549.51 
-1923.26 -1628.91 2550.45 
-1920.93 -1628.35 2545.22 
-1918.92 -1628.13 2541.87 
-1918.72 -1628.44 2540.94 
-1919.44 -1628.27 2538.83 
-1919.61 -1628.68 2538.19 
-1921.56 -1632.35 2538.9 
-1919.95 -1630.6 2538.31 
-1920.99 -1631.78 2538.87 
-1920.16 -1628.58 2537.44 
-1920.79 -1628.3 2536.73 
-1926.99 -1636.39 2553.5 
-1927.21 -1639.82 2556.05 
-1917.1 -1624.71 2540.21 
-1918.66 -1624.23 2539.09 
-1915.35 -1624.89 2543.42 
-1917.23 -1625.26 2540.44 
-1913.6 -1622.87 2548.58 
-1915.2 -1622.61 2540.06 
-1915.73 -1622.8 2539.73 
-1916.21 -1622.89 2539.55 
-1917.53 -1623.34 2539.04 
-1918.57 -1623.64 2538.65 
-1919.23 -1623.81 2538.4 
-1920.22 -1624.2 2537.97 
-1920.19 -1624.06 2538.05 
-1920.24 -1624.01 2538.07 
-1914.56 -1625.74 2542.06 
-1914.55 -1625.36 2542.13 
-1914.57 -1624.94 2542.25 
-1914.6 -1624.53 2542.35 
-1914.54 -1624.41 2542.58 
-1914.47 -1624.19 2542.85 
-1914.39 -1624.14 2543.1 
-1914.24 -1623.99 2543.43 
-1914.05 -1623.79 2543.81 
-1914.18 -1622.42 2542.09 
-1914.49 -1622.21 2541.04 
-1919.51 -1628.31 2534.66 
-1919.64 -1627.38 2535.51 
-1918.84 -1626.14 2536.67 
-1919.67 -1628.54 2534.49 
-1917.38 -1629.36 2536.35 
-1914.89 -1627.43 2540.56 
-1914.69 -1625.9 2541.96 
-1918.32 -1625.79 2537.11 
-1917.16 -1624.08 2538.68 
-1918.22 -1628.47 2535.47 
-1918.94 -1627.3 2535.83 
-1914.62 -1622.34 2540.81 
-1914.78 -1622.46 2540.5 
-1915.09 -1622.61 2540.19 
-1918.49 -1630.42 2533.44 
-1920.01 -1628.94 2534.19 
-1918.44 -1630.2 2533.56 
-1919.86 -1628.72 2534.36 
-1920.13 -1629.16 2533.89 
-1918.59 -1630.55 2533.35 
-1920.14 -1629.6 2533.55 
-1918.4 -1630.86 2533.19 
-1920.15 -1629.94 2533.38 
-1909.68 -1615.52 2563.46 
-1910 -1616.01 2562.55 
-1911.26 -1618.81 2557.62 
-1910.39 -1616.38 2561.64 
-1910.81 -1617.01 2560.82 
-1911.73 -1618.68 2558.25 
-1916.27 -1626.61 2565.79 
-1916.08 -1625.73 2565.55 
-1916.24 -1625.23 2564.76 
-1916.77 -1627.61 2565.64 
-1915.44 -1623.07 2564.39 
-1915.86 -1623.72 2564.21 
-1916.34 -1624.45 2563.91 
-1917.4 -1627.26 2564.09 
-1914.41 -1621.29 2564.71 
-1914.93 -1622.04 2564.42 
-1912.31 -1618.24 2565.31 
-1912.81 -1618.94 2565.01 
-1913.94 -1620.29 2564.7 
-1913 -1618.95 2564.81 
-1911.35 -1616 2565.82 
-1924.53 -1632.88 2554.94 
-1919.88 -1627.79 2559.35 
-1917.57 -1626.06 2562.71 
-1917.47 -1625.49 2562.41 
-1910.01 -1615.37 2564.34 
-1910.37 -1615.63 2564.5 
-1910.74 -1615.93 2564.52 
-1910.87 -1615.8 2564.99 
-1911.05 -1615.69 2565.46 
-1920.47 -1632.73 2535.37 
-1922.37 -1628.68 2533.86 
-1920.77 -1632.11 2534.66 
-1922.71 -1629.11 2533.16 
-1921.78 -1630.61 2533.27 
-1919.8 -1625.58 2552.83 
-1919.2 -1625.07 2552.33 
-1920.35 -1626.52 2549.11 
-1919.01 -1627.24 2544.31 
-1925.82 -1632.2 2550.89 
-1927.75 -1635.97 2551.22 
-1924.66 -1630.69 2550.91 
-1921.2 -1627 2553.51 
-1919.3 -1625.12 2554.56 
-1918.66 -1627.7 2542.76 
-1918.69 -1627.53 2540.69 
-1919.23 -1627.79 2539.65 
-1920.1 -1627.7 2538.06 
-1920.48 -1627.77 2537.46 
-1920.75 -1627.84 2537.04 
-1921.32 -1632.41 2538.13 
-1921.41 -1633.26 2537.24 
-1919.97 -1631.13 2537.91 
-1920.77 -1628.77 2536.35 
-1920.18 -1631.21 2536.97 
-1921.39 -1627.55 2536.34 
-1922.04 -1627.25 2535.58 
-1928.82 -1638.48 2551 
-1926.72 -1634.75 2552.5 
-1918.55 -1624.79 2539.45 
-1919.97 -1624.34 2538.42 
-1915.94 -1625.37 2542.87 
-1918.92 -1625.29 2539.52 
-1917.77 -1625.76 2540.41 
-1914.64 -1623.05 2549.33 
-1915.51 -1622.78 2539.86 
-1916.34 -1623.07 2539.47 
-1916.91 -1623.2 2539.27 
-1918.04 -1623.6 2538.82 
-1918.7 -1623.77 2538.58 
-1919.77 -1624.11 2538.14 
-1921.04 -1624.74 2537.34 
-1920.46 -1624.83 2537.36 
-1920.96 -1625.07 2537.06 
-1921.17 -1624.49 2537.53 
-1921.36 -1624.42 2537.6 
-1914.64 -1625.5 2541.94 
-1914.63 -1625.11 2542 
-1914.66 -1624.72 2542.09 
-1914.67 -1624.35 2542.2 
-1914.59 -1624.16 2542.45 
-1914.52 -1624.13 2542.68 
-1914.39 -1624 2542.96 
-1914.33 -1624.01 2543.17 
-1914.18 -1623.86 2543.48 
-1914.03 -1623.69 2543.75 
-1914.06 -1622.43 2542.37 
-1914.4 -1622.19 2541.23 
-1919.81 -1628.05 2534.88 
-1919.88 -1627.12 2535.71 
-1918.41 -1625.19 2537.45 
-1917.45 -1624.11 2538.57 
-1920.02 -1628.16 2534.81 
-1917 -1629.08 2537.07 
-1915.43 -1628.43 2539.32 
-1915.09 -1627.21 2540.62 
-1914.78 -1625.69 2541.88 
-1917.93 -1625.27 2537.7 
-1917.1 -1624.2 2538.64 
-1916.84 -1623.8 2539.04 
-1917.08 -1624.28 2538.65 
-1916.97 -1623.68 2539.17 
-1916.76 -1623.57 2539.23 
-1918.72 -1626.84 2536.56 
-1918.44 -1627.65 2536.1 
-1917.12 -1628.33 2537.54 
-1914.56 -1622.35 2540.93 
-1914.74 -1622.49 2540.58 
-1915.02 -1622.63 2540.28 
-1915.39 -1622.77 2540 
-1920.19 -1628.35 2534.62 
-1920.34 -1628.54 2534.27 
-1920.37 -1628.98 2533.81 
-1920.51 -1629.24 2533.44 
-1918.37 -1631.11 2533.1 
-1920.26 -1630.13 2533.23 
-1918.65 -1631.41 2533.04 
-1920.38 -1630.31 2533.09 
-1918.43 -1631.3 2533.05 
-1919.98 -1630.75 2533.09 
-1918.94 -1631.53 2533.08 
-1918.94 -1631.6 2532.98 
-1919.91 -1630.86 2533.08 
-1919.92 -1631.28 2532.78 
-1921.2 -1630.73 2532.62 
-1919.99 -1631.41 2532.71 
-1921.56 -1629.95 2532.52 
-1921.37 -1630.16 2532.63 
-1910.2 -1615.88 2563.49 
-1910.55 -1616.17 2562.7 
-1910.89 -1616.47 2561.93 
-1911.28 -1616.99 2561.29 
-1912.28 -1618.76 2558.62 
-1915.58 -1623.07 2550.62 
-1920.28 -1631.68 2532.53 
-1921.85 -1630.26 2532.32 
-1920.11 -1631.55 2532.62 
-1920.63 -1631.73 2532.46 
-1921.73 -1629.93 2532.41 
-1921.95 -1630.54 2532.23 
-1920.97 -1631.77 2532.43 
-1916.75 -1626.15 2564.42 
-1916.97 -1625.28 2563.3 
-1915.48 -1622.8 2564 
-1916.2 -1623.77 2563.29 
-1916.85 -1624.71 2563.04 
-1914.43 -1621.05 2564.48 
-1915.08 -1621.95 2563.86 
-1911.63 -1616.71 2565.29 
-1911.87 -1617.21 2564.87 
-1913.35 -1619.2 2564.61 
-1913.98 -1620.01 2564.42 
-1912.28 -1617.66 2564.61 
-1923.4 -1630.89 2554.97 
-1919.43 -1626.75 2559.22 
-1917.27 -1624.87 2562.26 
-1910.7 -1616.09 2563.64 
-1911.11 -1616.39 2564.09 
-1911.25 -1616.27 2564.9 
-1920.42 -1632.51 2535.79 
-1923.1 -1627.11 2533.97 
-1920.67 -1631.13 2535.99 
-1923.32 -1627.65 2533.41 
-1922.25 -1630.64 2532.72 
-1921.05 -1632.17 2533.1 
-1923.01 -1629.23 2532.78 
-1923.33 -1628.2 2533.08 
-1915.66 -1621.39 2558.39 
-1916.21 -1621.92 2558.44 
-1917.33 -1623.26 2553.86 
-1915.05 -1620.8 2558.54 
-1917.92 -1624.28 2551.14 
-1918.1 -1626.52 2544.78 
-1918.48 -1627.03 2540.62 
-1919.15 -1627.22 2540.16 
-1925.82 -1632.87 2552.05 
-1923.34 -1630.15 2553.96 
-1922.67 -1628.81 2553.42 
-1917.57 -1623.71 2558.71 
-1916.62 -1622.45 2558.89 
-1919.82 -1627.34 2538.9 
-1920.89 -1626.87 2537.4 
-1921.33 -1626.8 2536.83 
-1921.73 -1626.82 2536.27 
-1921.75 -1628.07 2535.4 
-1922.35 -1626.59 2535.55 
-1923.08 -1626.24 2534.75 
-1923.03 -1626.65 2534.6 
-1920.17 -1624.82 2538.56 
-1916.35 -1625.79 2542.75 
-1920.5 -1625.29 2538.62 
-1919.4 -1625.79 2539.51 
-1918.24 -1626.24 2540.4 
-1915.85 -1622.95 2539.67 
-1916.85 -1623.32 2539.26 
-1917.48 -1623.47 2539.03 
-1918.62 -1623.91 2538.55 
-1919.15 -1624.08 2538.29 
-1919.62 -1624.26 2538.03 
-1921.32 -1626.24 2535.9 
-1921.45 -1625.68 2536.37 
-1920.63 -1625.33 2536.9 
-1921.05 -1626.07 2536.14 
-1921.67 -1625.24 2536.74 
-1921.53 -1624.78 2537.65 
-1921.87 -1625.15 2536.7 
-1914.73 -1625.28 2541.82 
-1914.71 -1624.89 2541.85 
-1914.74 -1624.43 2541.96 
-1914.66 -1624.15 2542.22 
-1914.53 -1624.01 2542.52 
-1914.44 -1623.98 2542.77 
-1914.29 -1623.83 2543.09 
-1914.26 -1623.87 2543.25 
-1914.15 -1623.73 2543.45 
-1913.97 -1623.56 2543.78 
-1913.95 -1622.38 2542.57 
-1914.27 -1622.14 2541.5 
-1914.43 -1622.28 2541.21 
-1920.1 -1627.33 2535.5 
-1919.12 -1625.44 2537.11 
-1918.4 -1624.97 2537.62 
-1917.71 -1623.89 2538.76 
-1920.3 -1627.75 2535.1 
-1915.25 -1627.23 2540.49 
-1914.91 -1625.84 2541.82 
-1914.87 -1625.47 2541.77 
-1917.83 -1625.33 2537.79 
-1917.04 -1624.36 2538.69 
-1916.65 -1623.79 2539.26 
-1916.46 -1623.53 2539.41 
-1916.31 -1623.4 2539.49 
-1916.22 -1623.32 2539.51 
-1916.76 -1623.41 2539.27 
-1916.21 -1623.26 2539.5 
-1918.34 -1626.96 2536.91 
-1917.68 -1625.4 2537.93 
-1917.25 -1628.09 2537.86 
-1916.06 -1628.26 2539.12 
-1914.58 -1622.43 2540.93 
-1914.71 -1622.51 2540.68 
-1914.95 -1622.66 2540.38 
-1915.34 -1622.81 2540.08 
-1915.66 -1622.93 2539.82 
-1920.46 -1627.92 2534.77 
-1920.6 -1628.52 2534.01 
-1920.64 -1627.97 2534.5 
-1920.95 -1628.56 2533.62 
-1920.75 -1629.39 2533.17 
-1921.01 -1630.47 2532.84 
-1921.16 -1630.22 2532.77 
-1921.02 -1629.56 2532.95 
-1921.21 -1630.64 2532.68 
-1921.48 -1629.3 2532.65 
-1921.26 -1629.58 2532.78 
-1911.04 -1616.46 2562.99 
-1911.35 -1616.84 2562.25 
-1912.76 -1618.87 2558.98 
-1911.83 -1617.4 2561.67 
-1916.46 -1623.1 2552.04 
-1916.63 -1625.97 2543.28 
-1922.07 -1630.87 2532.14 
-1921.13 -1631.94 2532.35 
-1921.9 -1629.36 2532.36 
-1921.69 -1629.15 2532.52 
-1922.02 -1629.75 2532.26 
-1916.12 -1623.15 2562.2 
-1916.66 -1624.07 2562.54 
-1914.57 -1620.99 2564.04 
-1915.67 -1622.34 2561.83 
-1911.52 -1616.76 2564.27 
-1913.03 -1618.54 2564.4 
-1914 -1619.72 2563.46 
-1914.88 -1621.09 2562.43 
-1912.12 -1617.41 2564.21 
-1918.53 -1625.42 2559.62 
-1916.85 -1623.91 2561.65 
-1911.5 -1616.86 2563.29 
-1921.46 -1632.41 2532.49 
-1923.76 -1627.08 2533.36 
-1923.66 -1626.88 2533.39 
-1923.72 -1627.31 2533.22 
-1923.64 -1626.24 2533.93 
-1923.21 -1628.89 2532.81 
-1922.91 -1629.92 2532.51 
-1922.67 -1630.44 2532.41 
-1922.25 -1631.55 2532.16 
-1923.74 -1627.67 2533.11 
-1914.64 -1620.38 2561.01 
-1913.31 -1618.9 2562.65 
-1915.37 -1621.36 2560.49 
-1914.27 -1620.23 2557.7 
-1913.55 -1619.29 2559.89 
-1912.7 -1618.23 2562.51 
-1917.08 -1626 2544.33 
-1918.46 -1626.64 2540.47 
-1919.66 -1626.7 2539.61 
-1918.11 -1624.6 2559.2 
-1916.52 -1623.08 2560.96 
-1916.05 -1622.25 2560.48 
-1920.32 -1626.9 2538.3 
-1921.28 -1626.21 2537.23 
-1922.1 -1625.8 2536.34 
-1922.41 -1625.94 2535.84 
-1922.91 -1625.86 2535.18 
-1923.25 -1625.96 2534.59 
-1923.54 -1626.36 2533.95 
-1920.6 -1625.78 2538.61 
-1921.4 -1625.34 2537.59 
-1919.62 -1626.22 2539.57 
-1916.23 -1623.16 2539.49 
-1918.08 -1623.77 2538.77 
-1917.43 -1623.59 2539.02 
-1918.61 -1624.35 2538.12 
-1919.04 -1624.54 2537.84 
-1919.79 -1624.82 2537.47 
-1921.45 -1626.89 2535.31 
-1921.76 -1626.63 2535.38 
-1921.95 -1626.98 2535.01 
-1921.66 -1626.13 2535.85 
-1920.75 -1626.19 2536.17 
-1921.05 -1626.83 2535.54 
-1921.87 -1626.12 2535.68 
-1922.07 -1624.95 2536.74 
-1922.01 -1625.68 2536 
-1914.84 -1625.07 2541.69 
-1914.78 -1624.7 2541.74 
-1914.82 -1624.35 2541.74 
-1914.74 -1624.16 2541.99 
-1914.6 -1624.02 2542.27 
-1914.47 -1623.88 2542.55 
-1914.38 -1623.85 2542.82 
-1914.23 -1623.69 2543.13 
-1914.15 -1623.65 2543.37 
-1914.02 -1623.51 2543.62 
-1913.75 -1622.33 2543 
-1913.86 -1622.25 2542.67 
-1914.15 -1622.09 2541.75 
-1914.3 -1622.23 2541.48 
-1914.44 -1622.35 2541.21 
-1920.29 -1626.92 2535.8 
-1919.11 -1625.23 2537.28 
-1918.17 -1624.14 2538.41 
-1920.55 -1627.44 2535.25 
-1915.34 -1627.1 2540.54 
-1915.02 -1625.75 2541.73 
-1914.98 -1625.34 2541.66 
-1916.52 -1624.12 2539.39 
-1916.54 -1623.91 2539.39 
-1916.19 -1623.56 2539.7 
-1916.23 -1623.74 2539.77 
-1916.09 -1623.37 2539.69 
-1915.93 -1623.24 2539.76 
-1915.81 -1623.1 2539.79 
-1915.78 -1623.13 2539.84 
-1915.89 -1623.08 2539.69 
-1917.88 -1626.69 2537.59 
-1917.39 -1625.36 2538.19 
-1916.44 -1624.28 2539.48 
-1917.08 -1627.71 2538.29 
-1914.57 -1622.48 2540.98 
-1914.75 -1622.6 2540.63 
-1915.1 -1622.77 2540.3 
-1915.48 -1622.92 2540.01 
-1920.83 -1627.56 2534.99 
-1920.99 -1627.97 2534.18 
-1921.21 -1627.6 2534.7 
-1921.25 -1628.1 2533.74 
-1921.39 -1628.53 2533.2 
-1921.55 -1628.55 2532.95 
-1921.23 -1629 2532.91 
-1911.87 -1617.33 2562.65 
-1922.2 -1630.94 2532.06 
-1921.25 -1632.16 2532.25 
-1922.14 -1630.08 2532.16 
-1921.99 -1628.73 2532.39 
-1921.79 -1628.59 2532.66 
-1922.11 -1629.06 2532.27 
-1913.12 -1618.64 2563.83 
-1912.17 -1617.54 2563.6 
-1922.31 -1631.43 2531.95 
-1923.71 -1628.13 2532.87 
-1923.56 -1626.75 2533.46 
-1923.48 -1627.97 2532.89 
-1923.57 -1628.5 2532.68 
-1923.02 -1629.86 2532.46 
-1923.31 -1628.86 2532.76 
-1922.66 -1630.9 2532.19 
-1922.37 -1631.71 2531.98 
-1923.79 -1627.9 2532.98 
-1923.86 -1628.73 2532.62 
-1923.74 -1628.78 2532.59 
-1920.47 -1626.35 2538.48 
-1921.36 -1625.79 2537.37 
-1922.32 -1625.29 2536.3 
-1922.81 -1625.59 2535.38 
-1922.64 -1625.68 2535.41 
-1923.01 -1626.04 2534.7 
-1923.37 -1626.41 2534.1 
-1923.49 -1626.72 2533.55 
-1922.21 -1625.09 2536.52 
-1919.85 -1625.54 2536.89 
-1920.03 -1625.48 2536.92 
-1920.4 -1625.63 2536.72 
-1921.67 -1627.21 2534.96 
-1922.22 -1627.34 2534.59 
-1922.44 -1627.06 2534.72 
-1922.06 -1626.63 2535.2 
-1922.7 -1627.46 2534.23 
-1920.91 -1627.13 2535.37 
-1921.5 -1627.37 2534.89 
-1922.17 -1626.36 2535.2 
-1922.32 -1626.66 2534.96 
-1922.21 -1625.73 2535.77 
-1914.98 -1624.97 2541.58 
-1914.87 -1624.68 2541.58 
-1914.91 -1624.13 2541.38 
-1914.78 -1623.95 2541.57 
-1914.63 -1623.7 2541.74 
-1914.46 -1623.43 2541.91 
-1914.27 -1623.13 2542.06 
-1914.33 -1623.73 2542.84 
-1914.15 -1623.46 2543.05 
-1914.05 -1623.43 2543.4 
-1913.57 -1623.01 2544.14 
-1913.4 -1621.87 2542.88 
-1914.04 -1622.08 2541.94 
-1913.79 -1621.95 2542.28 
-1914.2 -1622.21 2541.66 
-1914.39 -1622.37 2541.32 
-1920.56 -1626.9 2535.7 
-1915.39 -1627.05 2540.52 
-1915.14 -1625.97 2541.62 
-1915.12 -1625.58 2541.62 
-1915.1 -1625.2 2541.54 
-1916.02 -1623.83 2540.02 
-1916.1 -1624.04 2539.97 
-1915.79 -1623.39 2540.01 
-1915.86 -1623.59 2540.05 
-1915.71 -1623.19 2539.97 
-1915.51 -1623.05 2540.07 
-1915.38 -1622.94 2540.13 
-1916.26 -1626.93 2539.53 
-1917.05 -1625.34 2538.56 
-1916.22 -1624.34 2539.76 
-1914.55 -1622.53 2541.03 
-1914.7 -1622.63 2540.73 
-1914.96 -1622.76 2540.45 
-1921.43 -1627.75 2534.29 
-1921.45 -1628.24 2533.36 
-1921.63 -1627.92 2533.87 
-1922.05 -1628.2 2533.14 
-1921.88 -1628.04 2533.52 
-1922.27 -1630.39 2532.02 
-1922.2 -1629.83 2532.12 
-1922.23 -1628.31 2532.74 
-1922.22 -1628.8 2532.32 
-1922.18 -1628.42 2532.5 
-1922.6 -1632.27 2531.62 
-1922.49 -1632 2531.74 
-1921.99 -1633.01 2531.76 
-1921.82 -1632.56 2531.95 
-1922.4 -1631.52 2531.85 
-1922.36 -1630.56 2531.93 
-1923.62 -1629 2532.48 
-1923.36 -1627.68 2532.99 
-1923.3 -1629.03 2532.41 
-1923.4 -1629.48 2532.24 
-1923.5 -1629.95 2532.05 
-1923.19 -1629.54 2532.5 
-1922.93 -1630.54 2532.18 
-1922.76 -1630.88 2532.13 
-1923.78 -1628.46 2532.72 
-1922.43 -1631.92 2531.84 
-1923.93 -1629.31 2532.34 
-1923.75 -1629.74 2532.19 
-1923.63 -1629.67 2532.2 
-1922.41 -1625.72 2535.59 
-1922.87 -1626.3 2534.6 
-1922.58 -1626.29 2534.87 
-1923.34 -1626.58 2534.07 
-1923.42 -1626.82 2533.6 
-1923.24 -1627.41 2533.09 
-1921.92 -1627.58 2534.41 
-1922.2 -1627.7 2534.04 
-1922.99 -1627.37 2534.16 
-1922.55 -1626.96 2534.69 
-1922.43 -1627.86 2533.67 
-1922.84 -1627.68 2533.7 
-1922.47 -1626.45 2534.89 
-1922.68 -1626.77 2534.62 
-1922.93 -1627.12 2534.32 
-1915.09 -1624.36 2541.24 
-1915 -1624.25 2541.3 
-1915.04 -1623.42 2540.78 
-1914.89 -1623.42 2540.94 
-1914.76 -1623.3 2541.07 
-1914.56 -1622.98 2541.23 
-1914.37 -1622.67 2541.39 
-1914.1 -1622.82 2542.2 
-1914.19 -1622.42 2541.6 
-1913.91 -1622.51 2542.33 
-1913.76 -1622.35 2542.56 
-1913.48 -1622.22 2543 
-1913.07 -1621.95 2543.31 
-1913.95 -1622.12 2542.04 
-1914.2 -1622.3 2541.64 
-1914.38 -1622.46 2541.32 
-1915.25 -1625.83 2541.58 
-1915.23 -1625.44 2541.51 
-1915.19 -1624.48 2541.19 
-1915.62 -1623.67 2540.34 
-1915.75 -1623.89 2540.33 
-1915.89 -1624.14 2540.23 
-1915.43 -1623.22 2540.26 
-1915.46 -1623.44 2540.36 
-1915.33 -1623.03 2540.25 
-1915.11 -1622.87 2540.37 
-1916.18 -1626.76 2539.72 
-1916.8 -1625.43 2538.87 
-1916.09 -1624.47 2539.92 
-1914.73 -1622.7 2540.71 
-1914.55 -1622.62 2541.03 
-1922.52 -1628.02 2533.22 
-1922.31 -1629.32 2532.14 
-1922.43 -1628.12 2532.81 
-1922.48 -1628.06 2532.79 
-1922.74 -1631.7 2531.49 
-1922.62 -1631.04 2531.64 
-1922.68 -1632.23 2531.54 
-1922.55 -1631.47 2531.7 
-1922.46 -1630.98 2531.81 
-1922.42 -1629.7 2532 
-1922.99 -1632.48 2531.2 
-1923.06 -1631.59 2531.3 
-1922.95 -1631.28 2531.41 
-1922.87 -1632.12 2531.33 
-1922.82 -1631.01 2531.52 
-1922.72 -1630.43 2531.72 
-1923.17 -1628.78 2532.49 
-1923.12 -1630.16 2531.89 
-1923.23 -1630.45 2531.79 
-1923.32 -1631.04 2531.56 
-1923.44 -1631.29 2531.47 
-1923.58 -1630.65 2531.77 
-1923.78 -1629 2532.47 
-1923.1 -1630.18 2532.25 
-1922.78 -1631.44 2531.84 
-1922.63 -1631.6 2531.86 
-1922.29 -1632.67 2531.56 
-1922.05 -1632.96 2531.57 
-1923.82 -1630.37 2531.93 
-1924.01 -1629.82 2532.08 
-1923.67 -1630.72 2531.76 
-1923.01 -1626.59 2534.36 
-1923.36 -1626.81 2533.93 
-1923.01 -1626.75 2534.33 
-1923.29 -1627 2533.53 
-1923.11 -1627.42 2533.07 
-1923.04 -1628.59 2532.54 
-1922.99 -1627.49 2533.76 
-1922.68 -1627.84 2533.29 
-1923.08 -1626.95 2534.22 
-1923.12 -1627.17 2534.08 
-1915.23 -1623.56 2540.67 
-1915.36 -1623.76 2540.65 
-1915.14 -1623.24 2540.56 
-1914.98 -1623.03 2540.6 
-1914.72 -1622.85 2540.81 
-1914.01 -1622.25 2541.89 
-1915.35 -1625.7 2541.49 
-1915.31 -1624.61 2541.13 
-1915.5 -1623.96 2540.63 
-1915.66 -1624.2 2540.52 
-1914.97 -1622.86 2540.51 
-1917.02 -1626.89 2538.45 
-1915.85 -1626.75 2540.06 
-1915.47 -1626.1 2541.27 
-1916.36 -1625.84 2539.46 
-1915.86 -1624.5 2540.23 
-1922.5 -1628.25 2532.6 
-1922.8 -1627.65 2533.19 
-1922.77 -1627.72 2533.29 
-1922.52 -1630.29 2531.81 
-1922.68 -1629.45 2532.11 
-1922.59 -1628.85 2532.34 
-1923.11 -1632.85 2531.06 
-1923.16 -1631.77 2531.23 
-1923.21 -1632.66 2530.98 
-1923 -1629.94 2531.96 
-1922.88 -1629.67 2532.06 
-1922.87 -1628.68 2532.47 
-1923.31 -1632.47 2530.98 
-1923.43 -1632.45 2530.98 
-1923.55 -1631.59 2531.37 
-1923.08 -1630.52 2532.09 
-1923.8 -1629.43 2532.26 
-1924.1 -1630.13 2531.88 
-1922.91 -1631.35 2531.79 
-1922.56 -1632.48 2531.46 
-1922.44 -1632.49 2531.54 
-1923.88 -1631.08 2531.61 
-1923.69 -1631.46 2531.45 
-1923.3 -1627.01 2533.84 
-1923.13 -1627.21 2533.42 
-1923.16 -1627.22 2533.72 
-1922.99 -1627.5 2533.04 
-1923.04 -1627.39 2533.67 
-1915.44 -1624.79 2541.03 
-1915.67 -1625.19 2540.73 
-1922.71 -1627.79 2532.89 
-1922.99 -1627.41 2533.33 
-1922.8 -1627.9 2532.81 
-1923.56 -1632.4 2531.03 
-1923.78 -1630.04 2531.99 
-1924.11 -1630.81 2531.59 
-1922.66 -1632.54 2531.36 
-1922.94 -1631.51 2531.68 
-1924 -1631.83 2531.22 
-1923.81 -1632.17 2531.16 
-1923.68 -1632.3 2531.09 
-1923.81 -1630.45 2531.78 
-1924.23 -1630.98 2531.44 
-1922.84 -1632.22 2531.41 
-1923.67 -1633.24 2530.69 
-1923.82 -1633.06 2530.79 
-1923.99 -1632.93 2530.76 
-1924.14 -1631.93 2531.08 
-1923.81 -1630.96 2531.55 
-1924.3 -1631.61 2531.12 
-1923.8 -1631.47 2531.31 
-1922.74 -1632.83 2531.17 
-1924.15 -1632.95 2530.65 
-1924.36 -1632.12 2530.86 
-1923.84 -1631.85 2531.11 
-1922.75 -1633.12 2531.01 
-1924.49 -1632.35 2530.68 
-1924.41 -1633.33 2530.31 
-1924.58 -1632.94 2530.37 
-1923.85 -1632.37 2530.87 
-1923.84 -1632.91 2530.62 
-1924.63 -1633.59 2530.06 
