-1671.83 -2100.73 5811.64 
-1670.3 -2104.95 5814.51 
-1672.13 -2101.73 5811.14 
-1670.45 -2106.24 5814.51 
-1672.38 -2102.92 5811.46 
-1670.21 -2107.79 5815.09 
-1672.44 -2104.34 5812.13 
-1689.34 -2122.18 5811.3 
-1691.95 -2124.43 5811.47 
-1691.87 -2121.88 5808.21 
-1668.46 -2097.44 5835.84 
-1667.83 -2106.14 5835.14 
-1668.17 -2101.82 5831.11 
-1668.15 -2096.88 5842.84 
-1668.47 -2103.11 5844.89 
-1668.02 -2102.65 5840.06 
-1669.75 -2101.4 5861.25 
-1670.68 -2107.43 5862.64 
-1670.11 -2106.61 5858.06 
-1674.27 -2102.54 5809.58 
-1671.53 -2106.84 5813.5 
-1672.6 -2106.65 5812.32 
-1670.1 -2109.64 5815.31 
-1671.79 -2100.04 5812.48 
-1669.82 -2103.38 5815.46 
-1670.44 -2103.16 5814.39 
-1669.41 -2105.55 5815.69 
-1669.4 -2106.98 5815.63 
-1669.47 -2108.37 5815.78 
-1669.72 -2110.28 5816.08 
-1670.84 -2110.39 5814.72 
-1671.57 -2110.94 5814.35 
-1672.85 -2107.76 5812.32 
-1673.39 -2108.54 5812.17 
-1673.74 -2109.17 5812.2 
-1675.56 -2106.05 5809.57 
-1690.7 -2125.03 5813.48 
-1688.12 -2122.93 5813.41 
-1686.63 -2119.02 5810.52 
-1685.09 -2119.27 5812.03 
-1684.44 -2117.17 5810.77 
-1693.02 -2126.15 5812.99 
-1694.85 -2125.92 5810.45 
-1668.94 -2097.45 5822.28 
-1668.7 -2102.79 5820.65 
-1668.51 -2100.8 5818.71 
-1668.29 -2103.63 5823.02 
-1668.14 -2102.21 5827.24 
-1668.65 -2097.85 5825.1 
-1667.57 -2107.55 5829.6 
-1667.76 -2106.04 5824.52 
-1671.15 -2098.72 5813.53 
-1669.93 -2100.26 5815.7 
-1670.06 -2101.41 5815.3 
-1667.42 -2110.24 5833.91 
-1667.38 -2109.57 5837.64 
-1667.81 -2107.79 5840.62 
-1668.01 -2108.73 5842.51 
-1668.62 -2104.55 5849.34 
-1668.22 -2110.08 5843.64 
-1669.62 -2109.32 5851.07 
-1670.78 -2112.33 5854.61 
-1671.61 -2114.21 5856.77 
-1708.36 -2135.82 5813.26 
-1713.18 -2139.01 5812.09 
-1712.41 -2137.46 5809.9 
-1729.55 -2147.28 5809 
-1725.37 -2147.2 5816.6 
-1730 -2149.7 5813.32 
-1670.39 -2111.31 5815.5 
-1668.83 -2105.77 5816.72 
-1669.04 -2103.64 5816.51 
-1668.85 -2107.07 5816.64 
-1669.26 -2109.69 5816.69 
-1668.95 -2108.54 5816.85 
-1669.79 -2111.24 5816.78 
-1670.41 -2111.87 5815.84 
-1671 -2111.99 5815.22 
-1672.15 -2111.58 5814.18 
-1671.55 -2112.56 5815.1 
-1674.14 -2109.72 5812.13 
-1675.53 -2106.87 5810.31 
-1672.67 -2111.73 5813.69 
-1683.94 -2117.81 5811.55 
-1683.81 -2116.2 5810.33 
-1692.19 -2127.08 5815.08 
-1691.05 -2126.28 5814.83 
-1689.14 -2125.3 5815.05 
-1686.01 -2122.07 5814.25 
-1695.18 -2127 5812.28 
-1694.49 -2127.75 5814.21 
-1668.43 -2101.71 5817.6 
-1669.03 -2099.11 5817.74 
-1669.48 -2099.02 5816.92 
-1668.58 -2104.54 5818.93 
-1667.9 -2106.38 5821.31 
-1667.61 -2108.86 5827.35 
-1667.59 -2111.72 5831.19 
-1667.96 -2107.4 5822.65 
-1669.14 -2101.17 5816.7 
-1666.93 -2111.41 5835.71 
-1667.06 -2111.36 5837.8 
-1667.62 -2112.61 5839.79 
-1668.72 -2111.42 5844.15 
-1669.26 -2113.3 5844.89 
-1672.38 -2116.17 5857.38 
-1670.28 -2115.66 5848.07 
-1722.59 -2143.2 5811.37 
-1722.87 -2146.69 5818.89 
-1711.15 -2138.12 5813.3 
-1707.05 -2136.43 5817.31 
-1702.83 -2134.92 5822.36 
-1704.13 -2135.84 5822.21 
-1712.25 -2141.55 5816.98 
-1714.8 -2140.02 5812.65 
-1711.63 -2140.67 5816.4 
-1699.32 -2129.4 5812.32 
-1701.44 -2133.07 5819.24 
-1703.01 -2132.15 5813.59 
-1697.21 -2128.64 5813.43 
-1738.86 -2158.54 5818.9 
-1736.8 -2155.95 5816.73 
-1727.23 -2150.15 5819.47 
-1731.25 -2154.71 5820.66 
-1723.48 -2149.69 5825.09 
-1670.98 -2112.64 5815.57 
-1668.58 -2107.57 5817.9 
-1668.64 -2106.04 5817.68 
-1668.68 -2104.15 5817.37 
-1668.62 -2109.01 5818.12 
-1669.1 -2110.49 5817.87 
-1669.74 -2112.09 5818.08 
-1670.55 -2112.76 5816.45 
-1670.97 -2113.38 5816.08 
-1671.39 -2113.3 5815.63 
-1672.71 -2113.04 5814.37 
-1672.56 -2113.87 5814.97 
-1673.3 -2112.52 5813.5 
-1674.91 -2110.17 5811.76 
-1676.17 -2111.16 5811.54 
-1677.32 -2108.61 5810.05 
-1674.42 -2113.05 5813.08 
-1683.02 -2116.89 5811.25 
-1681.9 -2115.65 5811.23 
-1680.33 -2118.91 5814.09 
-1679.33 -2118.06 5813.75 
-1689.91 -2126.74 5816.21 
-1690.72 -2127.5 5816.68 
-1693.53 -2128.34 5815.89 
-1692.05 -2128.22 5816.76 
-1688.67 -2125.89 5815.89 
-1687.68 -2125.12 5815.86 
-1686.78 -2124.28 5815.79 
-1681.23 -2121.3 5815.71 
-1696.11 -2129.29 5815.62 
-1668.46 -2106.28 5818.73 
-1668.05 -2107.2 5820.63 
-1667.88 -2108.97 5825.12 
-1667.82 -2112.41 5829.67 
-1667.03 -2112.43 5834.96 
-1668.12 -2108.85 5822.31 
-1667.18 -2113.35 5837.42 
-1668.01 -2114.35 5840.12 
-1668.22 -2115.08 5840.38 
-1672.43 -2111.18 5864.53 
-1673.27 -2118.48 5857.48 
-1671.56 -2118.38 5851.54 
-1673.57 -2113.38 5865.15 
-1669.15 -2116.15 5843.3 
-1721.56 -2145.24 5817.55 
-1717.23 -2147.12 5823.4 
-1719.72 -2148.96 5826.21 
-1710.74 -2139.67 5816.14 
-1709.09 -2139.49 5818.62 
-1707.81 -2139.77 5821.64 
-1707.49 -2139.91 5823.31 
-1704.91 -2138.94 5829.6 
-1702.34 -2137.11 5829.51 
-1707.46 -2140.86 5827.33 
-1711.3 -2143.07 5820.66 
-1713.07 -2144.04 5819.87 
-1713.21 -2141.89 5816.56 
-1712.47 -2144.37 5821.45 
-1710.18 -2142.77 5821.99 
-1699.62 -2130.75 5815.39 
-1699.34 -2132.69 5820.91 
-1700.48 -2135.86 5828.86 
-1697.56 -2130.59 5817.38 
-1739.29 -2160.61 5822.72 
-1738.21 -2160.21 5822.72 
-1736.96 -2159.64 5822.91 
-1733.29 -2154.96 5818.4 
-1734.64 -2158.57 5823.4 
-1734.21 -2160.26 5827.12 
-1732.19 -2159.29 5827.97 
-1728.4 -2153.45 5823.81 
-1724.1 -2151.6 5828.37 
-1730.11 -2159.35 5831.52 
-1719.53 -2150.76 5833.94 
-1718.73 -2150.12 5832.1 
-1671.34 -2114.05 5816.14 
-1668.32 -2107.96 5819.09 
-1668.4 -2109.57 5819.26 
-1668.87 -2110.77 5818.9 
-1669.4 -2112.41 5819.42 
-1670.35 -2113.62 5818.05 
-1670.76 -2113.61 5816.9 
-1671.16 -2114.24 5816.62 
-1671.5 -2114.94 5816.69 
-1672.78 -2114.76 5815.32 
-1674.31 -2113.97 5813.58 
-1674.03 -2114.47 5814.07 
-1674.14 -2115.32 5814.52 
-1678.97 -2110.82 5810.2 
-1677.48 -2112.47 5811.56 
-1678.69 -2114.33 5811.97 
-1675.42 -2113.43 5812.85 
-1675.19 -2114.58 5813.51 
-1679.04 -2116.13 5812.72 
-1679.24 -2117.31 5813.31 
-1676.34 -2115.75 5813.62 
-1677.98 -2120.56 5816.39 
-1676.08 -2118.21 5815.2 
-1675.52 -2116.78 5814.63 
-1689.03 -2127 5816.76 
-1689.59 -2127.83 5817.28 
-1690.67 -2128.49 5817.45 
-1693.91 -2129.33 5817.26 
-1691.83 -2129.16 5817.7 
-1687.97 -2126.24 5816.51 
-1684.17 -2124.95 5817.25 
-1682.24 -2126.16 5818.89 
-1682.89 -2126.49 5818.76 
-1695.36 -2130.29 5818.47 
-1668.17 -2108.27 5820.25 
-1668.08 -2110.4 5825.38 
-1668.1 -2113.84 5829.19 
-1667.47 -2113.52 5834.07 
-1667.49 -2114.62 5837.48 
-1668.46 -2110.75 5822.12 
-1668.44 -2110.03 5820.16 
-1668.19 -2116.1 5838.38 
-1667.81 -2115.25 5836.52 
-1674.25 -2120.57 5858.51 
-1673.04 -2121.36 5853.49 
-1671.12 -2119.17 5847.64 
-1674.93 -2116.98 5864.28 
-1669.01 -2117.37 5840.51 
-1676.27 -2115.23 5874.78 
-1678.15 -2119.37 5872.2 
-1716.26 -2146.06 5821.54 
-1717.63 -2144.21 5817.83 
-1713.73 -2146.02 5824.03 
-1716 -2148.18 5828.58 
-1714.77 -2142.43 5816.4 
-1710.79 -2143.72 5823.86 
-1710.03 -2144.44 5832 
-1704.12 -2139.96 5834.24 
-1708.03 -2144.33 5837.29 
-1707.93 -2143.04 5834.21 
-1700.95 -2139.55 5837.19 
-1711.49 -2144.06 5822.45 
-1697.47 -2132.17 5821.28 
-1699.2 -2135.07 5828.07 
-1698.57 -2138.78 5837.85 
-1735.89 -2163.19 5831.46 
-1736.95 -2163.44 5831.84 
-1734.9 -2162.79 5831.43 
-1733.97 -2162.29 5831.3 
-1737.63 -2164.21 5834.06 
-1731.58 -2161.46 5833 
-1731.54 -2162.96 5835.94 
-1728.5 -2161.33 5837.72 
-1727 -2156.08 5831.27 
-1723.04 -2152.7 5832.59 
-1718.82 -2151.65 5837.25 
-1724.09 -2158.95 5839.92 
-1713.42 -2148.78 5838.74 
-1713.01 -2147.75 5836.13 
-1713.29 -2146.73 5829.76 
-1672.41 -2115.54 5816.24 
-1668.82 -2111.55 5819.94 
-1668.77 -2111.77 5820.37 
-1669.15 -2113.2 5820.71 
-1669.77 -2114.02 5819.87 
-1670.26 -2114.91 5819.53 
-1670.93 -2115.04 5818.03 
-1671.19 -2115.74 5818.28 
-1671.81 -2116.74 5818.32 
-1673.32 -2116.57 5816.19 
-1674.74 -2115.54 5814.23 
-1674.52 -2115.79 5814.55 
-1673.92 -2117 5815.92 
-1680.27 -2124.36 5818.51 
-1676.42 -2119.36 5815.98 
-1674.62 -2117.04 5815.43 
-1674.98 -2118.16 5815.96 
-1687.2 -2127.88 5817.99 
-1687.84 -2128.7 5818.17 
-1688.47 -2129.2 5818.53 
-1688.81 -2129.67 5819.02 
-1689.29 -2130.16 5819.54 
-1694.39 -2130.24 5818.88 
-1692.85 -2129.76 5818.32 
-1689.92 -2130.62 5820.06 
-1686.31 -2127.02 5818 
-1685.17 -2128.54 5819.14 
-1684.42 -2128.73 5819.53 
-1684.69 -2128.47 5819.29 
-1695.43 -2131.4 5820.85 
-1668.38 -2111.63 5824.48 
-1668.52 -2113.67 5825.9 
-1668.33 -2115.38 5830.11 
-1667.93 -2114.71 5833.44 
-1668.74 -2112.57 5822.12 
-1668.17 -2115.8 5834.7 
-1668.84 -2117.37 5835.55 
-1674.47 -2124.3 5854.6 
-1675.87 -2124.58 5857.14 
-1672.98 -2123.48 5850.03 
-1671.17 -2120.32 5844.56 
-1676.43 -2121.19 5862.72 
-1669.59 -2118.9 5838.33 
-1681.04 -2122.19 5879.1 
-1680.53 -2124.17 5870.19 
-1684.24 -2126.86 5878.2 
-1712.67 -2145.37 5824.54 
-1701.81 -2141.8 5840.8 
-1704.03 -2143.2 5841.06 
-1707.47 -2146.84 5842.51 
-1698.1 -2140.96 5843.39 
-1696.67 -2132.86 5823.81 
-1698.01 -2134.6 5827.83 
-1695.78 -2137.62 5837.85 
-1695.14 -2139.31 5842.8 
-1733.46 -2164.69 5836.8 
-1734.8 -2164.91 5836.09 
-1735.71 -2165.42 5836.51 
-1732.34 -2163.92 5836.62 
-1745.12 -2162.07 5827.11 
-1740.9 -2163.73 5833.35 
-1738.46 -2164.62 5834.89 
-1736.58 -2165.94 5837.4 
-1729.42 -2162.62 5838.64 
-1730.54 -2163.77 5839.26 
-1725.92 -2161.15 5841.4 
-1722.3 -2158.64 5842.43 
-1722.72 -2155.56 5837.15 
-1717.9 -2153.97 5841.27 
-1712.2 -2150.59 5842.74 
-1713.9 -2153.7 5845.97 
-1672.68 -2117.2 5817.36 
-1669.25 -2114.65 5822.27 
-1668.9 -2114 5823.09 
-1669.79 -2115.56 5821.57 
-1670.65 -2116.64 5820.55 
-1670.27 -2116.54 5821.43 
-1671.27 -2117.32 5820.19 
-1672.73 -2118.35 5818.76 
-1672.27 -2118.51 5820.13 
-1673.94 -2118.23 5817.01 
-1673.49 -2118.68 5817.95 
-1678.37 -2122.65 5818.3 
-1683.43 -2128.37 5819.95 
-1675.71 -2119.39 5816.65 
-1685.88 -2129.62 5819.41 
-1686.55 -2130.2 5819.72 
-1686.93 -2130.74 5820.37 
-1687.32 -2131.22 5821.06 
-1690.95 -2131.52 5821.8 
-1690.36 -2131.14 5820.92 
-1687.69 -2131.55 5821.77 
-1685.4 -2129.99 5819.98 
-1685.52 -2129.65 5819.67 
-1691.92 -2132.08 5823.12 
-1668.77 -2115.02 5826.08 
-1668.74 -2116.33 5829.24 
-1668.67 -2116.58 5832.28 
-1669.86 -2119.44 5834.39 
-1669.29 -2117.87 5832.21 
-1674.33 -2127.15 5850.51 
-1676.19 -2127.9 5852.94 
-1677.52 -2127.92 5855.44 
-1672.73 -2124.14 5846.1 
-1671.16 -2121.54 5840.85 
-1677.87 -2124.23 5862.65 
-1682.89 -2127.87 5869.52 
-1686.62 -2126.45 5888.45 
-1688.6 -2130.35 5882.79 
-1686.91 -2130.86 5874.07 
-1700.61 -2143.73 5846.1 
-1705.41 -2147.29 5845.72 
-1697.48 -2141.64 5846.14 
-1694.09 -2139.61 5845.71 
-1691.93 -2134.04 5829.32 
-1693.27 -2132.91 5825.32 
-1692.81 -2136.34 5836.77 
-1689.91 -2136.94 5840.46 
-1689.07 -2137.6 5843.71 
-1750.19 -2161.45 5828.44 
-1755.28 -2160.6 5829.97 
-1734.61 -2165.7 5838.51 
-1732.73 -2165.11 5839.94 
-1731.64 -2164.59 5839.62 
-1736.11 -2166.31 5840.09 
-1746.83 -2162.26 5829.63 
-1742.92 -2164.12 5837.4 
-1738.9 -2165.93 5840.68 
-1737.22 -2166.18 5839.12 
-1736.68 -2166.54 5842.52 
-1727.55 -2162.45 5841.72 
-1728.69 -2163.36 5842.39 
-1723.7 -2160.88 5845.04 
-1719.65 -2158.04 5846.1 
-1712.52 -2153.46 5847.74 
-1670.08 -2116.89 5823.53 
-1669.42 -2115.97 5825.05 
-1670.66 -2117.73 5822.62 
-1671.19 -2118.12 5822.03 
-1671.98 -2118.79 5821.46 
-1673.46 -2119.68 5819.78 
-1673.32 -2120.2 5821.22 
-1674.94 -2119.65 5817.69 
-1674.18 -2120.08 5819.14 
-1678.57 -2123.69 5819.46 
-1684.73 -2129.92 5820.52 
-1682.93 -2128.48 5820.84 
-1685.99 -2130.25 5820.09 
-1686.25 -2130.76 5820.6 
-1686.72 -2131.24 5821.39 
-1687.77 -2131.93 5822.91 
-1687.96 -2131.77 5822.25 
-1686.89 -2131.55 5822.25 
-1685.61 -2130.58 5820.8 
-1688.55 -2132.5 5824.92 
-1669.35 -2117.21 5828.8 
-1670.64 -2120.86 5835.13 
-1669.96 -2118.76 5831.36 
-1675.75 -2129.79 5849.55 
-1673.77 -2127.37 5845.76 
-1677.82 -2130.68 5851.43 
-1679.45 -2127.09 5861.93 
-1679.07 -2130.86 5853.95 
-1672.51 -2124.05 5841.1 
-1685.06 -2130.36 5867.4 
-1690.72 -2133.36 5879.2 
-1692.32 -2132.55 5888.54 
-1688.3 -2133 5870.36 
-1704.19 -2147.31 5847.55 
-1698.75 -2143.19 5849.49 
-1695.6 -2140.71 5849.02 
-1692.69 -2139.53 5848.33 
-1687.67 -2137.6 5845.33 
-1687.58 -2133.85 5831.08 
-1686.79 -2132.3 5825.78 
-1685.57 -2134.68 5837.08 
-1685.44 -2133.09 5829.81 
-1684.35 -2135.43 5841.11 
-1756.98 -2161.48 5838.55 
-1749.94 -2162.66 5837.85 
-1751.42 -2163.22 5845.18 
-1745.77 -2163.68 5838.82 
-1734.34 -2165.85 5843.08 
-1731.67 -2165.21 5844.48 
-1729.87 -2164.18 5843.03 
-1734.66 -2166.64 5846.47 
-1742.28 -2165.41 5843.5 
-1738.85 -2166.52 5844.33 
-1737.19 -2166.74 5844.25 
-1735.55 -2166.89 5847.29 
-1725.86 -2162.31 5845.36 
-1727.45 -2163.55 5846.53 
-1721.65 -2160.41 5849.17 
-1718.02 -2157.78 5849.31 
-1710.92 -2153.08 5849.83 
-1670.2 -2117.99 5826.91 
-1670.9 -2118.71 5825.21 
-1671.37 -2118.98 5823.54 
-1672.12 -2119.55 5822.76 
-1672.89 -2120.31 5822.46 
-1674.65 -2121.57 5821.42 
-1674.44 -2122.06 5823.14 
-1676.92 -2122.79 5820.13 
-1677.71 -2124.17 5821.49 
-1681.74 -2127.74 5821.49 
-1685.02 -2130.6 5821.6 
-1683.58 -2129.58 5821.67 
-1685.93 -2131.1 5821.72 
-1686.26 -2131.76 5823.46 
-1685.75 -2131.3 5822.54 
-1671.45 -2121.65 5833.7 
-1670.99 -2119.84 5829.01 
-1677.33 -2130.4 5850.16 
-1675.44 -2129.64 5848.05 
-1674.84 -2128.7 5845.22 
-1678.39 -2132.32 5851.63 
-1681.33 -2129.78 5860.93 
-1680.61 -2132.63 5854.35 
-1672.91 -2124.5 5839.14 
-1684.27 -2131.78 5862.99 
-1692.02 -2135.75 5874.23 
-1694.9 -2136.15 5883.31 
-1694.36 -2134.1 5892.12 
-1687.4 -2133.18 5866.56 
-1752.91 -2163.57 5854.27 
-1761.6 -2161.58 5846.82 
-1703.51 -2147.24 5849.18 
-1698.1 -2142.76 5851.61 
-1694.61 -2140.42 5851.43 
-1692.05 -2139.48 5850.83 
-1686.63 -2137.75 5848.65 
-1687.1 -2137.86 5847.21 
-1683.05 -2136.25 5845.44 
-1685.04 -2131.92 5825.63 
-1683.82 -2132.63 5830.71 
-1682.65 -2135.03 5843.18 
-1683.08 -2133.3 5835.41 
-1746.1 -2164.61 5846.19 
-1732.25 -2166.36 5847.78 
-1728.85 -2164.84 5847.74 
-1729.89 -2165.87 5849.67 
-1730.87 -2166.27 5851.79 
-1733.19 -2166.96 5851.11 
-1741.39 -2166.02 5846.87 
-1737.93 -2166.78 5847.67 
-1735.58 -2167.16 5851.32 
-1724.49 -2162.49 5850.17 
-1725.78 -2163.72 5852.6 
-1719.02 -2159.28 5853.16 
-1713.06 -2155.12 5852.49 
-1704.58 -2148.52 5850.94 
-1671.76 -2120.37 5826.58 
-1672.1 -2120.54 5825.22 
-1673.12 -2121.39 5824.54 
-1678.54 -2125.46 5822.86 
-1676.74 -2125.19 5826.41 
-1678.22 -2125.96 5824.65 
-1681.85 -2128.46 5822.47 
-1684.48 -2130.69 5822.61 
-1682.92 -2129.65 5822.85 
-1684.83 -2131.43 5823.71 
-1672.48 -2122.32 5831.08 
-1676.58 -2129.79 5848.56 
-1677.46 -2131.73 5850.11 
-1675.14 -2128.6 5843.53 
-1676.54 -2129.71 5846.48 
-1680.19 -2133.51 5852.96 
-1678.55 -2133.57 5851.41 
-1683.39 -2133.5 5858.03 
-1674.08 -2125.01 5835.95 
-1691.86 -2136.63 5869.17 
-1698.02 -2139.85 5878.3 
-1699.52 -2138.48 5890.27 
-1685.83 -2134.48 5860.49 
-1758.4 -2163.07 5863.9 
-1749.81 -2164.48 5861.22 
-1753.76 -2163.86 5870.17 
-1745.97 -2165.04 5852.7 
-1698.41 -2143.24 5854.27 
-1694.44 -2140.72 5853.77 
-1692.81 -2140.05 5854.64 
-1687.03 -2137.71 5850.47 
-1682.35 -2136.74 5847.12 
-1681.6 -2135.23 5844.99 
-1683.53 -2131.37 5825.85 
-1681.95 -2130.82 5828.06 
-1681.97 -2133.31 5838.25 
-1727.57 -2164.87 5852.6 
-1727.88 -2165.24 5854.24 
-1729.17 -2165.83 5856.2 
-1731.53 -2166.65 5855.01 
-1734.04 -2167.42 5854.5 
-1741.5 -2166 5853.89 
-1737.67 -2166.93 5853.49 
-1735.68 -2167.23 5855.9 
-1721.48 -2161.13 5854.52 
-1722.32 -2162.03 5856.69 
-1724.98 -2163.67 5856 
-1716.5 -2158.14 5857.17 
-1711.91 -2154.7 5855.07 
-1704.45 -2148.63 5853.12 
-1673.09 -2122.33 5828.12 
-1673.98 -2122.93 5827.36 
-1681.14 -2128.53 5824.09 
-1677.39 -2126.85 5830.3 
-1679.88 -2128.33 5826.65 
-1679.69 -2129.14 5830.22 
-1683.2 -2130.56 5823.79 
-1681.63 -2129.67 5825.32 
-1677.42 -2131.08 5848.8 
-1678.06 -2133.57 5850.04 
-1676.03 -2128.37 5840.54 
-1677.52 -2130.59 5844.18 
-1678.18 -2131.44 5846.96 
-1681.66 -2134.25 5853.79 
-1680 -2134.37 5851.97 
-1675.11 -2124.91 5831.27 
-1691.01 -2137.46 5863.83 
-1697.93 -2141.84 5868.51 
-1705.4 -2144.33 5886.26 
-1706.19 -2147.07 5876.51 
-1706.32 -2142.9 5895.28 
-1685.44 -2135.17 5858.18 
-1747.09 -2164.89 5863.48 
-1750.63 -2164.3 5874.42 
-1697.91 -2143.21 5857.23 
-1704.27 -2148.5 5855.66 
-1697.08 -2142.54 5860.13 
-1692.2 -2139.31 5858.12 
-1686.96 -2137.38 5852.15 
-1682.13 -2136.51 5848.62 
-1680.86 -2135.76 5847 
-1680.65 -2134.19 5843.65 
-1680.76 -2130.09 5829.53 
-1680.86 -2132.16 5837.58 
-1726.62 -2164.5 5857.7 
-1730.75 -2166.19 5859.36 
-1728.32 -2165.19 5859.99 
-1732.56 -2166.63 5859.05 
-1734.91 -2165.9 5862.89 
-1738.69 -2166.36 5857.8 
-1737.34 -2165.79 5862.04 
-1718.63 -2159.66 5858.59 
-1720.31 -2160.91 5860.27 
-1723.67 -2162.85 5859.28 
-1714.02 -2156.55 5861.08 
-1710.41 -2153.71 5858.32 
-1679.5 -2130.83 5837.44 
-1677.9 -2129.25 5837.84 
-1678.35 -2133.26 5848.85 
-1679.87 -2134.78 5850.15 
-1678.8 -2131.57 5842.38 
-1679.12 -2132.53 5845.11 
-1679.07 -2133.8 5847.93 
-1682.36 -2134.89 5853.78 
-1681.98 -2135.22 5852.44 
-1686.95 -2136.36 5856.94 
-1694.51 -2140.34 5862.99 
-1701.59 -2145.78 5863.11 
-1707.19 -2149.78 5868.28 
-1712.06 -2149.59 5886.01 
-1711.75 -2152.22 5873.98 
-1745.16 -2164.94 5866.7 
-1748.44 -2164.06 5878.62 
-1753.48 -2163.78 5885.26 
-1703.54 -2147.74 5859.39 
-1686.63 -2136.77 5854.19 
-1681.97 -2135.81 5850.57 
-1680.44 -2135.37 5848.71 
-1679.9 -2134.4 5846.07 
-1680.04 -2133.17 5842.76 
-1724.78 -2163.08 5862.76 
-1730.26 -2164.49 5866.37 
-1727.3 -2163.5 5866.29 
-1733.02 -2165.15 5866.6 
-1737.56 -2163.98 5874.25 
-1741.8 -2164.46 5871.33 
-1716.38 -2158.21 5862.83 
-1721.38 -2161.27 5863.76 
-1718.57 -2159.78 5864.65 
-1712.42 -2154.99 5866.01 
-1709.12 -2152.52 5862.75 
-1712.53 -2147.72 5896.19 
-1718.53 -2153.28 5891.01 
-1717.51 -2154.89 5880.7 
-1716.54 -2157.23 5869.51 
-1719.77 -2152.77 5900.06 
-1743.36 -2163.78 5881.96 
-1751.53 -2163.74 5890.53 
-1722.98 -2160.88 5871.14 
-1725.09 -2161.85 5870.95 
-1729.55 -2162.75 5875.65 
-1733.64 -2163.41 5878.45 
-1738.99 -2163.48 5885.13 
-1720.62 -2159.86 5870.05 
-1723.25 -2157.16 5888.04 
-1721.02 -2158.29 5877.12 
-1724.59 -2157.34 5895.5 
-1745.62 -2163.55 5890.61 
-1728.55 -2161.23 5882.67 
-1724.92 -2159.83 5880.25 
-1729.69 -2162.09 5880.3 
-1734.8 -2163.16 5885.62 
-1738.52 -2163.42 5890.53 
-1742.51 -2163.42 5895.24 
-1727.43 -2159.27 5890.04 
-1729.94 -2159.84 5899.58 
-1734.56 -2162.46 5889.8 
-1732.36 -2160.92 5893.48 
-1738.33 -2163.22 5894.18 
-1737.1 -2162.4 5898.19 
