-1910.36 -1617.2 2444.05 
-1910.24 -1617.09 2444.21 
-1910.06 -1617.71 2443.83 
-1910.57 -1617.36 2443.85 
-1910.68 -1617.14 2443.98 
-1910.59 -1616.93 2444.21 
-1908.78 -1617.01 2445.93 
-1908.91 -1616.72 2446.24 
-1908.44 -1617.2 2446.25 
-1909.49 -1616.94 2445.21 
-1909.49 -1616.79 2445.37 
-1909.18 -1617.27 2445.17 
-1909.17 -1617.08 2445.41 
-1909.5 -1616.6 2445.57 
-1909.13 -1616.94 2445.61 
-1909.3 -1616.67 2445.72 
-1909.1 -1616.8 2445.78 
-1910.27 -1616.47 2445.05 
-1910.11 -1616.53 2445.09 
-1910.07 -1616.85 2444.68 
-1910.25 -1616.78 2444.6 
-1910.42 -1616.45 2444.97 
-1910.41 -1616.75 2444.53 
-1910.55 -1616.46 2444.88 
-1910.49 -1616.83 2444.37 
-1910.62 -1616.55 2444.71 
-1909.95 -1616.59 2445.13 
-1909.79 -1616.63 2445.22 
-1909.66 -1616.93 2445.02 
-1910.7 -1616.94 2444.16 
-1909.31 -1616.38 2446.12 
-1908.83 -1616.56 2446.82 
-1909.51 -1616.38 2445.83 
-1910.28 -1616.17 2445.52 
-1910.43 -1616.14 2445.45 
-1910.13 -1616.22 2445.55 
-1910.56 -1616.15 2445.32 
-1910.68 -1616.14 2445.28 
-1910.74 -1616.28 2445.04 
-1910.69 -1616.64 2444.52 
-1909.96 -1616.3 2445.56 
-1907.38 -1617.91 2452.65 
-1907.89 -1616.8 2453.24 
-1907.65 -1617.5 2452.53 
-1910.91 -1617.53 2443.59 
-1910.91 -1617.13 2443.93 
-1910.85 -1617.34 2443.77 
-1910.81 -1617.03 2444.05 
-1910.76 -1617.25 2443.87 
-1910.76 -1616.75 2444.34 
-1910.81 -1616.41 2444.81 
-1909.13 -1616.34 2446.88 
-1908.78 -1616.43 2447.73 
-1908.47 -1616.67 2447.57 
-1909.43 -1616.18 2446.66 
-1909.76 -1616.46 2445.48 
-1909.91 -1616.1 2445.92 
-1909.74 -1616.23 2445.82 
-1909.64 -1616.13 2446.25 
-1909.74 -1616.01 2446.62 
-1910.27 -1615.86 2446.01 
-1910.42 -1615.82 2445.95 
-1910.56 -1615.81 2445.86 
-1910.1 -1615.97 2445.98 
-1910.67 -1615.86 2445.7 
-1910.79 -1615.71 2445.85 
-1910.82 -1615.91 2445.55 
-1910.87 -1616.04 2445.31 
-1908.23 -1616.59 2452.27 
-1908.49 -1616.19 2452.15 
-1907.65 -1618.02 2452.06 
-1908.08 -1617.21 2451.97 
-1908.02 -1616.77 2453.98 
-1907.96 -1616.98 2452.4 
-1908.63 -1615.66 2453.17 
-1908.29 -1616.29 2453.7 
-1907.11 -1618.5 2456.11 
-1907.43 -1617.89 2455.62 
-1911.15 -1617.3 2443.72 
-1911.01 -1617.04 2443.98 
-1911.03 -1617.34 2443.72 
-1910.85 -1616.85 2444.19 
-1910.86 -1616.57 2444.55 
-1910.93 -1616.19 2445.06 
-1909.14 -1616.21 2447.64 
-1908.7 -1616.36 2448.59 
-1908.39 -1616.59 2448.5 
-1908.38 -1616.49 2449.34 
-1908.12 -1616.66 2449.35 
-1909.48 -1616.07 2447.18 
-1909.27 -1616.07 2447.97 
-1909.93 -1615.91 2446.57 
-1909.46 -1615.96 2447.88 
-1909.68 -1615.92 2447.42 
-1910.26 -1615.67 2446.8 
-1910.1 -1615.79 2446.72 
-1910.5 -1615.59 2446.47 
-1910.71 -1615.55 2446.19 
-1910.78 -1615.38 2446.53 
-1910.92 -1615.46 2446.16 
-1910.96 -1615.65 2445.84 
-1911.01 -1615.81 2445.58 
-1909.09 -1614.84 2452.44 
-1909.24 -1614.55 2452.17 
-1908.98 -1615.22 2452.04 
-1907.68 -1618.2 2451.83 
-1908.58 -1616.26 2451.9 
-1907.94 -1617.77 2451.74 
-1908.41 -1616.58 2454.12 
-1908.7 -1615.9 2453.56 
-1909.22 -1614.83 2452.2 
-1911.13 -1616.99 2444 
-1911.05 -1616.73 2444.25 
-1910.94 -1616.76 2444.26 
-1910.97 -1616.4 2444.73 
-1911.01 -1616.09 2445.2 
-1907.91 -1616.84 2449.14 
-1907.82 -1616.79 2450.04 
-1907.51 -1617.19 2449.34 
-1908.02 -1616.66 2450.06 
-1908.97 -1616.19 2448.51 
-1908.62 -1616.36 2449.19 
-1908.28 -1616.52 2449.8 
-1909.17 -1616.05 2448.5 
-1907.45 -1617.09 2450.23 
-1909.85 -1615.81 2447.38 
-1909.58 -1615.8 2448.14 
-1909.35 -1615.9 2448.48 
-1910 -1615.67 2447.51 
-1910.07 -1615.53 2447.78 
-1910.3 -1615.52 2447.26 
-1910.55 -1615.45 2446.88 
-1910.8 -1615.25 2446.94 
-1910.59 -1615.29 2447.29 
-1911.01 -1615.23 2446.58 
-1911.13 -1615.3 2446.24 
-1911.18 -1615.49 2445.93 
-1908.56 -1616.39 2451.71 
-1909.42 -1614.52 2451.64 
-1909.48 -1614.29 2451.84 
-1909.46 -1614.31 2451.81 
-1909.05 -1615.08 2451.74 
-1907.66 -1617.76 2455.43 
-1907.94 -1617.52 2454.99 
-1907.25 -1618.59 2456.18 
-1908.63 -1616.43 2453.77 
-1909.12 -1615.37 2452.25 
-1909.2 -1615.06 2452.01 
-1909.37 -1614.79 2451.36 
-1907.02 -1617.81 2451.99 
-1907.26 -1617.48 2452.14 
-1907.42 -1617.7 2452.67 
-1906.92 -1617.52 2451.25 
-1906.81 -1617.7 2451.5 
-1907.65 -1617.4 2452.9 
-1907.91 -1617.16 2452.85 
-1907.58 -1617.66 2453.39 
-1907.62 -1617.88 2454.15 
-1908.05 -1617.16 2452.94 
-1908.03 -1617.57 2453.8 
-1908.58 -1617.28 2454.07 
-1909.01 -1616.35 2453.06 
-1907.94 -1618.15 2455.14 
-1908.37 -1617.3 2454.35 
-1911.24 -1616.78 2444.15 
-1911.15 -1616.67 2444.28 
-1911.35 -1617.2 2443.75 
-1911.43 -1617.06 2443.85 
-1911.34 -1616.95 2443.97 
-1911.16 -1616.39 2444.64 
-1911.05 -1616.45 2444.62 
-1911.18 -1616.09 2445.07 
-1911.08 -1616.14 2445.05 
-1911.21 -1615.73 2445.57 
-1907.72 -1616.87 2450.77 
-1907.86 -1616.78 2450.76 
-1908.86 -1616.23 2448.98 
-1908.49 -1616.41 2449.68 
-1909.08 -1616.09 2448.91 
-1907.39 -1617.12 2450.92 
-1909.77 -1615.69 2448.01 
-1909.55 -1615.7 2448.64 
-1909.32 -1615.89 2448.78 
-1910.15 -1615.37 2448.13 
-1909.93 -1615.43 2448.51 
-1909.79 -1615.56 2448.42 
-1910.37 -1615.38 2447.56 
-1910.8 -1615.12 2447.42 
-1910.58 -1615.16 2447.78 
-1910.37 -1615.24 2448.02 
-1911.01 -1615.09 2447.06 
-1911.22 -1615.06 2446.68 
-1911.36 -1615.11 2446.38 
-1908.52 -1616.45 2451.44 
-1908.15 -1617.46 2451.61 
-1908.89 -1615.45 2451.49 
-1909.54 -1614.69 2450.97 
-1909.59 -1614.46 2451.19 
-1909.66 -1614.2 2451.4 
-1909.73 -1614.02 2451.47 
-1909.41 -1614.56 2451.44 
-1908.28 -1617.21 2454.45 
-1909.08 -1615.7 2451.82 
-1909.14 -1615.45 2451.72 
-1909.28 -1615.16 2451.02 
-1909.43 -1614.94 2450.91 
-1907.33 -1617.28 2451.56 
-1907.68 -1617.2 2452.38 
-1908.35 -1617.13 2453.15 
-1908.51 -1617.1 2453.14 
-1908.01 -1617.77 2454.12 
-1908.4 -1617.51 2453.83 
-1908.02 -1617.96 2454.44 
-1908.29 -1617.81 2454.29 
-1907.88 -1616.93 2451.67 
-1908.02 -1616.79 2451.37 
-1908.05 -1616.64 2450.41 
-1908.11 -1616.79 2451.7 
-1907.7 -1617.05 2451.63 
-1908.61 -1617.57 2454.08 
-1908.15 -1618.1 2454.72 
-1908.76 -1617.19 2453.8 
-1908.33 -1617.85 2454.55 
-1909.09 -1616.31 2452.51 
-1909.11 -1616.45 2452.59 
-1909.04 -1616.07 2452.93 
-1908.94 -1616.11 2450.91 
-1909.02 -1615.89 2450.93 
-1911.31 -1616.67 2444.24 
-1911.42 -1616.78 2444.09 
-1911.27 -1616.39 2444.57 
-1911.29 -1616.11 2444.99 
-1911.34 -1615.71 2445.52 
-1911.39 -1615.31 2446.05 
-1908.19 -1616.55 2450.35 
-1908.77 -1616.26 2449.4 
-1908.46 -1616.41 2450.02 
-1909.05 -1616.09 2449.24 
-1909.53 -1615.68 2448.98 
-1909.3 -1615.88 2449.1 
-1910.16 -1615.2 2448.67 
-1909.95 -1615.32 2448.85 
-1909.69 -1615.54 2448.99 
-1910.57 -1615.03 2448.26 
-1910.78 -1614.99 2447.92 
-1910.36 -1615.09 2448.55 
-1911 -1614.96 2447.53 
-1911.22 -1614.93 2447.14 
-1911.45 -1614.89 2446.79 
-1908.7 -1615.91 2451.18 
-1908.34 -1616.89 2451.22 
-1908.56 -1616.27 2450.87 
-1908.21 -1617.19 2450.99 
-1908.22 -1617.04 2450.71 
-1909.17 -1615.08 2451.19 
-1909.68 -1614.8 2450.5 
-1909.78 -1614.51 2450.59 
-1909.78 -1614.29 2450.89 
-1909.88 -1614.03 2450.98 
-1909.92 -1613.85 2451.15 
-1909.68 -1614.27 2451.09 
-1909.21 -1615.62 2450.6 
-1909.34 -1615.36 2450.6 
-1909.53 -1615.09 2450.48 
-1908.19 -1616.91 2452.41 
-1908.29 -1616.8 2452.16 
-1908.19 -1616.58 2450.74 
-1908.23 -1616.65 2451.31 
-1908.65 -1617.44 2453.81 
-1909.07 -1616.83 2452.96 
-1909.04 -1616.95 2453.1 
-1909.09 -1616.66 2452.77 
-1908.9 -1616.47 2451.72 
-1908.78 -1616.28 2451.02 
-1908.95 -1616.09 2450.36 
-1909.17 -1615.91 2450.23 
-1909.35 -1615.72 2450.15 
-1911.1 -1617.61 2443.91 
-1911.4 -1617.16 2443.93 
-1911.51 -1617.28 2443.66 
-1911.44 -1616.49 2444.36 
-1911.37 -1616.34 2444.6 
-1911.43 -1615.96 2445.1 
-1911.52 -1616.86 2444 
-1911.54 -1616.52 2444.29 
-1911.45 -1616.8 2444.21 
-1911.46 -1615.63 2445.55 
-1911.52 -1615.17 2446.16 
-1908.73 -1616.27 2449.71 
-1908.41 -1616.43 2450.44 
-1909.04 -1616.08 2449.57 
-1908.73 -1616.25 2449.97 
-1909.44 -1615.72 2449.44 
-1909.28 -1615.87 2449.42 
-1910.13 -1615.12 2449.15 
-1909.9 -1615.32 2449.23 
-1909.69 -1615.51 2449.28 
-1910.53 -1614.86 2448.82 
-1910.33 -1614.95 2449.06 
-1910.77 -1614.85 2448.4 
-1911 -1614.83 2447.99 
-1911.23 -1614.81 2447.56 
-1911.6 -1614.79 2446.77 
-1911.4 -1614.74 2447.41 
-1909.01 -1615.48 2450.88 
-1909.01 -1615.64 2450.56 
-1908.6 -1616.35 2450.49 
-1909.46 -1614.73 2450.89 
-1909.85 -1614.93 2450.04 
-1909.98 -1614.65 2450.08 
-1910.09 -1614.36 2450.14 
-1910 -1614.17 2450.51 
-1910.12 -1613.87 2450.57 
-1910.1 -1613.69 2450.83 
-1909.92 -1614.05 2450.7 
-1909.54 -1615.49 2450.08 
-1909.69 -1615.22 2450.06 
-1908.58 -1616.82 2452.47 
-1908.82 -1616.76 2452.47 
-1908.79 -1617.02 2453.12 
-1908.38 -1616.69 2451.92 
-1908.33 -1616.57 2451.23 
-1908.51 -1616.59 2451.68 
-1908.84 -1616.62 2452.09 
-1908.65 -1616.41 2451.29 
-1908.68 -1616.25 2450.6 
-1908.91 -1616.13 2450.24 
-1909.19 -1615.91 2449.89 
-1909.43 -1615.71 2449.75 
-1909.64 -1615.52 2449.65 
-1911.51 -1616.06 2444.92 
-1911.56 -1616.17 2444.73 
-1911.63 -1615.59 2445.5 
-1911.66 -1615.27 2445.93 
-1911.35 -1616.57 2444.63 
-1911.63 -1616.1 2444.85 
-1911.62 -1615.12 2446.17 
-1908.47 -1616.39 2450.61 
-1909.05 -1616.05 2449.84 
-1908.75 -1616.23 2450.15 
-1909.84 -1615.33 2449.61 
-1910.02 -1615.08 2449.57 
-1910.15 -1614.79 2449.61 
-1910.3 -1614.55 2449.57 
-1910.52 -1614.46 2449.29 
-1910.85 -1614.55 2448.66 
-1911.08 -1614.55 2448.27 
-1911.75 -1614.76 2446.65 
-1911.53 -1614.63 2447.4 
-1911.02 -1614.3 2448.63 
-1909.46 -1614.87 2450.6 
-1909.53 -1615.04 2450.15 
-1909.03 -1615.76 2450.2 
-1908.54 -1616.58 2450.19 
-1910.31 -1614.12 2449.98 
-1910.54 -1614.06 2449.64 
-1910.45 -1613.76 2450.09 
-1910.06 -1614.33 2450.07 
-1910.57 -1613.78 2449.87 
-1908.55 -1616.51 2451.52 
-1908.56 -1616.34 2450.67 
-1908.8 -1616.2 2450.23 
-1911.72 -1615.62 2445.4 
-1911.82 -1615.13 2446.03 
-1911.87 -1614.74 2446.57 
-1911.14 -1616.14 2445.41 
-1910.55 -1617.08 2445.45 
-1910.83 -1617.05 2444.76 
-1910.24 -1617.25 2445.21 
-1911.6 -1615.74 2445.58 
-1911.63 -1614.5 2447.42 
-1911.13 -1614.19 2448.55 
-1908.45 -1616.88 2449.88 
-1908.5 -1617.21 2449.39 
-1907.91 -1617.79 2449.92 
-1909.09 -1616.11 2449.65 
-1910.52 -1614.71 2448.93 
-1909.85 -1615.41 2449.22 
-1911.04 -1614.11 2448.76 
-1911.74 -1615.23 2446.14 
-1911.85 -1614.74 2446.74 
-1911.57 -1614.42 2447.59 
-1910.46 -1616.68 2446.41 
-1911.01 -1616 2446.42 
-1909.38 -1616.48 2448.78 
-1909.5 -1616.94 2448.07 
-1910.21 -1615.8 2448.22 
-1910.95 -1615.05 2447.88 
-1911.13 -1615.49 2447.04 
-1910.34 -1616.31 2447.35 
-1909.76 -1617.14 2447.19 
-1909.12 -1617.65 2447.72 
-1909.31 -1617.66 2446.87 
