-1758.43 -1593.43 1195.95 
-1757.99 -1593.9 1195.64 
-1753.19 -1593.95 1195.5 
-1755.92 -1593.88 1195.84 
-1750.04 -1593.83 1194.54 
-1744.63 -1595.78 1195.82 
-1744.22 -1595.87 1195.18 
-1744.24 -1595.83 1194.75 
-1744.63 -1595.63 1194.38 
-1744.17 -1595.81 1194.26 
-1745.04 -1595.47 1194.44 
-1745.01 -1595.51 1194.1 
-1745.66 -1595.25 1194.22 
-1748.25 -1593.74 1193.97 
-1747.68 -1594.25 1194.06 
-1749.61 -1593.79 1194.15 
-1747.19 -1594.65 1194.06 
-1746.24 -1595 1194.04 
-1743.9 -1609 1207.6 
-1744.24 -1608.8 1206.95 
-1743.9 -1609.38 1207.29 
-1742.77 -1608.2 1208.75 
-1742.94 -1608.45 1208.69 
-1742.66 -1609.05 1208.68 
-1743.16 -1608.95 1208.5 
-1743.32 -1609.23 1208.3 
-1743.38 -1609.61 1207.99 
-1743.62 -1609.53 1207.65 
-1743.43 -1605.67 1208.79 
-1744.18 -1603.05 1209.37 
-1743.8 -1604.78 1208.79 
-1743.23 -1606.2 1208.75 
-1743.26 -1606.69 1208.64 
-1742.98 -1607.3 1208.72 
-1742.55 -1607.93 1208.86 
-1743.24 -1602.65 1210.55 
-1743.72 -1602.93 1210.02 
-1744.22 -1609.13 1206.73 
-1745.98 -1604.57 1206.21 
-1746.09 -1604.01 1205.93 
-1746.02 -1604.49 1206.4 
-1745.14 -1606.63 1206.24 
-1744.57 -1607.87 1206.37 
-1744.22 -1609.02 1206.48 
-1742.73 -1602.74 1210.54 
-1740.82 -1602.07 1212.2 
-1740.92 -1602.29 1211.98 
-1741.05 -1602.51 1211.74 
-1741.21 -1602.76 1211.44 
-1741.45 -1603.09 1211.06 
-1740.9 -1601.45 1212.52 
-1746.16 -1599.24 1205.09 
-1745.93 -1599.16 1204.51 
-1745.78 -1598.59 1204.02 
-1746.08 -1598.62 1204.66 
-1745.96 -1601.49 1204.96 
-1746.02 -1603.63 1205.5 
-1746.1 -1603.75 1205.65 
-1745.39 -1598.53 1202.92 
-1745.3 -1597.94 1202 
-1745.29 -1597.46 1201.39 
-1745.33 -1597.08 1201.01 
-1745.3 -1596.96 1200.15 
-1744.21 -1596.73 1197.48 
-1745.14 -1597.18 1200.01 
-1743.57 -1596.22 1195.16 
-1743.75 -1596.11 1195.18 
-1744.08 -1595.98 1195.49 
-1743.25 -1596.44 1195.06 
-1743.29 -1596.28 1194.72 
-1738.72 -1606.87 1217.48 
-1738.51 -1606.25 1217.47 
-1738.98 -1607.66 1217.44 
-1745.43 -1611.06 1222.95 
-1745 -1610.88 1222.38 
-1746.03 -1611.59 1222.92 
-1744.93 -1610.79 1222.07 
-1744.63 -1610.75 1221.51 
-1742.56 -1610.15 1220 
-1740.65 -1609.54 1218.38 
-1739.52 -1608.97 1217.45 
-1739.01 -1608.35 1217.28 
-1738.38 -1605.6 1217.4 
-1738.44 -1605.07 1217.42 
-1738.58 -1604.67 1217.45 
-1739.04 -1604.65 1217.65 
-1739.79 -1604.14 1218.09 
-1739.02 -1604.32 1217.59 
-1738.82 -1601.45 1213.75 
-1738.97 -1601.52 1213.53 
-1738.81 -1601.19 1214.17 
-1739.17 -1601.56 1213.31 
-1738.87 -1600.82 1214.69 
-1740.18 -1601.2 1212.68 
-1740.36 -1601.65 1212.56 
-1740.42 -1600.28 1213.02 
-1739.85 -1600.94 1213.05 
-1739.59 -1601.45 1213.08 
-1739.35 -1601.62 1213.16 
-1739.2 -1604.02 1217.63 
-1738.56 -1603.48 1217.4 
-1738.69 -1603.72 1217.44 
-1738.78 -1604.01 1217.46 
-1738.38 -1603.16 1216.61 
-1738.36 -1602.98 1216.46 
-1738.27 -1602.94 1216 
-1738.19 -1602.89 1215.57 
-1738.42 -1603.29 1216.88 
-1738.4 -1603.47 1217.07 
-1738.14 -1602.78 1215.23 
-1738.14 -1602.48 1215.18 
-1738.12 -1602.27 1214.97 
-1738.58 -1601.1 1215.02 
-1738.09 -1602.1 1214.76 
-1738.28 -1601.59 1214.79 
-1738.63 -1601 1214.8 
-1802.95 -1555.93 1187.33 
-1746.1 -1615.49 1215.24 
-1746.11 -1615.26 1215.48 
-1746.07 -1615.01 1215.55 
-1746.09 -1614.77 1215.84 
-1746.14 -1614.57 1216.31 
-1746.61 -1614.33 1218.52 
-1746.27 -1614.07 1217.61 
-1746.15 -1614.4 1216.67 
-1746.65 -1613.22 1220.73 
-1740.84 -1614.59 1214.38 
-1740.83 -1614.73 1214.71 
-1740.62 -1614.34 1214.04 
-1740.51 -1614.15 1213.8 
-1740.53 -1614.14 1213.59 
-1740.93 -1614.91 1215.03 
-1740.3 -1613.62 1213.46 
-1740.28 -1613.64 1213.64 
-1739.97 -1613.06 1213.42 
-1739.99 -1613.13 1213.58 
-1741.43 -1615.81 1215.76 
-1741.07 -1615.11 1215.31 
-1741.34 -1615.29 1215.41 
-1746.42 -1620.04 1205.77 
-1746.94 -1621.73 1206.99 
-1746.75 -1620.74 1203.16 
-1745.63 -1617.66 1205.68 
-1746.65 -1622.32 1203.19 
-1746.9 -1621.36 1202.24 
-1746.86 -1622.27 1202.04 
-1747.1 -1620.27 1201.67 
-1747.66 -1621.14 1200.2 
-1747.47 -1620.34 1200.64 
-1744.2 -1616.81 1210.81 
-1744.4 -1614.8 1207.02 
-1744.3 -1614.64 1207.86 
-1744.33 -1614.27 1206.2 
-1739.73 -1611.81 1212.61 
-1739.5 -1611.79 1212.91 
-1738.47 -1610.37 1214.09 
-1738.45 -1610.28 1213.92 
-1739.31 -1611.77 1213.69 
-1738.6 -1610.64 1214.36 
-1738.45 -1610.39 1214.36 
-1739.4 -1611.86 1213.87 
-1739.8 -1612.69 1213.61 
-1746.67 -1617.96 1216.21 
-1745.93 -1619.36 1215.48 
-1743.56 -1618.84 1216.23 
-1742.08 -1616.66 1215.79 
-1742.25 -1616.62 1215.98 
-1742.9 -1617.49 1216.01 
-1746.52 -1616.24 1216.06 
-1746.43 -1616.32 1215.61 
-1746.54 -1617.02 1215.81 
-1746.3 -1616.01 1215.38 
-1746.22 -1615.83 1215.32 
-1746.08 -1615.71 1214.98 
-1762.17 -1580.02 1195.02 
-1762.06 -1580.43 1194.83 
-1761.17 -1581.56 1194.57 
-1759.04 -1583.19 1194.25 
-1767.5 -1588.9 1188.78 
-1768.79 -1588.3 1188.13 
-1766.35 -1585.69 1190.69 
-1766.52 -1587.29 1190.1 
-1766.8 -1588.61 1189.54 
-1761.65 -1582.85 1193.35 
-1763.15 -1582.19 1193.22 
-1759.87 -1583.66 1193.54 
-1763.18 -1582.37 1193.14 
-1763.95 -1582.57 1193.17 
-1764.3 -1582.81 1193.26 
-1757.2 -1584.95 1193.78 
-1764.82 -1583.48 1192.85 
-1765.09 -1584.65 1192.16 
-1756.64 -1584.57 1194.42 
-1756.88 -1584.77 1194.11 
-1795.35 -1557.93 1192.04 
-1797.69 -1561.29 1189.18 
-1797.16 -1559.42 1190.08 
-1795.8 -1558.28 1191.61 
-1795.6 -1557.85 1191.85 
-1798.81 -1558.97 1187.54 
-1798.05 -1557.09 1187.97 
-1798.44 -1558.91 1187.92 
-1799.19 -1558.97 1187.55 
-1799.11 -1557.54 1187.45 
-1798.78 -1556.92 1188.03 
-1798.26 -1556.86 1188.25 
-1799.8 -1560.39 1187.11 
-1799.61 -1558.9 1187.43 
-1791.55 -1558.21 1194.14 
-1794.19 -1556.76 1193.11 
-1794.63 -1556.83 1192.72 
-1795.12 -1557.7 1192.23 
-1794.97 -1556.89 1192.47 
-1795.23 -1557.08 1192.3 
-1758.98 -1582.6 1194.94 
-1756.92 -1582.82 1195.64 
-1757.56 -1582.92 1195.23 
-1761.02 -1581.37 1195.08 
-1755.84 -1582.98 1196.21 
-1755.74 -1582.98 1196.31 
-1755.5 -1583.2 1196.32 
-1755.4 -1583.24 1196.37 
-1755.3 -1583.13 1196.41 
-1757.21 -1583.18 1196.23 
-1755.66 -1582.21 1197.01 
-1755.14 -1582.01 1196.98 
-1754.84 -1582.01 1196.85 
-1754.71 -1582.02 1196.64 
-1754.46 -1582.35 1196.58 
-1754.78 -1582.88 1196.4 
-1754.53 -1582.76 1196.39 
-1754.67 -1583.05 1196.2 
-1754.91 -1583.41 1195.99 
-1755.03 -1583.26 1196.2 
-1755.15 -1583.08 1196.41 
-1759.79 -1592.5 1196.01 
-1760.29 -1592.25 1195.82 
-1759.4 -1593.04 1195.79 
-1759.69 -1592.92 1195.66 
-1762.76 -1588.23 1194.87 
-1763.05 -1589.66 1193.7 
-1762.99 -1588.91 1194.14 
-1763.33 -1590.22 1193.15 
-1763.93 -1591.2 1192.04 
-1764.17 -1590.71 1191.98 
-1763.77 -1591.84 1191.94 
-1764.03 -1591.49 1191.8 
-1761.14 -1592.07 1195.01 
-1760.68 -1592.29 1195.34 
-1759.31 -1584.73 1194.77 
-1759.03 -1584.48 1195.04 
-1756.98 -1583.39 1195.86 
-1757.02 -1583.23 1196.09 
-1762.83 -1587.3 1194.9 
-1762.66 -1586.65 1195.28 
-1762.55 -1585.93 1195.51 
-1761.81 -1584.69 1196.08 
-1761.68 -1584.64 1196.39 
-1795.73 -1556.06 1192.06 
-1797.26 -1555.95 1190.22 
-1797.85 -1556.16 1189.41 
-1798.22 -1556.17 1188.94 
-1798.3 -1555.43 1188.94 
-1798.85 -1555.79 1188.42 
-1799.23 -1555.61 1188.49 
-1799.65 -1555.7 1188.46 
-1800.93 -1555.49 1187.91 
-1800.33 -1555.82 1188.12 
-1800.72 -1555.84 1187.74 
-1802.06 -1555.59 1187.68 
-1802.45 -1556.13 1187.34 
-1758.83 -1593.39 1195.78 
-1759.31 -1593.33 1195.56 
-1757.05 -1594.04 1195.51 
-1756.37 -1594.07 1195.46 
-1758.23 -1593.98 1195.28 
-1758.55 -1593.7 1195.49 
-1757.47 -1594.18 1195.12 
-1753.33 -1594.01 1195 
-1743.79 -1595.99 1194.46 
-1743.7 -1596.06 1194.64 
-1743.76 -1595.88 1194.15 
-1744.11 -1595.86 1193.86 
-1744.53 -1595.71 1193.94 
-1743.65 -1595.91 1193.88 
-1744.46 -1595.83 1193.62 
-1744.96 -1595.63 1193.78 
-1745.54 -1595.42 1193.86 
-1748.51 -1593.63 1193.57 
-1749.95 -1593.75 1193.91 
-1747.7 -1594.13 1193.67 
-1747.06 -1594.61 1193.67 
-1746.32 -1594.99 1193.74 
-1743.85 -1609.74 1206.94 
-1743.59 -1609.89 1207.3 
-1742.1 -1608.55 1209 
-1742.33 -1608.85 1208.87 
-1742.1 -1609.33 1208.85 
-1742.34 -1609.54 1208.65 
-1742.78 -1609.4 1208.48 
-1742.9 -1609.82 1208.25 
-1743.1 -1610.15 1207.97 
-1743.32 -1610.06 1207.61 
-1742.92 -1605.58 1208.94 
-1742.48 -1606.06 1208.86 
-1744.01 -1604.16 1208.86 
-1742.68 -1605.19 1209.05 
-1742.39 -1606.42 1208.97 
-1742.48 -1606.71 1209.12 
-1742.37 -1607.4 1209.13 
-1741.96 -1608.04 1209.26 
-1743.45 -1603.17 1210.07 
-1742.82 -1603.08 1210.43 
-1744.02 -1603.67 1209.3 
-1743.89 -1609.69 1206.54 
-1745.89 -1604.65 1205.87 
-1745.18 -1606.15 1206 
-1744.38 -1607.84 1206.06 
-1744.24 -1608.48 1206.24 
-1743.83 -1609.23 1206.22 
-1741.67 -1603.45 1210.67 
-1739.6 -1601.8 1212.89 
-1739.63 -1601.99 1212.73 
-1739.72 -1602.27 1212.47 
-1739.92 -1602.54 1212.2 
-1740.19 -1602.81 1211.91 
-1740.22 -1603.11 1211.68 
-1739.57 -1601.66 1213 
-1745.57 -1599.1 1203.6 
-1746.16 -1600.34 1204.46 
-1745.95 -1603.3 1205.3 
-1745.96 -1604.2 1205.7 
-1745.79 -1604.54 1205.54 
-1745.85 -1603.93 1205.39 
-1745.36 -1599.09 1202.74 
-1745.22 -1598.49 1201.73 
-1745.05 -1598.18 1200.72 
-1744.98 -1597.75 1200.38 
-1745.03 -1597.46 1200.1 
-1744.17 -1597.01 1197.4 
-1743.28 -1596.74 1195.28 
-1744.17 -1597.32 1197.35 
-1743.38 -1596.16 1194.52 
-1742.89 -1596.62 1194.48 
-1742.95 -1596.38 1194.38 
-1738.47 -1607.18 1217.28 
-1738.38 -1606.54 1217.31 
-1738.36 -1605.97 1217.35 
-1738.54 -1607.82 1217.11 
-1745.67 -1611.65 1222.05 
-1745.35 -1611.52 1221.61 
-1744.82 -1611.07 1221.45 
-1742.63 -1610.4 1219.9 
-1740.91 -1609.85 1218.47 
-1739.53 -1609.45 1217.25 
-1739.77 -1609.81 1217.22 
-1739.13 -1609.03 1217.08 
-1738.76 -1608.47 1216.95 
-1738.22 -1605.58 1217.23 
-1738.24 -1605.21 1217.29 
-1738.2 -1604.67 1217.19 
-1738.54 -1604.35 1217.4 
-1738.59 -1601.61 1213.92 
-1738.75 -1601.66 1213.69 
-1738.96 -1601.68 1213.44 
-1738.56 -1601.38 1214.3 
-1739.16 -1601.72 1213.21 
-1739.38 -1601.76 1213.05 
-1738.44 -1603.8 1217.34 
-1738.36 -1603.74 1217.06 
-1738.47 -1604.07 1217.37 
-1738.29 -1603.4 1216.28 
-1738.29 -1603.16 1216.16 
-1738.21 -1603.12 1215.7 
-1738.13 -1603.07 1215.28 
-1738.32 -1603.52 1216.55 
-1738.29 -1603.74 1216.56 
-1738.1 -1602.9 1215.06 
-1738.11 -1602.58 1215.03 
-1738.08 -1602.41 1214.82 
-1738.04 -1602.29 1214.62 
-1738.08 -1601.92 1214.56 
-1738.32 -1601.51 1214.5 
-1801.44 -1555.83 1187.55 
-1801.74 -1556.22 1187.42 
-1745.9 -1615.58 1214.54 
-1745.93 -1615.36 1214.82 
-1745.94 -1615.15 1215.03 
-1745.8 -1615.01 1214.72 
-1745.9 -1614.82 1215.21 
-1746 -1614.63 1215.82 
-1746.06 -1614.5 1216.27 
-1746.37 -1613.16 1220.01 
-1746.07 -1614.19 1216.91 
-1746.1 -1613.22 1219.08 
-1740.8 -1614.51 1214.48 
-1740.62 -1614.34 1214.3 
-1741.29 -1614.74 1214.38 
-1740.55 -1614.15 1214.04 
-1740.42 -1613.93 1213.87 
-1740.32 -1613.75 1213.78 
-1741.55 -1614.99 1214.56 
-1740 -1613.03 1213.82 
-1740.09 -1613.2 1213.88 
-1740.18 -1613.37 1213.97 
-1739.88 -1612.77 1213.77 
-1741.98 -1615.84 1215.55 
-1742.07 -1615.54 1215.03 
-1742.16 -1615.25 1214.33 
-1742.78 -1615.51 1214.07 
-1747.24 -1619.65 1201.11 
-1746.34 -1618.57 1202.64 
-1745.35 -1617.13 1205.21 
-1744.39 -1614.39 1205.54 
-1744.58 -1615.08 1205.13 
-1747.73 -1619.92 1199.37 
-1747.92 -1619.84 1198.7 
-1749.34 -1620.14 1198.34 
-1740.36 -1612.32 1212.19 
-1743.9 -1614.47 1209.27 
-1744.05 -1613.62 1206.86 
-1743.84 -1613.44 1207.59 
-1743.86 -1613 1206.51 
-1743.95 -1613.14 1205.84 
-1738.52 -1610.13 1213.59 
-1738.52 -1610.26 1213.69 
-1738.31 -1610.12 1214.4 
-1738.27 -1610.1 1214.67 
-1738.28 -1609.99 1214.2 
-1738.68 -1610.81 1214.64 
-1738.48 -1610.51 1214.76 
-1738.31 -1610.24 1214.8 
-1739.51 -1611.95 1214.05 
-1738.88 -1611.08 1214.7 
-1746.62 -1617.74 1215.85 
-1745.82 -1619.09 1215.24 
-1743.54 -1618.4 1216.25 
-1742.81 -1616.65 1215.71 
-1743.02 -1616.09 1214.79 
-1743.09 -1617.33 1216.14 
-1746.16 -1616.2 1214.58 
-1746.33 -1616.46 1215.01 
-1746.49 -1616.93 1215.4 
-1746.04 -1615.98 1214.47 
-1745.89 -1615.8 1214.16 
-1759.51 -1582.55 1194.68 
-1757.34 -1583.76 1194.69 
-1766.36 -1589.93 1189.62 
-1767.71 -1589.38 1188.37 
-1766.14 -1589.41 1190.05 
-1765.69 -1588.7 1190.72 
-1765.33 -1586.79 1191.2 
-1767.67 -1590.18 1188.1 
-1766.85 -1590.2 1188.95 
-1759.24 -1584.45 1193.27 
-1757.39 -1585.15 1193.5 
-1757.63 -1585.32 1193.21 
-1759.75 -1584.39 1193.16 
-1763.16 -1582.54 1193.05 
-1760.19 -1584.41 1193.04 
-1763.76 -1582.87 1193.14 
-1763.58 -1582.67 1193.03 
-1764.08 -1583.05 1193.28 
-1756.6 -1585.01 1194.04 
-1756.83 -1585.2 1193.75 
-1764.3 -1583.76 1193.01 
-1764.63 -1584.79 1192.46 
-1756.33 -1584.75 1194.42 
-1756.05 -1584.05 1195.18 
-1795.44 -1557.46 1192.06 
-1796.74 -1557.76 1190.58 
-1797.99 -1557.87 1189.18 
-1798.21 -1558.99 1188.49 
-1796.65 -1557.31 1190.88 
-1798.03 -1557.47 1188.55 
-1797.91 -1557.15 1188.78 
-1799.05 -1556.92 1187.9 
-1799.33 -1557.47 1187.42 
-1798.82 -1556.55 1188.42 
-1798.33 -1556.77 1188.74 
-1797.88 -1556.95 1189.07 
-1795.95 -1556.23 1191.79 
-1796.2 -1556.46 1191.49 
-1796.44 -1556.83 1191.2 
-1756.98 -1583.31 1195.26 
-1755.72 -1583.29 1196.03 
-1755.63 -1583.47 1195.95 
-1755.56 -1583.38 1196.1 
-1755.44 -1583.8 1195.82 
-1755.52 -1583.77 1195.77 
-1755.35 -1583.89 1195.78 
-1755.21 -1583.74 1195.85 
-1755.36 -1582.23 1196.87 
-1755.07 -1582.27 1196.74 
-1754.49 -1582.01 1196.71 
-1754.25 -1582.25 1196.6 
-1754.35 -1582.85 1196.21 
-1754.5 -1583.24 1195.92 
-1754.82 -1583.73 1195.63 
-1754.65 -1583.58 1195.68 
-1755.08 -1583.91 1195.61 
-1754.98 -1584.15 1195.33 
-1759.91 -1592.6 1195.83 
-1760.36 -1592.58 1195.4 
-1759.59 -1593.25 1195.4 
-1759.99 -1593.18 1195.13 
-1759.95 -1592.91 1195.43 
-1763.11 -1588.02 1194.16 
-1763.46 -1588.8 1193.24 
-1764.19 -1589.08 1192.29 
-1764.79 -1589.77 1191.58 
-1762.09 -1592.44 1193.75 
-1765.3 -1591.99 1189.91 
-1761.5 -1593.05 1194.1 
-1759.38 -1585.01 1194.42 
-1757.03 -1583.87 1195.22 
-1756.86 -1583.53 1195.63 
-1763.13 -1586.78 1194.4 
-1762.89 -1586.32 1194.86 
-1762.23 -1584.78 1195.8 
-1762.8 -1585.51 1195.06 
-1761.23 -1584.65 1195.44 
-1759.48 -1585.34 1194 
-1797.43 -1556.34 1190 
-1797.86 -1556.6 1189.23 
-1798.28 -1556.49 1188.8 
-1798.71 -1556.29 1188.47 
-1798.93 -1556.13 1188.25 
-1799.21 -1556 1188.26 
-1799.73 -1556.08 1188.12 
-1800.57 -1556.21 1187.61 
-1800.97 -1556.2 1187.43 
-1801.57 -1556.61 1187.26 
-1759.06 -1593.61 1195.3 
-1759.45 -1593.55 1195.17 
-1756.79 -1594.37 1194.78 
-1756.11 -1594.26 1195.04 
-1758.73 -1594.19 1194.6 
-1758.04 -1594.37 1194.6 
-1758.97 -1593.92 1194.88 
-1757.39 -1594.58 1194.29 
-1753.38 -1594.19 1194.54 
-1743.4 -1595.86 1194.25 
-1743.28 -1595.77 1194.12 
-1743.33 -1595.99 1194.34 
-1743.36 -1595.83 1193.98 
-1744.03 -1595.96 1193.59 
-1743.57 -1596 1193.67 
-1743.15 -1595.94 1193.78 
-1743.87 -1596.05 1193.34 
-1744.38 -1595.95 1193.31 
-1744.81 -1595.8 1193.38 
-1745.62 -1595.49 1193.6 
-1750.08 -1593.87 1193.59 
-1749.95 -1594.17 1193.3 
-1748.6 -1594.05 1193.17 
-1747.75 -1594.13 1193.27 
-1747.14 -1594.61 1193.33 
-1746.37 -1595.06 1193.48 
-1743.42 -1610.04 1206.98 
-1743.48 -1610 1206.62 
-1743.17 -1610.29 1207.2 
-1741.83 -1609.1 1209.1 
-1741.62 -1608.61 1209.4 
-1741.95 -1609.42 1209.13 
-1742.2 -1609.66 1208.9 
-1742.49 -1609.84 1208.54 
-1742.83 -1610.27 1208.33 
-1742.65 -1610.22 1208.62 
-1743.13 -1610.52 1207.56 
-1743.16 -1610.78 1208.18 
-1741.04 -1605.39 1209.63 
-1741.02 -1605.7 1209.79 
-1741.46 -1604.64 1209.69 
-1741.12 -1604.98 1209.58 
-1741.03 -1605.95 1210 
-1741.04 -1606.27 1210.15 
-1741.06 -1606.89 1210.08 
-1740.93 -1607.52 1210.06 
-1742.1 -1604.2 1209.77 
-1741.96 -1603.75 1210.21 
-1743.53 -1609.89 1206.25 
-1745.05 -1606.12 1205.69 
-1744.3 -1607.35 1205.75 
-1743.82 -1608.71 1205.95 
-1743.9 -1607.98 1205.69 
-1743.51 -1609.38 1205.94 
-1740.56 -1603.44 1211.24 
-1739.41 -1601.91 1212.94 
-1739.45 -1602.07 1212.8 
-1739.51 -1602.33 1212.56 
-1739.54 -1602.6 1212.32 
-1739.63 -1602.86 1212.08 
-1739.82 -1603.34 1211.64 
-1739.5 -1603.06 1211.99 
-1745.84 -1600.67 1203.99 
-1745.86 -1603.24 1205.1 
-1745.85 -1603.04 1205.13 
-1744.91 -1606.21 1205.37 
-1745.66 -1604.42 1205.15 
-1745.79 -1603.79 1205.08 
-1745.62 -1599.55 1202.44 
-1745.48 -1599.11 1201.93 
-1745.76 -1600.37 1203.42 
-1745.15 -1598.71 1200.84 
-1744.14 -1598.34 1198.09 
-1744.04 -1598.11 1197.66 
-1744.11 -1597.67 1197.42 
-1743.28 -1597.14 1195.51 
-1742.71 -1597.16 1194.69 
-1743.08 -1597.69 1195.74 
-1742.93 -1596.28 1194.26 
-1742.48 -1597.06 1194.25 
-1742.56 -1596.8 1194.16 
-1738.29 -1607.26 1217.05 
-1738.24 -1606.61 1217.13 
-1738.25 -1606.04 1217.22 
-1738.31 -1607.99 1216.74 
-1745.15 -1611.78 1220.66 
-1742.72 -1610.67 1219.83 
-1740.66 -1610.16 1217.97 
-1739.38 -1609.9 1216.88 
-1739.08 -1609.56 1216.84 
-1739.67 -1610.17 1216.9 
-1738.83 -1609.44 1216.64 
-1738.66 -1608.82 1216.74 
-1738.14 -1605.66 1216.93 
-1738.14 -1605.25 1216.88 
-1738.15 -1604.9 1216.95 
-1738.26 -1604.31 1217.2 
-1738.28 -1604.35 1216.81 
-1738.35 -1601.75 1214.1 
-1738.51 -1601.82 1213.87 
-1738.74 -1601.82 1213.6 
-1738.95 -1601.84 1213.34 
-1739.19 -1601.87 1213.1 
-1738.3 -1604.05 1217.12 
-1738.25 -1604.03 1216.75 
-1738.22 -1603.33 1215.84 
-1738.21 -1603.7 1216.1 
-1738.23 -1603.58 1215.76 
-1738.13 -1603.3 1215.35 
-1738.07 -1603.18 1215.04 
-1738.15 -1604.05 1216.27 
-1738.14 -1603.97 1215.88 
-1738.05 -1602.94 1214.87 
-1738.08 -1602.7 1214.9 
-1738.04 -1602.64 1214.74 
-1738.01 -1602.12 1214.45 
-1738 -1602.57 1214.61 
-1737.98 -1602.4 1214.48 
-1738.1 -1601.89 1214.31 
-1801.05 -1556.59 1187.33 
-1802.99 -1557.85 1186.48 
-1800.8 -1557.04 1187.19 
-1802.29 -1558.07 1186.5 
-1801.63 -1558.5 1186.55 
-1745.74 -1615.45 1214.13 
-1745.69 -1615.71 1213.54 
-1745.74 -1615.23 1214.36 
-1745.61 -1615.08 1214.07 
-1745.69 -1614.84 1214.58 
-1745.83 -1614.67 1215.31 
-1745.95 -1614.48 1216.05 
-1745.74 -1613.14 1218.74 
-1745.96 -1614.23 1216.6 
-1745.84 -1614.4 1215.93 
-1741.15 -1614.36 1213.74 
-1741.83 -1614.64 1213.41 
-1742.42 -1614.98 1213.4 
-1742.55 -1614.88 1212.76 
-1741.01 -1614.14 1213.38 
-1740.7 -1613.83 1213.63 
-1740.3 -1613.58 1214 
-1742.95 -1615.22 1213.21 
-1739.92 -1612.71 1214.02 
-1740.01 -1612.84 1214.12 
-1740.1 -1613.04 1214.18 
-1740.25 -1613.26 1214.12 
-1739.58 -1612.02 1214.25 
-1743.41 -1615.81 1213.88 
-1743.53 -1615.48 1212.97 
-1743.96 -1615.71 1212.93 
-1744.9 -1616.55 1204.13 
-1744.52 -1615.14 1204.48 
-1745.58 -1617.64 1203.53 
-1747.4 -1619.33 1199.68 
-1746.42 -1618.46 1201.65 
-1743.99 -1613.52 1205.1 
-1744.02 -1613.89 1204.37 
-1747.77 -1621.38 1199.29 
-1748.47 -1620.63 1198.14 
-1747.36 -1621.4 1200.58 
-1748.34 -1619.86 1197.61 
-1748.82 -1620.13 1196.76 
-1740.46 -1612.17 1211.9 
-1738.77 -1610.1 1213.18 
-1743.65 -1613.34 1208.08 
-1743.43 -1613.81 1208.83 
-1740.77 -1612.26 1211.5 
-1743.82 -1612.87 1207.17 
-1743.67 -1612.73 1207.81 
-1743.69 -1612.37 1205.92 
-1743.67 -1612.29 1206.72 
-1743.74 -1612.85 1204.92 
-1743.6 -1612.14 1205.21 
-1738.19 -1609.37 1213.76 
-1738.21 -1609.7 1214.04 
-1738.15 -1609.65 1214.43 
-1738.11 -1609.53 1214.61 
-1738.12 -1609.64 1214.89 
-1738.06 -1609.19 1214.18 
-1738.5 -1610.6 1215.1 
-1738.65 -1610.84 1215.11 
-1738.31 -1610.28 1215.15 
-1738.17 -1609.9 1215.12 
-1738.94 -1611.21 1214.98 
-1746.56 -1617.46 1215.44 
-1745.84 -1618.79 1215.17 
-1743.57 -1617.97 1216.32 
-1744.18 -1616.36 1213.9 
-1743.91 -1616.86 1214.82 
-1744.44 -1616.09 1213.14 
-1744.31 -1617.31 1214.95 
-1746.01 -1616.39 1213.72 
-1745.91 -1616.17 1213.65 
-1746.21 -1616.65 1214.3 
-1746.29 -1616.94 1214.42 
-1745.78 -1615.97 1213.48 
-1764.63 -1587.55 1191.62 
-1764.37 -1585.67 1192.31 
-1757 -1585.43 1193.45 
-1757.43 -1585.61 1193.08 
-1758.07 -1585.51 1192.88 
-1762.64 -1583.11 1192.93 
-1760.39 -1584.63 1192.87 
-1758.32 -1585.67 1192.7 
-1763.37 -1582.84 1193.02 
-1763.62 -1583.12 1193.12 
-1763.84 -1583.32 1193.24 
-1755.94 -1584.7 1194.66 
-1756.22 -1585.22 1194.06 
-1756.44 -1585.43 1193.75 
-1764.16 -1584.38 1192.95 
-1763.89 -1583.62 1193.29 
-1755.76 -1584.01 1195.37 
-1800.01 -1558.85 1187.19 
-1799.54 -1557.4 1187.44 
-1800.41 -1558.79 1186.95 
-1799.77 -1557.39 1187.42 
-1797.82 -1557.5 1189.35 
-1797.61 -1557.12 1189.58 
-1799.15 -1556.87 1187.79 
-1798.98 -1556.44 1188.24 
-1797.56 -1556.75 1189.75 
-1755.61 -1584.01 1195.47 
-1755.45 -1584.46 1195.19 
-1755.52 -1584.3 1195.28 
-1755.37 -1584.61 1195.09 
-1755.23 -1584.32 1195.3 
-1754.78 -1582.31 1196.58 
-1754.16 -1582.25 1196.58 
-1754.24 -1582.92 1196.08 
-1754.35 -1583.48 1195.66 
-1754.48 -1583.98 1195.3 
-1754.61 -1584.31 1195.04 
-1754.77 -1584.27 1195.09 
-1754.92 -1584.53 1194.92 
-1755.15 -1584.66 1194.93 
-1755.08 -1584.93 1194.64 
-1760.25 -1592.97 1195.11 
-1761.47 -1593.3 1193.61 
-1759.94 -1593.59 1194.75 
-1760.87 -1593.99 1193.33 
-1761.16 -1593.67 1193.45 
-1763.42 -1587.26 1193.56 
-1763.87 -1587.5 1192.57 
-1763.26 -1593.19 1191.88 
-1762.99 -1593.7 1191.59 
-1756.75 -1583.91 1195.07 
-1754.52 -1582.38 1196.45 
-1763.36 -1585.89 1194.18 
-1763.11 -1585.56 1194.61 
-1762.09 -1584.47 1195.5 
-1761.21 -1585.04 1194.82 
-1762.93 -1584.74 1194.84 
-1762.27 -1584.39 1195.22 
-1759.52 -1585.69 1193.53 
-1757.79 -1584.81 1194.19 
-1799.06 -1556.39 1188.09 
-1799.39 -1556.39 1187.96 
-1800.16 -1556.57 1187.58 
-1800.69 -1556.6 1187.4 
-1800.46 -1557.04 1187.33 
-1759.61 -1593.86 1194.58 
-1756.01 -1594.48 1194.56 
-1756.03 -1594.72 1194.05 
-1756.86 -1594.88 1193.72 
-1758.71 -1594.65 1193.7 
-1759.31 -1595.04 1192.64 
-1758 -1594.86 1193.54 
-1759.48 -1594.14 1194.2 
-1757.47 -1595.19 1192.95 
-1753.21 -1594.42 1194 
-1742.92 -1596.16 1194.15 
-1742.88 -1596.17 1193.98 
-1742.85 -1596.17 1193.79 
-1743.4 -1596.08 1193.45 
-1743.09 -1596.04 1193.59 
-1742.72 -1596.3 1193.54 
-1743.2 -1596.15 1193.25 
-1743.74 -1596.11 1193.15 
-1744.19 -1596.08 1193 
-1744.94 -1595.85 1193.13 
-1745.75 -1595.55 1193.34 
-1749.96 -1594.54 1192.99 
-1748.83 -1594.63 1192.8 
-1748 -1594.67 1192.9 
-1753.06 -1594.67 1193.5 
-1747.22 -1594.78 1193 
-1746.49 -1595.12 1193.24 
-1743.19 -1610.37 1206.72 
-1743.23 -1610.33 1206.3 
-1743.24 -1610.92 1207.11 
-1743.29 -1610.97 1206.66 
-1741.71 -1609.06 1209.41 
-1740.79 -1608 1210.1 
-1741.82 -1609.45 1209.43 
-1742.02 -1609.68 1209.24 
-1742.23 -1609.94 1209.12 
-1742.41 -1610 1208.84 
-1742.91 -1610.86 1208.77 
-1742.59 -1610.63 1209.13 
-1743.42 -1611.35 1207.79 
-1743.34 -1611.4 1208.51 
-1739.77 -1604.97 1211.05 
-1739.68 -1604.63 1211.17 
-1740 -1604.39 1210.9 
-1739.73 -1605.34 1211.1 
-1740.36 -1603.91 1210.89 
-1739.94 -1604.04 1211.07 
-1739.64 -1605.7 1211.16 
-1739.65 -1606.1 1211.11 
-1739.69 -1606.52 1211.02 
-1739.7 -1606.94 1210.96 
-1740.47 -1603.69 1211.05 
-1743.27 -1610.1 1205.92 
-1744.22 -1607.09 1205.44 
-1743.81 -1607.52 1205.38 
-1743.5 -1608.73 1205.65 
-1743.44 -1608.18 1205.35 
-1743.29 -1609.43 1205.56 
-1739.22 -1602.03 1212.98 
-1739.3 -1602.21 1212.8 
-1739.35 -1602.49 1212.54 
-1739.39 -1602.78 1212.28 
-1739.68 -1603.63 1211.49 
-1739.38 -1603.24 1211.95 
-1739.3 -1602.98 1212.22 
-1745.86 -1602.87 1204.68 
-1744.92 -1606.02 1205.07 
-1744.15 -1607.11 1205.04 
-1745.69 -1604.3 1204.83 
-1745.85 -1603.4 1204.82 
-1745.54 -1601.05 1202.75 
-1745.27 -1599.33 1201.13 
-1745.39 -1600.86 1203 
-1745.87 -1602.95 1204.39 
-1744.04 -1599.54 1198.8 
-1742.93 -1599.19 1196.74 
-1742.85 -1598.64 1196.3 
-1742.92 -1598.19 1195.98 
-1742.79 -1597.52 1195.16 
-1742.37 -1597.86 1194.8 
-1742.2 -1597.57 1194.26 
-1742.55 -1598.12 1195.35 
-1742.49 -1596.75 1194.01 
-1741.92 -1597.79 1194 
-1742.18 -1597.34 1194.03 
-1742.14 -1597.3 1193.86 
-1738.15 -1607.3 1216.77 
-1738.13 -1606.1 1216.96 
-1738.09 -1606.61 1216.77 
-1738.37 -1608.67 1216.44 
-1738.06 -1607.8 1216.4 
-1744.76 -1611.76 1220.36 
-1742.54 -1610.87 1219.58 
-1740.37 -1610.46 1217.44 
-1739.31 -1610.26 1216.63 
-1738.88 -1609.87 1216.54 
-1739.59 -1610.53 1216.61 
-1738.4 -1609.64 1216.31 
-1738.34 -1609.04 1216.53 
-1738.05 -1605.66 1216.48 
-1738.08 -1605.17 1216.44 
-1738.05 -1604.77 1216.46 
-1738.26 -1604.27 1216.37 
-1738.25 -1601.94 1214.1 
-1738.33 -1602.05 1213.94 
-1738.56 -1601.97 1213.72 
-1738.74 -1602 1213.49 
-1738.97 -1601.98 1213.23 
-1738.12 -1603.51 1215.41 
-1738.04 -1603.92 1215.48 
-1738.02 -1603.78 1215.2 
-1738.04 -1603.49 1215.06 
-1738.02 -1603.27 1214.91 
-1738.05 -1604.28 1215.8 
-1737.97 -1604.23 1215.39 
-1738 -1603.08 1214.8 
-1737.99 -1602.86 1214.69 
-1737.99 -1602.16 1214.35 
-1737.94 -1602.73 1214.53 
-1737.93 -1602.51 1214.4 
-1745.52 -1615.31 1213.51 
-1745.54 -1615.53 1213.25 
-1745.2 -1615.94 1211.99 
-1745.02 -1615.75 1211.56 
-1745.38 -1615.12 1213.26 
-1745.51 -1614.91 1213.95 
-1745.65 -1614.72 1214.73 
-1745.77 -1614.56 1215.4 
-1745.86 -1614.24 1216.34 
-1745.32 -1613.08 1218.43 
-1742.59 -1611.36 1218.93 
-1745.64 -1614.48 1215.27 
-1745.7 -1614.34 1215.75 
-1741.7 -1614.45 1212.9 
-1742.4 -1614.72 1212.36 
-1743.18 -1615.15 1212.38 
-1743.13 -1615.02 1211.87 
-1741.73 -1614.28 1212.64 
-1741.37 -1614.03 1212.98 
-1740.51 -1613.51 1213.85 
-1741.03 -1613.74 1213.32 
-1743.65 -1615.38 1212.27 
-1739.69 -1612.12 1214.4 
-1739.77 -1612.21 1214.58 
-1740.04 -1612.71 1214.37 
-1740.25 -1612.97 1214.19 
-1740.51 -1613.24 1213.88 
-1739.17 -1611.49 1215.03 
-1744.57 -1615.93 1212.48 
-1744.25 -1615.67 1212.09 
-1744.58 -1615.52 1203.35 
-1745.08 -1617.12 1202.88 
-1744.72 -1616.24 1202.41 
-1743.73 -1614.49 1201.16 
-1743.36 -1614.1 1200.56 
-1745.66 -1617.79 1202.23 
-1748.07 -1619.46 1197.47 
-1747.74 -1619.3 1198.12 
-1747.9 -1619.59 1198.79 
-1747.3 -1619.07 1199.04 
-1746.39 -1618.37 1200.84 
-1743.54 -1612.84 1203.56 
-1743.24 -1613.55 1200.98 
-1748.47 -1619.69 1196.65 
-1748.12 -1619.66 1197.89 
-1739.24 -1610.24 1212.54 
-1738.58 -1609.36 1213.07 
-1738.2 -1608.89 1213.44 
-1743.39 -1612.59 1208.3 
-1740.89 -1612.05 1211.16 
-1743.07 -1612.87 1208.95 
-1743.7 -1612.11 1207.69 
-1743.55 -1612.05 1208.42 
-1743.46 -1611.61 1206.24 
-1743.48 -1611.53 1205.77 
-1743.47 -1611.6 1206.99 
-1743.5 -1612.12 1204.19 
-1743.61 -1611.44 1205.09 
-1738.06 -1608.36 1213.56 
-1738.03 -1608.81 1213.88 
-1737.94 -1608.82 1214.37 
-1737.98 -1608.95 1214.78 
-1738.06 -1609.19 1215.26 
-1737.89 -1608.36 1214.02 
-1738.31 -1610.23 1215.42 
-1738.47 -1610.54 1215.52 
-1738.67 -1610.94 1215.43 
-1738.17 -1609.76 1215.42 
-1738.82 -1611.17 1215.51 
-1745.76 -1618.26 1215.31 
-1746.41 -1617.27 1214.67 
-1744.35 -1617.77 1215.16 
-1745.54 -1616.37 1212.66 
-1745.58 -1616.72 1213.16 
-1745.39 -1616.16 1212.31 
-1745.65 -1617.14 1213.17 
-1763.98 -1586.05 1192.67 
-1763.88 -1584.82 1193.16 
-1756.44 -1585.64 1193.56 
-1756.84 -1585.74 1193.27 
-1757.52 -1585.86 1192.86 
-1761.94 -1583.99 1192.69 
-1760.42 -1585.04 1192.64 
-1758.85 -1585.73 1192.55 
-1758.12 -1585.94 1192.57 
-1762.15 -1584.05 1192.54 
-1763.29 -1582.87 1193.22 
-1763.48 -1583.21 1193.31 
-1755.64 -1584.61 1194.89 
-1755.91 -1585.35 1194.09 
-1755.84 -1585.65 1193.87 
-1763.77 -1583.85 1193.5 
-1763.22 -1583.48 1193.47 
-1799.34 -1556.85 1187.75 
-1799.83 -1556.92 1187.57 
-1800.16 -1557.39 1187.28 
-1755.48 -1585.15 1194.53 
-1755.54 -1584.9 1194.7 
-1755.42 -1585.38 1194.36 
-1755.3 -1585.01 1194.69 
-1754.01 -1582.94 1196.1 
-1754.09 -1584.08 1195.36 
-1754.2 -1584.78 1194.89 
-1754.31 -1585.53 1194.38 
-1754.55 -1585.53 1194.29 
-1754.8 -1585.23 1194.38 
-1754.98 -1585.43 1194.19 
-1755.27 -1585.44 1194.25 
-1755.16 -1585.73 1193.96 
-1762.3 -1594.1 1191.81 
-1760.57 -1594.31 1193.14 
-1761.38 -1594.64 1191.8 
-1761.99 -1594.38 1191.62 
-1763.65 -1586.2 1193.32 
-1762.92 -1594.04 1191.12 
-1765.06 -1592.98 1189.14 
-1764.6 -1593.36 1189.21 
-1754.22 -1582.72 1196.19 
-1756.47 -1583.89 1195 
-1763.48 -1585.14 1194.06 
-1763.2 -1584.8 1194.47 
-1761.48 -1585.07 1194.33 
-1761.24 -1585.51 1194.13 
-1759.62 -1586.06 1193.07 
-1763.02 -1584.14 1194.58 
-1762.33 -1584.16 1194.6 
-1762.24 -1584.25 1194.9 
-1756.43 -1585 1193.89 
-1755.83 -1584.33 1194.55 
-1760.17 -1594.56 1192.97 
-1755.85 -1595.01 1193.47 
-1756.77 -1595.25 1192.61 
-1758.63 -1595.51 1192.04 
-1759.77 -1595.51 1191.51 
-1758.27 -1596.32 1190.82 
-1758.79 -1596.25 1190.64 
-1757.92 -1595.6 1192.13 
-1757.12 -1595.65 1191.78 
-1742.49 -1596.69 1193.87 
-1742.54 -1596.59 1193.74 
-1742.43 -1596.74 1193.54 
-1742.81 -1596.21 1193.37 
-1742.43 -1596.71 1193.39 
-1742.45 -1596.68 1193.25 
-1742.79 -1596.35 1193.14 
-1743.17 -1596.29 1193.06 
-1743.61 -1596.22 1192.95 
-1744.3 -1596.13 1192.8 
-1743.75 -1596.35 1192.79 
-1745.08 -1595.93 1192.86 
-1745.89 -1595.61 1193.1 
-1749.05 -1595.08 1192.46 
-1750.03 -1594.9 1192.68 
-1748.33 -1594.97 1192.57 
-1752.86 -1594.95 1192.98 
-1747.16 -1595.18 1192.64 
-1746.55 -1595.32 1192.96 
-1743.33 -1610.95 1206.22 
-1743.37 -1610.82 1205.73 
-1740.71 -1608.46 1210.2 
-1739.58 -1607.36 1210.97 
-1740.71 -1609.1 1210.35 
-1742.1 -1610.22 1209.57 
-1742.36 -1610.5 1209.42 
-1742.85 -1611.23 1209.19 
-1743.17 -1611.53 1208.9 
-1742.53 -1611.12 1209.55 
-1739.26 -1604.5 1211.7 
-1739.46 -1604.27 1211.5 
-1739.24 -1604.95 1211.57 
-1739.12 -1605.21 1211.63 
-1739.41 -1603.86 1211.68 
-1739.06 -1605.6 1211.59 
-1739.09 -1605.99 1211.51 
-1739.13 -1606.4 1211.43 
-1739.16 -1606.8 1211.36 
-1743.38 -1610.21 1205.23 
-1743.85 -1607.27 1205.12 
-1743.44 -1607.77 1205.17 
-1743.34 -1607.49 1204.84 
-1743.32 -1608.82 1205.11 
-1743.28 -1608.13 1204.74 
-1743.43 -1609.55 1204.81 
-1738.99 -1602.11 1213.13 
-1739.09 -1602.2 1212.96 
-1739.17 -1602.41 1212.74 
-1739.23 -1602.69 1212.49 
-1739.37 -1603.4 1211.93 
-1739.27 -1603.13 1212.24 
-1739.2 -1602.85 1212.51 
-1745.01 -1606.1 1204.98 
-1744.04 -1607.17 1204.66 
-1743.76 -1607.32 1204.76 
-1745.81 -1603.91 1204.62 
-1745.03 -1605.52 1204.51 
-1745.28 -1601.41 1202.12 
-1745.78 -1603.15 1203.99 
-1744.31 -1601.93 1200.69 
-1742.91 -1600.04 1197.03 
-1742.61 -1599.02 1196.07 
-1742.72 -1599.6 1196.11 
-1742.41 -1598.62 1195.55 
-1742.1 -1598.38 1194.84 
-1741.81 -1598.16 1194.14 
-1742.14 -1597.2 1193.71 
-1741.69 -1598.22 1193.87 
-1741.84 -1597.82 1193.79 
-1741.81 -1597.76 1193.6 
-1737.97 -1606.81 1216.26 
-1737.96 -1606.15 1216.42 
-1738.21 -1608.91 1216.3 
-1738.26 -1608.84 1215.99 
-1737.9 -1607.44 1215.87 
-1739.95 -1610.84 1216.72 
-1739.25 -1610.65 1216.36 
-1738.93 -1610.28 1216.36 
-1739.5 -1610.93 1216.33 
-1738.23 -1609.68 1216.02 
-1738.52 -1610.22 1216.07 
-1738.38 -1610.18 1215.84 
-1738.16 -1609.37 1216.04 
-1737.89 -1605.65 1216.01 
-1737.99 -1605.14 1215.98 
-1738.04 -1604.68 1216.03 
-1738.07 -1602.12 1214.21 
-1738.13 -1602.23 1214.07 
-1738.45 -1602.16 1213.73 
-1738.75 -1602.14 1213.39 
-1738.06 -1603.99 1215.26 
-1737.93 -1603.73 1214.97 
-1737.94 -1603.93 1215.04 
-1737.95 -1603.52 1214.87 
-1737.95 -1603.28 1214.76 
-1737.95 -1604.63 1215.57 
-1737.83 -1604.34 1215.14 
-1737.85 -1604.56 1215.29 
-1737.94 -1603.04 1214.63 
-1737.96 -1602.41 1214.29 
-1737.89 -1602.78 1214.38 
-1737.89 -1602.97 1214.5 
-1744.82 -1615.54 1211.15 
-1744.64 -1615.36 1210.87 
-1744.18 -1615.52 1211.54 
-1745.27 -1614.94 1213.15 
-1744.53 -1615.16 1210.72 
-1745.47 -1614.79 1214.12 
-1745.56 -1614.63 1214.72 
-1745.77 -1614.17 1216.3 
-1743.44 -1612.51 1217.81 
-1742.17 -1611.56 1218.35 
-1739.75 -1611.24 1216.28 
-1745.43 -1614.53 1214.59 
-1745.51 -1614.4 1215.1 
-1745.6 -1614.26 1215.68 
-1747.6 -1622.15 1199.17 
-1748.21 -1621.75 1198.1 
-1748.02 -1621.32 1198.68 
-1742.28 -1614.54 1212.12 
-1742.99 -1614.85 1211.53 
-1743.8 -1615.29 1211.43 
-1743.67 -1615.12 1210.99 
-1742.07 -1614.16 1212.32 
-1742.49 -1614.4 1211.92 
-1741.68 -1613.9 1212.7 
-1740.92 -1613.51 1213.45 
-1739.89 -1612.3 1214.65 
-1739.14 -1611.54 1215.38 
-1739.33 -1611.8 1215.27 
-1740.25 -1612.69 1214.22 
-1740.52 -1612.97 1213.92 
-1740.69 -1613.2 1213.72 
-1743.46 -1614.88 1199.93 
-1744.03 -1615.37 1201.08 
-1744.95 -1617.05 1201.77 
-1743.88 -1615.96 1200.06 
-1743.26 -1615.72 1198.63 
-1743.03 -1615.37 1198.25 
-1742.86 -1614.85 1198.29 
-1745.45 -1617.72 1201.75 
-1748.27 -1619.48 1196.57 
-1747.71 -1619.18 1196.97 
-1747.14 -1618.84 1198.48 
-1746.36 -1618.28 1200.06 
-1743.17 -1612.82 1201.05 
-1743.49 -1611.93 1203.66 
-1742.7 -1614.18 1197.94 
-1739.28 -1609.82 1212.31 
-1738.62 -1608.84 1212.71 
-1738.21 -1608.32 1213.1 
-1738.12 -1608.1 1213.25 
-1743.16 -1611.98 1208.8 
-1740.84 -1611.6 1211.02 
-1742.65 -1612.17 1209.28 
-1743.6 -1611.08 1204.36 
-1743.49 -1610.78 1205.1 
-1737.96 -1608.07 1213.71 
-1738.06 -1607.95 1213.41 
-1737.79 -1607.98 1214.21 
-1737.86 -1608.3 1214.64 
-1737.94 -1608.53 1215.12 
-1738 -1608.67 1215.56 
-1738.11 -1609.26 1215.71 
-1737.8 -1607.42 1213.87 
-1738.2 -1609.74 1215.68 
-1738.28 -1610.01 1215.71 
-1738.53 -1610.6 1215.85 
-1738.86 -1611.11 1215.85 
-1745.71 -1617.93 1214.85 
-1745.61 -1617.53 1213.19 
-1763.68 -1584.97 1193.64 
-1763.56 -1584.12 1193.86 
-1756.21 -1585.89 1193.46 
-1756.77 -1586.05 1193.06 
-1757.49 -1586.09 1192.71 
-1760.59 -1585.32 1192.43 
-1760.64 -1585.5 1192.27 
-1759.14 -1585.86 1192.41 
-1758.18 -1586.14 1192.42 
-1762.39 -1584.03 1192.45 
-1760.71 -1585.59 1192.15 
-1763.16 -1582.79 1193.44 
-1763.16 -1582.85 1193.63 
-1755.62 -1585.86 1193.79 
-1763.47 -1583.5 1193.82 
-1763.13 -1583.11 1193.78 
-1762.73 -1594.25 1190.87 
-1762.56 -1594.42 1190.59 
-1761.09 -1595.36 1190.25 
-1764.24 -1593.79 1188.66 
-1762.87 -1594.57 1188.97 
-1760.95 -1595.36 1189.2 
-1762.64 -1594.72 1188.89 
-1760.71 -1595.68 1189.67 
-1755.44 -1585.96 1193.8 
-1753.78 -1583.83 1195.64 
-1753.85 -1584.45 1195.23 
-1753.87 -1585.55 1194.54 
-1754 -1586.1 1194.15 
-1754.27 -1587.07 1193.4 
-1754.44 -1586.86 1193.47 
-1754.71 -1586.75 1193.43 
-1755.01 -1586.72 1193.32 
-1755.16 -1586.6 1193.34 
-1755.38 -1586.28 1193.5 
-1755.87 -1586.78 1192.88 
-1760.06 -1595.54 1191.17 
-1760.38 -1595.56 1190.89 
-1762 -1594.59 1191.14 
-1755.03 -1583.56 1195.3 
-1753.58 -1584 1195.61 
-1753.65 -1582.92 1196.3 
-1754.26 -1584.04 1195.27 
-1763.34 -1584.33 1194.21 
-1761.53 -1585.28 1193.65 
-1761.12 -1585.79 1193.33 
-1760.26 -1586.26 1192.97 
-1756.83 -1585.63 1193.27 
-1762.31 -1584.1 1194.25 
-1763.1 -1583.78 1194.15 
-1762.94 -1583.58 1194.54 
-1761.56 -1585.48 1193.04 
-1755.33 -1586.32 1193.22 
-1754.76 -1585.21 1194.26 
-1755.6 -1595.27 1192.89 
-1755.63 -1595.56 1192.19 
-1756.8 -1595.68 1191.6 
-1757.89 -1596.27 1191.17 
-1758.31 -1596.72 1190.12 
-1757.87 -1596.85 1190.38 
-1758.64 -1596.46 1189.99 
-1757.43 -1596.21 1191.42 
-1756.72 -1596.33 1191.31 
-1742.23 -1597.04 1193.6 
-1742.04 -1597.29 1193.38 
-1742.04 -1597.06 1192.72 
-1742.57 -1596.55 1193.17 
-1742.17 -1597.13 1193.14 
-1742.33 -1597.02 1193.02 
-1742.82 -1596.59 1192.94 
-1742.57 -1596.7 1193.01 
-1743.18 -1596.54 1192.88 
-1744.38 -1596.32 1192.56 
-1743.83 -1596.58 1192.62 
-1743.32 -1596.73 1192.72 
-1744.74 -1596.45 1192.35 
-1745.49 -1596.01 1192.69 
-1746.24 -1595.81 1192.68 
-1749.97 -1595.19 1192.34 
-1749.62 -1595.46 1192.03 
-1748.56 -1595.19 1192.26 
-1752.66 -1595.23 1192.41 
-1747.56 -1595.27 1192.36 
-1746.73 -1595.86 1192.3 
-1739.53 -1607.87 1211.08 
-1739.15 -1607.28 1211.4 
-1740.99 -1610.01 1210.46 
-1739.18 -1607.74 1211.47 
-1739.32 -1608.39 1211.45 
-1742.25 -1611.06 1209.78 
-1742.79 -1611.64 1209.2 
-1742.46 -1611.67 1209.57 
-1739.29 -1603.86 1211.91 
-1739.22 -1603.96 1212.04 
-1739.16 -1604.54 1211.87 
-1739.01 -1604.92 1211.85 
-1739.31 -1603.42 1212.07 
-1738.85 -1605.3 1211.84 
-1738.88 -1605.81 1211.72 
-1738.91 -1606.23 1211.64 
-1738.94 -1606.72 1211.62 
-1743.56 -1610.15 1204.4 
-1743.55 -1610.54 1204.67 
-1742.93 -1607.01 1204.33 
-1742.66 -1606.9 1202.21 
-1742.9 -1607.19 1204.15 
-1743.01 -1608.18 1202.08 
-1742.74 -1607.37 1201.69 
-1743.18 -1608.73 1201.54 
-1738.79 -1602.28 1213.26 
-1738.91 -1602.36 1213.08 
-1739.09 -1602.54 1212.81 
-1739.14 -1602.95 1212.58 
-1739.23 -1603.23 1212.32 
-1738.98 -1602.63 1212.91 
-1743.55 -1607.1 1204.34 
-1745.76 -1604.05 1204.32 
-1744.83 -1605.55 1204.12 
-1743.32 -1606.77 1204.05 
-1745.49 -1603.7 1203.64 
-1743.23 -1602.15 1198.89 
-1744.55 -1603.46 1201.94 
-1742.62 -1605.51 1202.68 
-1742.87 -1605.51 1203.28 
-1742.86 -1600.55 1196.72 
-1742.68 -1600.33 1195.83 
-1742.33 -1599 1195.54 
-1742.49 -1599.59 1195.68 
-1742.08 -1598.72 1194.94 
-1741.76 -1598.53 1194.21 
-1741.86 -1597.58 1193.44 
-1741.64 -1598.52 1193.88 
-1741.64 -1598.19 1193.66 
-1741.61 -1598.07 1193.42 
-1737.81 -1606.48 1215.7 
-1737.8 -1606.12 1215.94 
-1738.06 -1608.78 1215.97 
-1737.97 -1608.19 1215.72 
-1737.78 -1607.15 1215.37 
-1739.18 -1611.04 1216.08 
-1738.86 -1610.68 1216.09 
-1739.45 -1611.34 1216.05 
-1737.73 -1605.69 1215.59 
-1737.81 -1605.11 1215.47 
-1737.82 -1602.53 1214.24 
-1738.19 -1602.36 1213.92 
-1738.5 -1602.31 1213.58 
-1737.79 -1604.2 1214.96 
-1737.82 -1603.91 1214.82 
-1737.87 -1603.59 1214.73 
-1737.89 -1603.32 1214.63 
-1737.69 -1604.49 1214.91 
-1737.72 -1604.77 1215.08 
-1737.9 -1602.77 1214.27 
-1737.84 -1603.25 1214.49 
-1737.75 -1603.15 1214.34 
-1745.19 -1614.77 1213.16 
-1744.46 -1614.93 1210.7 
-1743.59 -1614.93 1210.87 
-1745.33 -1614.66 1213.96 
-1745.66 -1614.13 1216.12 
-1742.62 -1612.47 1217.36 
-1739.74 -1611.63 1216.03 
-1739.76 -1611.99 1215.66 
-1745.13 -1614.5 1213.5 
-1745.2 -1614.36 1214.06 
-1745.34 -1614.25 1214.79 
-1745.44 -1614.13 1215.38 
-1742.96 -1614.66 1211.47 
-1742.43 -1614.04 1211.98 
-1742.78 -1614.26 1211.65 
-1743.21 -1614.51 1211.24 
-1741.89 -1613.76 1212.51 
-1741.07 -1613.35 1213.34 
-1740.15 -1612.46 1214.61 
-1739.52 -1612.03 1215.21 
-1739.16 -1611.45 1215.77 
-1739.46 -1611.72 1215.72 
-1740.51 -1612.69 1213.98 
-1740.75 -1612.99 1213.69 
-1743.48 -1616.15 1198.5 
-1745.06 -1617.17 1201.26 
-1744.04 -1616.25 1199.26 
-1743.77 -1616.58 1198.13 
-1743.19 -1615.72 1197.77 
-1742.94 -1615.32 1197.14 
-1742.84 -1615.09 1197.71 
-1742.71 -1614.6 1197.52 
-1745.69 -1617.69 1200.69 
-1747.18 -1618.88 1196.56 
-1747.44 -1619 1197.57 
-1747.93 -1619.25 1196.33 
-1748.5 -1619.58 1195.79 
-1748.66 -1619.76 1195.87 
-1746.96 -1618.71 1197.29 
-1746.83 -1618.58 1198.11 
-1746.34 -1618.18 1199.23 
-1743.37 -1611.92 1201.7 
-1742.74 -1613.22 1198.13 
-1742.67 -1614.18 1197.4 
-1742.65 -1613.58 1197.36 
-1739.43 -1609.56 1211.97 
-1738.89 -1608.73 1212.26 
-1738.41 -1608.02 1212.56 
-1738.26 -1608.06 1212.82 
-1738.23 -1607.98 1212.95 
-1738.16 -1607.8 1213.11 
-1740.92 -1611.18 1210.87 
-1743.55 -1610.95 1202.31 
-1737.89 -1607.24 1213.55 
-1737.99 -1607.06 1213.27 
-1737.71 -1607.37 1214.39 
-1737.72 -1607.12 1214.1 
-1737.81 -1607.78 1214.85 
-1737.9 -1608.02 1215.3 
-1737.72 -1606.5 1213.71 
-1737.67 -1606.45 1213.97 
-1755.97 -1586.14 1193.36 
-1756.6 -1586.34 1192.93 
-1757.36 -1586.28 1192.63 
-1759.01 -1586.1 1192.28 
-1757.99 -1586.42 1192.29 
-1762.56 -1584 1192.44 
-1760.86 -1585.68 1192.02 
-1758.82 -1586.37 1192.15 
-1762.87 -1583.06 1193.52 
-1762.73 -1583.78 1192.65 
-1763.14 -1583.07 1194.1 
-1762.95 -1582.75 1194.05 
-1760.72 -1595.47 1190.61 
-1760.24 -1595.85 1190.02 
-1761.5 -1595.03 1188.55 
-1760.22 -1595.92 1189.66 
-1760.31 -1595.79 1189.26 
-1760.24 -1595.45 1188.78 
-1760.54 -1595.13 1188.41 
-1762.08 -1594.73 1187.59 
-1762.87 -1594.66 1188.3 
-1762.77 -1594.65 1187.52 
-1762.25 -1594.54 1186.18 
-1763.5 -1594.36 1186.65 
-1761.9 -1594.49 1186.3 
-1755.75 -1586.39 1193.27 
-1753.53 -1585.2 1194.89 
-1753.64 -1585.9 1194.41 
-1753.69 -1587.06 1193.66 
-1754.14 -1587.31 1193.28 
-1755.47 -1587.69 1192.31 
-1755.72 -1587.57 1192.28 
-1755.75 -1587.38 1192.42 
-1756.41 -1587.38 1192.1 
-1756.38 -1587.14 1192.33 
-1756.3 -1586.64 1192.84 
-1756.56 -1586.97 1192.4 
-1758.96 -1596.29 1189.82 
-1759.64 -1596.05 1190.03 
-1753.39 -1584.03 1195.67 
-1753.21 -1583.35 1196.35 
-1753.8 -1584.26 1195.4 
-1753.31 -1585.16 1195 
-1754.23 -1585.33 1194.5 
-1761.21 -1585.9 1192.83 
-1760.77 -1586.49 1192.38 
-1760.78 -1586.29 1192.89 
-1759.16 -1586.48 1192.42 
-1758.14 -1585.77 1193.03 
-1756.79 -1586.38 1192.5 
-1756.13 -1587.1 1192.31 
-1762.59 -1583.28 1194.5 
-1762.17 -1584.61 1193.54 
-1761.92 -1585.21 1192.84 
-1761.59 -1585.67 1192.45 
-1762.96 -1583.14 1194.38 
-1761.26 -1586.05 1192.3 
-1754.77 -1586.55 1193.45 
-1755.5 -1587.5 1192.44 
-1755.34 -1595.98 1191.81 
-1752.47 -1595.54 1191.95 
-1756.12 -1596.24 1191.4 
-1757.54 -1596.78 1190.77 
-1758.51 -1596.99 1189.52 
-1757.97 -1597.31 1189.87 
-1757.61 -1597.38 1190.01 
-1758.74 -1596.67 1189.53 
-1756.97 -1596.81 1190.83 
-1756.35 -1596.97 1190.73 
-1755.93 -1596.7 1191.01 
-1741.75 -1597.7 1193.21 
-1741.92 -1597.5 1193.12 
-1742.07 -1597.45 1192.95 
-1742.27 -1597.3 1192.81 
-1742.48 -1596.98 1192.85 
-1742.65 -1596.87 1192.77 
-1742.95 -1596.8 1192.75 
-1744.12 -1596.83 1192.29 
-1743.4 -1596.95 1192.54 
-1743.05 -1597 1192.58 
-1745.3 -1596.43 1192.29 
-1744.66 -1596.91 1192 
-1745.85 -1596.4 1192.2 
-1749.47 -1595.82 1191.7 
-1752.24 -1595.86 1191.6 
-1748.84 -1595.47 1191.98 
-1747.79 -1595.48 1192.06 
-1746.56 -1596.28 1191.96 
-1738.94 -1607.4 1211.73 
-1741.01 -1610.69 1210.71 
-1739.42 -1608.89 1211.54 
-1738.91 -1607.7 1211.8 
-1738.86 -1608.03 1211.95 
-1739.25 -1603.47 1212.22 
-1739.07 -1603.55 1212.4 
-1739.08 -1604.21 1212.1 
-1738.92 -1604.64 1212.06 
-1738.72 -1605.15 1212.02 
-1738.68 -1605.64 1211.92 
-1738.68 -1606.1 1211.9 
-1738.76 -1606.85 1211.91 
-1742.34 -1606.24 1203.67 
-1742.52 -1606.33 1201.93 
-1742.58 -1605.66 1201.53 
-1742.61 -1604.88 1199.09 
-1742.28 -1602.71 1197.26 
-1743.03 -1605.33 1199.17 
-1742.82 -1605.07 1199.19 
-1743.23 -1608.39 1200 
-1742.26 -1604.13 1196.41 
-1742.21 -1603.75 1196.74 
-1738.55 -1602.44 1213.45 
-1738.73 -1602.51 1213.22 
-1738.87 -1602.76 1213 
-1739.05 -1603.09 1212.66 
-1738.63 -1602.65 1213.28 
-1744.41 -1605.29 1203.58 
-1744.47 -1604.1 1202.37 
-1742.79 -1602.31 1198.03 
-1742.94 -1604.99 1200.87 
-1742.36 -1600.22 1195.25 
-1742.39 -1600.78 1195.52 
-1742.58 -1600.92 1195.95 
-1742.16 -1599.45 1195.13 
-1741.95 -1598.95 1194.75 
-1741.65 -1598.83 1194.08 
-1741.57 -1598.05 1193.23 
-1741.57 -1598.83 1193.83 
-1741.6 -1598.52 1193.72 
-1741.58 -1598.37 1193.54 
-1741.56 -1598.43 1193.37 
-1737.65 -1606.36 1215.13 
-1737.64 -1606.11 1215.39 
-1737.67 -1606.95 1214.9 
-1737.56 -1605.78 1215.19 
-1737.63 -1605.27 1215.08 
-1738.04 -1602.55 1214.07 
-1737.89 -1602.9 1214.19 
-1738.26 -1602.57 1213.81 
-1737.69 -1604.23 1214.75 
-1737.74 -1603.93 1214.66 
-1737.79 -1603.62 1214.57 
-1737.57 -1604.61 1214.69 
-1737.58 -1604.99 1214.85 
-1737.78 -1603.46 1214.38 
-1737.83 -1603.26 1214.22 
-1744.39 -1614.69 1210.95 
-1743.59 -1614.73 1210.87 
-1745.53 -1614.01 1216 
-1744.31 -1613.2 1216.95 
-1740.99 -1612.79 1216.21 
-1739.85 -1612.3 1215.21 
-1744.29 -1614.3 1211.21 
-1744.33 -1614.5 1210.83 
-1745.03 -1614.18 1213.77 
-1745.11 -1614.05 1214.33 
-1745.26 -1613.94 1215.1 
-1742.7 -1613.9 1211.73 
-1743.17 -1614.15 1211.29 
-1743.47 -1614.39 1211 
-1742.05 -1613.57 1212.38 
-1741.19 -1613.18 1213.25 
-1740.59 -1612.69 1214.79 
-1740.73 -1612.68 1213.76 
-1740.99 -1612.87 1213.48 
-1743.58 -1616.28 1197.77 
-1744.56 -1616.79 1199.7 
-1745.53 -1617.31 1200.19 
-1744.15 -1616.82 1198.13 
-1744.02 -1616.92 1197.36 
-1743.67 -1616.4 1197.17 
-1743.27 -1615.82 1197.09 
-1742.71 -1614.82 1196.84 
-1742.94 -1615.1 1196.65 
-1743.08 -1615.34 1196.85 
-1742.61 -1613.95 1196.77 
-1742.62 -1614.27 1196.4 
-1746.2 -1618.35 1196.32 
-1746.43 -1618.43 1195.86 
-1748.33 -1619.42 1195.68 
-1747.64 -1619.06 1195.93 
-1745.98 -1618.31 1196.89 
-1745.5 -1618.3 1197.59 
-1745.07 -1618.07 1198.45 
-1742.98 -1612.01 1199.12 
-1742.72 -1612.64 1197.45 
-1742.63 -1613.35 1196.92 
-1739.55 -1609.32 1211.66 
-1738.86 -1608.39 1212.09 
-1738.55 -1607.81 1212.32 
-1738.36 -1607.89 1212.64 
-1738.26 -1607.68 1212.83 
-1738.07 -1606.73 1213.07 
-1743.12 -1609.02 1199.57 
-1737.77 -1606.2 1213.47 
-1737.85 -1605.87 1213.29 
-1737.62 -1606.71 1214.52 
-1737.63 -1606.47 1214.26 
-1737.56 -1605.94 1213.95 
-1737.59 -1605.71 1213.7 
-1737.52 -1606.12 1214.22 
-1757.19 -1586.56 1192.5 
-1757.85 -1586.73 1192.12 
-1760.94 -1585.78 1191.91 
-1758.86 -1586.52 1192.05 
-1762.43 -1584.7 1192.13 
-1761.26 -1585.68 1191.8 
-1762.52 -1584.02 1193.04 
-1762.95 -1582.82 1194.27 
-1759.54 -1596.2 1189.53 
-1761.35 -1594.83 1187.65 
-1759.86 -1596.19 1189.3 
-1759.98 -1596.14 1188.96 
-1759.92 -1595.74 1188.68 
-1759.84 -1595.34 1188.23 
-1760.07 -1595.12 1187.78 
-1760.56 -1594.98 1187.82 
-1761.25 -1594.27 1186.34 
-1761.49 -1594.26 1186.14 
-1761.69 -1594.18 1185.3 
-1762.65 -1594.54 1185.94 
-1761.78 -1594.17 1185.06 
-1762.77 -1594.54 1185.55 
-1761.4 -1593.97 1185.32 
-1761.21 -1593.9 1185.47 
-1761.94 -1594.16 1184.8 
-1762.93 -1594.53 1185.26 
-1762.87 -1594.51 1184.93 
-1762.16 -1594.07 1184.51 
-1762.88 -1594.54 1184.68 
-1763.16 -1594.46 1182.3 
-1762.43 -1593.93 1182.39 
-1763.14 -1594.57 1182.38 
-1762.73 -1593.72 1182.05 
-1762.64 -1593.74 1182.14 
-1763.27 -1594.27 1182.21 
-1753.25 -1586.39 1194.27 
-1753.46 -1587.22 1193.65 
-1754.75 -1587.8 1192.58 
-1755.83 -1587.98 1191.89 
-1757.1 -1587.99 1191.23 
-1756.84 -1588.08 1191.28 
-1757.07 -1587.79 1191.43 
-1757.34 -1587.67 1191.41 
-1757.24 -1587.41 1191.71 
-1757.19 -1587.21 1191.94 
-1757.07 -1586.83 1192.35 
-1757.35 -1587.25 1191.85 
-1759.05 -1596.49 1189.4 
-1752.82 -1583.97 1196.24 
-1753.16 -1584.82 1195.27 
-1753.65 -1585.19 1194.93 
-1753.05 -1586.19 1194.47 
-1754.16 -1586.45 1193.86 
-1760.95 -1586.38 1192.22 
-1760.05 -1587.32 1191.37 
-1759.93 -1587.32 1191.49 
-1759.59 -1586.9 1191.98 
-1757.34 -1587.19 1191.7 
-1756.67 -1587.54 1191.73 
-1756.29 -1588.33 1191.41 
-1755.91 -1588.43 1191.55 
-1762.67 -1583.1 1194.15 
-1762.24 -1584.67 1193.11 
-1761.82 -1585.52 1192.27 
-1760.64 -1586.58 1191.6 
-1760.5 -1586.72 1191.59 
-1760.27 -1587.08 1191.47 
-1760.42 -1586.9 1191.52 
-1754.67 -1587.62 1192.85 
-1755.3 -1588.47 1191.86 
-1755.13 -1596.37 1191.28 
-1757.22 -1597.32 1190.3 
-1758.86 -1596.93 1189.19 
-1758.26 -1597.56 1189.4 
-1758.63 -1597.51 1188.99 
-1757.82 -1597.92 1189.62 
-1757.42 -1597.96 1189.75 
-1756.65 -1597.42 1190.28 
-1755.75 -1597.26 1190.53 
-1756.12 -1597.65 1190.14 
-1755.01 -1596.86 1190.81 
-1741.64 -1598.02 1193.04 
-1741.82 -1597.79 1192.96 
-1741.88 -1597.91 1192.8 
-1742.07 -1597.64 1192.76 
-1742.18 -1597.63 1192.61 
-1742.42 -1597.26 1192.64 
-1742.72 -1597.03 1192.6 
-1743.56 -1597.17 1192.3 
-1744.07 -1597.27 1191.97 
-1743.14 -1597.23 1192.36 
-1742.83 -1597.23 1192.42 
-1745.09 -1596.93 1191.86 
-1744.53 -1597.4 1191.66 
-1745.62 -1596.93 1191.71 
-1752.1 -1596.25 1191.22 
-1749.19 -1596.11 1191.41 
-1748.58 -1595.64 1191.76 
-1747.5 -1596.04 1191.73 
-1746.6 -1596.7 1191.54 
-1738.75 -1607.63 1212.03 
-1738.66 -1607.27 1212.12 
-1738.36 -1603.35 1213.05 
-1738.82 -1603.96 1212.42 
-1738.69 -1604.45 1212.33 
-1738.38 -1604.79 1212.41 
-1738.51 -1605.4 1212.11 
-1738.41 -1605.64 1212.23 
-1738.52 -1606.43 1212.19 
-1742.42 -1602.63 1197.58 
-1742.19 -1602.99 1197.07 
-1742.01 -1601.23 1195.66 
-1742.03 -1600.99 1195.34 
-1742.19 -1603.49 1197.11 
-1743.4 -1606.45 1198.84 
-1742.35 -1604.78 1196.12 
-1741.72 -1602.37 1194.88 
-1741.59 -1601.93 1195.09 
-1741.79 -1601.86 1195.46 
-1738.34 -1602.62 1213.6 
-1738.51 -1602.81 1213.37 
-1738.69 -1602.93 1213.08 
-1738.13 -1602.79 1213.75 
-1742.06 -1600.12 1194.86 
-1742.04 -1600.7 1195.04 
-1741.84 -1599.81 1194.56 
-1741.8 -1599.23 1194.51 
-1741.57 -1599.13 1194.01 
-1741.57 -1598.38 1193.16 
-1741.56 -1599.13 1193.77 
-1741.55 -1598.73 1193.61 
-1741.57 -1598.8 1193.43 
-1741.59 -1598.77 1193.24 
-1737.52 -1606.26 1214.71 
-1737.45 -1606 1214.85 
-1737.54 -1605.57 1214.65 
-1737.87 -1602.8 1214.02 
-1737.88 -1603.1 1214.05 
-1737.59 -1604.32 1214.58 
-1737.66 -1603.99 1214.52 
-1737.71 -1603.81 1214.37 
-1737.46 -1605.15 1214.63 
-1737.49 -1604.69 1214.44 
-1737.78 -1603.66 1214.14 
-1738 -1603.32 1213.87 
-1741.3 -1612.94 1215.26 
-1744.19 -1613.25 1216.39 
-1745.04 -1613.77 1215.07 
-1744.23 -1614.13 1210.99 
-1743.36 -1614 1211.11 
-1744.2 -1613.94 1211.57 
-1744.96 -1613.87 1214.1 
-1742.94 -1613.73 1211.53 
-1741.96 -1613.31 1212.51 
-1741.03 -1612.62 1213.48 
-1741.64 -1612.98 1212.85 
-1744.8 -1617.61 1199.39 
-1744.34 -1617.28 1198.32 
-1744.3 -1617.33 1197.5 
-1744.4 -1617.32 1196.92 
-1743.86 -1616.52 1196.97 
