-1736.17 -1682.95 1078.4 
-1737.41 -1681.94 1082.38 
-1736.75 -1682.04 1080.95 
-1735.87 -1682.31 1079.01 
-1737.4 -1681.72 1083.01 
-1737.65 -1681.32 1083.73 
-1737.5 -1708.99 1092.84 
-1737.12 -1708.73 1092.75 
-1736.73 -1708.32 1092.59 
-1736.49 -1707.82 1092.36 
-1742.46 -1710.73 1098.08 
-1742.27 -1712.23 1089.62 
-1739.34 -1709.79 1094.77 
-1738.41 -1709.45 1093.96 
-1737.93 -1709.23 1093.06 
-1740.68 -1711.45 1086.81 
-1741.01 -1711.61 1087.71 
-1741.53 -1711.9 1088.66 
-1740.41 -1711.74 1083.83 
-1740.38 -1711.65 1084.53 
-1740.4 -1711.48 1085.53 
-1740.44 -1711.36 1086.27 
-1740.31 -1712.43 1083.22 
-1740.18 -1713.11 1082.52 
-1740.15 -1712.48 1082.78 
-1740.33 -1714.15 1082.11 
-1740.12 -1713.5 1081.84 
-1740.22 -1711.75 1083.51 
-1740.65 -1724.07 1083.87 
-1741.09 -1723.74 1084.74 
-1740.28 -1723.74 1082.95 
-1740.23 -1720.3 1082.38 
-1740.37 -1716.57 1081.99 
-1740.3 -1715.68 1081.83 
-1744.53 -1724.7 1091.8 
-1742.93 -1727.52 1087.93 
-1744.75 -1725.62 1091 
-1741.03 -1728.36 1085.4 
-1740.89 -1728.31 1084.4 
-1740.97 -1727.45 1084.66 
-1741.12 -1727.68 1083.63 
-1740.97 -1727.03 1083.76 
-1740.61 -1726.41 1083.91 
-1740.41 -1725.83 1083.92 
-1740.6 -1724.98 1084.14 
-1734.53 -1694.51 1094.68 
-1735.1 -1694.21 1095.02 
-1736.14 -1693.92 1095.89 
-1734.23 -1694.76 1094.61 
-1734.06 -1695.43 1095.09 
-1734.2 -1694.96 1094.36 
-1736.55 -1706.36 1093.2 
-1737.94 -1701.99 1095.52 
-1737.55 -1702.61 1094.61 
-1737.15 -1704.41 1094.2 
-1736.3 -1706.1 1092.72 
-1738.04 -1701.11 1095.91 
-1737.32 -1698.52 1096.85 
-1735.17 -1696.55 1096.06 
-1738.14 -1699.84 1096.98 
-1738.07 -1700.07 1096.26 
-1736.14 -1706.97 1092.23 
-1736.08 -1707.02 1091.86 
-1736.22 -1707.32 1092.02 
-1736.11 -1706.96 1092.34 
-1736.26 -1706.8 1092.7 
-1736.22 -1706.63 1092.66 
-1745.32 -1661.47 1086.57 
-1745.3 -1661.63 1085.12 
-1745.88 -1661.26 1085.19 
-1744.54 -1661.82 1085.53 
-1744.19 -1661.67 1086.98 
-1742.62 -1663.59 1085.95 
-1743.26 -1663.19 1085.11 
-1742.39 -1663.87 1087.87 
-1733.45 -1669.78 1080.71 
-1733.18 -1670.85 1080.83 
-1732.87 -1670.44 1080.39 
-1733.04 -1670.11 1080.46 
-1733.7 -1669.33 1080.76 
-1734.13 -1668.8 1081.02 
-1736.13 -1668.28 1083.05 
-1736.11 -1668.05 1082.74 
-1738.4 -1667.45 1084.86 
-1739.16 -1667.12 1085.11 
-1740.57 -1666.39 1085.91 
-1741.16 -1665.19 1086.7 
-1740.68 -1665.3 1085.51 
-1740.22 -1665.71 1085.36 
-1739.03 -1666.4 1084.68 
-1739.74 -1666.2 1085.17 
-1738.81 -1679.03 1086.16 
-1736.77 -1677.19 1084.72 
-1738.45 -1680.15 1085.14 
-1734.72 -1673.41 1082.65 
-1733.77 -1672.3 1081.5 
-1733.26 -1671.41 1080.92 
-1733.01 -1670.97 1080.58 
-1735.35 -1675.41 1083.21 
-1737.87 -1680.65 1084.54 
-1735.84 -1693.14 1095.06 
-1735.2 -1692.64 1093.87 
-1733.93 -1691.7 1091.7 
-1733.99 -1690.87 1090.88 
-1734.61 -1689.97 1090.45 
-1734.88 -1688.97 1090.72 
-1737.38 -1688.85 1090.9 
-1737.49 -1686.53 1088.8 
-1734.73 -1689.51 1090.46 
-1734.59 -1689.85 1090.26 
-1734.17 -1692.33 1092.37 
-1736.7 -1686.62 1088.79 
-1735.71 -1687.34 1089.34 
-1735.69 -1687.52 1089.03 
-1735.7 -1687.67 1088.7 
-1735.84 -1687.91 1087.84 
-1734.47 -1688.83 1089.59 
-1734.28 -1689.37 1089.38 
-1734.3 -1689.09 1088.98 
-1736.17 -1687.73 1086.91 
-1735.66 -1687.95 1083.31 
-1736.19 -1686.5 1078.87 
-1735.73 -1686.84 1076.81 
-1735.84 -1686.55 1076.6 
-1735.38 -1686.23 1073.16 
-1735.26 -1685.4 1071.18 
-1735.13 -1685.74 1071.56 
-1735.04 -1686.06 1071.94 
-1735.54 -1684.91 1070.96 
-1735.69 -1684.56 1071.04 
-1735.85 -1684.18 1071.24 
-1736.79 -1682.94 1073 
-1736.03 -1683.82 1071.56 
-1736.19 -1683.4 1071.59 
-1736.65 -1682.37 1074.31 
-1736.91 -1682.39 1073.05 
-1736.57 -1682.54 1076.38 
-1735.88 -1682.66 1078.05 
-1736.56 -1681.61 1081.53 
-1735.87 -1681.68 1080.04 
-1735.57 -1681.96 1078.78 
-1736.75 -1681.41 1082.68 
-1737.19 -1681.16 1083.72 
-1737.35 -1709.01 1092.33 
-1736.88 -1708.71 1091.99 
-1736.77 -1708.46 1092 
-1736.43 -1707.89 1091.95 
-1736.08 -1707.31 1091.64 
-1742.26 -1711.06 1096.36 
-1741.82 -1711.91 1089.61 
-1743.6 -1712.45 1092.18 
-1742.66 -1712.08 1091.1 
-1738.99 -1710.12 1093.86 
-1738.35 -1709.83 1093.45 
-1737.97 -1709.5 1092.56 
-1737.54 -1709.19 1092.22 
-1740.3 -1711.11 1087.13 
-1740.03 -1711 1086.57 
-1740.39 -1711.1 1087.84 
-1740.94 -1711.47 1088.45 
-1739.99 -1711.07 1083.94 
-1739.96 -1711.17 1084.44 
-1739.88 -1711.15 1085 
-1739.9 -1711.01 1085.94 
-1740.04 -1711.8 1083.09 
-1740.22 -1712.93 1082.04 
-1740.23 -1712.14 1082.18 
-1740.1 -1714.26 1081.33 
-1740.2 -1713.77 1080.74 
-1740.21 -1713.45 1081.41 
-1739.92 -1711.11 1083.44 
-1740.2 -1724.91 1083.15 
-1739.85 -1724.03 1082.16 
-1740.12 -1719.98 1081.77 
-1739.84 -1723.25 1081.67 
-1740.06 -1719.64 1081.14 
-1740.25 -1716.28 1080.99 
-1743.35 -1728.18 1087.39 
-1741.4 -1729.1 1085.12 
-1741.14 -1729.09 1084.1 
-1740.96 -1728.99 1083.34 
-1741.02 -1728.26 1083.64 
-1741.07 -1728.41 1082.63 
-1740.86 -1727.66 1082.81 
-1740.56 -1726.97 1083.01 
-1740.24 -1726.48 1083.08 
-1740.05 -1725.81 1083 
-1733.91 -1693.97 1093.37 
-1733.97 -1694.33 1093.36 
-1734.68 -1693.59 1094.1 
-1734.1 -1694.63 1093.53 
-1734.08 -1695.69 1094.82 
-1734.31 -1695.19 1094.21 
-1733.76 -1694.79 1092.72 
-1736.18 -1706.48 1092.62 
-1737.52 -1702.07 1094.13 
-1737.64 -1701.47 1094.48 
-1737.12 -1701.72 1092.94 
-1736.85 -1704.25 1093.16 
-1737.15 -1702.76 1093.2 
-1736.07 -1706.28 1092.22 
-1736.25 -1705.59 1092.14 
-1737.84 -1700.71 1095.05 
-1736.8 -1698.38 1096.16 
-1734.59 -1696.64 1095.55 
-1737.77 -1699.8 1095.28 
-1736.43 -1698.19 1095.59 
-1735.97 -1707.03 1091.34 
-1735.91 -1706.9 1091.4 
-1736 -1706.83 1091.81 
-1736.04 -1706.67 1092.23 
-1735.88 -1707.2 1091.87 
-1743.77 -1663.05 1084.34 
-1744.81 -1662.09 1084.6 
-1741.44 -1664.71 1085.74 
-1741.34 -1664.88 1084.68 
-1742.16 -1664.38 1084.52 
-1742.59 -1664.23 1083.76 
-1732.74 -1669.99 1080.02 
-1733.1 -1669.71 1080.38 
-1732.81 -1670.67 1080.31 
-1732.5 -1670.25 1079.73 
-1732.43 -1670.56 1079.65 
-1733.54 -1669.19 1080.58 
-1734.1 -1668.6 1080.84 
-1736.18 -1667.86 1082.45 
-1734.21 -1668.39 1080.63 
-1738.34 -1666.95 1084.4 
-1739.88 -1665.51 1084.61 
-1740.42 -1665.29 1084.67 
-1739.23 -1665.81 1084.43 
-1738.58 -1666.14 1083.73 
-1738.4 -1666.53 1083.99 
-1736.97 -1678.17 1084.52 
-1737.14 -1679.01 1084.43 
-1734.42 -1673.96 1082.14 
-1733.35 -1672.36 1080.87 
-1733.14 -1671.53 1080.73 
-1732.9 -1671.14 1080.39 
-1732.54 -1670.85 1079.87 
-1735.27 -1675.9 1082.96 
-1737.25 -1679.73 1084.67 
-1736.46 -1679.37 1083.6 
-1733.96 -1693.15 1092.88 
-1733.6 -1692.7 1092.13 
-1734.21 -1690.58 1090.26 
-1733.61 -1691.78 1091.28 
-1734.28 -1690.28 1089.89 
-1734.47 -1690.07 1090.16 
-1734.96 -1688.54 1090.99 
-1737.23 -1688.58 1090.55 
-1737.31 -1686.43 1088.96 
-1734.8 -1688.4 1090.46 
-1734.89 -1688.23 1090.72 
-1734.69 -1689.02 1090.39 
-1736.72 -1686.5 1089.09 
-1734.52 -1689.44 1090.09 
-1734.39 -1689.99 1089.9 
-1735.72 -1687.18 1089.66 
-1734.65 -1688.58 1090.17 
-1734.53 -1688.83 1089.89 
-1734.33 -1689.58 1089.73 
-1734.12 -1690.22 1089.56 
-1734.06 -1690.02 1089.17 
-1734.24 -1688.92 1087.91 
-1734.47 -1689.04 1083.98 
-1735.43 -1687.66 1080.32 
-1733.86 -1688.95 1080.33 
-1732.9 -1690.55 1080.87 
-1735.64 -1687.08 1079.02 
-1735.62 -1687.18 1076.81 
-1735.41 -1687.21 1075.44 
-1734.95 -1686.74 1073.35 
-1735.71 -1686.63 1075.32 
-1734.29 -1686.89 1072.67 
-1734.92 -1686.45 1072.43 
-1734.29 -1686.66 1072.13 
-1734.23 -1686.71 1071.99 
-1735.25 -1685.21 1070.71 
-1734.22 -1686.82 1072.45 
-1735.63 -1684.52 1070.61 
-1735.82 -1684.02 1070.7 
-1736.31 -1682.74 1071.41 
-1736.02 -1683.51 1070.84 
-1735.95 -1681.36 1072.01 
-1735.38 -1682.81 1070.83 
-1736.43 -1681.7 1076.03 
-1736.91 -1680.54 1073.5 
-1735.76 -1682.15 1078.04 
-1735.6 -1681.43 1080.37 
-1735.99 -1681.22 1081.43 
-1735.33 -1681.07 1079.47 
-1735.53 -1681.26 1078.87 
-1735.84 -1679.21 1082.71 
-1735.62 -1679.6 1082.06 
-1736.93 -1708.91 1091.52 
-1736.6 -1708.5 1091.11 
-1736.47 -1708.23 1091.22 
-1735.83 -1707.43 1092.02 
-1736 -1707.37 1090.91 
-1735.88 -1707.08 1090.92 
-1743.13 -1712 1092.93 
-1741.44 -1711.05 1094.15 
-1741.78 -1711.47 1091.28 
-1741.8 -1711.68 1090.4 
-1740.92 -1711.39 1089.17 
-1738.42 -1710.42 1092.73 
-1738.16 -1709.98 1092.58 
-1737.74 -1709.43 1091.68 
-1737.31 -1709.18 1091.49 
-1739.72 -1710.68 1087.07 
-1739.48 -1710.58 1086.57 
-1739.84 -1710.69 1087.73 
-1740.24 -1710.93 1088.62 
-1739.59 -1710.7 1084.49 
-1739.49 -1710.54 1084.09 
-1739.65 -1710.57 1083.64 
-1739.44 -1710.65 1084.89 
-1739.58 -1710.83 1085.44 
-1739.23 -1710.47 1086.14 
-1740.22 -1711.65 1082.46 
-1740.31 -1712.76 1081.38 
-1740.21 -1711.67 1081.5 
-1740.27 -1715.3 1080.5 
-1740.49 -1714 1079.63 
-1740.44 -1713.28 1080.34 
-1739.97 -1710.81 1082.8 
-1739.72 -1725.19 1082.24 
-1739.4 -1724.62 1081.42 
-1739.64 -1723.44 1081.03 
-1739.99 -1719.61 1080.53 
-1739.65 -1722.57 1080.5 
-1739.92 -1719.44 1080.01 
-1742.1 -1729.76 1085.19 
-1743.94 -1728.75 1086.98 
-1741.85 -1729.68 1084.28 
-1741.97 -1730.07 1083.26 
-1741.52 -1729.72 1083.03 
-1741.2 -1729.62 1082.3 
-1741.04 -1728.97 1082.59 
-1740.98 -1729.04 1081.72 
-1740.65 -1728.33 1081.74 
-1740.42 -1727.4 1082.19 
-1740.09 -1726.67 1082.39 
-1739.79 -1726.03 1082.26 
-1733.53 -1693.52 1092.68 
-1733.28 -1693.92 1091.99 
-1733.19 -1693.35 1091.55 
-1733.32 -1694.35 1091.91 
-1734.31 -1696.28 1094.88 
-1734.36 -1695.44 1094.02 
-1733.96 -1695.08 1093 
-1733.26 -1694.94 1091.36 
-1733.15 -1694.43 1090.78 
-1736.91 -1701.17 1092.74 
-1737.13 -1700.97 1093.68 
-1736.93 -1701.19 1092 
-1736.5 -1700.87 1091.09 
-1736.6 -1703.93 1092.12 
-1736.04 -1705.59 1091.8 
-1735.84 -1706.51 1091.77 
-1736.41 -1703.58 1091.56 
-1737.35 -1700.33 1094.28 
-1737.25 -1699.72 1094.85 
-1736.21 -1698.16 1095.24 
-1734.66 -1696.45 1094.58 
-1735.73 -1706.96 1090.66 
-1735.66 -1706.85 1091.02 
-1735.6 -1706.88 1090.78 
-1735.74 -1706.79 1091.23 
-1735.65 -1706.74 1091.26 
-1744.27 -1662.92 1083.39 
-1744.9 -1662.39 1083.51 
-1744.65 -1663.19 1082.19 
-1745.83 -1663.72 1080.28 
-1743.22 -1663.89 1083.19 
-1740.49 -1665.28 1083.86 
-1741.39 -1664.9 1083.53 
-1742.03 -1664.63 1082.76 
-1732.24 -1670.01 1079.2 
-1732.55 -1669.75 1079.59 
-1732.92 -1669.55 1080.09 
-1732.11 -1670.37 1079.03 
-1732.13 -1670.78 1079.15 
-1733.46 -1669.08 1080.45 
-1736.35 -1667.68 1082.23 
-1734.3 -1668.22 1080.35 
-1733.63 -1668.68 1080.1 
-1736.57 -1667.47 1082.06 
-1739.74 -1665.6 1083.69 
-1739.24 -1665.8 1083.73 
-1738.69 -1666.1 1083.27 
-1736.98 -1667.05 1081.6 
-1736.73 -1667.24 1081.8 
-1735.12 -1676.22 1082.66 
-1733.94 -1674.02 1081.39 
-1733.09 -1672.15 1080.52 
-1732.88 -1671.45 1080.32 
-1732.53 -1671.31 1079.8 
-1732.52 -1671.07 1079.82 
-1732.12 -1671.12 1079.17 
-1734.69 -1676.12 1082.17 
-1733.23 -1692.79 1091.43 
-1733.48 -1692.02 1090.99 
-1734.03 -1690.85 1089.99 
-1734.07 -1690.6 1089.68 
-1734.06 -1690.44 1089.47 
-1735.05 -1688.18 1091.26 
-1737.13 -1688.35 1090.36 
-1737.36 -1686.36 1089.27 
-1734.98 -1687.9 1090.97 
-1736.76 -1686.49 1089.37 
-1735.78 -1687.03 1089.94 
-1734.02 -1689.86 1088.52 
-1733.89 -1690.42 1088.79 
-1734.04 -1689.41 1087.51 
-1734.1 -1689.54 1084.25 
-1733.31 -1689.36 1079.95 
-1734.58 -1687.81 1078.93 
-1733.08 -1689.41 1079.46 
-1732.72 -1690.4 1080.52 
-1733.19 -1690.45 1083.78 
-1735.23 -1687.52 1076.95 
-1735.17 -1687.73 1074.94 
-1735 -1687.22 1073.56 
-1734.48 -1687.51 1073.94 
-1734.69 -1687.44 1073.71 
-1734.16 -1687.6 1074.29 
-1733.69 -1687.75 1074.41 
-1733.78 -1687.6 1074.36 
-1734.19 -1686.76 1071.9 
-1733.67 -1687.92 1074.43 
-1735.38 -1684.91 1070.24 
-1735.58 -1684.43 1070.14 
-1735.81 -1683.83 1070.27 
-1735.01 -1681.34 1070.83 
-1735.35 -1683.17 1070.22 
-1736.34 -1680.37 1075.42 
-1736.83 -1679.51 1073.65 
-1736.71 -1679.84 1072.91 
-1735.79 -1680.95 1077.76 
-1734.86 -1678.89 1080.66 
-1735.11 -1679.48 1080.15 
-1735.01 -1678.84 1081.24 
-1735.43 -1680.01 1079.63 
-1735.4 -1679.97 1078.67 
-1733.46 -1673.8 1080.43 
-1733.32 -1673.64 1079.96 
-1736.67 -1708.56 1090.87 
-1736.98 -1708.9 1090.95 
-1736.46 -1708.22 1090.42 
-1736.38 -1708.03 1090.67 
-1736.21 -1707.71 1090.7 
-1735.99 -1707.59 1090.1 
-1735.84 -1707.14 1090.28 
-1740.3 -1710.68 1092.37 
-1739.59 -1710.44 1090.94 
-1740.66 -1711.1 1089.73 
-1737.92 -1709.72 1091.54 
-1737.38 -1709.21 1090.9 
-1738.1 -1709.64 1088.27 
-1738.2 -1709.71 1088.83 
-1738 -1709.53 1087.83 
-1738.56 -1709.92 1089.32 
-1739 -1710.17 1089.83 
-1739.18 -1710.22 1083.58 
-1739.16 -1710.32 1084.23 
-1739.62 -1710.34 1082.82 
-1739.09 -1710.18 1085.03 
-1739.11 -1710.33 1085.65 
-1737.89 -1709.4 1087.43 
-1740.18 -1711.24 1081.85 
-1740.52 -1711.95 1080.22 
-1739.98 -1710.8 1080.18 
-1740.44 -1715.52 1079.56 
-1739.93 -1719.26 1079.49 
-1740.81 -1713.34 1078.54 
-1740.59 -1714.97 1078.7 
-1740.76 -1712.45 1079.12 
-1740.05 -1710.59 1082.02 
-1739.4 -1725.58 1081.44 
-1739.25 -1724.58 1080.75 
-1739.41 -1723.69 1080.24 
-1739.46 -1722.56 1079.87 
-1744.19 -1729.37 1086.42 
-1742.98 -1730.24 1085.31 
-1742.49 -1730.17 1084.63 
-1742.28 -1730.32 1083.41 
-1741.84 -1730.35 1082 
-1741.57 -1730.16 1081.73 
-1741.09 -1729.76 1081.35 
-1741.3 -1730.06 1081.29 
-1740.83 -1729.42 1081.08 
-1740.28 -1728.02 1081.32 
-1740.55 -1728.97 1080.97 
-1739.98 -1727 1081.69 
-1739.67 -1726.3 1081.61 
-1733.26 -1693.55 1090.78 
-1733.46 -1692.8 1090.17 
-1733.6 -1692.19 1089.91 
-1733.34 -1693.77 1089.5 
-1734.42 -1695.7 1093.95 
-1733.76 -1695.31 1092.46 
-1733.3 -1694.93 1088.96 
-1733.66 -1695.5 1090.38 
-1733.34 -1694.32 1087.9 
-1736.58 -1700.43 1091.86 
-1736.21 -1700.88 1090.13 
-1736.7 -1700.19 1092.75 
-1736.45 -1701.73 1090.84 
-1736.09 -1701.58 1089.56 
-1735.85 -1705.7 1091.4 
-1735.62 -1706.44 1091.23 
-1736.13 -1703.79 1090.91 
-1736.79 -1699.84 1093.56 
-1736.05 -1698.17 1094.94 
-1736.71 -1699.35 1094.31 
-1734.99 -1696.63 1094.21 
-1734.4 -1696.09 1093.4 
-1735.62 -1706.83 1090.28 
-1735.53 -1706.77 1090.41 
-1735.45 -1706.78 1090.7 
-1735.41 -1706.69 1090.38 
-1735.4 -1706.64 1090.76 
-1743.16 -1664.11 1082.29 
-1744 -1663.64 1081.96 
-1739.83 -1665.59 1082.95 
-1740.84 -1665.15 1082.66 
-1740.82 -1665.22 1081.74 
-1741.8 -1664.75 1081.81 
-1732.05 -1669.72 1078.76 
-1731.89 -1670.03 1078.55 
-1732.39 -1669.49 1079.21 
-1732.87 -1669.26 1079.78 
-1731.86 -1670.59 1078.59 
-1731.81 -1670.27 1078.43 
-1731.87 -1670.93 1078.68 
-1734.3 -1668.09 1080 
-1733.54 -1668.55 1079.68 
-1738.93 -1666.01 1082.86 
-1739.22 -1665.85 1082.74 
-1736.98 -1666.97 1081.3 
-1734.24 -1667.86 1079.26 
-1734.23 -1668 1079.6 
-1733.36 -1673.26 1080.59 
-1732.8 -1671.69 1080.17 
-1732.41 -1671.59 1079.55 
-1732.13 -1671.39 1079.15 
-1731.88 -1671.22 1078.71 
-1733.72 -1691.58 1089.69 
-1733.86 -1691.11 1089.72 
-1733.86 -1690.86 1089.19 
-1733.86 -1690.65 1088.94 
-1735.13 -1687.75 1091.5 
-1737.14 -1688.11 1090.26 
-1737.34 -1686.24 1089.61 
-1735.06 -1687.62 1091.23 
-1736.85 -1686.46 1089.63 
-1735.89 -1686.89 1090.21 
-1733.8 -1690.16 1087.47 
-1733.66 -1688.39 1078.68 
-1734.25 -1687.67 1077.09 
-1732.91 -1689.29 1079.31 
-1732.45 -1690.75 1081.76 
-1732.61 -1689.96 1080.14 
-1733.25 -1688.8 1078.68 
-1733.29 -1690.7 1084.8 
-1734.74 -1687.72 1074.82 
-1734.36 -1687.71 1075.06 
-1733.93 -1687.68 1075.19 
-1733.73 -1687.77 1075.29 
-1733.71 -1687.96 1075.31 
-1734.17 -1686.84 1071.89 
-1733.69 -1688.12 1075.11 
-1733.64 -1688.12 1074.28 
-1735.2 -1685.03 1069.86 
-1735.51 -1684.42 1069.72 
-1735.71 -1683.83 1069.88 
-1734.76 -1681.17 1070.38 
-1735.29 -1683.24 1069.8 
-1735.84 -1678.88 1075.03 
-1736.49 -1678.74 1074.02 
-1736.87 -1678.45 1073.02 
-1736.46 -1679.31 1072.57 
-1735.05 -1678.98 1076.84 
-1733.76 -1675.53 1080.08 
-1733.18 -1673.49 1079.53 
-1734.04 -1676.35 1079.66 
-1734.21 -1676.67 1078.84 
-1734.43 -1677.03 1077.63 
-1732.67 -1671.84 1079.88 
-1732.55 -1671.94 1079.51 
-1732.46 -1672.1 1079.17 
-1736.76 -1708.56 1090.23 
-1737.08 -1708.86 1090.47 
-1736.6 -1708.62 1089.68 
-1736.28 -1708.22 1089.96 
-1736.17 -1707.91 1090.21 
-1736.05 -1707.91 1089.65 
-1736 -1707.69 1089.59 
-1735.9 -1707.4 1089.6 
-1735.69 -1706.97 1089.72 
-1736.46 -1708.62 1089.27 
-1738.81 -1709.82 1083.84 
-1739.14 -1709.92 1083.04 
-1738.88 -1709.89 1084.55 
-1739.63 -1710.01 1082.34 
-1737.84 -1709.03 1086.64 
-1737.88 -1709.24 1087.03 
-1736.41 -1708.46 1089.01 
-1740.07 -1710.55 1080.86 
-1741.5 -1711.26 1075.49 
-1740.97 -1710.4 1077.38 
-1740.61 -1709.54 1078.46 
-1740.05 -1719.06 1078.86 
-1739.27 -1721.83 1079.75 
-1741.06 -1712.39 1077.53 
-1740.87 -1714.35 1077.7 
-1741.13 -1713.04 1077.01 
-1740.28 -1718.88 1077.93 
-1741.91 -1712.44 1074.44 
-1739.97 -1709.96 1081.39 
-1739.61 -1726.33 1081.09 
-1739.36 -1725.66 1080.93 
-1739.31 -1724.99 1080.4 
-1739.4 -1723.99 1079.84 
-1739.48 -1722.85 1079.28 
-1745.78 -1730.87 1085.42 
-1743.37 -1730.67 1084.53 
-1742.85 -1730.89 1083.58 
-1742.41 -1730.85 1082.34 
-1741.51 -1730.53 1080.95 
-1742.18 -1730.97 1081.29 
-1742.13 -1731.17 1080.73 
-1741.27 -1730.46 1080.9 
-1741.06 -1730.32 1080.89 
-1740.85 -1729.95 1080.87 
-1740.26 -1728.54 1080.83 
-1740 -1727.64 1081.16 
-1740.59 -1729.48 1080.76 
-1739.77 -1726.93 1081.23 
-1733.53 -1693.11 1088.41 
-1733.6 -1692.45 1087.91 
-1733.66 -1691.77 1088.13 
-1733.45 -1693.66 1087.01 
-1733.91 -1695.75 1092.54 
-1733.48 -1695.64 1091.64 
-1733.27 -1694.89 1086.33 
-1733.69 -1695.71 1087.04 
-1734.04 -1696.08 1090.81 
-1734.16 -1696.11 1088.1 
-1733.15 -1694.16 1085.42 
-1736.09 -1701.09 1089.34 
-1735.95 -1701.61 1088.63 
-1735.96 -1700.86 1089.04 
-1735.24 -1698.76 1089.51 
-1736.16 -1702.34 1089.8 
-1735.88 -1701.97 1088.28 
-1735.92 -1702.39 1088.99 
-1735.67 -1705.59 1090.91 
-1735.47 -1705.87 1090.58 
-1735.86 -1704.02 1090.26 
-1736.51 -1699.13 1093.59 
-1735.41 -1698.09 1091.78 
-1736.07 -1698.23 1094.39 
-1735.19 -1696.97 1093.8 
-1734.34 -1696.62 1092.83 
-1733.96 -1696.35 1091.88 
-1735.45 -1706.59 1089.87 
-1735.36 -1706.53 1090.04 
-1735.29 -1706.45 1090.18 
-1735.3 -1706.49 1090.35 
-1735.29 -1706.44 1090.03 
-1735.35 -1705.84 1090.22 
-1743.62 -1664.26 1081.02 
-1744.67 -1664.09 1081.13 
-1742.79 -1664.4 1081.42 
-1744.3 -1664.72 1080.4 
-1745.39 -1665.31 1078.5 
-1739.86 -1665.6 1082.14 
-1737.08 -1666.71 1080.3 
-1736.95 -1666.65 1079.07 
-1737.46 -1666.46 1078.87 
-1741.49 -1665.09 1081.15 
-1744.12 -1734.05 1080.01 
-1744.14 -1733.79 1080.42 
-1745.99 -1736.32 1079.93 
-1731.87 -1669.45 1078.31 
-1731.73 -1669.69 1078.17 
-1731.7 -1669.92 1078.17 
-1732.25 -1669.2 1078.73 
-1732.75 -1668.95 1079.15 
-1731.76 -1670.61 1078.4 
-1731.7 -1670.23 1078.22 
-1731.76 -1670.9 1078.41 
-1733.49 -1668.38 1079.24 
-1736.96 -1666.93 1081.03 
-1736.89 -1666.86 1080.58 
-1734.28 -1667.7 1078.86 
-1733.35 -1668.26 1078.74 
-1733.46 -1668.07 1078.42 
-1732.29 -1671.72 1079.18 
-1732.04 -1671.51 1078.87 
-1731.84 -1671.29 1078.53 
-1733.68 -1691.09 1088.29 
-1733.74 -1690.64 1087.76 
-1735.27 -1687.44 1091.67 
-1737.22 -1687.67 1090.38 
-1737.37 -1686.13 1089.89 
-1736 -1686.8 1090.52 
-1733.8 -1687.9 1077.25 
-1732.66 -1689.52 1079.34 
-1733.02 -1689.05 1078.65 
-1732.29 -1690.65 1081.25 
-1732.86 -1691.24 1083.47 
-1732.34 -1690.13 1080.18 
-1733.66 -1688.24 1077.51 
-1733.56 -1690.88 1086.74 
-1733.53 -1688.57 1077.65 
-1733.37 -1688.79 1077.47 
-1734.44 -1686.12 1070.63 
-1733.66 -1687.87 1072.82 
-1733.22 -1688.99 1077.32 
-1733.67 -1688.29 1075.08 
-1733.64 -1688.3 1074.43 
-1734.44 -1686.09 1070.43 
-1735.26 -1684.85 1069.5 
-1735.4 -1684.5 1069.29 
-1735.63 -1683.79 1069.38 
-1734.65 -1681.11 1070 
-1735.53 -1683.4 1069.5 
-1734.96 -1677.9 1075.35 
-1735.83 -1677.83 1074.45 
-1736.33 -1677.66 1073.6 
-1736.45 -1677.24 1072.91 
-1736.58 -1678.09 1072.38 
-1736.05 -1678.93 1072.04 
-1734.57 -1676.56 1077.16 
-1732.93 -1673.45 1078.84 
-1733.08 -1673.44 1079.18 
-1732.4 -1672.4 1078.8 
-1733.53 -1675.03 1079.45 
-1734.11 -1675.46 1078.55 
-1733.71 -1674.87 1078.78 
-1732.16 -1671.83 1078.77 
-1732.18 -1672.02 1078.61 
-1736.14 -1708.26 1089.44 
-1736.09 -1708 1089.12 
-1735.99 -1707.69 1089.18 
-1735.95 -1707.47 1088.95 
-1735.77 -1707.18 1089.18 
-1735.61 -1706.68 1089.17 
-1737.73 -1708.78 1086.21 
-1738.88 -1709.61 1083.52 
-1737.78 -1708.61 1085.58 
-1739.17 -1709.51 1083.05 
-1739.53 -1709.29 1081.93 
-1739.47 -1709.56 1082.42 
-1736.46 -1708.26 1088.78 
-1736.6 -1708.07 1088.46 
-1740.36 -1709.11 1079.3 
-1742.52 -1712.01 1071.89 
-1742.96 -1713.78 1071.47 
-1741.25 -1709.01 1075.01 
-1740.13 -1705.67 1075.34 
-1739.28 -1721.68 1079.16 
-1742.08 -1713.24 1073.85 
-1740.36 -1718.55 1077.49 
-1740.64 -1717.81 1076.65 
-1741.23 -1714.06 1076.56 
-1742.19 -1714.06 1073.89 
-1739.5 -1721.45 1077.91 
-1742.99 -1714.14 1071.61 
-1739.93 -1708.28 1079.9 
-1739.78 -1727.13 1080.81 
-1739.62 -1726.34 1080.68 
-1739.46 -1725.46 1080.1 
-1739.48 -1724.09 1079.4 
-1739.56 -1722.64 1078.7 
-1745.02 -1731.79 1083.77 
-1744.36 -1732.53 1082.93 
-1743.97 -1732.87 1082.12 
-1745.33 -1734.85 1081.4 
-1745.58 -1734.28 1082.22 
-1744.03 -1733.08 1081.56 
-1741.43 -1730.93 1080.66 
-1742.15 -1731.45 1080.31 
-1744.16 -1733.34 1081.17 
-1745.29 -1735.1 1081.03 
-1744.22 -1733.57 1080.81 
-1745.42 -1735.37 1080.75 
-1745.57 -1735.66 1080.43 
-1741.15 -1730.91 1080.63 
-1740.96 -1730.8 1080.61 
-1740.79 -1730.49 1080.59 
-1740.19 -1728.81 1080.55 
-1739.89 -1727.78 1080.83 
-1740.53 -1729.66 1080.67 
-1733.44 -1693.04 1086.43 
-1733.46 -1692.38 1086.08 
-1733.5 -1691.56 1086.9 
-1733.02 -1693.46 1084.44 
-1732.61 -1694.5 1084.06 
-1732.79 -1695.3 1085.07 
-1733.33 -1696.35 1085.71 
-1734.4 -1696.79 1087.85 
-1732.65 -1693.54 1083.16 
-1735.84 -1701.76 1087.65 
-1735.68 -1701.66 1087.02 
-1734.6 -1700.01 1086.35 
-1734.65 -1697.29 1088.15 
-1735.84 -1702.18 1087.35 
-1735.99 -1702.64 1088.09 
-1735.89 -1702.8 1088.61 
-1735.65 -1704.15 1089.7 
-1736.08 -1698.23 1093.43 
-1735.71 -1698.09 1092.06 
-1735.18 -1697.27 1093.22 
-1735.32 -1706.37 1089.64 
-1735.52 -1706.54 1089.37 
-1735.28 -1706.17 1089.61 
-1735.24 -1706.04 1089.68 
-1735.23 -1705.95 1089.75 
-1735.27 -1705.84 1089.9 
-1735.55 -1704.33 1089.25 
-1743.03 -1664.77 1080.25 
-1742.28 -1664.88 1080.69 
-1744.96 -1665.55 1078.24 
-1736.56 -1666.84 1079.32 
-1734.26 -1667.59 1078.48 
-1734.11 -1667.61 1078.11 
-1734.34 -1667.51 1077.89 
-1734.42 -1667.45 1077.5 
-1737.13 -1666.56 1078.11 
-1738.02 -1666.29 1078.09 
-1742.17 -1731.81 1079.93 
-1744.1 -1734.03 1079.56 
-1744.69 -1734.55 1079.15 
-1742.14 -1732.17 1079.42 
-1744.68 -1734.45 1078.67 
-1742.3 -1732.1 1079.57 
-1742.37 -1732.54 1078.88 
-1744.84 -1734.55 1078.12 
-1742.37 -1732.72 1078.61 
-1744.74 -1734.58 1077.49 
-1731.9 -1669.24 1078.05 
-1731.74 -1669.52 1077.91 
-1731.67 -1669.67 1077.94 
-1731.62 -1669.85 1077.95 
-1732.15 -1668.92 1078.29 
-1732.62 -1668.67 1078.46 
-1731.65 -1670.4 1078.13 
-1731.58 -1670.01 1077.92 
-1731.7 -1671.02 1078.24 
-1731.63 -1670.63 1078.08 
-1733.83 -1667.81 1078.41 
-1732.86 -1668.43 1078.17 
-1733.2 -1668.12 1078.14 
-1731.98 -1671.57 1078.61 
-1731.8 -1671.33 1078.31 
-1737.21 -1686.64 1090.74 
-1737.62 -1686.9 1090.23 
-1737.46 -1685.95 1090.17 
-1735.63 -1687.18 1091.7 
-1736.1 -1686.7 1090.76 
-1736.23 -1686.61 1090.96 
-1732.4 -1689.78 1079.4 
-1732.76 -1689.31 1078.63 
-1732.29 -1691.18 1082 
-1732.06 -1690.6 1080.6 
-1733.05 -1691.94 1084.18 
-1732.07 -1690.27 1079.92 
-1732.41 -1689.69 1078.85 
-1733.61 -1688.04 1072.84 
-1733.05 -1689.21 1077.24 
-1732.12 -1690.01 1079.01 
-1733.66 -1688.48 1075.07 
-1733.62 -1688.5 1074.49 
-1735.07 -1685.05 1069.35 
-1734.45 -1685.99 1070.04 
-1733.79 -1687.2 1071.35 
-1735.21 -1684.74 1069.05 
-1735.35 -1684.33 1069.02 
-1734.64 -1681.04 1069.75 
-1735.53 -1683.36 1069.21 
-1735.37 -1684.25 1068.87 
-1734.89 -1676.84 1076.05 
-1735.38 -1677.07 1074.87 
-1735.6 -1676.84 1074.23 
-1735.48 -1676.59 1073.73 
-1735.96 -1676.77 1072.6 
-1735.37 -1676.29 1073.27 
-1736.05 -1677.57 1071.98 
-1735.64 -1678.44 1071.46 
-1734.56 -1675.4 1077.34 
-1734.32 -1675.14 1077.78 
-1732.97 -1673.42 1078.23 
-1732.2 -1672.32 1078.34 
-1732.25 -1672.6 1078.11 
-1733.92 -1674.68 1077.88 
-1733.1 -1673.48 1077.66 
-1731.99 -1671.76 1078.36 
-1731.87 -1671.42 1078.39 
-1731.95 -1672 1078.11 
-1736.24 -1707.84 1088.77 
-1736.25 -1707.46 1088.65 
-1735.95 -1707.36 1089.24 
-1735.84 -1706.7 1088.92 
-1736.56 -1707.77 1088.01 
-1737.79 -1708.34 1084.99 
-1736.54 -1707.47 1087.26 
-1737.91 -1708.12 1084.25 
-1739.24 -1709.16 1082.52 
-1739.3 -1708.87 1081.69 
-1739.66 -1704.58 1076.49 
-1743.05 -1713.61 1070.98 
-1742.58 -1711.55 1070.99 
-1741.71 -1709.29 1072.72 
-1743.2 -1714.55 1071.1 
-1740.88 -1706.23 1072 
-1739.26 -1702.48 1074.53 
-1739.64 -1703.09 1072.45 
-1743.03 -1714.75 1071.68 
-1741 -1718.01 1074.66 
-1740.7 -1720.53 1074.33 
-1742.12 -1714.89 1074 
-1743.01 -1715.35 1071.83 
-1740.55 -1721.37 1074.94 
-1739.64 -1722.4 1077.94 
-1739.44 -1707.35 1080.15 
-1739.14 -1703.26 1077.06 
-1739.79 -1727.71 1080.38 
-1739.78 -1726.99 1080.44 
-1739.88 -1728.15 1080.47 
-1739.5 -1725.24 1079.6 
-1739.72 -1726.62 1080.07 
-1739.64 -1723.82 1078.64 
-1741.62 -1731.63 1080.1 
-1741.08 -1731.42 1080.25 
-1740.89 -1731.36 1080.12 
-1740.65 -1730.51 1080.45 
-1740.19 -1729.13 1080.46 
-1740.5 -1730.06 1080.45 
-1732.93 -1692.75 1083.81 
-1732.69 -1692.06 1083.11 
-1732.65 -1692.74 1082.61 
-1732.2 -1694.78 1083.26 
-1732.59 -1693.69 1082.56 
-1732.57 -1695.87 1084.62 
-1733.61 -1697.38 1085.65 
-1732.83 -1696.78 1084.85 
-1732.64 -1692.83 1081.86 
-1735.73 -1702.01 1086.47 
-1735.44 -1701.66 1086 
-1734.6 -1700.31 1086.02 
-1733.81 -1698.11 1085.58 
-1733.55 -1698.5 1085.22 
-1735.98 -1702.89 1087.45 
-1735.84 -1702.5 1086.66 
-1735.98 -1703.27 1088.31 
-1736.02 -1703.39 1087.9 
-1735.51 -1706.28 1089.16 
-1735.71 -1706.49 1088.95 
-1735.44 -1706 1089.15 
-1735.3 -1705.75 1089.31 
-1735.47 -1704.6 1088.92 
-1738.78 -1666.09 1077.78 
-1739.75 -1665.94 1077.58 
-1740.57 -1666.01 1076.98 
-1743.63 -1665.14 1079.57 
-1744.25 -1665.67 1078.05 
-1733.63 -1667.81 1078.08 
-1733.83 -1667.66 1077.92 
-1733.93 -1667.6 1077.62 
-1734.52 -1667.38 1077.09 
-1733.93 -1667.57 1077.29 
-1735.32 -1667.03 1076.38 
-1741.65 -1731.97 1079.5 
-1744.63 -1734.56 1076.98 
-1742.24 -1732.7 1078.41 
-1741.4 -1731.93 1079.37 
-1744.53 -1734.38 1076.69 
-1742.28 -1732.58 1078.12 
-1746.05 -1735.06 1074.54 
-1744.14 -1733.54 1076.09 
-1744.46 -1734.03 1076.35 
-1745.72 -1734.32 1073.73 
-1743.74 -1733.11 1075.94 
-1745.1 -1733.86 1073.72 
-1742.42 -1732.46 1077.78 
-1731.85 -1669.38 1077.65 
-1732.02 -1669.08 1077.88 
-1731.7 -1669.63 1077.7 
-1731.64 -1669.76 1077.75 
-1731.58 -1669.88 1077.66 
-1732.31 -1668.82 1077.85 
-1731.55 -1670.24 1077.83 
-1731.5 -1670.05 1077.62 
-1731.64 -1671.09 1078.04 
-1731.57 -1670.75 1077.9 
-1731.53 -1670.46 1077.75 
-1732.67 -1668.54 1077.77 
-1733.02 -1668.17 1077.83 
-1731.77 -1671.4 1078.09 
-1736.47 -1686.37 1091.16 
-1732.14 -1691.28 1081.39 
-1731.72 -1690.95 1080.58 
-1731.81 -1690.5 1079.83 
-1733.55 -1688.23 1072.74 
-1732.92 -1689.44 1077.26 
-1731.6 -1690.61 1079.64 
-1732.83 -1689.65 1077.21 
-1733.61 -1688.66 1074.65 
-1734.47 -1685.89 1069.75 
-1733.72 -1687.35 1071.2 
-1734.43 -1685.89 1069.52 
-1734.72 -1680.95 1069.62 
-1735.42 -1684.03 1068.77 
-1734.45 -1685.83 1069.24 
-1734.79 -1675.52 1075.95 
-1734.52 -1675.28 1076.7 
-1735.11 -1675.65 1075.12 
-1735.13 -1675.67 1074.45 
-1734.92 -1675.54 1073.96 
-1735.25 -1676.36 1072.38 
-1735.09 -1675.95 1072.89 
-1734.7 -1675.32 1073.56 
-1735.26 -1676.89 1071.79 
-1734.76 -1680.64 1069.61 
-1735.11 -1677.83 1071.03 
-1733.12 -1674 1076 
-1733.05 -1673.87 1076.45 
-1733.12 -1673.71 1076.8 
-1732.22 -1672.71 1077.72 
-1732.03 -1672.3 1077.78 
-1733.29 -1673.53 1077.07 
-1732.19 -1672.85 1077.29 
-1731.77 -1671.7 1077.92 
-1731.7 -1672.01 1077.58 
-1736.23 -1707.06 1088.09 
-1736.08 -1706.84 1088.46 
-1735.98 -1706.57 1088.24 
-1736.1 -1706.65 1087.61 
-1736.63 -1707.15 1086.09 
-1736.38 -1707.04 1086.9 
-1738.04 -1707.81 1083.37 
-1736.67 -1706.7 1085.11 
-1737.7 -1706.31 1082.76 
-1739.01 -1701.91 1075.61 
-1741.39 -1706.77 1070.3 
-1741.68 -1707.47 1069.59 
-1743.14 -1715.37 1071.45 
-1743.26 -1715.35 1071.06 
-1740.56 -1704 1070 
-1739.02 -1701.54 1074.64 
-1739.16 -1701.82 1073.1 
-1740 -1702.63 1070.6 
-1742.1 -1715.82 1073.79 
-1741.85 -1717.46 1073.06 
-1741.75 -1720.19 1070.94 
-1742.41 -1718.03 1070.96 
-1741.6 -1721.01 1070.95 
-1742.93 -1715.97 1071.78 
-1743.02 -1716.09 1071.28 
-1740.51 -1722.14 1075.36 
-1741.42 -1721.53 1071.35 
-1738.27 -1705.58 1080.95 
-1738.72 -1702.73 1077.76 
-1738.55 -1701.06 1076.4 
-1739.77 -1727.62 1080.02 
-1739.92 -1728.44 1080.1 
-1739.95 -1728.39 1079.68 
-1739.53 -1725.53 1079.36 
-1739.67 -1726.85 1079.82 
-1739.7 -1724.52 1078.56 
-1740.42 -1722.81 1075.96 
-1740.86 -1731.19 1079.91 
-1740.47 -1730 1080.24 
-1740.16 -1729.19 1080.12 
-1740.87 -1731.09 1079.67 
-1732.43 -1692.03 1082.1 
-1732.38 -1692.18 1081.46 
-1732.07 -1695.52 1083.35 
-1732.27 -1694.4 1082.13 
-1732.66 -1693.8 1081.98 
-1732.58 -1693.14 1081.49 
-1733.23 -1697.68 1085.11 
-1732.58 -1696.47 1083.86 
-1732.22 -1692.55 1081.09 
-1735.73 -1702.28 1085.95 
-1735.47 -1701.83 1085.61 
-1734.53 -1700.42 1085.64 
-1732.97 -1697.92 1084.65 
-1733.29 -1698.65 1085.1 
-1736.02 -1703.36 1087.3 
-1735.94 -1702.9 1086.75 
-1735.84 -1703.75 1087.65 
-1735.83 -1706.39 1088.54 
-1735.68 -1706.14 1088.74 
-1735.68 -1704.89 1088.09 
-1735.44 -1704.88 1088.61 
-1736.24 -1666.54 1075.39 
-1735.74 -1666.81 1075.71 
-1741.13 -1666.13 1076.22 
-1743.95 -1666.72 1075.18 
-1736.52 -1666.35 1075.17 
-1733.12 -1668.01 1077.67 
-1733.49 -1667.74 1077.66 
-1733.48 -1667.7 1077.39 
-1734.14 -1667.45 1076.85 
-1734.77 -1667.2 1076.41 
-1733.57 -1667.63 1077.03 
-1741.32 -1731.91 1079.14 
-1741.34 -1731.77 1078.88 
-1744.91 -1732.74 1073.62 
-1744.57 -1733.07 1074.25 
-1744.41 -1732.52 1074.34 
-1744.65 -1732.12 1073.66 
-1742.02 -1732.07 1077.94 
-1743.52 -1732.76 1075.88 
-1741.99 -1731.77 1077.7 
-1741.88 -1731.86 1077.95 
-1731.77 -1669.55 1077.47 
-1731.91 -1669.34 1077.35 
-1732.03 -1669.12 1077.48 
-1731.66 -1669.76 1077.52 
-1731.56 -1669.9 1077.37 
-1731.46 -1670.03 1077.35 
-1732.26 -1668.88 1077.37 
-1731.46 -1670.3 1077.46 
-1731.55 -1671.18 1077.75 
-1731.51 -1670.89 1077.68 
-1731.48 -1670.64 1077.52 
-1732.59 -1668.51 1077.42 
-1731.56 -1671.48 1077.62 
-1732.05 -1691.54 1081.08 
-1731.51 -1691.45 1080.56 
-1731.45 -1691.04 1080.05 
-1733.5 -1688.42 1072.75 
-1731.43 -1691 1079.55 
-1732.99 -1689.77 1077.15 
-1731.75 -1690.94 1079 
-1733.6 -1688.85 1074.82 
-1733.67 -1687.43 1071.01 
-1733.71 -1687.22 1070.59 
-1735.46 -1683.96 1068.64 
-1734.49 -1685.8 1068.99 
-1733.71 -1687.1 1070.21 
-1733.15 -1673.62 1075.25 
-1733.12 -1673.8 1075.59 
-1733.34 -1673.67 1074.91 
-1733.47 -1673.72 1074.64 
-1733.49 -1673.67 1074.47 
-1734.52 -1675.88 1072.24 
-1734.63 -1675.63 1072.72 
-1734.53 -1674.96 1073.43 
-1733.51 -1673.57 1074.35 
-1734.39 -1676.11 1071.77 
-1734.9 -1681.78 1069.02 
-1734.74 -1679.49 1069.58 
-1734.27 -1676.79 1071.06 
-1731.9 -1672.46 1076.4 
-1731.84 -1672.6 1076.58 
-1731.95 -1672.67 1076.9 
-1732.01 -1672.52 1077.33 
-1731.77 -1672.27 1077.28 
-1731.51 -1671.77 1077.36 
-1731.48 -1672.06 1077.06 
-1736.21 -1706.78 1087.15 
-1736.04 -1705.55 1086.23 
-1735.96 -1705.35 1086.64 
-1736.22 -1705.56 1085.63 
-1736.38 -1706.72 1086.09 
-1736.69 -1705.09 1084 
-1736.47 -1705.34 1084.77 
-1736.65 -1703.82 1082.94 
-1736.98 -1703.46 1081.97 
-1737.97 -1702.65 1079.38 
-1738.67 -1700.98 1075.57 
-1741.95 -1708.49 1069.17 
-1740.87 -1703.93 1068.16 
-1740.64 -1703.3 1068.75 
-1738.73 -1700.79 1074.7 
-1738.91 -1701.04 1073.77 
-1739.08 -1700.99 1072.5 
-1739.57 -1701.54 1071.48 
-1740.25 -1702.12 1069.16 
-1742.54 -1718.51 1070.09 
-1743.13 -1716.11 1070.85 
-1741.82 -1720.55 1070.17 
-1741.75 -1721.51 1069.88 
-1741.33 -1722.11 1071.28 
-1741.53 -1721.68 1070.32 
-1738.09 -1700.36 1077.03 
-1738.27 -1701.14 1077.37 
-1738.25 -1700.07 1076.22 
-1739.89 -1728.01 1079.35 
-1740.14 -1729.1 1079.54 
-1739.6 -1725.73 1078.97 
-1739.6 -1726.74 1079.5 
-1740.36 -1723.59 1076.51 
-1741.02 -1722.54 1073.49 
-1740.39 -1729.7 1079.97 
-1740.82 -1730.82 1079.54 
-1731.88 -1691.96 1080.78 
-1731.96 -1694.92 1082.19 
-1732.31 -1693.97 1081.15 
-1732.46 -1693.56 1081.26 
-1732.06 -1692.89 1080.81 
-1733.04 -1697.69 1084.12 
-1732.4 -1695.81 1082.85 
-1731.62 -1692.24 1080.46 
-1735.85 -1702.76 1086.07 
-1735.73 -1702.5 1085.63 
-1734.42 -1700.52 1085.28 
-1735.45 -1701.98 1085.34 
-1733.58 -1698.95 1084.77 
-1736 -1703.29 1086.6 
-1735.85 -1703.74 1086.99 
-1735.99 -1705.06 1087.04 
-1735.96 -1704.9 1087.57 
-1735.83 -1703.97 1086.52 
-1736 -1666.67 1075.06 
-1735.12 -1666.99 1075.73 
-1744.54 -1667.37 1074.18 
-1743.45 -1667.05 1074.25 
-1744.08 -1667.62 1073.67 
-1741.51 -1666.38 1075.14 
-1737 -1666.17 1074.93 
-1736.28 -1666.38 1074.66 
-1733.01 -1667.99 1077.34 
-1732.66 -1668.39 1077.22 
-1733.1 -1667.88 1077.13 
-1733.83 -1667.5 1076.6 
-1734.36 -1667.3 1076.28 
-1733.32 -1667.79 1076.85 
-1745.01 -1732.59 1070.03 
-1744.58 -1732.37 1069.41 
-1744.81 -1732.14 1070.23 
-1744.31 -1732.61 1066.7 
-1743.9 -1732.35 1066.96 
-1745.12 -1733.28 1068.63 
-1743.64 -1732.07 1067.05 
-1744.72 -1732.79 1069.19 
-1743.47 -1731.69 1067.16 
-1741.13 -1731.35 1078.93 
-1743.35 -1732.34 1075.94 
-1744.83 -1731.97 1073.19 
-1744.55 -1731.43 1073.47 
-1744.39 -1732.03 1074.12 
-1743.86 -1731.88 1074.91 
-1743.2 -1731.98 1075.98 
-1744.47 -1731.47 1073.72 
-1744.78 -1731.81 1071.91 
-1744.72 -1731.19 1071.62 
-1745 -1731.53 1072.13 
-1743.83 -1728.08 1071.07 
-1741.58 -1731.32 1078.05 
-1741.04 -1731 1078.85 
-1731.71 -1669.71 1077.32 
-1731.86 -1669.51 1077.18 
-1732.11 -1669.11 1077.14 
-1732.04 -1669.28 1077.07 
-1731.61 -1669.84 1077.22 
-1731.46 -1670.02 1077.06 
-1731.39 -1670.2 1077.12 
-1732.35 -1668.81 1077.09 
-1731.41 -1670.51 1077.22 
-1731.38 -1671.32 1077.3 
-1731.42 -1671.09 1077.43 
-1731.4 -1670.85 1077.26 
-1731.32 -1671.57 1077.09 
-1731.15 -1691.68 1080.17 
-1733.48 -1688.53 1072.62 
-1731.06 -1691.56 1079.62 
-1733.04 -1689.94 1077.08 
-1731.65 -1691.32 1078.92 
-1733.56 -1687.81 1070.77 
-1734.65 -1685.72 1068.74 
-1733.73 -1687.01 1069.86 
-1733.43 -1688.02 1070.45 
-1731.82 -1672.24 1076.26 
-1731.9 -1672.2 1075.98 
-1731.95 -1672.18 1075.7 
-1732.02 -1672.16 1075.41 
-1732.13 -1672.19 1075.09 
-1734.4 -1675.47 1072.34 
-1734.47 -1675.01 1072.99 
-1733.53 -1673.43 1074.21 
-1732.32 -1672.29 1074.86 
-1734.16 -1675.61 1071.86 
-1734.82 -1684.55 1068.62 
-1734.71 -1679.47 1069.36 
-1734.17 -1676.48 1070.98 
-1731.58 -1672.29 1076.49 
-1731.64 -1672.36 1076.82 
-1731.26 -1671.84 1076.81 
-1731.33 -1672.1 1076.6 
-1736.15 -1704.13 1085.08 
-1736.07 -1704.11 1085.48 
-1735.94 -1703.98 1085.87 
-1736.26 -1703.93 1084.11 
-1736.17 -1703.67 1084.41 
-1736.41 -1703.95 1083.61 
-1736.47 -1703.1 1082.82 
-1736.75 -1702.84 1082.08 
-1737 -1702.31 1081.07 
-1737.64 -1701.91 1079.37 
-1737.6 -1700.29 1077.84 
-1738.46 -1700.24 1075.4 
-1743.06 -1713.44 1069.84 
-1742.2 -1709.59 1068.86 
-1740.91 -1704.24 1067.34 
-1740.58 -1702.63 1067.7 
-1742.63 -1718.45 1069.66 
-1743.28 -1716.05 1070.35 
-1742.79 -1718.47 1069.13 
-1742.83 -1718.59 1068.64 
-1742.87 -1718.54 1068.2 
-1743.47 -1715.81 1069.96 
-1738.72 -1699.89 1074.56 
-1738.76 -1700.24 1073.8 
-1738.85 -1700.39 1072.92 
-1739.49 -1700.48 1071.49 
-1740.02 -1701.51 1069.86 
-1740.37 -1701.83 1067.96 
-1741.9 -1720.84 1069.27 
-1741.91 -1721.92 1068.86 
-1741.6 -1722.29 1069.48 
-1741.3 -1722.74 1071.28 
-1741.35 -1722.63 1069.79 
-1737.84 -1699.42 1076.91 
-1738.16 -1699.06 1076.05 
-1738.4 -1699.44 1075.47 
-1739.97 -1728.07 1079.03 
-1740.2 -1729.11 1079.27 
-1740.61 -1730.16 1079.57 
-1739.65 -1726.92 1079.1 
-1740.37 -1724.53 1076.96 
-1741.09 -1723.01 1074.25 
-1741.39 -1723.03 1072.18 
-1732.08 -1694.6 1081.38 
-1731.77 -1693.64 1080.35 
-1731.93 -1693.28 1080.56 
-1731.46 -1692.66 1080.2 
-1733.33 -1698.26 1083.92 
-1732.69 -1696.15 1082.63 
-1730.94 -1692.17 1079.99 
-1735.91 -1703.1 1085.82 
-1735.67 -1702.59 1085.41 
-1734.38 -1700.69 1084.82 
-1735.39 -1702.05 1085.08 
-1733.88 -1699.35 1084.36 
-1735.94 -1703.59 1086.23 
-1735.8 -1666.67 1074.64 
-1735.11 -1666.96 1075.3 
-1734.41 -1667.27 1075.83 
-1744.62 -1667.96 1073.31 
-1744.25 -1668.1 1073.19 
-1744.91 -1668.45 1072.89 
-1743.52 -1667.68 1073.47 
-1741.54 -1666.63 1074.28 
-1743.21 -1667.32 1073.78 
-1737.66 -1666.12 1074.63 
-1744.46 -1668.53 1072.82 
-1736.71 -1666.23 1074.51 
-1736.25 -1666.55 1074.21 
-1732.8 -1668.3 1077.03 
-1732.55 -1668.67 1076.95 
-1732.99 -1668.17 1076.9 
-1734.01 -1667.44 1076.21 
-1733.57 -1667.73 1076.49 
-1733.17 -1668.05 1076.7 
-1743.11 -1731.73 1064.64 
-1744.57 -1732.81 1066.69 
-1743.75 -1732.24 1063.89 
-1745.03 -1733.19 1065.59 
-1743.18 -1731.78 1063.78 
-1744.53 -1731.94 1069.75 
-1743.31 -1731.31 1067.31 
-1742.82 -1731.3 1064.79 
-1742.62 -1730.96 1065.05 
-1744.28 -1729.77 1073.12 
-1744.25 -1729.86 1073.4 
-1744.38 -1731.61 1074.03 
-1742.61 -1731.21 1076.54 
-1744.07 -1731.48 1074.51 
-1741.58 -1730.98 1077.92 
-1744.41 -1731.2 1073.75 
-1744.29 -1729.5 1072.66 
-1742.91 -1726.33 1072.76 
-1744.29 -1729.6 1072.85 
-1743.17 -1726.66 1072.44 
-1744.26 -1729.39 1072.45 
-1743.35 -1726.83 1072.07 
-1742.83 -1726.28 1073.25 
-1743.91 -1728.28 1071.5 
-1743.43 -1726.93 1071.62 
-1744.27 -1729.44 1071.84 
-1743.76 -1728 1070.53 
-1742.83 -1725.6 1071.32 
-1742.4 -1725.06 1070.42 
-1742.55 -1725.3 1069.99 
-1740.76 -1730.23 1078.88 
-1740.55 -1729.85 1079.32 
-1731.83 -1669.67 1077.02 
-1732.06 -1669.4 1076.91 
-1732.27 -1669.09 1076.87 
-1731.61 -1669.88 1076.97 
-1731.34 -1670.18 1076.78 
-1731.53 -1669.99 1076.78 
-1731.34 -1670.4 1076.9 
-1731.32 -1670.69 1076.94 
-1731.27 -1671.39 1076.94 
-1731.32 -1671.15 1077.1 
-1731.27 -1670.98 1076.87 
-1731.19 -1671.65 1076.69 
-1733.42 -1688.8 1072.78 
-1733.57 -1689.05 1074.72 
-1730.87 -1691.94 1079.44 
-1733.02 -1690.23 1077.14 
-1731.25 -1691.93 1079 
-1733.43 -1688.85 1072.47 
-1733.7 -1687.07 1069.66 
-1733.43 -1689.1 1072.47 
-1733.46 -1688.14 1070.4 
-1733.62 -1687.35 1069.8 
-1731.5 -1672.09 1076.32 
-1731.55 -1672.04 1076.05 
-1731.64 -1671.98 1075.77 
-1731.74 -1671.93 1075.56 
-1731.88 -1671.87 1075.34 
-1733.71 -1673.43 1073.72 
-1733.59 -1673.29 1074.05 
-1732.46 -1672.19 1074.81 
-1732.07 -1671.83 1075.13 
-1734.17 -1675.47 1071.76 
-1733.81 -1673.51 1073.42 
-1735.19 -1684.33 1068.33 
-1733.61 -1687.37 1069.52 
-1733.86 -1686.9 1068.87 
-1734.8 -1679.31 1069.27 
-1735.2 -1682.45 1068.36 
-1734.18 -1675.72 1071.34 
-1734.35 -1676.72 1070.71 
-1731.22 -1671.91 1076.41 
-1736.05 -1703.29 1084.72 
-1735.97 -1703.33 1085.13 
-1735.97 -1703.62 1085.6 
-1736.26 -1703.28 1083.47 
-1736.15 -1703.17 1083.95 
-1736.06 -1702.95 1084.35 
-1736.01 -1702.92 1084.59 
-1736.48 -1702.32 1082.48 
-1736.29 -1702.47 1083.11 
-1736.68 -1702.12 1081.72 
-1737.32 -1701.53 1079.26 
-1735.85 -1700.68 1080.74 
-1735.62 -1701.18 1081.16 
-1737 -1699.76 1078.25 
-1737.32 -1699.35 1077.58 
-1741.16 -1705.57 1066.99 
-1740.81 -1703.77 1066.45 
-1740.6 -1702.55 1066.8 
-1742.77 -1717.31 1067.04 
-1742.44 -1715.85 1066.82 
-1743.42 -1714.96 1068.85 
-1742.03 -1721.6 1068.24 
-1742.26 -1722.41 1068.04 
-1742.56 -1720.74 1067.06 
-1742.25 -1721.18 1066.12 
-1743.09 -1716.9 1067.93 
-1742.08 -1723.56 1065.1 
-1742.24 -1723.71 1067.35 
-1741.52 -1725.25 1064.72 
-1738.7 -1699.1 1074.71 
-1739.03 -1699.22 1073.58 
-1738.99 -1698.84 1074.01 
-1739.1 -1699.44 1072.85 
-1739.31 -1699.61 1072.18 
-1739.87 -1699.63 1070.49 
-1739.72 -1699.39 1071.43 
-1739.96 -1700.61 1069.91 
-1740.28 -1701.36 1068.37 
-1740.45 -1701.62 1066.69 
-1741.88 -1722.73 1068.54 
-1741.56 -1722.94 1068.99 
-1741.39 -1723.22 1070.52 
-1741.42 -1723.34 1069.59 
-1737.26 -1698.75 1077.2 
-1737.85 -1698.63 1076.41 
-1738.52 -1698.6 1075.18 
-1738.24 -1698.2 1075.57 
-1740.11 -1727.94 1078.78 
-1740.15 -1728.19 1078.8 
-1740.29 -1729.04 1079.01 
-1740.44 -1725.32 1077.16 
-1741.27 -1723.68 1074.77 
-1741.5 -1723.47 1073.14 
-1741.59 -1723.56 1071.65 
-1732.13 -1695.2 1081.31 
-1731.86 -1694.19 1080.55 
-1731.3 -1693.02 1079.94 
-1731.34 -1693.17 1079.71 
-1731.72 -1693.68 1079.9 
-1730.76 -1692.51 1079.7 
-1733.73 -1698.76 1083.71 
-1732.98 -1696.96 1082.74 
-1735.85 -1703.13 1085.4 
-1735.64 -1702.62 1085.13 
-1734.41 -1700.81 1084.4 
-1735.55 -1702.14 1084.79 
-1733.91 -1699.64 1083.81 
-1735.62 -1666.96 1074.57 
-1734.85 -1667.3 1075.28 
-1734.25 -1667.57 1075.65 
-1733.9 -1667.63 1076.06 
-1743.22 -1667.82 1073.28 
-1743.76 -1668.19 1073.02 
-1741.06 -1667.03 1073.54 
-1741.41 -1666.85 1073.88 
-1737.99 -1666.32 1074.09 
-1737.08 -1666.31 1074.23 
-1743.87 -1668.54 1072.71 
-1744.81 -1669.01 1072.46 
-1736.63 -1666.5 1074.1 
-1736.14 -1666.93 1074.05 
-1732.72 -1668.59 1076.76 
-1732.47 -1668.94 1076.73 
-1732.93 -1668.41 1076.64 
-1733.39 -1667.97 1076.4 
-1733.12 -1668.27 1076.46 
-1743.94 -1732.4 1063.17 
-1742.63 -1731.21 1063.74 
-1743.17 -1731.76 1062.93 
-1742.68 -1731.23 1062.65 
-1743.11 -1730.89 1067.45 
-1744.38 -1731.57 1069.88 
-1742.34 -1730.52 1065.24 
-1742.36 -1730.69 1064.17 
-1742.3 -1730.44 1064.72 
-1744.41 -1730.87 1070.77 
-1743.6 -1727.66 1070.01 
-1743.67 -1728.53 1069.79 
-1744.12 -1730.54 1069.93 
-1744.07 -1731 1069.74 
-1744.37 -1731.24 1070.47 
-1742.87 -1726.42 1073.7 
-1743.81 -1728.36 1073.7 
-1744.16 -1729.86 1073.78 
-1742.78 -1726.41 1074.15 
-1744.35 -1731.24 1073.99 
-1743.84 -1731.23 1074.8 
-1742.34 -1730.79 1076.81 
-1740.92 -1729.74 1078.35 
-1740.82 -1729.84 1078.56 
-1740.67 -1729.8 1078.77 
-1742.19 -1724.67 1071.95 
-1741.82 -1724.16 1072.32 
-1741.73 -1724.12 1073.06 
-1742.66 -1725.36 1071.75 
-1741.68 -1724.22 1074.16 
-1742.65 -1725.38 1069.46 
-1742.09 -1724.42 1070.78 
-1741.74 -1724.2 1069.2 
-1741.67 -1723.91 1069.57 
-1742.05 -1724.71 1069.19 
-1740.41 -1729.06 1078.85 
-1740.45 -1729.49 1079.07 
-1732.06 -1669.53 1076.75 
-1731.84 -1669.74 1076.76 
-1732.26 -1669.26 1076.67 
-1731.53 -1670.06 1076.56 
-1731.36 -1670.28 1076.56 
-1731.78 -1669.85 1076.55 
-1731.27 -1670.54 1076.65 
-1731.23 -1670.82 1076.62 
-1731.21 -1671.27 1076.75 
-1731.19 -1671.52 1076.53 
-1731.2 -1671.12 1076.54 
-1731.32 -1671.81 1076.22 
-1732.94 -1690.61 1077.01 
-1731.49 -1692.08 1078.68 
-1730.93 -1692.65 1079.46 
-1733.48 -1689.29 1072.51 
-1733.66 -1689.59 1074.68 
-1733.47 -1688.07 1070.1 
-1731.45 -1671.72 1076.03 
-1731.6 -1671.64 1075.81 
-1731.78 -1671.56 1075.57 
-1732.43 -1671.71 1074.97 
-1732.43 -1671.93 1074.9 
-1732.03 -1671.58 1075.28 
-1733.95 -1673.64 1073.03 
-1732.81 -1671.95 1074.67 
-1735.46 -1684.77 1068.06 
-1733.48 -1687.99 1069.79 
-1733.6 -1687.42 1069.19 
-1734.35 -1686.52 1068.24 
-1734.92 -1679.13 1069.3 
-1735.38 -1682.63 1068.19 
-1734.46 -1676.51 1070.72 
-1734.08 -1673.78 1072.68 
-1735.85 -1702.76 1084.89 
-1736.11 -1702.6 1083.71 
-1736 -1702.47 1084.2 
-1735.81 -1702.33 1084.53 
-1735.05 -1701.49 1082.66 
-1735.12 -1701.51 1082.19 
-1735.03 -1701.32 1082.97 
-1735.39 -1701.64 1081.55 
-1735.3 -1698.72 1079.26 
-1736.02 -1700.35 1080.06 
-1734.27 -1698.85 1081.05 
-1733.92 -1697.46 1080.04 
-1734.42 -1699.67 1081.52 
-1736.6 -1698.77 1077.95 
-1734.86 -1697.64 1079.1 
-1742.59 -1711.52 1068.2 
-1741.24 -1706.22 1066.56 
-1742.5 -1710.92 1068.68 
-1740.94 -1704.71 1066 
-1740.7 -1703.03 1065.98 
-1740.55 -1702.27 1065.75 
-1741.82 -1721.76 1063.68 
-1741.83 -1722.86 1063.98 
-1741.88 -1714.85 1066.18 
-1742.98 -1714.52 1067.81 
-1741.57 -1719.95 1063.21 
-1742.82 -1713.76 1067.49 
-1742.35 -1711.58 1067.39 
-1741.41 -1707.36 1066.39 
-1742 -1723.1 1068.41 
-1741.42 -1725.49 1065.87 
-1742.03 -1723.95 1067.7 
-1741.04 -1725.97 1063.05 
-1741.16 -1724.86 1061.89 
-1738.93 -1698.27 1074.21 
-1738.78 -1698.03 1074.62 
-1739.31 -1698.31 1073.33 
-1739.41 -1698.51 1072.87 
-1739.27 -1697.89 1073.67 
-1739.59 -1698.57 1072.35 
-1739.8 -1698.66 1071.77 
-1740 -1698.68 1070.82 
-1740.21 -1700.17 1068.47 
-1740.21 -1698.86 1069.03 
-1740.41 -1700.73 1066.83 
-1740.45 -1701.6 1065.16 
-1741.59 -1723.38 1068.76 
-1737.42 -1698.19 1076.72 
-1736.85 -1698.34 1077.4 
-1737.9 -1697.92 1075.95 
-1738.63 -1697.75 1075.03 
-1738.4 -1697.44 1075.43 
-1740.45 -1728.54 1078.55 
-1740.51 -1726.05 1077.39 
-1741.43 -1724.43 1075.06 
-1731.89 -1694.71 1080.59 
-1732.9 -1696.53 1081.64 
-1731.87 -1694.17 1080.06 
-1731.49 -1693.34 1079.47 
-1731.3 -1692.71 1079.12 
-1731.93 -1693.91 1079.59 
-1733.6 -1698.62 1083.3 
-1734.48 -1700.89 1084.07 
-1733.83 -1699.66 1083.42 
-1735.3 -1667.36 1074.72 
-1733.97 -1667.83 1075.66 
-1734.7 -1667.72 1075.12 
-1733.61 -1667.92 1076.07 
-1741.14 -1667.24 1073.24 
-1743.09 -1668.1 1072.98 
-1737.94 -1666.56 1073.62 
-1738.67 -1666.78 1073.01 
-1737.3 -1666.61 1073.76 
-1743.34 -1668.45 1072.68 
-1736.73 -1666.78 1073.72 
-1736.22 -1667.22 1073.86 
-1735.53 -1667.51 1074.36 
-1732.51 -1669.03 1076.52 
-1732.75 -1668.76 1076.48 
-1732.96 -1668.57 1076.33 
-1733.23 -1668.28 1076.2 
-1745.06 -1733.34 1062.07 
-1743.48 -1732.54 1061.35 
-1743.67 -1732.45 1062.16 
-1744.65 -1733.09 1060.73 
-1743.34 -1732.5 1060.77 
-1744.47 -1733.07 1060.18 
-1745.73 -1733.46 1058.76 
-1744.24 -1732.89 1059.25 
-1744.35 -1733.03 1059.7 
-1743.22 -1732.27 1059.94 
-1743.14 -1732.28 1060.41 
-1743.28 -1732 1062.42 
-1742.33 -1730.78 1062.85 
-1742.71 -1731.43 1062.3 
-1742.2 -1730.89 1061.94 
-1742.15 -1730.64 1062.19 
-1743.06 -1731.96 1061.83 
-1742.17 -1730.19 1065.52 
-1742.88 -1730.43 1067.58 
-1741.93 -1729.8 1064.64 
-1742.02 -1729.97 1064.01 
-1741.99 -1730.22 1063.07 
-1743.59 -1729.36 1069.58 
-1743.2 -1726.57 1069.01 
-1742.79 -1725.51 1068.93 
-1743.66 -1730.41 1069.44 
-1742.69 -1730 1067.53 
-1742 -1729.79 1065.7 
-1743.95 -1729.8 1074.29 
-1743.7 -1728.49 1074.09 
-1742.63 -1726.48 1074.57 
-1741.76 -1724.99 1074.88 
-1741.73 -1724.52 1074.62 
-1742.25 -1730.35 1076.78 
-1740.88 -1728.84 1078 
-1743.6 -1730.01 1074.86 
-1740.68 -1728.71 1078.27 
-1742.19 -1724.85 1068.66 
-1741.69 -1724.34 1068.5 
-1741.73 -1723.76 1068.44 
-1732.08 -1669.62 1076.5 
-1732.29 -1669.37 1076.49 
-1731.68 -1670.03 1076.4 
-1731.46 -1670.3 1076.43 
-1731.33 -1670.56 1076.5 
-1731.96 -1669.77 1076.32 
-1731.29 -1670.86 1076.47 
-1731.3 -1671.43 1076.3 
-1731.45 -1671.27 1076.12 
-1732.89 -1691.04 1077.03 
-1733.54 -1689.44 1072.5 
-1733.78 -1689.78 1074.63 
-1731.72 -1671.23 1075.76 
-1732.33 -1671.34 1075.18 
-1731.98 -1671.03 1075.61 
-1732.04 -1671.35 1075.4 
-1732.95 -1671.81 1074.58 
-1735.7 -1684.64 1067.87 
-1733.5 -1687.87 1069.43 
-1733.67 -1689.61 1072.18 
-1733.58 -1689.6 1072.46 
-1733.96 -1687.06 1068.51 
-1735.57 -1685.34 1067.67 
-1735.09 -1679.05 1069.28 
-1735.2 -1681.76 1068.21 
-1735.72 -1683.27 1067.99 
-1734.57 -1676.38 1070.67 
-1734.26 -1673.73 1072.47 
-1733.23 -1671.66 1074.5 
-1734.96 -1701.15 1083.25 
-1734.78 -1701.01 1083.52 
-1734.59 -1700.93 1083.79 
-1734.19 -1699.84 1082.27 
-1734.31 -1699.78 1081.9 
-1733.99 -1699.76 1082.66 
-1733.28 -1695.24 1079.07 
-1732.91 -1694.95 1079.24 
-1734.15 -1698.78 1081.44 
-1733.51 -1695.99 1079.9 
-1734.6 -1696.77 1078.65 
-1736.34 -1698.03 1077.73 
-1733.37 -1694.54 1078.3 
-1741.02 -1705.55 1065.5 
-1740.8 -1704.01 1065.45 
-1740.61 -1702.91 1064.98 
-1740.49 -1702.32 1064.42 
-1741.09 -1723.32 1061.33 
-1741.14 -1718.3 1062.46 
-1740.57 -1714.46 1062.44 
-1741.78 -1711.5 1066.34 
-1740.88 -1721.46 1060.74 
-1741.37 -1707.34 1066.11 
-1741.35 -1725.57 1066.32 
-1741 -1726.61 1064.4 
-1741.68 -1724.45 1067.76 
-1741.12 -1726.21 1062.14 
-1741.1 -1725.11 1061.3 
-1741.05 -1724.47 1061.16 
-1739.18 -1697.47 1074.07 
-1739.01 -1697.18 1074.5 
-1740.24 -1696 1072.65 
-1740.1 -1695.97 1073.03 
-1740.32 -1696.21 1072.2 
-1739.95 -1695.88 1073.42 
-1740.42 -1696.34 1071.63 
-1740.5 -1696.42 1071.04 
-1740.78 -1696.02 1069.13 
-1740.39 -1699.54 1066.52 
-1740.48 -1700.36 1065.33 
-1740.56 -1697.79 1067.51 
-1740.43 -1699.31 1064.87 
-1740.42 -1701.79 1063.91 
-1737.6 -1697.51 1076.25 
-1736.84 -1697.62 1077 
-1738.08 -1697.18 1075.76 
-1738.84 -1696.91 1074.92 
-1738.59 -1696.69 1075.25 
-1740.58 -1726.56 1077.52 
-1741.52 -1725.26 1075.47 
