-1955.55 -1422.19 -698.699
-1954.25 -1423.1 -693.246
-1959.57 -1421.4 -705.354
-1957.13 -1420.9 -704.273
-1962.04 -1420.65 -709.287
-1954.6 -1421.94 -698.647
-1953.74 -1422.73 -694.509
-1956.26 -1420.67 -704.056
-1952.2 -1423.17 -688.016
-1958.4 -1419.61 -709.163
-1962.79 -1420.45 -710.919
-1963.5 -1420.03 -713.966
-1955.71 -1420.54 -704.054
-1955.21 -1420.59 -703.637
-1954.1 -1421.92 -698.338
-1952.09 -1423.05 -688.892
-1957.44 -1419.47 -708.775
-1959.25 -1418.84 -713.58
-1960.1 -1419.01 -714.071
-1961.44 -1417.93 -720.321
-1963.99 -1419.69 -717.656
-1956.46 -1419.36 -708.389
-1953.27 -1422.58 -694.763
-1958.14 -1418.66 -713.311
-1958.69 -1418.7 -713.649
-1960.63 -1417.49 -720.494
-1959.82 -1417.35 -720.348
-1951.45 -1422.97 -688.637
-1966.36 -1420.17 -719.38
-1962.36 -1418.21 -720.706
-1961.29 -1416.76 -724.81
-1964.18 -1418.75 -721.538
-1960.43 -1416.4 -725.402
-1955.96 -1419.4 -708.068
-1952.45 -1422.36 -695.448
-1951.42 -1422.87 -690.14
-1959.07 -1417.42 -719.893
-1950.85 -1422.83 -690.05
-1948.98 -1423.32 -687.889
-1966.52 -1419.49 -722.882
-1963.99 -1417.3 -727.602
-1960.53 -1415.53 -731.396
-1962.32 -1415.98 -732.307
-1966.31 -1418.04 -728.255
-1959.61 -1415.03 -732.001
-1955.5 -1419.5 -707.658
-1956.85 -1418.77 -712.084
-1957.42 -1418.59 -713.232
-1958.81 -1417.25 -720.443
-1954.42 -1420.5 -703.515
-1953.4 -1421.82 -698.625
-1951.99 -1422.31 -695.65
-1959.67 -1416.56 -723.411
-1959.62 -1416.09 -726.187
-1950.73 -1422.76 -691.196
-1951.71 -1422.21 -696.307
-1950.59 -1422.7 -691.955
-1950.11 -1422.69 -692.995
-1950.05 -1422.67 -693.644
-1949.77 -1422.73 -694.152
-1948.43 -1423.4 -689.667
-1948.11 -1423.57 -689.27
-1968.54 -1417.98 -732.69
-1967.84 -1417.24 -735.078
-1966.88 -1416.53 -737.444
-1962.04 -1414.96 -738.235
-1960.45 -1414.44 -737.987
-1959.71 -1414.12 -738.491
-1955.01 -1419.55 -707.494
-1957.91 -1418.03 -716.632
-1958.57 -1417.07 -721.146
-1953.78 -1420.6 -703.288
-1952.65 -1421.73 -699.099
-1959.06 -1414.87 -732.473
-1959.13 -1413.9 -738.788
-1951.96 -1422 -697.735
-1947.87 -1424 -689.759
-1951.84 -1421.9 -698.96
-1949.84 -1422.71 -695.082
-1951.25 -1422.08 -699.58
-1970.48 -1417.81 -738.489
-1970.03 -1416.88 -741.662
-1969.38 -1415.99 -744.886
-1967.93 -1415.24 -746.614
-1963.33 -1414.3 -743.951
-1960.74 -1412.44 -748.349
-1960.3 -1413.15 -744.628
-1959.66 -1412.49 -746.579
-1956.73 -1418.67 -712.895
-1957.78 -1417.3 -720.153
-1954.48 -1419.61 -707.675
-1958.96 -1415.91 -726.122
-1958.15 -1414.64 -733.17
-1953.16 -1420.77 -703.083
-1958.77 -1413.72 -739.474
-1959.2 -1412.45 -746.18
-1952.33 -1421.67 -699.559
-1952.52 -1420.79 -704.091
-1948.56 -1423.7 -694.899
-1948.91 -1423.37 -695.32
-1948.91 -1423.3 -694.743
-1949.48 -1423.01 -696.382
-1949.39 -1422.95 -694.792
-1952.1 -1420.95 -704.55
-1950.62 -1422.39 -700.117
-1971.54 -1416.46 -748.479
-1970.82 -1415.82 -749.822
-1969.88 -1414.88 -752.761
-1967.97 -1413.78 -754.744
-1963.13 -1413.01 -750.3
-1960.79 -1411.7 -751.517
-1965.61 -1412.77 -755.83
-1964.65 -1412.42 -755.533
-1960.45 -1411.43 -751.836
-1955.79 -1418.85 -712.899
-1957.3 -1417.57 -719.252
-1958.11 -1415.99 -726.241
-1955.17 -1419.06 -712.526
-1953.93 -1419.75 -707.72
-1958.16 -1413.53 -739.968
-1958.45 -1413.47 -740.519
-1952.97 -1420.71 -703.648
-1953.75 -1419.61 -711.846
-1954.5 -1419.32 -711.814
-1948.94 -1423.79 -697.309
-1950.01 -1423.03 -701.046
-1950.28 -1422.74 -700.585
-1951.16 -1421.64 -704.45
-1953.48 -1419.7 -712.378
-1951.66 -1421.21 -704.777
-1953.26 -1419.79 -712.822
-1973.34 -1415.81 -758.428
-1972.36 -1414.8 -760.192
-1971.1 -1413.93 -761.426
-1969.57 -1413.01 -762.723
-1968.14 -1412.34 -763.342
-1963.84 -1412.13 -755.332
-1964.77 -1412.33 -756.133
-1967.31 -1411.95 -763.565
-1956.69 -1417.99 -717.94
-1957.78 -1416.25 -725.341
-1957.64 -1414.67 -732.941
-1956.21 -1418.12 -718.092
-1957.38 -1413.96 -736.943
-1957.88 -1413.32 -740.774
-1958.73 -1411.76 -748.244
-1959.47 -1411.67 -749.55
-1955.42 -1418.27 -719.457
-1955.79 -1418.21 -718.704
-1950.24 -1423.03 -704.921
-1950.87 -1421.99 -705.054
-1950.78 -1422.14 -705.739
-1952.51 -1420.27 -711.683
-1952.16 -1420.53 -711.356
-1955.28 -1418.22 -720.618
-1952.9 -1420.01 -712.277
-1955.02 -1418.32 -721.227
-1974.76 -1414.71 -768.346
-1973.15 -1413.65 -769.27
-1971.34 -1412.56 -770.324
-1969.29 -1411.58 -770.942
-1968.09 -1411.16 -770.851
-1965.74 -1412.21 -759.23
-1966.79 -1411.83 -763.339
-1967.52 -1410.95 -770.943
-1966.96 -1410.82 -770.298
-1963.15 -1411.97 -755.369
-1965.24 -1412.22 -758.3
-1957.32 -1416.48 -725.043
-1961.35 -1411.46 -753.144
-1961.6 -1411.48 -753.578
-1956.93 -1416.53 -725.744
-1950.24 -1423.15 -705.793
-1951.47 -1421.25 -712.29
-1953.67 -1419.33 -719.196
-1954.34 -1418.81 -720.266
-1953.3 -1419.65 -719.075
-1955.71 -1417.35 -725.952
-1956.41 -1416.71 -726.544
-1980.13 -1413.52 -786.657
-1978.39 -1411.75 -787.967
-1976.9 -1412.83 -781.74
-1975.7 -1413.96 -775.465
-1974.07 -1412.92 -776.22
-1972.46 -1411.92 -777.363
-1970.48 -1411.1 -777.464
-1969.62 -1410.78 -777.376
-1966.27 -1410.94 -767.461
-1967.1 -1410.68 -771.857
-1969.03 -1410.61 -777.155
-1964.85 -1412.21 -757.95
-1957.19 -1413.22 -740.642
-1956.91 -1414.91 -733.067
-1958.26 -1411.56 -748.307
-1959.68 -1411.17 -751.568
-1964.43 -1412.18 -757.647
-1956.46 -1415.28 -732.654
-1950.25 -1423.29 -706.515
-1951.35 -1421.41 -712.896
-1952.67 -1420.26 -718.649
-1952.74 -1420.44 -720.138
-1952.45 -1420.85 -719.671
-1954.7 -1418.44 -724.957
-1955.11 -1418.03 -724.875
-1954.36 -1418.83 -725.239
-1956.03 -1415.61 -732.5
-1955.8 -1417.03 -728.091
-1955.63 -1415.99 -732.245
-1980.02 -1411.63 -792.928
-1977.86 -1410.76 -790.597
-1978.28 -1408.97 -798.175
-1975.72 -1412.18 -781.899
-1981.57 -1411.46 -797.805
-1982.32 -1411.76 -798.271
-1974.88 -1411.53 -783.024
-1973.33 -1410.91 -783.443
-1971.32 -1410.38 -782.846
-1969.57 -1409.92 -782.296
-1965.48 -1411.56 -763.086
-1965.6 -1410.67 -767.524
-1966.43 -1410.56 -770.705
-1965.04 -1412.16 -759.681
-1967.14 -1410.47 -773.691
-1968.48 -1410.34 -777.912
-1968.71 -1409.75 -781.826
-1956.79 -1413.83 -737.623
-1956.81 -1413.29 -740.092
-1956.53 -1414.04 -736.949
-1960.61 -1411.07 -753.063
-1955.91 -1414.26 -736.905
-1951.19 -1422.28 -713.658
-1952.19 -1421.25 -719.405
-1954 -1419.37 -725.156
-1953.88 -1419.63 -726.586
-1954.28 -1418.9 -727.591
-1953.59 -1420.18 -726.407
-1955.05 -1417.79 -728.068
-1955.4 -1417.47 -727.738
-1954.71 -1418.33 -727.821
-1955.2 -1416.39 -732.361
-1955.48 -1414.73 -736.332
-1979.88 -1409.37 -801.075
-1976.92 -1410.32 -790.705
-1977.37 -1408.05 -799.69
-1978.7 -1407.48 -804.389
-1978.05 -1407.01 -804.758
-1981.32 -1409.62 -805.248
-1981.83 -1409.72 -806.23
-1982.76 -1410.57 -804.016
-1987.9 -1411.63 -805.942
-1975.56 -1409.22 -792.794
-1973.97 -1408.99 -791.776
-1971.26 -1409.05 -788.561
-1969.8 -1408.77 -787.935
-1968.96 -1408.51 -787.926
-1964.96 -1411.38 -763.408
-1965.14 -1410.62 -766.951
-1966.26 -1410.35 -772.807
-1967.96 -1410.18 -778.095
-1964.65 -1412.14 -760.222
-1968.16 -1409.56 -782.138
-1956.49 -1413.7 -738.346
-1956.6 -1413.17 -740.591
-1957.81 -1411.48 -747.983
-1962.8 -1411.85 -755.838
-1963.93 -1412.14 -757.576
-1951.87 -1421.68 -718.933
-1953.19 -1420.94 -725.883
-1954.15 -1418.38 -731.382
-1954.3 -1417.75 -732.041
-1953.95 -1419.78 -731.298
-1954.06 -1418.98 -731.748
-1954.87 -1416.96 -731.93
-1955.87 -1414.14 -737.689
-1979.99 -1408.08 -806.382
-1976.6 -1407.68 -799.808
-1977.49 -1406.58 -805.259
-1979.61 -1407.24 -809.284
-1978.2 -1406.2 -809.586
-1982.31 -1408.45 -812.651
-1980.62 -1406.99 -814.365
-1985.7 -1412.01 -801.934
-1985.46 -1410.53 -807.432
-1989.43 -1410.12 -815.149
-1991.03 -1410.26 -817.584
-1975.53 -1406.79 -801.706
-1976.4 -1406.64 -803.375
-1973.99 -1407.28 -798.18
-1971.65 -1407.52 -794.707
-1971.03 -1407.18 -795.556
-1965.02 -1410.62 -767.635
-1967.26 -1410.1 -778.011
-1966.67 -1410.04 -778.042
-1967.67 -1409.33 -782.933
-1968.31 -1408.35 -787.724
-1969 -1407.32 -792.813
-1956.61 -1413.33 -741.401
-1957.88 -1411.35 -748.601
-1959.94 -1410.99 -752.344
-1963.38 -1412.18 -758.585
-1964.36 -1412.17 -759.661
-1963.58 -1412.19 -760.184
-1964.33 -1411.46 -763.396
-1956.55 -1414.1 -741.382
-1953.72 -1420.7 -730.192
-1954.77 -1418.01 -736.568
-1954.81 -1416.7 -736.323
-1954.87 -1415.82 -736.074
-1955.19 -1419.64 -738.133
-1955.09 -1415.31 -735.796
-1956.6 -1414.64 -742.047
-1956.59 -1415.2 -742.26
-1955.96 -1414.32 -738.483
-1956.33 -1414.5 -739.981
-1956.58 -1415.78 -742.408
-1977.38 -1405.59 -810.809
-1976.72 -1405.53 -809.41
-1980.24 -1405.58 -819.687
-1985.05 -1409.42 -811.677
-1983.24 -1407.22 -819.36
-1990.91 -1409.04 -822.901
-1989.7 -1408.51 -822.572
-1987.27 -1408.97 -817.146
-1994.16 -1409.18 -830.314
-1991.13 -1408.19 -828.022
-1975.59 -1405.85 -805.46
-1976.1 -1405.36 -809.256
-1974.67 -1406.22 -803.109
-1971.54 -1406.78 -797.956
-1974.27 -1405.92 -804.142
-1965.82 -1410.29 -773.685
-1967.44 -1409.49 -781.859
-1966.56 -1409.49 -781.581
-1967.56 -1408.16 -787.741
-1968.31 -1407.17 -792.909
-1970.99 -1406.65 -798.127
-1958.04 -1411.6 -749.4
-1961.64 -1412.01 -755.184
-1962.19 -1411.6 -755.728
-1957.89 -1412.38 -749.332
-1963.56 -1411.68 -763.619
-1957.71 -1413.13 -749.099
-1955.93 -1418.9 -740.553
-1956.14 -1417.96 -741.1
-1956.19 -1416.87 -740.763
-1956.07 -1415.44 -739.555
-1957.59 -1413.86 -749.012
-1957.48 -1414.6 -748.882
-1956.5 -1416.51 -742.082
-1956.92 -1416.24 -745.429
-1957.39 -1415.25 -748.729
-1977.56 -1404.17 -820.053
-1976.32 -1403.78 -819.682
-1980.12 -1404.29 -826.123
-1987.18 -1407.96 -821.66
-1985.73 -1406.42 -826.493
-1982.23 -1404.25 -830.944
-1989.61 -1407.53 -827.377
-1996.06 -1409.15 -833.844
-1993.77 -1406.84 -835.658
-1991.79 -1407.02 -832.408
-1975.52 -1404.86 -811.405
-1975.58 -1403.49 -819.833
-1973.81 -1405.72 -804.783
-1964.52 -1410.84 -767.75
-1965.33 -1410.38 -773.825
-1967.04 -1408.25 -787.268
-1966.13 -1409.99 -778.185
-1966.17 -1409.56 -781.195
-1967.75 -1407.01 -793.404
-1961.37 -1412.41 -754.926
-1962.56 -1412.28 -759.213
-1963.19 -1411.91 -763.051
-1960.45 -1413.89 -753.916
-1960.63 -1413.27 -754.048
-1964.16 -1411.02 -768.322
-1964.75 -1410.59 -772.755
-1960.19 -1414.6 -753.684
-1956.88 -1419.09 -746.851
-1956.96 -1418.43 -747.046
-1956.98 -1417.8 -746.914
-1956.87 -1417.33 -745.584
-1959.95 -1415.33 -753.478
-1959.75 -1416.01 -753.348
-1957.2 -1416.37 -747.978
-1959.03 -1417.34 -752.573
-1959.31 -1416.67 -752.843
-1977.64 -1402.25 -829.521
-1977.03 -1402 -829.433
-1980.04 -1402.77 -832.229
-1978.42 -1402.14 -831.402
-1987.09 -1405.69 -830.965
-1989.85 -1406.39 -831.503
-1984.02 -1403.73 -836.416
-1983.24 -1403.03 -838.012
-1996.28 -1407.7 -837.765
-2000.24 -1408.77 -842.5
-1995.13 -1405.16 -842.336
-1996.5 -1405.3 -844.007
-1993.36 -1405.46 -839.04
-1974.81 -1403.26 -819.862
-1974.75 -1404.35 -813.122
-1967.6 -1407.17 -791.95
-1965.41 -1410.14 -779.085
-1965.91 -1409.56 -781.663
-1966.45 -1408.4 -787.115
-1967.73 -1406.83 -794.962
-1970.63 -1406.52 -798.595
-1973.14 -1405.65 -804.878
-1974.12 -1404.17 -813.413
-1962.51 -1412.32 -763.371
-1962.85 -1412.08 -764.041
-1962.51 -1412.14 -757.491
-1964.14 -1410.92 -772.839
-1964.53 -1410.67 -774.259
-1962.07 -1412.83 -757.12
-1958.5 -1418.6 -752.08
-1958.79 -1417.91 -752.392
-1959.22 -1418.48 -756.795
-1959.35 -1418.36 -755.511
-1961.83 -1413.22 -757.343
-1961.54 -1413.81 -757.299
-1961.19 -1414.49 -757.363
-1980.5 -1400.94 -840.05
-1981.15 -1401.94 -837.667
-1980.47 -1401.12 -839.231
-1992.31 -1405.13 -838.842
-1986.63 -1404.63 -835.326
-1992 -1404.71 -840.126
-1985.63 -1402.85 -842.586
-1984.77 -1402.3 -843.694
-1984.01 -1401.87 -844.391
-1982.58 -1401.59 -842.619
-1997.72 -1406.95 -842.322
-2000.41 -1408.41 -843.526
-1998.58 -1406.35 -844.58
-1996.2 -1404.42 -846.496
-1997.35 -1404.49 -847.829
-1997.79 -1405 -846.807
-1996.85 -1405.62 -844.189
-1998 -1404.6 -848.716
-1995.04 -1404.28 -845.434
-1976.3 -1401.87 -828.814
-1980.16 -1400.86 -839.648
-1974.01 -1403.01 -820.034
-1975.89 -1401.93 -828.043
-1965.45 -1409.81 -781.656
-1966.94 -1407.31 -791.621
-1967.2 -1406.85 -794.76
-1970.08 -1406.41 -799.5
-1972.79 -1405.72 -804.471
-1973.38 -1404.36 -812.135
-1973.3 -1403.35 -816.884
-1973.75 -1402.78 -820.979
-1963.62 -1411.27 -773.427
-1961.78 -1412.86 -761.533
-1965.11 -1410.35 -778.436
-1960.38 -1416.15 -757.147
-1960.85 -1415.1 -757.55
-1959.23 -1418.36 -758.143
-1959.53 -1417.61 -758.334
-1959.85 -1417.02 -757.929
-1960.25 -1414.97 -761.384
-1960.34 -1415.93 -758.243
-1961.59 -1413.06 -762.454
-1961.88 -1412.81 -763.46
-1961.22 -1413.38 -761.274
-1961.12 -1413.52 -762.12
-1982.34 -1400.58 -845.443
-1981.56 -1400.23 -844.869
-1988.83 -1404.05 -840.073
-1991.16 -1402.78 -847.774
-1994.51 -1403.39 -848.963
-1987.68 -1401.68 -849.122
-1984.98 -1400.25 -850.269
-1983.38 -1400.75 -846.969
-1984.51 -1400.48 -849.333
-2000.56 -1408.42 -844.559
-1999.09 -1406.48 -846.047
-1998.94 -1404.99 -849.295
-1997.14 -1403.57 -852.29
-1996.11 -1403.3 -851.792
-1998 -1403.9 -852.499
-1998.85 -1404.69 -850.184
-1998.78 -1404.04 -854.02
-1977.69 -1401.03 -834.228
-1977.4 -1401.04 -833.684
-1976.01 -1401.64 -829.342
-1969.14 -1406.43 -799.405
-1965.78 -1408.64 -787.213
-1966.41 -1407.51 -791.55
-1966.81 -1407 -794.222
-1972.51 -1405.67 -804.944
-1973.04 -1403.4 -816.407
-1962.86 -1412.01 -768.109
-1963.46 -1411.39 -774.597
-1964.53 -1410.66 -778.489
-1964.35 -1410.59 -781.143
-1964.97 -1410.15 -781.167
-1959.42 -1417.93 -759.065
-1959.89 -1415.82 -761.161
-1959.7 -1416.18 -762.11
-1960.27 -1414.86 -767.731
-1960.59 -1414.35 -767.884
-1960.02 -1415.39 -767.636
-1960.7 -1414.12 -761.372
-1962.11 -1412.67 -768.515
-1962.78 -1412.01 -773.437
-1963.1 -1411.69 -774.061
-1961.5 -1413.29 -768.104
-1962.37 -1412.5 -775.145
-1982.68 -1399.07 -850.004
-1987.54 -1400.15 -853.704
-1993.52 -1401.34 -856.817
-1999.5 -1406.37 -847.321
-2000.5 -1408.3 -845.805
-1999.73 -1404.86 -852.641
-1999.44 -1404.43 -854.14
-1996.96 -1402.1 -860.549
-1995.15 -1401.43 -859.78
-1998.29 -1402.66 -860.863
-1999.26 -1403.14 -861.192
-1980.99 -1399.8 -844.85
-1979.16 -1400.45 -838.974
-1971.64 -1406.01 -803.459
-1969.16 -1406.38 -800.4
-1966.04 -1407.59 -791.935
-1966.4 -1407.08 -794.59
-1967.57 -1406.7 -796.551
-1972.14 -1405.56 -806.074
-1972.67 -1404.39 -811.896
-1972.71 -1402.87 -818.931
-1974.46 -1402.01 -825.502
-1976.98 -1401.07 -832.917
-1964.01 -1411.01 -778.814
-1963.86 -1411 -781.076
-1964.89 -1409.34 -786.485
-1965.47 -1408.96 -786.564
-1965.76 -1407.77 -791.313
-1961.02 -1413.82 -768.136
-1959.53 -1416.79 -762.063
-1960.08 -1416.17 -771.149
-1960.37 -1416.09 -774.177
-1960.8 -1415.1 -775.383
-1961.15 -1414.4 -775.813
-1961.45 -1413.76 -775.404
-1962.73 -1412.12 -775.852
-1963.26 -1411.71 -779.436
-1963.47 -1411.46 -778.86
-1962.15 -1412.82 -776.013
-1962.82 -1412.22 -780.6
-1984.31 -1398.49 -855.725
-1988.74 -1399.69 -858.499
-1990.21 -1399.19 -863.302
-1999.85 -1406.49 -848.147
-2000.13 -1404.95 -853.878
-2000.53 -1405.14 -854.598
-2000.35 -1406.85 -849.087
-2000.39 -1403.98 -860.405
-1999.99 -1403.57 -861.094
-1997.77 -1401.14 -868.456
-1998.76 -1401.61 -868.07
-1995.01 -1400.24 -867.745
-1999.46 -1401.99 -867.84
-2000.24 -1402.13 -869.203
-1984.05 -1397.78 -858.135
-1985.08 -1397.64 -861.106
-1980.36 -1400.45 -841.547
-1980.58 -1399.91 -843.747
-1971.27 -1406.04 -803.874
-1966.12 -1407.14 -795.013
-1967 -1406.76 -796.913
-1968.63 -1406.51 -800.642
-1972.52 -1404.31 -812.437
-1972.83 -1403.49 -815.921
-1972.32 -1402.94 -817.929
-1973.6 -1402.23 -823.262
-1963.94 -1410.13 -785.947
-1964.57 -1409.62 -786.219
-1964.86 -1408.43 -791.396
-1961.82 -1413.24 -775.881
-1960.56 -1416.8 -780.158
-1961.46 -1414.69 -780.089
-1961.79 -1413.98 -780.681
-1961.88 -1413.74 -779.821
-1962.24 -1413.12 -780.439
-1963.34 -1411.54 -781.365
-1962.82 -1411.4 -785.094
-1963.29 -1410.69 -785.897
-1987.46 -1398.21 -864.029
-1990.16 -1398.17 -868.382
-1987.78 -1397.01 -868.696
-2000.81 -1404.28 -860.652
-2001.18 -1405.44 -856.05
-2001.22 -1404.64 -860.751
-2000.85 -1406.68 -851.495
-2000.39 -1402.67 -867.282
-2000.84 -1403.26 -866.286
-1998.76 -1400.17 -875.757
-2000.07 -1400.42 -877.171
-2000.6 -1401.2 -874.486
-1996.89 -1399.8 -874.687
-1993.52 -1399.25 -872.842
-2002.15 -1400.89 -879.626
-2002.54 -1401.25 -879.234
-1981.95 -1398.78 -849.377
-1984.25 -1397.29 -860.698
-1985.95 -1396.5 -868.037
-1986.79 -1396.63 -869.345
-1980.58 -1399.51 -844.715
-1966.12 -1407.17 -795.893
-1970.84 -1406.11 -804.153
-1972.35 -1403.49 -815.736
-1972.03 -1402.97 -817.474
-1972.85 -1402.41 -821.36
-1979.63 -1400.19 -840.768
-1980.19 -1399.52 -843.875
-1964.3 -1408.9 -791.272
-1963.73 -1409.41 -790.898
-1965.71 -1407.51 -793.743
-1965.17 -1407.9 -793.905
-1961.36 -1414.28 -785.603
-1961.64 -1413.06 -785.712
-1961.82 -1412.79 -785.082
-1962.1 -1412.47 -784.777
-1962.39 -1411.95 -785.246
-1963.15 -1409.96 -790.744
-1989.33 -1397.71 -871.511
-1989.22 -1397.62 -872.659
-2001.34 -1403.67 -866.471
-2001.82 -1405.84 -857.151
-2001.53 -1404.8 -861.151
-2001.82 -1405.28 -860.704
-2001.78 -1404 -866.76
-2001.83 -1402.15 -873.647
-2002.25 -1402.44 -873.676
-1999.77 -1399.2 -883.103
-2000.77 -1399.5 -883.261
-2002.03 -1400.31 -881.992
-2002.15 -1399.81 -884.852
-1996.47 -1399.24 -877.542
-1992.17 -1398.47 -876.302
-2003.79 -1400.61 -885.563
-2003.62 -1400.13 -887.814
-2003.47 -1401.28 -881.838
-2004.58 -1400.68 -888.338
-1981.89 -1398.41 -850.705
-1983.46 -1397.6 -857.641
-1987.77 -1397.13 -875.196
-1988.37 -1397.31 -873.967
-1988.94 -1397.5 -873.567
-1981.26 -1398.98 -847.407
-1966.72 -1406.86 -798.075
-1968.31 -1406.68 -801.237
-1970.17 -1406.28 -804.941
-1971.36 -1405.73 -806.368
-1972.1 -1404.54 -811.707
-1975.75 -1401.25 -830.282
-1980.68 -1399.43 -846.025
-1964.74 -1408.28 -793.653
-1965.76 -1407.42 -795.508
-1961.67 -1413.77 -787.555
-1961.02 -1416.1 -786.112
-1962.21 -1411.68 -790.307
-1962.6 -1410.82 -789.824
-1963.12 -1410.09 -790.118
-1964.08 -1408.85 -793.717
-2002.68 -1402.69 -874.146
-2002.11 -1405.74 -860.518
-2001.87 -1404.71 -864.719
-2002.39 -1403.92 -869.129
-2003.25 -1402.86 -875.533
-2003.7 -1401.6 -881.399
-1999.7 -1398.77 -886.089
-2001.5 -1398.81 -890.072
-2000.97 -1398.36 -892.191
-2002.21 -1399.06 -890.699
-2003.21 -1399.84 -888.104
-2003.25 -1399.24 -893.225
-1995.81 -1398.7 -880.324
-1990.06 -1397.68 -880.588
-2005.27 -1400.25 -893.36
-2004.85 -1399.75 -895.538
-2005.38 -1401.19 -889.072
-2005.42 -1400.9 -890.464
-2005.97 -1400.32 -895.734
-1982.79 -1398.11 -855.078
-1984.14 -1397.19 -861.184
-1987.42 -1396.97 -874.392
-1986.38 -1396.36 -870.057
-1987.16 -1396.66 -871.873
-1990.05 -1397.42 -885.024
-1987.24 -1396.86 -882.891
-1982.59 -1399.14 -854.072
-1966.28 -1407.13 -797.397
-1967.86 -1406.97 -801.625
-1969.52 -1406.52 -804.126
-1969.81 -1406.45 -805.262
-1970.72 -1405.92 -806.734
-1971.85 -1403.91 -815.826
-1971.45 -1403.97 -817.274
-1971.65 -1403.49 -819.421
-1973.57 -1402.08 -824.535
-1976.27 -1401.15 -831.488
-1979.32 -1399.83 -841.206
-1980.57 -1399.9 -845.675
-1982.19 -1401.06 -851.885
-1965.24 -1407.85 -795.655
-1972.53 -1414.7 -827.975
-1961.94 -1413.59 -789.271
-1961.53 -1415.71 -788.479
-1962.28 -1411.7 -791.541
-1962.49 -1411.25 -792.08
-1962.81 -1410.58 -792.066
-1962.82 -1410.86 -792.984
-1963.56 -1409.48 -793.006
-1964.58 -1408.48 -795.437
-2004.17 -1402.14 -881.137
-2002.16 -1405.15 -864.561
-2002.46 -1404.43 -867.671
-2003.46 -1403.35 -874.984
-2005.34 -1401.47 -887.652
-1999.52 -1398.17 -890.649
-2000.49 -1397.91 -894.81
-2002.17 -1398.31 -896.679
-2001.39 -1398.01 -896.904
-2003.18 -1398.77 -897.009
-2004.32 -1399.21 -898.482
-1995.83 -1398.35 -884.045
-2005.43 -1399.86 -897.473
-2005.16 -1399.59 -899.572
-2007.01 -1401.29 -895.179
-2006.6 -1400.82 -895.811
-2006.1 -1400.24 -899.048
-2006.81 -1400.75 -898.779
-1984.59 -1396.95 -863.732
-1987 -1396.88 -876.245
-1986.93 -1396.73 -883.449
-1990.52 -1397.4 -889.072
-1995.67 -1398.16 -888.283
-1990.2 -1397.36 -891.125
-1967.44 -1407.16 -801.383
-1969.24 -1406.81 -804.757
-1969.86 -1406.48 -806.174
-1970.58 -1406.02 -807.262
-1971.35 -1404.98 -812.104
-1971.2 -1404.72 -817.126
-1971.29 -1404.63 -819.336
-1973.51 -1403.34 -825.378
-1976.27 -1401.27 -832.74
-1979.4 -1400.06 -841.723
-1980.62 -1401.65 -846.038
-1982.43 -1401.9 -852.89
-1983.76 -1397.63 -859.984
-1965.67 -1407.67 -797.592
-1971.08 -1411.4 -823.382
-1971.97 -1410.14 -825.217
-1975.17 -1410.45 -831.999
-1974.11 -1407.12 -829.856
-1973.23 -1408.87 -828.016
-1962.26 -1413.5 -791.696
-1962.02 -1415.28 -791.446
-1962.48 -1411.7 -792.705
-1962.9 -1411.18 -794.001
-1963.29 -1410.72 -795.043
-1963.45 -1409.93 -793.881
-1963.35 -1410.3 -794.471
-1963.03 -1414.96 -796.151
-1964.1 -1414.61 -800.752
-1964.93 -1414.32 -804.044
-1966.15 -1412.6 -807.132
-1965.1 -1408.3 -797.653
-2005.13 -1402.21 -883.754
-2003.93 -1403.9 -875.723
-2004.91 -1403.1 -880.863
-2004.55 -1402.53 -881.212
-2005.43 -1401.85 -886.335
-2006.2 -1402.46 -887.427
-2002.8 -1404.47 -869.217
-2006.63 -1401.61 -892.089
-1999.03 -1397.97 -891.991
-2000.06 -1397.55 -896.767
-2000.92 -1397.79 -897.556
-2003.43 -1398.71 -899.484
-2002.45 -1398.29 -899.069
-2001.83 -1398.04 -899.183
-2004.56 -1399.19 -901.006
-2005.92 -1399.99 -902.128
-2005.31 -1399.61 -903.496
-2007.71 -1401.81 -896.248
-2007.52 -1401.29 -898.77
-2006.85 -1400.69 -902.525
-1986.6 -1396.41 -871.281
-1987.26 -1396.69 -885.986
-1989.33 -1397.17 -891.225
-1987 -1396.8 -874.617
-1986.37 -1396.55 -882.95
-1997.58 -1397.89 -892.913
-1996.98 -1397.76 -895.145
-1995.46 -1397.74 -896.131
-1970.27 -1406.23 -807.761
-1971.43 -1405.06 -811.198
-1971.3 -1405.05 -816.184
-1970.78 -1405.35 -817.878
-1971.08 -1405.82 -819.668
-1973.41 -1404.75 -826.183
-1975.71 -1402.71 -832.084
-1978.08 -1403.23 -838.775
-1979.26 -1401.59 -841.581
-1980.58 -1403.83 -846.148
-1982.34 -1403.21 -852.243
-1983.45 -1401.02 -857.989
-1984.03 -1398.13 -861.389
-1986.06 -1396.39 -870.451
-1967.23 -1407.5 -802.009
-1966.9 -1407.98 -802.305
-1969.23 -1406.94 -805.401
-1968.64 -1407.59 -805.657
-1966.39 -1413.73 -809.977
-1970.02 -1411.7 -821.285
-1970.3 -1411.45 -821.63
-1969.71 -1411.78 -820.844
-1970.3 -1409.74 -820.603
-1970.7 -1408.98 -820.954
-1976.27 -1409.02 -834.597
-1975.15 -1405.27 -832.01
-1977.07 -1414.05 -837.079
-1977.16 -1409.84 -836.668
-1971.92 -1406.66 -822.862
-1971.1 -1407.88 -821.28
-1963.07 -1412.96 -795.725
-1963.09 -1411.33 -795.135
-1964.04 -1410.51 -797.871
-1963.78 -1411 -797.563
-1964.13 -1410.01 -797.26
-1964.09 -1409.49 -795.924
-1964.25 -1412.53 -800.498
-1964.85 -1412.08 -802.962
-1965.23 -1411.13 -803.226
-1967.67 -1411.27 -812.925
-1967.23 -1410.59 -808.522
-1965.74 -1410.2 -803.457
-1965.38 -1410.44 -802.754
-1964.75 -1408.9 -797.814
-1966.29 -1408.78 -802.501
-2006.12 -1403.22 -883.692
-2006.23 -1402.79 -886.292
-2007.7 -1402.31 -893.741
-1999.52 -1397.51 -896.649
-2000.27 -1397.51 -898.4
-2001.06 -1397.76 -899.038
-2003.71 -1398.82 -901.746
-2004.27 -1399.05 -902.127
-2003.33 -1398.65 -902.282
-2002.63 -1398.37 -901.906
-2005.12 -1399.53 -905.257
-2007.72 -1401.46 -909.671
-1987.99 -1396.8 -889.548
-1992 -1397.52 -896.361
-1992.66 -1397.58 -895.988
-1999.52 -1397.5 -897.97
-1998.98 -1397.58 -898.365
-1997 -1397.82 -898.843
-1986.52 -1396.55 -874.821
-1970.75 -1406.01 -816.873
-1970.6 -1406.29 -818.86
-1976.64 -1403.79 -835.446
-1978.84 -1408.69 -840.906
-1979.79 -1406.14 -843.441
-1980.64 -1405.97 -846.772
-1982.5 -1404.32 -852.786
-1983.34 -1403.36 -856.987
-1984.18 -1399.79 -861.893
-1984.67 -1397.36 -864.744
-1986.38 -1396.34 -872.104
-1968.21 -1408.16 -806.059
-1969.82 -1406.56 -807.489
-1969.23 -1407.18 -807.725
-1968.05 -1412.18 -816.662
-1968.35 -1412.6 -818.192
-1968.6 -1412.92 -819.02
-1969.38 -1411.65 -820.178
-1969.09 -1411.16 -819.353
-1969.95 -1409.91 -820.093
-1969.73 -1410.44 -820.009
-1969.43 -1410.58 -819.407
-1970.18 -1408.14 -819.299
-1969.83 -1408.66 -818.801
-1970.37 -1407.22 -819.055
-1964.63 -1409.41 -798.473
-1968.41 -1409.82 -814.08
-1967.56 -1410.08 -808.776
-1966.86 -1410.29 -806.907
-1965.72 -1409.59 -802.462
-1965.94 -1409.15 -802.326
-1967.14 -1409.7 -806.789
-1967.7 -1408.86 -806.484
-2000.51 -1397.62 -899.812
-2001.72 -1398.04 -901.112
-2004.53 -1399.18 -905.994
-2004.29 -1399.08 -906.496
-2003.83 -1398.87 -906.023
-2006.93 -1400.93 -910.071
-1985.88 -1396.43 -882.207
-1991.72 -1397.51 -897.19
-1994.86 -1397.78 -899.947
-1999.87 -1397.61 -899.918
-1999.07 -1397.77 -900.242
-1996.37 -1398.01 -901.367
-1986.17 -1396.6 -877.079
-1985.89 -1397.35 -883.052
-1970.7 -1405.86 -812.353
-1970.37 -1406.75 -817.222
-1979.96 -1409.11 -844.296
-1981.76 -1405.83 -850.45
-1983.04 -1405.89 -855.018
-1984.15 -1401.42 -861.4
-1985.49 -1397.06 -868.778
-1985.77 -1396.51 -869.867
-1968.83 -1407.71 -807.892
-1970.22 -1406.55 -812.565
-1969.93 -1406.9 -812.075
-1968.68 -1410.7 -818.013
-1969.07 -1410.17 -818.301
-1968.79 -1410.2 -817.61
-1969.46 -1409.28 -818.22
-1969.21 -1409.32 -817.558
-1970.04 -1407.51 -817.379
-1969.78 -1408.1 -817.083
-1968.65 -1409.24 -813.591
-1967.83 -1409.53 -808.5
-1968.25 -1408.73 -808.09
-2001 -1397.93 -901.505
-2002.39 -1398.42 -904.058
-2005.84 -1400.35 -909.785
-2005.38 -1400.22 -909.95
-2004.84 -1399.99 -909.764
-2003.31 -1399.01 -907.255
-1987.26 -1396.68 -888.969
-1993.02 -1397.7 -900.833
-1991.43 -1397.5 -897.769
-1994.86 -1398.03 -902.613
-2000.73 -1398.26 -903.246
-1998.55 -1398.63 -904.675
-1996.02 -1398.77 -906.553
-1986.17 -1398.81 -880.155
-1986.22 -1398.86 -884.961
-1988.1 -1396.89 -891.781
-1981.08 -1407.86 -849.031
-1983.7 -1405.5 -858.359
-1984.11 -1403.02 -860.874
-1982 -1408.12 -851.803
-1984.94 -1399.56 -865.74
-1985.96 -1397.17 -871.856
-1986.23 -1399.44 -874.581
-1986.23 -1397.05 -874.531
-1969.25 -1408.03 -812.592
-1969.65 -1407.67 -813.752
-1968.93 -1408.81 -813.766
-2002.46 -1398.7 -905.888
-2004.04 -1399.89 -910.002
-2003.17 -1399.82 -910.004
-1990.97 -1397.48 -898.475
-1992.08 -1397.7 -901.414
-1994.22 -1398.11 -903.803
-1991.83 -1397.84 -902.216
-1994.28 -1399.12 -909.402
-1999.75 -1399.48 -909.267
-2001.96 -1399.67 -909.841
-1996.36 -1400.19 -913.677
-1994.98 -1400.24 -914.55
-1986.38 -1399.93 -878.232
-1986.58 -1401.91 -884.616
-1986.54 -1400.55 -885.97
-1988.56 -1397.06 -893.384
-1984.55 -1406.76 -860.674
-1985.02 -1404.12 -863.687
-1985.49 -1402.15 -866.426
-1985.98 -1400.24 -869.65
-1986.42 -1401.08 -872.047
-1986.16 -1403.09 -874.9
-1986.48 -1404.45 -877.621
-2001.67 -1400.58 -913.438
-1991.16 -1397.95 -902.329
-1993.45 -1398.09 -904.107
-1993.03 -1399.5 -911.382
-1992.74 -1399.02 -909.152
-1994.82 -1400.42 -915.602
-1994.64 -1400.58 -916.45
-1986.6 -1402.85 -880.322
-1986.79 -1404.03 -885.418
-1988.05 -1398.7 -892.172
-1988.71 -1397.28 -894.197
-1986.47 -1411.78 -866.365
-1986.8 -1411.28 -868.263
-1986.75 -1404.58 -872.1
-1986.09 -1404.63 -873.777
-1986.01 -1406.34 -875.324
-1992.11 -1398.43 -906.35
-1992.5 -1398.67 -907.511
-1992.04 -1400.18 -914.547
-1994.48 -1400.82 -917.397
-1991.06 -1400.1 -913.759
-1991.56 -1400.09 -913.905
-1987.93 -1401.82 -890.958
-1989.23 -1397.63 -896.222
-1989.91 -1397.39 -897.447
-1990.61 -1397.53 -899.47
-1990.26 -1398.18 -902.665
-1991.72 -1398.55 -906.757
-1991.06 -1399.81 -912.287
-1991.82 -1400.47 -915.602
-1991.25 -1400.48 -915.423
-1990.66 -1400.29 -914.398
-1987.26 -1407.18 -887.152
-1989.29 -1398.71 -896.649
-1989.65 -1397.58 -898.091
-1989.77 -1397.93 -900.164
-1991.43 -1398.48 -906.296
-1990.24 -1398.25 -903.376
-1990.54 -1399.98 -912.716
-1990.4 -1400.54 -915.109
-1989.31 -1402.06 -894.727
-1989.9 -1403.04 -896.557
-1991.08 -1399.1 -909.028
-1990.09 -1400.26 -913.586
-1989.47 -1399.31 -900.607
-1990.64 -1399.13 -907.795
-1990.13 -1400.39 -914.386
-1989.82 -1400.8 -915.379
-1989.27 -1400.5 -901.323
-1990.4 -1399.37 -907.018
-2005.3 -1397.92 -921.714
-2005.82 -1397.91 -922.558
-1989.91 -1400.52 -913.128
-1989.62 -1400.72 -914.19
-1988.95 -1401.3 -902.421
-1990.16 -1399.8 -906.502
-1989.83 -1400.79 -912.423
-2005.19 -1397.62 -922.347
-2004.68 -1397.76 -921.808
-2006.79 -1398.07 -923.699
-1989.6 -1401.09 -914.998
-1989.5 -1401.17 -913.961
-1988.73 -1401.84 -903.713
-1990.06 -1400.34 -907.561
-1989.46 -1401.41 -913.264
-2005.03 -1397.4 -922.852
-2006.74 -1397.71 -924.703
-2005.64 -1397.53 -923.364
-2005.56 -1397.32 -924.21
-1989.69 -1401.15 -906.967
-1989.41 -1401.64 -912.434
-2004 -1397.88 -921.344
-2004.5 -1398.09 -921.422
-2003.94 -1397.65 -921.802
-2006.35 -1397.29 -925.899
-2007.33 -1397.37 -926.611
-1989.36 -1401.97 -906.952
-1989.31 -1401.88 -911.347
-2004.35 -1398.47 -920.568
-2004.53 -1397.51 -922.547
-2006.21 -1396.92 -927.522
-2007.73 -1397.44 -928.091
-2005.4 -1397.04 -925.35
-2004.78 -1397.12 -924.107
-2005.49 -1396.79 -927.393
-2003.23 -1399.12 -919.615
-2003.74 -1398.23 -920.606
-2003.5 -1397.46 -921.986
-2004.4 -1397.35 -923.166
-2007.21 -1397.01 -929.699
-2006.49 -1396.86 -930.024
-2005.29 -1396.78 -926.855
-2004.18 -1397.15 -923.916
-2005.58 -1396.75 -929.118
-2005.9 -1396.78 -929.733
-2002.44 -1398.78 -919.973
-2003.21 -1398.13 -920.668
-2000.9 -1398.72 -921.765
-2001.14 -1398.54 -921.252
-2001.56 -1398.55 -920.574
-2002.28 -1398.1 -920.755
-2003.56 -1397.93 -921.015
-2003.53 -1397.69 -921.48
-2003.98 -1397.44 -922.475
-2004.67 -1396.95 -925.01
-2003.62 -1397.12 -923.853
-2006.51 -1396.89 -932.707
-2001.25 -1398.18 -923.073
-2001.52 -1397.78 -922.528
-2001.65 -1397.93 -921.903
-2001.13 -1398.48 -924.17
-2001.46 -1398.1 -925.232
-2001.66 -1397.83 -925.973
-2001.98 -1398.01 -921.334
-2002.65 -1397.72 -921.305
-2003.61 -1397.2 -923.317
-2005.9 -1396.84 -933.701
-2004.99 -1396.68 -928.995
-2001.36 -1398.16 -923.68
-2001.41 -1398.13 -924.442
-2002.12 -1397.6 -922.365
-2001.91 -1397.6 -925.559
-2002.21 -1397.75 -921.753
-2003.74 -1396.86 -925.097
-2004.6 -1396.71 -926.88
-2005.65 -1396.82 -933.223
-2004.55 -1396.65 -928.743
-2001.8 -1397.65 -923.839
-2001.73 -1397.74 -923.099
-2002.31 -1397.52 -922.934
-2002.39 -1397.27 -925.843
-2002.51 -1397.55 -930.19
-2002.99 -1397.48 -921.833
-2003.05 -1397.16 -923.001
-2003.79 -1396.7 -926.39
-2003.2 -1396.96 -925.127
-2002.94 -1397.11 -923.823
-2003.97 -1396.65 -927.515
-2004.94 -1396.83 -932.66
-2001.8 -1397.69 -924.745
-2002.54 -1397.21 -924.878
-2002.09 -1397.4 -924.163
-2002.55 -1397.31 -923.463
-2003.33 -1397.26 -922.583
-2002.95 -1397.02 -926.41
-2003.13 -1397.2 -930.563
-2003.55 -1396.78 -926.839
-2004.52 -1396.83 -931.633
-2003.65 -1397.05 -931.267
-2003.87 -1397.05 -932.125
