-1966.47 -1834.56 4802 
-1965.24 -1825.85 4803.77 
-1964.98 -1825.28 4802.56 
-1964.63 -1824.6 4801.42 
-1965.86 -1833.1 4800.6 
-1967.32 -1835.68 4806.5 
-1965.64 -1826.55 4805.63 
-1967.94 -1834.41 4810.51 
-1965.8 -1825.42 4807.63 
-1968.36 -1834.21 4812.56 
-1969.61 -1838.32 4813.97 
-1969.85 -1837.92 4815.26 
-1968.61 -1834.33 4813.74 
-1939.17 -1807.04 4800.49 
-1939.47 -1808.28 4797.94 
-1941.06 -1808.27 4799.26 
-1940.54 -1807.91 4800.36 
-1946.42 -1811.06 4795.76 
-1944.47 -1810.16 4796.27 
-1939.65 -1809.67 4794.72 
-1939.94 -1809.15 4796.38 
-1941.6 -1808.88 4797.88 
-1945.66 -1809.83 4797.35 
-1940.6 -1811.31 4793.39 
-1946.74 -1811.86 4794.88 
-1942.57 -1813.45 4792.36 
-1949 -1812.79 4794.33 
-1949.09 -1813.4 4793.62 
-1965.3 -1830.83 4800.09 
-1964.12 -1824.26 4800.21 
-1964.7 -1829.83 4799.35 
-1963.61 -1824.19 4799.08 
-1963.13 -1823.73 4798.26 
-1964.04 -1828.65 4798.74 
-1964.3 -1820.04 4803.75 
-1963.98 -1820.28 4801.93 
-1964.74 -1819.41 4805.89 
-1963.59 -1820.19 4800.67 
-1965.99 -1824.86 4809.67 
-1965.02 -1819.83 4807.46 
-1969.96 -1838.95 4816.15 
-1969.86 -1837.78 4816.03 
-1970.04 -1839.07 4815.74 
-1968.66 -1833.97 4814.48 
-1966.11 -1824.56 4811.78 
-1938.85 -1806.74 4802.01 
-1941.45 -1807.92 4801.7 
-1940.62 -1807.5 4802.33 
-1942.82 -1808.4 4800.69 
-1943.26 -1808.62 4799.42 
-1951.68 -1810.08 4799.13 
-1953.25 -1811.35 4798.07 
-1953.13 -1812.59 4795.75 
-1947.27 -1809.5 4798.51 
-1947.37 -1809.08 4799.34 
-1951.98 -1809.02 4800.36 
-1953.76 -1813.56 4794.69 
-1943.86 -1814.55 4791.78 
-1949.94 -1813.83 4793.34 
-1953.92 -1814 4794.22 
-1962.82 -1823.36 4797.77 
-1963.06 -1819.88 4799.18 
-1962.65 -1819.65 4798.28 
-1963.77 -1818.47 4802.26 
-1964.24 -1817.68 4805.14 
-1963.52 -1819.16 4800.87 
-1964.3 -1817.44 4806.58 
-1963.15 -1819.02 4799.87 
-1965.05 -1819.74 4808.45 
-1964.24 -1817.2 4807.76 
-1968.9 -1834.04 4815.6 
-1969.51 -1838.16 4816.93 
-1965.96 -1824.6 4813.26 
-1965.06 -1819.53 4809.61 
-1936.86 -1806.06 4808 
-1937.05 -1805.85 4806.62 
-1940.03 -1807.2 4803.58 
-1942.38 -1807.96 4803.14 
-1943.36 -1808.38 4801.84 
-1941.67 -1807.69 4804.11 
-1947.23 -1808.7 4799.98 
-1946.84 -1808.33 4800.53 
-1954.33 -1809.73 4801.14 
-1955.6 -1811.34 4799.81 
-1955.12 -1812.63 4796.88 
-1955.31 -1813.67 4795.1 
-1952.21 -1808.31 4801.3 
-1951.31 -1807.71 4800.78 
-1953.65 -1808.98 4802.37 
-1955.62 -1814.45 4794.21 
-1945.44 -1815.11 4791.79 
-1950.6 -1814.34 4793.09 
-1954.38 -1814.58 4793.66 
-1946.98 -1816.6 4791.61 
-1950.91 -1814.93 4792.84 
-1951.66 -1815.33 4792.77 
-1948.47 -1817.32 4791.69 
-1962.41 -1822.89 4797.21 
-1963.08 -1827.75 4797.58 
-1962.28 -1819.32 4797.43 
-1962.57 -1818.5 4798.66 
-1962.07 -1818.35 4797.42 
-1963.44 -1818.32 4800.95 
-1963.35 -1817.21 4801.67 
-1963.43 -1816.05 4803.44 
-1963.68 -1815.89 4805.24 
-1963.59 -1815.85 4806.57 
-1963.06 -1818.2 4799.99 
-1964.09 -1816.66 4808.7 
-1963.18 -1815.53 4807.6 
-1965.91 -1825.12 4814.4 
-1968.43 -1834.36 4816.42 
-1965.14 -1819.7 4811.37 
-1964.22 -1816.65 4809.88 
-1940.81 -1807.43 4805.25 
-1941.74 -1807.3 4807.23 
-1936.95 -1806.35 4809.47 
-1942.91 -1807.55 4804.27 
-1943.86 -1807.84 4803.14 
-1947.08 -1807.91 4801.14 
-1947.16 -1807.25 4801.92 
-1942.33 -1807.29 4805.65 
-1951.51 -1807.15 4801.48 
-1951.17 -1806.6 4801.93 
-1955.33 -1808.84 4803.06 
-1955.99 -1810.15 4802.17 
-1956.63 -1812.46 4798.57 
-1957.1 -1811.07 4802.12 
-1956.28 -1813.55 4795.98 
-1956.65 -1814.43 4794.84 
-1954.07 -1808.26 4803.4 
-1952.64 -1807.75 4802.28 
-1956.41 -1814.83 4793.81 
-1956.88 -1814.9 4794.33 
-1955.4 -1814.86 4793.33 
-1952.16 -1815.65 4792.71 
-1949.68 -1817.42 4791.81 
-1956.12 -1815.17 4793.27 
-1961.71 -1819.12 4796.48 
-1961.87 -1822.64 4796.56 
-1961.58 -1818.1 4796.35 
-1962.04 -1817.39 4797.95 
-1962.56 -1817.43 4799.2 
-1961.62 -1817.29 4796.88 
-1963.19 -1817.44 4800.75 
-1962.85 -1816.25 4801.83 
-1962.89 -1814.98 4803.05 
-1963.22 -1814.38 4804.48 
-1962.87 -1814.39 4806.04 
-1963.16 -1815.47 4808.81 
-1962.35 -1814.11 4807.52 
-1966.6 -1831.43 4818.59 
-1966.39 -1827.96 4816.36 
-1968.3 -1836.65 4818.14 
-1965.2 -1820.57 4813.14 
-1964.55 -1817.4 4811.46 
-1963.53 -1815.45 4809.92 
-1933.01 -1805.93 4817.74 
-1942.61 -1807.53 4811.1 
-1940.47 -1807.3 4813.11 
-1936.94 -1806.89 4811.64 
-1941.25 -1807.22 4809.56 
-1946.56 -1807.7 4809.35 
-1946.6 -1807.51 4808.15 
-1943.22 -1807.22 4805.2 
-1946.85 -1807.02 4804.27 
-1947.06 -1806.75 4802.8 
-1950.41 -1806.82 4803.31 
-1946.54 -1807.42 4807.16 
-1952.92 -1806.99 4803.14 
-1952.19 -1806.55 4803.48 
-1955.76 -1807.73 4803.47 
-1956.74 -1809.2 4803.03 
-1958.12 -1812.14 4800.94 
-1957.35 -1813.45 4796.99 
-1957.79 -1810.3 4802.71 
-1957.38 -1814.27 4795.75 
-1957.62 -1814.88 4795.19 
-1954.03 -1807.45 4803.71 
-1955.49 -1806.81 4803.87 
-1956.75 -1815.15 4793.58 
-1957.13 -1815.23 4794.01 
-1957.66 -1815.18 4794.73 
-1956.15 -1815.55 4793.14 
-1952.78 -1816.03 4792.61 
-1950.22 -1818.23 4791.67 
-1956.84 -1815.54 4793.45 
-1961.12 -1819.2 4795.66 
-1961.42 -1822.54 4796.02 
-1960.64 -1819.46 4795.01 
-1961.01 -1822.27 4795.49 
-1960.5 -1822.19 4795.03 
-1961.21 -1818.31 4795.79 
-1961.39 -1817.18 4796.43 
-1961.33 -1817.63 4796.09 
-1962 -1816.45 4798.35 
-1961.49 -1816.38 4797.13 
-1962.65 -1816.66 4799.83 
-1962.49 -1815.86 4801.32 
-1962.44 -1814.22 4802.55 
-1962.93 -1813.42 4803.88 
-1962.97 -1812.69 4805.32 
-1962.85 -1811.96 4806.23 
-1962.47 -1814.38 4808.85 
-1962.9 -1811.92 4806.96 
-1965.13 -1834.47 4825.49 
-1966.56 -1835.82 4822.33 
-1965.46 -1828.35 4819.17 
-1965.21 -1823.91 4816.14 
-1964.75 -1818.39 4812.8 
-1963.99 -1816.05 4811.16 
-1963.12 -1814.57 4810.16 
-1936.82 -1807.69 4822.41 
-1937.8 -1807.18 4817.5 
-1939.74 -1810.4 4829.1 
-1950.74 -1809.16 4812.17 
-1950.62 -1808.62 4810.68 
-1949.03 -1809.33 4813.92 
-1952.63 -1807.94 4808.59 
-1951.61 -1807.53 4807.22 
-1946.42 -1807.22 4805.92 
-1951.32 -1807.04 4805.09 
-1950.3 -1807.37 4805.99 
-1953.93 -1806.29 4804.13 
-1954.78 -1806.37 4804.02 
-1953.1 -1806.68 4804.95 
-1957.07 -1807.71 4803.47 
-1957.88 -1808.84 4802.96 
-1958.36 -1813.31 4798.38 
-1959.29 -1811.84 4802.06 
-1958.11 -1814.27 4796.53 
-1958.84 -1810.04 4802.51 
-1958.37 -1814.94 4795.93 
-1958.44 -1815.29 4795.34 
-1956.27 -1805.51 4804.24 
-1956.98 -1806.34 4803.91 
-1957.38 -1815.59 4793.77 
-1957.99 -1815.52 4794.45 
-1953.26 -1816.4 4792.57 
-1955.96 -1816 4792.99 
-1956.5 -1816.26 4793.23 
-1950.93 -1818.49 4791.93 
-1951.38 -1819.92 4791.8 
-1952.01 -1819.58 4792.14 
-1957.39 -1816.18 4793.57 
-1960.54 -1819 4794.91 
-1960.03 -1822.01 4794.62 
-1960.3 -1819.23 4794.64 
-1960.85 -1818.67 4795.29 
-1961.17 -1817.99 4795.75 
-1961.18 -1816.41 4796.62 
-1961.19 -1816.97 4796.23 
-1961.11 -1817.35 4795.89 
-1961.48 -1815.6 4797.66 
-1962 -1815.7 4798.86 
-1961.01 -1815.59 4797.08 
-1962.31 -1815.66 4800.22 
-1962 -1814.06 4801.72 
-1962.31 -1812.52 4802.77 
-1962.22 -1811.9 4803.99 
-1962.19 -1811.22 4804.99 
-1962.58 -1810.87 4805.71 
-1962.67 -1812.83 4808.19 
-1962.92 -1810.61 4806.41 
-1962.29 -1828.18 4827.11 
-1964.47 -1830.57 4823.38 
-1963.98 -1824.66 4819.84 
-1964.42 -1822.35 4816.77 
-1964.31 -1817.82 4813.24 
-1964.06 -1816.07 4811.77 
-1963.46 -1814.52 4811.11 
-1962.77 -1813.7 4809.73 
-1940.44 -1809.43 4823.82 
-1941.37 -1808.63 4819.02 
-1944.62 -1813.65 4829.5 
-1955.55 -1808.68 4810.68 
-1954.99 -1808.38 4810.29 
-1954.26 -1808.04 4809.14 
-1950.94 -1810.25 4815.23 
-1955.23 -1809.07 4811.19 
-1953.67 -1807.5 4807.46 
-1953.11 -1807.12 4806.23 
-1955.44 -1805.6 4804.59 
-1954.58 -1806.42 4805.42 
-1958.15 -1807.04 4803.51 
-1958.86 -1808.38 4802.92 
-1959.67 -1813.06 4800.5 
-1958.83 -1814.01 4797.43 
-1960.03 -1811.49 4802.03 
-1959.08 -1814.75 4796.86 
-1959.68 -1809.67 4802.38 
-1959.14 -1815.2 4796.13 
-1958.72 -1815.82 4794.68 
-1959.33 -1815.51 4795.54 
-1957.65 -1805.48 4804.24 
-1956.88 -1805.07 4804.96 
-1958.28 -1815.97 4793.92 
-1953.34 -1816.89 4792.58 
-1955.65 -1816.43 4792.83 
-1956.16 -1816.61 4793 
-1957.44 -1817.18 4793.29 
-1958 -1817 4793.56 
-1953.15 -1817.7 4792.54 
-1960.17 -1819.15 4794.49 
-1959.51 -1821.91 4794.23 
-1960.9 -1818.15 4795.4 
-1960.52 -1818.46 4794.95 
-1960.67 -1815.84 4796.43 
-1960.9 -1816.54 4796.08 
-1960.51 -1816.97 4795.43 
-1960.53 -1817.69 4795.15 
-1961.2 -1815.07 4797.92 
-1961.8 -1814.9 4799.18 
-1960.38 -1815.29 4797.03 
-1961.66 -1814.25 4800.97 
-1962 -1812.66 4801.9 
-1961.39 -1810.7 4803.98 
-1961.48 -1811.16 4803.05 
-1961.7 -1810.51 4805 
-1961.75 -1810.18 4806.19 
-1963.23 -1810.85 4807.43 
-1962.31 -1810.07 4807.17 
-1960.7 -1829.87 4833.45 
-1961.18 -1826.01 4827.22 
-1963.05 -1822.8 4820.16 
-1960.27 -1825.23 4827.92 
-1958.46 -1828.28 4836.64 
-1963.67 -1818.33 4814.7 
-1964.24 -1816.44 4812.61 
-1963.11 -1813.62 4810.72 
-1963.79 -1814.85 4811.94 
-1963.22 -1811.88 4808.94 
-1944.58 -1811.02 4822.32 
-1956.94 -1808.53 4809.72 
-1956.6 -1807.94 4809.21 
-1955.91 -1807.64 4809.06 
-1955.23 -1807.38 4808.04 
-1953.91 -1810.45 4813.72 
-1956.44 -1808.96 4810.24 
-1955.01 -1806.85 4806.72 
-1956.01 -1805.96 4805.95 
-1959.1 -1807.75 4803.68 
-1958.43 -1806.5 4804.42 
-1959.83 -1809.07 4803.02 
-1960.63 -1812.75 4801.53 
-1959.74 -1813.93 4798.37 
-1960.39 -1810.57 4802.12 
-1959.99 -1814.68 4797.56 
-1959.7 -1815.13 4796.79 
-1960.01 -1815.4 4796.33 
-1958.75 -1816.83 4794 
-1959.57 -1816.4 4794.93 
-1960.18 -1815.87 4795.85 
-1957.76 -1805.44 4805.17 
-1957.13 -1805.71 4806 
-1958.68 -1817.08 4793.79 
-1955.62 -1817.01 4792.74 
-1953.89 -1818.63 4792.52 
-1956.75 -1817.39 4793.01 
-1958.07 -1817.91 4793.35 
-1958.56 -1817.66 4793.58 
-1958.08 -1820.88 4793.34 
-1957.32 -1820.41 4793.13 
-1956.19 -1822.93 4792.74 
-1959.14 -1818.87 4793.88 
-1958.41 -1818.73 4793.56 
-1959.96 -1818.56 4794.36 
-1959.78 -1819.05 4794.18 
-1959.27 -1818.46 4793.87 
-1959.94 -1818.02 4794.45 
-1959.62 -1817.38 4794.42 
-1961.32 -1814.28 4799.17 
-1960.7 -1814.81 4797.89 
-1961.43 -1813.66 4801.31 
-1961.44 -1811.39 4802.4 
-1961.43 -1812.07 4801.89 
-1961.06 -1810.12 4805.35 
-1961.01 -1810.24 4804.25 
-1960.88 -1810.26 4803.43 
-1961.19 -1809.62 4807.48 
-1960.84 -1809.72 4806.54 
-1962.91 -1809.81 4807.77 
-1961.91 -1809.6 4808.06 
-1962.14 -1819.95 4818.21 
-1962.92 -1817.67 4814.93 
-1957.15 -1824.87 4834.56 
-1960.05 -1823.52 4826.28 
-1961.35 -1818.11 4817.09 
-1963.89 -1816.54 4813.34 
-1963.36 -1813.34 4811.31 
-1963.17 -1811.15 4809.39 
-1963.63 -1815.06 4812.6 
-1951.29 -1812.75 4820.1 
-1948.25 -1815.21 4827.71 
-1953.57 -1814.55 4821.89 
-1952.43 -1818.51 4829.67 
-1957.6 -1808.76 4809.56 
-1957.52 -1807.81 4808.46 
-1958.04 -1808.24 4808.68 
-1956.69 -1807.14 4808.12 
-1957.5 -1807.12 4807.6 
-1956.34 -1806.54 4807.33 
-1955.95 -1810.11 4811.8 
-1957.18 -1809.06 4809.86 
-1959.9 -1808.99 4804.05 
-1959.18 -1807.67 4804.77 
-1958.46 -1806.36 4805.56 
-1960.35 -1809.8 4802.99 
-1961.09 -1813.21 4801.47 
-1960.89 -1811.34 4802 
-1960.64 -1814.01 4799.06 
-1957.9 -1806.08 4806.01 
-1957.28 -1806.41 4806.82 
-1959.21 -1817.93 4793.84 
-1957.27 -1817.98 4793.13 
-1956.2 -1817.66 4792.84 
-1956.91 -1818.34 4793.03 
-1958.07 -1818.28 4793.37 
-1958.66 -1818.11 4793.58 
-1956.67 -1820.09 4793.01 
-1957.72 -1818.56 4793.27 
-1958.64 -1818.43 4793.61 
-1960.76 -1810.34 4802.81 
-1960.74 -1809.81 4805.43 
-1960.67 -1809.89 4804.44 
-1960.42 -1809.7 4804.09 
-1960.87 -1809.66 4808.78 
-1960.43 -1809.11 4807.87 
-1960.51 -1809.41 4806.57 
-1961.84 -1810.78 4809.69 
-1962.68 -1816.37 4813.98 
-1959.27 -1821.76 4825.34 
-1960.48 -1816.99 4816.92 
-1956.91 -1823.6 4832.84 
-1961.82 -1815.57 4814 
-1962.91 -1813.02 4811.61 
-1962.4 -1811.92 4810.76 
-1962.78 -1814.71 4812.93 
-1952.51 -1823.42 4840.77 
-1954.44 -1822.27 4834.87 
-1952.43 -1820.77 4834.76 
-1955.57 -1819.84 4828.03 
-1955.67 -1815.64 4821.93 
-1956.84 -1810.78 4811.93 
-1958.26 -1809.11 4809.4 
-1958.27 -1807.53 4807.64 
-1958.63 -1808.27 4808.36 
-1958.85 -1808.96 4809.12 
-1958.07 -1806.78 4806.8 
-1957.65 -1809.49 4809.61 
-1959.93 -1808.84 4805.1 
-1959.21 -1807.5 4805.86 
-1958.61 -1806.78 4806.47 
-1960.42 -1809.5 4805.43 
-1960.6 -1809.99 4809.36 
-1959.88 -1808.94 4808.44 
-1960.01 -1808.56 4807.22 
-1959.57 -1808.23 4807.73 
-1959.93 -1808.62 4806.21 
-1961.23 -1810.97 4810.24 
-1959.38 -1815.73 4816.58 
-1957.53 -1820.99 4826.79 
-1960.78 -1814.31 4813.17 
-1961.77 -1813.47 4812.13 
-1961.7 -1811.97 4810.89 
-1957.87 -1816 4819.83 
-1957.43 -1813.05 4815.27 
-1957.77 -1810.59 4809.48 
-1958.44 -1810.13 4809.5 
-1959.47 -1810.04 4809.83 
-1958.78 -1807.49 4807.27 
-1959.09 -1808.23 4808.03 
-1959.43 -1809.02 4808.82 
-1960.07 -1809.98 4809.68 
-1959.29 -1807.57 4806.9 
-1960.46 -1811.03 4810.33 
-1958.46 -1812.32 4811.2 
-1959.46 -1812.62 4811.09 
-1960.46 -1812.02 4810.56 
-1959.13 -1811.1 4809.85 
