-1791.19 -1544.51 1027.81 
-1790.87 -1544.7 1027.7 
-1792.8 -1545.62 1027.09 
-1790.88 -1544.82 1027.54 
-1791.48 -1545.18 1027.3 
-1792.73 -1545.89 1026.92 
-1786.19 -1541.99 1056.64 
-1786.27 -1542.11 1056.69 
-1786.34 -1542.19 1056.79 
-1786.42 -1542.32 1056.83 
-1786.71 -1542.74 1056.96 
-1786.51 -1542.51 1056.73 
-1786.64 -1542.68 1056.82 
-1786.77 -1542.71 1057.31 
-1786.91 -1542.96 1057.12 
-1786.86 -1542.76 1057.38 
-1786.93 -1542.68 1057.59 
-1785.74 -1540.92 1057.32 
-1785.76 -1541.01 1057.17 
-1785.82 -1541.23 1056.92 
-1785.71 -1540.99 1057.03 
-1785.75 -1541.1 1056.93 
-1785.84 -1541.32 1056.79 
-1785.91 -1541.45 1056.78 
-1785.98 -1541.56 1056.77 
-1786.01 -1541.67 1056.67 
-1786.05 -1541.78 1056.57 
-1786.13 -1541.87 1056.65 
-1785.35 -1540.67 1056.61 
-1785.4 -1540.65 1056.77 
-1785.43 -1540.64 1056.92 
-1785.48 -1540.62 1057.1 
-1785.31 -1540.68 1056.47 
-1785.25 -1540.68 1056.33 
-1785.51 -1540.63 1057.15 
-1785.57 -1540.66 1057.27 
-1785.59 -1540.63 1057.37 
-1785.61 -1540.63 1057.51 
-1785.66 -1540.73 1057.43 
-1785.67 -1540.8 1057.31 
-1784.93 -1540.6 1055.75 
-1784.99 -1540.63 1055.8 
-1785.04 -1540.65 1055.86 
-1785.18 -1540.67 1056.14 
-1785.23 -1540.71 1056.17 
-1785.09 -1540.67 1055.92 
-1785.14 -1540.69 1055.98 
-1784.58 -1540.38 1055.62 
-1784.62 -1540.42 1055.59 
-1784.66 -1540.46 1055.53 
-1784.7 -1540.5 1055.49 
-1784.74 -1540.54 1055.48 
-1784.78 -1540.58 1055.46 
-1784.83 -1540.59 1055.54 
-1784.87 -1540.6 1055.62 
-1785.34 -1540.45 1058.42 
-1785.1 -1540.4 1057.67 
-1784.45 -1540.28 1055.69 
-1784.46 -1540.3 1055.55 
-1784.49 -1540.34 1055.53 
-1784.53 -1540.37 1055.52 
-1787.44 -1541.7 1059.76 
-1787.99 -1541.79 1061.2 
-1787.52 -1541.7 1059.83 
-1787.67 -1541.52 1060.97 
-1787.12 -1541.32 1060.01 
-1786.7 -1541.12 1059.52 
-1786.26 -1540.95 1058.84 
-1785.69 -1540.79 1057.57 
-1785.8 -1540.7 1058.4 
-1785.72 -1540.58 1058.82 
-1787.2 -1542.97 1057.58 
-1787.27 -1542.83 1057.87 
-1787.1 -1542.99 1057.4 
-1787.35 -1542.69 1058.17 
-1787.47 -1542.03 1059.27 
-1787.41 -1542.1 1059.08 
-1787.35 -1542.2 1058.86 
-1787.43 -1542.58 1058.43 
-1778.37 -1560.01 1044.28 
-1778.46 -1555.4 1042.94 
-1778.2 -1556.16 1043.2 
-1778.11 -1557.22 1043.53 
-1778.36 -1559.94 1044.07 
-1778.52 -1554.63 1042.54 
-1778.78 -1554.03 1042.07 
-1779.05 -1553.72 1041.61 
-1779.27 -1553.4 1041.35 
-1790.83 -1543.54 1028.42 
-1789.4 -1543.77 1028.13 
-1789.74 -1543.8 1028.13 
-1790.11 -1543.86 1028.14 
-1788.9 -1543.93 1027.96 
-1788.35 -1544.48 1028.05 
-1788.35 -1544.38 1027.89 
-1788.33 -1544.4 1027.8 
-1788.39 -1544.33 1027.84 
-1788.54 -1544.07 1027.91 
-1788.39 -1544.35 1028.33 
-1788.33 -1544.46 1028.05 
-1783.51 -1548.93 1041.14 
-1781.94 -1549.74 1040.99 
-1783.99 -1548.78 1040.95 
-1784.38 -1548.62 1040.87 
-1784.3 -1546.75 1039.44 
-1784.42 -1548.29 1040.52 
-1784.51 -1548.63 1040.44 
-1784.53 -1547.33 1039.27 
-1780.66 -1550.64 1040.96 
-1786.02 -1547.04 1036.86 
-1787.21 -1548.54 1034.29 
-1784.86 -1547.94 1039.11 
-1788.1 -1547.05 1032.63 
-1787.9 -1547.66 1032.19 
-1787.89 -1549.95 1032.24 
-1787.96 -1548.18 1031.86 
-1788.16 -1549.19 1031.31 
-1788.22 -1549.75 1031.25 
-1787.09 -1550.65 1033.71 
-1788.37 -1545.55 1030.86 
-1788.12 -1544.39 1029.27 
-1788.26 -1544.54 1028.61 
-1779.82 -1552.07 1041.29 
-1780.38 -1551.57 1041.17 
-1780.67 -1551.18 1040.97 
-1779.68 -1552.36 1041.26 
-1779.48 -1552.99 1041.19 
-1790.45 -1543.9 1028.13 
-1790.76 -1544.01 1028.05 
-1790.55 -1544.33 1027.81 
-1790.58 -1544.53 1027.69 
-1790.55 -1544.65 1027.53 
-1794.52 -1546.89 1026.23 
-1792.37 -1546.12 1026.8 
-1793.66 -1547.13 1026.19 
-1791.35 -1545.45 1027.04 
-1790.47 -1544.75 1027.37 
-1790.86 -1545.04 1027.23 
-1786.1 -1541.9 1056.49 
-1786.15 -1542.02 1056.44 
-1786.23 -1542.11 1056.52 
-1786.3 -1542.23 1056.55 
-1786.36 -1542.28 1056.67 
-1786.43 -1542.39 1056.68 
-1786.88 -1543 1056.86 
-1786.99 -1543.1 1057.02 
-1786.58 -1542.64 1056.59 
-1786.73 -1542.83 1056.7 
-1785.68 -1540.88 1057.16 
-1785.77 -1541.2 1056.77 
-1785.63 -1540.86 1057.01 
-1785.67 -1540.98 1056.88 
-1785.7 -1541.08 1056.77 
-1785.78 -1541.28 1056.63 
-1785.86 -1541.42 1056.63 
-1785.93 -1541.55 1056.6 
-1785.98 -1541.68 1056.5 
-1786.03 -1541.81 1056.39 
-1785.34 -1540.71 1056.43 
-1785.38 -1540.72 1056.52 
-1785.41 -1540.7 1056.67 
-1785.45 -1540.68 1056.81 
-1785.48 -1540.66 1056.97 
-1785.29 -1540.71 1056.31 
-1785.55 -1540.7 1057.05 
-1785.56 -1540.67 1057.17 
-1785.62 -1540.78 1057.16 
-1784.9 -1540.63 1055.59 
-1784.95 -1540.65 1055.65 
-1785 -1540.67 1055.69 
-1785.05 -1540.7 1055.74 
-1785.19 -1540.72 1056.03 
-1785.23 -1540.75 1056.02 
-1785.27 -1540.74 1056.16 
-1785.1 -1540.71 1055.82 
-1785.15 -1540.74 1055.86 
-1784.57 -1540.41 1055.49 
-1784.61 -1540.45 1055.45 
-1784.64 -1540.49 1055.38 
-1784.67 -1540.52 1055.34 
-1784.7 -1540.55 1055.33 
-1784.74 -1540.58 1055.33 
-1784.76 -1540.62 1055.28 
-1784.81 -1540.62 1055.38 
-1784.86 -1540.64 1055.46 
-1784.91 -1540.36 1057.11 
-1784.4 -1540.26 1055.58 
-1784.41 -1540.28 1055.49 
-1784.41 -1540.32 1055.39 
-1784.45 -1540.35 1055.38 
-1784.49 -1540.38 1055.37 
-1784.53 -1540.41 1055.38 
-1787.54 -1541.98 1059.44 
-1787.79 -1541.72 1060.58 
-1787.61 -1541.9 1059.64 
-1787.15 -1541.47 1059.42 
-1787.5 -1541.6 1059.96 
-1786.49 -1541.19 1058.45 
-1786.79 -1541.34 1058.8 
-1786.17 -1541.05 1058.05 
-1785.85 -1540.98 1057.4 
-1785.27 -1540.64 1056.85 
-1785.5 -1540.93 1056.75 
-1785.28 -1540.51 1057.53 
-1787.18 -1543.26 1057.09 
-1787.35 -1543.19 1057.47 
-1787.42 -1543.03 1057.8 
-1787.51 -1542.95 1058.04 
-1787.53 -1542.46 1058.75 
-1787.63 -1542.44 1058.92 
-1787.55 -1542.74 1058.4 
-1778.61 -1555.96 1042.72 
-1778.21 -1556.74 1042.91 
-1778.05 -1557.18 1043.24 
-1778.4 -1559.85 1043.83 
-1778.42 -1559.75 1043.56 
-1778.63 -1555.32 1042.43 
-1778.65 -1554.64 1042.08 
-1778.92 -1554.32 1041.59 
-1779.15 -1554.13 1041.15 
-1779.32 -1553.66 1041.08 
-1778.42 -1559.81 1043.26 
-1789.13 -1544.1 1027.8 
-1789.56 -1544.09 1027.84 
-1789.89 -1544.22 1027.83 
-1788.47 -1544.25 1027.63 
-1788.73 -1544.24 1027.64 
-1788.21 -1544.59 1027.85 
-1788.22 -1544.68 1027.8 
-1788.21 -1544.7 1027.7 
-1788.24 -1544.84 1027.63 
-1788.34 -1544.5 1027.64 
-1788.26 -1544.65 1028.17 
-1788.17 -1544.66 1027.9 
-1783.29 -1549.16 1040.83 
-1783.73 -1549.01 1040.67 
-1781.84 -1549.95 1040.55 
-1780.8 -1550.55 1040.57 
-1784.22 -1548.88 1040.44 
-1784.5 -1548.52 1040.01 
-1784.55 -1548.84 1040.15 
-1784.6 -1548.82 1039.86 
-1785.91 -1548.59 1037.04 
-1786.98 -1548.78 1034.79 
-1786.97 -1550.46 1034.18 
-1786.87 -1550.3 1034.59 
-1784.67 -1548.75 1039.42 
-1788.22 -1545.88 1030.68 
-1788.3 -1545.99 1030.38 
-1788.32 -1550.24 1031.03 
-1788.43 -1549.53 1030.69 
-1788.37 -1549.05 1030.83 
-1788.17 -1548.48 1031.24 
-1788.36 -1546.09 1030.14 
-1788.49 -1550 1030.55 
-1786.65 -1551.17 1034.13 
-1785.33 -1552.14 1035.07 
-1788.14 -1544.7 1029.31 
-1788.21 -1544.99 1028.76 
-1788.21 -1544.99 1029.14 
-1780.12 -1552.16 1040.95 
-1780.37 -1551.79 1040.96 
-1780.69 -1551.51 1040.82 
-1780.87 -1550.96 1040.5 
-1779.9 -1552.54 1041.02 
-1779.51 -1553.54 1040.93 
-1779.77 -1553.02 1040.96 
-1790.16 -1544.32 1027.79 
-1790.25 -1544.47 1027.66 
-1790.31 -1544.55 1027.57 
-1790.24 -1544.63 1027.45 
-1792.85 -1547.15 1026.22 
-1794.03 -1547.91 1025.79 
-1792.74 -1547.59 1025.99 
-1793.5 -1548.76 1025.59 
-1791.85 -1546.32 1026.65 
-1791.01 -1545.75 1026.82 
-1790.62 -1545.41 1026.98 
-1790.24 -1545.15 1027.08 
-1790.13 -1544.89 1027.2 
-1790.28 -1544.91 1027.2 
-1786.08 -1541.94 1056.31 
-1786.13 -1542.06 1056.23 
-1786.2 -1542.13 1056.34 
-1786.26 -1542.23 1056.37 
-1786.38 -1542.41 1056.39 
-1786.39 -1542.39 1056.53 
-1786.98 -1543.16 1056.76 
-1786.6 -1542.7 1056.46 
-1786.79 -1542.95 1056.55 
-1786.93 -1543.12 1056.64 
-1785.7 -1541.14 1056.63 
-1785.54 -1540.73 1056.94 
-1785.61 -1540.89 1056.84 
-1785.63 -1540.99 1056.69 
-1785.71 -1541.22 1056.49 
-1785.79 -1541.35 1056.49 
-1785.86 -1541.48 1056.47 
-1785.91 -1541.61 1056.4 
-1785.96 -1541.73 1056.3 
-1786.01 -1541.86 1056.2 
-1785.33 -1540.75 1056.28 
-1785.38 -1540.76 1056.38 
-1785.42 -1540.74 1056.54 
-1785.45 -1540.72 1056.69 
-1785.52 -1540.74 1056.83 
-1784.91 -1540.67 1055.46 
-1784.96 -1540.69 1055.53 
-1785.01 -1540.72 1055.58 
-1785.08 -1540.74 1055.67 
-1785.19 -1540.76 1055.88 
-1785.22 -1540.8 1055.84 
-1785.27 -1540.79 1055.99 
-1785.31 -1540.79 1056.11 
-1785.12 -1540.76 1055.71 
-1785.17 -1540.79 1055.73 
-1784.57 -1540.45 1055.34 
-1784.59 -1540.49 1055.28 
-1784.62 -1540.53 1055.21 
-1784.66 -1540.57 1055.18 
-1784.7 -1540.6 1055.18 
-1784.74 -1540.64 1055.12 
-1784.79 -1540.66 1055.2 
-1784.83 -1540.66 1055.3 
-1784.87 -1540.69 1055.31 
-1784.66 -1540.31 1056.38 
-1784.36 -1540.27 1055.41 
-1784.4 -1540.34 1055.26 
-1784.43 -1540.38 1055.23 
-1784.47 -1540.42 1055.17 
-1784.49 -1540.43 1055.21 
-1784.52 -1540.44 1055.24 
-1787.7 -1542.33 1059.18 
-1787.69 -1541.78 1060 
-1787.77 -1542.17 1059.48 
-1787.36 -1541.77 1059.22 
-1787.02 -1541.64 1058.72 
-1787.78 -1541.97 1059.84 
-1786.61 -1541.47 1058.16 
-1786.2 -1541.3 1057.58 
-1785.8 -1541.21 1056.89 
-1784.85 -1540.48 1056.2 
-1785.13 -1540.79 1056.2 
-1785.38 -1541.07 1056.24 
-1787.27 -1543.41 1056.98 
-1787.48 -1543.36 1057.43 
-1787.58 -1543.3 1057.65 
-1787.64 -1543.05 1058.08 
-1787.67 -1542.8 1058.48 
-1787.78 -1542.73 1058.73 
-1778.5 -1556.37 1042.36 
-1778.27 -1557.08 1042.46 
-1778.44 -1559.83 1042.98 
-1778.6 -1555.56 1042.1 
-1778.77 -1555.01 1041.68 
-1778.97 -1554.73 1041.29 
-1779.17 -1554.61 1040.89 
-1779.37 -1554.1 1040.82 
-1778.47 -1559.66 1042.68 
-1778.56 -1559.79 1042.25 
-1789.19 -1544.4 1027.64 
-1788.97 -1544.41 1027.48 
-1789.62 -1544.35 1027.65 
-1789.94 -1544.42 1027.66 
-1788.62 -1544.65 1027.28 
-1788.52 -1544.47 1027.42 
-1788.47 -1544.69 1027.32 
-1788.06 -1545.11 1027.89 
-1788.09 -1544.98 1027.73 
-1788.1 -1545 1027.63 
-1788.17 -1545.09 1027.46 
-1788.2 -1544.8 1027.59 
-1788.29 -1545.13 1027.28 
-1788.34 -1545.02 1027.36 
-1788.14 -1545.1 1028.54 
-1788.09 -1545.16 1028.28 
-1788.17 -1544.91 1028.2 
-1783.49 -1549.26 1040.33 
-1782 -1550.2 1040.3 
-1783.99 -1549.12 1040.08 
-1784.45 -1549 1039.86 
-1784.67 -1549.06 1039.31 
-1784.95 -1549.09 1038.75 
-1785.84 -1549.04 1037.2 
-1786.35 -1550.66 1035.3 
-1786.28 -1551.03 1035.04 
-1786.78 -1550.8 1034.32 
-1788.68 -1549.96 1030.24 
-1788.64 -1549.5 1030.4 
-1788.66 -1549.14 1030.41 
-1788.5 -1548.63 1030.71 
-1788.71 -1546.89 1029.97 
-1788.47 -1546.18 1029.96 
-1788.16 -1545.44 1029.33 
-1785.17 -1552.2 1035.36 
-1784.08 -1553.24 1035.47 
-1784.24 -1553.11 1035.34 
-1784.86 -1552.09 1035.93 
-1784.01 -1553.05 1035.99 
-1783.85 -1553.46 1035.58 
-1788.15 -1545.49 1029.02 
-1780.38 -1551.98 1040.78 
-1780.36 -1552.49 1040.68 
-1780.57 -1552.09 1040.6 
-1780.65 -1551.76 1040.65 
-1780.99 -1551.38 1040.43 
-1782.3 -1550.45 1039.96 
-1780.1 -1552.77 1040.82 
-1779.82 -1553.47 1040.78 
-1790.09 -1544.5 1027.59 
-1790.04 -1544.56 1027.5 
-1789.95 -1544.73 1027.32 
-1792.94 -1549.61 1025.46 
-1793.66 -1550.88 1024.85 
-1792.57 -1548.33 1025.88 
-1792.39 -1547.61 1026 
-1792.9 -1551.32 1024.69 
-1791.27 -1546.59 1026.39 
-1790.72 -1546.07 1026.59 
-1790.36 -1545.83 1026.73 
-1790.08 -1545.6 1026.85 
-1789.95 -1545.28 1026.92 
-1789.87 -1545.6 1026.78 
-1789.86 -1545.07 1027.02 
-1786.06 -1541.99 1056.12 
-1786.13 -1542.13 1056.06 
-1786.22 -1542.23 1056.19 
-1786.4 -1542.46 1056.26 
-1786.62 -1542.76 1056.33 
-1787.16 -1543.43 1056.67 
-1786.84 -1543.05 1056.43 
-1787.06 -1543.34 1056.52 
-1785.63 -1541.07 1056.52 
-1785.57 -1540.88 1056.69 
-1785.57 -1540.95 1056.54 
-1785.65 -1541.16 1056.37 
-1785.72 -1541.3 1056.35 
-1785.79 -1541.42 1056.33 
-1785.85 -1541.54 1056.3 
-1785.89 -1541.65 1056.19 
-1785.94 -1541.78 1056.1 
-1785.99 -1541.91 1056.02 
-1785.35 -1540.79 1056.2 
-1785.39 -1540.8 1056.25 
-1785.46 -1540.84 1056.38 
-1785.48 -1540.82 1056.49 
-1785.49 -1540.79 1056.6 
-1785.5 -1540.76 1056.72 
-1784.92 -1540.72 1055.34 
-1784.97 -1540.73 1055.43 
-1785.01 -1540.76 1055.41 
-1785.04 -1540.75 1055.54 
-1785.09 -1540.78 1055.55 
-1785.26 -1540.83 1055.85 
-1785.18 -1540.83 1055.61 
-1785.22 -1540.84 1055.71 
-1785.31 -1540.83 1055.96 
-1785.36 -1540.84 1056.06 
-1785.13 -1540.81 1055.57 
-1784.55 -1540.49 1055.16 
-1784.58 -1540.53 1055.1 
-1784.62 -1540.57 1055.05 
-1784.66 -1540.62 1055 
-1784.69 -1540.64 1055.02 
-1784.73 -1540.68 1054.95 
-1784.77 -1540.69 1055.05 
-1784.82 -1540.7 1055.15 
-1784.88 -1540.73 1055.19 
-1784.44 -1540.28 1055.69 
-1784.41 -1540.35 1055.34 
-1784.42 -1540.42 1055.1 
-1784.45 -1540.51 1054.87 
-1784.47 -1540.47 1055 
-1784.49 -1540.49 1055 
-1784.55 -1540.58 1054.84 
-1784.54 -1540.54 1054.97 
-1784.54 -1540.52 1055.03 
-1787.84 -1542.55 1059.05 
-1787.9 -1542.41 1059.34 
-1787.87 -1542.14 1059.7 
-1787.72 -1542.02 1059.59 
-1787.78 -1542.27 1059.39 
-1787.36 -1541.99 1058.87 
-1786.94 -1541.79 1058.29 
-1788.44 -1543.22 1059.71 
-1786.52 -1541.62 1057.7 
-1786.12 -1541.49 1057.1 
-1785.73 -1541.4 1056.42 
-1784.82 -1540.7 1055.7 
-1784.99 -1540.98 1055.58 
-1785.36 -1541.26 1055.87 
-1787.48 -1543.55 1057.11 
-1787.66 -1543.63 1057.29 
-1787.71 -1543.38 1057.72 
-1787.77 -1543.23 1058.01 
-1787.8 -1543.04 1058.34 
-1787.93 -1543.15 1058.35 
-1787.93 -1542.91 1058.69 
-1778.48 -1556.63 1041.98 
-1778.95 -1555.25 1041.27 
-1778.64 -1555.92 1041.7 
-1779.14 -1555.12 1040.86 
-1779.44 -1554.67 1040.75 
-1779.67 -1554.07 1040.69 
-1778.87 -1559.05 1041.68 
-1789.34 -1544.5 1027.46 
-1789.04 -1544.74 1027.23 
-1788.6 -1544.96 1027.03 
-1788.78 -1545.01 1026.98 
-1789.62 -1544.47 1027.53 
-1789.86 -1544.47 1027.57 
-1788.5 -1545.17 1026.99 
-1788.05 -1545.39 1027.68 
-1788.21 -1545.66 1028.36 
-1788.23 -1545.69 1028.04 
-1787.97 -1545.43 1027.5 
-1787.88 -1545.48 1027.34 
-1787.77 -1545.61 1027.2 
-1787.74 -1545.68 1027.07 
-1787.76 -1545.76 1026.96 
-1788.4 -1545.26 1027.06 
-1788.2 -1545.63 1028.71 
-1783.83 -1549.44 1039.69 
-1784.29 -1549.24 1039.49 
-1784.62 -1549.49 1038.83 
-1785.68 -1549.87 1037.06 
-1785.24 -1550.23 1037.26 
-1784.82 -1551.91 1036.15 
-1787.65 -1550.52 1032.3 
-1786.52 -1551.54 1033.41 
-1787.99 -1550.43 1031.38 
-1788.84 -1549.93 1029.88 
-1788.89 -1549.56 1029.96 
-1789.29 -1548.05 1029.44 
-1789.14 -1547.76 1029.62 
-1789.1 -1547.37 1029.75 
-1788.58 -1546.2 1029.26 
-1783.82 -1553.72 1035.13 
-1784.09 -1553.57 1035.1 
-1784.43 -1552.95 1035.19 
-1783.73 -1553.26 1036.21 
-1783.41 -1553.79 1035.79 
-1783.76 -1553.43 1035.84 
-1788.69 -1546.35 1028.94 
-1780.58 -1552.79 1040.4 
-1780.88 -1552.38 1040.15 
-1780.71 -1552.28 1040.45 
-1781.12 -1551.93 1040 
-1781.07 -1551.69 1040.25 
-1782.66 -1550.61 1039.49 
-1780.18 -1553.05 1040.71 
-1780.07 -1553.63 1040.62 
-1789.8 -1544.58 1027.44 
-1789.68 -1544.9 1027.15 
-1792.32 -1548.65 1025.89 
-1792.17 -1548.01 1025.95 
-1792.56 -1549.23 1025.72 
-1792.47 -1550.12 1025.35 
-1792.11 -1547.38 1026.06 
-1790.85 -1546.94 1026.12 
-1790.24 -1546.3 1026.45 
-1790.25 -1546.58 1026.27 
-1789.82 -1545.92 1026.65 
-1789.85 -1546.15 1026.54 
-1789.69 -1545.45 1026.75 
-1789.62 -1545.77 1026.61 
-1789.63 -1546.01 1026.54 
-1789.61 -1545.27 1026.83 
-1786.07 -1542.07 1055.95 
-1786.31 -1542.41 1055.96 
-1786.33 -1542.42 1056.08 
-1786.51 -1542.64 1056.16 
-1786.72 -1542.94 1056.22 
-1786.88 -1543.13 1056.31 
-1787.35 -1543.63 1056.7 
-1787.09 -1543.4 1056.39 
-1787.31 -1543.68 1056.47 
-1785.56 -1541 1056.37 
-1785.67 -1541.26 1056.22 
-1785.6 -1541.12 1056.24 
-1785.74 -1541.4 1056.18 
-1785.8 -1541.52 1056.15 
-1785.83 -1541.61 1056.03 
-1785.88 -1541.72 1055.98 
-1785.93 -1541.85 1055.91 
-1786.01 -1542 1055.83 
-1785.43 -1540.88 1056.16 
-1785.46 -1540.87 1056.27 
-1784.92 -1540.77 1055.17 
-1784.96 -1540.77 1055.28 
-1785.01 -1540.8 1055.26 
-1785.05 -1540.8 1055.4 
-1785.09 -1540.83 1055.41 
-1785.28 -1540.87 1055.76 
-1785.14 -1540.85 1055.45 
-1785.19 -1540.88 1055.48 
-1785.23 -1540.88 1055.6 
-1785.33 -1540.87 1055.89 
-1785.4 -1540.92 1055.94 
-1785.42 -1540.9 1056.05 
-1784.6 -1540.6 1054.91 
-1784.64 -1540.64 1054.89 
-1784.68 -1540.69 1054.81 
-1784.73 -1540.76 1054.72 
-1784.72 -1540.72 1054.82 
-1784.76 -1540.74 1054.85 
-1784.78 -1540.8 1054.7 
-1784.79 -1540.73 1054.97 
-1784.84 -1540.74 1055.05 
-1784.88 -1540.77 1055.04 
-1784.47 -1540.57 1054.59 
-1784.47 -1540.6 1054.36 
-1784.55 -1540.61 1054.75 
-1784.61 -1540.72 1054.57 
-1784.61 -1540.68 1054.68 
-1784.61 -1540.64 1054.78 
-1787.98 -1542.74 1059.01 
-1788.04 -1542.54 1059.37 
-1788.05 -1542.5 1059.59 
-1787.62 -1542.31 1058.86 
-1787.83 -1542.41 1059.22 
-1788.97 -1544.25 1059.53 
-1788.18 -1543.15 1059.27 
-1787.2 -1542.09 1058.35 
-1786.82 -1541.94 1057.81 
-1786.45 -1541.8 1057.27 
-1786.09 -1541.69 1056.69 
-1785.77 -1541.66 1056.07 
-1785.44 -1541.5 1055.65 
-1784.99 -1541.16 1055.19 
-1787.8 -1543.71 1057.4 
-1787.61 -1543.78 1056.92 
-1787.87 -1543.6 1057.65 
-1787.92 -1543.42 1057.96 
-1788.04 -1543.53 1057.98 
-1788.07 -1543.31 1058.32 
-1788.08 -1543.08 1058.66 
-1778.79 -1556.42 1041.51 
-1778.92 -1555.79 1041.2 
-1779.13 -1555.64 1040.81 
-1779.38 -1555.24 1040.66 
-1779.72 -1554.81 1040.81 
-1779.93 -1554.21 1040.71 
-1779.13 -1558.95 1041.44 
-1789.2 -1544.93 1027.08 
-1789.49 -1544.73 1027.28 
-1788.91 -1545.2 1026.82 
-1788.62 -1545.31 1026.77 
-1788.7 -1545.48 1026.59 
-1787.85 -1545.85 1026.72 
-1787.89 -1545.96 1026.62 
-1788.59 -1546.18 1027.8 
-1788.63 -1546.2 1028.04 
-1788.77 -1546.42 1028.42 
-1788.77 -1546.46 1028.67 
-1788.6 -1546.45 1027.7 
-1788.31 -1546.27 1027.53 
-1788.58 -1546.71 1027.59 
-1788.32 -1546.67 1027.4 
-1788.46 -1547.08 1027.34 
-1787.74 -1545.95 1026.85 
-1784.21 -1549.68 1039.02 
-1784.35 -1551.22 1037.38 
-1784.54 -1552.94 1034.89 
-1786.48 -1551.74 1033.27 
-1789.02 -1550.23 1029.29 
-1789.06 -1549.83 1029.43 
-1789.42 -1548.22 1029.14 
-1783.39 -1553.36 1036.59 
-1783.21 -1553.81 1036.26 
-1783.48 -1553.61 1036.14 
-1782.69 -1554.25 1035.83 
-1782.62 -1554.46 1035.22 
-1783.3 -1554.12 1035.3 
-1783.15 -1554.87 1035.17 
-1783.51 -1554.33 1034.83 
-1780.43 -1553.19 1040.44 
-1781.44 -1553.06 1038.63 
-1781.77 -1552.65 1038.68 
-1782.28 -1552.2 1038.46 
-1782.9 -1551.61 1038.32 
-1782.88 -1550.94 1038.95 
-1781.06 -1553.73 1038.99 
-1789.41 -1545.09 1026.96 
-1792.15 -1548.98 1025.87 
-1791.98 -1548.33 1025.94 
-1791.96 -1547.66 1025.97 
-1792.06 -1549.67 1025.66 
-1791.89 -1550.11 1025.44 
-1792.12 -1550.94 1024.91 
-1790.6 -1547.37 1025.87 
-1789.51 -1547.1 1025.79 
-1789.81 -1546.68 1026.16 
-1791.7 -1550.27 1025.43 
-1789.45 -1546.61 1026.18 
-1789.61 -1546.28 1026.44 
-1789.41 -1546.42 1026.27 
-1789.4 -1545.65 1026.55 
-1789.42 -1545.82 1026.51 
-1789.32 -1546.13 1026.35 
-1789.34 -1546.29 1026.29 
-1789.33 -1545.47 1026.64 
-1786.23 -1542.33 1055.84 
-1786.55 -1542.77 1055.88 
-1786.55 -1542.73 1056.01 
-1786.75 -1543 1056.09 
-1786.99 -1543.32 1056.17 
-1787.09 -1543.44 1056.27 
-1787.33 -1543.76 1056.33 
-1787.61 -1543.9 1056.69 
-1785.52 -1540.97 1056.29 
-1785.53 -1541.03 1056.18 
-1785.69 -1541.36 1056.06 
-1785.62 -1541.21 1056.12 
-1785.56 -1541.15 1056.02 
-1785.75 -1541.5 1055.99 
-1785.79 -1541.63 1055.85 
-1785.86 -1541.77 1055.81 
-1785.93 -1541.93 1055.73 
-1786.16 -1542.26 1055.72 
-1785.5 -1541.04 1056.01 
-1784.92 -1540.81 1055.01 
-1784.96 -1540.81 1055.13 
-1785.05 -1540.84 1055.26 
-1785 -1540.84 1055.12 
-1785.1 -1540.87 1055.27 
-1785.27 -1540.91 1055.57 
-1785.31 -1540.91 1055.71 
-1785.15 -1540.89 1055.33 
-1785.18 -1540.93 1055.28 
-1785.22 -1540.92 1055.43 
-1785.35 -1540.9 1055.81 
-1785.39 -1540.94 1055.82 
-1785.45 -1541.05 1055.82 
-1784.66 -1540.74 1054.62 
-1784.67 -1540.72 1054.69 
-1784.71 -1540.77 1054.62 
-1784.75 -1540.83 1054.54 
-1784.8 -1540.9 1054.43 
-1784.79 -1540.86 1054.55 
-1784.8 -1540.79 1054.79 
-1784.82 -1540.87 1054.59 
-1784.84 -1540.93 1054.42 
-1784.83 -1540.78 1054.9 
-1784.87 -1540.81 1054.9 
-1784.48 -1540.66 1054.04 
-1784.59 -1540.74 1054.44 
-1784.65 -1540.84 1054.23 
-1784.68 -1540.82 1054.38 
-1784.67 -1540.79 1054.49 
-1788.1 -1542.84 1059.04 
-1788.24 -1542.92 1059.26 
-1788.48 -1543.43 1059.44 
-1787.96 -1542.78 1059.01 
-1787.84 -1542.74 1058.69 
-1787.45 -1542.38 1058.36 
-1789.69 -1545.54 1059.4 
-1788.58 -1544.13 1059 
-1787.11 -1542.26 1057.86 
-1786.76 -1542.12 1057.38 
-1786.42 -1542 1056.87 
-1786.1 -1541.91 1056.35 
-1785.89 -1541.95 1055.84 
-1785.5 -1541.74 1055.33 
-1785.09 -1541.37 1054.95 
-1787.89 -1543.9 1057.23 
-1788.02 -1543.83 1057.54 
-1788.18 -1543.67 1057.98 
-1788.14 -1543.86 1057.66 
-1788.22 -1543.48 1058.31 
-1788.19 -1543.17 1058.7 
-1778.99 -1556.22 1041.1 
-1779.41 -1558.51 1040.99 
-1779.35 -1555.78 1040.54 
-1779.24 -1556.21 1040.86 
-1780.42 -1555.88 1039.5 
-1780.52 -1555.1 1039.59 
-1780.8 -1554.41 1039.34 
-1789.14 -1545.28 1026.77 
-1788.9 -1545.53 1026.54 
-1787.84 -1546.15 1026.48 
-1788 -1546.07 1026.35 
-1787.99 -1547.03 1026.92 
-1788.04 -1547.3 1026.71 
-1789.25 -1547.01 1028.03 
-1789.22 -1546.93 1028.23 
-1789.16 -1546.89 1028.45 
-1789.27 -1547.28 1027.94 
-1789.32 -1547.56 1027.87 
-1788.87 -1547.29 1027.61 
-1788.45 -1547.31 1027.18 
-1789.27 -1547.9 1027.56 
-1789.25 -1548.08 1027.36 
-1783.07 -1553.02 1037.17 
-1784.47 -1553.22 1034.4 
-1784.85 -1552.75 1034.65 
-1789.34 -1549.78 1028.95 
-1789.3 -1550.21 1028.76 
-1789.68 -1548.31 1028.82 
-1783.74 -1553.89 1034.49 
-1783.54 -1554.47 1034.37 
-1783.74 -1554.18 1034.17 
-1783.31 -1554.87 1034.59 
-1783.94 -1553.79 1034.51 
-1784.02 -1553.78 1034.22 
-1784.23 -1553.42 1034.54 
-1782.73 -1553.52 1037.18 
-1782.52 -1554.48 1036.71 
-1782.8 -1553.96 1036.82 
-1782.5 -1554.86 1036.14 
-1782.33 -1553.96 1037.56 
-1782.12 -1554.38 1037.4 
-1781.68 -1554.96 1037.83 
-1791.82 -1548.64 1026.05 
-1791.58 -1547.82 1026.07 
-1790.47 -1547.78 1025.68 
-1791.81 -1549.25 1026.01 
-1791.66 -1549.48 1026.01 
-1788.4 -1548.01 1025.57 
-1789.09 -1547.1 1025.75 
-1789.4 -1546.85 1025.98 
-1791.49 -1549.85 1025.86 
-1791.57 -1550.64 1025.28 
-1791.35 -1550.45 1025.56 
-1789.04 -1546.93 1025.83 
-1789.01 -1546.77 1025.89 
-1789.13 -1545.87 1026.36 
-1789.14 -1546.07 1026.28 
-1788.97 -1546.43 1026.03 
-1788.93 -1546.66 1025.91 
-1789.07 -1545.66 1026.44 
-1786.41 -1542.6 1055.78 
-1786.66 -1542.95 1055.75 
-1786.84 -1543.18 1055.84 
-1786.78 -1543.08 1055.96 
-1786.99 -1543.35 1056.04 
-1787.24 -1543.69 1056.1 
-1787.29 -1543.74 1056.21 
-1787.58 -1544.01 1056.41 
-1787.9 -1544.04 1056.98 
-1785.68 -1541.41 1055.9 
-1785.63 -1541.29 1055.96 
-1785.51 -1541.13 1055.85 
-1785.57 -1541.24 1055.86 
-1785.72 -1541.52 1055.81 
-1785.73 -1541.61 1055.67 
-1785.8 -1541.72 1055.68 
-1785.86 -1541.84 1055.65 
-1786.02 -1542.09 1055.59 
-1786.26 -1542.43 1055.59 
-1786.46 -1542.7 1055.67 
-1784.9 -1540.85 1054.84 
-1784.95 -1540.85 1054.98 
-1785.04 -1540.88 1055.1 
-1784.99 -1540.88 1054.97 
-1785.12 -1540.92 1055.18 
-1785.07 -1540.9 1055.11 
-1785.27 -1540.96 1055.41 
-1785.3 -1540.94 1055.56 
-1785.37 -1540.97 1055.7 
-1785.22 -1540.96 1055.29 
-1785.14 -1540.96 1055.08 
-1785.19 -1540.98 1055.15 
-1785.46 -1541.13 1055.67 
-1784.73 -1540.88 1054.32 
-1784.73 -1540.85 1054.43 
-1784.78 -1540.91 1054.35 
-1784.82 -1540.96 1054.26 
-1784.87 -1541.03 1054.16 
-1784.86 -1540.99 1054.28 
-1784.86 -1540.91 1054.54 
-1784.84 -1540.85 1054.71 
-1784.9 -1541.01 1054.31 
-1784.91 -1541.07 1054.15 
-1784.86 -1540.85 1054.75 
-1784.47 -1540.72 1053.64 
-1784.47 -1540.74 1053.34 
-1784.69 -1540.94 1054.04 
-1784.5 -1540.81 1053.07 
-1784.74 -1540.93 1054.2 
-1788.27 -1543.06 1058.96 
-1788.73 -1543.95 1059.12 
-1788.9 -1544.33 1059.27 
-1788.26 -1543.56 1058.89 
-1787.44 -1542.59 1058.01 
-1787.87 -1542.95 1058.42 
-1788.24 -1543.62 1058.65 
-1790.32 -1546.68 1059.28 
-1789.25 -1545.66 1058.6 
-1787.08 -1542.46 1057.46 
-1786.71 -1542.31 1056.94 
-1786.35 -1542.18 1056.4 
-1786.14 -1542.25 1055.86 
-1785.72 -1542.04 1055.3 
-1785.21 -1541.7 1054.36 
-1785.06 -1541.48 1054.49 
-1788.13 -1544.12 1057.27 
-1788.27 -1544.06 1057.57 
-1788.32 -1543.89 1057.87 
-1788.37 -1543.72 1058.18 
-1788.32 -1543.42 1058.54 
-1780.38 -1556.76 1039.46 
-1779.91 -1558.25 1040.04 
-1781.59 -1556.32 1037.8 
-1781.39 -1555.71 1038.2 
-1781.51 -1556.64 1037.85 
-1787.92 -1546.3 1026.27 
-1786.89 -1546.89 1026.61 
-1787.2 -1546.78 1026.38 
-1787.83 -1547.3 1026.46 
-1787 -1546.85 1026.42 
-1788.74 -1547.82 1027.02 
-1788.72 -1548.03 1026.78 
-1788.47 -1547.98 1026.54 
-1789.97 -1548.56 1028.23 
-1789.84 -1548.44 1028.49 
-1790.04 -1548.79 1028 
-1789.49 -1547.94 1027.78 
-1790.13 -1548.9 1027.83 
-1790.2 -1548.92 1027.68 
-1790.23 -1549.03 1027.49 
-1789.5 -1548.41 1027.23 
-1790.33 -1549.05 1027.39 
-1785 -1552.76 1034.34 
-1789.56 -1550.05 1028.35 
-1789.69 -1550.25 1027.96 
-1783.52 -1554.68 1033.98 
-1783.64 -1554.56 1033.64 
-1781.84 -1554.83 1037.11 
-1782.33 -1555.37 1036.65 
-1782.61 -1555.17 1035.68 
-1782.57 -1555.77 1035.97 
-1782.84 -1555.61 1035.5 
-1781.67 -1555.62 1037.34 
-1791.39 -1547.95 1026.23 
-1791.47 -1548.24 1026.41 
-1790.22 -1548.31 1025.52 
-1790.28 -1548.48 1025.71 
-1789.14 -1548.29 1025.38 
-1791.46 -1548.66 1026.5 
-1791.39 -1549.1 1026.48 
-1788.58 -1548.32 1025.46 
-1788.38 -1549.09 1025.57 
-1788.25 -1547.61 1025.59 
-1787.43 -1548.2 1026.03 
-1787.4 -1548.54 1026.08 
-1787.97 -1548.75 1025.72 
-1788.45 -1549.36 1025.53 
-1791.26 -1549.45 1026.35 
-1791.11 -1549.71 1026.26 
-1791.09 -1550.64 1025.61 
-1788.16 -1547.43 1025.68 
-1788.06 -1547.26 1025.72 
-1787.95 -1546.48 1026.17 
-1787.98 -1546.68 1026.06 
-1787.97 -1546.87 1025.91 
-1787.97 -1547.07 1025.79 
-1786.74 -1543.1 1055.63 
-1786.92 -1543.33 1055.72 
-1787.13 -1543.6 1055.81 
-1787.04 -1543.45 1055.92 
-1787.22 -1543.69 1056 
-1787.47 -1544.04 1056.02 
-1787.53 -1544.06 1056.17 
-1787.87 -1544.17 1056.68 
-1785.62 -1541.37 1055.78 
-1785.54 -1541.24 1055.71 
-1785.66 -1541.48 1055.66 
-1785.68 -1541.58 1055.51 
-1785.75 -1541.7 1055.51 
-1785.85 -1541.86 1055.51 
-1786.07 -1542.19 1055.46 
-1786.54 -1542.84 1055.55 
-1786.32 -1542.54 1055.49 
-1784.94 -1540.89 1054.82 
-1784.92 -1540.92 1054.67 
-1784.91 -1540.92 1054.63 
-1785.04 -1540.92 1054.94 
-1784.98 -1540.92 1054.83 
-1785.09 -1540.95 1055.01 
-1785.26 -1541 1055.25 
-1785.33 -1541.04 1055.36 
-1785.34 -1541.01 1055.47 
-1785.37 -1541 1055.59 
-1785.23 -1541.02 1055.11 
-1785.11 -1540.99 1054.92 
-1785.17 -1541.01 1054.99 
-1785.43 -1541.16 1055.48 
-1785.5 -1541.25 1055.55 
-1784.8 -1540.98 1054.17 
-1784.8 -1541.01 1054.09 
-1784.86 -1541.07 1054.02 
-1784.88 -1541.09 1054.01 
-1784.94 -1541.17 1053.87 
-1784.92 -1541.12 1054 
-1784.92 -1541.03 1054.31 
-1784.9 -1540.96 1054.48 
-1784.92 -1540.97 1054.5 
-1784.97 -1541.17 1053.98 
-1784.96 -1541.12 1054.1 
-1784.98 -1541.2 1053.88 
-1784.75 -1541.04 1053.84 
-1784.47 -1540.86 1052.83 
-1784.6 -1540.83 1052.41 
-1784.81 -1541.04 1053.98 
-1788.41 -1543.39 1058.71 
-1788.65 -1543.79 1058.97 
-1789.33 -1545.26 1058.93 
-1789.36 -1545.34 1059.11 
-1788.64 -1544.5 1058.66 
-1787.41 -1542.78 1057.62 
-1787.92 -1543.16 1058.17 
-1788.33 -1543.93 1058.43 
-1790.52 -1547.13 1059.26 
-1789.91 -1546.81 1058.66 
-1786.97 -1542.61 1056.98 
-1786.59 -1542.47 1056.42 
-1786.39 -1542.55 1055.87 
-1786 -1542.38 1055.32 
-1785.57 -1542.06 1054.69 
-1785.16 -1541.8 1053.83 
-1788.21 -1544.28 1057.13 
-1788.41 -1544.3 1057.42 
-1788.46 -1544.08 1057.81 
-1788.49 -1543.8 1058.23 
-1781.91 -1556.45 1036.99 
-1787.05 -1547.07 1026.38 
-1786.72 -1547.05 1026.89 
-1786.43 -1548.19 1027.07 
-1786.75 -1547.58 1026.72 
-1787.18 -1547.57 1026.64 
-1787 -1547.84 1026.97 
-1787.41 -1547.16 1026.28 
-1788.14 -1547.82 1026.29 
-1787.01 -1547.28 1026.47 
-1789.47 -1548.51 1027.02 
-1789.17 -1548.52 1026.74 
-1788.95 -1548.54 1026.45 
-1789.81 -1550.43 1027.63 
-1789.95 -1550.54 1027.29 
-1790.14 -1550.47 1027.01 
-1790.27 -1550.62 1026.68 
-1790.45 -1550.67 1026.37 
-1790.44 -1548.96 1027.37 
-1790.47 -1548.97 1027.22 
-1790.65 -1550.36 1026.3 
-1784.6 -1553.18 1034.21 
-1784.84 -1552.97 1034.13 
-1784.33 -1553.7 1033.58 
-1784.54 -1553.39 1033.86 
-1784.36 -1553.53 1033.95 
-1783.88 -1554.11 1033.8 
-1783.75 -1554.42 1033.2 
-1783.97 -1554.06 1033.41 
-1782.18 -1556 1036.6 
-1790.41 -1548.49 1026.02 
-1790.54 -1548.51 1026.34 
-1789.52 -1548.67 1025.63 
-1789.1 -1548.72 1025.66 
-1790.66 -1548.55 1026.63 
-1790.74 -1548.68 1026.87 
-1788.54 -1548.68 1025.57 
-1788.36 -1549.03 1025.61 
-1787.42 -1548.86 1026.09 
-1787.98 -1549.12 1025.73 
-1788.43 -1549.54 1025.55 
-1788.3 -1549.18 1025.67 
-1788.32 -1549.29 1025.65 
-1787.37 -1548.04 1026.09 
-1787.35 -1548.48 1026.14 
-1787.39 -1548.89 1026.15 
-1790.74 -1548.8 1027.01 
-1790.85 -1550.24 1026.12 
-1790.92 -1549.8 1026.35 
-1790.67 -1548.87 1027.08 
-1787.33 -1547.85 1026.12 
-1787.32 -1547.59 1026.12 
-1787.1 -1547.23 1026.33 
-1787.15 -1547.39 1026.28 
-1787.24 -1547.42 1026.18 
-1786.79 -1543.2 1055.49 
-1786.98 -1543.45 1055.6 
-1787.17 -1543.7 1055.68 
-1787.37 -1543.96 1055.77 
-1787.33 -1543.87 1055.9 
-1787.79 -1544.27 1056.32 
-1787.66 -1544.29 1055.98 
-1788.11 -1544.36 1056.78 
-1785.58 -1541.36 1055.62 
-1785.61 -1541.47 1055.49 
-1785.62 -1541.55 1055.35 
-1785.7 -1541.67 1055.36 
-1785.83 -1541.87 1055.39 
-1786.05 -1542.19 1055.33 
-1786.28 -1542.51 1055.38 
-1786.55 -1542.87 1055.43 
-1784.96 -1540.95 1054.66 
-1784.98 -1541.04 1054.4 
-1784.99 -1541.03 1054.46 
-1785.01 -1540.96 1054.76 
-1785.06 -1540.97 1054.86 
-1785.3 -1541.08 1055.13 
-1785.32 -1541.07 1055.25 
-1785.41 -1541.19 1055.3 
-1785.21 -1541.05 1054.97 
-1785.29 -1541.11 1055.02 
-1785.08 -1541.02 1054.74 
-1785.13 -1541.03 1054.83 
-1785.17 -1541.05 1054.84 
-1785.48 -1541.29 1055.38 
-1785.55 -1541.37 1055.46 
-1784.87 -1541.12 1053.89 
-1784.87 -1541.15 1053.79 
-1784.93 -1541.22 1053.69 
-1784.94 -1541.2 1053.76 
-1784.99 -1541.29 1053.62 
-1785 -1541.27 1053.7 
-1784.99 -1541.15 1054.08 
-1784.96 -1541.07 1054.26 
-1784.99 -1541.09 1054.27 
-1785.04 -1541.3 1053.71 
-1785.03 -1541.25 1053.84 
-1785.04 -1541.32 1053.63 
-1784.8 -1541.15 1053.63 
-1784.36 -1540.96 1053.12 
-1784.11 -1540.72 1052.4 
-1784.91 -1540.93 1051.56 
-1784.91 -1541.62 1053.06 
-1788.57 -1543.68 1058.55 
-1788.85 -1544.22 1058.8 
-1789.8 -1546.73 1058.5 
-1789.5 -1545.65 1058.74 
-1788.65 -1544.67 1058.47 
-1787.22 -1542.89 1057.03 
-1787.57 -1543.06 1057.48 
-1788.01 -1543.4 1057.99 
-1788.44 -1544.28 1058.21 
-1786.83 -1542.76 1056.43 
-1786.21 -1542.66 1055.28 
-1786.62 -1542.83 1055.87 
-1785.65 -1542.25 1054.43 
-1785.22 -1541.99 1053.48 
-1788.55 -1544.45 1057.42 
-1788.33 -1544.48 1056.98 
-1788.59 -1544.23 1057.78 
-1788.63 -1544.04 1058.11 
-1783.39 -1553.48 1029.64 
-1783.42 -1553.02 1029.94 
-1783.27 -1553.38 1030.02 
-1787.08 -1547.47 1026.4 
-1786.55 -1547.4 1027.22 
-1786.83 -1547.6 1027.09 
-1786.21 -1548.66 1027.39 
-1786.4 -1548.83 1027.14 
-1786.11 -1549.44 1027.45 
-1786.72 -1548.19 1026.81 
-1787.24 -1548.69 1027.01 
-1787.4 -1547.99 1026.53 
-1786.99 -1548.89 1027.41 
-1786.74 -1548.17 1027.43 
-1787.61 -1547.48 1026.16 
-1788.48 -1548.35 1026.17 
-1787.86 -1547.83 1026.04 
-1787.05 -1547.67 1026.48 
-1790.57 -1548.9 1027.19 
-1789.9 -1548.6 1027.04 
-1789.77 -1548.64 1026.84 
-1789.17 -1548.69 1026.36 
-1789.77 -1548.68 1026.7 
-1784.73 -1553.23 1033.79 
-1785.38 -1552.69 1033.66 
-1789.62 -1548.69 1025.95 
-1789.74 -1548.7 1026.26 
-1788.6 -1548.77 1025.74 
-1789.15 -1548.75 1025.98 
-1789.82 -1548.71 1026.55 
-1788.31 -1548.89 1025.67 
-1788.19 -1549.16 1025.76 
-1788.22 -1549.03 1025.74 
-1787.5 -1549.14 1026.05 
-1788.09 -1549.42 1025.67 
-1787.3 -1548.31 1026.2 
-1787.33 -1548.74 1026.21 
-1787.39 -1549.14 1026.21 
-1787.5 -1549.23 1026.1 
-1787.24 -1547.98 1026.22 
-1787.2 -1547.79 1026.26 
-1787.13 -1547.64 1026.36 
-1787.17 -1547.79 1026.32 
-1786.75 -1543.17 1055.36 
-1786.99 -1543.51 1055.39 
-1787.05 -1543.57 1055.49 
-1787.26 -1543.84 1055.57 
-1787.44 -1544.08 1055.65 
-1787.64 -1544.34 1055.73 
-1787.55 -1544.18 1055.85 
-1788 -1544.45 1056.39 
-1787.81 -1544.49 1055.92 
-1785.54 -1541.42 1055.31 
-1785.66 -1541.67 1055.2 
-1785.58 -1541.53 1055.19 
-1785.83 -1541.9 1055.26 
-1786.03 -1542.2 1055.2 
-1786.27 -1542.52 1055.26 
-1786.5 -1542.84 1055.31 
-1785 -1541.01 1054.57 
-1785.04 -1541.1 1054.34 
-1785.04 -1541.17 1054.13 
-1785.04 -1541.15 1054.22 
-1785.03 -1541 1054.7 
-1785.39 -1541.23 1055.13 
-1785.46 -1541.32 1055.22 
-1785.27 -1541.13 1054.9 
-1785.2 -1541.09 1054.8 
-1785.37 -1541.28 1054.95 
-1785.06 -1541.06 1054.57 
-1785.11 -1541.06 1054.67 
-1785.15 -1541.09 1054.68 
-1784.93 -1541.25 1053.6 
-1784.84 -1541.24 1053.41 
-1785 -1541.36 1053.42 
-1785.01 -1541.35 1053.47 
-1785.06 -1541.41 1053.39 
-1785.07 -1541.41 1053.41 
-1785.05 -1541.26 1053.86 
-1785.03 -1541.2 1054.02 
-1785.06 -1541.22 1054 
-1785.1 -1541.42 1053.47 
-1785.1 -1541.38 1053.58 
-1785.11 -1541.37 1053.63 
-1785.1 -1541.44 1053.4 
-1784.36 -1541.03 1052.9 
-1784.08 -1540.75 1052.03 
-1784.95 -1540.91 1051.06 
-1784.95 -1541.82 1052.89 
-1788.74 -1544.02 1058.39 
-1789.07 -1544.69 1058.62 
-1789.69 -1546.67 1058.33 
-1789.67 -1546.04 1058.55 
-1788.73 -1544.98 1058.25 
-1787.53 -1543.25 1057.07 
-1787.14 -1543.04 1056.61 
-1787.99 -1543.52 1057.71 
-1788.42 -1544.36 1057.94 
-1786.93 -1543.11 1056.06 
-1786.63 -1543.05 1055.54 
-1786.25 -1542.85 1054.94 
-1785.83 -1542.49 1054.38 
-1785.45 -1542.27 1053.53 
-1785.05 -1541.97 1052.8 
-1788.67 -1544.64 1057.32 
-1788.39 -1544.6 1056.87 
-1788.74 -1544.46 1057.67 
-1788.78 -1544.28 1057.98 
-1783.51 -1554.11 1030.45 
-1783.45 -1554.15 1030.56 
-1783.84 -1554.5 1030.61 
-1783.82 -1553.21 1029.49 
-1783.92 -1552.69 1029.56 
-1783.69 -1552.82 1029.72 
-1783.76 -1552.3 1029.85 
-1783.57 -1552.85 1029.85 
-1783.63 -1552.3 1029.99 
-1783.43 -1552.72 1030.04 
-1787.11 -1547.89 1026.42 
-1786.39 -1547.77 1027.52 
-1786.02 -1549.14 1027.72 
-1785.84 -1550.44 1027.77 
-1786.62 -1551.21 1027.2 
-1786.41 -1549.35 1027.2 
-1786.82 -1548.47 1026.78 
-1787.46 -1548.96 1026.8 
-1787.14 -1549.24 1027.26 
-1787.61 -1548.29 1026.38 
-1786.69 -1549.07 1027.86 
-1786.3 -1548.1 1027.82 
-1788.14 -1548.2 1025.94 
-1788.69 -1548.66 1026.07 
-1787.82 -1548.58 1026.23 
-1787.08 -1548.07 1026.5 
-1789.23 -1548.74 1026.22 
-1786 -1552.3 1032.65 
-1786.12 -1552.26 1032.03 
-1786.49 -1551.99 1031.8 
-1788.5 -1548.64 1025.87 
-1788.19 -1548.74 1025.82 
-1788.14 -1548.93 1025.83 
-1788.05 -1549.06 1025.88 
-1787.67 -1549.33 1025.93 
-1787.58 -1549.42 1026.1 
-1787.25 -1548.28 1026.26 
-1787.28 -1548.61 1026.27 
-1787.32 -1549 1026.28 
-1787.44 -1549.33 1026.23 
-1787.21 -1548.15 1026.31 
-1787.16 -1548.09 1026.38 
-1786.69 -1543.12 1055.23 
-1786.93 -1543.45 1055.27 
-1787.18 -1543.8 1055.31 
-1787.28 -1543.91 1055.44 
-1787.5 -1544.2 1055.53 
-1787.7 -1544.46 1055.62 
-1787.9 -1544.64 1055.81 
-1788.12 -1544.6 1056.33 
-1785.51 -1541.44 1055.14 
-1785.62 -1541.64 1055.05 
-1785.83 -1541.93 1055.11 
-1786.06 -1542.27 1055.06 
-1786.24 -1542.51 1055.14 
-1786.49 -1542.85 1055.17 
-1785.04 -1541.05 1054.54 
-1785.07 -1541.13 1054.33 
-1785.11 -1541.25 1054.04 
-1785.11 -1541.23 1054.11 
-1785.11 -1541.32 1053.82 
-1785.1 -1541.28 1053.95 
-1785.44 -1541.36 1055.04 
-1785.26 -1541.15 1054.79 
-1785.35 -1541.29 1054.8 
-1785.18 -1541.13 1054.64 
-1785.44 -1541.42 1054.87 
-1785.1 -1541.11 1054.51 
-1785.1 -1541.16 1054.31 
-1785.11 -1541.16 1054.35 
-1785.14 -1541.13 1054.53 
-1784.9 -1541.34 1053.21 
-1784.33 -1541.09 1052.66 
-1784.32 -1541.14 1052.44 
-1784.94 -1541.43 1053.03 
-1785.06 -1541.47 1053.22 
-1785.08 -1541.48 1053.22 
-1785.15 -1541.57 1053.14 
-1785.2 -1541.61 1053.19 
-1785.1 -1541.34 1053.75 
-1785.27 -1541.65 1053.37 
-1785.23 -1541.63 1053.27 
-1785.2 -1541.53 1053.43 
-1785.25 -1541.57 1053.53 
-1784.02 -1540.83 1051.93 
-1785.01 -1541.05 1050.83 
-1788.97 -1544.5 1058.21 
-1789.31 -1545.23 1058.41 
-1789.57 -1546.61 1058.15 
-1789.74 -1546.3 1058.36 
-1788.81 -1545.24 1058.03 
-1787.99 -1543.66 1057.46 
-1787.62 -1543.51 1056.82 
-1787.27 -1543.29 1056.45 
-1788.4 -1544.46 1057.6 
-1788.68 -1545.05 1057.76 
-1786.95 -1543.36 1055.67 
-1786.48 -1543.13 1054.98 
-1785.89 -1542.68 1054.01 
-1785.3 -1542.28 1052.87 
-1788.8 -1544.81 1057.26 
-1788.47 -1544.73 1056.77 
-1788.89 -1544.66 1057.6 
-1788.95 -1544.51 1057.94 
-1783.2 -1552.91 1030.39 
-1783.12 -1553.1 1030.54 
-1783.32 -1554.03 1030.62 
-1783.48 -1552.33 1030.15 
-1783.36 -1552.4 1030.24 
-1783.31 -1552.84 1030.15 
-1784.31 -1553.23 1029.02 
-1784.39 -1552.7 1029.13 
-1784.12 -1552.99 1029.28 
-1784.14 -1552.41 1029.44 
-1783.88 -1552.21 1029.72 
-1783.99 -1552.33 1029.62 
-1783.99 -1551.75 1029.86 
-1783.84 -1551.84 1029.98 
-1783.66 -1551.91 1030.14 
-1787.14 -1548.29 1026.45 
-1785.69 -1550.14 1028.14 
-1786.53 -1549.53 1027.12 
-1786.95 -1548.66 1026.69 
-1787.68 -1549.03 1026.53 
-1787.53 -1549.13 1026.64 
-1787.3 -1549.19 1026.92 
-1787.02 -1549.33 1027.27 
-1786.85 -1549.35 1027.64 
-1786.43 -1549.18 1028.23 
-1786.77 -1549.44 1027.52 
-1786.62 -1549.39 1027.86 
-1786.13 -1548.28 1028.13 
-1788.01 -1548.53 1025.98 
-1788 -1548.95 1026.07 
-1787.83 -1549.01 1026.29 
-1787.12 -1548.48 1026.52 
-1784.36 -1553.74 1032.58 
-1784.38 -1553.74 1032.24 
-1784.47 -1553.61 1032.88 
-1784 -1554.07 1032.74 
-1784.16 -1553.94 1032.39 
-1784.19 -1553.89 1032.73 
-1783.93 -1554.18 1032.39 
-1787.9 -1549.02 1026.08 
-1787.88 -1549.32 1026.01 
-1787.87 -1549.13 1026.03 
-1788.02 -1549.24 1025.9 
-1787.69 -1549.47 1025.98 
-1787.9 -1549.76 1025.87 
-1787.84 -1549.59 1025.85 
-1787.77 -1549.68 1025.98 
-1788.23 -1550 1025.69 
-1788.09 -1549.91 1025.82 
-1788.26 -1549.88 1025.68 
-1788.08 -1549.79 1025.83 
-1787.64 -1549.59 1026.11 
-1787.24 -1548.5 1026.33 
-1787.28 -1548.83 1026.32 
-1787.31 -1549.19 1026.34 
-1787.2 -1548.48 1026.4 
-1785.42 -1552.25 1028.17 
-1785.24 -1552.57 1028.33 
-1785.49 -1552.84 1028.01 
-1786.84 -1543.36 1055.14 
-1787.12 -1543.73 1055.19 
-1787.38 -1544.1 1055.22 
-1787.43 -1544.14 1055.33 
-1787.56 -1544.3 1055.42 
-1787.77 -1544.59 1055.5 
-1787.98 -1544.79 1055.68 
-1788.22 -1544.75 1056.23 
-1785.5 -1541.49 1054.99 
-1785.64 -1541.71 1054.91 
-1785.84 -1541.98 1054.98 
-1786.11 -1542.37 1054.93 
-1786.32 -1542.65 1055.04 
-1786.6 -1543.03 1055.07 
-1785.14 -1541.26 1054.1 
-1785.21 -1541.44 1053.79 
-1785.23 -1541.44 1053.87 
-1785.24 -1541.42 1053.94 
-1785.23 -1541.51 1053.61 
-1785.23 -1541.49 1053.7 
-1785.25 -1541.19 1054.67 
-1785.35 -1541.36 1054.63 
-1785.42 -1541.43 1054.74 
-1785.17 -1541.16 1054.48 
-1785.23 -1541.2 1054.55 
-1785.62 -1541.71 1054.8 
-1785.16 -1541.23 1054.25 
-1785.16 -1541.2 1054.34 
-1785.21 -1541.34 1054.09 
-1784.35 -1541.22 1052.27 
-1784 -1540.76 1051.41 
-1784.01 -1540.89 1051.19 
-1785.03 -1541.54 1052.91 
-1784.25 -1541.24 1051.93 
-1784.64 -1541.4 1052.41 
-1785.16 -1541.63 1052.99 
-1785.24 -1541.71 1053.05 
-1785.56 -1542.09 1053.26 
-1785.6 -1542.12 1053.37 
-1785.69 -1542.21 1053.49 
-1785.84 -1542.38 1053.64 
-1785.59 -1542.04 1053.58 
-1785.75 -1542.22 1053.73 
-1785.7 -1542.13 1053.77 
-1785.06 -1541.12 1050.51 
-1789.5 -1545.71 1057.99 
-1789.56 -1545.82 1058.18 
-1789.67 -1546.44 1058.12 
-1789.49 -1546.65 1057.94 
-1788.96 -1545.71 1057.82 
-1788.05 -1543.87 1057.23 
-1787.65 -1543.76 1056.48 
-1787.31 -1543.5 1056.18 
-1788.74 -1545.32 1057.5 
-1788.47 -1544.74 1057.3 
-1789 -1545.9 1057.59 
-1787.29 -1543.7 1055.82 
-1787 -1543.67 1055.24 
-1786.72 -1543.4 1055.05 
-1786.22 -1543.05 1054.18 
-1785.74 -1542.7 1053.34 
-1785.34 -1542.44 1052.5 
-1788.92 -1544.98 1057.17 
-1788.58 -1544.86 1056.73 
-1789.03 -1544.82 1057.59 
-1789.3 -1545.21 1057.82 
-1783.05 -1553.99 1030.92 
-1783.42 -1554.16 1030.99 
-1783.2 -1553.98 1030.77 
-1784.85 -1553.41 1028.53 
-1784.83 -1553.03 1028.58 
-1784.57 -1553.07 1028.83 
-1784.58 -1552.77 1028.92 
-1784.34 -1551.93 1029.44 
-1784.13 -1551.97 1029.62 
-1784.13 -1551.67 1029.75 
-1784.07 -1551.54 1029.95 
-1783.93 -1551.63 1030.03 
-1783.78 -1551.74 1030.15 
-1783.65 -1551.74 1030.26 
-1787.17 -1548.7 1026.47 
-1785.59 -1550.13 1028.42 
-1785.44 -1550.74 1028.27 
-1785.63 -1550.78 1027.99 
-1785.39 -1550.62 1028.53 
-1787.01 -1551.15 1026.6 
-1786.71 -1549.8 1026.96 
-1787.02 -1548.96 1026.67 
-1787.69 -1549.09 1026.37 
-1787.51 -1549.17 1026.55 
-1787.16 -1549.3 1026.98 
-1786.19 -1549.31 1028.59 
-1786.34 -1549.52 1028.34 
-1786.57 -1549.5 1028 
-1786.45 -1549.66 1027.96 
-1786.27 -1549.59 1028.27 
-1785.92 -1548.62 1028.46 
-1787.15 -1548.93 1026.54 
-1784.99 -1553.05 1033 
-1784.81 -1553.33 1032.3 
-1785.04 -1553.01 1032.67 
-1783.85 -1554.35 1031.83 
-1784.02 -1554.09 1032.13 
-1783.75 -1554.53 1031.57 
-1783.8 -1554.35 1031.62 
-1783.73 -1554.55 1032.14 
-1783.49 -1555.12 1031.32 
-1783.89 -1554.36 1031.16 
-1783.69 -1554.57 1031.33 
-1787.7 -1549.12 1026.22 
-1788 -1549.73 1025.72 
-1787.85 -1549.48 1025.79 
-1788.05 -1549.88 1025.74 
-1787.25 -1548.87 1026.38 
-1787.3 -1549.3 1026.4 
-1787.22 -1548.91 1026.44 
-1786.86 -1543.41 1055.02 
-1787.09 -1543.73 1055.07 
-1787.35 -1544.08 1055.11 
-1787.61 -1544.43 1055.16 
-1787.66 -1544.48 1055.28 
-1787.79 -1544.64 1055.38 
-1788.04 -1544.92 1055.53 
-1788.29 -1544.88 1056.13 
-1785.88 -1542.06 1054.86 
-1786.07 -1542.35 1054.79 
-1786.3 -1542.66 1054.83 
-1786.39 -1542.77 1054.94 
-1786.64 -1543.11 1054.95 
-1785.42 -1541.63 1054.06 
-1785.67 -1542.04 1053.91 
-1785.61 -1541.94 1053.97 
-1785.69 -1542.01 1054.1 
-1785.65 -1542.04 1053.82 
-1785.33 -1541.37 1054.51 
-1785.54 -1541.65 1054.56 
-1785.59 -1541.7 1054.67 
-1785.32 -1541.4 1054.38 
-1785.23 -1541.25 1054.42 
-1785.84 -1542.03 1054.73 
-1785.46 -1541.64 1054.21 
-1785.3 -1541.41 1054.23 
-1785.56 -1541.72 1054.43 
-1785.74 -1542.02 1054.28 
-1783.94 -1540.95 1051 
-1785.08 -1540.6 1049.22 
-1785.11 -1541.66 1052.76 
-1784.63 -1541.45 1052.19 
-1784.85 -1541.52 1052.53 
-1783.83 -1541.01 1050.74 
-1784.03 -1541.22 1051.46 
-1784.38 -1541.33 1051.96 
-1785.19 -1541.94 1052.49 
-1785.55 -1542.17 1053.03 
-1785.77 -1542.39 1053.29 
-1786.14 -1542.85 1053.51 
-1785.97 -1542.61 1053.5 
-1786.11 -1542.76 1053.64 
-1786.22 -1542.87 1053.76 
-1786.4 -1543.08 1053.92 
-1786.11 -1542.69 1053.85 
-1786.27 -1542.87 1054 
-1786.15 -1542.69 1054.02 
-1785.11 -1541.79 1051.22 
-1789.53 -1546.14 1057.7 
-1789.51 -1546.52 1057.67 
-1789.6 -1546.39 1057.92 
-1789.42 -1546.68 1057.71 
-1788.1 -1544.08 1057 
-1788.11 -1544.23 1056.74 
-1787.67 -1543.98 1056.13 
-1789.12 -1546.29 1057.38 
-1788.82 -1545.61 1057.26 
-1788.56 -1545.08 1057.01 
-1787.35 -1543.96 1055.51 
-1786.96 -1543.82 1054.76 
-1786.54 -1543.42 1054.33 
-1786.05 -1543.04 1053.47 
-1785.64 -1542.77 1052.64 
-1785.16 -1542.22 1051.53 
-1789.1 -1545.12 1057.24 
-1788.62 -1544.98 1056.58 
-1788.8 -1545.1 1056.71 
-1789.28 -1545.18 1057.61 
-1789.54 -1546 1057.3 
-1782.95 -1553.86 1031.05 
-1783.51 -1551.92 1030.28 
-1783.35 -1551.94 1030.46 
-1783.35 -1552.14 1030.37 
-1783.18 -1552.64 1030.57 
-1783.23 -1552.22 1030.59 
-1783.04 -1553.02 1030.77 
-1783.08 -1552.63 1030.8 
-1783.55 -1551.75 1030.38 
-1783.44 -1551.82 1030.45 
-1784.47 -1552.32 1029.18 
-1784.6 -1552.07 1029.14 
-1784.69 -1552.63 1028.86 
-1784.28 -1551.61 1029.63 
-1784.18 -1551.54 1029.81 
-1784.11 -1551.42 1029.99 
-1784.04 -1551.38 1030.11 
-1783.89 -1551.51 1030.18 
-1783.76 -1551.61 1030.25 
-1783.65 -1551.61 1030.38 
-1787.21 -1549.17 1026.5 
-1785.49 -1550.14 1028.71 
-1785.34 -1550.52 1028.76 
-1785.2 -1550.69 1028.85 
-1785.26 -1550.8 1028.56 
-1785.35 -1551.15 1028.31 
-1786.99 -1550.01 1026.7 
-1787.11 -1549.46 1026.72 
-1787.32 -1549.3 1026.57 
-1787.16 -1549.34 1026.86 
-1787.33 -1549.25 1026.71 
-1786.97 -1549.38 1027.17 
-1786.99 -1549.41 1027.03 
-1786.81 -1549.47 1027.31 
-1786.09 -1549.61 1028.68 
-1785.94 -1549.46 1028.95 
-1786.34 -1549.95 1028.33 
-1786.02 -1549.74 1028.67 
-1787.05 -1549.87 1027.03 
-1786.99 -1550.18 1027.38 
-1787.12 -1550.75 1026.68 
-1786.81 -1550.78 1028.06 
-1786.96 -1550.48 1027.76 
-1785.77 -1548.79 1028.74 
-1787.25 -1549.38 1026.53 
-1785.08 -1553.1 1032.19 
-1785.27 -1552.79 1031.63 
-1785.39 -1552.84 1032.23 
-1784.99 -1552.23 1031.43 
-1785.06 -1552.09 1031.31 
-1785.44 -1552.77 1031.44 
-1783.63 -1554.14 1031.69 
-1783.88 -1554.19 1031.81 
-1783.37 -1554.13 1031.37 
-1783.25 -1554.11 1031.51 
-1783.58 -1554.14 1031.5 
-1783.49 -1554.15 1031.23 
-1783.13 -1554.11 1031.28 
-1783.37 -1554.15 1031.12 
-1783.03 -1554.1 1031.42 
-1788.19 -1549.99 1025.62 
-1787.46 -1549.37 1026.37 
-1787.51 -1549.21 1026.4 
-1785.11 -1550.95 1028.71 
-1785.26 -1551.52 1028.4 
-1786.83 -1543.4 1054.89 
-1787.07 -1543.73 1054.95 
-1787.32 -1544.07 1054.99 
-1787.57 -1544.41 1055.04 
-1787.81 -1544.74 1055.08 
-1787.87 -1544.79 1055.21 
-1787.97 -1544.91 1055.32 
-1788.26 -1545.1 1055.63 
-1788.38 -1545.01 1056.04 
-1786.05 -1542.35 1054.66 
-1786.28 -1542.67 1054.71 
-1786.53 -1543.02 1054.73 
-1786.56 -1543.03 1054.84 
-1785.96 -1542.32 1054.3 
-1786.14 -1542.65 1054.1 
-1786.12 -1542.6 1054.17 
-1786.03 -1542.45 1054.2 
-1786.23 -1542.7 1054.36 
-1785.77 -1542 1054.46 
-1785.8 -1542.01 1054.61 
-1785.96 -1542.27 1054.5 
-1786.35 -1542.79 1054.57 
-1786.17 -1542.55 1054.54 
-1784.63 -1540.69 1049.46 
-1785.27 -1541.44 1047.86 
-1784.24 -1541.36 1051.57 
-1785 -1542.07 1051.82 
-1783.85 -1541.22 1050.56 
-1784.53 -1540.83 1049.33 
-1785.59 -1542.84 1051.98 
-1785.02 -1542.48 1051.01 
-1785.91 -1543.16 1052.31 
-1786.27 -1543.48 1052.76 
-1786.48 -1543.24 1053.75 
-1786.61 -1543.4 1053.89 
-1786.72 -1543.5 1054.02 
-1786.97 -1543.79 1054.21 
-1786.63 -1543.35 1054.11 
-1786.89 -1543.66 1054.3 
-1786.64 -1543.33 1054.24 
-1786.6 -1543.25 1054.29 
-1789.66 -1546.35 1056.63 
-1789.72 -1546.6 1056.86 
-1788.12 -1544.39 1056.48 
-1788.5 -1545.09 1056.72 
-1787.71 -1544.22 1055.8 
-1788.95 -1546.01 1057.06 
-1788.82 -1545.8 1056.79 
-1787.35 -1544.17 1055.1 
-1786.7 -1543.72 1053.98 
-1786.29 -1543.34 1053.52 
-1785.86 -1543.09 1052.56 
-1785.43 -1542.71 1051.96 
-1785.2 -1542.16 1050.64 
-1785.27 -1541.52 1049.56 
-1789.26 -1545.25 1057.31 
-1788.98 -1545.24 1056.78 
-1788.61 -1545.15 1056.22 
-1789.53 -1545.71 1057.09 
-1789.58 -1546.19 1056.28 
-1789.4 -1546.07 1056.17 
-1782.83 -1553.87 1031.19 
-1783.36 -1551.8 1030.58 
-1783.3 -1551.94 1030.57 
-1783.25 -1551.99 1030.65 
-1783.43 -1551.69 1030.57 
-1783.54 -1551.64 1030.49 
-1784.48 -1551.63 1029.37 
-1784.42 -1551.42 1029.62 
-1784.76 -1551.86 1029 
-1784.63 -1551.37 1029.25 
-1784.86 -1551.43 1028.92 
-1784.2 -1551.38 1029.93 
-1784.24 -1551.2 1030.07 
-1784.14 -1551.32 1030.05 
-1784.15 -1551.13 1030.23 
-1783.98 -1551.24 1030.31 
-1783.74 -1551.48 1030.38 
-1785.27 -1550.46 1029.02 
-1785.41 -1550.11 1028.98 
-1785.03 -1550.83 1029.04 
-1785.12 -1550.6 1029.15 
-1787.06 -1552.09 1028.06 
-1786.8 -1550.94 1028.36 
-1785.7 -1549.68 1029.32 
-1785.46 -1549.64 1029.14 
-1785.83 -1549.7 1029.02 
-1786.27 -1550.26 1028.71 
-1785.85 -1549.92 1029.05 
-1784.67 -1553.4 1031.83 
-1784.72 -1553.17 1031.84 
-1784.84 -1553.32 1031.99 
-1784.48 -1553.35 1031.85 
-1784.56 -1553.17 1031.86 
-1784.38 -1553.09 1031.9 
-1784.75 -1551.85 1031.41 
-1784.72 -1551.34 1031.26 
-1784.89 -1551.48 1031.19 
-1785.22 -1552.05 1031.16 
-1785.44 -1552.1 1031 
-1785.26 -1551.64 1030.95 
-1785.6 -1552 1030.83 
-1783.69 -1554.15 1031.81 
-1782.98 -1554.1 1031.54 
-1783.17 -1554.12 1031.63 
-1782.77 -1553.72 1031.38 
-1783.85 -1553.8 1031.9 
-1783.85 -1553.57 1031.91 
-1783.97 -1553.7 1031.87 
-1784.92 -1551.04 1029 
-1785.03 -1551.3 1028.7 
-1784.75 -1551.15 1029.25 
-1787.05 -1543.73 1054.82 
-1786.78 -1543.36 1054.78 
-1787.29 -1544.05 1054.87 
-1787.53 -1544.39 1054.91 
-1787.77 -1544.71 1054.95 
-1788 -1545.03 1055 
-1788.06 -1545.08 1055.12 
-1788.15 -1545.15 1055.28 
-1788.48 -1545.25 1055.77 
-1786.72 -1543.31 1054.62 
-1786.52 -1543.04 1054.58 
-1786.6 -1543.21 1054.37 
-1786.53 -1543.1 1054.42 
-1784.84 -1540.98 1048.91 
-1785.18 -1542.13 1047.47 
-1784.24 -1541.41 1049.67 
-1785.13 -1543.22 1049.72 
-1785.52 -1543.65 1050.19 
-1785.03 -1542.47 1050.23 
-1786.25 -1543.46 1052.97 
-1786.62 -1543.82 1053.13 
-1786.64 -1543.83 1053.38 
-1786.94 -1544.05 1053.6 
