-1681.96 -1952.43 6715.86 
-1686.36 -1945.61 6717.89 
-1685.84 -1946.17 6717.5 
-1685.82 -1946.22 6718.42 
-1686.79 -1944.9 6719.56 
-1681.5 -1952.96 6719.68 
-1688.75 -1943.43 6718.5 
-1688.3 -1943.59 6719.18 
-1687.04 -1945 6718.06 
-1684.91 -1948.79 6714.28 
-1687.47 -1944.64 6717.48 
-1684.41 -1949.41 6714.09 
-1731.52 -1936.26 6712.48 
-1733.04 -1934.2 6719.86 
-1727.1 -1934.59 6717.09 
-1737.01 -1936.06 6708.35 
-1742.76 -1931.86 6716.17 
-1736.11 -1934.64 6716.35 
-1741.73 -1933.59 6710.05 
-1747.51 -1931.24 6710.96 
-1689.54 -1942.58 6719.12 
-1687.84 -1945.81 6720.71 
-1690.28 -1942.42 6717.75 
-1690.54 -1942.17 6717.98 
-1688.64 -1943.24 6719.32 
-1689.54 -1943.03 6717.55 
-1691.12 -1942.06 6716.82 
-1691.1 -1941.76 6718 
-1685.25 -1948.42 6714.16 
-1687.76 -1944.46 6716.55 
-1689.73 -1943.04 6716.69 
-1723.22 -1935.29 6714.66 
-1720.02 -1934.76 6715.82 
-1721.69 -1937.86 6706.3 
-1725.88 -1935.68 6713.57 
-1718.76 -1932.25 6720.54 
-1716.85 -1931.97 6720.52 
-1728.52 -1934.06 6719.95 
-1718.68 -1931.56 6721.49 
-1739.18 -1931.72 6723.4 
-1730.73 -1933.73 6723.4 
-1732.82 -1933.13 6725.11 
-1735.78 -1931.46 6729.52 
-1750.49 -1929.19 6716.9 
-1749.01 -1928.48 6725.24 
-1751.74 -1930.28 6712.57 
-1749.19 -1932.34 6707.78 
-1753.1 -1931.06 6709.1 
-1691.28 -1944.15 6720.5 
-1688.79 -1954.07 6722.72 
-1692.09 -1941.65 6718.23 
-1691.67 -1941.71 6716.89 
-1692.02 -1941.47 6717.07 
-1691.25 -1942.11 6716.31 
-1692.47 -1941.56 6715.67 
-1692.34 -1941.57 6716.08 
-1692.62 -1941.27 6717.25 
-1685.87 -1947.56 6714.34 
-1689.43 -1943.62 6715.63 
-1690.16 -1942.97 6715.97 
-1691.62 -1941.99 6715.7 
-1718.13 -1934.93 6715.2 
-1719.75 -1937.74 6707.3 
-1716.76 -1935.41 6714.29 
-1717.58 -1938.24 6707.16 
-1715.08 -1931.4 6720.6 
-1715.1 -1929.58 6722.92 
-1716.09 -1929.64 6723.65 
-1713.98 -1929.72 6723.07 
-1719.92 -1931.56 6722.96 
-1717.04 -1929.83 6725.23 
-1744.52 -1928.65 6732.43 
-1724.41 -1932.47 6725.2 
-1730.25 -1933.03 6727.69 
-1731.86 -1932.44 6729.39 
-1736.36 -1928.61 6737.18 
-1732.56 -1931.05 6733.1 
-1753.62 -1927.52 6723.99 
-1754.64 -1928.93 6716.08 
-1750.32 -1926.82 6735.34 
-1754.99 -1929.59 6713.3 
-1758.61 -1929.96 6710.68 
-1758.21 -1931.85 6705.34 
-1693.2 -1942.33 6719.28 
-1694.11 -1941.35 6717.62 
-1692.78 -1941.3 6716.2 
-1693.18 -1941.04 6716.34 
-1692.53 -1941.55 6715.3 
-1693.73 -1941 6714.6 
-1693.91 -1940.9 6714.83 
-1693.56 -1941.04 6715.37 
-1694.23 -1940.98 6716.58 
-1690.08 -1943.46 6715.3 
-1691.64 -1942.35 6715.02 
-1691.86 -1942.01 6715.21 
-1693.24 -1941.24 6714.55 
-1715.42 -1938.75 6707.25 
-1715.98 -1936.12 6713.34 
-1714.1 -1939.5 6707.08 
-1714.33 -1931.78 6720.02 
-1713.95 -1932.45 6719.1 
-1713 -1930.66 6722.99 
-1713.96 -1929.11 6725.54 
-1714.91 -1928.52 6725.95 
-1715.78 -1928.46 6727.25 
-1712.89 -1930.02 6725.48 
-1718.14 -1930.59 6726.95 
-1716.68 -1929.07 6728.78 
-1743.97 -1926.46 6740.8 
-1725.82 -1932.73 6727.74 
-1727.33 -1932.44 6731.25 
-1723.55 -1932 6729.43 
-1726.33 -1931.79 6733.35 
-1731.94 -1929.78 6737.28 
-1734.03 -1928.93 6741.09 
-1741.63 -1927.36 6745.01 
-1727.17 -1931.46 6735.32 
-1753.65 -1926.4 6733.31 
-1758.2 -1927.24 6722.37 
-1759.07 -1928.31 6716.79 
-1752.86 -1924.42 6743.32 
-1751.19 -1924.19 6745.51 
-1762.81 -1928.73 6713.42 
-1764.91 -1930.5 6707.46 
-1770.01 -1930.03 6706.96 
-1768.27 -1928.89 6710.68 
-1804.7 -1938.27 6723.37 
-1802.04 -1937.22 6724.75 
-1802.78 -1938.69 6720.53 
-1800.75 -1937.74 6722.05 
-1809.27 -1940.21 6716.92 
-1798.16 -1936.51 6723.49 
-1797.81 -1938.22 6718.75 
-1698.16 -1945.98 6724.33 
-1696.3 -1942.67 6720.02 
-1699.57 -1944.46 6722.51 
-1696.31 -1942.15 6719.38 
-1695.09 -1941.04 6717.21 
-1693.98 -1940.83 6715.45 
-1694.44 -1940.66 6715.64 
-1694.57 -1940.68 6713.92 
-1694.79 -1940.59 6714.15 
-1694.72 -1940.56 6714.77 
-1695.03 -1940.49 6714.39 
-1695.13 -1940.73 6716.45 
-1690.14 -1943.68 6714.97 
-1691.73 -1942.54 6714.62 
-1693.12 -1941.58 6713.91 
-1693.23 -1941.3 6714.2 
-1686.73 -1947.24 6713.92 
-1687.01 -1947.25 6713.83 
-1694.42 -1940.75 6713.67 
-1715.31 -1936.93 6712.53 
-1713.96 -1933.18 6717.69 
-1712.21 -1931.63 6722.26 
-1711.65 -1932.48 6721.43 
-1711.86 -1930.95 6725.08 
-1714.36 -1928.68 6728.08 
-1713.28 -1929.63 6727.33 
-1715.71 -1928.09 6729.35 
-1712.01 -1930.78 6726.67 
-1718.51 -1930.18 6730.31 
-1717.6 -1929.08 6731.14 
-1747.75 -1924.35 6748.69 
-1730.23 -1930.14 6740.95 
-1731.25 -1930.86 6743.33 
-1737.46 -1929.11 6746.87 
-1727.08 -1931.11 6737.92 
-1742.91 -1925.32 6750.67 
-1718.85 -1928.84 6733.08 
-1754.93 -1925.24 6736.78 
-1754.17 -1924.48 6741.59 
-1759.93 -1926.63 6728.1 
-1764.26 -1927.23 6719.23 
-1754.85 -1922.11 6749 
-1754.52 -1921.14 6750.44 
-1752.92 -1921.04 6750.98 
-1772.27 -1929.4 6708.55 
-1771.6 -1928.82 6710.08 
-1768.81 -1927.81 6715.24 
-1771.24 -1930.78 6705.92 
-1773.72 -1929.55 6708.9 
-1775.17 -1930.03 6708.75 
-1775.4 -1928.79 6711.82 
-1777.04 -1929.08 6712.59 
-1807.09 -1938.82 6725.24 
-1802.83 -1937.39 6727.11 
-1799 -1936.14 6726.28 
-1794.69 -1935.01 6724.8 
-1794.09 -1936.02 6720.65 
-1699.65 -1944.1 6722.17 
-1700.04 -1944.22 6721.82 
-1700.02 -1944.3 6722.26 
-1695.56 -1940.77 6717.23 
-1696.57 -1941.53 6718.92 
-1696.64 -1941.97 6719.36 
-1695.07 -1940.43 6714.96 
-1695.22 -1940.42 6715.49 
-1695.37 -1940.47 6713.47 
-1695.53 -1940.4 6713.71 
-1695.64 -1940.34 6713.98 
-1695.62 -1940.31 6714.5 
-1696.01 -1940.19 6714.06 
-1695.7 -1940.48 6716.34 
-1691.78 -1942.82 6714.28 
-1687.86 -1946.76 6713.78 
-1693.47 -1941.74 6713.38 
-1694.3 -1940.84 6713.39 
-1694.28 -1941.11 6713.08 
-1695.15 -1940.58 6713.25 
-1713.41 -1939.29 6710.95 
-1712.33 -1940.33 6708.43 
-1714.25 -1933.89 6715.39 
-1712.58 -1933.7 6718.96 
-1710.97 -1931.84 6724.62 
-1710.7 -1933.45 6721.72 
-1710.49 -1932.76 6724.14 
-1710.94 -1931.67 6726.21 
-1713.17 -1928.97 6728.64 
-1714.48 -1928.29 6729.8 
-1712.14 -1930 6727.81 
-1715.9 -1927.87 6731 
-1711 -1931.1 6727.49 
-1748.73 -1921.48 6753.77 
-1731.01 -1931.8 6747.01 
-1727.34 -1933.05 6744.32 
-1725.28 -1932.14 6740.24 
-1737.16 -1927.96 6750.63 
-1718.44 -1928.66 6734.33 
-1743.37 -1924 6753.95 
-1758.95 -1922.59 6748.01 
-1758.84 -1924.58 6741.36 
-1760.36 -1925.92 6733.18 
-1765.93 -1926.72 6723.57 
-1756.94 -1917.54 6754.28 
-1758.3 -1918.82 6752.69 
-1755.95 -1917.81 6754.4 
-1754.46 -1918.22 6755.21 
-1773.77 -1928.5 6711.24 
-1772.35 -1928.15 6713.25 
-1769.06 -1926.88 6720.73 
-1776.9 -1930.29 6709.28 
-1778.57 -1929.4 6712.97 
-1779.23 -1930.67 6710.83 
-1776.74 -1928.28 6715.04 
-1774.69 -1928.07 6713.81 
-1778.91 -1928.7 6716.51 
-1787.33 -1935.7 6710.77 
-1782.16 -1931.05 6714.17 
-1783.05 -1933.35 6709.74 
-1789.39 -1934.73 6717.08 
-1779.84 -1929.67 6714.07 
-1787.89 -1932.81 6720.28 
-1803.66 -1937.79 6730.09 
-1808.43 -1939.41 6728.07 
-1814.72 -1941.09 6721.91 
-1796.01 -1935.11 6728.7 
-1793.53 -1934.33 6726.72 
-1786.56 -1931.71 6722.19 
-1699.68 -1943.47 6721.62 
-1700.18 -1944.13 6723.7 
-1700.83 -1944.99 6728.33 
-1700.25 -1947.03 6731.58 
-1696.62 -1941.13 6718.57 
-1696.07 -1940.56 6717.07 
-1699.36 -1942.69 6720.87 
-1700.27 -1943.55 6721.46 
-1701.94 -1945.35 6733.68 
-1704.04 -1942.75 6736.46 
-1700.87 -1948.63 6737.92 
-1695.86 -1940.23 6714.95 
-1695.97 -1940.23 6715.58 
-1696.09 -1940.32 6713.09 
-1696.37 -1940.18 6713.29 
-1696.4 -1940.15 6713.61 
-1696.44 -1940.09 6714.51 
-1696.81 -1940.01 6713.9 
-1696.39 -1940.32 6716.46 
-1688.25 -1946.69 6713.67 
-1691.23 -1943.44 6714.22 
-1693.67 -1942 6712.94 
-1694.29 -1941.42 6712.77 
-1695.14 -1940.75 6713.03 
-1695.09 -1941.01 6712.78 
-1695.95 -1940.51 6712.93 
-1713.85 -1934.43 6714.02 
-1713.25 -1939.49 6711.36 
-1712.45 -1933.75 6717.09 
-1711.49 -1934.6 6719.32 
-1710.02 -1932.49 6725.81 
-1709.41 -1934.22 6722.15 
-1710.44 -1933.23 6723.81 
-1709.58 -1933.39 6725.3 
-1709.99 -1932.17 6727.12 
-1712.12 -1929.25 6729.07 
-1713.45 -1928.49 6730.66 
-1714.97 -1927.87 6731.93 
-1711.02 -1930.17 6728.78 
-1709.94 -1931.28 6728.58 
-1754.07 -1917.72 6757.61 
-1749.19 -1920.25 6757.21 
-1726.59 -1934.78 6748.64 
-1732.1 -1931.72 6753.24 
-1723.51 -1932.93 6741.73 
-1724.78 -1934.64 6745.49 
-1716.68 -1928.73 6735.26 
-1738.17 -1927.64 6755.89 
-1744.34 -1923.65 6759.35 
-1762.85 -1924.84 6740.84 
-1764.06 -1922.35 6748.7 
-1762.94 -1917.17 6756.85 
-1765.37 -1926.16 6731.7 
-1757.04 -1915.55 6756.99 
-1760.59 -1915.27 6758.92 
-1760.63 -1914.59 6760.04 
-1761.66 -1915.51 6759.32 
-1756.44 -1915.44 6758.37 
-1773.5 -1927.78 6716.06 
-1769.73 -1926.33 6730.51 
-1771.99 -1926.54 6723.84 
-1776.14 -1927.89 6716.59 
-1778.61 -1928.26 6718.45 
-1780.36 -1928.99 6718.09 
-1781.73 -1930.05 6716.53 
-1801.69 -1937.26 6733.38 
-1793 -1934.12 6731.84 
-1810.63 -1940.47 6730.43 
-1804.3 -1938.33 6736.71 
-1816.16 -1941.85 6723.98 
-1785.97 -1930.95 6728.75 
-1786.65 -1931.46 6725.33 
-1781.7 -1929.45 6719.62 
-1700.39 -1944.35 6721.78 
-1700.83 -1943.97 6721.74 
-1700.48 -1943.83 6722.28 
-1700.45 -1944.08 6721.36 
-1700.75 -1944.37 6721.26 
-1700.4 -1942.91 6721.02 
-1701.08 -1942.92 6723.56 
-1702.21 -1941.79 6723.35 
-1703.19 -1940.22 6724.84 
-1704.61 -1940.55 6732.47 
-1699.44 -1942.18 6720.38 
-1697.09 -1940.94 6718.39 
-1697.79 -1940.87 6718.31 
-1703.11 -1945.66 6740.46 
-1707.74 -1934.24 6734.11 
-1706.54 -1938.37 6739.19 
-1707.59 -1933.71 6730.98 
-1707.53 -1940.22 6744.14 
-1705.06 -1944.24 6744.87 
-1696.66 -1940.07 6715.17 
-1696.69 -1940.09 6715.85 
-1696.97 -1940.15 6712.87 
-1696.81 -1940.38 6712.68 
-1697.28 -1939.95 6713.01 
-1697.21 -1939.93 6713.36 
-1697.18 -1939.92 6714.44 
-1697.22 -1939.89 6714.94 
-1697.51 -1939.79 6713.73 
-1698.51 -1940.8 6718.28 
-1691.29 -1943.67 6713.93 
-1688.98 -1946.34 6713.54 
-1693.21 -1942.65 6712.83 
-1694.33 -1941.69 6712.5 
-1694.32 -1941.98 6712.28 
-1694.92 -1941.34 6712.51 
-1696.09 -1940.66 6712.7 
-1696.05 -1940.9 6712.46 
-1713.29 -1938.93 6712.13 
-1713.04 -1934.37 6713.76 
-1711.26 -1934.54 6717.26 
-1710.18 -1934.74 6720.29 
-1709.08 -1933.13 6726.67 
-1706.93 -1936.66 6723.2 
-1709.39 -1934.43 6723.6 
-1706.8 -1936.69 6724.09 
-1708.84 -1934.37 6724.77 
-1708.35 -1934.13 6726 
-1708.93 -1932.41 6728.31 
-1712.06 -1928.65 6730.93 
-1713.81 -1927.76 6733.05 
-1710.43 -1930.02 6730.38 
-1709.15 -1931.22 6730.24 
-1754.73 -1916.5 6760.76 
-1756.94 -1915.18 6760.87 
-1750.51 -1919.47 6762.73 
-1722.38 -1938.28 6751.83 
-1727.24 -1936.3 6757.49 
-1733.2 -1932.52 6761.19 
-1721.11 -1934.46 6743.58 
-1716.25 -1929.48 6737.18 
-1720.22 -1938.04 6747.68 
-1739.13 -1928.35 6762.93 
-1746.24 -1923.11 6766.01 
-1768.11 -1923.5 6747.4 
-1768.21 -1925.32 6739.21 
-1767.78 -1919.41 6755.47 
-1765.5 -1918.17 6756.53 
-1763.69 -1914.97 6760.87 
-1765.91 -1916.43 6759.26 
-1760.91 -1914.04 6761.12 
-1763.47 -1914.44 6761.36 
-1763.91 -1913.73 6762.05 
-1761.7 -1913.63 6762.03 
-1775.2 -1927.42 6719.85 
-1772.27 -1925.88 6735.69 
-1773.99 -1926.62 6729.89 
-1777.66 -1927.9 6719.64 
-1779.93 -1928.59 6720.15 
-1793.95 -1934.35 6738.6 
-1783.81 -1930.05 6737.37 
-1806.82 -1939.86 6738.93 
-1813.72 -1942.01 6732.17 
-1818.45 -1943.02 6725.18 
-1796.16 -1935.52 6743.15 
-1782.12 -1929.13 6725.47 
-1781.41 -1928.71 6733.57 
-1701.46 -1943.43 6721.78 
-1701.05 -1943.35 6722.3 
-1702.08 -1942.51 6722.46 
-1700.49 -1942.29 6720.57 
-1700.81 -1942.85 6720.58 
-1700.62 -1943.45 6720.98 
-1701.11 -1943.23 6720.42 
-1700.89 -1943.81 6720.83 
-1701.37 -1943.73 6720.33 
-1701.1 -1944.27 6720.8 
-1706.17 -1936.42 6728.51 
-1702.77 -1942.1 6728.51 
-1704.45 -1938.79 6725.37 
-1703.53 -1940.41 6723.99 
-1709.28 -1932.43 6736.03 
-1708.98 -1931.26 6732.3 
-1708.24 -1932.51 6729.6 
-1709.73 -1936.81 6742.13 
-1708.07 -1945.21 6751.16 
-1697.19 -1939.9 6715.5 
-1699.19 -1940.73 6718.23 
-1697.59 -1940.17 6712.58 
-1697.75 -1939.95 6712.75 
-1696.97 -1940.57 6712.39 
-1697.52 -1940.36 6712.39 
-1697.81 -1939.79 6713.13 
-1697.84 -1939.74 6714.28 
-1697.8 -1939.74 6714.76 
-1697.7 -1939.76 6715.28 
-1697.94 -1939.75 6713.74 
-1700.91 -1942.14 6720.25 
-1693.81 -1942.66 6712.27 
-1689.92 -1946.48 6712.94 
-1689.66 -1946.13 6713.25 
-1694.52 -1942.05 6712.02 
-1694.68 -1941.69 6712.25 
-1695.79 -1941.25 6712.2 
-1696.99 -1940.79 6712.14 
-1712.65 -1935.18 6712.82 
-1712.88 -1939.4 6712.84 
-1710.96 -1934.67 6715.85 
-1709.98 -1935.38 6719.13 
-1707.06 -1937 6722.53 
-1708.13 -1933.76 6727.41 
-1705.17 -1940.23 6722.77 
-1704.88 -1939.81 6723.61 
-1706.41 -1936.67 6724.99 
-1705.09 -1938.91 6724.62 
-1706.32 -1936.55 6725.8 
-1706.14 -1936.5 6726.55 
-1711.78 -1928.22 6732.57 
-1713.42 -1927.99 6734.79 
-1710.35 -1929.59 6732.53 
-1755.15 -1915.45 6763.88 
-1758.53 -1914.52 6762.61 
-1762.21 -1912.66 6762.84 
-1753.09 -1916.19 6767.01 
-1721.48 -1941.08 6760.24 
-1716.72 -1941.78 6752.63 
-1727.91 -1937.38 6765.19 
-1734.35 -1933.13 6769.18 
-1714.45 -1931.1 6738.94 
-1715.55 -1938.31 6746.14 
-1740.84 -1927.71 6768.45 
-1747.21 -1921.12 6769.58 
-1771.7 -1924.88 6744.23 
-1770.22 -1921.47 6752.95 
-1770.27 -1919.58 6756.29 
-1768.38 -1917.88 6757.92 
-1765.64 -1915.14 6762.05 
-1764.56 -1914 6761.87 
-1768.33 -1917.69 6762.22 
-1763.81 -1912.38 6762.9 
-1764.18 -1912.03 6763.24 
-1763.41 -1909.62 6764.67 
-1762.8 -1908.26 6764.99 
-1777.28 -1927.34 6725.19 
-1773.35 -1925.43 6739.02 
-1774.87 -1926.33 6733.14 
-1780.08 -1928.32 6724.36 
-1786.21 -1931.32 6741.4 
-1782.04 -1929.17 6747.35 
-1780.67 -1928.13 6746.09 
-1778.28 -1927.04 6738.83 
-1809.32 -1942.27 6742.22 
-1797.64 -1937.2 6746.44 
-1787.5 -1932.27 6748.51 
-1778.51 -1927.32 6731.2 
-1701.44 -1944.31 6720.6 
-1701.17 -1944.1 6721.22 
-1701.75 -1943.68 6721.16 
-1702.25 -1942.9 6721.76 
-1702.75 -1942.04 6722.48 
-1701.47 -1942.94 6719.94 
-1701.76 -1943.33 6719.8 
-1701.8 -1944.13 6720.2 
-1704.88 -1938.61 6725.2 
-1704.08 -1940.07 6723.93 
-1710.84 -1930.52 6735.41 
-1711.57 -1941.7 6748.51 
-1712.06 -1933.33 6739.84 
-1699.68 -1940.57 6718.04 
-1701.21 -1941.82 6719.84 
-1701.2 -1942.52 6720.09 
-1697.8 -1940.29 6712.41 
-1697.88 -1940.09 6712.6 
-1697.9 -1939.89 6712.82 
-1697.63 -1940.52 6712.19 
-1697.91 -1939.79 6713.18 
-1698.05 -1939.72 6714.4 
-1698.09 -1939.67 6715.06 
-1700.1 -1940.41 6717.81 
-1698.03 -1939.76 6713.88 
-1694.41 -1942.53 6711.87 
-1694.98 -1942 6711.76 
-1695.41 -1941.64 6711.96 
-1696.52 -1941.19 6711.92 
-1697.48 -1940.76 6711.93 
-1712.49 -1937.01 6713.28 
-1712.44 -1940.35 6714.1 
-1711.43 -1934.49 6713.8 
-1708.31 -1937.72 6720.5 
-1708.94 -1937.01 6718.56 
-1707.51 -1937.52 6722.02 
-1706.38 -1939.87 6721.95 
-1704.32 -1940.81 6722.5 
-1705.16 -1940.54 6722.17 
-1703.81 -1940.88 6723.08 
-1712.15 -1928.82 6734.99 
-1754.91 -1914.57 6766.33 
-1757.95 -1913.96 6764.82 
-1762.12 -1910.92 6764.23 
-1761.96 -1905.34 6766.44 
-1752.79 -1915.13 6770.55 
-1754.19 -1914.1 6769.21 
-1722.48 -1942.2 6768.5 
-1716.9 -1944.91 6763.7 
-1728.99 -1937.72 6772.59 
-1740.46 -1927.07 6771.72 
-1734.35 -1932.27 6774.19 
-1747.03 -1919.97 6773.05 
-1772.91 -1923.89 6749.25 
-1772.17 -1921.49 6754.24 
-1771.03 -1919.91 6760.66 
-1772.42 -1920.75 6757.98 
-1764.1 -1914.3 6766 
-1767.02 -1918.83 6769.85 
-1769.91 -1922.92 6773.28 
-1771.58 -1923.25 6769.27 
-1762.96 -1907.51 6765.36 
-1762.35 -1913.85 6769.67 
-1760.65 -1911.4 6769.63 
-1760.95 -1908.64 6768.63 
-1762.1 -1905.64 6766.98 
-1775.33 -1925.76 6737.87 
-1774.69 -1925.1 6746.89 
-1783.55 -1930.25 6749.08 
-1779.18 -1927 6747.08 
-1781.06 -1928.44 6752.29 
-1778.05 -1926.14 6752.03 
-1777.61 -1926.15 6746.59 
-1804.03 -1942.09 6751.94 
-1796.65 -1938.73 6756.64 
-1788.89 -1933.69 6755.18 
-1786.24 -1932.29 6755.03 
-1701.85 -1944.07 6720.54 
-1702.48 -1943.19 6721.13 
-1701.49 -1942.17 6719.67 
-1701.81 -1942.54 6719.46 
-1702.08 -1943.05 6719.31 
-1702.07 -1943.65 6719.59 
-1701.47 -1941.55 6719.48 
-1697.87 -1940.42 6712.27 
-1698.02 -1940.2 6712.48 
-1698 -1940.02 6712.7 
-1697.96 -1939.88 6712.89 
-1697.74 -1940.62 6712.07 
-1697.98 -1939.8 6713.29 
-1698.22 -1939.66 6714.61 
-1698.16 -1939.67 6714.91 
-1700.4 -1940.3 6717.52 
-1701.7 -1941.53 6719.15 
-1698.08 -1939.79 6713.65 
-1698.27 -1939.66 6714.27 
-1690.38 -1946.3 6712.89 
-1691.04 -1946.24 6712.49 
-1693.19 -1943.5 6712.27 
-1694.08 -1943.22 6711.77 
-1694.63 -1942.55 6711.64 
-1695.39 -1942.08 6711.49 
-1696.1 -1941.51 6711.7 
-1697.2 -1940.99 6711.72 
-1697.7 -1940.77 6711.79 
-1712.22 -1938.4 6714.38 
-1711.81 -1941.27 6715.44 
-1711.35 -1935.17 6713.15 
-1708.65 -1936.94 6717.78 
-1706.85 -1940.23 6721.24 
-1707.81 -1939.43 6720.67 
-1708.51 -1939.14 6720.07 
-1703.51 -1941.8 6722.15 
-1704.69 -1941.73 6721.71 
-1705.44 -1941.13 6721.7 
-1757.24 -1913.3 6767.37 
-1754.52 -1913.7 6769.22 
-1761.41 -1910.13 6765.58 
-1761.19 -1902.69 6767.78 
-1761.72 -1903.55 6767.62 
-1752.65 -1914.06 6773.68 
-1753.76 -1913.35 6772.14 
-1724.1 -1941.87 6775.12 
-1730.69 -1934.69 6778.66 
-1740.87 -1925.5 6774.76 
-1736.32 -1928.84 6778.71 
-1746.98 -1918.02 6777.59 
-1774.28 -1923.34 6752.99 
-1773.46 -1921.86 6756.24 
-1775.22 -1924.77 6762.84 
-1774.34 -1926.1 6769.38 
-1776.54 -1924.69 6758.27 
-1765.53 -1919.15 6775.05 
-1768.81 -1923.97 6779.53 
-1774.01 -1928.9 6778.64 
-1771.97 -1928.03 6782.15 
-1764.82 -1920.47 6780.89 
-1761.82 -1916.26 6777.37 
-1758.61 -1911.91 6774.64 
-1758.89 -1907.98 6771.77 
-1759.33 -1905.47 6771.26 
-1776.16 -1925.55 6747.1 
-1784.33 -1931.1 6754.05 
-1782.28 -1929.8 6756.1 
-1778.79 -1926.45 6754.16 
-1776.1 -1924.72 6752.69 
-1805.16 -1944.97 6761.65 
-1794.89 -1939.8 6764.78 
-1790.52 -1937.1 6763.4 
-1786.84 -1935.32 6762.66 
-1702.36 -1943.79 6720.4 
-1702.96 -1943.37 6720.53 
-1703.27 -1942.77 6721.1 
-1701.76 -1941.95 6719.29 
-1701.95 -1942.37 6719.17 
-1702.16 -1942.78 6718.97 
-1702.4 -1943.44 6718.89 
-1702.36 -1943.72 6719.17 
-1702.36 -1944.17 6719.47 
-1702.04 -1944.28 6719.91 
-1702.72 -1944.08 6719.77 
-1697.94 -1940.57 6712.1 
-1698.1 -1940.35 6712.33 
-1698.17 -1940.21 6712.51 
-1698.09 -1940.1 6712.63 
-1698.06 -1939.98 6712.81 
-1698.03 -1939.85 6713.03 
-1700.81 -1940.01 6716.68 
-1700.67 -1940.15 6717.14 
-1701.86 -1941.65 6718.88 
-1701.99 -1942.16 6718.94 
-1698.11 -1939.82 6713.3 
-1698.73 -1939.4 6714.01 
-1700.94 -1939.75 6716.19 
-1719.5 -1947.03 6791.12 
-1727.21 -1938.69 6796.24 
-1723.2 -1945.52 6798.88 
-1694.32 -1943.39 6711.5 
-1694.72 -1942.87 6711.45 
-1696.26 -1941.56 6711.47 
-1696.13 -1941.97 6711.22 
-1697.17 -1941.1 6711.52 
-1697.93 -1940.71 6711.83 
-1697.69 -1940.9 6711.52 
-1708.84 -1944.06 6718.27 
-1707.39 -1942.93 6719.28 
-1707.32 -1943.1 6719.19 
-1708.94 -1943.87 6718.36 
-1707.54 -1942.95 6719.32 
-1709.06 -1943.64 6718.4 
-1707.8 -1942.6 6719.31 
-1711.98 -1938.48 6715.02 
-1711.92 -1940.6 6715.5 
-1710.05 -1936.13 6712.62 
-1710.13 -1935.54 6713.65 
-1707.59 -1937.02 6717.36 
-1709.02 -1938.92 6719.63 
-1707.16 -1940.66 6720.47 
-1706.31 -1941.5 6720.87 
-1707.94 -1940.06 6719.97 
-1708.5 -1940.04 6719.4 
-1705.58 -1942.04 6720.89 
-1705 -1942.59 6720.45 
-1704.14 -1942.32 6721.26 
-1760.73 -1908.88 6766.94 
-1757.08 -1912.24 6769.98 
-1754.12 -1912.98 6771.69 
-1760.68 -1901.77 6768.32 
-1760.76 -1902.19 6769.27 
-1760.73 -1900 6769.21 
-1751.61 -1912.59 6778.09 
-1753.15 -1912.72 6775.49 
-1753.48 -1912.6 6774.48 
-1725.59 -1939.7 6779.86 
-1720.33 -1944.99 6779.42 
-1723.37 -1940.63 6788.28 
-1733.37 -1927.38 6787.23 
-1728.16 -1934.03 6787.58 
-1741.7 -1922.81 6779.26 
-1738.58 -1920.26 6787.69 
-1744.21 -1913.32 6787.1 
-1776.01 -1924.03 6755.34 
-1777.81 -1929.98 6770.39 
-1776.94 -1931.81 6778.4 
-1779.62 -1927.44 6757.21 
-1779.39 -1929.54 6764.37 
-1768.02 -1925.26 6785.5 
-1771.3 -1929.83 6789.25 
-1776.54 -1934.53 6787.62 
-1774.23 -1933.12 6790.32 
-1767.33 -1926.77 6791.84 
-1764.16 -1921.95 6787.06 
-1760.66 -1916.79 6782.23 
-1756.81 -1911.26 6777.8 
-1755.87 -1907.95 6776.32 
-1757.29 -1904.72 6774.38 
-1782.75 -1933.21 6765.11 
-1796.31 -1943.12 6772.8 
-1792.47 -1940.6 6770.33 
-1787.09 -1938.84 6771.91 
-1703.68 -1943.52 6719.95 
-1704.31 -1943.02 6720.28 
-1702.26 -1942.54 6718.59 
-1702.46 -1943.17 6718.57 
-1702.68 -1944.17 6718.77 
-1702.69 -1943.85 6718.51 
-1702.85 -1944.54 6719.28 
-1703.42 -1944.17 6719.39 
-1698.16 -1940.49 6712.18 
-1698.28 -1940.33 6712.38 
-1698.32 -1940.21 6712.55 
-1698.16 -1940.08 6712.71 
-1698.12 -1939.94 6712.91 
-1702.31 -1942.23 6718.28 
-1702.07 -1941.94 6718.61 
-1698.38 -1939.78 6713.09 
-1699.22 -1939.11 6713.7 
-1701.21 -1938.72 6715.04 
-1701.34 -1939.69 6716.02 
-1702.57 -1942.58 6717.94 
-1730.12 -1939.28 6804.35 
-1732.16 -1931.06 6794.67 
-1734.11 -1932.76 6801.53 
-1692.61 -1948.42 6711.33 
-1693.49 -1947.73 6710.52 
-1692.81 -1947.61 6711 
-1692.38 -1946.12 6711.42 
-1694.72 -1943.4 6711.23 
-1695.11 -1942.97 6711.21 
-1695.39 -1942.53 6711.26 
-1697.08 -1941.26 6711.3 
-1695.75 -1942.73 6711 
-1696.44 -1942.29 6710.91 
-1697.05 -1941.51 6711.06 
-1697.88 -1940.88 6711.53 
-1698.2 -1940.89 6711.77 
-1698.21 -1940.66 6711.98 
-1697.67 -1941.05 6711.24 
-1706.88 -1942.71 6719.29 
-1706.26 -1942.67 6719.43 
-1706.66 -1943.08 6719.18 
-1705.88 -1943.19 6719.26 
-1705.32 -1943.65 6719.2 
-1705.97 -1943.75 6719.03 
-1706.91 -1942.28 6719.48 
-1707.43 -1941.99 6719.32 
-1709.18 -1943.29 6718.44 
-1708.25 -1941.65 6719.17 
-1707.92 -1940.95 6719.35 
-1710.58 -1937.64 6714 
-1710.72 -1940.18 6717.33 
-1710.11 -1941.45 6717.88 
-1708.44 -1936.64 6711.98 
-1709.28 -1936.24 6714.01 
-1708.69 -1940.98 6719.06 
-1706.75 -1936.99 6716.46 
-1708.26 -1938.16 6718.73 
-1709.04 -1939.84 6719.06 
-1709.48 -1939.11 6719.04 
-1706.54 -1941.91 6720.13 
-1705.79 -1942.47 6720 
-1707.34 -1941.16 6719.77 
-1705.23 -1943.05 6719.56 
-1704.64 -1943.43 6719.48 
-1760.29 -1906.63 6767.87 
-1760.05 -1899.78 6769.47 
-1756.01 -1911.33 6772.27 
-1759.49 -1905.36 6769.1 
-1753.68 -1912.21 6774.44 
-1758.6 -1901.35 6772.64 
-1760.18 -1898.38 6770.2 
-1748.83 -1906.68 6786.44 
-1751.33 -1909.16 6781.19 
-1752.65 -1910.32 6778.42 
-1753.15 -1911.34 6776.96 
-1738.09 -1923.15 6794.79 
-1744.07 -1916.13 6793.53 
-1749.56 -1909.66 6789.93 
-1781.13 -1934.1 6772.58 
-1780.05 -1935.44 6779.77 
-1779.41 -1937.58 6787.99 
-1770.49 -1931.21 6795.57 
-1773.75 -1935.54 6798.69 
-1779.29 -1940.48 6796.85 
-1776.67 -1938.12 6797.71 
-1769.26 -1932.09 6801.63 
-1766 -1927.28 6797.12 
-1762.53 -1921.58 6790.66 
-1758.97 -1916.32 6785.71 
-1755.6 -1912.03 6783 
-1753.56 -1907.98 6780.39 
-1754.81 -1904.58 6778.11 
-1784.02 -1937.81 6774.84 
-1792.48 -1944.15 6779.92 
-1787.49 -1943.14 6783.17 
-1704.09 -1943.85 6719.39 
-1702.54 -1942.91 6718.23 
-1702.75 -1943.57 6718.2 
-1702.97 -1944.21 6718.19 
-1703 -1944.54 6718.6 
-1703.12 -1944.76 6718.97 
-1703.54 -1944.74 6719.14 
-1698.5 -1940.47 6712.23 
-1698.83 -1940.3 6712.39 
-1698.41 -1940.09 6712.71 
-1698.97 -1940.15 6712.56 
-1698.39 -1939.98 6712.87 
-1699.79 -1939.38 6713.16 
-1699.93 -1938.9 6713.53 
-1701.56 -1938.73 6714.82 
-1702.67 -1942.36 6717.5 
-1702.89 -1943.11 6717.58 
-1702.81 -1943.3 6717.88 
-1738.19 -1935.56 6805.11 
-1727.86 -1944.55 6807.78 
-1738.03 -1940.57 6808.25 
-1732.67 -1946.71 6811.12 
-1739.68 -1926.42 6799.5 
-1743.57 -1929.71 6802.42 
-1695.36 -1943.24 6710.97 
-1695.97 -1943.06 6710.75 
-1694.66 -1945.07 6710.61 
-1697.16 -1941.87 6710.8 
-1696.63 -1942.58 6710.67 
-1697.84 -1941.09 6711.06 
-1698.04 -1941.06 6711.42 
-1698.72 -1940.78 6712.18 
-1698.43 -1941.24 6711.72 
-1698.6 -1941.07 6712.02 
-1704.12 -1945.03 6718.92 
-1704.78 -1944.04 6719.16 
-1704.16 -1944.41 6719.14 
-1710.23 -1939.08 6716.42 
-1708.12 -1938.27 6714.78 
-1706.72 -1937.31 6715.34 
-1708.54 -1938.3 6718.29 
-1759.79 -1899.61 6770 
-1754.69 -1910.65 6774.66 
-1758.77 -1904.11 6770.33 
-1759.68 -1899.73 6770.45 
-1753.18 -1910.16 6777.65 
-1755.73 -1901.65 6776.93 
-1758.79 -1898.26 6772.78 
-1760.06 -1898.02 6770.6 
-1751.67 -1905.27 6782.78 
-1752.69 -1902.66 6781.58 
-1752.6 -1900.67 6782.87 
-1748.29 -1904.05 6788.65 
-1750.23 -1905.53 6784.73 
-1747.99 -1905.1 6788.82 
-1752.43 -1907.58 6780.23 
-1746.71 -1920.17 6796.99 
-1752.37 -1913.91 6793.28 
-1751.71 -1908.41 6784.8 
-1783.22 -1939.42 6781.96 
-1782.36 -1941 6789.21 
-1782.2 -1943.72 6797.68 
-1772.41 -1936.38 6804.94 
-1775.49 -1941.03 6809.48 
-1776.84 -1941 6805.53 
-1782.16 -1946.39 6805.68 
-1779.53 -1943.91 6806.2 
-1770.44 -1937.62 6811.13 
-1767.55 -1933.07 6807.36 
-1763.91 -1925.81 6798.87 
-1760.78 -1921.17 6794.48 
-1757.75 -1916.97 6791.07 
-1754.57 -1912.86 6788.37 
-1785.52 -1944.67 6790.76 
-1703.62 -1945.05 6718.79 
-1699.14 -1940.42 6712.22 
-1699.72 -1940.31 6712.25 
-1699.49 -1940.22 6712.42 
-1699.06 -1940 6712.74 
-1699.82 -1940.08 6712.54 
-1699.32 -1940.09 6712.61 
-1700.48 -1939.45 6712.99 
-1702.6 -1941.2 6715.15 
-1702.31 -1940.42 6715.11 
-1701.97 -1939.29 6714.85 
-1702.97 -1942.85 6717.18 
-1703.17 -1943.54 6717.24 
-1703.13 -1943.8 6717.5 
-1703.03 -1943.95 6717.83 
-1743.1 -1943.36 6810.95 
-1737.58 -1949.29 6813.66 
-1746.21 -1934.25 6805.78 
-1749.29 -1937.83 6808.61 
-1749.7 -1923.96 6799.94 
-1752.52 -1928.08 6803.06 
-1695.14 -1946.65 6709.6 
-1696.21 -1944.82 6710.22 
-1695.41 -1944.91 6710.36 
-1696.49 -1943.5 6710.61 
-1696.32 -1943.17 6710.61 
-1696.63 -1942.98 6710.49 
-1696.95 -1942.44 6710.59 
-1697.48 -1941.85 6710.74 
-1698.19 -1941.5 6711.35 
-1699.15 -1941.04 6712.17 
-1699.48 -1940.64 6712.17 
-1698.74 -1941.55 6711.77 
-1698.9 -1941.38 6712.05 
-1703.37 -1944.35 6717.55 
-1703.69 -1944.61 6717.33 
-1703.44 -1944.14 6717.12 
-1703.77 -1944.46 6716.93 
-1753.72 -1909 6777.38 
-1758.12 -1903.81 6771.5 
-1759.77 -1898.91 6771.1 
-1760.05 -1897.15 6771.32 
-1752.44 -1905.79 6781.15 
-1756.15 -1898.85 6777.31 
-1759.85 -1895.8 6772.24 
-1755.18 -1896.62 6780.43 
-1751.37 -1895.53 6787.45 
-1746.51 -1903.47 6791.41 
-1749.64 -1903.55 6786.21 
-1747.59 -1903.88 6789.74 
-1746.74 -1904.86 6791.37 
-1755.42 -1917.97 6796.38 
-1784.98 -1946.7 6798.12 
-1773.4 -1941.82 6814.53 
-1779.26 -1946.59 6814.7 
-1776.48 -1946.54 6818.26 
-1764.65 -1944.43 6815.63 
-1762.39 -1939.9 6812.35 
-1764.17 -1930.21 6805.9 
-1759.17 -1936.06 6809.33 
-1761.09 -1926.07 6802.67 
-1758.35 -1921.89 6799.35 
-1700.21 -1940.43 6712.17 
-1700.24 -1940.2 6712.34 
-1701.24 -1939.71 6712.93 
-1703.06 -1942.24 6715.39 
-1703.67 -1944.16 6716.84 
-1752.61 -1941.7 6811.67 
-1746.41 -1947.78 6814.35 
-1755.62 -1932.17 6806.21 
-1696.51 -1944.86 6710.2 
-1696.79 -1943.26 6710.47 
-1697.08 -1942.55 6710.45 
-1698.05 -1941.32 6710.92 
-1698.49 -1941.72 6711.42 
-1699.55 -1941.26 6712.14 
-1699.88 -1940.84 6712.15 
-1699.02 -1941.92 6711.83 
-1699.29 -1941.65 6712.1 
-1704.01 -1944.45 6716.39 
-1703.41 -1943.12 6715.52 
-1703.45 -1943.63 6715.45 
-1703.88 -1944.35 6716.6 
-1752.08 -1903.52 6782.75 
-1753.8 -1906.91 6778.64 
-1757.57 -1903.72 6772.9 
-1759.72 -1898.62 6771.57 
-1760.04 -1895.09 6772.65 
-1760.12 -1894.31 6772.77 
-1749.05 -1902.33 6787.17 
-1758.52 -1895.21 6775.1 
-1759.04 -1892.65 6775.66 
-1753.43 -1888.8 6787.24 
-1756.37 -1890.37 6781.48 
-1748.8 -1894.17 6791.53 
-1744.77 -1903.08 6793.77 
-1747.11 -1902.99 6790.8 
-1744.29 -1903.1 6794.36 
-1744.9 -1903.53 6793.68 
-1755.13 -1946.15 6814.95 
-1700.8 -1940.27 6712.19 
-1700.62 -1940.62 6712.12 
-1701.49 -1940.3 6712.84 
-1695.65 -1946.71 6709.71 
-1696.67 -1945.03 6710.19 
-1697.42 -1946.64 6710.11 
-1697.3 -1945.35 6710.22 
-1696.83 -1946.69 6709.97 
-1696.92 -1945.2 6710.18 
-1696.23 -1946.75 6709.84 
-1697.04 -1943.03 6710.34 
-1697.45 -1942.42 6710.49 
-1697.99 -1942.22 6710.95 
-1698.41 -1942.33 6711.22 
-1700.04 -1941.44 6712.12 
-1700.33 -1941.02 6712.12 
-1699.79 -1941.89 6712.12 
-1698.9 -1942.3 6711.59 
-1699.5 -1942.34 6711.98 
-1703.21 -1944.19 6715.1 
-1702.17 -1941.8 6713.23 
-1703.05 -1944.42 6714.88 
-1701.88 -1941.67 6712.8 
-1703.35 -1943.95 6715.3 
-1701.91 -1941.01 6712.97 
-1753.53 -1903.25 6781.1 
-1756.56 -1904.01 6775.05 
-1750.42 -1900.71 6785.5 
-1748.18 -1900.86 6788.91 
-1759.64 -1897.33 6772.57 
-1759.93 -1894.89 6773.13 
-1759.4 -1891.06 6775.8 
-1759.9 -1891.9 6774.56 
-1746.85 -1901.51 6791.19 
-1757.97 -1887.52 6780.04 
-1753.39 -1883.22 6790.67 
-1755.78 -1883.85 6785.7 
-1747.33 -1895.5 6792.76 
-1750.39 -1888.39 6792.28 
-1745.01 -1901.8 6793.61 
-1744.83 -1902.69 6793.77 
-1743.45 -1902.06 6795.21 
-1701.31 -1940.48 6712.15 
-1701.08 -1940.93 6712.13 
-1697.33 -1943.08 6710.29 
-1697.85 -1942.59 6710.71 
-1697.87 -1943.39 6710.58 
-1698.44 -1942.78 6711.04 
-1698.99 -1942.69 6711.47 
-1700.53 -1941.89 6712.12 
-1700.73 -1941.39 6712.12 
-1700.23 -1942.34 6712.13 
-1699.51 -1942.9 6711.73 
-1699.99 -1942.75 6712.09 
-1702.03 -1942.32 6713.02 
-1702.89 -1944.66 6714.67 
-1702.75 -1945.07 6714.31 
-1701.94 -1942.64 6712.95 
-1702.52 -1945.06 6713.79 
-1701.36 -1941.66 6712.35 
-1756.58 -1902.4 6776.24 
-1753.3 -1899.48 6782.31 
-1749.85 -1897.94 6787.08 
-1746.93 -1899.01 6791.78 
-1745.5 -1900.18 6793.25 
-1759.13 -1892.79 6775.45 
-1759.05 -1891.28 6776.2 
-1758.9 -1890.2 6776.97 
-1756.76 -1885.91 6782.79 
-1756.65 -1886.53 6782.57 
-1744.19 -1900.92 6794.63 
-1754.89 -1883.42 6787.54 
-1750.12 -1879.26 6802.32 
-1753.09 -1880.73 6793.8 
-1752.45 -1881.1 6794.97 
-1747.13 -1893.22 6794.8 
-1747.4 -1886.16 6801.49 
-1743.35 -1902.09 6795.2 
-1743.72 -1899.97 6795.93 
-1697.94 -1945.41 6710.5 
-1698.46 -1943.63 6710.94 
-1698.7 -1945.31 6710.87 
-1700.89 -1942.47 6712.25 
-1701.27 -1942.31 6712.41 
-1700.61 -1942.81 6712.19 
-1699.07 -1943.43 6711.32 
-1699.73 -1943.58 6711.71 
-1699.41 -1945.19 6711.21 
-1700.27 -1943.12 6712.1 
-1701.22 -1943.39 6712.65 
-1701.88 -1943.13 6713.02 
-1701.54 -1943.23 6712.82 
-1702.3 -1944.93 6713.32 
-1702.05 -1945.37 6712.76 
-1700.9 -1943.55 6712.43 
-1701.65 -1945.42 6712.33 
-1755.92 -1900.73 6778.49 
-1758.7 -1894.24 6775.77 
-1754.55 -1892.56 6782.31 
-1748.8 -1894.05 6790.99 
-1747.12 -1897.22 6792.25 
-1745.1 -1897.77 6795.27 
-1743.92 -1898.11 6797.27 
-1743.33 -1898.35 6798.15 
-1756.97 -1888.97 6780.6 
-1756.97 -1887.79 6781.29 
-1753.52 -1882.99 6790.62 
-1753.56 -1884.9 6788.94 
-1742.9 -1899.87 6797.64 
-1751.29 -1879.92 6798.86 
-1750.09 -1879.49 6802.13 
-1749.59 -1878.9 6803.98 
-1745.6 -1883.09 6808.98 
-1746.18 -1884.15 6806.42 
-1752.02 -1880.07 6797.07 
-1748.41 -1883.73 6801.71 
-1743.73 -1889.81 6806.22 
-1742.97 -1894.45 6803.02 
-1745.66 -1882.88 6809.09 
-1742.52 -1901.21 6797.16 
-1700.51 -1943.78 6712.08 
-1701.34 -1945.13 6712.14 
-1701.01 -1944.93 6711.95 
-1755.92 -1895.76 6779.38 
-1751.71 -1887.67 6790.57 
-1746.96 -1893.31 6795.07 
-1746.22 -1891.25 6798.39 
-1746.48 -1888.9 6800.26 
-1746.09 -1887.89 6802.32 
-1743.47 -1892.32 6803.8 
-1750.74 -1885.79 6794.12 
-1750.06 -1880.85 6800.72 
-1750.46 -1882.88 6797.68 
-1747.38 -1883.68 6804.05 
-1749.25 -1878.45 6805.27 
-1751.41 -1878.91 6799.74 
-1748.3 -1882.39 6803.38 
-1746.27 -1881.04 6809.61 
-1750.2 -1878.14 6803.4 
