-1762.08 -2076.79 4698.2 
-1769.35 -2078.91 4700.94 
-1765.7 -2075.17 4695.13 
-1759.01 -2074.3 4697.13 
-1758.72 -2079.15 4701.97 
-1765.99 -2081.98 4706 
-1782.15 -2081.11 4704.09 
-1773.69 -2085.06 4708.63 
-1778.37 -2084.68 4708.29 
-1765.03 -2087.99 4712.68 
-1772.14 -2086.83 4714.11 
-1770.27 -2083.09 4707.18 
-1766.55 -2086.3 4710.18 
-1776.43 -2081.74 4705.2 
-1755.8 -2076.55 4700.57 
-1755.62 -2082.33 4707.03 
-1760.3 -2083.45 4708.22 
-1759.68 -2086.18 4710.68 
-1755.83 -2073.14 4698.25 
-1752.99 -2078.37 4703.53 
-1753.6 -2074.62 4700.74 
-1778.49 -2085.92 4716.46 
-1774.46 -2088.5 4721.58 
-1784.38 -2085.15 4718.23 
-1778.98 -2088.16 4724.12 
-1769.17 -2088.92 4719.23 
-1763.06 -2089.7 4717.84 
-1755.89 -2091.32 4717.68 
-1755.71 -2090.03 4714.51 
-1758.89 -2087.86 4712 
-1750.44 -2083.97 4709.55 
-1750.1 -2086.5 4711.76 
-1751.71 -2087.65 4712.48 
-1749.6 -2089.76 4714.42 
-1750.75 -2079.69 4705.91 
-1751.92 -2074.98 4702.2 
-1764.42 -2091.78 4724.89 
-1767.29 -2091.91 4727.62 
-1773.92 -2090.34 4727.7 
-1784.83 -2086.92 4725.12 
-1781.28 -2088.61 4732.88 
-1759.39 -2092.11 4721.83 
-1747.3 -2093.71 4719.7 
-1750.19 -2094.32 4722.12 
-1748.72 -2091.27 4715.67 
-1748.28 -2083.72 4710.1 
-1744.92 -2087.33 4714.55 
-1744.57 -2088.54 4715.69 
-1744.05 -2089.81 4717.23 
-1744.17 -2090.8 4718.31 
-1744.37 -2091.97 4719.67 
-1744.9 -2093.03 4720.67 
-1749.42 -2079.57 4707.01 
-1753.38 -2070.61 4698.49 
-1751.44 -2072.71 4701.35 
-1749.99 -2076.47 4704.76 
-1721.43 -2053.24 4749.29 
-1722.21 -2062.58 4744.8 
-1720.42 -2057.55 4745.34 
-1754.17 -2094.57 4726.28 
-1756.37 -2095.05 4729.75 
-1755.27 -2095.91 4731.42 
-1763.13 -2093.78 4730.78 
-1770.38 -2092.01 4734.99 
-1776.9 -2090.63 4740.85 
-1788.43 -2086.97 4739.12 
-1744.75 -2095.21 4725.75 
-1744.12 -2094.58 4724.65 
-1745.49 -2093.64 4720.97 
-1745.96 -2096.46 4727.93 
-1744.86 -2086.26 4713.75 
-1747.52 -2081.93 4709.67 
-1740.17 -2088.32 4718.05 
-1738.56 -2087.48 4717.67 
-1740.58 -2089.22 4718.83 
-1741.36 -2090.6 4720.5 
-1742.74 -2092.28 4722 
-1743.6 -2093.87 4723.6 
-1748.78 -2077.15 4706.52 
-1749.81 -2073.66 4703.5 
-1751.13 -2070.66 4700.61 
-1749.96 -2071.23 4702.09 
-1727.33 -2057.45 4710.88 
-1729.19 -2059.57 4709.81 
-1729.59 -2058.19 4708.61 
-1720.08 -2053.76 4746.38 
-1719.5 -2061.89 4741.44 
-1718.69 -2058.25 4741.99 
-1721.32 -2066.73 4741.03 
-1723.39 -2061.07 4747.37 
-1724.22 -2069.79 4743.22 
-1725.27 -2064.92 4747.65 
-1723.03 -2071.59 4740.47 
-1746.89 -2097.53 4731.26 
-1744.7 -2098.53 4733.49 
-1746.07 -2098.88 4734.68 
-1754.34 -2096.86 4735.68 
-1763.31 -2094.66 4740.22 
-1772.24 -2092.57 4745.4 
-1783.43 -2089.47 4747.19 
-1742.9 -2095.77 4727.89 
-1743.03 -2094.84 4726.02 
-1742.7 -2093.94 4724.61 
-1743.56 -2096.66 4729.62 
-1737.99 -2086.65 4717.03 
-1743.77 -2084.32 4713.22 
-1746.51 -2078.99 4708.82 
-1736.91 -2088.16 4718.44 
-1737.49 -2088.92 4718.92 
-1732.85 -2088.94 4718.63 
-1737.49 -2089.52 4719.5 
-1741.62 -2092.17 4722.68 
-1738.27 -2090.78 4721.08 
-1748.58 -2074.32 4705.35 
-1749.06 -2071.68 4703.53 
-1731.41 -2059.27 4707.26 
-1731.5 -2060.55 4707.52 
-1733.35 -2060.48 4705.78 
-1727.45 -2060.19 4712.45 
-1727.23 -2066.24 4715.82 
-1729.97 -2062.75 4710.08 
-1724.65 -2060.88 4716.89 
-1724.12 -2056.09 4715.03 
-1722.45 -2059.95 4719.41 
-1722.48 -2055.5 4718.4 
-1721.72 -2059.41 4720.46 
-1723.37 -2055.43 4716.25 
-1725.46 -2067.09 4719.11 
-1723.23 -2065.53 4721.47 
-1718.33 -2052.1 4735.89 
-1717.67 -2060.09 4734.33 
-1718.1 -2056.52 4734.66 
-1718.62 -2050.6 4737.37 
-1718.1 -2056.87 4737.88 
-1781.24 -2090.28 4749.7 
-1719.52 -2053.91 4744.13 
-1717.73 -2060.43 4738.72 
-1718.77 -2055.42 4741.01 
-1717.37 -2061.95 4735.87 
-1717.77 -2063.91 4737.21 
-1719.16 -2066.8 4737.37 
-1720.71 -2070.12 4737.44 
-1722.37 -2073.76 4737.31 
-1728.05 -2064.2 4751.11 
-1727.05 -2071.21 4746.31 
-1725.91 -2074.05 4742.99 
-1725.17 -2078.54 4738.97 
-1724.04 -2077.19 4737.53 
-1742.22 -2098.57 4733.38 
-1740.97 -2098.28 4732.85 
-1740.33 -2099.45 4735.06 
-1736.64 -2099.86 4735.65 
-1744.39 -2099.51 4736.52 
-1754.01 -2097.23 4739.42 
-1762.99 -2094.94 4743.26 
-1771.4 -2092.79 4747.13 
-1739.15 -2098.16 4732.57 
-1737.72 -2097.6 4731.32 
-1741.15 -2095.98 4728.55 
-1741.38 -2094.8 4726.38 
-1739.89 -2092.85 4723.81 
-1734.58 -2086.54 4717.29 
-1732.28 -2088.49 4718.4 
-1740.21 -2081.77 4713.63 
-1745.73 -2076.35 4707.84 
-1733.23 -2089.82 4719.2 
-1731.87 -2090.07 4719.16 
-1733 -2090.4 4719.6 
-1728.05 -2091.15 4719.87 
-1732.93 -2090.82 4720.03 
-1732.9 -2091.16 4720.56 
-1733.37 -2091.77 4721.54 
-1747.96 -2072.56 4705.06 
-1747.66 -2069.83 4704.03 
-1746.74 -2070.3 4704.82 
-1745.5 -2067.81 4704.34 
-1745.49 -2071.08 4705.81 
-1742.99 -2068.24 4705.32 
-1740.53 -2070.72 4707.12 
-1744.16 -2067.92 4704.86 
-1743.58 -2071.47 4706.62 
-1737.74 -2062.58 4703.87 
-1735.97 -2064.87 4705.22 
-1737.22 -2065.04 4704.86 
-1735.65 -2069.32 4708.21 
-1738.52 -2065.19 4704.57 
-1734.58 -2066.84 4706.53 
-1733.73 -2068.92 4708.81 
-1737.02 -2069.45 4707.55 
-1740.21 -2067.64 4705.51 
-1736.59 -2062.39 4704.23 
-1735 -2064.58 4705.55 
-1734.12 -2064.49 4706 
-1731.48 -2064.07 4708.41 
-1732.02 -2064.36 4707.87 
-1730.71 -2063.95 4709.35 
-1733.82 -2063.71 4705.99 
-1731.21 -2067.76 4709.84 
-1732.48 -2064.71 4707.44 
-1733.58 -2066.7 4707 
-1731.7 -2069.55 4710.83 
-1727.56 -2067.75 4715.79 
-1724.76 -2069.6 4720.95 
-1725.73 -2071.36 4719.05 
-1720.05 -2062.41 4723.66 
-1721.28 -2059.21 4721.24 
-1721.86 -2055.95 4719.94 
-1720.98 -2058.76 4721.73 
-1719.97 -2061.39 4723.6 
-1722.14 -2065.75 4723.55 
-1722.59 -2070.04 4723.89 
-1718.11 -2055.29 4733.51 
-1717.98 -2056.04 4732.48 
-1718.93 -2051.39 4731.43 
-1718.02 -2060.95 4731.53 
-1718.01 -2060.07 4730.48 
-1717.36 -2062.49 4733.79 
-1717.92 -2062.3 4731.76 
-1779.95 -2090.87 4751.88 
-1778.69 -2092.54 4758.38 
-1789.42 -2088.76 4755.8 
-1717.73 -2063.91 4734.97 
-1718.15 -2064.21 4732.78 
-1718.52 -2065.04 4734.96 
-1720.12 -2068.28 4735.12 
-1721.78 -2071.7 4735.31 
-1723.59 -2075.5 4735.65 
-1729.65 -2070.68 4749.3 
-1728.85 -2079.03 4744.07 
-1727.57 -2079.94 4741.72 
-1726.54 -2082.09 4738.35 
-1725.45 -2079.41 4736.03 
-1734.88 -2099.23 4733.99 
-1733.35 -2098.11 4731.18 
-1738.22 -2100.29 4736.63 
-1734.93 -2100.09 4735.73 
-1732.45 -2098.78 4732.14 
-1742.56 -2100.04 4737.81 
-1752.57 -2097.6 4740.58 
-1761.7 -2095.27 4744.67 
-1770.4 -2093.51 4750.46 
-1736.11 -2096.78 4729.41 
-1730.83 -2096.75 4727.42 
-1736.09 -2095.8 4727.47 
-1735.22 -2094.66 4725.61 
-1734.09 -2093.21 4723.53 
-1733.43 -2084.25 4716.83 
-1727.62 -2089.02 4719.2 
-1727.69 -2090.21 4719.56 
-1735.35 -2075.34 4712.5 
-1739.46 -2074.34 4709.48 
-1729.32 -2091.99 4720.13 
-1727.71 -2091.92 4720.21 
-1729.27 -2092.73 4720.91 
-1725.99 -2091.26 4720.25 
-1725.43 -2092.16 4720.61 
-1728.56 -2093.63 4721.81 
-1728.56 -2094.32 4722.58 
-1732.75 -2069.52 4710.07 
-1729.28 -2070.43 4714.11 
-1728.42 -2069.48 4714.81 
-1727.92 -2068.69 4715.57 
-1730.25 -2072.94 4714.52 
-1730.54 -2079.54 4716.81 
-1732.82 -2078.28 4715.14 
-1723.25 -2074.7 4721.68 
-1725.7 -2073.74 4718.34 
-1719.76 -2062.43 4724.58 
-1720.85 -2065 4724.92 
-1720.59 -2058.31 4722.43 
-1719.63 -2060.65 4724.02 
-1719.22 -2061.25 4725.27 
-1721.57 -2067.7 4726.25 
-1721.46 -2075.46 4724.15 
-1721.37 -2072.04 4725.4 
-1720.66 -2055.13 4723.91 
-1720.78 -2056.01 4722.84 
-1721.25 -2055.68 4721.48 
-1720.17 -2057.95 4723.27 
-1717.86 -2056.28 4731.56 
-1718.97 -2052.49 4730.66 
-1717.88 -2058.97 4729.99 
-1718.1 -2055.87 4730.54 
-1718.05 -2061.17 4729.09 
-1718.25 -2061.89 4730.08 
-1717.92 -2060.32 4728.64 
-1718.49 -2063.25 4731.16 
-1769.93 -2094.44 4760.73 
-1777.11 -2092.64 4767.26 
-1718.51 -2064.56 4733.04 
-1718.76 -2064.33 4731.52 
-1719 -2064.95 4732.77 
-1719.99 -2066.91 4733.04 
-1721.53 -2070.13 4733.33 
-1723.14 -2073.58 4733.79 
-1724.82 -2077.08 4734.05 
-1731.21 -2077.3 4747.4 
-1738.54 -2072.76 4753.9 
-1736.83 -2066.14 4755.72 
-1730.4 -2087.3 4741.18 
-1729.24 -2087.36 4739.16 
-1727.94 -2085.32 4737.98 
-1727.1 -2082.72 4736.07 
-1726.15 -2080.24 4733.78 
-1730.64 -2097.61 4729.06 
-1728.84 -2096.39 4725.88 
-1736.63 -2100.9 4737.7 
-1733.51 -2099.95 4734.91 
-1731.13 -2098.59 4731.25 
-1728.85 -2097.2 4727.67 
-1741.75 -2100.34 4739.56 
-1751.32 -2097.92 4741.81 
-1761.04 -2095.78 4747.53 
-1762.45 -2095.48 4756.82 
-1729.19 -2095.64 4724.6 
-1727.85 -2095.45 4723.76 
-1728.74 -2094.91 4723.34 
-1730.02 -2084.8 4717.89 
-1725.54 -2088.48 4719.45 
-1723.12 -2090.66 4720.48 
-1724.55 -2090.97 4720.37 
-1727.42 -2092.88 4720.81 
-1725.65 -2092.88 4720.81 
-1726.95 -2093.66 4721.61 
-1723.68 -2092 4720.82 
-1723.31 -2092.92 4721.18 
-1727.04 -2094.33 4722.36 
-1727.84 -2094.85 4723.06 
-1728 -2078.2 4717.36 
-1726.28 -2075.72 4717.5 
-1725.65 -2084.45 4718.78 
-1721.5 -2079.3 4722.93 
-1723.43 -2079.05 4720.19 
-1720.01 -2063.79 4726.13 
-1719.28 -2062.38 4726.48 
-1720.96 -2066.02 4727.11 
-1719.05 -2060.15 4725.19 
-1718.54 -2060.56 4726.64 
-1718.62 -2061.91 4727.68 
-1720.78 -2068.4 4728.07 
-1720.89 -2071.78 4726.7 
-1720.76 -2076.45 4725.49 
-1720.8 -2080.51 4724.12 
-1719.71 -2057.77 4724.36 
-1718.87 -2059.5 4725.46 
-1720.42 -2055.42 4724.5 
-1719.57 -2057.29 4725.28 
-1718.45 -2055.88 4729.59 
-1719.52 -2053.52 4728.61 
-1718.9 -2056.34 4727.91 
-1719.81 -2054.99 4726.67 
-1717.86 -2058.81 4728.74 
-1718.33 -2061.34 4728.39 
-1718.18 -2060.57 4727.65 
-1718.66 -2062.46 4729.6 
-1718.25 -2059.84 4727.27 
-1719.09 -2063.65 4730.21 
-1719.41 -2056.98 4726.17 
-1767.93 -2088.44 4764.69 
-1777.3 -2086.4 4771.15 
-1719.29 -2064.89 4731.04 
-1719.82 -2065.43 4730.69 
-1720.94 -2067.9 4731.36 
-1722.54 -2071.67 4731.61 
-1723.74 -2075.18 4731.79 
-1723.35 -2078.3 4730.18 
-1732.1 -2083.89 4745.01 
-1739.27 -2079.93 4751.26 
-1747.16 -2073.6 4758.68 
-1731.91 -2092.66 4739.81 
-1730.68 -2090.68 4737.57 
-1728.99 -2086.78 4736.58 
-1727.6 -2084.17 4734.29 
-1724.63 -2082.23 4730.73 
-1727.07 -2096.04 4724.7 
-1727.11 -2095.39 4723.55 
-1735.73 -2101.25 4738.43 
-1732.99 -2100.06 4735.19 
-1730.37 -2098.44 4731.51 
-1728.32 -2097.08 4728.14 
-1726.12 -2095.67 4724.96 
-1744.46 -2099.09 4744.72 
-1751.8 -2097.93 4744.06 
-1753.64 -2096.88 4751.7 
-1758.01 -2090.27 4758 
-1721.83 -2089.89 4720.49 
-1721.3 -2090.95 4720.92 
-1722.32 -2091.58 4720.91 
-1725.32 -2093.72 4721.44 
-1723.91 -2093.61 4721.35 
-1725.6 -2094.32 4722.15 
-1722.25 -2092.26 4721.21 
-1722.13 -2092.78 4721.52 
-1722.93 -2093.45 4721.67 
-1726.34 -2094.88 4722.87 
-1723.66 -2082.18 4719.17 
-1721.31 -2087.31 4720.93 
-1721.54 -2083.18 4721.75 
-1720.79 -2084.7 4722.79 
-1720.06 -2064.74 4728.38 
-1719.51 -2063.48 4728.09 
-1719.03 -2062.81 4728.77 
-1720.44 -2066.35 4729.39 
-1718.53 -2059.93 4726.49 
-1720.48 -2072.38 4727.6 
-1720.83 -2069.92 4729.2 
-1720.52 -2075.71 4726.49 
-1720.57 -2079.29 4725.22 
-1720.63 -2082.9 4723.92 
-1718.64 -2059.29 4726.14 
-1718.36 -2058.69 4727.23 
-1719.58 -2064.31 4729.68 
-1761.82 -2083.37 4763.22 
-1772.37 -2080.98 4770.53 
-1721.1 -2074.14 4728.37 
-1720.58 -2077.66 4726.52 
-1721.44 -2080.83 4726.9 
-1734.4 -2089.1 4744.3 
-1748.31 -2079.92 4756.65 
-1742.97 -2086.19 4750.79 
-1756.47 -2076.56 4762.95 
-1733.64 -2096.65 4739.63 
-1732.2 -2094.51 4737.47 
-1728.88 -2088.31 4734.63 
-1729.97 -2092.03 4734.98 
-1725.89 -2086.17 4731.26 
-1722.79 -2084.71 4727.58 
-1725.7 -2095.21 4723.38 
-1736.2 -2099.79 4740.56 
-1732.97 -2099.52 4736.68 
-1730.95 -2098.93 4733.53 
-1727.48 -2096.67 4728.16 
-1728.25 -2097.25 4730.09 
-1724.9 -2095.05 4724.79 
-1724.36 -2094.57 4723.13 
-1739.5 -2093.47 4745.6 
-1748.21 -2091.85 4751.48 
-1752.95 -2084.87 4757.3 
-1720.79 -2088.92 4721.52 
-1720.65 -2089.5 4721.91 
-1721.2 -2091.46 4721.22 
-1724.14 -2094.1 4722.01 
-1724.93 -2094.65 4722.66 
-1721.36 -2092.07 4721.46 
-1721.11 -2092.51 4721.78 
-1722.07 -2093.24 4722.04 
-1723.36 -2093.93 4722.48 
-1720.68 -2086.4 4722.7 
-1720.48 -2081.49 4724.9 
-1720.55 -2085.49 4723.48 
-1720.53 -2084.09 4724.58 
-1731.01 -2096.47 4735.06 
-1726.86 -2090.11 4731.41 
-1728.06 -2093.93 4731.89 
-1723.96 -2088.5 4728.02 
-1721.13 -2087.66 4724.5 
-1728.96 -2097.33 4731.97 
-1725.45 -2095.52 4726.68 
-1726.23 -2095.74 4728.76 
-1722.89 -2093.91 4723.33 
-1720.6 -2091.13 4721.82 
-1720.48 -2087.82 4723.04 
-1720.46 -2090.87 4722.46 
-1721.25 -2092.99 4722.56 
-1725.11 -2092.5 4728.39 
-1722.35 -2091.52 4725.01 
-1723.57 -2094.37 4725.43 
