-1717.1 -1698.52 2798.81
-1716.3 -1699.14 2798.39
-1715.31 -1699.94 2797.92
-1715.23 -1700.19 2796.79
-1714.65 -1698.99 2804.07
-1715.31 -1698.56 2805.14
-1713.89 -1699.74 2804.16
-1714.19 -1699.24 2805.23
-1714.87 -1700.48 2796.54
-1713.57 -1700.16 2803.56
-1714.48 -1698.82 2807.26
-1715.06 -1698.52 2808.28
-1715.54 -1698.36 2809.52
-1715.14 -1700.7 2794.59
-1714.9 -1700.99 2794.21
-1714.72 -1701.3 2793.51
-1713.68 -1699.4 2807.69
-1713.32 -1699.74 2807.02
-1714.01 -1699.13 2809.04
-1713.18 -1700.78 2801.4
-1712.78 -1700.48 2806.2
-1714.41 -1698.98 2810.75
-1714.88 -1699.05 2812.45
-1713.01 -1701.36 2800.36
-1714.4 -1701.73 2793.2
-1712.95 -1701.89 2799.05
-1712.52 -1700.49 2813.44
-1712.96 -1700.49 2814.45
-1712.08 -1700.67 2813.2
-1713.03 -1700.82 2816.38
-1712.67 -1700.81 2803.93
-1711.53 -1701.18 2814.06
-1711.51 -1701.1 2813.11
-1711.52 -1700.97 2812.11
-1712.33 -1700.81 2807.13
-1712.8 -1701.17 2818.17
-1712.83 -1701.32 2819.21
-1713.02 -1701.52 2820.47
-1711.92 -1704.29 2797.92
-1712.49 -1704.37 2795.03
-1714.27 -1702.18 2792.48
-1712.79 -1702.45 2797.92
-1709.57 -1703.65 2821.39
-1709.63 -1703.56 2822.03
-1709.43 -1703.84 2820.48
-1709.04 -1703.97 2824.56
-1710.8 -1703.03 2817.37
-1711.04 -1701.46 2813.22
-1711.69 -1701.18 2810.19
-1708.96 -1704.2 2826.55
-1709.96 -1704.19 2827.56
-1709.29 -1704.36 2827.96
-1710.42 -1704.15 2829.27
-1712.55 -1703.57 2795.7
-1712.74 -1702.99 2796.34
-1711.95 -1703.66 2798.6
-1712.13 -1701.5 2804.91
-1712.2 -1702.66 2799.33
-1707.9 -1705.09 2826.75
-1707.74 -1705.15 2825.77
-1707.71 -1705.3 2824.62
-1707.96 -1705.1 2828.16
-1708.07 -1705.59 2831.88
-1708.76 -1704.21 2820.18
-1707.7 -1705.53 2823.48
-1710.38 -1703.4 2817.03
-1708.7 -1704.18 2819.66
-1710.26 -1702.74 2815.55
-1708.91 -1705.78 2836.24
-1709.46 -1705.54 2836.6
-1710.4 -1705.77 2839.95
-1712.04 -1703.08 2798.88
-1711.39 -1702.71 2807.04
-1711.95 -1701.93 2804.45
-1711.82 -1702.45 2802.56
-1706.84 -1706.3 2830.4
-1707.24 -1706.31 2832.77
-1706.95 -1706.08 2827.74
-1707.07 -1705.65 2826.02
-1707.98 -1706.31 2835.75
-1708.51 -1706.91 2840.79
-1707.04 -1705.81 2825.28
-1710.33 -1704 2817.1
-1707.3 -1705.74 2822.78
-1710.42 -1703.01 2815.14
-1711.55 -1701.83 2809.47
-1709.62 -1706.88 2843.28
-1709.34 -1707.62 2845.88
-1711.12 -1703.14 2812.42
-1711.51 -1702.18 2807.94
-1711.12 -1702.72 2813.08
-1706.73 -1706.94 2835.5
-1707.31 -1707.08 2838.75
-1707.55 -1707.68 2842.02
-1706.12 -1706.86 2832.07
-1706.29 -1706.51 2828.23
-1707.91 -1708.18 2843.8
-1707.08 -1706.27 2824.4
-1706.25 -1706.04 2826.31
-1710.5 -1703.55 2814.96
-1710.35 -1704.81 2815.51
-1706.45 -1708.36 2841.74
-1706.79 -1708.49 2843.84
-1707.44 -1708.97 2846.86
-1706.19 -1707.55 2835.87
-1705.78 -1707.54 2831.8
-1706.08 -1706.21 2825.66
-1705.72 -1706.84 2828.56
-1710.26 -1704.46 2816.8
-1708.24 -1704.71 2820.02
-1707.13 -1706.33 2823.35
-1706.65 -1706.73 2824.31
-1709.47 -1706.57 2816.26
-1709.03 -1706.66 2816.65
-1708.54 -1706.21 2817.44
-1709.85 -1705.24 2816.74
-1709.44 -1706 2816.58
-1705.97 -1709.05 2843.23
-1705.8 -1710.26 2848.9
-1706.28 -1709.86 2848.94
-1706.71 -1709.47 2849.8
-1706.93 -1709.28 2850.87
-1706 -1708.23 2837.87
-1705.87 -1708.41 2834.93
-1705.63 -1706.62 2826.28
-1705.53 -1707.28 2829.11
-1708.09 -1705.16 2819.71
-1706.67 -1706.6 2823.11
-1706.19 -1706.95 2824.49
-1707.38 -1706.88 2819.38
-1707.87 -1705.87 2819.29
-1708.61 -1705.7 2817.65
-1707.55 -1706.31 2819.57
-1709.15 -1705.42 2817.19
-1705.62 -1709.68 2844.87
-1705.36 -1710.74 2849.85
-1705.65 -1710.46 2851.44
-1705.31 -1711.03 2851.79
-1706.06 -1710.03 2851.56
-1705.51 -1709.41 2841.91
-1705.72 -1708.9 2835
-1705.46 -1707.35 2827.36
-1705.62 -1708.69 2831.31
-1706.21 -1707.39 2823.86
-1705.51 -1707.32 2825.84
-1706.1 -1711.58 2827.18
-1705.35 -1709.82 2827.55
-1708.64 -1707.64 2816.97
-1705.59 -1708.2 2822.38
-1705.41 -1708.84 2822.15
-1706.18 -1707.35 2821.9
-1705.82 -1707.72 2822.43
-1706.11 -1707.11 2822.49
-1705.07 -1711.14 2849.71
-1705.36 -1709.61 2839.95
-1705.06 -1711.05 2848.22
-1705.49 -1709.64 2836.89
-1705.49 -1708.94 2829.69
-1705.57 -1709.75 2833.23
-1705.8 -1707.7 2823.98
-1705.36 -1707.8 2826.23
-1705.52 -1711.17 2829.95
-1704.84 -1709.34 2824.17
-1704.91 -1709.1 2824.92
-1705.06 -1709.34 2826.06
-1704.83 -1709.55 2823.61
-1707.01 -1707.66 2819.39
-1705.68 -1708.38 2821.82
-1704.85 -1709.73 2823.13
-1705.2 -1708.67 2822.86
-1704.64 -1710.79 2823.16
-1705.52 -1708.03 2822.87
-1704.99 -1708.87 2823.28
-1704.92 -1709.75 2825.21
-1705.43 -1708.22 2823.36
-1705.28 -1711.98 2853.15
-1705.02 -1710.89 2846.01
-1705.4 -1710.42 2837.27
-1705.09 -1710.86 2842.97
-1705.61 -1710.36 2831.29
-1705.3 -1708.71 2827.63
-1704.8 -1711.47 2834.02
-1705.01 -1708.79 2823.9
-1705.23 -1708.14 2825.08
-1706.73 -1708.12 2819.82
-1704.88 -1710.45 2822.41
-1705.71 -1709.93 2821.88
-1704.87 -1710.37 2824.96
-1704.64 -1711.18 2823.95
-1704.98 -1711.65 2845.54
-1705.1 -1711.44 2839.14
-1705.53 -1711.28 2832.2
-1705.34 -1710.31 2834.44
-1704.84 -1711.49 2836.79
-1706.59 -1708.39 2819.17
-1706.97 -1708.81 2821.87
-1704.58 -1711.65 2823.77
-1712.28 -1701.02 2788.09
-1711.92 -1701.77 2788.21
-1713 -1700.53 2788
-1712.5 -1700.68 2788.6
-1711.89 -1701.4 2788.78
-1713.34 -1700.3 2788.4
-1711.6 -1702.2 2789.72
-1712.83 -1700.37 2789
-1711.77 -1701.45 2789.27
-1712.31 -1700.72 2789.13
-1713.33 -1700.09 2789.16
-1711.68 -1701.42 2789.8
-1712.71 -1700.14 2789.48
-1712.49 -1700 2789.92
-1711.95 -1700.94 2789.68
-1712.2 -1700.47 2789.76
-1712.08 -1701.61 2790.21
-1712.02 -1701.05 2790.47
-1712.1 -1700.28 2790.27
-1713.68 -1699.71 2789.6
-1712.83 -1699.68 2790.19
-1712.14 -1700.53 2790.89
-1712.23 -1699.81 2790.66
-1713.68 -1699.42 2790.08
-1712.63 -1699.48 2790.68
-1712.15 -1701.93 2791.11
-1712.16 -1699.66 2791.25
-1712.19 -1700.66 2791.4
-1714.01 -1699.17 2790.39
-1713.26 -1699.38 2790.44
-1712.2 -1701.14 2791.25
-1713.07 -1699.13 2791
-1712.2 -1699.92 2791.72
-1712.49 -1699.2 2791.25
-1713.74 -1699.06 2790.82
-1711.94 -1701.96 2791.77
-1712.08 -1700.08 2792.26
-1712.17 -1699.5 2792.53
-1712.26 -1698.98 2792.38
-1711.81 -1701.97 2792.3
-1712.11 -1699.88 2792.89
-1712.28 -1701.41 2790.79
-1712.45 -1698.9 2791.88
-1711.84 -1701.25 2793.29
-1712.15 -1699.55 2793.37
-1714.59 -1698.82 2791.18
-1713.58 -1699.04 2791.32
-1711.57 -1701.97 2793.43
-1714.23 -1699.12 2790.92
-1713.09 -1698.98 2791.53
-1712.22 -1699.12 2792.86
-1711.51 -1701.81 2794.1
-1711.61 -1702.2 2792.92
-1711.91 -1700.54 2794.66
-1711.65 -1700.47 2795.35
-1711.27 -1701.62 2795.38
-1711.91 -1700.11 2794.92
-1714.05 -1699.11 2791.55
-1711.1 -1702.05 2795.71
-1711.73 -1699.98 2795.43
-1712.09 -1699.9 2794.09
-1711.2 -1700.19 2796.73
-1711.4 -1702.29 2793.8
-1711.45 -1700.12 2796.05
-1713.39 -1699.03 2792.03
-1712.89 -1698.97 2792.24
-1711.02 -1702.52 2795.48
-1712.2 -1699.04 2793.44
-1711.6 -1699.67 2795.85
-1710.86 -1702.41 2796.56
-1711.37 -1699.81 2797.79
-1713.47 -1700.26 2791.6
-1712.77 -1699.01 2792.81
-1713.89 -1699.1 2792.13
-1711.62 -1699.53 2798.61
-1710.63 -1702.85 2797.28
-1710.46 -1703.33 2797.68
-1711.23 -1702.43 2792.65
-1711.88 -1699.34 2795.26
-1711.78 -1699.23 2796.03
-1710.86 -1702.96 2795.74
-1711.31 -1700.55 2798.33
-1711.52 -1699.74 2799.29
-1711.24 -1702.51 2794.3
-1712.63 -1701.02 2791.87
-1713.28 -1699.06 2792.75
-1712.11 -1699.38 2794.04
-1712.01 -1699.64 2794.71
-1711.24 -1700 2797.27
-1713.43 -1700.08 2792.25
-1711.55 -1700.9 2794.97
-1711.26 -1702.1 2794.78
-1711.81 -1701.43 2792.69
-1711.36 -1701.75 2792.73
-1712.81 -1700.59 2792.44
-1712.67 -1699.07 2793.62
-1713.14 -1699.09 2793.33
-1712.46 -1699.1 2794.31
-1712.07 -1700.99 2792.77
-1713.93 -1699.45 2792.54
-1713.66 -1699.27 2793.03
-1711.55 -1701.53 2794.62
-1712.37 -1700.51 2792.99
-1713.25 -1699.87 2792.81
-1711.4 -1701.44 2793.54
-1712.07 -1700.24 2793.62
-1712.63 -1699.83 2793.47
-1711.83 -1701.13 2794.14
