-2115.88 -1715.15 492.835 
-2113.78 -1712.66 493.315 
-2113.8 -1712.38 493.126 
-2113.64 -1712.93 493.385 
-2113.5 -1713.15 493.437 
-2113.38 -1713.39 493.508 
-2115.23 -1715.8 491.363 
-2115.38 -1716.06 491.971 
-2115.25 -1715.95 491.418 
-2115.45 -1716.48 492.677 
-2115.05 -1717.39 496.355 
-2114.37 -1718.58 495.603 
-2113.91 -1719.73 495.294 
-2113.44 -1720.39 495.142 
-2115.32 -1717.07 496.775 
-2115.53 -1716.9 497.079 
-2115.68 -1716.6 497.248 
-2115.75 -1716.37 497.323 
-2113.52 -1720.89 495.341 
-2113.65 -1721.52 495.642 
-2113.72 -1721.13 495.574 
-2114.49 -1722.66 496.483 
-2114.57 -1722.45 496.381 
-2114.48 -1722.84 496.689 
-2114.53 -1723.05 496.896 
-2113.01 -1724.25 496.59 
-2114.67 -1723.26 497.137 
-2112.42 -1724.83 496.715 
-2114.76 -1722.03 496.332 
-2114.95 -1721.77 496.104 
-2114.65 -1722.19 496.393 
-2103.44 -1725.63 489.482 
-2103.81 -1726.15 490.059 
-2104.24 -1726.42 490.371 
-2104.01 -1727.68 490.901 
-2101 -1724.96 488.81 
-2101.24 -1725.74 489.723 
-2118.43 -1719.48 510.514 
-2118.88 -1718.69 511.33 
-2118.64 -1719.01 510.856 
-2118.43 -1719.27 510.524 
-2118.25 -1721.66 506.429 
-2118.06 -1719.35 509.03 
-2118.04 -1719.15 509.107 
-2118.07 -1719.14 509.157 
-2117.92 -1719.91 507.994 
-2117.79 -1720.33 506.811 
-2117.56 -1722.68 504.649 
-2117.37 -1722.9 504.148 
-2117.71 -1721.96 504.239 
-2117.54 -1722.37 504.073 
-2116.5 -1725.53 505.913 
-2116.99 -1724.03 504.526 
-2117.07 -1723.62 503.605 
-2117.13 -1723.33 503.537 
-2117.2 -1723.01 503.467 
-2115.75 -1727.58 507.13 
-2117.76 -1721.2 505.543 
-2117.78 -1721.58 504.646 
-2115.09 -1728.72 507.218 
-2110.69 -1726.71 498.758 
-2110.83 -1727.22 500.547 
-2110.94 -1727.57 501.27 
-2111.12 -1728.11 502.116 
-2111.43 -1725.74 497.718 
-2111.12 -1726.33 498.934 
-2111.91 -1725.41 497.419 
-2112.97 -1729.43 505.295 
-2114.51 -1728.95 506.677 
-2111.55 -1728.71 503.106 
-2112.34 -1725.11 497.147 
-2119.84 -1717.33 513.636 
-2120 -1716.94 513.786 
-2120.22 -1716.58 513.723 
-2119.63 -1717.9 513.504 
-2119.5 -1718.31 513.166 
-2119.52 -1718.21 512.522 
-2119.09 -1718.37 511.774 
-2119.25 -1718.2 511.991 
-2119.38 -1718.11 512.118 
-2120.37 -1716.19 513.852 
-2120.45 -1715.72 514.144 
-2121.49 -1714.04 513.265 
-2121.33 -1712.52 514.46 
-2121.35 -1712.14 514.872 
-2122.35 -1711.24 513.204 
-2122.3 -1711.42 513.128 
-2122.14 -1711.58 513.408 
-2122.34 -1711.12 513.379 
-2122.38 -1710.7 513.741 
-2122.46 -1710.75 513.443 
-2122.35 -1710.97 513.515 
-2100.63 -1729.11 491.457 
-2102.25 -1728.52 491.221 
-2100.53 -1727.95 491.036 
-2126.73 -1710.52 516.366 
-2126.71 -1710.43 516.615 
-2125.78 -1709.53 516.567 
-2126.46 -1710.34 516.628 
-2125.23 -1709.19 516.511 
-2126.75 -1710.74 515.333 
-2126.77 -1710.8 515.066 
-2126.71 -1711 515.283 
-2126.49 -1711.68 514.993 
-2126.67 -1710.9 515.742 
-2126.65 -1710.83 515.976 
-2124.39 -1708.94 516.589 
-2123.19 -1709.28 516.332 
-2124.35 -1709 516.443 
-2126.3 -1709.31 515.033 
-2126.62 -1709.49 515 
-2126.76 -1710.95 514.69 
-2126.72 -1710.72 514.333 
-2126.69 -1710.17 514.304 
-2127.87 -1705.49 513.726 
-2127.85 -1707.17 514.704 
-2127.66 -1707.69 514.853 
-2127.24 -1708.01 515.053 
-2126.5 -1708.75 514.78 
-2127.19 -1708.02 514.777 
-2122.7 -1710.32 513.672 
-2122.55 -1710.49 513.647 
-2122.46 -1710.58 513.66 
-2122.74 -1710.21 513.862 
-2122.76 -1709.62 515.956 
-2122.64 -1709.97 514.977 
-2122.85 -1710.05 514.114 
-2118.79 -1716.72 501.756 
-2125.22 -1705.7 508.747 
-2124.25 -1707.6 509.033 
-2123.86 -1708.5 508.863 
-2126.38 -1707.21 512.293 
-2126.32 -1708.14 513.267 
-2126.17 -1708.63 513.181 
-2126.42 -1708.6 513.887 
-2126.15 -1709.12 513.383 
-2126.05 -1709.08 513.146 
-2126.28 -1709.04 513.634 
-2126.62 -1708.52 514.587 
-2126.58 -1708.64 514.227 
-2126.43 -1708.93 513.913 
-2118.94 -1716.27 502.467 
-2123.45 -1709.15 508.33 
-2123.55 -1709.37 508.891 
-2123.24 -1710.11 508.681 
-2123.45 -1709.28 508.934 
-2122.7 -1711.69 507.631 
-2122.35 -1712.35 507.132 
-2122.87 -1710.94 507.937 
-2122.08 -1713.97 506.398 
-2121.81 -1714.05 505.851 
-2123.08 -1710.75 508.64 
-2122.36 -1716.1 507.047 
-2122.34 -1715.68 506.881 
-2119.56 -1716.45 503.705 
-2119.87 -1716.14 504.044 
-2121.39 -1715.68 505.711 
-2122.33 -1716.28 507.023 
-2122.3 -1716.34 506.931 
-2120.03 -1716.09 504.47 
-2121.37 -1715.99 505.76 
-2119.17 -1716.73 503.281 
-2119.08 -1716.6 503.023 
-2118.92 -1716.56 502.466 
-2118.88 -1716.97 502.621 
-2122.2 -1716.02 506.759 
-2126.92 -1708.19 514.683 
-2127.81 -1706.95 514.346 
-2118.77 -1718.35 498.749 
-2118.87 -1717.97 499.865 
-2118.87 -1718.09 500.131 
-2118.84 -1718.48 498.885 
-2118.13 -1718.4 497.878 
-2118.89 -1715.22 498.697 
-2118.63 -1716.82 498.36 
-2117.98 -1718.28 497.696 
-2118.07 -1718.71 497.829 
-2118.31 -1718.7 498.091 
-2117.97 -1718.96 497.73 
-2118.09 -1718.94 497.859 
-2118.3 -1718.87 498.087 
-2118.48 -1718.91 498.281 
-2117.1 -1716.39 499.326 
-2117.9 -1716.24 499.576 
-2118.09 -1715.91 499.538 
-2118.76 -1715.21 498.578 
-2116.48 -1716.34 498.524 
-2116.11 -1716.48 497.953 
-2114.82 -1716.06 490.911 
-2114.97 -1716.06 490.972 
-2115.09 -1716 491.166 
-2113.53 -1714.65 491.336 
-2113.12 -1712.61 492.94 
-2113.19 -1713 493.238 
-2113.25 -1712.27 492.516 
-2113.58 -1713.39 492.084 
-2113.68 -1713.94 491.932 
-2113.4 -1712.59 492.255 
-2113.67 -1714.18 491.782 
-2113.72 -1714.58 491.627 
-2113.75 -1714.97 491.465 
-2112.35 -1714.67 490.709 
-2113.05 -1715.02 490.993 
-2112.83 -1715.61 490.713 
-2113.53 -1715.96 491.001 
-2114.06 -1716.23 491.195 
-2114.6 -1716.26 491.043 
-2114.31 -1716.44 491.271 
-2116.02 -1714.79 493.177 
-2115.59 -1714.37 492.834 
-2115.96 -1714.87 492.803 
-2116.03 -1714.84 493.163 
-2115.01 -1713.94 492.814 
-2114.1 -1712.94 492.918 
-2115.53 -1716.51 492.927 
-2115.62 -1716.07 492.833 
-2115.69 -1715.98 492.957 
-2115.78 -1715.59 492.912 
-2115.89 -1715.35 493.103 
-2113.65 -1712.35 492.976 
-2113.5 -1712.57 493.143 
-2113.34 -1712.81 493.205 
-2115.12 -1716.14 491.235 
-2115.35 -1716.42 492.102 
-2115.28 -1716.09 491.51 
-2115.44 -1716.85 492.926 
-2114.8 -1718.18 496 
-2115.32 -1717.6 496.639 
-2115.43 -1717.38 496.851 
-2114.44 -1719.34 495.719 
-2114.2 -1720.1 495.594 
-2113.83 -1720.34 495.393 
-2113.9 -1720.67 495.557 
-2115.63 -1717.26 497.169 
-2115.81 -1717.05 497.463 
-2115.95 -1716.77 497.707 
-2113.97 -1721.4 495.858 
-2114.99 -1721.7 496.12 
-2114.1 -1720.83 495.78 
-2114.02 -1721.18 495.838 
-2115.74 -1722.21 496.376 
-2115.86 -1722.16 496.718 
-2115.7 -1722.08 496.16 
-2115.91 -1722.2 497.041 
-2115.98 -1722.21 497.375 
-2114.72 -1723.53 497.461 
-2112.86 -1724.73 497.132 
-2115.93 -1722.44 497.723 
-2115.7 -1721.91 496.028 
-2116.16 -1721.11 495.822 
-2116.22 -1720.81 495.672 
-2101.45 -1726.19 490.127 
-2102.15 -1727.36 490.82 
-2101.67 -1726.68 490.515 
-2118.01 -1718.99 509.173 
-2118.86 -1718.46 511.273 
-2118.65 -1718.76 510.843 
-2118.38 -1718.88 510.453 
-2118.33 -1719.06 510.394 
-2118 -1718.83 509.159 
-2117.83 -1719.44 507.434 
-2117.82 -1719.85 507.311 
-2117.84 -1719.01 507.548 
-2117.8 -1719.91 506.251 
-2117.81 -1720.44 505.842 
-2117.36 -1722.61 503.382 
-2117.73 -1721.72 503.746 
-2117.54 -1722.17 503.433 
-2116.18 -1725.72 505.221 
-2116.46 -1724.5 504.407 
-2116.66 -1723.92 503.505 
-2117.07 -1722.92 501.478 
-2117.31 -1722.69 501.649 
-2117.53 -1722.56 501.703 
-2117.79 -1722.18 501.912 
-2115.29 -1727.55 506.188 
-2117.88 -1720.95 504.81 
-2111.14 -1726.99 500.805 
-2111.24 -1727.51 501.662 
-2111.43 -1728.02 502.459 
-2111.43 -1726.01 499.068 
-2111.8 -1725.78 499.195 
-2112.05 -1725.38 497.935 
-2111.49 -1726.52 500.596 
-2112.42 -1725.13 497.601 
-2113.13 -1728.71 504.825 
-2111.84 -1728.27 503.135 
-2114.64 -1728.02 505.797 
-2119.85 -1717.38 513.414 
-2120.09 -1716.84 513.564 
-2120.1 -1716.97 513.332 
-2121.2 -1716.84 512.158 
-2121.37 -1716.15 512.36 
-2119.65 -1717.95 513.286 
-2119.58 -1718.14 512.806 
-2119.53 -1718.05 512.298 
-2119.06 -1718.17 511.669 
-2119.21 -1718.04 511.834 
-2119.36 -1717.94 511.985 
-2121.44 -1715.3 512.66 
-2122.66 -1714.55 512.551 
-2122.23 -1713 512.554 
-2122.15 -1711.82 513.214 
-2122.51 -1711.02 513.004 
-2122.61 -1711.07 512.652 
-2122.47 -1711.26 512.833 
-2122.47 -1711.46 512.667 
-2122.32 -1711.62 512.937 
-2122.49 -1710.88 513.202 
-2122.6 -1710.57 513.375 
-2122.65 -1710.66 513.085 
-2126.65 -1710.71 516.29 
-2126.6 -1710.77 516.382 
-2125.86 -1709.86 516.542 
-2126.34 -1710.48 516.589 
-2126.55 -1710.83 516.463 
-2125.42 -1709.58 516.464 
-2126.23 -1711.63 513.772 
-2126.55 -1711.64 514.7 
-2126.4 -1711.22 513.927 
-2126.48 -1711.61 515.222 
-2126.13 -1712.59 514.971 
-2126.27 -1712.48 514.496 
-2126.44 -1712.09 514.314 
-2126.47 -1711.52 515.452 
-2126.44 -1711.46 515.702 
-2123.4 -1709.24 516.073 
-2124.38 -1709.03 516.282 
-2125.27 -1709.67 516.414 
-2126.57 -1709.04 514.807 
-2126.63 -1709.58 514.221 
-2126.38 -1710.86 513.768 
-2126.47 -1710.32 513.772 
-2126.43 -1709.81 513.753 
-2122.98 -1710.18 513.398 
-2122.81 -1710.37 513.357 
-2122.98 -1710.04 513.691 
-2123.1 -1709.46 515.699 
-2122.82 -1709.79 515.129 
-2123.05 -1709.84 514.267 
-2123.12 -1709.86 513.848 
-2118.8 -1717.05 501.802 
-2125.03 -1707.31 510.523 
-2124.36 -1708.07 509.846 
-2124.22 -1708.39 509.562 
-2123.94 -1709.08 509.487 
-2126.16 -1707.55 512.388 
-2126.14 -1708.39 513.01 
-2125.98 -1708.79 512.921 
-2125.93 -1709.44 513.028 
-2126.15 -1709.48 513.342 
-2125.86 -1709.15 512.86 
-2126.3 -1709.38 513.605 
-2126.59 -1709.06 514.19 
-2126.42 -1709.37 513.818 
-2123.77 -1709.43 509.602 
-2123.6 -1709.69 509.512 
-2123.18 -1710.69 509.206 
-2123.4 -1710.2 509.548 
-2122.86 -1711.51 508.207 
-2122.7 -1713.55 507.968 
-2122.54 -1713.81 507.536 
-2122.34 -1713.89 506.756 
-2122.99 -1711.33 508.65 
-2122.46 -1715.28 507.134 
-2123.07 -1711.32 509.143 
-2122.49 -1716.26 507.414 
-2122.52 -1716.47 507.446 
-2122.47 -1715.9 507.277 
-2119.17 -1716.9 503.557 
-2119.65 -1716.45 504.282 
-2119.34 -1716.71 503.939 
-2122.5 -1716.52 507.36 
-2122.39 -1716.53 507.081 
-2122.49 -1716.59 507.312 
-2121.32 -1716.17 505.807 
-2120.03 -1716.18 504.804 
-2119.02 -1717.23 503.395 
-2118.94 -1717.28 503.02 
-2118.77 -1717.2 502.161 
-2118.79 -1717.47 502.481 
-2118.87 -1717.46 502.786 
-2118.74 -1718.69 498.607 
-2118.84 -1718.3 500.425 
-2118.86 -1718.78 498.888 
-2118.91 -1718.89 499.033 
-2118.78 -1718.85 498.69 
-2117.89 -1718.77 497.631 
-2117.81 -1718.62 497.53 
-2118.5 -1716.8 498.239 
-2117.79 -1718.21 497.476 
-2117.66 -1718.53 497.343 
-2117.83 -1719 497.581 
-2117.64 -1719.32 497.382 
-2117.91 -1719.2 497.697 
-2118.13 -1719.1 497.984 
-2118.53 -1719.06 498.314 
-2118.22 -1719.4 497.91 
-2116.78 -1716.47 498.928 
-2117.66 -1716.84 499.53 
-2118.15 -1715.71 498.965 
-2118.63 -1715.18 498.461 
-2118.34 -1716.79 498.107 
-2116.3 -1716.58 498.259 
-2114.77 -1716.33 491.034 
-2114.98 -1716.24 491.019 
-2113.69 -1715.35 491.263 
-2113.39 -1712.28 492.646 
-2113.32 -1712.49 492.956 
-2113.52 -1712.62 492.434 
-2113.68 -1713.32 492.284 
-2113.85 -1713.93 492.218 
-2113.8 -1714.01 492.085 
-2113.9 -1714.49 491.986 
-2113.82 -1714.46 491.865 
-2113.89 -1714.87 491.738 
-2113.95 -1715.3 491.591 
-2113.98 -1715.69 491.429 
-2114.47 -1716.56 491.309 
-2114.33 -1716.09 491.529 
-2116.01 -1714.81 493.628 
-2116.03 -1714.81 493.608 
-2116.02 -1714.91 493.489 
-2115.79 -1714.88 492.677 
-2115.86 -1715.15 492.663 
-2115.95 -1715.09 493.049 
-2116.01 -1715.01 493.369 
-2114.75 -1713.97 492.696 
-2115.52 -1714.75 492.63 
-2113.87 -1712.93 492.776 
-2115.51 -1716.92 493.184 
-2115.6 -1716.51 493.107 
-2115.72 -1716.13 493.226 
-2115.81 -1715.72 493.203 
-2113.56 -1712.32 492.791 
-2115.01 -1716.39 491.091 
-2115.15 -1716.3 491.3 
-2115.34 -1716.76 492.276 
-2115.24 -1716.34 491.489 
-2115.5 -1717.1 493.563 
-2115.07 -1718.36 496.248 
-2115.62 -1717.65 497.065 
-2115.49 -1717.84 496.823 
-2114.82 -1719.39 496.08 
-2114.57 -1719.88 495.904 
-2114.33 -1720.44 495.834 
-2115.82 -1717.56 497.32 
-2115.94 -1717.36 497.499 
-2116.16 -1717.2 497.805 
-2116.21 -1716.9 498.022 
-2115.06 -1721.6 495.993 
-2116.06 -1721.04 495.524 
-2114.59 -1720.65 496.124 
-2114.31 -1721.01 496.02 
-2115.13 -1721.56 495.908 
-2116.11 -1721.82 496.482 
-2116.15 -1721.66 496.209 
-2116.16 -1721.66 496.893 
-2116.21 -1721.27 496.019 
-2116.22 -1721.65 497.236 
-2116.27 -1721.9 497.661 
-2116.37 -1721.41 497.562 
-2114.56 -1723.81 497.877 
-2116.02 -1722.67 498.153 
-2112.89 -1724.82 497.643 
-2116.34 -1722.1 497.994 
-2116.61 -1720.51 495.933 
-2116.59 -1720.24 495.766 
-2116.36 -1719.18 495.586 
-2117.88 -1718.62 507.546 
-2118.82 -1718.28 511.154 
-2118.59 -1718.53 510.73 
-2118.32 -1718.68 510.38 
-2118.01 -1718.5 509.19 
-2117.99 -1718.67 509.199 
-2117.95 -1718.31 507.735 
-2117.8 -1718.96 507.169 
-2117.8 -1718.99 506.918 
-2117.8 -1719.35 506.643 
-2117.78 -1719.65 506.884 
-2118.34 -1718.29 505.502 
-2118.24 -1719.01 505.119 
-2118.19 -1719.39 504.894 
-2117.92 -1721.72 502.088 
-2118.11 -1720.43 503.218 
-2118.1 -1721.12 502.312 
-2115.63 -1726.33 505.067 
-2116 -1724.88 504.07 
-2115.73 -1725.52 504.372 
-2116.22 -1724.21 503.401 
-2116.79 -1723.15 501.248 
-2117.72 -1721.91 500.129 
-2117.4 -1722.18 499.712 
-2118.02 -1721.65 500.426 
-2118.36 -1721.53 500.653 
-2118.53 -1721.07 500.755 
-2111.43 -1727.04 501.321 
-2111.58 -1727.53 502.143 
-2112.29 -1725.52 499.36 
-2111.88 -1726.21 500.665 
-2111.66 -1726.38 500.647 
-2112.62 -1725.08 498.042 
-2111.71 -1726.65 501.167 
-2113.37 -1727.77 504.214 
-2112.03 -1727.77 502.89 
-2114.87 -1727.07 504.984 
-2119.88 -1717.4 513.199 
-2120.23 -1717.11 512.904 
-2121.1 -1717.22 511.839 
-2121.13 -1717.44 511.628 
-2122.17 -1716.62 511.706 
-2121.71 -1717.11 511.278 
-2121.56 -1717.29 511.185 
-2122.41 -1715.76 512.025 
-2119.69 -1717.91 513.074 
-2119.67 -1717.97 512.593 
-2119.55 -1717.92 512.24 
-2119.03 -1718.01 511.54 
-2119.17 -1717.89 511.686 
-2119.46 -1717.8 512.036 
-2119.28 -1717.78 511.759 
-2123.31 -1714.7 512.682 
-2122.55 -1712.55 512.493 
-2122.4 -1711.79 512.645 
-2122.65 -1710.79 512.863 
-2122.69 -1710.88 512.653 
-2122.84 -1710.84 512.302 
-2122.79 -1711 512.218 
-2122.64 -1711.22 512.415 
-2122.69 -1711.43 512.175 
-2122.58 -1711.65 512.293 
-2122.85 -1710.44 513.089 
-2122.88 -1710.52 512.851 
-2122.83 -1710.64 512.707 
-2126.44 -1711.35 515.902 
-2126.43 -1711.24 516.135 
-2125.94 -1710.3 516.512 
-2126.38 -1711.15 516.346 
-2126.32 -1711.94 513.739 
-2125.73 -1711.52 512.877 
-2125.96 -1711.91 513.205 
-2125.27 -1711.66 512.419 
-2125.37 -1712.28 512.488 
-2125.81 -1712.29 513.056 
-2125.57 -1711.21 512.681 
-2126.27 -1712.44 513.717 
-2126.16 -1712.84 514.014 
-2126.09 -1712.92 514.453 
-2125.73 -1713.28 514.83 
-2126.09 -1712.52 515.247 
-2125.94 -1712.64 515.388 
-2124.37 -1709.16 515.982 
-2125.57 -1710.03 516.303 
-2126.14 -1710.58 513.281 
-2126.25 -1710.19 513.41 
-2126.3 -1709.8 513.523 
-2123.23 -1709.98 513.265 
-2123.25 -1710.08 513.012 
-2123.11 -1710.25 512.958 
-2123.31 -1709.83 513.439 
-2124.38 -1709.15 515.646 
-2123.1 -1709.57 515.143 
-2123.15 -1709.67 514.567 
-2123.31 -1709.66 514 
-2123.44 -1709.66 513.574 
-2118.81 -1718.43 500.716 
-2125.37 -1707.54 511.328 
-2124.46 -1708.28 510.468 
-2124.83 -1708.02 511.125 
-2124.44 -1708.5 510.21 
-2124.28 -1708.87 510.093 
-2124.06 -1709.24 510.116 
-2125.72 -1707.56 511.955 
-2126 -1708.15 512.696 
-2125.9 -1708.51 512.7 
-2125.77 -1708.85 512.639 
-2125.85 -1709.72 512.929 
-2125.72 -1709.45 512.696 
-2126.11 -1709.82 513.255 
-2125.65 -1709.17 512.553 
-2123.83 -1709.65 510.134 
-2123.63 -1710.04 510.024 
-2123.23 -1710.84 509.758 
-2123.12 -1711.32 509.587 
-2123.52 -1710.54 510.133 
-2122.83 -1713.39 508.383 
-2122.96 -1713.33 508.777 
-2122.6 -1715.67 507.659 
-2122.8 -1715.68 508.249 
-2123.03 -1713.24 509.172 
-2123.02 -1713.19 509.501 
-2122.58 -1716.31 507.688 
-2122.64 -1716.54 507.764 
-2122.62 -1716.67 507.66 
-2118.98 -1717.06 503.733 
-2119.29 -1716.65 504.31 
-2119.68 -1716.34 504.689 
-2119.03 -1716.9 503.975 
-2122.59 -1716.7 507.558 
-2122.4 -1716.62 507.082 
-2122.54 -1716.74 507.414 
-2121.22 -1716.33 505.85 
-2120.03 -1716.34 505.075 
-2119 -1717.2 503.64 
-2119 -1717.4 503.83 
-2119 -1717.61 503.374 
-2118.9 -1717.85 503.058 
-2118.78 -1718.6 501.065 
-2118.76 -1718.66 501.364 
-2118.81 -1717.93 502.739 
-2118.76 -1719.14 498.944 
-2118.69 -1719.1 498.816 
-2118.79 -1719.23 499.096 
-2118.9 -1719.15 499.239 
-2118.55 -1719.19 498.516 
-2117.65 -1719.11 497.389 
-2117.6 -1718.98 497.316 
-2117.54 -1718.84 497.231 
-2117.65 -1718.11 497.312 
-2117.41 -1718.57 497.064 
-2117.39 -1718.81 497.055 
-2117.37 -1719.39 497.081 
-2117.26 -1719.68 496.947 
-2117.51 -1719.61 497.211 
-2117.79 -1719.53 497.496 
-2117.87 -1719.68 497.521 
-2118.28 -1719.52 498.074 
-2117.97 -1719.83 497.578 
-2116.58 -1716.69 498.563 
-2117.35 -1717 499.296 
-2118.04 -1715.93 498.184 
-2118.15 -1716.07 498.016 
-2118.18 -1716.65 497.973 
-2117.5 -1718.01 497.145 
-2114.58 -1716.65 491.31 
-2114.82 -1716.49 491.087 
-2113.66 -1712.72 492.604 
-2113.78 -1713.3 492.459 
-2113.94 -1713.91 492.355 
-2114.03 -1714.5 492.123 
-2114.2 -1714.5 492.224 
-2114.25 -1715.06 491.98 
-2114.06 -1715.06 491.861 
-2114.29 -1715.69 491.692 
-2114.63 -1716.27 491.575 
-2115.88 -1715.36 493.638 
-2116 -1714.82 494.143 
-2116.02 -1714.82 494.108 
-2116.02 -1714.9 493.928 
-2116.01 -1715.02 493.83 
-2115.97 -1715.16 493.462 
-2115.71 -1715.17 492.519 
-2115.77 -1715.41 492.519 
-2115.86 -1715.37 492.933 
-2115.53 -1715.05 492.493 
-2114.68 -1714.16 492.578 
-2113.99 -1713.47 492.604 
-2115.61 -1716.6 493.495 
-2115.66 -1716.42 493.992 
-2115.7 -1716.21 493.457 
-2115.02 -1716.58 491.144 
-2114.87 -1716.63 491.136 
-2115.14 -1716.54 491.314 
-2115.23 -1716.65 491.573 
-2115.36 -1717.39 492.92 
-2115.95 -1715.32 494.833 
-2115.54 -1717.12 493.882 
-2115.9 -1715.61 494.88 
-2115.5 -1717.61 493.6 
-2115.47 -1717.71 493.483 
-2115.51 -1718.16 496.785 
-2115.22 -1718.79 496.422 
-2115.71 -1718.03 497.082 
-2115.88 -1717.89 497.295 
-2115.25 -1719.29 496.509 
-2115.03 -1719.7 496.345 
-2114.74 -1720.17 496.138 
-2116.06 -1717.74 497.515 
-2116.19 -1717.56 497.706 
-2116.6 -1717 498.429 
-2116.4 -1717.49 497.941 
-2116.54 -1717.24 498.221 
-2116.24 -1719.84 495.424 
-2115.88 -1721.34 495.327 
-2115.42 -1721.29 495.604 
-2115.38 -1721.44 495.459 
-2115.02 -1720.4 496.418 
-2116.07 -1720.84 495.265 
-2116.44 -1721.51 496.573 
-2116.53 -1721.2 496.322 
-2116.59 -1720.82 496.127 
-2116.51 -1721.32 496.929 
-2116.51 -1721.15 497.314 
-2116.48 -1721.45 497.949 
-2116.58 -1721 497.839 
-2116.73 -1720.87 497.556 
-2114.27 -1724.11 498.334 
-2115.85 -1723.03 498.531 
-2116.29 -1722.65 498.569 
-2116.45 -1722.33 498.293 
-2116.72 -1721.78 498.3 
-2116.85 -1720.21 496.109 
-2116.72 -1720.14 495.947 
-2116.56 -1719.48 495.855 
-2116.43 -1719.12 495.712 
-2116.24 -1718.5 495.428 
-2116.25 -1718.25 495.656 
-2116.3 -1718.18 495.759 
-2116.24 -1717.96 495.743 
-2118.32 -1717.99 505.671 
-2118.78 -1718.09 511.057 
-2118.5 -1718.28 510.6 
-2118.25 -1718.45 510.29 
-2118.02 -1718.3 509.187 
-2118.25 -1717.58 506.58 
-2118.25 -1717.77 506.248 
-2118.33 -1718.61 505.116 
-2119.06 -1718.05 503.874 
-2118.94 -1717.85 504.293 
-2119.06 -1717.91 504.025 
-2118.92 -1718.4 503.794 
-2118.82 -1718.6 503.489 
-2118.7 -1719.04 502.052 
-2118.46 -1719.4 502.658 
-2118.54 -1720.45 500.864 
-2118.54 -1719.98 501.236 
-2115.1 -1726.14 504.182 
-2115.59 -1725.09 503.515 
-2115.85 -1724.55 503.072 
-2115.21 -1725.59 503.656 
-2116.48 -1723.38 501.059 
-2117.1 -1722.43 499.307 
-2117.72 -1721.68 499.498 
-2118.06 -1721.29 499.779 
-2117.39 -1721.93 499.12 
-2118.33 -1721.06 500.129 
-2118.59 -1720.71 500.425 
-2118.62 -1720.28 500.622 
-2111.75 -1727.09 501.798 
-2112.77 -1725.28 499.572 
-2112.41 -1725.93 500.807 
-2112.08 -1726.37 501.229 
-2112.11 -1726.75 501.814 
-2113.58 -1726.95 503.591 
-2112.15 -1727.24 502.48 
-2119.91 -1717.42 512.972 
-2120.4 -1717.36 512.409 
-2121.13 -1717.74 511.575 
-2121.54 -1717.37 511.023 
-2121.48 -1717.44 510.945 
-2122.71 -1716.22 511.858 
-2122.08 -1716.74 511.477 
-2121.84 -1717.25 510.895 
-2121.74 -1717.35 510.809 
-2119.75 -1717.84 512.806 
-2119.66 -1717.82 512.334 
-2118.98 -1717.86 511.391 
-2119.08 -1717.75 511.46 
-2119.61 -1717.69 512.18 
-2119.45 -1717.66 511.919 
-2119.15 -1717.68 511.422 
-2119.31 -1717.67 511.669 
-2123.43 -1715.67 511.993 
-2122.91 -1716.1 511.832 
-2124.24 -1714.38 513.193 
-2123.62 -1713.24 512.953 
-2122.86 -1712.23 512.125 
-2122.91 -1710.69 512.423 
-2122.98 -1710.83 511.954 
-2123.06 -1710.68 512.092 
-2122.94 -1711 511.742 
-2122.84 -1711.19 511.928 
-2122.82 -1711.44 511.744 
-2122.75 -1711.66 511.807 
-2123.12 -1710.37 512.673 
-2123.07 -1710.51 512.467 
-2126.07 -1712.21 515.683 
-2126.17 -1711.87 515.951 
-2126.23 -1710.77 516.449 
-2126.19 -1711.33 515.754 
-2126.24 -1710.84 515.988 
-2126.11 -1712.18 513.432 
-2125.07 -1711.79 512.119 
-2125.15 -1712.14 512.778 
-2125.31 -1712.05 513.054 
-2125.41 -1711.66 512.917 
-2125.12 -1712.43 512.163 
-2125.49 -1712.72 512.685 
-2125.85 -1712.76 513.145 
-2125.58 -1710.82 512.628 
-2125.49 -1711 512.728 
-2125.94 -1713.05 513.637 
-2125.34 -1713.65 514.269 
-2125.49 -1713.53 514.46 
-2125.55 -1713.54 514.712 
-2125.78 -1713.22 515.142 
-2125.47 -1713.22 514.431 
-2125.59 -1712.86 514.38 
-2125.73 -1712.76 514.772 
-2125.89 -1712.08 514.981 
-2126.03 -1711.7 515.328 
-2125.67 -1709.96 515.966 
-2125.77 -1710.51 512.855 
-2125.95 -1710.17 513.06 
-2123.43 -1709.82 513.158 
-2123.43 -1709.9 512.929 
-2123.36 -1710.05 512.76 
-2123.29 -1710.19 512.626 
-2123.61 -1709.62 513.301 
-2124.47 -1709.11 515.312 
-2123.47 -1709.4 514.751 
-2123.42 -1709.51 514.342 
-2123.99 -1709.22 514.033 
-2123.91 -1709.35 513.742 
-2124.03 -1709.39 513.467 
-2125.5 -1707.89 511.959 
-2124.48 -1708.59 510.851 
-2124.54 -1708.39 511.177 
-2125.31 -1708.31 512.041 
-2124.38 -1708.81 510.567 
-2124.15 -1709.17 510.478 
-2123.91 -1709.56 510.487 
-2125.14 -1708.71 512.095 
-2125.73 -1710.03 512.782 
-2125.65 -1709.78 512.638 
-2125.51 -1709.38 512.37 
-2125.53 -1709.65 512.425 
-2125.07 -1708.87 512.164 
-2123.93 -1709.97 510.46 
-2123.8 -1710.24 510.291 
-2123.29 -1710.92 510.169 
-2123.1 -1711.31 509.913 
-2123.03 -1713.13 509.78 
-2123.64 -1710.71 510.406 
-2122.84 -1715.8 508.653 
-2122.65 -1716.37 507.965 
-2122.86 -1715.71 509.085 
-2122.83 -1715.7 509.496 
-2122.65 -1716.58 507.989 
-2122.72 -1716.76 507.99 
-2122.72 -1716.91 507.911 
-2118.95 -1717.23 504.159 
-2118.96 -1716.87 504.321 
-2119.14 -1716.64 504.733 
-2119.41 -1716.48 504.703 
-2122.63 -1716.9 507.697 
-2122.43 -1716.83 507.191 
-2122.5 -1716.81 507.351 
-2122.59 -1717.07 507.724 
-2121.16 -1716.5 505.934 
-2120.14 -1716.51 505.374 
-2119.58 -1716.47 505.061 
-2119.02 -1717.62 503.951 
-2119.02 -1717.74 504.123 
-2118.98 -1717.57 504.252 
-2119.05 -1717.73 503.767 
-2118.98 -1718.06 503.433 
-2118.85 -1718.3 503.037 
-2118.79 -1719.27 499.604 
-2118.73 -1718.82 501.711 
-2118.67 -1719.36 500.095 
-2118.54 -1719.38 498.989 
-2118.56 -1719.49 499.164 
-2118.36 -1719.66 498.523 
-2118.65 -1719.5 499.339 
-2117.28 -1719.15 496.96 
-2117.32 -1718.46 496.943 
-2117.2 -1718.87 496.832 
-2117.16 -1718.57 496.758 
-2117.19 -1719.35 496.859 
-2117.13 -1719.55 496.766 
-2117.21 -1719.86 496.792 
-2117.32 -1719.87 496.939 
-2117.5 -1719.91 497.112 
-2117.6 -1720.11 497.139 
-2117.87 -1720.13 497.712 
-2118.1 -1719.89 498.228 
-2117.65 -1720.32 497.152 
-2117.06 -1717.05 498.979 
-2117.87 -1715.98 498.22 
-2117.3 -1717 497.172 
-2117.2 -1717.68 496.897 
-2117.24 -1718.04 496.841 
-2117.2 -1718.34 496.799 
-2114.65 -1716.76 491.312 
-2114.7 -1716.43 491.543 
-2114.16 -1713.99 492.446 
-2114.66 -1714.78 492.276 
-2114.73 -1715.38 492.021 
-2114.91 -1715.32 492.119 
-2114.85 -1715.82 491.864 
-2114.66 -1715.87 491.766 
-2114.8 -1716.16 491.698 
-2115.82 -1715.61 493.893 
-2115.97 -1714.93 494.526 
-2116 -1714.89 494.515 
-2115.99 -1715.03 494.465 
-2116 -1715.02 494.216 
-2115.99 -1715.14 494.14 
-2115.98 -1715.22 493.947 
-2115.98 -1715.25 493.616 
-2115.87 -1715.49 493.269 
-2115.61 -1715.4 492.379 
-2115.68 -1715.63 492.417 
-2115.78 -1715.63 492.867 
-2115.37 -1715.1 492.408 
-2115.5 -1715.44 492.312 
-2114.83 -1714.64 492.412 
-2115.83 -1715.62 494.324 
-2115.97 -1715.13 494.758 
-2115.03 -1716.78 491.205 
-2114.83 -1716.85 491.331 
-2114.72 -1716.87 491.321 
-2115.13 -1716.83 491.331 
-2115.23 -1717.03 491.832 
-2115.31 -1717.44 492.664 
-2115.34 -1717.62 493.015 
-2115.43 -1717.77 493.382 
-2115.95 -1715.4 494.652 
-2115.97 -1715.2 494.495 
-2115.66 -1716.78 494.273 
-2115.93 -1715.59 494.809 
-2115.55 -1717.67 493.742 
-2115.52 -1717.79 493.619 
-2115.5 -1717.86 493.533 
-2115.7 -1718.4 496.774 
-2115.84 -1718.24 496.93 
-2115.59 -1718.71 496.677 
-2116.01 -1718.12 497.142 
-2116.18 -1717.97 497.36 
-2115.63 -1718.85 496.597 
-2115.4 -1719.45 496.597 
-2115.16 -1719.98 496.5 
-2116.35 -1717.81 497.565 
-2116.52 -1717.68 497.782 
-2117.26 -1716.82 498.25 
-2117.56 -1716.42 498.268 
-2116.74 -1717.56 498.074 
-2116.98 -1717.2 498.179 
-2116.26 -1719.06 495.328 
-2116.21 -1718.63 495.285 
-2116.23 -1719.67 495.1 
-2116.24 -1719.38 495.203 
-2116.32 -1720.09 495.271 
-2115.24 -1721.44 495.543 
-2116.12 -1720.73 495.022 
-2115.25 -1720.24 496.279 
-2115.31 -1719.96 496.383 
-2116.78 -1721.2 496.675 
-2116.86 -1720.9 496.485 
-2116.94 -1720.41 496.269 
-2116.9 -1720.89 497.043 
-2116.75 -1721.08 498.19 
-2116.86 -1720.64 498 
-2117.04 -1720.66 497.454 
-2115.97 -1723.08 498.871 
-2115.69 -1723.49 499.23 
-2114.24 -1724.63 500.17 
-2116.55 -1722.64 498.812 
-2116.75 -1722.24 498.56 
-2117.06 -1721.76 498.672 
-2117.05 -1720.99 498.471 
-2117.2 -1720.48 496.444 
-2117 -1720.08 496.266 
-2116.67 -1719.5 496.034 
-2116.53 -1718.65 495.918 
-2116.42 -1718.47 495.813 
-2116.18 -1718.43 495.285 
-2116.2 -1718.23 495.532 
-2116.18 -1717.91 495.684 
-2116.21 -1717.53 495.851 
-2116.32 -1718.06 495.826 
-2116.15 -1717.44 495.793 
-2118.77 -1717.63 504.665 
-2118.75 -1717.92 510.971 
-2118.41 -1718.01 510.488 
-2118.13 -1718.09 510.097 
-2118.13 -1718.24 510.14 
-2118.03 -1718.14 509.177 
-2118.27 -1717.39 506.881 
-2118.55 -1717.18 505.429 
-2118.65 -1717.3 505.02 
-2118.87 -1717.46 504.589 
-2118.63 -1719.83 500.741 
-2118.57 -1719.54 500.515 
-2113.55 -1726.38 502.872 
-2115.4 -1724.84 502.821 
-2114.95 -1725.39 503.103 
-2116.04 -1723.69 501.004 
-2113.56 -1726.03 502.39 
-2116.72 -1722.72 499.15 
-2116.99 -1722.26 498.876 
-2117.46 -1721.41 498.79 
-2117.87 -1721.16 499.346 
-2118.26 -1720.78 499.823 
-2118.06 -1720.73 499.503 
-2118.48 -1720.62 500.136 
-2118.56 -1720.1 500.389 
-2113.6 -1725.63 501.785 
-2120.47 -1717.66 512.157 
-2119.99 -1717.52 512.653 
-2121.08 -1718.06 511.62 
-2121.43 -1717.65 510.95 
-2121.7 -1717.4 510.692 
-2121.64 -1717.45 510.604 
-2122.37 -1716.5 511.506 
-2122 -1716.95 511.111 
-2122.05 -1717.23 510.634 
-2121.95 -1717.34 510.532 
-2121.9 -1717.39 510.451 
-2119.79 -1717.73 512.508 
-2118.88 -1717.73 511.164 
-2119 -1717.71 511.141 
-2119.77 -1717.66 512.271 
-2119.67 -1717.77 511.937 
-2119.6 -1717.91 511.627 
-2119.46 -1717.96 511.349 
-2119.3 -1718 511.076 
-2123.47 -1715.56 511.856 
-2124.85 -1714.21 512.922 
-2124.99 -1713.98 513.918 
-2124.77 -1713.83 513.481 
-2124.22 -1713.44 512.895 
-2123.02 -1712.16 511.571 
-2124.23 -1713.21 512.232 
-2123.11 -1710.57 512.228 
-2123.19 -1710.65 511.842 
-2123.2 -1710.8 511.59 
-2123.22 -1710.52 512.022 
-2122.96 -1711.08 511.404 
-2122.88 -1711.25 511.606 
-2122.85 -1711.44 511.402 
-2122.78 -1711.65 511.492 
-2123.27 -1710.31 512.4 
-2123.23 -1710.43 512.219 
-2126.1 -1710.5 516.005 
-2126.09 -1711 515.253 
-2126.07 -1710.7 515.435 
-2125.95 -1710.33 515.445 
-2124.87 -1711.91 511.822 
-2124.95 -1712.24 512.408 
-2125.43 -1712.11 513.374 
-2125.26 -1712.47 513.335 
-2125.1 -1712.63 513.129 
-2125.56 -1711.47 513.191 
-2124.8 -1712.31 511.867 
-2125.23 -1713.04 512.376 
-2125.63 -1713.21 512.933 
-2125.48 -1710.58 512.497 
-2125.41 -1710.66 512.553 
-2125.53 -1710.8 513.077 
-2125.22 -1713.72 514.028 
-2125.16 -1713.37 513.916 
-2125.32 -1713.26 514.149 
-2125.45 -1712.85 514.056 
-2125.64 -1712.31 514.115 
-2125.78 -1712.1 514.528 
-2125.96 -1711.36 514.794 
-2125.69 -1709.81 515.57 
-2125.6 -1710.32 512.621 
-2123.62 -1709.67 513.056 
-2123.6 -1709.76 512.801 
-2123.51 -1709.93 512.623 
-2123.44 -1710.09 512.436 
-2124.15 -1709.41 513.159 
-2124.69 -1708.97 514.985 
-2124.08 -1709.09 514.408 
-2124.91 -1708.85 514.334 
-2124.91 -1708.96 514.119 
-2124.92 -1709.06 513.905 
-2124.94 -1709.2 513.458 
-2124.95 -1709.1 513.667 
-2124.35 -1708.89 511.17 
-2124.46 -1708.68 511.477 
-2124.21 -1709.13 510.791 
-2123.96 -1709.52 510.821 
-2123.92 -1709.9 510.799 
-2125.53 -1710.05 512.481 
-2125.44 -1709.8 512.4 
-2125.06 -1708.91 512.302 
-2125.42 -1709.42 512.394 
-2124.37 -1708.9 511.805 
-2123.95 -1710.49 510.531 
-2124.04 -1710.31 510.741 
-2123.32 -1710.9 510.419 
-2123.08 -1711.14 510.498 
-2123.03 -1711.39 510.187 
-2123.06 -1713.03 510.019 
-2122.77 -1715.77 509.864 
-2123.22 -1710.92 510.732 
-2123.54 -1710.75 510.808 
-2122.66 -1716.41 508.333 
-2122.69 -1716.18 508.707 
-2122.66 -1716.39 509.122 
-2122.71 -1716.65 508.419 
-2122.75 -1716.92 508.261 
-2122.67 -1717.22 508.008 
-2122.71 -1717.15 508.216 
-2118.89 -1717.17 504.561 
-2118.88 -1716.85 504.704 
-2119.19 -1716.63 505.097 
-2122.48 -1717.19 507.535 
-2122.54 -1717.08 507.594 
-2122.33 -1717.14 507.2 
-2122.57 -1717.37 507.855 
-2122.63 -1717.42 508.06 
-2121.15 -1716.76 506.057 
-2120.19 -1716.76 505.558 
-2119.69 -1716.65 505.35 
-2118.57 -1719.56 499.762 
-2118.47 -1719.71 500.18 
-2118.21 -1720.06 498.732 
-2118.44 -1719.74 499.357 
-2118.38 -1719.85 499.754 
-2117.14 -1719.02 496.766 
-2117.09 -1718.7 496.673 
-2117.1 -1718.21 496.653 
-2117.05 -1718.4 496.594 
-2117.08 -1719.15 496.703 
-2117.09 -1719.85 496.632 
-2117.01 -1719.24 496.603 
-2117.19 -1720.02 496.678 
-2117.3 -1720.01 496.846 
-2117.38 -1720.16 496.89 
-2117.61 -1721 496.904 
-2117.47 -1720.48 497.439 
-2117.68 -1720.36 497.999 
-2117.96 -1720.17 498.458 
-2117.2 -1720.62 496.925 
-2117.44 -1716.21 497.356 
-2116.86 -1717.39 496.648 
-2116.97 -1717.83 496.613 
-2114.77 -1716.59 491.514 
-2114.86 -1716.31 491.666 
-2115.18 -1715.64 492.084 
-2115.22 -1715.35 492.228 
-2115.05 -1715.78 491.965 
-2114.95 -1716.01 491.824 
-2115.97 -1715.3 494.321 
-2115.96 -1715.39 494.166 
-2115.95 -1715.44 493.799 
-2115.84 -1715.68 493.419 
-2115.76 -1715.8 493.055 
-2115.51 -1715.71 492.208 
-2115.61 -1715.86 492.257 
-2115.67 -1715.93 492.645 
-2115.38 -1715.44 492.256 
-2115.4 -1715.7 492.157 
-2114.96 -1717.02 491.348 
-2114.86 -1717 491.339 
-2114.9 -1716.52 491.603 
-2114.95 -1716.73 491.535 
-2115.05 -1717.08 491.378 
-2115.22 -1717.35 492.031 
-2115.29 -1717.71 492.755 
-2115.39 -1717.82 493.281 
-2115.47 -1717.92 493.442 
-2115.94 -1715.49 494.485 
-2115.91 -1715.76 494.911 
-2115.66 -1716.83 494.373 
-2115.58 -1717.52 493.984 
-2115.92 -1715.65 494.594 
-2115.6 -1717.74 493.867 
-2115.59 -1717.88 493.776 
-2115.55 -1717.93 493.674 
-2115.53 -1718.02 493.59 
-2115.91 -1717.72 496.462 
-2116.01 -1717.48 496.45 
-2116.07 -1717.38 496.489 
-2115.81 -1717.96 496.472 
-2116.17 -1717.2 496.529 
-2116.3 -1717.05 496.66 
-2115.67 -1718.94 496.429 
-2115.71 -1718.22 496.483 
-2115.41 -1719.62 496.473 
-2116.5 -1716.82 496.818 
-2116.73 -1716.92 497.311 
-2117.04 -1716.46 497.337 
-2117.17 -1716.27 497.148 
-2116.17 -1718.65 495.167 
-2116.13 -1718.74 495.05 
-2116.19 -1719.63 494.969 
-2116.1 -1718.84 494.96 
-2115.37 -1721.5 495.26 
-2116.1 -1720.78 494.925 
-2115.5 -1719.77 496.186 
-2115.28 -1720.37 496.118 
-2115.43 -1720.05 496.094 
-2115.54 -1719.54 496.298 
-2117.19 -1720.64 496.681 
-2117.13 -1720.28 496.464 
-2117.28 -1720.59 498.613 
-2117.21 -1720.52 498.012 
-2116.21 -1723.1 499.2 
-2115.59 -1723.99 500.968 
-2114.87 -1725.1 502.608 
-2116.95 -1719.94 496.381 
-2117.14 -1720.14 496.551 
-2117.06 -1719.99 496.511 
-2116.82 -1719.25 496.309 
-2116.71 -1718.98 496.17 
-2116.62 -1718.69 496.041 
-2116.48 -1718.3 495.932 
-2116.34 -1717.93 495.903 
-2116.11 -1718.38 495.161 
-2116.15 -1718.08 495.504 
-2116.17 -1717.98 495.635 
-2116.11 -1717.6 495.689 
-2116.08 -1716.93 495.909 
-2116.12 -1716.93 495.969 
-2116.25 -1717.45 495.928 
-2116.05 -1717 495.812 
-2118.58 -1717.79 510.673 
-2118.3 -1717.87 510.201 
-2118.3 -1717.4 508.317 
-2118.1 -1717.95 509.145 
-2118.31 -1717.24 507.13 
-2118.57 -1717.02 505.7 
-2118.72 -1717.03 505.093 
-2117.7 -1720.6 499.064 
-2118.43 -1720.19 500.047 
-2118.29 -1720.33 499.739 
-2118.03 -1720.32 499.377 
-2121.04 -1718.37 511.666 
-2120.45 -1718 512.154 
-2119.99 -1717.68 512.468 
-2121.39 -1717.96 510.995 
-2121.59 -1717.55 510.545 
-2121.86 -1717.43 510.347 
-2121.8 -1717.48 510.28 
-2122.32 -1716.55 511.352 
-2122.2 -1716.89 510.911 
-2122.14 -1717.35 510.353 
-2122.2 -1717.11 510.415 
-2122.09 -1717.4 510.253 
-2122.04 -1717.44 510.155 
-2118.8 -1717.69 510.87 
-2119.14 -1718.05 510.772 
-2119.95 -1717.92 512.251 
-2119.97 -1718.03 511.937 
-2119.95 -1718.25 511.579 
-2119.8 -1718.31 511.274 
-2119.64 -1718.35 510.999 
-2119.45 -1718.36 510.732 
-2123.48 -1715.46 511.651 
-2124.82 -1714.12 512.197 
-2125.4 -1713.63 513.261 
-2125.27 -1713.56 512.485 
-2124.94 -1713.63 513.686 
-2124.83 -1713.23 513.063 
-2124.66 -1713.42 512.825 
-2123.08 -1712.13 511.157 
-2124.26 -1712.92 511.539 
-2124.52 -1712.99 512.106 
-2123.38 -1710.47 511.765 
-2123.51 -1710.6 511.403 
-2123.35 -1710.79 511.216 
-2123.36 -1710.35 512.034 
-2122.9 -1711.38 511.116 
-2123.07 -1710.99 511.085 
-2122.81 -1711.67 511.175 
-2123.42 -1710.21 512.209 
-2125.81 -1710.03 515.448 
-2125.91 -1710.8 514.677 
-2125.88 -1710.52 514.858 
-2125.82 -1710.21 514.947 
-2125.58 -1709.72 514.736 
-2125.51 -1709.55 514.889 
-2124.92 -1712.75 512.813 
-2125.61 -1711.86 513.659 
-2125.51 -1712.41 513.803 
-2125.37 -1712.56 513.643 
-2125.29 -1712.93 513.8 
-2125.17 -1712.94 513.558 
-2125.03 -1713.22 513.511 
-2125.7 -1711.15 513.629 
-2124.97 -1713.09 512.024 
-2124.62 -1712.51 511.628 
-2124.72 -1712.81 512.392 
-2125.45 -1710.27 512.45 
-2125.39 -1710.33 512.553 
-2125.36 -1710.43 512.708 
-2125.49 -1710.5 513.248 
-2125.7 -1710.81 513.757 
-2125.79 -1711.5 514.163 
-2125.86 -1710.95 514.32 
-2125.44 -1709.37 515.038 
-2123.96 -1709.54 512.904 
-2123.68 -1709.76 512.555 
-2124.07 -1709.55 512.636 
-2123.6 -1709.93 512.352 
-2123.57 -1710.05 512.133 
-2124.95 -1709.19 513.121 
-2124.46 -1709.34 512.851 
-2124.89 -1708.75 514.607 
-2125.53 -1709.72 514.352 
-2125.38 -1709.67 513.737 
-2124.19 -1709.2 511.239 
-2124.23 -1709.14 511.672 
-2124.01 -1709.49 511.138 
-2123.92 -1709.88 511.143 
-2123.98 -1710.23 511.093 
-2125.41 -1709.95 512.471 
-2125.37 -1709.5 512.49 
-2125.04 -1708.96 512.449 
-2124.42 -1708.99 512.031 
-2123.82 -1710.59 510.909 
-2123.79 -1710.44 511.182 
-2122.93 -1711.55 510.474 
-2122.97 -1711.31 510.802 
-2123.11 -1712.84 510.231 
-2122.72 -1715.81 510.191 
-2122.64 -1716.5 509.399 
-2122.68 -1716.6 508.871 
-2122.71 -1716.85 508.693 
-2122.73 -1717.04 508.52 
-2122.68 -1717.37 508.323 
-2122.72 -1717.21 508.534 
-2118.84 -1716.78 505.089 
-2119.19 -1716.89 505.261 
-2122.51 -1717.57 507.857 
-2122.4 -1717.51 507.579 
-2122.25 -1717.5 507.276 
-2122.61 -1717.63 508.142 
-2122.64 -1717.55 508.353 
-2121.26 -1717.18 506.225 
-2119.71 -1716.95 505.416 
-2120.12 -1717.16 505.554 
-2117.96 -1720.15 499.03 
-2118.24 -1720.02 499.431 
-2117.02 -1718.8 496.595 
-2116.97 -1718.49 496.499 
-2116.98 -1718.11 496.531 
-2116.88 -1718.11 496.432 
-2116.97 -1718.95 496.539 
-2116.95 -1719.52 496.484 
-2116.88 -1718.94 496.409 
-2117.18 -1720.08 496.637 
-2117.29 -1720.15 496.764 
-2117.58 -1720.35 498.555 
-2116.69 -1717.26 496.513 
-2116.84 -1717.74 496.508 
-2115 -1716.19 491.777 
-2115.28 -1715.69 492.108 
-2115.2 -1715.94 491.971 
-2115.11 -1715.92 491.938 
-2115.94 -1715.55 494.23 
-2115.94 -1715.56 493.969 
-2115.86 -1715.75 493.717 
-2115.75 -1715.95 493.302 
-2115.66 -1716.07 492.916 
-2115.53 -1716.09 492.145 
-2115.41 -1715.98 492.05 
-2115.57 -1716.21 492.527 
-2115.3 -1715.94 492.016 
-2115.05 -1716.77 491.57 
-2115.02 -1716.46 491.681 
-2115.14 -1717.34 491.593 
-2115.16 -1716.73 491.636 
-2115.2 -1717.01 491.629 
-2115.15 -1717.57 491.772 
-2115.31 -1717.93 493.019 
-2115.37 -1717.91 493.242 
-2115.43 -1717.97 493.352 
-2115.49 -1718.08 493.473 
-2115.69 -1716.79 494.543 
-2115.89 -1715.89 494.893 
-2115.91 -1715.77 494.566 
-2115.65 -1717.78 493.992 
-2115.61 -1717.48 494.168 
-2115.6 -1718.04 493.771 
-2115.63 -1718 493.869 
-2115.58 -1718.14 493.704 
-2115.54 -1718.19 493.599 
-2116.07 -1717.11 496.229 
-2116.2 -1716.87 496.183 
-2116.22 -1716.85 496.278 
-2116.31 -1716.81 496.275 
-2115.92 -1717.46 496.26 
-2116.35 -1716.77 496.333 
-2116.45 -1716.82 496.399 
-2115.73 -1719.03 496.259 
-2115.73 -1718.51 496.276 
-2115.7 -1718.2 496.396 
-2116.72 -1716.62 496.698 
-2116.09 -1718.58 494.992 
-2116.04 -1718.68 494.836 
-2116.13 -1719.52 494.837 
-2116.04 -1718.86 494.811 
-2115.43 -1721.36 495.219 
-2116.26 -1720.08 494.846 
-2116.03 -1720.95 494.812 
-2115.64 -1719.68 495.994 
-2115.77 -1719.12 496.094 
-2115.4 -1720.3 495.936 
-2115.55 -1719.98 495.922 
-2116.73 -1718.72 496.19 
-2116.66 -1718.6 496.08 
-2116.61 -1718.42 496.039 
-2116.51 -1718.07 496.041 
-2116.38 -1717.82 495.981 
-2116.26 -1717.21 496.028 
-2116.05 -1718.27 494.982 
-2116.08 -1718 495.332 
-2116.09 -1717.8 495.569 
-2116.05 -1717.29 495.699 
-2116.15 -1716.88 496.05 
-2115.9 -1717.4 496.166 
-2115.89 -1717.3 496.052 
-2115.97 -1716.93 495.789 
-2115.86 -1717.28 495.965 
-2118.53 -1717.68 510.456 
-2118.31 -1717.75 510.039 
-2118.41 -1717.28 508.275 
-2118.35 -1717.11 507.262 
-2118.85 -1716.91 506.135 
-2118.59 -1716.85 506.068 
-2118.7 -1716.82 505.541 
-2120.99 -1718.68 511.713 
-2121.34 -1718.29 511.047 
-2120.36 -1718.28 512.231 
-2121.54 -1717.83 510.58 
-2121.73 -1717.53 510.2 
-2122 -1717.49 510.053 
-2121.92 -1717.52 510.004 
-2122.37 -1716.56 511.191 
-2122.32 -1716.78 510.717 
-2122.26 -1717.28 510.209 
-2122.25 -1717.42 510.152 
-2122.32 -1716.86 510.334 
-2122.34 -1717.09 510.065 
-2122.21 -1717.47 510.044 
-2122.16 -1717.51 509.946 
-2118.75 -1717.63 510.597 
-2119.1 -1718.04 510.491 
-2119.97 -1718.31 512.111 
-2120.05 -1718.45 511.73 
-2120.22 -1718.66 511.407 
-2120.12 -1718.66 511.164 
-2119.99 -1718.74 510.876 
-2119.79 -1718.71 510.64 
-2119.56 -1718.62 510.426 
-2123.74 -1714.78 511.416 
-2124.7 -1713.63 511.81 
-2123.71 -1714.36 511.111 
-2123.14 -1712.25 510.785 
-2124.42 -1712.55 511.304 
-2123.63 -1710.33 511.568 
-2123.53 -1710.21 511.911 
-2122.85 -1711.65 510.831 
-2125.65 -1710.53 513.904 
-2125.72 -1710.42 514.302 
-2125.64 -1710.07 514.342 
-2125.36 -1709.99 512.581 
-2125.31 -1710.09 512.679 
-2125.3 -1710.13 512.868 
-2125.44 -1710.18 513.388 
-2123.8 -1709.74 512.33 
-2124.58 -1709.29 512.609 
-2124.27 -1709.5 512.374 
-2123.74 -1709.87 512.092 
-2123.72 -1710.01 511.848 
-2125 -1709.12 512.896 
-2125.17 -1709.48 513.013 
-2125.52 -1710.09 513.848 
-2125.32 -1709.82 513.324 
-2124.03 -1709.5 511.531 
-2124.16 -1709.34 511.892 
-2123.91 -1709.85 511.473 
-2123.84 -1710.14 511.485 
-2125.34 -1709.68 512.579 
-2125.31 -1709.34 512.605 
-2125.03 -1709 512.625 
-2124.41 -1709.13 512.134 
-2124.58 -1709.04 512.341 
-2123.15 -1712.63 510.496 
-2122.76 -1715.76 510.565 
-2122.58 -1716.44 509.84 
-2122.6 -1716.66 509.583 
-2122.67 -1716.74 509.117 
-2122.66 -1716.83 509.387 
-2122.71 -1717.12 508.811 
-2122.7 -1716.93 508.901 
-2122.66 -1717.5 508.595 
-2122.69 -1717.36 508.58 
-2122.71 -1717.32 508.843 
-2118.99 -1716.98 505.566 
-2119.56 -1717.26 505.394 
-2122.55 -1717.83 508.136 
-2122.43 -1717.92 507.944 
-2122.33 -1717.85 507.662 
-2122.21 -1717.93 507.465 
-2122.59 -1717.78 508.393 
-2122.63 -1717.66 508.649 
-2121.3 -1717.57 506.342 
-2120.04 -1717.52 505.541 
-2116.9 -1718.65 496.418 
-2116.87 -1718.34 496.355 
-2116.72 -1717.62 496.421 
-2116.75 -1717.96 496.339 
-2116.81 -1718.65 496.288 
-2116.58 -1717.23 496.399 
-2115.11 -1716.19 491.828 
-2115.22 -1716.19 491.88 
-2115.91 -1715.73 494.125 
-2115.8 -1716.05 493.858 
-2115.75 -1716.06 493.554 
-2115.66 -1716.22 493.197 
-2115.58 -1716.33 492.822 
-2115.43 -1716.35 492.005 
-2115.31 -1716.2 491.919 
-2115.49 -1716.45 492.438 
-2115.13 -1716.47 491.725 
-2115.2 -1717.29 491.892 
-2115.25 -1716.44 491.792 
-2115.32 -1716.68 491.807 
-2115.31 -1716.94 492.059 
-2115.23 -1717.91 492.519 
-2115.12 -1717.79 491.79 
-2115.2 -1717.45 492.054 
-2115.15 -1717.6 491.866 
-2115.34 -1718.14 493.156 
-2115.39 -1718.06 493.276 
-2115.45 -1718.15 493.378 
-2115.51 -1718.25 493.504 
-2115.72 -1716.76 494.695 
-2115.89 -1715.96 494.745 
-2115.89 -1715.9 494.316 
-2115.7 -1717.85 494.127 
-2115.66 -1717.53 494.29 
-2115.68 -1718.06 493.977 
-2115.63 -1718.25 493.814 
-2115.64 -1718.14 493.871 
-2115.59 -1718.31 493.704 
-2115.56 -1718.38 493.622 
-2116.32 -1717.35 496.063 
-2116.32 -1717.09 496.15 
-2116.39 -1717.26 496.188 
-2116.46 -1717.18 496.292 
-2115.75 -1718.41 496.158 
-2115.72 -1718.01 496.281 
-2116.03 -1718.49 494.845 
-2115.98 -1718.46 494.699 
-2115.97 -1718.66 494.646 
-2115.99 -1718.88 494.661 
-2116.05 -1719.47 494.65 
-2115.52 -1721.17 495.176 
-2116.24 -1720.49 494.802 
-2115.71 -1719.8 495.774 
-2115.88 -1719.29 495.762 
-2115.84 -1719.21 495.917 
-2115.82 -1718.69 495.974 
-2115.55 -1720.17 495.758 
-2116.68 -1718.35 496.14 
-2116.57 -1717.95 496.141 
-2116.42 -1717.64 496.09 
-2115.98 -1718.19 494.812 
-2116.02 -1717.94 495.177 
-2116.01 -1717.68 495.438 
-2116.03 -1717.43 495.621 
-2115.96 -1716.98 495.705 
-2115.72 -1717.9 496.177 
-2115.8 -1717.36 495.901 
-2115.73 -1717.88 496.059 
-2118.5 -1717.57 510.225 
-2118.82 -1717.26 508.588 
-2118.71 -1717.17 507.975 
-2119.17 -1717.21 506.327 
-2119.45 -1717.4 505.653 
-2120.95 -1719 511.763 
-2121.31 -1718.59 511.056 
-2121.51 -1718.11 510.594 
-2120.4 -1718.71 512.187 
-2121.7 -1717.66 510.132 
-2121.9 -1717.57 509.883 
-2122.12 -1717.56 509.849 
-2122.04 -1717.58 509.811 
-2122.42 -1716.52 510.91 
-2122.38 -1716.6 511.007 
-2122.38 -1717.37 510.023 
-2122.36 -1717.49 509.949 
-2122.39 -1716.82 510.035 
-2122.46 -1716.52 510.567 
-2122.46 -1716.98 509.847 
-2122.47 -1717.23 509.861 
-2122.32 -1717.54 509.836 
-2122.27 -1717.6 509.723 
-2118.73 -1717.53 510.306 
-2119.24 -1718.18 510.262 
-2119.9 -1718.79 511.757 
-2119.98 -1719.01 511.339 
-2120.37 -1719.05 510.983 
-2120.16 -1719.24 511.038 
-2120.3 -1719.12 510.704 
-2120.09 -1719.09 510.459 
-2119.84 -1718.97 510.251 
-2123.06 -1715.5 510.888 
-2125.28 -1709.76 512.711 
-2125.23 -1709.79 512.861 
-2124.05 -1709.64 512.12 
-2125.01 -1709.08 512.756 
-2124.56 -1709.2 512.443 
-2124.33 -1709.34 512.198 
-2123.88 -1709.8 511.817 
-2125.2 -1709.47 512.828 
-2124.08 -1709.54 511.961 
-2125.26 -1709.45 512.707 
-2122.52 -1716.44 510.255 
-2122.49 -1716.73 509.804 
-2122.58 -1716.89 509.644 
-2122.69 -1717 509.095 
-2122.66 -1717.09 509.443 
-2122.69 -1717.26 509.162 
-2122.65 -1717.61 508.919 
-2122.68 -1717.47 508.817 
-2122.69 -1717.42 508.935 
-2122.68 -1717.5 509.098 
-2122.48 -1718.04 508.26 
-2122.28 -1718.17 507.814 
-2122.38 -1718.18 508.076 
-2122.15 -1718.29 507.599 
-2122.5 -1718.01 508.516 
-2122.57 -1717.84 508.637 
-2122.6 -1717.78 508.878 
-2121.33 -1717.9 506.421 
-2119.7 -1717.65 505.861 
-2120.22 -1717.83 505.609 
-2116.78 -1718.37 496.253 
-2116.61 -1717.58 496.315 
-2116.67 -1717.99 496.238 
-2115.78 -1716.21 494.103 
-2115.71 -1716.32 493.792 
-2115.67 -1716.32 493.477 
-2115.57 -1716.47 493.049 
-2115.49 -1716.58 492.67 
-2115.41 -1716.67 492.256 
-2115.24 -1717.31 492.205 
-2115.29 -1717.11 492.247 
-2115.39 -1716.85 492.48 
-2115.27 -1718.16 492.925 
-2115.12 -1717.98 491.942 
-2115.17 -1717.73 492.096 
-2115.27 -1717.38 492.465 
-2115.22 -1717.57 492.303 
-2115.36 -1718.35 493.172 
-2115.4 -1718.23 493.274 
-2115.47 -1718.3 493.4 
-2115.51 -1718.42 493.482 
-2115.87 -1716.13 494.952 
-2115.72 -1716.83 494.817 
-2115.67 -1717.37 494.49 
-2115.87 -1716.08 494.517 
-2115.72 -1717.58 494.443 
-2115.75 -1717.91 494.262 
-2115.73 -1718.14 494.102 
-2115.7 -1718.29 493.992 
-2115.65 -1718.46 493.831 
-2115.57 -1718.53 493.606 
-2115.61 -1718.49 493.716 
-2116.52 -1717.6 496.211 
-2115.76 -1718.26 496.057 
-2115.91 -1718.1 494.645 
-2115.92 -1718.41 494.556 
-2115.91 -1718.78 494.475 
-2115.89 -1718.55 494.458 
-2115.92 -1718.99 494.471 
-2116.03 -1719.64 494.522 
-2116.26 -1720.43 494.726 
-2115.64 -1721.1 495.014 
-2115.76 -1719.89 495.594 
-2115.94 -1719.39 495.589 
-2115.89 -1718.81 495.753 
-2115.82 -1718.49 495.891 
-2115.62 -1720.22 495.586 
-2115.96 -1717.83 495.074 
-2115.92 -1717.58 495.206 
-2115.93 -1717.33 495.497 
-2115.96 -1717.19 495.608 
-2115.88 -1716.97 495.714 
-2115.76 -1717.43 495.799 
-2115.74 -1717.82 495.957 
-2115.76 -1717.75 495.855 
-2115.79 -1718.16 495.891 
-2118.46 -1717.46 509.836 
-2119.57 -1717.22 507.699 
-2119.54 -1717.48 506.556 
-2120.89 -1719.32 511.809 
-2121.22 -1718.98 511.211 
-2121.52 -1718.28 510.484 
-2121.39 -1718.64 510.762 
-2121.69 -1717.87 510.074 
-2120.11 -1719.07 511.822 
-2121.86 -1717.64 509.773 
-2122.01 -1717.71 509.667 
-2122.17 -1717.7 509.63 
-2122.5 -1717.46 509.823 
-2122.47 -1717.56 509.748 
-2122.57 -1717.11 509.685 
-2122.61 -1717.31 509.634 
-2122.41 -1717.63 509.633 
-2122.31 -1717.78 509.523 
-2118.98 -1717.79 510.087 
-2118.57 -1717.34 509.951 
-2119.57 -1718.6 510.066 
-2119.82 -1719.56 511.001 
-2120.53 -1719.54 510.512 
-2120.31 -1719.57 510.671 
-2120 -1719.82 510.671 
-2120.41 -1719.47 510.307 
-2120.15 -1719.36 510.062 
-2122.68 -1717.42 509.395 
-2122.63 -1717.72 509.14 
-2122.66 -1717.65 509.396 
-2122.42 -1718.23 508.394 
-2122.22 -1718.39 507.895 
-2122.32 -1718.4 508.18 
-2122.05 -1718.5 507.554 
-2122.1 -1718.6 507.805 
-2122.45 -1718.15 508.663 
-2122.52 -1717.98 508.778 
-2122.53 -1717.96 509.038 
-2121.35 -1718.26 506.526 
-2120.14 -1718.02 505.815 
-2115.76 -1716.4 494.263 
-2115.66 -1716.55 493.91 
-2115.61 -1716.58 493.58 
-2115.57 -1716.58 493.278 
-2115.48 -1716.72 492.897 
-2115.31 -1717.2 492.545 
-2115.39 -1716.98 492.737 
-2115.28 -1718.33 492.991 
-2115.12 -1718.16 492.078 
-2115.18 -1717.86 492.223 
-2115.25 -1717.69 492.59 
-2115.29 -1717.49 492.679 
-2115.33 -1717.31 492.798 
-2115.44 -1718.41 493.327 
-2115.42 -1718.55 493.281 
-2115.35 -1718.52 493.133 
-2115.5 -1718.58 493.437 
-2115.76 -1716.79 494.924 
-2115.84 -1716.27 494.716 
-2115.72 -1717.41 494.653 
-2115.78 -1717.67 494.59 
-2115.83 -1718.01 494.44 
-2115.79 -1718.22 494.26 
-2115.78 -1718.4 494.191 
-2115.71 -1718.53 493.999 
-2115.63 -1718.64 493.751 
-2115.69 -1718.74 493.897 
-2115.57 -1718.7 493.591 
-2115.86 -1718.26 494.437 
-2115.9 -1717.75 494.938 
-2115.85 -1717.79 494.715 
-2115.85 -1718.39 494.372 
-2115.84 -1718.63 494.315 
-2115.84 -1718.86 494.275 
-2115.87 -1719.09 494.318 
-2115.98 -1719.68 494.394 
-2116.28 -1720.34 494.645 
-2115.71 -1720.94 494.967 
-2115.78 -1720.07 495.412 
-2115.98 -1719.48 495.417 
-2115.94 -1718.91 495.573 
-2115.86 -1718.48 495.723 
-2115.82 -1717.05 495.542 
-2115.86 -1717.32 495.274 
-2115.82 -1716.95 495.696 
-2115.83 -1717.56 494.902 
-2115.8 -1717.47 495.612 
-2115.81 -1717.82 495.684 
-2115.82 -1718.1 495.76 
-2119.71 -1717.2 508.29 
-2120.25 -1717.76 506.845 
-2120.07 -1717.94 506.322 
-2120.84 -1719.61 511.82 
-2121.12 -1719.42 511.222 
-2121.27 -1719.03 510.895 
-2121.58 -1718.26 510.095 
-2121.42 -1718.67 510.397 
-2121.74 -1717.93 509.736 
-2119.99 -1719.55 511.453 
-2121.9 -1717.84 509.586 
-2122.06 -1717.93 509.472 
-2122.2 -1717.95 509.42 
-2122.62 -1717.55 509.635 
-2122.55 -1717.68 509.547 
-2122.44 -1717.85 509.434 
-2122.34 -1718.02 509.325 
-2119.25 -1718.07 509.875 
-2118.88 -1717.36 509.82 
-2120 -1717.22 508.633 
-2119.75 -1718.8 509.861 
-2119.71 -1720.21 510.561 
-2120.67 -1719.89 510.133 
-2120.44 -1720.13 510.139 
-2120.19 -1720.09 510.336 
-2119.91 -1720.42 510.256 
-2120.54 -1719.82 509.944 
-2120.21 -1719.42 509.796 
-2122.56 -1717.88 509.328 
-2122.33 -1718.46 508.435 
