-1820.1 -1896.76 1561.12 
-1819.74 -1895.96 1560.46 
-1818.77 -1893.59 1564.63 
-1819.77 -1895.29 1561.93 
-1851.06 -1916.94 1572.72 
-1850.82 -1919.32 1569.04 
-1850.18 -1920.45 1565.83 
-1850.31 -1919.91 1567.56 
-1849.3 -1920.86 1564.08 
-1848.33 -1920.67 1564.65 
-1847.86 -1920.91 1563.39 
-1847.18 -1921.02 1562.51 
-1842.5 -1916.91 1567.57 
-1843.02 -1918.65 1565.65 
-1843.81 -1919.69 1563.85 
-1842.14 -1917.03 1567.05 
-1841.09 -1916.33 1567.13 
-1840.13 -1916.46 1566.44 
-1844.46 -1920.39 1561.26 
-1845.17 -1920.79 1560.83 
-1845.76 -1920.8 1562.06 
-1846.4 -1921.03 1561.61 
-1838.37 -1914.61 1566.25 
-1836.6 -1912.29 1566.56 
-1856.24 -1911.64 1579.39 
-1853.68 -1913.93 1576.66 
-1851.67 -1917.11 1572.07 
-1854.72 -1912.6 1578.05 
-1834.65 -1911.32 1565.09 
-1832.96 -1910.38 1565.15 
-1835.93 -1912.03 1565.48 
-1830.91 -1909.48 1565.45 
-1827.79 -1908.35 1565.83 
-1825.28 -1907.66 1565.99 
-1821.29 -1906.16 1566.13 
-1821.98 -1906.11 1566.2 
-1823.13 -1906.57 1565.99 
-1820.68 -1906.09 1566.54 
-1824.42 -1907.24 1565.93 
-1820.51 -1905.88 1566.5 
-1820.71 -1905.32 1566.26 
-1820.69 -1904.78 1565.71 
-1820.16 -1903.68 1565.48 
-1820.32 -1904.27 1565.16 
-1818.82 -1898.79 1566.96 
-1819.45 -1900.75 1566.68 
-1817.87 -1894.68 1567.82 
-1818.11 -1895.65 1567 
-1818.35 -1897.33 1567.01 
-1819.99 -1902.12 1565.47 
-1820.04 -1903.06 1565.17 
-1818 -1894.47 1567.1 
-1818.26 -1894.49 1566.27 
-1820.13 -1889.13 1550.45 
-1820.19 -1888.36 1550.34 
-1819.15 -1890.8 1555.54 
-1819.34 -1890.56 1554.74 
-1818.6 -1892.9 1552.86 
-1818.69 -1893.38 1553.23 
-1818.89 -1893.85 1553.37 
-1819 -1894.72 1554.11 
-1819.12 -1895.54 1554.57 
-1819.72 -1895.32 1558.01 
-1818.97 -1894.33 1553.64 
-1820.23 -1897.46 1559.14 
-1820.47 -1898.52 1560.41 
-1819.47 -1898.61 1563.85 
-1820.56 -1899.23 1560.57 
-1819.11 -1894.85 1563.92 
-1818.43 -1895.57 1565.78 
-1819.28 -1897.41 1564.22 
-1851.74 -1919.47 1568.19 
-1851.26 -1920.13 1567.02 
-1850.89 -1920.54 1565.76 
-1850.21 -1920.96 1563.98 
-1849.77 -1921.31 1562.63 
-1848.98 -1921.18 1562.66 
-1847.99 -1921.23 1561.74 
-1846.9 -1921.23 1560.61 
-1842.89 -1918.83 1565.06 
-1843.78 -1919.82 1562.72 
-1841.8 -1917.02 1566.64 
-1840.63 -1916.5 1566.56 
-1839.86 -1916.57 1565.94 
-1844.04 -1920.67 1558.49 
-1843.64 -1920.24 1560.55 
-1843.31 -1920.51 1558.1 
-1845.63 -1921.17 1559.51 
-1844.08 -1920.76 1557.48 
-1846.07 -1921.22 1559.34 
-1837.93 -1914.35 1565.59 
-1857.99 -1911.39 1579.3 
-1856.84 -1911.86 1578.48 
-1860.04 -1911.46 1576.48 
-1854.13 -1914.12 1575.1 
-1852.34 -1917.16 1571.25 
-1855.53 -1912.36 1577.54 
-1834.34 -1911.2 1564.43 
-1835.47 -1911.86 1564.46 
-1832.05 -1909.99 1564.97 
-1837.4 -1913.96 1565.06 
-1830.57 -1909.47 1565.13 
-1827.69 -1908.28 1565.44 
-1825.46 -1907.7 1565.45 
-1821.01 -1906.12 1565.52 
-1821.65 -1906.15 1565.07 
-1822.28 -1906.14 1565.26 
-1824.46 -1907.2 1565.17 
-1823.31 -1906.57 1564.87 
-1820.77 -1905.71 1565.74 
-1821.07 -1905.9 1565.28 
-1820.7 -1905.25 1565.27 
-1820.41 -1904.74 1564.77 
-1819.93 -1903.72 1564.42 
-1820.13 -1904.21 1564.36 
-1819.52 -1900.77 1565.65 
-1818.2 -1896.12 1566.48 
-1818.85 -1898.86 1565.94 
-1820.1 -1902.88 1564.42 
-1820.06 -1902.24 1564.65 
-1820.1 -1903.33 1564.1 
-1819.92 -1889.28 1551.89 
-1820.1 -1890.04 1550.25 
-1819.97 -1890.24 1551.76 
-1820.06 -1889.54 1549.39 
-1819.61 -1890.26 1553.77 
-1819.07 -1892.22 1551.67 
-1818.86 -1892.67 1552.2 
-1818.36 -1893.99 1550.54 
-1818.37 -1894.34 1550.72 
-1818.38 -1894.66 1550.91 
-1818.46 -1894.99 1551.04 
-1818.53 -1895.63 1551.3 
-1820.05 -1897.27 1557.46 
-1819.18 -1896.56 1554.28 
-1818.72 -1896.88 1551.74 
-1818.54 -1896.32 1551.3 
-1820.36 -1898.89 1559.01 
-1820.16 -1898.27 1557.85 
-1820.57 -1899.55 1559.73 
-1820.19 -1900.85 1562.82 
-1820.71 -1900.02 1560.27 
-1852.58 -1919.55 1567.24 
-1852.18 -1920.17 1566.12 
-1851.8 -1920.41 1565.26 
-1851.11 -1920.83 1563.91 
-1850.55 -1921.33 1562.71 
-1849.42 -1921.4 1561.13 
-1850.4 -1921.4 1560.88 
-1848.38 -1921.39 1560.91 
-1847.24 -1921.39 1559.39 
-1846.2 -1921.08 1558.68 
-1842.85 -1918.91 1564.31 
-1841.47 -1916.89 1566.33 
-1840.29 -1916.61 1566.08 
-1839.63 -1916.64 1565.51 
-1839.51 -1916.51 1565.66 
-1842.91 -1920.61 1555.61 
-1843.04 -1919.82 1561.2 
-1842.42 -1920.29 1557.28 
-1842.63 -1920.41 1556.95 
-1842.29 -1920.28 1554.78 
-1844.59 -1920.83 1557.45 
-1843.65 -1920.94 1555.01 
-1843.15 -1920.68 1555.07 
-1844.91 -1921 1557.06 
-1858.78 -1911.77 1576.09 
-1865.28 -1912.7 1568.9 
-1855.25 -1913.35 1575.28 
-1854.65 -1914.5 1573.31 
-1853.17 -1917.25 1570.24 
-1859 -1912.35 1574.06 
-1833.46 -1910.68 1564.2 
-1835.8 -1912.15 1563.86 
-1834.98 -1911.69 1563.37 
-1831.84 -1909.91 1564.5 
-1837.22 -1913.88 1564.52 
-1839.39 -1916.54 1565.22 
-1830.41 -1909.29 1564.4 
-1827.58 -1908.15 1564.99 
-1825.5 -1907.66 1564.96 
-1821.59 -1905.95 1564.77 
-1822.36 -1906.11 1564.32 
-1822.06 -1905.9 1564.13 
-1824.14 -1906.88 1564.27 
-1825.16 -1907.39 1564.32 
-1823.11 -1906.3 1563.9 
-1820.96 -1905.51 1564.81 
-1821.31 -1905.62 1564.45 
-1820.76 -1905.03 1564.46 
-1820.46 -1904.36 1563.98 
-1820.29 -1903.75 1563.82 
-1819.98 -1901.74 1564.58 
-1820.31 -1902.89 1563.73 
-1820.22 -1902.52 1563.69 
-1820.43 -1903.27 1563.57 
-1819.22 -1891.66 1548.91 
-1819.18 -1891.6 1549.62 
-1819.35 -1891.88 1550.55 
-1819.24 -1891.61 1548.33 
-1820.16 -1889.03 1548.68 
-1820.19 -1888.59 1549.38 
-1818.37 -1893.74 1550.1 
-1818.46 -1893.36 1549.62 
-1818.55 -1894.52 1549.74 
-1818.5 -1894.98 1550.26 
-1818.39 -1895.65 1550.72 
-1819.35 -1897.54 1554.09 
-1818.81 -1897.53 1551.44 
-1818.61 -1897.12 1551.06 
-1818.48 -1896.7 1550.55 
-1820.4 -1899.5 1558.13 
-1820.2 -1898.85 1557.5 
-1819.43 -1898.08 1553.78 
-1820.63 -1900.13 1559.06 
-1820.45 -1902 1562.2 
-1820.81 -1900.71 1559.94 
-1853.34 -1920.18 1565.31 
-1853.96 -1919.48 1566.47 
-1852.67 -1920.5 1564.23 
-1851.98 -1920.89 1562.92 
-1851.31 -1921.39 1560.56 
-1852.05 -1921.21 1561.19 
-1849.36 -1921.53 1559.82 
-1848.32 -1921.51 1559.7 
-1850.78 -1921.47 1559.46 
-1848.1 -1921.37 1557.93 
-1846.8 -1920.98 1557.72 
-1845.4 -1921.12 1556.04 
-1842.59 -1918.04 1564.99 
-1842.65 -1918.99 1563.69 
-1840.32 -1916.71 1565.89 
-1841.19 -1916.77 1566.1 
-1842.33 -1917.33 1565.42 
-1839.88 -1916.88 1565.39 
-1842.36 -1920.2 1553.9 
-1842.18 -1920.08 1557.46 
-1842.74 -1918.91 1562.73 
-1841.42 -1919.88 1554.67 
-1841.83 -1920.08 1554.64 
-1841.62 -1919.8 1553.17 
-1842.78 -1920.3 1553.74 
-1843.36 -1920.41 1553.66 
-1844.32 -1920.97 1554.47 
-1864.72 -1913.42 1567.25 
-1859.59 -1913.22 1571.52 
-1854.57 -1917.21 1569.45 
-1859 -1914.15 1570.28 
-1833.09 -1910.39 1563.38 
-1834.42 -1911.28 1563.02 
-1835.9 -1912.43 1562.96 
-1831.42 -1909.54 1563.78 
-1838.61 -1915.3 1564.82 
-1839.48 -1916.77 1565.02 
-1827.75 -1908.14 1564.07 
-1827.5 -1908.05 1564.59 
-1830.38 -1909.09 1563.6 
-1821.68 -1905.6 1563.9 
-1822.63 -1905.97 1563.6 
-1822.17 -1905.63 1563.33 
-1823.91 -1906.51 1563.59 
-1825.1 -1907.19 1563.67 
-1823.4 -1906.24 1563.36 
-1821.16 -1905.17 1563.88 
-1821.03 -1904.83 1563.63 
-1821.4 -1905.2 1563.43 
-1820.78 -1904.56 1563.7 
-1820.64 -1904 1563.37 
-1820.59 -1903.62 1563.23 
-1820.72 -1902.57 1561.42 
-1820.57 -1902.34 1561.78 
-1820.85 -1902.93 1561.13 
-1818.4 -1893.5 1549.1 
-1818.41 -1893.62 1548.62 
-1819.35 -1891.54 1547.89 
-1818.53 -1893.6 1548.22 
-1818.41 -1894.05 1549.43 
-1820.44 -1888.61 1548.24 
-1819.47 -1891.56 1547.55 
-1820.61 -1888.57 1547.91 
-1818.65 -1895.34 1549.42 
-1818.6 -1894.73 1549.03 
-1818.49 -1895.99 1550.13 
-1818.7 -1897.64 1550.55 
-1818.83 -1898.12 1550.71 
-1818.9 -1897.97 1551.28 
-1818.52 -1896.9 1550.05 
-1818.66 -1897.46 1550.09 
-1820.28 -1899.36 1557.02 
-1820.46 -1899.85 1557.43 
-1820.67 -1900.39 1558.41 
-1819.51 -1898.58 1553.41 
-1820.86 -1900.87 1559.29 
-1819.59 -1891.61 1547.23 
-1820.71 -1888.86 1547.54 
-1820.78 -1889.4 1547.05 
-1820.91 -1888.34 1547.21 
-1826.38 -1894.17 1540.13 
-1827.01 -1893.8 1539.28 
-1825.8 -1893.38 1540.87 
-1826.04 -1893.85 1540.39 
-1826.04 -1893.25 1540.43 
-1825.35 -1892.6 1541.7 
-1825.9 -1892.98 1541.07 
-1825.65 -1892.79 1541.21 
-1825.65 -1893.95 1540.78 
-1825.47 -1893.84 1541.09 
-1854.47 -1920.3 1563.91 
-1855.41 -1919.65 1565.11 
-1855.61 -1918.84 1566.61 
-1853.21 -1920.64 1562.63 
-1853.2 -1921.11 1561.1 
-1852.44 -1921.31 1559.69 
-1853.89 -1921.04 1559.62 
-1849.3 -1921.58 1557.88 
-1850.47 -1921.54 1557.97 
-1851.86 -1921.43 1558.17 
-1848.67 -1921.18 1556.11 
-1847.43 -1920.98 1556.34 
-1846.06 -1921.17 1554.93 
-1845.06 -1920.91 1553.88 
-1842.45 -1917.99 1564.3 
-1840.05 -1917.05 1565.29 
-1841.15 -1916.86 1565.99 
-1842.31 -1917.11 1565.18 
-1841.92 -1916.88 1565.4 
-1842.03 -1919.85 1552.88 
-1842.45 -1919.09 1560.42 
-1841.1 -1919.54 1554.91 
-1841.17 -1919.54 1553.27 
-1840.87 -1918.89 1553.64 
-1841.24 -1919.5 1552.29 
-1840.95 -1919.25 1552.48 
-1842.55 -1919.94 1552.83 
-1843.15 -1920.03 1552.64 
-1844.18 -1920.39 1553.16 
-1863.53 -1914.29 1565.98 
-1865.09 -1914.61 1564.06 
-1866 -1914.73 1562.77 
-1856.48 -1916.7 1568.54 
-1858.82 -1916.88 1566.26 
-1861.93 -1915.13 1565.89 
-1834.51 -1911.26 1562.14 
-1832.93 -1910.23 1562.45 
-1835.67 -1912.11 1562.03 
-1837.26 -1913.78 1563.7 
-1831.2 -1909.27 1563.01 
-1839.19 -1916.1 1564.83 
-1839.58 -1917.08 1564.82 
-1827.61 -1908.01 1563.56 
-1830 -1908.72 1562.97 
-1821.72 -1905.42 1563.34 
-1822.94 -1905.91 1563.03 
-1822.27 -1905.37 1562.31 
-1824.68 -1906.79 1563.06 
-1823.97 -1906.39 1563.04 
-1827.43 -1907.88 1562.99 
-1823.56 -1906.15 1562.62 
-1821.35 -1904.79 1562.8 
-1821.05 -1904.4 1562.64 
-1821.24 -1904.56 1562.53 
-1821.58 -1904.86 1562.29 
-1820.85 -1904.22 1562.84 
-1820.95 -1903.22 1560.76 
-1821.05 -1903.46 1560.52 
-1868.97 -1914.68 1557.61 
-1868.91 -1914.8 1558.5 
-1867.51 -1914.73 1560.87 
-1867.69 -1914.83 1559.12 
-1820.96 -1901.19 1558.96 
-1821.03 -1901.66 1558.76 
-1818.41 -1894.14 1548.89 
-1818.42 -1894.29 1548.53 
-1818.66 -1893.54 1547.85 
-1818.6 -1894.23 1547.98 
-1818.77 -1893.59 1547.51 
-1818.54 -1896.27 1549.58 
-1818.53 -1895.47 1549.12 
-1818.44 -1894.65 1548.83 
-1818.83 -1898.08 1549.82 
-1818.97 -1898.42 1550.96 
-1818.9 -1898.42 1550.06 
-1818.62 -1897.2 1549.42 
-1818.73 -1897.69 1549.44 
-1819.58 -1899.05 1553.06 
-1820.57 -1900.4 1556.98 
-1819.62 -1899.36 1552.82 
-1820.8 -1900.84 1558.2 
-1819.73 -1891.66 1546.91 
-1818.91 -1893.5 1547.11 
-1824.56 -1892.44 1542.65 
-1824.6 -1893.15 1542.28 
-1825.01 -1892.33 1542.24 
-1819.88 -1891.71 1546.6 
-1821.85 -1889.14 1545.79 
-1821.6 -1890.15 1545.62 
-1822.88 -1890.27 1544.72 
-1821.26 -1889.88 1546.11 
-1827.19 -1894.39 1539.57 
-1826.72 -1894.9 1540.08 
-1828.04 -1894.52 1538.92 
-1825.95 -1894.69 1540.6 
-1827.19 -1895.31 1539.98 
-1825.42 -1894.36 1541.01 
-1825.02 -1893.52 1541.78 
-1825.14 -1893 1541.9 
-1824.8 -1894 1541.74 
-1824.76 -1894.38 1541.59 
-1825.14 -1894.38 1541.28 
-1829.96 -1897.38 1539.34 
-1830.53 -1896.79 1538.39 
-1829.28 -1895.43 1538.43 
-1829.17 -1896.99 1539.96 
-1827.6 -1896.1 1540.39 
-1828.36 -1896.65 1540.49 
-1854.78 -1920.32 1562.18 
-1855.72 -1919.89 1563.36 
-1856.64 -1919.15 1565.17 
-1857.1 -1919.52 1563.41 
-1854.68 -1920.82 1560.72 
-1853.39 -1921.19 1558.3 
-1855.08 -1920.98 1556.27 
-1855.57 -1920.74 1557.43 
-1856.07 -1920.58 1558.79 
-1850.02 -1921.34 1556.15 
-1851.22 -1921.37 1556.22 
-1853.08 -1921.11 1555.75 
-1849.11 -1921.07 1554.48 
-1847.1 -1921.03 1554.25 
-1845.89 -1920.86 1553.39 
-1844.94 -1920.38 1552.62 
-1842.36 -1917.73 1563.21 
-1842.45 -1917.38 1564.25 
-1840.22 -1917.23 1565.18 
-1841.23 -1917.04 1565.87 
-1841.55 -1916.7 1565.55 
-1842.37 -1917.09 1564.56 
-1842.18 -1916.97 1564.78 
-1841.5 -1919.6 1551.93 
-1842.29 -1918.85 1559.61 
-1840.65 -1918.24 1554.28 
-1841.76 -1918.6 1558.02 
-1840.63 -1918.88 1552.61 
-1838.77 -1916.32 1548.52 
-1840.33 -1918.07 1552.82 
-1839.51 -1917.15 1548.3 
-1839.27 -1916.95 1548.43 
-1838.6 -1916.2 1547.7 
-1842.26 -1919.89 1552.08 
-1843.72 -1920.11 1552.14 
-1842.51 -1919.71 1551.23 
-1863.58 -1915.35 1563.82 
-1864.17 -1915.52 1562.76 
-1864.59 -1915.44 1562.22 
-1865.87 -1915.11 1561.28 
-1860.28 -1917.61 1563.69 
-1834.36 -1910.94 1561.01 
-1835.81 -1912.08 1561.09 
-1832.25 -1909.61 1561.51 
-1837.17 -1913.51 1562.85 
-1830.84 -1908.87 1562.33 
-1839.35 -1916.58 1564.63 
-1838.91 -1915.44 1564.62 
-1839.83 -1917.39 1564.72 
-1829.79 -1908.39 1562.33 
-1821.79 -1905.02 1562.08 
-1822.86 -1905.62 1562 
-1822.48 -1904.33 1559.4 
-1822.16 -1904.27 1559.54 
-1824.92 -1906.92 1562.54 
-1827.25 -1907.73 1562.48 
-1823.82 -1906.35 1562.39 
-1823.42 -1904.57 1559.17 
-1821.59 -1904.03 1559.82 
-1821.38 -1903.93 1560.03 
-1821.2 -1903.71 1560.24 
-1821.87 -1904.18 1559.66 
-1821.11 -1901.74 1558.12 
-1821.19 -1902.25 1558.06 
-1867.59 -1914.76 1557.82 
-1866.49 -1915.07 1559.8 
-1866.67 -1914.97 1558.42 
-1820.95 -1901.26 1558.08 
-1818.41 -1895.16 1548.73 
-1818.54 -1894.89 1548.23 
-1818.49 -1894.45 1548.32 
-1818.8 -1894.14 1547.35 
-1818.74 -1894.71 1547.55 
-1818.57 -1896.77 1549.1 
-1818.49 -1896.1 1548.83 
-1818.92 -1898.44 1549.24 
-1818.85 -1898.09 1548.85 
-1818.96 -1898.66 1550.2 
-1818.99 -1898.76 1549.31 
-1818.76 -1897.64 1548.85 
-1818.77 -1897.42 1548.61 
-1820.77 -1900.92 1557.21 
-1820.45 -1900.5 1555.77 
-1819.66 -1899.55 1552.58 
-1819.04 -1898.95 1549.93 
-1819.08 -1893.47 1546.73 
-1818.98 -1894.02 1546.83 
-1824.1 -1893.11 1542.68 
-1823.88 -1893.74 1542.54 
-1824.48 -1893.7 1542.13 
-1819.26 -1893.59 1546.33 
-1819.97 -1891.89 1546.28 
-1821.05 -1889.74 1546.56 
-1820.11 -1892.07 1546.03 
-1820.25 -1892.25 1545.73 
-1822.95 -1890.8 1544.74 
-1823.63 -1891.69 1543.69 
-1820.56 -1892.44 1545.37 
-1826.36 -1895.38 1540.51 
-1825.82 -1895.16 1540.82 
-1826.39 -1896.02 1541.02 
-1824.99 -1894.86 1541.46 
-1825.62 -1894.52 1540.87 
-1824.73 -1895.14 1541.62 
-1825.24 -1895.09 1541.28 
-1824.85 -1894.73 1541.55 
-1823.81 -1894.13 1542.38 
-1823.9 -1894.36 1542.14 
-1824.38 -1894.67 1541.78 
-1823.69 -1894.61 1542.1 
-1831.3 -1896.48 1537.45 
-1830.7 -1897.98 1538.72 
-1830.17 -1898.38 1539.31 
-1829.71 -1897.94 1540.09 
-1831.13 -1897.39 1538.15 
-1828.75 -1897.16 1540.64 
-1827.89 -1896.74 1541.04 
-1826.92 -1896.48 1541.3 
-1828.62 -1897.29 1541.05 
-1856.94 -1920.44 1559.86 
-1857.46 -1919.94 1561.03 
-1858.51 -1919.25 1561.65 
-1860.95 -1917.84 1562.42 
-1854.72 -1921.04 1555.1 
-1857.26 -1920.39 1556.53 
-1856.52 -1920.66 1555.05 
-1855.7 -1920.85 1553.59 
-1857.94 -1920.18 1557.82 
-1852.25 -1920.89 1552.73 
-1853.38 -1920.83 1552.6 
-1854.68 -1920.8 1551.8 
-1847.57 -1920.88 1553.51 
-1851.14 -1920.75 1551.78 
-1846.56 -1920.67 1552.84 
-1845.69 -1920.39 1552.03 
-1844.4 -1920.21 1551.62 
-1842.33 -1917.13 1563.72 
-1842.26 -1917.22 1562.73 
-1842.47 -1917.83 1561.84 
-1841.18 -1917.17 1565.61 
-1841.71 -1916.75 1565.14 
-1842.2 -1917.03 1563.94 
-1842.1 -1916.93 1564.3 
-1841.43 -1919.14 1550.74 
-1839.46 -1917.01 1547.59 
-1841.31 -1917.95 1556.93 
-1840.49 -1917.7 1554.57 
-1839.42 -1916.38 1550.47 
-1837.93 -1915.13 1547.81 
-1841.89 -1917.37 1560.07 
-1837.87 -1915.14 1547.22 
-1836.35 -1913.76 1545.07 
-1837.48 -1915.03 1544.75 
-1837.34 -1914.87 1544.99 
-1836.51 -1914 1544.65 
-1843.13 -1919.7 1550.82 
-1840.01 -1917.3 1547.22 
-1840.65 -1917.43 1547.24 
-1862.21 -1917.65 1560.75 
-1861.67 -1917.62 1561.52 
-1864.76 -1915.59 1561.08 
-1865.49 -1915.48 1559.79 
-1832.96 -1909.71 1560 
-1834.48 -1910.5 1559.23 
-1835.62 -1911.31 1559.3 
-1837.4 -1913.12 1561.4 
-1831.47 -1908.78 1560.79 
-1830.54 -1908.47 1561.47 
-1839.48 -1917.01 1564.43 
-1839.05 -1915.72 1564.48 
-1840.11 -1917.56 1564.7 
-1829.54 -1908.07 1561.73 
-1823.03 -1904.51 1559.27 
-1822.14 -1902.79 1556.54 
-1821.83 -1902.6 1556.49 
-1821.73 -1902.63 1556.93 
-1824.89 -1906.58 1562.06 
-1827.42 -1907.38 1561.94 
-1824.13 -1904.6 1558.83 
-1822.8 -1902.56 1555.18 
-1822.26 -1902.51 1555.47 
-1821.64 -1902.63 1557.26 
-1821.51 -1902.4 1557.19 
-1821.45 -1902.59 1557.68 
-1821.33 -1902.61 1557.99 
-1821.09 -1901.69 1557.23 
-1820.93 -1901.31 1557.16 
-1821.24 -1902.04 1557.26 
-1868.22 -1914.68 1556.91 
-1867.07 -1914.82 1556.76 
-1866.54 -1915.02 1557.35 
-1865.88 -1915.4 1558.53 
-1866.13 -1915.38 1557.42 
-1867.08 -1914.56 1555.61 
-1818.86 -1895.82 1548.08 
-1819.15 -1895.24 1547.44 
-1818.97 -1894.61 1546.85 
-1819.03 -1895.29 1546.85 
-1818.74 -1897.02 1548.21 
-1818.98 -1898.69 1548.64 
-1818.93 -1898.41 1548.53 
-1819 -1898.2 1548.1 
-1818.93 -1897.91 1548.21 
-1819.07 -1899.12 1549.19 
-1819.04 -1899 1548.76 
-1818.99 -1897.64 1547.96 
-1820.55 -1900.67 1555.86 
-1819.7 -1899.76 1552.14 
-1819.63 -1899.62 1552.15 
-1819.14 -1899.24 1549.85 
-1819.16 -1893.99 1546.48 
-1819.18 -1894.52 1546.41 
-1823.48 -1893.03 1543.2 
-1823.54 -1893.52 1542.89 
-1821.68 -1894.44 1543.76 
-1821.69 -1894.69 1543.73 
-1819.35 -1894.21 1546.1 
-1819.45 -1893.79 1545.94 
-1819.64 -1893.92 1545.54 
-1820.9 -1893 1545.06 
-1823.01 -1892 1544.06 
-1819.93 -1894.2 1545.32 
-1825.61 -1895.73 1541.39 
-1825.04 -1895.5 1541.52 
-1824.41 -1895.44 1541.86 
-1825.88 -1896.26 1542.27 
-1825.45 -1895.99 1542.15 
-1824.04 -1895.12 1541.95 
-1823.79 -1895.43 1542.23 
-1824.01 -1894.92 1541.94 
-1821.72 -1894.95 1543.7 
-1821.77 -1895.2 1543.68 
-1823.35 -1894.87 1542.24 
-1821.77 -1895.46 1543.71 
-1832.02 -1896.65 1537 
-1831.49 -1898.39 1538.05 
-1830.78 -1898.77 1538.69 
-1831.75 -1899.93 1538.3 
-1831.08 -1899.79 1539.01 
-1830.4 -1899.29 1539.82 
-1829.97 -1898.88 1540.58 
-1829.07 -1897.89 1540.9 
-1831.91 -1897.71 1537.5 
-1827.95 -1897.21 1541.73 
-1827.19 -1896.82 1541.93 
-1826.26 -1896.62 1542.48 
-1828.6 -1897.64 1541.75 
-1829.16 -1898.28 1541.66 
-1858.77 -1919.8 1559.04 
-1859.19 -1919.35 1560.2 
-1858.8 -1919.92 1556.34 
-1857.71 -1920.31 1554.88 
-1856.39 -1920.63 1553.19 
-1857.34 -1920.41 1553.36 
-1855.59 -1920.68 1551.4 
-1859.75 -1919.5 1557.58 
-1853.95 -1920.68 1550.36 
-1853.09 -1920.73 1550.19 
-1855.24 -1920.69 1549.95 
-1849.75 -1920.52 1551.3 
-1846.94 -1920.24 1551.58 
-1852.62 -1920.59 1549.45 
-1846.01 -1920.04 1550.85 
-1844.11 -1919.71 1550.51 
-1841.93 -1917.09 1561.16 
-1841.92 -1916.91 1562 
-1842.15 -1917.07 1563.02 
-1841.39 -1917.41 1565.51 
-1841.36 -1916.63 1565.36 
-1841.91 -1916.81 1564.56 
-1842.03 -1916.96 1563.42 
-1841.93 -1916.87 1563.67 
-1839.07 -1916.52 1546.24 
-1837.54 -1914.79 1544.13 
-1840.76 -1917.04 1555.93 
-1837.48 -1914.52 1547.47 
-1835.48 -1913.09 1545.58 
-1835.74 -1913.34 1545.26 
-1840.39 -1915.28 1558.81 
-1840.19 -1915.17 1557.61 
-1835.68 -1913.51 1544.2 
-1835.61 -1913.37 1544.65 
-1836.8 -1913.81 1543.64 
-1836.64 -1914.16 1544.07 
-1835.97 -1913.74 1543.94 
-1841.23 -1917.34 1546.98 
-1838.71 -1915.52 1543.75 
-1838.11 -1915.11 1543.83 
-1839.12 -1915.49 1543.5 
-1862.84 -1917.46 1559.88 
-1860.34 -1919.37 1559.07 
-1864.73 -1915.88 1559.91 
-1865.21 -1915.77 1558.89 
-1833.33 -1908.97 1557.42 
-1834.42 -1909.56 1556.91 
-1832.12 -1908.64 1559.03 
-1835.2 -1909.97 1556.62 
-1837.04 -1911.93 1558.42 
-1840.42 -1915.48 1561.95 
-1840.3 -1915.45 1562.52 
-1838.72 -1914.87 1564.04 
-1830.86 -1907.91 1559.81 
-1829.8 -1907.72 1560.77 
-1839.61 -1917.4 1564.23 
-1839.18 -1916.16 1564.29 
-1840.36 -1917.72 1564.67 
-1821.86 -1902.32 1555.44 
-1821.47 -1901.84 1554.88 
-1821.49 -1902.15 1555.71 
-1821.4 -1902.29 1556.43 
-1827.52 -1906.89 1561.18 
-1825.06 -1905.06 1559.27 
-1823.83 -1902.97 1555.51 
-1822.68 -1901.75 1550.76 
-1821.97 -1901.57 1551.32 
-1822.3 -1901.61 1550.85 
-1821.51 -1901.43 1551.43 
-1821.27 -1902.14 1556.81 
-1820.99 -1901.54 1556.33 
-1820.69 -1900.93 1555.88 
-1866.35 -1914.93 1556.1 
-1866.06 -1915.3 1556.42 
-1865.47 -1915.75 1557.82 
-1865.73 -1915.69 1556.69 
-1867.37 -1913.31 1553.21 
-1867.26 -1913.75 1554.17 
-1866.97 -1914.13 1554.47 
-1819.01 -1896.93 1547.33 
-1819.17 -1896.46 1546.64 
-1819.27 -1895.19 1546.42 
-1819.31 -1895.99 1546.44 
-1819 -1898.87 1548.51 
-1818.99 -1898.49 1548.2 
-1819.22 -1898.05 1547.63 
-1819.11 -1898.21 1547.67 
-1819.16 -1899.43 1549.36 
-1819.1 -1899.33 1548.9 
-1819.05 -1899.19 1548.66 
-1819.23 -1897.7 1547.47 
-1819.72 -1899.85 1551.87 
-1819.42 -1894.93 1546.05 
-1821.68 -1894.08 1543.85 
-1821.6 -1893.78 1544.11 
-1823.4 -1892.48 1543.57 
-1821.37 -1893.59 1544.48 
-1820.11 -1895.82 1544.75 
-1820.3 -1895.21 1544.64 
-1820.25 -1896.06 1544.67 
-1819.55 -1894.32 1545.71 
-1819.49 -1894.66 1545.82 
-1819.76 -1894.46 1545.34 
-1821.07 -1893.36 1544.83 
-1820.31 -1894.46 1545.21 
-1820.03 -1894.57 1545.07 
-1824.79 -1895.97 1542.46 
-1825.01 -1895.72 1541.86 
-1824.48 -1895.88 1542.25 
-1824.23 -1895.72 1542.14 
-1823.52 -1895.79 1542.63 
-1825.03 -1896.15 1542.83 
-1825.61 -1896.38 1542.94 
-1823.2 -1895.15 1542.43 
-1823.16 -1895.41 1542.63 
-1822.99 -1895.73 1542.96 
-1820.26 -1896.36 1544.7 
-1820.39 -1896.49 1544.65 
-1821.66 -1895.76 1543.88 
-1820.55 -1896.61 1544.6 
-1832.78 -1896.94 1536.48 
-1832.15 -1899.75 1537.51 
-1832.9 -1901.59 1538.44 
-1833.37 -1901.56 1537.64 
-1832.26 -1901.27 1539.1 
-1831.21 -1900.41 1539.8 
-1830.65 -1899.92 1540.55 
-1829.62 -1898.85 1541.72 
-1830.1 -1899.46 1541.57 
-1832.85 -1898.52 1536.82 
-1827.19 -1897.08 1542.45 
-1827.86 -1897.44 1542.35 
-1826.53 -1896.83 1542.82 
-1825.96 -1896.66 1543.18 
-1828.84 -1898.2 1542.58 
-1828.33 -1897.77 1542.6 
-1829.62 -1899.68 1544.83 
-1859.08 -1919.81 1554.78 
-1860.12 -1919.4 1556.21 
-1858.39 -1920.18 1553.49 
-1856.3 -1920.41 1551.69 
-1857.83 -1920.01 1552.05 
-1855.8 -1920.48 1550.02 
-1860.92 -1918.92 1556.87 
-1861.18 -1918.9 1558.08 
-1854.22 -1920.62 1549.39 
-1853.29 -1920.48 1548.9 
-1854.93 -1920.4 1548.85 
-1850.51 -1920.38 1550.01 
-1848.38 -1920.08 1550.17 
-1852.91 -1920.37 1548.29 
-1852.25 -1920.34 1548.45 
-1845.59 -1919.55 1549.91 
-1841.71 -1917.22 1546.7 
-1840.02 -1914.86 1559.09 
-1841.9 -1916.9 1562.47 
-1840.8 -1915.73 1560.77 
-1840.61 -1915.59 1561.45 
-1841.47 -1917.61 1565.32 
-1841.34 -1916.78 1565.33 
-1841.57 -1916.64 1564.81 
-1841.84 -1916.79 1563.92 
-1841.81 -1916.83 1562.77 
-1841.74 -1916.78 1563.06 
-1837.25 -1913.53 1542.9 
-1836.83 -1913.45 1543.15 
-1839.91 -1915.79 1554.45 
-1839.66 -1916.32 1551.46 
-1837.34 -1914.3 1547.64 
-1835.11 -1912.74 1545.8 
-1834.73 -1912.67 1544.61 
-1834.4 -1912.36 1544.96 
-1834.83 -1912.84 1544.2 
-1837.28 -1911.61 1554.27 
-1837.64 -1912.27 1553.62 
-1834.95 -1912.9 1543.74 
-1835.25 -1912.91 1543.47 
-1836.36 -1913.5 1542.96 
-1836.16 -1913.59 1543.39 
-1835.74 -1913.25 1543.4 
-1839.44 -1915.41 1543.25 
-1838.32 -1914.11 1542.32 
-1837.8 -1913.86 1542.68 
-1838.63 -1914.04 1541.93 
-1863.07 -1917.29 1558.89 
-1864.77 -1916.13 1558.51 
-1831.42 -1905.98 1554.41 
-1832.58 -1906.45 1553.39 
-1831.26 -1904.65 1551.87 
-1832.71 -1906.03 1552.19 
-1830.8 -1905.79 1555.19 
-1834.09 -1907.8 1553.43 
-1837.64 -1912.4 1558.01 
-1835.2 -1909.35 1554.17 
-1840.49 -1915.73 1563.05 
-1838.95 -1915.42 1564.07 
-1829.63 -1906.7 1558.82 
-1829.78 -1904.88 1554.65 
-1840.09 -1917.88 1564.28 
-1839.34 -1916.67 1564.08 
-1821.12 -1901.17 1551.12 
-1820.82 -1900.93 1551.03 
-1820.53 -1900.74 1551.15 
-1820.89 -1901.37 1554.87 
-1820.99 -1901.61 1555.75 
-1827.32 -1905.03 1557.34 
-1823.43 -1902.03 1551.81 
-1825.07 -1903.48 1555.93 
-1821.99 -1901.82 1547.47 
-1821.39 -1901.52 1547.38 
-1821.32 -1901.37 1547.82 
-1820.76 -1901.04 1547.95 
-1820.28 -1900.72 1548.01 
-1820.57 -1900.79 1554.55 
-1820.55 -1900.73 1554.88 
-1819.76 -1899.92 1551.59 
-1866.14 -1914.92 1555.29 
-1865.83 -1915.44 1555.74 
-1865.12 -1916.09 1557.31 
-1865.43 -1915.97 1556.28 
-1865.63 -1911.22 1547.54 
-1866.82 -1913.04 1552.73 
-1866.86 -1913.67 1553.48 
-1866.29 -1914.45 1554.2 
-1866.59 -1914.02 1553.69 
-1819.36 -1897.33 1546.8 
-1819.52 -1896.86 1546.4 
-1819.62 -1896.15 1546.18 
-1819.69 -1895.64 1546 
-1819.07 -1899.02 1548.28 
-1819.06 -1898.69 1548.08 
-1819.11 -1898.39 1547.62 
-1819.47 -1897.97 1547.09 
-1819.34 -1898.11 1547.18 
-1819.26 -1898.18 1547.12 
-1819.23 -1899.59 1549.05 
-1819.12 -1899.45 1548.7 
-1819.1 -1899.39 1548.48 
-1819.73 -1895.24 1545.72 
-1820.34 -1894.75 1544.67 
-1820.39 -1894.42 1544.79 
-1819.94 -1895.65 1545.01 
-1819.97 -1896.12 1545.16 
-1820.01 -1896.33 1544.95 
-1820.09 -1896.63 1544.9 
-1819.72 -1894.84 1545.51 
-1819.84 -1895.05 1545.28 
-1819.94 -1895.12 1545.04 
-1823.92 -1896.18 1543 
-1824.2 -1896.28 1543.2 
-1823.67 -1896.03 1542.74 
-1821.98 -1896.68 1543.53 
-1822.21 -1896.98 1543.38 
-1824.96 -1896.36 1543.34 
-1824.32 -1896.41 1543.5 
-1825.29 -1896.51 1543.57 
-1821.57 -1896 1543.94 
-1821.57 -1896.19 1543.86 
-1821.59 -1896.34 1543.71 
-1820.19 -1896.83 1544.82 
-1820.36 -1896.91 1544.74 
-1820.72 -1896.8 1544.53 
-1820.54 -1897.03 1544.68 
-1833.6 -1897.68 1535.89 
-1834.2 -1896.38 1534.95 
-1833.87 -1901.35 1536.67 
-1833.14 -1902.41 1538.92 
-1833.67 -1902.48 1538.07 
-1834.1 -1902.21 1537.22 
-1832.26 -1901.69 1539.74 
-1831.43 -1900.96 1540.52 
-1830.63 -1900.18 1541.32 
-1829.89 -1899.99 1544.84 
-1829.97 -1899.82 1544 
-1830.41 -1900.37 1543.59 
-1834.01 -1900.09 1536.13 
-1827.19 -1897.28 1542.88 
-1826.56 -1897.05 1543.25 
-1827.67 -1897.51 1542.81 
-1828.27 -1898.05 1544.12 
-1826.01 -1896.88 1543.63 
-1825.58 -1896.71 1543.8 
-1828.68 -1898.32 1543.92 
-1829.65 -1900.32 1546.29 
-1830.97 -1903.15 1549.37 
-1859.88 -1919.46 1553.64 
-1860.36 -1919.34 1554.93 
-1861.13 -1918.95 1555.69 
-1859.03 -1919.86 1552.29 
-1856.05 -1920.23 1550.28 
-1856.98 -1920.03 1550.85 
-1858.73 -1919.52 1551.23 
-1855.44 -1920.12 1549.03 
-1861.67 -1918.42 1556.86 
-1853.8 -1920.27 1548.17 
-1853.34 -1920.32 1547.87 
-1854.38 -1920.08 1548 
-1850.13 -1920.02 1548.95 
-1852.73 -1920.25 1547.7 
-1852.04 -1920.04 1547.59 
-1842.26 -1917.24 1546.61 
-1848.67 -1919.56 1548.73 
-1839.68 -1915.26 1542.91 
-1838.21 -1912.85 1557.72 
-1836.44 -1910.98 1554.85 
-1841.51 -1917.78 1565.12 
-1841.33 -1916.74 1565.1 
-1841.71 -1916.69 1564.28 
-1841.67 -1916.72 1563.39 
-1837.15 -1913.38 1542.27 
-1836.7 -1913.39 1542.62 
-1838.82 -1914.63 1553.25 
-1837.16 -1914.12 1548.12 
-1834.79 -1912.43 1546.15 
-1833.98 -1912.09 1545.39 
-1834.05 -1912.18 1543.71 
-1833.67 -1912.09 1544.25 
-1833.09 -1911.89 1544.79 
-1834.38 -1912.3 1543.48 
-1835.22 -1908.53 1551.42 
-1834.49 -1907.62 1551.41 
-1835.79 -1909.35 1551.21 
-1834.6 -1912.2 1543.2 
-1835.37 -1912.62 1543.02 
-1834.83 -1912.13 1542.93 
-1836.25 -1913.2 1542.42 
-1835.88 -1913.07 1542.87 
-1838.93 -1914.21 1541.89 
-1837.94 -1913.49 1541.58 
-1837.63 -1913.42 1541.97 
-1838.19 -1913.62 1541.34 
-1863.23 -1917.26 1557.91 
-1863.62 -1917.25 1557.12 
-1830.08 -1902.74 1550.03 
-1831.8 -1904.06 1549.3 
-1831.15 -1902.82 1548.11 
-1829.61 -1902.85 1550.77 
-1832.32 -1904.8 1549.72 
-1833.5 -1906.37 1550.89 
-1840.53 -1915.85 1563.33 
-1839.05 -1915.98 1563.74 
-1828.96 -1902.91 1551.5 
-1839.52 -1917.28 1563.86 
-1840.28 -1918.08 1564.17 
-1820.15 -1900.51 1548.33 
-1820.3 -1900.52 1550.99 
-1819.63 -1900.05 1548.49 
-1819.75 -1900.26 1548.09 
-1820.14 -1900.34 1551.31 
-1826.51 -1903.58 1554.5 
-1828.33 -1903.06 1552.17 
-1823.67 -1901.94 1551.32 
-1821.67 -1901.66 1547.05 
-1822.06 -1901.55 1547.52 
-1821.19 -1901.48 1546.89 
-1820.72 -1901.18 1547.18 
-1820.89 -1901.21 1547.55 
-1820.33 -1900.86 1547.52 
-1819.95 -1900.47 1547.74 
-1819.87 -1900.05 1551.3 
-1819.52 -1899.78 1549.19 
-1866.06 -1914.94 1554.53 
-1865.87 -1915.34 1554.95 
-1865.61 -1915.77 1555.47 
-1864.07 -1917.23 1556.3 
-1864.3 -1917.08 1555.49 
-1865.73 -1911.7 1549.32 
-1866.41 -1913.21 1552.41 
-1865.17 -1911.04 1547.09 
-1862.94 -1909.96 1542.09 
-1862.17 -1910.05 1542.48 
-1863.39 -1910.46 1543.46 
-1866.25 -1914.12 1553.31 
-1866.23 -1913.59 1552.48 
-1866.04 -1914.55 1553.59 
-1819.66 -1897.71 1546.59 
-1819.79 -1897.08 1546.26 
-1819.93 -1896.46 1545.94 
-1819.93 -1895.94 1545.69 
-1819.15 -1898.7 1547.7 
-1819.24 -1899.03 1547.62 
-1819.2 -1899.32 1548.02 
-1819.22 -1898.41 1547.2 
-1819.58 -1898.01 1546.68 
-1819.51 -1898.07 1546.6 
-1819.35 -1898.17 1546.69 
-1819.2 -1899.64 1548.59 
-1819.22 -1899.63 1548.3 
-1819.29 -1899.6 1548.02 
-1819.87 -1895.44 1545.49 
-1819.9 -1895.63 1545.29 
-1820.13 -1896.04 1545.35 
-1820.07 -1896.54 1545.15 
-1820.03 -1896.4 1545.34 
-1820.19 -1896.88 1545.12 
-1822.63 -1897.43 1544.03 
-1822.41 -1897.23 1543.62 
-1822.86 -1897.66 1544.41 
-1821.18 -1897.21 1544 
-1821.26 -1897.63 1543.91 
-1821.41 -1897.9 1544.09 
-1824.72 -1896.77 1544.1 
-1824.37 -1896.67 1543.94 
-1825.1 -1896.92 1544.33 
-1820.93 -1897.02 1544.3 
-1820.25 -1897.18 1544.92 
-1820.38 -1897.31 1544.8 
-1820.7 -1897.3 1544.54 
-1834.92 -1899.27 1534.85 
-1835.04 -1897.42 1534.45 
-1834.55 -1901.24 1536.04 
-1834.5 -1901.85 1536.39 
-1833.8 -1903.12 1538.41 
-1832.99 -1903.14 1539.57 
-1833.73 -1903.55 1538.86 
-1834.12 -1902.85 1537.78 
-1834.48 -1902.44 1537 
-1832.37 -1902.57 1540.3 
-1831.37 -1901.26 1541.34 
-1832.03 -1902.12 1540.85 
-1830.89 -1900.94 1542.85 
-1831.38 -1902.77 1546.97 
-1835.02 -1900.55 1535.43 
-1827.89 -1897.75 1544.3 
-1827.48 -1897.41 1544.59 
-1826.82 -1897.22 1543.33 
-1826.54 -1897.13 1543.82 
-1829.25 -1900.43 1547.32 
-1828.89 -1900.56 1547.94 
-1825.64 -1896.95 1544.32 
-1826.07 -1896.98 1544.15 
-1829.46 -1900.2 1546.66 
-1861.18 -1918.94 1554.65 
-1861.13 -1918.81 1553.67 
-1860.1 -1919.23 1552.28 
-1861.93 -1918.42 1555.77 
-1856.17 -1919.99 1549.45 
-1857.23 -1919.84 1550.04 
-1858.61 -1919.3 1550.17 
-1860.07 -1918.94 1551.1 
-1855.09 -1919.93 1548.29 
-1853.87 -1920.15 1547.45 
-1853.27 -1920.27 1547.4 
-1854.39 -1919.94 1547.36 
-1852.61 -1919.99 1547.03 
-1852.01 -1919.76 1546.89 
-1850.5 -1919.61 1547.68 
-1844.44 -1918.13 1547.79 
-1841.22 -1916.14 1544.65 
-1839.57 -1914.8 1542.11 
-1838.87 -1914.08 1541.52 
-1841.65 -1917.99 1564.98 
-1841.45 -1917.02 1564.98 
-1841.37 -1916.54 1564.67 
-1841.59 -1916.64 1563.84 
-1837.2 -1913.44 1541.74 
-1836.72 -1913.35 1542.06 
-1838.47 -1914.28 1551.93 
-1836.22 -1910.1 1551.04 
-1836.93 -1913.92 1548.47 
-1834.54 -1912.34 1546.71 
-1833.65 -1911.93 1545.87 
-1832.74 -1911.81 1545.37 
-1833.62 -1911.49 1543.47 
-1834.01 -1911.5 1543.13 
-1833.18 -1911.54 1544.1 
-1832.75 -1911.17 1544.31 
-1832.5 -1911.37 1544.87 
-1833.29 -1905.8 1549.07 
-1833.75 -1906.33 1548.75 
-1832.54 -1904.86 1548.3 
-1834.32 -1907.13 1549.01 
-1834.25 -1911.43 1542.78 
-1835.45 -1912.35 1542.59 
-1835.04 -1911.87 1542.61 
-1834.59 -1911.4 1542.6 
-1835.82 -1912.57 1542.4 
-1836.62 -1912.91 1541.74 
-1836.27 -1912.72 1542.24 
-1837.51 -1913.52 1541.42 
-1837.75 -1913.5 1541.02 
-1838.15 -1913.72 1541.12 
-1832.09 -1904.13 1547.95 
-1840.52 -1915.97 1563.5 
-1839.51 -1917.38 1563.54 
-1839.11 -1916.29 1563.4 
-1828.18 -1900.23 1548.02 
-1828.41 -1899.61 1547.03 
-1840.44 -1918.25 1564.09 
-1819.72 -1899.94 1549.07 
-1819.27 -1899.78 1548.33 
-1819.42 -1899.95 1547.98 
-1819.63 -1900.16 1547.66 
-1827.44 -1902.93 1552.43 
-1824.47 -1902.07 1551.65 
-1827.77 -1901.35 1549.72 
-1821.98 -1901.27 1547.4 
-1821.32 -1901.31 1546.84 
-1822.03 -1901.06 1547.81 
-1820.94 -1901.32 1546.5 
-1820.75 -1901.18 1546.76 
-1820.3 -1900.89 1547.04 
-1820.08 -1900.63 1547.33 
-1819.81 -1900.35 1547.29 
-1865.94 -1915.08 1554.03 
-1865.74 -1915.57 1554.61 
-1864.3 -1916.79 1554.68 
-1862.17 -1918.42 1554.84 
-1862.33 -1918.18 1554.04 
-1859.52 -1909.12 1540.02 
-1853.84 -1908.3 1537.36 
-1858.9 -1909.35 1540.57 
-1855.37 -1907.59 1536.06 
-1851.18 -1907.94 1535.81 
-1865.52 -1911.85 1549.73 
-1864.82 -1911.12 1547.43 
-1863.02 -1910.51 1543.71 
-1862.46 -1910.58 1543.78 
-1863.52 -1910.6 1544.61 
-1858.29 -1909.59 1541.13 
-1861.77 -1910.25 1542.89 
-1865.97 -1914.15 1552.72 
-1865.86 -1913.13 1551.62 
-1865.83 -1914.77 1553.18 
-1852.76 -1909.08 1538.81 
-1819.81 -1897.76 1546.31 
-1819.92 -1897.18 1545.99 
-1820.04 -1896.56 1545.66 
-1819.32 -1898.78 1547.12 
-1819.4 -1899.5 1547.41 
-1819.47 -1899.28 1546.93 
-1819.35 -1898.45 1546.72 
-1819.64 -1898.03 1546.24 
-1819.82 -1897.89 1546.16 
-1819.47 -1898.15 1546.29 
-1819.42 -1899.86 1547.86 
-1819.49 -1899.76 1547.43 
-1820.11 -1896.75 1545.42 
-1820.24 -1897.39 1545.2 
-1820.13 -1897.41 1545.49 
-1821.46 -1898.17 1544.62 
-1821.47 -1898.41 1545.09 
-1823.14 -1897.88 1544.8 
-1821.51 -1898.6 1545.28 
-1821.63 -1898.75 1545.37 
-1820.97 -1897.47 1544.22 
-1820.94 -1897.83 1544.52 
-1821.13 -1897.96 1544.57 
-1821.21 -1898.18 1544.94 
-1823.35 -1898.09 1545.12 
-1823.54 -1898.28 1545.45 
-1825.31 -1897.35 1544.86 
-1820.32 -1897.54 1544.99 
-1820.47 -1897.6 1544.79 
-1820.7 -1897.73 1544.63 
-1836.59 -1897.77 1533.21 
-1836.27 -1896.57 1533.22 
-1835.97 -1898.82 1534.08 
-1835.61 -1899.72 1534.69 
-1835.15 -1901.22 1535.69 
-1835.12 -1901.79 1536.03 
-1834.05 -1903.4 1538.26 
-1832.84 -1903.73 1540.27 
-1833.62 -1903.97 1539.39 
-1833.96 -1903.92 1538.82 
-1834.4 -1903.06 1537.57 
-1834.82 -1902.57 1536.73 
-1832.25 -1903.31 1541.09 
-1831.82 -1902.56 1541.85 
-1831.37 -1901.76 1542.94 
-1831.43 -1902.38 1545.33 
-1835.72 -1900.54 1534.96 
-1827.14 -1897.41 1544.83 
-1826.93 -1898.4 1546.34 
-1826.95 -1897.55 1545.63 
-1825.77 -1897.7 1545.35 
-1826.35 -1897.99 1545.82 
-1861.62 -1918.41 1552.92 
-1860.95 -1918.65 1552.02 
-1855.83 -1919.82 1548.56 
-1856.72 -1919.88 1549.06 
-1857.83 -1919.52 1549.31 
-1859.24 -1918.9 1549.87 
-1860.53 -1918.53 1550.64 
-1861.55 -1918.26 1551.88 
-1855.03 -1919.77 1547.66 
-1853.85 -1920.09 1546.97 
-1853.16 -1919.91 1546.67 
-1854.79 -1919.74 1546.96 
-1854.37 -1919.91 1546.76 
-1852.57 -1919.68 1546.39 
-1849.08 -1918.99 1547.26 
-1851.94 -1919.5 1546.45 
-1843.37 -1917.06 1546.47 
-1841.63 -1916.02 1544.46 
-1840.27 -1915.32 1542.72 
-1839.53 -1914.61 1541.59 
-1838.83 -1914.19 1541.34 
-1841.78 -1918.22 1564.84 
-1841.57 -1917.28 1564.84 
-1841.28 -1916.59 1564.65 
-1841.44 -1916.53 1564.08 
-1837.29 -1913.11 1540.89 
-1836.98 -1912.95 1541.16 
-1837.89 -1913.67 1551.13 
-1836.36 -1910.36 1550.67 
-1834.71 -1907.73 1549.08 
-1836.86 -1913.7 1548.7 
-1834.56 -1912.61 1547.58 
-1833.57 -1911.98 1546.57 
-1832.57 -1911.75 1545.92 
-1832.17 -1911.33 1545.41 
-1833.48 -1910.79 1542.99 
-1833.06 -1910.96 1543.64 
-1833.8 -1910.77 1542.64 
-1832.8 -1910.39 1543.73 
-1832.54 -1910.55 1544.32 
-1832.3 -1910.69 1544.88 
-1832.77 -1905.13 1547.33 
-1833.73 -1906.3 1547.53 
-1833.12 -1905.7 1546.68 
-1832.02 -1903.64 1546.11 
-1832.3 -1903.99 1545.98 
-1834.14 -1906.87 1547.77 
-1834.27 -1910.64 1542.56 
-1835.65 -1911.84 1542.54 
-1835.24 -1911.29 1542.62 
-1834.8 -1910.82 1542.62 
-1836.17 -1912.16 1542.37 
-1836.57 -1912.19 1541.4 
-1836.8 -1912.24 1540.78 
-1837.64 -1912.76 1540.13 
-1838.09 -1912.95 1540.13 
-1838.3 -1913.55 1540.68 
-1840.53 -1916.1 1563.57 
-1839.62 -1917.72 1563.36 
-1839.15 -1916.55 1563.07 
-1827.76 -1899.39 1547.08 
-1840.7 -1918.42 1564.07 
-1819.62 -1900.01 1547.29 
-1826.81 -1902.67 1552.3 
-1827.26 -1901.53 1550.21 
-1824.8 -1901.86 1551.29 
-1821.28 -1900.79 1547.03 
-1821.61 -1900.77 1547.33 
-1821.04 -1900.88 1546.64 
-1821.93 -1900.67 1547.83 
-1820.51 -1901.15 1546.28 
-1820.85 -1900.84 1546.18 
-1820.3 -1900.92 1546.6 
-1820.02 -1900.57 1546.87 
-1819.8 -1900.15 1546.87 
-1865.77 -1915.36 1553.8 
-1864.44 -1916.51 1553.73 
-1862.47 -1917.81 1553.08 
-1849.23 -1908.94 1537.64 
-1851.78 -1907.06 1533.9 
-1848.44 -1908.57 1536.71 
-1850.85 -1906.98 1533.75 
-1863.17 -1910.87 1544.87 
-1852.26 -1909.59 1539.56 
-1857.84 -1909.85 1541.61 
-1865.74 -1914.03 1552.06 
-1865.61 -1915.17 1553.11 
-1865.63 -1914.69 1552.56 
-1847.34 -1908.47 1536.78 
-1849.32 -1907.14 1534.17 
-1820.02 -1897.37 1545.78 
-1819.51 -1899 1546.46 
-1819.62 -1899.73 1546.85 
-1819.62 -1899.5 1546.42 
-1819.42 -1898.59 1546.29 
-1819.76 -1897.99 1545.92 
-1819.94 -1897.87 1545.85 
-1819.63 -1898.21 1545.95 
-1820.18 -1897.79 1545.23 
-1820.05 -1897.84 1545.54 
-1821.1 -1898.47 1545.18 
-1821.05 -1898.76 1545.2 
-1821.63 -1899.15 1545.54 
-1821.25 -1899.02 1545.36 
-1820.53 -1898.01 1544.94 
-1820.7 -1898.16 1545 
-1820.81 -1898.37 1545.07 
-1821.68 -1899.55 1545.92 
-1823.81 -1898.5 1545.85 
-1821.81 -1899.54 1546.29 
-1824.04 -1898.86 1546.37 
-1820.47 -1897.8 1544.83 
-1836.72 -1898.96 1533.4 
-1836.37 -1899.93 1534.19 
-1835.67 -1901.07 1535.27 
-1835.26 -1902.17 1536.13 
-1835.62 -1901.56 1535.55 
-1834.25 -1903.67 1538.17 
-1833.51 -1904.36 1539.9 
-1833.06 -1904.42 1540.68 
-1833.84 -1904.39 1539.41 
-1834.14 -1904.24 1538.78 
-1834.67 -1903.27 1537.4 
-1835.03 -1902.79 1536.65 
-1832.34 -1903.98 1541.51 
-1831.83 -1903.28 1543.68 
-1831.98 -1903.7 1542.82 
-1832.32 -1904.41 1542.08 
-1836.25 -1900.6 1534.58 
-1827.03 -1900.37 1548.66 
-1825.98 -1898.92 1546.78 
-1856.02 -1919.69 1548.11 
-1857.21 -1919.6 1548.67 
-1858.53 -1919.09 1548.95 
-1859.84 -1918.48 1549.57 
-1861.55 -1918.07 1551.04 
-1860.84 -1918.08 1549.94 
-1862.45 -1917.58 1552.16 
-1855.33 -1919.58 1547.29 
-1853.88 -1919.82 1546.42 
-1853.28 -1919.66 1546.24 
-1854.94 -1919.44 1546.38 
-1854.48 -1919.63 1546.23 
-1852.83 -1919.49 1545.98 
-1852.32 -1919.38 1545.96 
-1849.24 -1918.71 1546.79 
-1844.04 -1916.84 1546.1 
-1851.54 -1919.17 1546.12 
-1841.87 -1915.84 1544.02 
-1840.36 -1915.13 1542.23 
-1840.1 -1914.77 1541.57 
-1839.41 -1914.06 1540.81 
-1838.86 -1913.75 1540.68 
-1841.84 -1918.44 1564.61 
-1841.71 -1917.58 1564.72 
-1841.4 -1916.91 1564.57 
-1841.25 -1916.47 1564.25 
-1837.21 -1912.29 1539.91 
-1836.9 -1912.15 1540.07 
-1837.38 -1912.76 1550.5 
-1836.19 -1910.13 1550.13 
-1834.92 -1908.08 1548.85 
-1834.36 -1907.32 1547.52 
-1836.81 -1913.29 1548.84 
-1834.56 -1912.75 1548.18 
-1833.51 -1912.17 1547.31 
-1832.57 -1911.84 1546.61 
-1832.04 -1911.08 1545.78 
-1832.12 -1910.19 1545.08 
-1833.09 -1910.27 1543.07 
-1833.39 -1910 1542.54 
-1833.84 -1909.9 1542.31 
-1832.59 -1909.71 1543.83 
-1832.79 -1909.56 1543.25 
-1832.36 -1909.86 1544.43 
-1832.69 -1905.06 1545.91 
-1833.78 -1906.66 1546.39 
-1833.27 -1906.1 1545.55 
-1832.84 -1905.4 1545.08 
-1832.32 -1904.44 1544.21 
-1833.96 -1907.21 1545.93 
-1834.31 -1908.5 1540.14 
-1833.95 -1908.35 1540.61 
-1835.77 -1910.39 1540.87 
-1835.47 -1910.22 1541.24 
-1835.15 -1909.99 1541.49 
-1834.54 -1908.11 1539.21 
-1835.84 -1909.95 1539.76 
-1835.96 -1909.76 1539.11 
-1836.22 -1909.97 1538.83 
-1836.43 -1909.91 1538.28 
-1837.66 -1911.84 1539.08 
-1837.37 -1911.82 1539.26 
-1838.66 -1912.95 1539.9 
-1838.26 -1912.23 1539.26 
-1840.38 -1916.27 1563.53 
-1839.44 -1917.44 1562.95 
-1840.39 -1918.43 1563.78 
-1826.69 -1901.89 1551.01 
-1824.59 -1901.35 1550.38 
-1821.41 -1900.54 1547.18 
-1821.56 -1900.22 1546.97 
-1821.35 -1900.38 1546.69 
-1821.61 -1900.35 1547.34 
-1821.2 -1900.43 1546.33 
-1821.96 -1900.34 1547.81 
-1820.16 -1900.7 1546.09 
-1820.44 -1900.83 1545.87 
-1821.15 -1900.2 1545.89 
-1820.81 -1900.12 1545.71 
-1820.18 -1900.64 1546.41 
-1819.99 -1900.3 1546.49 
-1819.8 -1899.92 1546.48 
-1864.41 -1916.35 1552.95 
-1848.18 -1909.19 1537.97 
-1863.84 -1910.97 1545.91 
-1863.93 -1911.32 1546.33 
-1864.89 -1911.41 1548.24 
-1862.94 -1911.02 1544.97 
-1863.26 -1911.22 1545.61 
-1864.55 -1911.44 1547.75 
-1865.54 -1912.79 1550.53 
-1857.16 -1910.06 1541.84 
-1861.45 -1910.48 1543.34 
-1860.59 -1910.62 1543.4 
-1861.74 -1910.85 1544.14 
-1851.28 -1909.91 1539.95 
-1865.5 -1914.25 1551.74 
-1865.56 -1913.42 1551.1 
-1865.01 -1912.39 1549.09 
-1865.41 -1914.92 1552.33 
-1864.37 -1916.12 1552.25 
-1846.35 -1907.82 1535.94 
-1849.2 -1906.63 1533.39 
-1846.76 -1908.71 1537.15 
-1848.79 -1906.2 1532.82 
-1819.49 -1899.44 1546.16 
-1819.42 -1898.95 1546.11 
-1819.73 -1899.92 1546.21 
-1819.88 -1898.02 1545.6 
-1819.75 -1898.37 1545.68 
-1820.18 -1898 1545.17 
-1820.45 -1898.73 1545.02 
-1820.74 -1898.75 1545.09 
-1820.71 -1899.3 1545.3 
-1821.04 -1899.52 1545.51 
-1821.38 -1899.63 1545.68 
-1820.19 -1898.26 1544.98 
-1820.25 -1898.51 1544.93 
-1821.4 -1900.01 1546.06 
-1821.53 -1899.99 1546.4 
-1821.76 -1899.8 1546.66 
-1824.2 -1899.22 1546.92 
-1822.03 -1899.8 1547 
-1837.89 -1901.34 1532.17 
-1838.03 -1900.55 1532.02 
-1837.38 -1898.42 1532.36 
-1837.23 -1899.56 1533.04 
-1837.01 -1900.18 1533.74 
-1838.3 -1900 1531.92 
-1837.87 -1898.01 1531.88 
-1838.44 -1897.93 1531.7 
-1836.12 -1901.04 1534.9 
-1835.4 -1902.43 1536.16 
-1835.66 -1901.92 1535.7 
-1836.02 -1901.46 1535.18 
-1834.46 -1903.91 1538.05 
-1833.72 -1905.05 1540.04 
-1832.87 -1904.84 1541.29 
-1833.64 -1906.11 1540.57 
-1834.03 -1904.91 1539.39 
-1833.47 -1906.1 1538.86 
-1834.27 -1905.21 1539.1 
-1834.37 -1904.52 1538.58 
-1834.84 -1903.48 1537.31 
-1835.12 -1902.98 1536.67 
-1835.51 -1902.61 1536.16 
-1832.53 -1904.94 1542.91 
-1833.01 -1907.06 1542.33 
-1833.32 -1906.4 1541.45 
-1836.82 -1900.56 1534.1 
-1826.34 -1900.98 1549.68 
-1826.16 -1899.94 1548.11 
-1856.65 -1919.44 1547.99 
-1858.15 -1919.09 1548.47 
-1859.64 -1918.37 1548.98 
-1860.65 -1917.85 1549.07 
-1861.75 -1917.68 1550.55 
-1862.49 -1917.33 1551.49 
-1861.53 -1917.44 1549.74 
-1855.59 -1919.3 1546.96 
-1854 -1919.57 1546.08 
-1853.39 -1919.44 1545.91 
-1855.19 -1919.1 1545.98 
-1854.58 -1919.28 1545.74 
-1852.92 -1919.25 1545.59 
-1852.37 -1919.16 1545.53 
-1851.61 -1918.99 1545.76 
-1849.73 -1918.58 1546.3 
-1846.73 -1917.44 1546.34 
-1845.2 -1916.84 1545.86 
-1843.45 -1916.1 1545.37 
-1842.21 -1915.74 1543.61 
-1840.9 -1915.07 1542.11 
-1839.94 -1914.29 1540.85 
-1840.7 -1914.76 1541.49 
-1839.74 -1913.27 1539.94 
-1839.22 -1912.93 1539.7 
-1841.87 -1918.61 1564.42 
-1841.73 -1917.63 1564.53 
-1841.42 -1916.96 1564.36 
-1837.18 -1911.48 1538.58 
-1836.74 -1910.1 1537.92 
-1836.65 -1909.73 1537.75 
-1836.87 -1911.45 1550.02 
-1835.57 -1909.2 1549.12 
-1834.8 -1907.97 1547.95 
-1834.34 -1907.68 1546.49 
-1836.7 -1912.78 1548.43 
-1836.84 -1911.48 1549.54 
-1834.14 -1912.65 1548.49 
-1834.5 -1912.87 1549 
-1833.12 -1912.16 1547.76 
-1832.51 -1911.45 1546.83 
-1831.97 -1910.37 1545.72 
-1833.08 -1908.23 1544.37 
-1833.11 -1908.54 1545.01 
-1833 -1909.38 1542.75 
-1833.33 -1909.13 1542.49 
-1833.51 -1908.05 1541.4 
-1833.7 -1907.76 1540.47 
-1833.06 -1907.98 1543.82 
-1833.03 -1907.74 1543.32 
-1832.99 -1907.48 1542.84 
-1833.52 -1906.7 1544.74 
-1833.22 -1906.19 1544.22 
-1832.91 -1905.62 1543.81 
-1833.92 -1906.47 1536.25 
-1834.06 -1906.21 1535.73 
-1834.82 -1907.07 1537.43 
-1835.06 -1907.12 1537.49 
-1834.57 -1907.07 1537.54 
-1834.38 -1906.19 1535.65 
-1835.33 -1907.1 1537.36 
-1835.63 -1907.07 1536.98 
-1835.9 -1907.03 1536.53 
-1836.15 -1906.99 1536.13 
-1837.84 -1911.49 1538.59 
-1837.41 -1911.42 1538.38 
-1837.71 -1911.29 1538.17 
-1838.66 -1912.09 1538.91 
-1838.16 -1911.46 1538.46 
-1839.26 -1917.08 1562.6 
-1840.43 -1916.53 1563.33 
-1841.43 -1916.98 1564.17 
-1840.07 -1918.32 1563.42 
-1824.55 -1900.86 1549.57 
-1822.21 -1899.96 1547.37 
-1824.38 -1900.25 1548.5 
-1819.9 -1900.27 1546.12 
-1819.71 -1900.26 1545.79 
-1820.2 -1900.46 1545.47 
-1847.27 -1909.41 1538.07 
-1862.55 -1911.37 1545.16 
-1863.22 -1911.56 1545.92 
-1863.82 -1911.65 1546.46 
-1864.32 -1911.86 1547.55 
-1862.33 -1911.14 1544.76 
-1861.54 -1911.14 1544.39 
-1856.76 -1910.31 1542.11 
-1860.45 -1910.97 1543.52 
-1849.66 -1910.32 1539.99 
-1865.36 -1913.45 1550.62 
-1865.28 -1914.41 1551.44 
-1864.8 -1912.62 1548.87 
-1864.29 -1915.82 1551.56 
-1862.48 -1917.07 1550.74 
-1845.75 -1908.06 1536.29 
-1844.94 -1906.39 1534.2 
-1846.04 -1908.92 1537.28 
-1819.49 -1899.78 1545.95 
-1819.5 -1899.1 1545.78 
-1819.94 -1898.35 1545.35 
-1820.01 -1899.31 1544.96 
-1820.04 -1900.08 1545.07 
-1819.96 -1898.62 1545.2 
-1824.37 -1899.65 1547.57 
-1837.85 -1901.7 1532.52 
-1837.56 -1903.67 1531.14 
-1837.51 -1903.64 1531.27 
-1837.95 -1903.36 1531.07 
-1837.78 -1902.08 1532.64 
-1837.5 -1901.38 1533.62 
-1838.32 -1902.99 1531.01 
-1838.9 -1899.85 1531.88 
-1839.6 -1899.98 1531.69 
-1839.34 -1898.2 1531.53 
-1836.55 -1901.29 1534.68 
-1836.73 -1900.92 1534.33 
-1835.82 -1902.15 1535.69 
-1836.23 -1901.72 1535.16 
-1834.65 -1904.07 1537.92 
-1833.39 -1907.35 1541.3 
-1833.56 -1906.75 1539.65 
-1833.25 -1906.45 1537.96 
-1833.35 -1906.09 1538.48 
-1833.09 -1905.79 1536.37 
-1833.35 -1905.94 1538.24 
-1834.44 -1905.22 1538.83 
-1834.57 -1904.64 1538.35 
-1834.94 -1903.73 1537.36 
-1835.15 -1903.24 1536.8 
-1835.5 -1902.84 1536.27 
-1836.03 -1902.29 1535.59 
-1858.11 -1918.86 1548.19 
-1856.91 -1919.09 1547.64 
-1859.57 -1918.21 1548.58 
-1860.72 -1917.74 1548.69 
-1861.52 -1917.15 1549.12 
-1862.44 -1916.79 1550.05 
-1855.96 -1919 1546.74 
-1853.97 -1919.32 1545.79 
-1853.46 -1919.16 1545.51 
-1855.58 -1918.75 1545.81 
-1854.93 -1918.92 1545.52 
-1854.36 -1919.08 1545.65 
-1853.04 -1918.93 1545.15 
-1852.51 -1918.99 1545.26 
-1851.68 -1918.82 1545.47 
-1849.83 -1918.32 1545.88 
-1847.46 -1917.32 1546.01 
-1846.15 -1916.78 1545.77 
-1844.46 -1916.2 1545.37 
-1843.47 -1915.82 1544.74 
-1842.68 -1915.5 1543.1 
-1841.49 -1915.03 1542.03 
-1840.63 -1914.54 1540.97 
-1840.28 -1913.71 1540.2 
-1841.58 -1914.73 1541.65 
-1840.15 -1912.4 1539.16 
-1839.49 -1912.13 1538.7 
-1838.99 -1912.03 1538.6 
-1842.08 -1918.85 1564.3 
-1840.71 -1918.67 1563.74 
-1841.74 -1917.66 1564.35 
-1841.94 -1918.08 1564.28 
-1837.27 -1909.79 1537 
-1837.09 -1909.63 1537.15 
-1836.54 -1908.09 1536.41 
-1836.42 -1906.84 1535.77 
-1835.74 -1909.56 1548.82 
-1834.84 -1908.45 1547.09 
-1834.55 -1908.08 1546.51 
-1833.26 -1908.82 1545.36 
-1836.4 -1910.68 1548.66 
-1836.36 -1912.05 1547.68 
-1834.25 -1912.45 1548.82 
-1833.37 -1912.22 1548.45 
-1832.89 -1911.26 1547.44 
-1832.34 -1910.65 1546.54 
-1833.63 -1906.46 1536.78 
-1833.68 -1905.99 1535.61 
-1834.03 -1905.83 1535.2 
-1833.76 -1905.7 1535.07 
-1834.92 -1906.32 1535.73 
-1834.69 -1906.09 1535.43 
-1834.68 -1906.37 1535.84 
-1835.05 -1906.21 1535.55 
-1834.42 -1905.78 1534.9 
-1835.36 -1906.14 1535.24 
-1835.72 -1906.11 1534.98 
-1835.99 -1906.04 1534.73 
-1836.42 -1906.04 1534.66 
-1836.28 -1905.97 1534.47 
-1838.05 -1911.23 1538.21 
-1837.83 -1909.62 1536.7 
-1837.53 -1909.47 1536.64 
-1838.48 -1911.49 1538.35 
-1838.39 -1911.13 1538.14 
-1841.62 -1917.35 1564.04 
-1840.51 -1916.82 1563.04 
-1839.37 -1917.43 1562.43 
-1819.47 -1899.64 1545.61 
-1846.35 -1909.55 1537.9 
-1862.49 -1911.61 1545.41 
-1861.68 -1911.44 1544.77 
-1862.94 -1911.88 1545.89 
-1864.36 -1912.5 1547.94 
-1863.97 -1912.2 1547.05 
-1863.68 -1911.91 1546.54 
-1860.97 -1911.52 1543.93 
-1859.22 -1911.04 1543.38 
-1856.27 -1910.59 1542.42 
-1851.54 -1910.62 1541.15 
-1847.67 -1910.54 1539.7 
-1865.13 -1913.78 1550.4 
-1864.2 -1915.48 1550.83 
-1864.7 -1913.23 1549.06 
-1845.08 -1908.13 1536.52 
-1843.15 -1906.11 1534.14 
-1844.6 -1905.16 1532.24 
-1848.39 -1905.73 1532.18 
-1845.47 -1909.2 1537.25 
-1849.03 -1905.41 1531.59 
-1849.98 -1904.78 1530.72 
-1845.76 -1905.14 1531.88 
-1838.64 -1902.4 1531.14 
-1837.12 -1903.92 1531.22 
-1837.19 -1903.99 1531.42 
-1837.61 -1903.76 1531.32 
-1837.29 -1903.75 1531.41 
-1838.01 -1903.65 1531.11 
-1837.89 -1903.23 1532.07 
-1837.22 -1903.76 1531.61 
-1837.17 -1901.57 1534.15 
-1837.93 -1902.72 1532.76 
-1838.43 -1903.67 1530.73 
-1839.02 -1901.99 1531.19 
-1840.26 -1900.14 1531.47 
-1839.55 -1901.92 1531.09 
-1840.85 -1900.3 1531.26 
-1836.92 -1901.84 1534.55 
-1836.66 -1902.02 1534.92 
-1834.78 -1904.23 1537.88 
-1833.41 -1906.29 1536.64 
-1833.25 -1905.81 1536.1 
-1832.85 -1905.53 1536.28 
-1833.09 -1905.28 1535.53 
-1833.4 -1905.81 1538.11 
-1832.66 -1905.32 1536.27 
-1834.59 -1905.21 1538.6 
-1834.74 -1904.69 1538.14 
-1834.99 -1904.07 1537.53 
-1835.19 -1903.5 1536.92 
-1835.52 -1903.09 1536.37 
-1835.91 -1902.65 1535.83 
-1836.59 -1902.26 1535.11 
-1858.34 -1918.42 1547.88 
-1859.56 -1918.01 1548.2 
-1857.18 -1918.76 1547.34 
-1860.76 -1917.61 1548.35 
-1861.58 -1916.94 1548.71 
-1862.45 -1916.48 1549.42 
-1856.37 -1918.7 1546.57 
-1853.91 -1919 1545.47 
-1853.43 -1918.73 1544.98 
-1855.43 -1918.53 1545.37 
-1856.22 -1918.44 1545.91 
-1854.64 -1918.78 1545.52 
-1852.98 -1918.65 1544.84 
-1852.49 -1918.79 1545.1 
-1851.79 -1918.67 1545.22 
-1849.92 -1918.04 1545.52 
-1847.93 -1917.11 1545.55 
-1847.05 -1916.64 1545.5 
-1845.31 -1916.26 1545.34 
-1846.28 -1916.14 1545.05 
-1844.37 -1915.78 1544.74 
-1843.19 -1915.26 1542.87 
-1840.72 -1914.2 1540.36 
