-2030.34 -1714.56 2464 
-2030.56 -1714.73 2464.43 
-2031.6 -1714.63 2464.39 
-2030.32 -1714.36 2463.35 
-2030.13 -1714.19 2462.84 
-2031.69 -1714.19 2463.24 
-2031.99 -1714.31 2463.7 
-2031.35 -1714.99 2464.95 
-2031.9 -1715.14 2464.96 
-2030.13 -1714 2462.22 
-2033.57 -1714.11 2463.7 
-2033.07 -1714.49 2464.18 
-2031.71 -1713.98 2462.67 
-2031.57 -1713.83 2462.16 
-2033.7 -1713.87 2463.18 
-2033.37 -1713.76 2462.71 
-2032.33 -1715.35 2465.05 
-2033.76 -1714.6 2464.15 
-2032.45 -1715.76 2465.35 
-2029.58 -1713.9 2462.03 
-2030.75 -1713.67 2461.34 
-2029.55 -1713.71 2461.41 
-2031.65 -1713.65 2461.63 
-2032.62 -1716.22 2465.67 
-2028.59 -1713.74 2461.29 
-2031.03 -1713.52 2460.81 
-2029.56 -1713.66 2461.02 
-2034.52 -1714.21 2463.51 
-2034.34 -1714.04 2463.28 
-2033.07 -1713.67 2462.24 
-2032.83 -1713.58 2461.77 
-2034.14 -1713.89 2462.81 
-2033.94 -1713.75 2462.34 
-2034.4 -1714.75 2464.1 
-2035.09 -1714.4 2463.44 
-2034.2 -1715.1 2464.51 
-2031.95 -1713.5 2461.13 
-2032.95 -1713.46 2461.3 
-2033.3 -1716.32 2465.58 
-2034.29 -1715.36 2464.68 
-2030.4 -1713.64 2460.4 
-2031.1 -1713.53 2460.54 
-2029.86 -1713.73 2460.26 
-2032.19 -1713.41 2460.73 
-2032.22 -1713.43 2460.5 
-2034.87 -1714.25 2463.26 
-2034.65 -1714.1 2462.89 
-2033.76 -1713.62 2461.9 
-2033.7 -1713.53 2461.47 
-2034.43 -1713.94 2462.4 
-2034.24 -1713.78 2461.87 
-2035.52 -1714.76 2463.6 
-2035.51 -1714.59 2463.39 
-2035.35 -1714.45 2463.22 
-2035.46 -1714.99 2463.71 
-2033.18 -1713.33 2460.83 
-2033.77 -1713.39 2461.02 
-2033.77 -1716.61 2465.62 
-2034.4 -1715.84 2464.76 
-2034.96 -1715.34 2464.16 
-2031.37 -1713.55 2460.17 
-2030.77 -1713.72 2459.87 
-2032.1 -1713.47 2460.29 
-2028.79 -1713.79 2460.38 
-2030.53 -1713.83 2459.57 
-2032.1 -1713.55 2459.71 
-2032.18 -1713.5 2459.99 
-2033.23 -1713.32 2460.55 
-2033.2 -1713.35 2460.32 
-2035.16 -1714.29 2462.95 
-2034.97 -1714.09 2462.47 
-2034.21 -1713.54 2461.36 
-2034.75 -1713.87 2462.02 
-2034.76 -1713.6 2461.56 
-2035.69 -1714.79 2463.32 
-2035.56 -1714.64 2463.18 
-2035.51 -1714.45 2462.91 
-2035.82 -1715.07 2463.41 
-2033.84 -1713.23 2460.66 
-2034.31 -1713.21 2460.8 
-2034.11 -1717 2465.64 
-2034.64 -1716.35 2464.74 
-2035.02 -1715.79 2464.22 
-2035.62 -1715.32 2463.63 
-2033.08 -1713.39 2460.09 
-2030.36 -1713.91 2459.34 
-2032.12 -1713.61 2459.42 
-2033.09 -1713.46 2459.58 
-2033.05 -1713.43 2459.82 
-2033.91 -1713.24 2460.49 
-2033.95 -1713.27 2460.28 
-2035.49 -1714.1 2462.45 
-2035.28 -1713.8 2462 
-2034.71 -1713.32 2461.08 
-2035.31 -1713.45 2461.42 
-2035.71 -1714.81 2463.08 
-2035.8 -1714.95 2463.22 
-2035.72 -1714.62 2462.8 
-2035.79 -1714.36 2462.38 
-2035.96 -1715.13 2463.14 
-2034.38 -1713.15 2460.57 
-2034.89 -1713.07 2460.63 
-2034.29 -1717.56 2465.57 
-2034.88 -1716.84 2464.71 
-2035.28 -1716.29 2464.14 
-2035.61 -1715.73 2463.73 
-2036.05 -1715.33 2463.24 
-2033.76 -1713.32 2460.04 
-2030.21 -1713.98 2459.14 
-2031.99 -1713.72 2459.09 
-2033.09 -1713.5 2459.34 
-2033.8 -1713.39 2459.56 
-2033.74 -1713.35 2459.79 
-2031.33 -1713.94 2458.72 
-2029.5 -1714.28 2458.81 
-2034.44 -1713.18 2460.41 
-2034.57 -1713.2 2460.2 
-2035.77 -1714.01 2461.97 
-2035.64 -1713.68 2461.71 
-2035.2 -1713.17 2460.93 
-2035.7 -1713.17 2460.93 
-2035.79 -1713.47 2461.26 
-2035.95 -1714.77 2462.66 
-2035.99 -1714.97 2462.85 
-2036.05 -1714.58 2462.26 
-2036.09 -1714.24 2461.78 
-2036.31 -1715.05 2462.47 
-2036.21 -1715.25 2462.87 
-2034.88 -1713.09 2460.46 
-2035.4 -1713.01 2460.47 
-2035.54 -1712.97 2460.6 
-2034.76 -1717.77 2465.03 
-2035.46 -1716.84 2464.14 
-2035.88 -1716.2 2463.63 
-2036.17 -1715.58 2463.2 
-2034.4 -1713.24 2460 
-2032.78 -1713.68 2458.96 
-2033.6 -1713.54 2459.26 
-2034.5 -1713.27 2459.79 
-2034.32 -1713.42 2459.47 
-2032.2 -1713.9 2458.48 
-2030.44 -1714.33 2458.29 
-2032.6 -1713.98 2458.21 
-2030.84 -1714.48 2457.91 
-2031.94 -1714.36 2457.73 
-2032.07 -1714.83 2457.34 
-2031.8 -1714.66 2457.5 
-2034.89 -1713.13 2460.3 
-2035.07 -1713.17 2460.01 
-2035.19 -1713.12 2460.15 
-2034.54 -1718.71 2465.16 
-2035.98 -1713.82 2461.42 
-2035.94 -1713.16 2460.58 
-2036.05 -1713.49 2460.87 
-2036.24 -1714.83 2462.3 
-2036.35 -1714.62 2461.88 
-2036.26 -1713.95 2461.16 
-2036.41 -1714.3 2461.37 
-2036.54 -1714.9 2461.94 
-2036.64 -1715.11 2461.97 
-2036.47 -1715.23 2462.43 
-2036.38 -1715.44 2462.72 
-2035.33 -1713.06 2460.32 
-2035.67 -1713.19 2460.18 
-2035.79 -1713.13 2460.34 
-2035.64 -1717.36 2464.09 
-2035.95 -1716.74 2463.6 
-2036.2 -1716.05 2463.09 
-2033.28 -1713.72 2458.9 
-2034.12 -1713.6 2459.16 
-2034.95 -1713.31 2459.72 
-2034.82 -1713.5 2459.41 
-2033.29 -1713.99 2458.27 
-2033.52 -1713.8 2458.75 
-2033.42 -1714.14 2457.99 
-2032.16 -1715.13 2457.18 
-2033.56 -1714.44 2457.81 
-2032.25 -1715.44 2457.03 
-2035.31 -1713.35 2459.78 
-2035.44 -1713.33 2459.86 
-2035.54 -1713.24 2460.05 
-2033.38 -1715.22 2457.23 
-2033.59 -1715.48 2457.16 
-2033.46 -1715.87 2457.03 
-2032.92 -1716.45 2456.82 
-2034.48 -1719.51 2465.12 
-2035.53 -1718.14 2464.12 
-2036.04 -1713.32 2460.28 
-2036.21 -1713.45 2460.46 
-2036.29 -1713.73 2460.76 
-2036.65 -1714.67 2461.48 
-2036.52 -1714.08 2460.86 
-2036.68 -1714.4 2461.06 
-2036.81 -1714.91 2461.48 
-2036.79 -1715.1 2461.49 
-2036.72 -1715.29 2461.66 
-2036.56 -1715.34 2462.15 
-2036.44 -1715.59 2462.44 
-2035.84 -1713.5 2459.82 
-2035.95 -1713.42 2460.01 
-2035.9 -1717.47 2463.52 
-2036.09 -1716.83 2463.19 
-2036.29 -1716.27 2462.77 
-2034.16 -1713.75 2458.9 
-2034.73 -1713.68 2459.15 
-2035.28 -1713.5 2459.58 
-2035.28 -1713.71 2459.3 
-2034.1 -1713.92 2458.62 
-2034.34 -1714.11 2458.41 
-2033.69 -1714.77 2457.63 
-2034.64 -1714.34 2458.18 
-2035.56 -1713.56 2459.6 
-2035.7 -1713.52 2459.71 
-2034.67 -1714.7 2457.84 
-2034.66 -1714.94 2457.66 
-2033.91 -1715.94 2457.15 
-2034.39 -1715.29 2457.47 
-2032.94 -1716.73 2456.78 
-2034.64 -1720.04 2464.85 
-2035.65 -1718.57 2463.8 
-2036.2 -1713.58 2460.04 
-2036.4 -1713.66 2460.16 
-2036.46 -1713.79 2460.49 
-2036.84 -1714.73 2461.08 
-2036.67 -1714.14 2460.57 
-2036.78 -1714.46 2460.76 
-2036.88 -1714.97 2461.05 
-2036.88 -1715.21 2461.16 
-2036.8 -1715.42 2461.3 
-2036.62 -1715.49 2461.88 
-2036.48 -1715.93 2462.2 
-2035.99 -1713.77 2459.5 
-2036.14 -1713.71 2459.74 
-2036.1 -1717.3 2463 
-2036 -1717.91 2463.09 
-2036.3 -1716.71 2462.6 
-2034.59 -1713.86 2458.86 
-2035.07 -1713.89 2458.99 
-2035.57 -1713.67 2459.46 
-2035.56 -1713.96 2459.09 
-2035.71 -1713.87 2459.25 
-2034.75 -1714.04 2458.67 
-2034.99 -1714.19 2458.47 
-2035.33 -1714.37 2458.24 
-2035.82 -1713.83 2459.34 
-2035.82 -1713.73 2459.47 
-2035.42 -1714.49 2458.14 
-2035.28 -1714.67 2458.01 
-2034.18 -1716.06 2457.22 
-2034.79 -1715.22 2457.66 
-2033 -1716.95 2456.75 
-2032.89 -1717.27 2456.64 
-2034.91 -1720.44 2464.46 
-2035.65 -1719.15 2463.57 
-2036.4 -1713.86 2459.83 
-2036.62 -1713.89 2460.23 
-2036.63 -1713.95 2459.97 
-2036.84 -1714.79 2460.7 
-2036.77 -1714.49 2460.41 
-2036.7 -1714.21 2460.24 
-2036.89 -1715.08 2460.78 
-2036.92 -1715.3 2460.8 
-2036.66 -1715.7 2461.66 
-2036.94 -1715.48 2460.75 
-2036.81 -1715.61 2461.2 
-2036.49 -1716.45 2462.03 
-2036.23 -1713.93 2459.51 
-2036.07 -1713.96 2459.32 
-2036.44 -1714.04 2459.6 
-2036.28 -1717.23 2462.49 
-2036.22 -1717.79 2462.5 
-2035.97 -1718.6 2462.92 
-2035.31 -1714.12 2458.77 
-2035.82 -1714.17 2458.91 
-2035.93 -1714.09 2459.06 
-2036 -1714.04 2459.17 
-2035.47 -1714.28 2458.5 
-2035.62 -1714.4 2458.41 
-2035.64 -1714.49 2458.34 
-2035.53 -1714.64 2458.14 
-2033.93 -1716.6 2457.05 
-2034.74 -1715.83 2457.49 
-2035.15 -1715.18 2457.82 
-2032.93 -1717.49 2456.59 
-2034.61 -1722.92 2463.46 
-2034.3 -1723.62 2463.34 
-2035.01 -1722.63 2461.51 
-2035.4 -1721.82 2460.85 
-2035.54 -1721.44 2460.49 
-2035.63 -1721.1 2460.12 
-2035.77 -1720.54 2459.76 
-2034.05 -1724.04 2459.47 
-2034.64 -1721.27 2464.68 
-2035.59 -1719.95 2463.45 
-2035.1 -1721.39 2463.96 
-2036.64 -1714.12 2459.74 
-2036.69 -1714.13 2459.94 
-2036.74 -1714.25 2459.77 
-2036.8 -1714.74 2460.25 
-2036.85 -1714.95 2460.47 
-2036.73 -1714.42 2459.97 
-2036.88 -1715.15 2460.43 
-2036.91 -1715.35 2460.39 
-2036.67 -1716.22 2461.49 
-2036.9 -1715.71 2460.85 
-2036.95 -1715.57 2460.38 
-2036.46 -1717.1 2461.96 
-2036.36 -1714.13 2459.39 
-2036.25 -1714.16 2459.26 
-2036.63 -1714.28 2459.49 
-2036.36 -1717.89 2462.06 
-2036.04 -1718.91 2462.59 
-2035.75 -1714.29 2458.67 
-2036.12 -1714.29 2459 
-2035.98 -1714.36 2458.82 
-2036.23 -1714.25 2459.15 
-2035.81 -1714.41 2458.6 
-2035.77 -1714.64 2458.34 
-2035.88 -1714.56 2458.53 
-2035.73 -1714.81 2458.17 
-2034.06 -1716.84 2457.03 
-2034.87 -1716.06 2457.48 
-2035.47 -1715.29 2457.9 
-2033.2 -1717.58 2456.63 
-2031.29 -1719.51 2455.96 
-2033.37 -1717.74 2456.68 
-2031.52 -1719.8 2456.05 
-2031.77 -1720.14 2456.16 
-2033.43 -1718 2456.71 
-2034.7 -1723.18 2462.61 
-2034.65 -1723.3 2462.15 
-2035.17 -1722.08 2462.58 
-2035.38 -1721.76 2462 
-2034.73 -1722.48 2463.7 
-2035.28 -1721.63 2462.9 
-2035.9 -1720.67 2460.92 
-2035.57 -1721.47 2461.48 
-2036 -1720.19 2460.55 
-2036.06 -1719.81 2460.22 
-2036.14 -1719.41 2459.91 
-2035.62 -1720.84 2459.49 
-2034.11 -1723.83 2459.24 
-2034.14 -1723.52 2458.92 
-2036.27 -1718.9 2459.66 
-2036.14 -1719.23 2459.45 
-2035.62 -1720.39 2463.16 
-2034.85 -1722.03 2463.93 
-2036.8 -1714.4 2459.57 
-2036.74 -1714.41 2459.71 
-2036.81 -1714.54 2459.54 
-2036.78 -1714.74 2459.89 
-2036.83 -1714.98 2460.1 
-2036.75 -1714.6 2459.65 
-2036.86 -1715.16 2460.03 
-2036.9 -1715.38 2460.05 
-2036.59 -1717.11 2461.52 
-2036.76 -1716.36 2461.12 
-2036.95 -1715.91 2460.59 
-2036.96 -1715.64 2460.15 
-2036.97 -1715.94 2460.4 
-2036.51 -1714.33 2459.32 
-2036.78 -1714.5 2459.38 
-2036.36 -1718.4 2461.9 
-2036.59 -1717.57 2461.38 
-2035.96 -1719.67 2462.48 
-2036.34 -1714.43 2459.07 
-2036.22 -1714.49 2458.91 
-2036.06 -1714.54 2458.73 
-2036.52 -1714.44 2459.21 
-2035.97 -1714.86 2458.33 
-2036 -1714.73 2458.48 
-2036.16 -1714.71 2458.66 
-2035.97 -1715.07 2458.18 
-2034.94 -1716.38 2457.43 
-2034.15 -1717.11 2457.03 
-2035.61 -1715.57 2457.86 
-2034.1 -1717.46 2457.01 
-2033.92 -1717.94 2456.93 
-2035.74 -1720.8 2461.83 
-2035.59 -1721.02 2462.32 
-2035.95 -1720.4 2461.23 
-2035.43 -1721.1 2463.1 
-2035.78 -1720.35 2462.42 
-2034.21 -1723.17 2458.75 
-2035.87 -1719.81 2459.21 
-2035.63 -1720.23 2459.03 
-2034.1 -1722.95 2458.45 
-2034.01 -1722.65 2458.2 
-2033.97 -1722.23 2457.99 
-2036.12 -1719.74 2460.74 
-2036.21 -1719.24 2460.39 
-2036.31 -1718.85 2460.08 
-2036.53 -1718.48 2459.88 
-2036.76 -1718.28 2459.56 
-2036.5 -1718.5 2459.22 
-2036.84 -1714.65 2459.37 
-2036.8 -1714.71 2459.48 
-2036.82 -1714.75 2459.37 
-2036.8 -1714.94 2459.68 
-2036.79 -1714.85 2459.46 
-2036.86 -1715.2 2459.75 
-2036.92 -1715.46 2459.88 
-2036.8 -1716.72 2460.88 
-2036.98 -1716.07 2460.26 
-2036.99 -1715.74 2460 
-2036.85 -1716.72 2460.62 
-2036.7 -1714.6 2459.23 
-2036.26 -1719.09 2461.82 
-2036.53 -1718.2 2461.38 
-2036.69 -1717.46 2461 
-2036.48 -1714.6 2459.04 
-2036.32 -1714.67 2458.85 
-2032.07 -1720.37 2456.31 
-2033.99 -1718.27 2456.98 
-2032.45 -1720.46 2456.51 
-2036.21 -1714.89 2458.54 
-2036.19 -1715.07 2458.37 
-2036.39 -1714.86 2458.74 
-2036.16 -1715.3 2458.17 
-2035.65 -1715.92 2457.79 
-2034.89 -1716.8 2457.38 
-2034.79 -1717.21 2457.33 
-2034.8 -1717.52 2457.34 
-2036.02 -1719.89 2461.79 
-2036.15 -1719.67 2461.3 
-2036.21 -1719.41 2460.93 
-2035.58 -1719.86 2458.85 
-2036.14 -1718.67 2458.92 
-2034.09 -1721.63 2457.92 
-2033.79 -1721.71 2457.68 
-2035.48 -1719.62 2458.64 
-2035.57 -1718.82 2458.4 
-2036.36 -1718.78 2460.63 
-2036.49 -1718.49 2460.38 
-2036.72 -1718.16 2460.14 
-2036.95 -1717.79 2459.78 
-2037.01 -1717.93 2459.25 
-2037.07 -1717.54 2459.45 
-2036.82 -1714.77 2459.21 
-2036.81 -1714.84 2459.25 
-2036.79 -1714.9 2459.31 
-2036.83 -1715.08 2459.51 
-2036.81 -1715.04 2459.36 
-2036.89 -1715.33 2459.6 
-2036.95 -1715.58 2459.74 
-2036.96 -1716.3 2460.15 
-2036.86 -1716.84 2460.45 
-2037.01 -1715.85 2459.87 
-2036.71 -1717.55 2460.8 
-2036.67 -1714.74 2459.09 
-2036.37 -1718.88 2461.36 
-2036.57 -1718.23 2461.13 
-2036.53 -1714.8 2458.92 
-2033.03 -1720.8 2456.91 
-2032.8 -1720.56 2456.73 
-2034.16 -1718.56 2457.08 
-2034.81 -1718.26 2457.39 
-2033.27 -1721.02 2457.13 
-2034.85 -1718.84 2457.62 
-2033.54 -1721.22 2457.37 
-2034.84 -1717.81 2457.36 
-2035.32 -1718.91 2458.15 
-2035.12 -1718.89 2457.89 
-2033.77 -1721.37 2457.58 
-2036.44 -1715.04 2458.62 
-2036.4 -1715.24 2458.43 
-2036.62 -1714.99 2458.84 
-2036.39 -1715.46 2458.3 
-2036.18 -1715.7 2458.07 
-2035.42 -1716.58 2457.66 
-2035.37 -1716.99 2457.63 
-2035.41 -1717.3 2457.64 
-2036.37 -1718.82 2461.03 
-2035.98 -1718.53 2458.62 
-2036.84 -1717.81 2458.85 
-2035.34 -1719.38 2458.37 
-2036.21 -1717.69 2458.12 
-2036.61 -1717.61 2458.39 
-2036.57 -1718.32 2460.87 
-2036.66 -1718.09 2460.6 
-2036.77 -1717.75 2460.33 
-2036.9 -1717.41 2459.96 
-2037.04 -1716.94 2459.58 
-2037.04 -1717.42 2459.14 
-2037.05 -1716.97 2459.3 
-2036.76 -1714.92 2459.02 
-2036.81 -1714.95 2459.11 
-2036.79 -1715 2459.17 
-2036.82 -1715.13 2459.26 
-2036.87 -1715.28 2459.42 
-2036.93 -1715.51 2459.5 
-2036.99 -1715.72 2459.65 
-2036.97 -1716.4 2459.99 
-2036.84 -1717.11 2460.31 
-2036.74 -1717.57 2460.6 
-2037.03 -1716.04 2459.73 
-2035.37 -1717.98 2457.67 
-2035.44 -1717.61 2457.66 
-2035.73 -1717.91 2457.89 
-2036.72 -1715.18 2458.78 
-2036.6 -1715.29 2458.59 
-2036.59 -1715.6 2458.48 
-2036.79 -1715.09 2458.94 
-2036.44 -1715.79 2458.27 
-2036.01 -1716.32 2457.96 
-2035.93 -1716.8 2457.92 
-2035.96 -1717.13 2457.93 
-2036.9 -1717.48 2458.82 
-2036.76 -1717.27 2458.52 
-2036.46 -1717.24 2458.19 
-2036.88 -1717.02 2460.08 
-2036.97 -1716.65 2459.8 
-2037.04 -1716.13 2459.54 
-2037.01 -1716.37 2459.33 
-2036.96 -1716.66 2459.11 
-2036.94 -1717.04 2458.94 
-2036.8 -1715.11 2459.04 
-2036.84 -1715.25 2459.16 
-2036.88 -1715.38 2459.31 
-2036.95 -1715.62 2459.39 
-2037 -1715.79 2459.51 
-2035.98 -1717.43 2457.93 
-2036.81 -1715.31 2458.89 
-2036.76 -1715.54 2458.7 
-2036.64 -1715.94 2458.45 
-2036.77 -1715.84 2458.67 
-2036.84 -1715.31 2459.03 
-2036.47 -1716.15 2458.23 
-2036.49 -1716.6 2458.21 
-2036.51 -1716.92 2458.22 
-2036.77 -1716.86 2458.5 
-2036.85 -1716.84 2458.73 
-2037 -1715.92 2459.38 
-2036.93 -1716.15 2459.14 
-2036.87 -1716.42 2458.9 
-2036.92 -1715.56 2459.25 
-2036.88 -1715.45 2459.14 
-2036.95 -1715.82 2459.24 
-2036.84 -1715.6 2458.92 
-2036.67 -1716.26 2458.4 
-2036.77 -1716.16 2458.6 
-2036.83 -1715.96 2458.83 
-2036.74 -1716.51 2458.46 
-2036.81 -1716.34 2458.71 
-2036.88 -1716.07 2458.97 
-2036.89 -1715.73 2459.07 
