-1932.56 -1540.24 1401.08 
-1932.75 -1540.42 1400.28 
-1933.12 -1540.55 1399.93 
-1933.89 -1540.89 1399.4 
-1931.31 -1540.24 1401.85 
-1931.69 -1540.21 1401.67 
-1931.98 -1540.13 1401.94 
-1930.57 -1541.45 1404.67 
-1930.86 -1541.68 1406.97 
-1931.29 -1541.62 1409.01 
-1930.49 -1541.06 1403.97 
-1930.61 -1540.82 1403.36 
-1930.67 -1540.51 1402.7 
-1930.97 -1540.22 1402.09 
-1930.8 -1542.02 1409.91 
-1931.08 -1541.62 1409.3 
-1937.79 -1539.11 1393.92 
-1938.15 -1539.37 1393.33 
-1937.43 -1538.61 1394.44 
-1937.23 -1539.13 1395.27 
-1897.65 -1541.6 1381.47 
-1898.38 -1540.91 1380.71 
-1900.1 -1538.8 1377.7 
-1901.57 -1537.17 1376.08 
-1896.9 -1542.79 1382.46 
-1896.86 -1542.87 1382.06 
-1897.18 -1542.24 1381.72 
-1897.62 -1541.68 1381.12 
-1895.14 -1548.56 1381.43 
-1896.05 -1545.52 1381.54 
-1896.04 -1545.63 1382.22 
-1895.23 -1548.34 1380.55 
-1896.88 -1542.82 1381.51 
-1928.27 -1541.49 1409.96 
-1928.56 -1541.61 1410.21 
-1927.96 -1541.31 1409.65 
-1927.66 -1541.04 1409.29 
-1928.92 -1541.7 1410.38 
-1929.35 -1541.78 1410.47 
-1927.37 -1540.83 1408.99 
-1926.96 -1540.66 1408.62 
-1926.36 -1540.81 1408.61 
-1925.72 -1540.98 1408.48 
-1929.84 -1543.07 1411.63 
-1929.47 -1542.41 1411.2 
-1929.69 -1541.89 1410.54 
-1924.99 -1540.44 1406.35 
-1924.6 -1541.14 1407.63 
-1925.1 -1541.08 1408.05 
-1922.24 -1542 1407.48 
-1923.6 -1540.59 1404.95 
-1923.37 -1540.25 1402.82 
-1920 -1545.13 1408.49 
-1921.21 -1543.57 1407.77 
-1921.23 -1543.56 1408.23 
-1919.46 -1546.61 1407.5 
-1921.89 -1542.54 1407.6 
-1919.55 -1546.45 1405.47 
-1919.18 -1546.87 1406.81 
-1919.65 -1546.06 1403.4 
-1919.83 -1545.76 1402.9 
-1919.46 -1546.02 1402.96 
-1921.17 -1543.4 1401.22 
-1921.62 -1541.49 1401.17 
-1921.54 -1541.24 1400.7 
-1920.45 -1545.11 1402.23 
-1921.36 -1543.66 1401.46 
-1920.18 -1545.48 1402.75 
-1916.05 -1534.39 1385.41 
-1911.15 -1534.69 1381.56 
-1907.56 -1534.85 1376.65 
-1919.1 -1534.26 1387.15 
-1920.82 -1534.6 1388.47 
-1920.91 -1534.35 1387.93 
-1922.97 -1535.22 1390.07 
-1924.66 -1536.14 1392.09 
-1927.12 -1537.4 1396.23 
-1906.16 -1534.86 1375.25 
-1904.98 -1535 1375 
-1904.33 -1535.23 1374.74 
-1902.91 -1535.88 1374.74 
-1903.6 -1535.52 1374.38 
-1902.31 -1536.54 1375.66 
-1902.49 -1536.04 1374.75 
-1924.56 -1539.01 1400.12 
-1925.48 -1539.49 1403.26 
-1925.54 -1539.66 1403.95 
-1922.21 -1540.39 1401.59 
-1921.69 -1540.18 1400.77 
-1921.65 -1540.73 1400.89 
-1940.82 -1545.87 1387.31 
-1942 -1546.82 1383.33 
-1940.68 -1544.11 1383.03 
-1942.43 -1546.64 1380.95 
-1940.6 -1543.48 1381.37 
-1941.61 -1544.77 1379.65 
-1940.05 -1544.79 1392.01 
-1939.21 -1541.51 1392.05 
-1938.41 -1539.1 1392.2 
-1938.75 -1539.17 1391.16 
-1929.88 -1542.23 1410.73 
-1930.33 -1542.16 1410.33 
-1935.12 -1541.48 1398.78 
-1936.32 -1539.88 1396.31 
-1936.6 -1538.93 1396.01 
-1932.15 -1539.91 1402.78 
-1932.71 -1539.91 1402.43 
-1933.57 -1539.89 1401.03 
-1933.88 -1539.62 1402.28 
-1934.37 -1539.29 1399.55 
-1934.95 -1539.26 1400.39 
-1934.21 -1540.69 1398.84 
-1931.5 -1540.02 1402.47 
-1931.3 -1539.91 1402.32 
-1931.84 -1539.95 1402.69 
-1930.19 -1541.25 1404.83 
-1930.65 -1541.31 1406.88 
-1931.11 -1541.31 1408.75 
-1930.13 -1540.9 1404.16 
-1930.27 -1540.59 1403.39 
-1930.42 -1540.13 1402.16 
-1930.73 -1540.09 1402.14 
-1931.16 -1539.76 1402.04 
-1930.7 -1541.75 1409.71 
-1930.97 -1541.33 1409.12 
-1937.68 -1538.14 1393.59 
-1938.06 -1538.37 1392.68 
-1937.09 -1538.28 1395.35 
-1937.24 -1537.86 1394.63 
-1936.85 -1538.69 1396.05 
-1898.27 -1540.98 1380.31 
-1899.54 -1539.53 1378.12 
-1900.94 -1537.59 1375.91 
-1901.8 -1536.93 1375.53 
-1897.11 -1542.4 1381.42 
-1897.55 -1541.79 1380.79 
-1898.35 -1540.86 1379.58 
-1896 -1545.74 1380.92 
-1896.94 -1542.9 1380.79 
-1896.87 -1543.21 1380.24 
-1896.02 -1545.94 1380.07 
-1895.17 -1548.69 1379.48 
-1897.35 -1542.17 1380.49 
-1928.25 -1541.13 1409.33 
-1928.75 -1541.28 1409.59 
-1929.15 -1541.38 1409.75 
-1927.79 -1540.94 1409.33 
-1927.48 -1540.58 1408.49 
-1929.57 -1541.47 1409.87 
-1930.04 -1541.54 1409.92 
-1927 -1540.36 1407.98 
-1926.4 -1540.34 1407.73 
-1925.78 -1540.55 1407.67 
-1925.32 -1540.59 1407.23 
-1930.21 -1541.82 1410.12 
-1925.26 -1540.35 1406.53 
-1923.1 -1540.78 1404.98 
-1923.35 -1540.71 1403.28 
-1920.29 -1544.8 1407.99 
-1921.65 -1542 1405.59 
-1922.1 -1541.44 1405.19 
-1921.66 -1542.89 1407.44 
-1921.63 -1542.96 1407.73 
-1919.7 -1546.47 1407.06 
-1922.56 -1541.1 1405.12 
-1919.97 -1546.15 1405.73 
-1919.99 -1545.76 1403.28 
-1919.97 -1545.9 1404.1 
-1921.71 -1541.76 1401.64 
-1921.79 -1541 1401.43 
-1921.85 -1544.02 1402.43 
-1920.6 -1545.12 1402.63 
-1921.63 -1543.84 1401.88 
-1921.83 -1542.18 1402.13 
-1920.33 -1545.42 1403.05 
-1914.57 -1534.32 1383.86 
-1919.1 -1534.02 1386.4 
-1909.26 -1534.66 1378.16 
-1920.51 -1534.11 1387.27 
-1921.72 -1534.24 1387.75 
-1923.59 -1535.05 1389.75 
-1925.72 -1535.82 1391.45 
-1928.58 -1536.01 1393.96 
-1925.99 -1539.26 1402.2 
-1927.84 -1539.14 1400.37 
-1926.69 -1539.4 1402.86 
-1928.74 -1537.51 1397.7 
-1931.04 -1535.67 1395.52 
-1905.35 -1534.82 1374.46 
-1906.87 -1534.74 1374.92 
-1904.66 -1535 1374.33 
-1904.04 -1535.22 1374.05 
-1903.29 -1535.5 1373.62 
-1902.83 -1535.68 1373.88 
-1902.26 -1536.29 1374.85 
-1902.5 -1535.76 1373.76 
-1926.11 -1539.61 1404.99 
-1922.68 -1541.1 1402.67 
-1940.44 -1544.35 1385.6 
-1940.37 -1545.08 1389.38 
-1940.08 -1542.59 1382.01 
-1940.21 -1543.2 1383.49 
-1941.12 -1544 1379.2 
-1942.64 -1546.2 1377.99 
-1940.07 -1542.41 1380.79 
-1939.54 -1541.71 1391 
-1941.14 -1544 1378.53 
-1942.75 -1546.39 1377.44 
-1942.41 -1545.82 1376.92 
-1939.15 -1539.31 1390.11 
-1938.49 -1538.71 1391.46 
-1938.86 -1538.46 1389.99 
-1935.52 -1539.53 1396.82 
-1935.72 -1538.4 1396.5 
-1936.04 -1538.29 1396.85 
-1933.63 -1539.27 1401.69 
-1933.52 -1539.03 1401.42 
-1933.23 -1538.92 1401.43 
-1933.86 -1539.5 1402.02 
-1935.02 -1539.36 1401.78 
-1934.22 -1539.68 1402.35 
-1933.85 -1539.23 1399.06 
-1935.86 -1538.66 1399.16 
-1935.6 -1538.43 1397.97 
-1935.12 -1538.31 1397.4 
-1935.59 -1538.82 1400.5 
-1934.61 -1539.08 1397.27 
-1931.67 -1539.6 1402.32 
-1931.82 -1539.71 1402.57 
-1931.53 -1539.47 1402.06 
-1930.38 -1541.02 1406.86 
-1930 -1541.04 1406.76 
-1929.79 -1540.83 1404.51 
-1930.84 -1540.89 1408.23 
-1929.94 -1540.53 1403.78 
-1930.18 -1540.24 1403.01 
-1930.26 -1539.91 1402.43 
-1930.38 -1539.96 1402.21 
-1930.51 -1540.01 1401.99 
-1931.06 -1539.6 1401.77 
-1931.43 -1539.29 1401.78 
-1930.59 -1541.53 1409.59 
-1930.75 -1541.06 1408.77 
-1930.58 -1541.26 1409.32 
-1937.84 -1537.8 1392.81 
-1937.38 -1537.54 1393.8 
-1938.2 -1538.32 1392.04 
-1938.25 -1538.46 1392.05 
-1936.74 -1537.87 1395.9 
-1936.89 -1537.46 1394.78 
-1936.55 -1538.26 1396.71 
-1899.59 -1539.33 1377.29 
-1900.91 -1537.67 1375.5 
-1901.76 -1536.99 1375.08 
-1898.05 -1541.24 1379.54 
-1899.31 -1539.71 1377.15 
-1896.12 -1546.09 1379.12 
-1897.36 -1542.29 1379.78 
-1897.14 -1542.9 1379.23 
-1897.98 -1541.46 1378.81 
-1928.49 -1541.27 1409.21 
-1928.02 -1540.74 1408.63 
-1929.21 -1541.25 1409.29 
-1929.72 -1541.22 1409.35 
-1927.7 -1540.54 1408.37 
-1926.85 -1540.07 1407.17 
-1927.26 -1540.23 1407.6 
-1930.11 -1541.24 1409.35 
-1926.49 -1539.94 1406.87 
-1926.11 -1539.99 1406.71 
-1925.92 -1539.97 1406.33 
-1922.95 -1540.87 1403.46 
-1920.91 -1543.49 1406.26 
-1921.53 -1541.36 1403.74 
-1921.98 -1541.17 1403.53 
-1922.42 -1541.14 1403.3 
-1920.45 -1545.13 1405.99 
-1920.37 -1545.47 1404 
-1920.29 -1545.51 1403.42 
-1922.16 -1541.49 1402.33 
-1921.3 -1543.97 1403.25 
-1921.74 -1544.15 1402.95 
-1921.77 -1542.52 1402.72 
-1921.92 -1541.54 1402.83 
-1915.31 -1534.14 1383.71 
-1919.76 -1533.8 1386.1 
-1920.51 -1533.89 1386.71 
-1909.53 -1534.54 1377.88 
-1921.98 -1534.05 1387.27 
-1924.04 -1534.77 1388.96 
-1925.8 -1535.56 1390.51 
-1927.04 -1535.57 1391.02 
-1928.78 -1535.7 1393.25 
-1931.3 -1535.43 1394.32 
-1927.09 -1539.47 1403.51 
-1928.68 -1539.26 1401.09 
-1928.38 -1539.46 1401.59 
-1929.44 -1537.5 1398.31 
-1931.99 -1535.66 1395.98 
-1931.83 -1535.3 1394.8 
-1905.77 -1534.67 1374.04 
-1904.96 -1534.86 1373.9 
-1907.23 -1534.67 1374.93 
-1904.27 -1535.08 1373.82 
-1903.71 -1535.29 1373.56 
-1903.38 -1535.44 1373.36 
-1903.04 -1535.59 1373.24 
-1902.1 -1536.41 1374.57 
-1902.32 -1535.87 1373.61 
-1902.86 -1535.69 1373.04 
-1939.75 -1541.42 1385.74 
-1939.91 -1542.17 1386.95 
-1939.95 -1542.33 1388.35 
-1939.82 -1542.05 1389.82 
-1939.54 -1540.74 1385 
-1939.36 -1540.13 1384.57 
-1939.27 -1539.71 1384.09 
-1939.22 -1539.72 1383.27 
-1939.45 -1539.61 1389.21 
-1941.16 -1543.98 1377.93 
-1939.04 -1539.54 1382.75 
-1940.66 -1543.08 1378.22 
-1942.36 -1545.96 1376.4 
-1942.01 -1545.57 1376.15 
-1939.24 -1538.91 1388.98 
-1938.64 -1538.6 1390.83 
-1938.9 -1538.23 1389.42 
-1936.21 -1538.43 1398.08 
-1934.65 -1538.56 1400.55 
-1934.87 -1538.74 1400.75 
-1933.04 -1538.73 1401.22 
-1934.52 -1538.19 1399.94 
-1934.92 -1538.25 1399.88 
-1934.97 -1538.96 1401 
-1935.93 -1538.57 1399.28 
-1935.68 -1538.55 1399.88 
-1932.84 -1538.6 1401.05 
-1932.6 -1538.47 1400.89 
-1929.56 -1541.05 1406.69 
-1930.17 -1541.09 1408.47 
-1929.71 -1540.44 1404.03 
-1930 -1540.13 1403.16 
-1930.02 -1539.79 1402.71 
-1930.09 -1539.74 1402.23 
-1930.26 -1539.88 1402.05 
-1930.64 -1539.78 1401.67 
-1930.89 -1539.65 1401.68 
-1931.32 -1539.12 1401.51 
-1932.35 -1538.36 1400.73 
-1930.24 -1541.22 1409.02 
-1937.87 -1537.78 1392.46 
-1937.37 -1537.64 1393.29 
-1936.97 -1537.06 1393.84 
-1938.26 -1538.22 1391.61 
-1936.43 -1537.43 1395.7 
-1936.37 -1537.9 1396.78 
-1936.48 -1538.16 1397.11 
-1936.48 -1536.98 1394.81 
-1900.49 -1538.12 1375.49 
-1901.52 -1537.21 1374.66 
-1898.83 -1540.44 1377.5 
-1899.78 -1538.98 1375.83 
-1895.46 -1548.44 1378.46 
-1896.44 -1545.71 1378.09 
-1895.87 -1548.05 1377.44 
-1896.74 -1545.47 1377.11 
-1897.22 -1543.03 1378.17 
-1896.14 -1548.17 1376.48 
-1897.02 -1545.24 1376.3 
-1897.88 -1541.7 1378.01 
-1897.95 -1541.86 1377.1 
-1898.85 -1540.5 1376.81 
-1928.51 -1541.3 1408.95 
-1928.24 -1540.96 1408.68 
-1928 -1540.53 1407.99 
-1927.67 -1540.32 1407.79 
-1928.98 -1541.42 1409.08 
-1929.67 -1541.29 1409.09 
-1927.62 -1539.51 1404.45 
-1927.36 -1539.43 1403.87 
-1927.83 -1539.66 1404.9 
-1921 -1544.25 1404.65 
-1921.19 -1544.12 1403.72 
-1921.63 -1541.52 1403.23 
-1914.47 -1534.17 1382.64 
-1917.94 -1533.93 1384.77 
-1920.18 -1533.64 1385.74 
-1921.21 -1533.75 1386.3 
-1922.03 -1533.87 1386.77 
-1909.8 -1534.46 1377.5 
-1924.4 -1534.51 1388.1 
-1926.3 -1535.3 1389.7 
-1927.34 -1535.42 1390.25 
-1929.11 -1535.52 1392.67 
-1929.65 -1535.36 1391.67 
-1931.2 -1535.42 1393.34 
-1932.08 -1535.2 1393.37 
-1928.88 -1539.18 1401.01 
-1929.02 -1539.3 1401.33 
-1928.91 -1539.4 1401.53 
-1928.61 -1539.51 1401.97 
-1929.44 -1537.94 1398.99 
-1931.12 -1536.6 1397.53 
-1932.22 -1536.2 1397 
-1932.76 -1535.74 1395.82 
-1932.5 -1535.3 1394.96 
-1932.56 -1535.18 1393.86 
-1906.64 -1534.63 1374.15 
-1905.66 -1534.73 1373.53 
-1904.26 -1535.04 1373.46 
-1904.9 -1534.89 1373.42 
-1907.88 -1534.6 1375.26 
-1903.8 -1535.24 1373.42 
-1903.59 -1535.35 1373.35 
-1903.26 -1535.53 1373.15 
-1901.97 -1536.4 1374.14 
-1902.41 -1535.89 1373.19 
-1902.93 -1535.76 1372.61 
-1903.15 -1535.62 1372.85 
-1939.46 -1539.68 1388.28 
-1939.38 -1539.22 1387.81 
-1939.3 -1538.75 1387.35 
-1939.15 -1538.18 1387.34 
-1939.05 -1537.85 1386.83 
-1938.92 -1537.65 1386.33 
-1942.18 -1546.11 1375.33 
-1942.08 -1546.19 1374.8 
-1942.5 -1546.66 1375.14 
-1938.7 -1538.18 1384.3 
-1940.27 -1542.49 1378.21 
-1941.64 -1545.2 1375.71 
-1939.16 -1538.45 1388.37 
-1938.53 -1538 1390.37 
-1938.68 -1537.7 1389.21 
-1938.95 -1537.99 1388.4 
-1936.16 -1538.3 1398.25 
-1935.52 -1538.19 1399.47 
-1935.56 -1538.38 1399.76 
-1934.51 -1537.98 1399.56 
-1935.42 -1537.84 1398.91 
-1935.78 -1537.87 1398.55 
-1936.01 -1538.2 1398.48 
-1934.42 -1537.78 1399.23 
-1934.08 -1537.61 1399.08 
-1929.17 -1540.97 1406.48 
-1929.58 -1541.36 1408.79 
-1929.62 -1540.12 1403.72 
-1929.45 -1539.8 1403.45 
-1929.89 -1539.58 1402.48 
-1930.17 -1539.76 1401.85 
-1929.9 -1539.61 1402.13 
-1930.67 -1539.61 1401.49 
-1931.11 -1539.21 1401.42 
-1932.14 -1538.26 1400.54 
-1933.69 -1537.44 1398.95 
-1937.59 -1537.56 1392.34 
-1938.17 -1537.92 1391.49 
-1936.98 -1537.2 1392.91 
-1936.68 -1536.67 1393.56 
-1936.06 -1537.4 1396.18 
-1936.24 -1537.88 1397.28 
-1936.24 -1536.47 1394.37 
-1935.98 -1536.89 1395.38 
-1900.78 -1537.9 1374.74 
-1901.57 -1537.08 1374.14 
-1899.78 -1538.98 1375.35 
-1900.86 -1537.87 1374.23 
-1896.43 -1547.97 1375.83 
-1897.29 -1545.14 1375.57 
-1896.67 -1548.1 1375.06 
-1897.56 -1545.01 1374.89 
-1897.04 -1547.74 1374.52 
-1897.62 -1542.64 1376.92 
-1898.13 -1542.11 1375.85 
-1898.28 -1542.2 1375.22 
-1898.78 -1540.69 1376.3 
-1898.65 -1541.04 1375.77 
-1928.3 -1540.87 1408.18 
-1928.57 -1541.27 1408.55 
-1928.05 -1539.82 1405.23 
-1928.29 -1540 1405.48 
-1928.99 -1541.52 1408.85 
-1928.87 -1539.54 1402.23 
-1929.01 -1539.6 1402.6 
-1913.76 -1534.18 1381.48 
-1918.05 -1533.95 1384.46 
-1920.21 -1533.6 1385.17 
-1921.61 -1533.67 1385.8 
-1922.61 -1533.78 1386.26 
-1922.76 -1533.87 1386.63 
-1910.4 -1534.41 1377.3 
-1924.61 -1534.33 1387.53 
-1926.52 -1535.05 1388.61 
-1926.75 -1535.29 1389.28 
-1929.88 -1535.35 1390.81 
-1927.8 -1535.44 1389.77 
-1931.64 -1535.28 1392.28 
-1932.75 -1534.94 1392.4 
-1929.81 -1538.31 1399.76 
-1929.32 -1539.19 1401.12 
-1929.36 -1539.28 1401.32 
-1929.23 -1539.35 1401.53 
-1929.12 -1539.43 1401.77 
-1931.05 -1537.25 1398.45 
-1931.94 -1536.7 1397.81 
-1932.71 -1536.31 1396.72 
-1933.16 -1535.45 1395.11 
-1933.22 -1536.13 1395.9 
-1933.1 -1535.14 1394.14 
-1933.06 -1534.94 1393.03 
-1906.78 -1534.68 1373.64 
-1907.67 -1534.63 1374.48 
-1905.54 -1534.82 1373.04 
-1904.1 -1535.13 1373.25 
-1904.76 -1534.97 1373.04 
-1909.56 -1534.54 1375.77 
-1903.38 -1535.48 1373.22 
-1903.9 -1535.26 1373.07 
-1901.91 -1536.28 1373.62 
-1902.37 -1536 1372.93 
-1903.23 -1535.61 1372.85 
-1902.86 -1535.95 1372.4 
-1903.15 -1535.72 1372.51 
-1938.85 -1537.7 1388 
-1938.74 -1537.44 1387.61 
-1938.63 -1537.33 1386.73 
-1938.63 -1538.42 1382.93 
-1938.4 -1537.24 1386.05 
-1939.86 -1541.93 1378.18 
-1941.28 -1544.99 1375.11 
-1941.72 -1545.61 1375.03 
-1939.98 -1542.47 1377.26 
-1938.32 -1537.49 1390.11 
-1938.55 -1537.29 1388.68 
-1935.93 -1538.03 1398.42 
-1935.43 -1537.6 1398.47 
-1935.93 -1537.49 1397.41 
-1936.11 -1537.7 1397.32 
-1935.32 -1537.38 1398.14 
-1934.91 -1537.24 1398.08 
-1928.84 -1540.63 1406.05 
-1928.55 -1540.22 1405.63 
-1929.3 -1539.65 1403.16 
-1929.68 -1539.53 1402.36 
-1929.96 -1539.62 1401.79 
-1930.46 -1539.63 1401.46 
-1929.7 -1539.49 1401.94 
-1930.9 -1539.18 1401.22 
-1931.08 -1539.1 1401.28 
-1931.94 -1538.23 1400.41 
-1933.49 -1537.22 1398.65 
-1934.68 -1537.08 1397.84 
-1937.98 -1537.53 1391.38 
-1936.56 -1536.97 1392.78 
-1937.33 -1537.25 1392.15 
-1936.29 -1536.34 1393.32 
-1935.83 -1537.22 1396.38 
-1936.02 -1535.88 1393.55 
-1935.84 -1536.2 1394.48 
-1935.59 -1536.65 1395.43 
-1901.51 -1537.01 1373.68 
-1900.64 -1538.1 1374.04 
-1899.54 -1539.32 1375.23 
-1901.39 -1537.41 1373.47 
-1898.68 -1541.69 1374.69 
-1897.86 -1544.79 1374.35 
-1897.39 -1547.72 1373.83 
-1898.9 -1541.43 1374.35 
-1898.17 -1544.59 1373.91 
-1897.93 -1547.31 1373.21 
-1898.41 -1544.51 1373.55 
-1898.8 -1544.13 1373.18 
-1898.92 -1540.77 1375.06 
-1899.44 -1539.51 1374.95 
-1929.2 -1539.62 1402.81 
-1929.17 -1539.5 1402.15 
-1929.44 -1539.51 1402.23 
-1915.62 -1534.11 1382.91 
-1913.1 -1534.21 1379.98 
-1918.14 -1533.96 1384.13 
-1921.46 -1533.58 1385.29 
-1920.38 -1533.57 1384.64 
-1922.95 -1533.67 1385.61 
-1923.09 -1533.75 1386.01 
-1924.81 -1534.35 1387.24 
-1926.98 -1535.13 1388.36 
-1927.4 -1535.36 1389.06 
-1930.04 -1535.37 1390.2 
-1931.91 -1535.19 1391.42 
-1928.35 -1535.45 1389.22 
-1932.78 -1534.92 1391.54 
-1933.38 -1534.75 1391.4 
-1933.38 -1534.72 1392.19 
-1930.12 -1538.36 1400.24 
-1929.92 -1539.13 1401.01 
-1929.9 -1539.32 1401.22 
-1929.65 -1539.36 1401.51 
-1929.48 -1539.41 1401.79 
-1931.2 -1537.54 1398.8 
-1931.84 -1536.93 1398.19 
-1932.7 -1536.51 1397.12 
-1933.48 -1535.17 1394.47 
-1933.51 -1535.64 1395.15 
-1933.64 -1536.41 1395.97 
-1933.27 -1536.48 1396.4 
-1933.46 -1534.98 1393.44 
-1933.62 -1534.66 1392.6 
-1907.84 -1534.67 1373.87 
-1906.57 -1534.78 1373.07 
-1908.97 -1534.74 1374.35 
-1905.36 -1534.91 1372.65 
-1904.57 -1535.04 1372.82 
-1913.74 -1534.26 1379.96 
-1911.21 -1534.59 1375.87 
-1903.52 -1535.47 1373.02 
-1903.97 -1535.3 1372.72 
-1904.43 -1535.11 1372.59 
-1901.82 -1536.42 1373.27 
-1902.34 -1536.22 1372.77 
-1903.4 -1535.61 1372.76 
-1902.88 -1536.15 1372.26 
-1903.19 -1535.8 1372.34 
-1938.38 -1536.93 1387.72 
-1938.1 -1536.66 1387.1 
-1938.42 -1538.3 1382.54 
-1937.98 -1536.92 1385.86 
-1938.49 -1539.45 1379.67 
-1940.63 -1544.58 1374.79 
-1941.35 -1545.15 1374.45 
-1939.73 -1542.39 1376.86 
-1938 -1536.97 1389.97 
-1938.24 -1536.91 1388.85 
-1935.74 -1537.2 1397.24 
-1935.53 -1536.88 1396.25 
-1935.47 -1536.85 1397.02 
-1929.92 -1539.47 1401.58 
-1930.33 -1539.54 1401.38 
-1930.77 -1539.2 1401.13 
-1931.5 -1538.28 1400.26 
-1931.73 -1538.26 1400.32 
-1932.83 -1537.19 1398.86 
-1933.63 -1536.92 1397.97 
-1934.37 -1536.95 1397.63 
-1935 -1536.74 1396.77 
-1937.62 -1536.96 1391.12 
-1936.45 -1536.7 1392.51 
-1937.09 -1536.81 1391.97 
-1936.04 -1536.19 1392.79 
-1935.3 -1536.25 1395.11 
-1935.63 -1535.73 1393.97 
-1935.83 -1535.69 1392.94 
-1900.44 -1538.32 1373.87 
-1901.27 -1537.72 1373.26 
-1901.73 -1536.85 1373.05 
-1899.5 -1539.78 1374.35 
-1899.22 -1541.01 1373.95 
-1899.92 -1539.45 1373.66 
-1899.59 -1540.86 1373.53 
-1898.77 -1547.46 1372 
-1899.1 -1546.61 1371.9 
-1898.59 -1546.78 1372.46 
-1899.64 -1543.59 1372.3 
-1899.17 -1543.8 1372.78 
-1899.65 -1546.32 1371.49 
-1900.43 -1540.24 1372.72 
-1900.65 -1539.47 1372.66 
-1900.11 -1538.73 1373.86 
-1916.08 -1534.21 1383.06 
-1918.34 -1533.93 1383.83 
-1921.4 -1533.56 1384.77 
-1922.83 -1533.64 1385.28 
-1920.63 -1533.58 1384.25 
-1925.13 -1534.42 1386.71 
-1925.42 -1534.49 1386.36 
-1924.93 -1534.38 1387 
-1926.82 -1535.06 1387.85 
-1927.86 -1535.37 1388.59 
-1930.32 -1535.3 1389.62 
-1932.19 -1534.99 1390.73 
-1928.4 -1535.29 1388.54 
-1932.8 -1534.8 1390.73 
-1934.08 -1534.69 1391.52 
-1933.71 -1534.61 1390.73 
-1933.08 -1534.67 1390.24 
-1930.64 -1538.35 1400.29 
-1930.44 -1539.15 1400.98 
-1930.21 -1539.41 1401.26 
-1931.52 -1537.47 1398.79 
-1932.13 -1536.82 1398.12 
-1932.95 -1536.61 1397.17 
-1933.86 -1535.04 1393.91 
-1933.73 -1535.27 1394.65 
-1933.85 -1535.95 1395.39 
-1933.91 -1536.64 1396.56 
-1933.85 -1534.75 1393.04 
-1934.46 -1534.68 1392.09 
-1908.03 -1534.73 1373.37 
-1909.02 -1534.84 1373.51 
-1906.88 -1534.86 1372.84 
-1910.78 -1534.85 1374.38 
-1905.83 -1534.99 1372.38 
-1905.1 -1535 1372.44 
-1913.76 -1534.42 1379.03 
-1916.08 -1534.28 1382.24 
-1916.32 -1534.33 1382.86 
-1912.24 -1534.74 1375.39 
-1903.88 -1535.43 1372.49 
-1904.41 -1535.19 1372.29 
-1904.98 -1535.09 1372.23 
-1902.23 -1536.51 1372.66 
-1903.46 -1535.68 1372.48 
-1902.73 -1536.41 1372.21 
-1903.18 -1535.98 1372.19 
-1938 -1536.49 1388.35 
-1937.72 -1536.14 1388 
-1937.68 -1536.3 1386.77 
-1937.98 -1537.99 1382.63 
-1937.52 -1536.64 1385.59 
-1938.08 -1539.01 1379.42 
-1939.09 -1541.27 1377.47 
-1941.31 -1545.12 1373.85 
-1941.61 -1545.74 1373.83 
-1940.53 -1544.61 1374.23 
-1939.11 -1541.91 1376.56 
-1937.72 -1536.43 1389.55 
-1935.31 -1536.64 1396.28 
-1934.95 -1536.27 1396.07 
-1930.61 -1539.23 1401.05 
-1931.26 -1538.3 1400.2 
-1932.19 -1537.08 1398.64 
-1932.53 -1537.07 1398.69 
-1933.31 -1536.82 1397.8 
-1934.46 -1536.73 1396.7 
-1934.55 -1536.14 1395.8 
-1937.25 -1536.33 1390.7 
-1936.32 -1536.27 1392.22 
-1936.87 -1536.34 1391.71 
-1934.95 -1536.15 1395.42 
-1935.15 -1535.74 1394.48 
-1935.46 -1535.49 1393.6 
-1936.03 -1535.84 1392.14 
-1935.52 -1535.47 1392.74 
-1901.01 -1538.03 1373.15 
-1901.67 -1537.25 1372.8 
-1900.73 -1538.39 1373.08 
-1900.22 -1539.59 1373.14 
-1900.95 -1538.58 1372.67 
-1900.16 -1543.35 1371.89 
-1901.32 -1540.25 1371.92 
-1901.13 -1539.91 1372.12 
-1900.43 -1546.93 1370.61 
-1900.4 -1546.27 1370.95 
-1899.87 -1547.13 1371.1 
-1900.79 -1543.19 1371.46 
-1901.38 -1539.23 1372.02 
-1901.22 -1538.76 1372.27 
-1918.72 -1533.91 1383.62 
-1922.75 -1533.67 1384.94 
-1921.67 -1533.62 1384.41 
-1925.59 -1534.52 1386.01 
-1920.99 -1533.63 1383.97 
-1927.18 -1535.19 1387.55 
-1927.48 -1535.27 1387.17 
-1927.69 -1535.33 1388.05 
-1930.45 -1535.18 1389.05 
-1932.37 -1534.81 1389.87 
-1928.46 -1535.09 1388.19 
-1927.93 -1535.35 1387.7 
-1934.39 -1534.58 1390.16 
-1933.91 -1534.55 1389.63 
-1934.49 -1534.66 1391.04 
-1933.16 -1534.62 1389.38 
-1931 -1538.32 1400.22 
-1931.89 -1537.2 1398.66 
-1932.73 -1536.75 1397.91 
-1934.16 -1535.11 1394.07 
-1934.18 -1534.88 1393.32 
-1933.96 -1535.36 1394.74 
-1934.18 -1536.13 1395.62 
-1934.54 -1534.75 1392.55 
-1935 -1534.74 1391.74 
-1909.12 -1534.9 1373.01 
-1908.07 -1534.82 1372.98 
-1910.21 -1535.02 1372.99 
-1906.89 -1534.96 1372.47 
-1911.69 -1535.01 1373.79 
-1905.72 -1535.11 1372.08 
-1913.97 -1534.53 1378.31 
-1916.12 -1534.4 1381.65 
-1916.51 -1534.51 1382.29 
-1916.93 -1534.39 1382.87 
-1913.13 -1535.05 1374.53 
-1913.53 -1534.91 1375.47 
-1904.54 -1535.29 1372.01 
-1903.95 -1535.5 1372.18 
-1905.25 -1535.19 1371.93 
-1902.15 -1536.89 1372.44 
-1903.53 -1535.74 1372.22 
-1902.66 -1536.71 1372.07 
-1903 -1536.3 1372.09 
-1903.31 -1536.07 1372.07 
-1937.38 -1535.87 1387.79 
-1937.39 -1535.97 1389.2 
-1937.22 -1535.98 1386.56 
-1941.55 -1545.71 1373.36 
-1941.08 -1544.98 1373.35 
-1941.43 -1545.75 1372.98 
-1937.58 -1537.83 1382.21 
-1937.03 -1536.43 1385.26 
-1938.22 -1539.43 1378.49 
-1937.57 -1538.48 1379.31 
-1940.34 -1544.54 1373.74 
-1938.82 -1541.82 1376.29 
-1934.67 -1535.76 1395.08 
-1934.18 -1535.47 1394.84 
-1934.42 -1535.53 1394.87 
-1936.89 -1535.67 1390.16 
-1936.58 -1535.87 1391.49 
-1934.96 -1535.48 1394.2 
-1935.16 -1535.32 1393.48 
-1935.88 -1535.51 1391.97 
-1935.27 -1535.28 1392.56 
-1901.55 -1537.67 1372.59 
-1901.5 -1537.92 1372.36 
-1901.64 -1538.2 1372.08 
-1901.84 -1540.22 1371.49 
-1901.92 -1539.56 1371.56 
-1901.96 -1539.01 1371.67 
-1900.86 -1546.55 1370.3 
-1901.08 -1546.01 1370.51 
-1901.38 -1543.11 1371.06 
-1901.81 -1538.62 1371.86 
-1919.12 -1533.92 1383.38 
-1925.55 -1534.49 1385.62 
-1922.68 -1533.81 1384.31 
-1923.27 -1533.78 1384.75 
-1921.86 -1533.69 1384.08 
-1927.68 -1535.32 1386.76 
-1921.58 -1533.7 1383.71 
-1928.14 -1535.36 1387.26 
-1932.6 -1534.72 1388.94 
-1930.66 -1535.15 1388.36 
-1928.8 -1535.15 1387.61 
-1935.27 -1534.63 1389.71 
-1934.96 -1534.66 1389.1 
-1934.1 -1534.62 1388.75 
-1935.11 -1534.72 1390.67 
-1933.41 -1534.58 1388.55 
-1934.43 -1535.22 1394.11 
-1934.49 -1535.01 1393.43 
-1934.97 -1534.9 1392.43 
-1935.37 -1534.83 1391.56 
-1909.13 -1534.97 1372.79 
-1910.5 -1535.2 1372.28 
-1908.24 -1534.93 1372.58 
-1911.86 -1535.22 1372.85 
-1906.76 -1535.04 1372.08 
-1913.43 -1535.3 1373.49 
-1906.06 -1535.2 1371.77 
-1914.64 -1534.76 1377.3 
-1915.6 -1534.64 1380.49 
-1916.62 -1534.55 1381.81 
-1917.42 -1534.47 1382.7 
-1914.73 -1535.33 1374.47 
-1914.53 -1535.51 1373.64 
-1904.65 -1535.42 1371.77 
-1905.63 -1535.3 1371.6 
-1904.01 -1535.63 1371.9 
-1902.1 -1537.26 1372.19 
-1903.72 -1535.9 1371.88 
-1902.68 -1537 1371.87 
-1903.06 -1536.54 1371.91 
-1903.41 -1536.37 1371.81 
-1937.02 -1535.58 1387.87 
-1937.05 -1535.62 1388.96 
-1936.71 -1535.91 1385.94 
-1936.77 -1535.53 1387.22 
-1930.56 -1543.42 1368.44 
-1930.35 -1543.45 1368.26 
-1932.16 -1545.93 1368.35 
-1934.17 -1544.77 1369.85 
-1933.87 -1544.11 1370.24 
-1930.51 -1543.08 1368.84 
-1929.96 -1542.74 1368.86 
-1929.81 -1542.81 1368.67 
-1930.18 -1542.43 1369.33 
-1929.87 -1542.43 1369.16 
-1940.55 -1544.9 1372.9 
-1941.27 -1545.31 1372.81 
-1939.51 -1544.19 1373.7 
-1940.27 -1544.67 1373.31 
-1937.21 -1537.56 1382.1 
-1936.76 -1536.85 1383.39 
-1938.14 -1539.54 1378.16 
-1937.71 -1538.81 1378.28 
-1936.98 -1538.02 1379.64 
-1938.32 -1540.97 1376.81 
-1934.7 -1535.35 1394.15 
-1936.56 -1535.19 1389.8 
-1936.33 -1535.36 1391.07 
-1934.84 -1535.18 1393.5 
-1935.8 -1535.23 1391.82 
-1934.87 -1535.06 1392.84 
-1935.42 -1535.07 1392.04 
-1902.13 -1537.54 1371.97 
-1902.22 -1537.85 1371.79 
-1902.45 -1540.47 1371.01 
-1902.45 -1539.61 1371.21 
-1902.54 -1538.96 1371.32 
-1902.56 -1538.46 1371.43 
-1902.46 -1538.04 1371.59 
-1901.51 -1545.61 1370.27 
-1901.98 -1543.14 1370.68 
-1901.6 -1546.66 1369.55 
-1901.96 -1545.95 1369.82 
-1901.28 -1546.16 1370.03 
-1919.46 -1533.95 1383.12 
-1925.44 -1534.45 1385.24 
-1927.63 -1535.31 1386.32 
-1923.31 -1533.93 1384.07 
-1922.48 -1533.84 1383.81 
-1928.33 -1535.38 1386.79 
-1921.76 -1533.79 1383.39 
-1922.48 -1533.9 1383.43 
-1932.85 -1534.77 1388.08 
-1930.91 -1535.19 1387.7 
-1929.22 -1535.43 1386.81 
-1931.37 -1535.3 1387.26 
-1935.77 -1534.79 1389.48 
-1935.58 -1534.87 1389.05 
-1934.83 -1534.81 1388.47 
-1935.32 -1534.88 1388.44 
-1933.69 -1534.69 1388 
-1934.34 -1534.69 1388.06 
-1935.73 -1534.78 1390.3 
-1935.77 -1534.94 1391.51 
-1935.96 -1534.86 1390.53 
-1909.76 -1535.16 1372.19 
-1911.4 -1535.44 1371.61 
-1912.61 -1535.4 1372.19 
-1907.91 -1535 1372.19 
-1909.14 -1535.17 1372.1 
-1913.98 -1535.52 1372.57 
-1907 -1535.08 1371.8 
-1915.74 -1535.74 1372.24 
-1906.5 -1535.22 1371.55 
-1915.49 -1534.8 1379.77 
-1915.25 -1534.82 1379.02 
-1915.78 -1535.25 1375.7 
-1915.97 -1535.51 1373.45 
-1916.28 -1534.74 1381.03 
-1917.37 -1534.72 1382.22 
-1917.18 -1534.99 1381.64 
-1917.81 -1534.43 1382.53 
-1916.11 -1535.69 1372.55 
-1904.86 -1535.59 1371.46 
-1905.67 -1535.4 1371.36 
-1906.42 -1535.33 1371.3 
-1904.28 -1535.87 1371.47 
-1903.94 -1536.15 1371.5 
-1903.14 -1536.81 1371.67 
-1902.69 -1537.3 1371.7 
-1903.42 -1536.82 1371.49 
-1903.8 -1536.49 1371.39 
-1936.67 -1535.26 1388.77 
-1936.28 -1535.87 1385.47 
-1936.32 -1535.35 1386.97 
-1936.46 -1535.12 1388.21 
-1929.92 -1543.16 1368.31 
-1933.37 -1543.49 1370.65 
-1929.47 -1542.32 1368.96 
-1929.29 -1542.39 1368.74 
-1929.37 -1542.61 1368.58 
-1929.38 -1542.09 1369.14 
-1929.96 -1542.08 1369.75 
-1929.38 -1541.93 1369.43 
-1940.52 -1545.01 1372.08 
-1941.14 -1545.32 1372.21 
-1939.4 -1544.36 1373.26 
-1938.22 -1542.31 1375.23 
-1936.45 -1537.36 1381.34 
-1937.89 -1539.33 1377.92 
-1936.29 -1538.64 1375.26 
-1937.46 -1538.72 1377.73 
-1935.82 -1538.68 1375.01 
-1937.96 -1539.69 1377.55 
-1936.41 -1535.02 1389.47 
-1936.13 -1535 1390.75 
-1922.71 -1542.42 1367.15 
-1920.13 -1542.66 1367.35 
-1919.37 -1544.24 1366.43 
-1925.96 -1541.26 1367.85 
-1923.5 -1541 1367.94 
-1926.08 -1541.54 1367.63 
-1923.85 -1543.33 1366.57 
-1920.23 -1540.18 1368.39 
-1920.19 -1539.53 1368.84 
-1910.35 -1546.74 1366.56 
-1911.12 -1545.75 1366.68 
-1909.66 -1545.97 1367.01 
-1902.67 -1546.79 1369.45 
-1902.86 -1545.72 1369.63 
-1904.22 -1546.53 1369 
-1903.25 -1539.89 1370.64 
-1903.3 -1540.62 1370.45 
-1903.36 -1539.09 1370.77 
-1903.27 -1538.27 1371.03 
-1903.06 -1537.66 1371.31 
-1903.03 -1537.28 1371.47 
-1902.02 -1545.17 1370.07 
-1902.69 -1543.04 1370.28 
-1902.79 -1544.8 1369.81 
-1919.82 -1534.06 1382.81 
-1925.48 -1534.49 1384.88 
-1927.68 -1535.36 1385.89 
-1928.02 -1535.4 1386.18 
-1923.5 -1534.07 1383.52 
-1925.89 -1534.73 1384.67 
-1928.54 -1535.47 1386.22 
-1922.34 -1533.95 1383.04 
-1923.98 -1534.25 1383.19 
-1933.62 -1535.03 1387.73 
-1931.54 -1535.39 1386.74 
-1929.35 -1535.57 1386.22 
-1936.09 -1534.9 1389.28 
-1935.87 -1534.95 1388.67 
-1935.58 -1534.86 1388.13 
-1934.74 -1534.78 1387.47 
-1935.1 -1534.84 1387.24 
-1934.13 -1534.9 1387.48 
-1936.25 -1534.93 1389.73 
-1910.65 -1535.44 1371.27 
-1912.71 -1535.67 1371.08 
-1913.44 -1535.54 1371.41 
-1915.31 -1535.75 1371.25 
-1908.51 -1535.23 1371.67 
-1909.88 -1535.47 1371.09 
-1916.09 -1535.8 1371.43 
-1907.59 -1535.19 1371.5 
-1917.39 -1536.12 1371.59 
-1917.31 -1536.04 1371.14 
-1907.06 -1535.23 1371.37 
-1915.99 -1535.24 1379.9 
-1917.1 -1535.8 1378.42 
-1917.56 -1535.92 1377.53 
-1919.08 -1536.52 1374.74 
-1917.44 -1536.2 1372.65 
-1917.45 -1536.17 1372.12 
-1916.76 -1535.3 1381.03 
-1917.84 -1534.67 1381.95 
-1917.77 -1535.28 1380.84 
-1905.91 -1535.53 1371.07 
-1905.22 -1535.9 1371.01 
-1906.61 -1535.39 1371.06 
-1904.52 -1536.24 1371.02 
-1903.57 -1537.06 1371.21 
-1904.12 -1536.7 1370.98 
-1935.92 -1535.32 1386.36 
-1936.05 -1536.29 1383.81 
-1936.08 -1535 1388.03 
-1936.3 -1534.98 1388.84 
-1939.61 -1545.06 1371.91 
-1938.63 -1544.5 1372.57 
-1938.77 -1545.08 1371.81 
-1937.39 -1543.39 1373.42 
-1933.83 -1542.95 1371.58 
-1937.83 -1544.4 1372.29 
-1928.95 -1542.02 1368.86 
-1929.03 -1542.54 1368.36 
-1929.57 -1542.97 1368.3 
-1928.92 -1542.33 1368.49 
-1928.79 -1542.08 1368.64 
-1928.88 -1541.76 1369.22 
-1928.58 -1541.73 1368.97 
-1929.05 -1541.6 1369.68 
-1932.85 -1542.17 1371.73 
-1929.29 -1541.54 1370.04 
-1928.55 -1541.5 1369.33 
-1939.47 -1544.67 1372.7 
-1938.24 -1543.4 1373.84 
-1937.7 -1540.85 1376.36 
-1935.66 -1538.27 1378.69 
-1937.25 -1539 1376.81 
-1935.52 -1538.9 1373.28 
-1937.47 -1539.38 1377.01 
-1919.12 -1541.26 1368.16 
-1926.06 -1541.11 1368.04 
-1924.65 -1540.75 1368.11 
-1926.43 -1541 1368.12 
-1920.39 -1539.21 1369.13 
-1924.83 -1543.01 1366.74 
-1926.28 -1541.76 1367.48 
-1926.2 -1541.16 1367.9 
-1927 -1540.81 1368.29 
-1926.21 -1541.34 1367.71 
-1915.8 -1539.23 1368.65 
-1917.33 -1538.84 1368.91 
-1917.98 -1538.57 1369.25 
-1907.18 -1546.84 1367.68 
-1908.84 -1545.85 1367.28 
-1910.44 -1545.19 1366.96 
-1909.49 -1545.17 1367.18 
-1915.55 -1542.72 1367.61 
-1915.85 -1543.98 1367.04 
-1913.86 -1544.3 1366.92 
-1912.43 -1541.13 1367.86 
-1912.56 -1544 1367.14 
-1906.58 -1545.79 1368.21 
-1903.65 -1545.47 1369.46 
-1904.06 -1540.18 1370.05 
-1904.13 -1539.64 1370.14 
-1904.09 -1540.85 1369.91 
-1904.31 -1538.7 1370.26 
-1903.69 -1537.41 1370.97 
-1904.18 -1537.82 1370.56 
-1903.49 -1542.86 1369.86 
-1904.2 -1543.07 1369.46 
-1920.17 -1534.31 1382.43 
-1928.54 -1535.5 1385.84 
-1927.82 -1535.42 1385.59 
-1926.21 -1534.92 1384.57 
-1923.51 -1534.4 1382.51 
-1924.57 -1534.52 1383.01 
-1926.53 -1535.13 1384.62 
-1933.66 -1535.3 1386.68 
-1931.12 -1535.41 1386.03 
-1929.41 -1535.61 1385.88 
-1935.76 -1534.95 1387.51 
-1935.35 -1534.98 1386.68 
-1934.52 -1535.34 1385.53 
-1934.92 -1535.26 1385.38 
-1934.07 -1535.3 1386.08 
-1935.19 -1535.33 1385.07 
-1911.69 -1535.79 1370.81 
-1914.82 -1535.89 1370.56 
-1915.55 -1535.89 1370.77 
-1916.91 -1536.12 1370.7 
-1917.12 -1536.07 1370.87 
-1908.99 -1535.55 1370.89 
-1910.42 -1535.73 1370.43 
-1907.9 -1535.55 1370.9 
-1920.06 -1537.29 1371.71 
-1919.8 -1537.06 1371.32 
-1919.81 -1537 1370.98 
-1907.15 -1535.48 1370.95 
-1917.61 -1535.88 1379.48 
-1920.22 -1536.66 1378 
-1922.99 -1537.48 1375.45 
-1920.15 -1536.9 1372.85 
-1920.42 -1537.27 1372.19 
-1918.52 -1535.85 1379.65 
-1918.55 -1535.11 1381.42 
-1919.78 -1535.79 1380.15 
-1906.11 -1535.62 1370.81 
-1905.47 -1536.1 1370.67 
-1906.79 -1535.53 1370.75 
-1904.89 -1536.5 1370.59 
-1904.21 -1537.06 1370.72 
-1904.66 -1536.83 1370.49 
-1935.56 -1535.25 1385.93 
-1935.64 -1536.17 1383.28 
-1934.89 -1537.96 1378.15 
-1929.49 -1543.34 1367.98 
-1929.27 -1545.86 1367.15 
-1937.19 -1542.04 1374.95 
-1936.8 -1541.3 1375.31 
-1929.14 -1542.75 1368.24 
-1928.28 -1541.72 1368.66 
-1928.56 -1541.9 1368.4 
-1928.59 -1542.1 1368.18 
-1928.76 -1542.2 1368.02 
-1928.34 -1541.69 1368.52 
-1928.21 -1541.45 1368.99 
-1927.95 -1541.44 1368.67 
-1928.35 -1541.15 1369.63 
-1928.12 -1541.06 1369.36 
-1931.26 -1541.87 1371.11 
-1935.74 -1540.74 1374.91 
-1930.79 -1541.46 1371.36 
-1928.41 -1541.06 1369.93 
-1927.91 -1541.2 1368.98 
-1937.5 -1539.97 1376.9 
-1934.86 -1538.19 1376.9 
-1936.33 -1537.5 1380.84 
-1935.71 -1538.94 1374.17 
-1937.06 -1539.23 1376.97 
-1914.59 -1539.81 1368.41 
-1927 -1540.81 1368.45 
-1924.72 -1540.44 1368.29 
-1927 -1540.81 1368.39 
-1920.72 -1539.05 1369.21 
-1927.11 -1540.72 1368.4 
-1918.06 -1538.18 1369.5 
-1926.42 -1542.15 1367.25 
-1926.4 -1541.63 1367.5 
-1926.53 -1541.03 1367.95 
-1927.02 -1540.8 1368.25 
-1927.42 -1540.95 1368.33 
-1927.47 -1541.02 1368.36 
-1927.31 -1540.86 1368.41 
-1926.51 -1541.22 1367.76 
-1911.88 -1538.16 1368.74 
-1911.2 -1538.46 1368.59 
-1913.79 -1538.03 1368.95 
-1915.15 -1537.9 1369.08 
-1908.85 -1542.51 1367.79 
-1908.06 -1542.48 1367.96 
-1911.55 -1541.64 1367.79 
-1910.33 -1541.98 1367.78 
-1913.77 -1540.35 1368.15 
-1911.41 -1539.13 1368.39 
-1909.08 -1538.64 1368.56 
-1909.16 -1539.28 1368.4 
-1905.59 -1545.36 1368.67 
-1904.87 -1543.29 1369.15 
-1904.89 -1540.21 1369.53 
-1904.93 -1539.22 1369.74 
-1904.82 -1541.13 1369.4 
-1904.94 -1537.86 1370.06 
-1904.65 -1537.15 1370.41 
-1905.37 -1540.7 1369.17 
-1920.74 -1534.51 1382.06 
-1928.74 -1535.46 1385.55 
-1927.91 -1535.37 1385.29 
-1923.29 -1534.72 1381.92 
-1925.65 -1534.8 1382.32 
-1925.96 -1534.8 1383.2 
-1926.71 -1535.19 1384.42 
-1928.08 -1535.25 1384.99 
-1932.68 -1535.41 1385.2 
-1930.9 -1535.51 1385.61 
-1929.44 -1535.61 1385.52 
-1935.32 -1535.72 1384.06 
-1934.05 -1536.09 1383.07 
-1933.01 -1536.05 1380.4 
-1933.32 -1536.26 1379.65 
-1933.22 -1535.8 1384.24 
-1933.81 -1536.54 1379.42 
-1912.61 -1536.01 1370.48 
-1915.55 -1536.14 1370.18 
-1916.72 -1536.29 1370.23 
-1916.93 -1536.24 1370.42 
-1919.62 -1537.04 1370.18 
-1919.79 -1537.01 1370.38 
-1920.49 -1537.28 1370.63 
-1909.38 -1535.81 1370.35 
-1910.98 -1536.08 1370.12 
-1908.11 -1535.89 1370.39 
-1925.37 -1539.42 1372.49 
-1926.76 -1539.86 1371.73 
-1927.21 -1540.02 1371.36 
-1907.24 -1535.87 1370.4 
-1922.52 -1537.79 1378.07 
-1924.91 -1539.19 1374.73 
-1924.38 -1539.24 1377.03 
-1920.52 -1536.34 1379.17 
-1919.79 -1535.36 1380.91 
-1921.13 -1536.06 1380.3 
-1921.59 -1536.41 1379.46 
-1906.39 -1535.66 1370.56 
-1905.86 -1536.08 1370.42 
-1906.94 -1535.93 1370.21 
-1905.49 -1536.48 1370.28 
-1905.07 -1536.88 1370.23 
-1934.45 -1537.51 1378.23 
-1934.38 -1537.71 1374.82 
-1934.72 -1537.85 1375.01 
-1937.23 -1539.72 1377.06 
-1928.84 -1542.23 1367.85 
-1929.08 -1542.8 1368.05 
-1928.44 -1543.07 1367.46 
-1927.81 -1541.44 1368.46 
-1928.16 -1541.46 1368.58 
-1928.96 -1541.85 1368.31 
-1929.26 -1540.73 1369.18 
-1929.56 -1541.11 1368.86 
-1929.01 -1542.05 1368.08 
-1929.15 -1542.11 1367.91 
-1927.61 -1541.16 1368.65 
-1927.56 -1541.19 1368.5 
-1925.62 -1539.75 1369.36 
-1925.52 -1539.81 1369.15 
-1925.46 -1539.92 1368.95 
-1925.75 -1540.03 1368.71 
-1934.04 -1540.46 1373.9 
-1936.36 -1540.09 1375.96 
-1936.92 -1539.73 1377.01 
-1930.45 -1541.18 1371.58 
-1928.3 -1540.83 1370.2 
-1932.24 -1540.61 1373.33 
-1925.92 -1539.75 1369.53 
-1925.67 -1540.43 1368.53 
-1935.29 -1538.07 1374.77 
-1935.67 -1538.55 1374.45 
-1936.51 -1538.84 1376.63 
-1936.88 -1539.28 1377.27 
-1925.74 -1542.67 1366.93 
-1926.56 -1542.46 1367.08 
-1926.24 -1542.74 1367.01 
-1924.76 -1543.42 1366.55 
-1920.94 -1538.81 1369.22 
-1927.03 -1540.77 1368.52 
-1927.39 -1540.99 1368.48 
-1927.32 -1540.95 1368.53 
-1927.39 -1540.97 1368.44 
-1918.28 -1537.86 1369.67 
-1915.29 -1537.52 1369.23 
-1926.73 -1541.95 1367.33 
-1927.24 -1541.34 1367.67 
-1927.18 -1541.11 1367.8 
-1927.15 -1540.74 1368.23 
-1927.11 -1540.73 1368.25 
-1927.47 -1540.79 1368.4 
-1927.71 -1541.09 1368.42 
-1927.58 -1540.99 1368.36 
-1927.83 -1541.19 1368.48 
-1927.58 -1541.16 1368.39 
-1927.33 -1540.82 1367.97 
-1910.5 -1537.35 1369.01 
-1909.4 -1537.37 1369.04 
-1908.91 -1538 1368.75 
-1912.34 -1537.43 1369.07 
-1907 -1542.44 1368.28 
-1908.28 -1544.93 1367.57 
-1906.95 -1539.7 1368.68 
-1909.46 -1542.34 1367.74 
-1907.42 -1539.55 1368.57 
-1907.73 -1539.14 1368.58 
-1906.4 -1540.07 1368.83 
-1908 -1537.94 1368.88 
-1907.85 -1538.57 1368.71 
-1905.99 -1542.96 1368.67 
-1905.71 -1540.49 1369.05 
-1905.48 -1539.38 1369.38 
-1905.35 -1540.3 1369.24 
-1905.39 -1538.38 1369.65 
-1905.62 -1537.42 1369.75 
-1905.37 -1536.98 1370.03 
-1905.84 -1539.93 1369.1 
-1905.7 -1539.8 1369.18 
-1921.19 -1534.74 1381.7 
-1928.8 -1535.38 1385.26 
-1923.69 -1535.12 1381.58 
-1924.29 -1535.18 1381.36 
-1924.7 -1535.06 1381.56 
-1925.71 -1534.84 1381.95 
-1926.08 -1534.78 1382.2 
-1926.58 -1534.75 1382.3 
-1926.63 -1534.85 1383.06 
-1927.12 -1535.26 1384.29 
-1928.35 -1535.13 1384.72 
-1928.83 -1535.31 1384.99 
-1932.12 -1535.56 1384.18 
-1930.77 -1535.61 1385.28 
-1929.46 -1535.55 1385.19 
-1934.01 -1537.08 1378.3 
-1932.83 -1535.74 1383.08 
-1931.95 -1535.75 1380.84 
-1932.46 -1536.92 1375.03 
-1932.69 -1536.92 1374.85 
-1932.93 -1536.74 1376.92 
-1933.03 -1537.03 1374.89 
-1933.43 -1537.2 1374.96 
-1914 -1536.17 1370.07 
-1916.66 -1536.43 1369.98 
-1916.19 -1536.56 1369.87 
-1919.51 -1537.21 1369.89 
-1919.76 -1537.2 1370.02 
-1925 -1539.19 1369.97 
-1925.91 -1539.64 1369.76 
-1928.65 -1540.36 1371.51 
-1909.68 -1536 1369.99 
-1911.33 -1536.41 1369.83 
-1908.38 -1536.12 1369.97 
-1927.45 -1539.92 1373.57 
-1928.76 -1540.1 1373.27 
-1930.04 -1540.09 1373.49 
-1907.57 -1536.27 1369.85 
-1923.44 -1538.22 1378.47 
-1925.54 -1539.5 1378.43 
-1925.06 -1539.33 1377.73 
-1925.91 -1539.5 1375.51 
-1922.46 -1535.17 1381.36 
-1922.85 -1535.42 1381.17 
-1922.46 -1536.36 1379.72 
-1922.48 -1536.02 1380.32 
-1923.65 -1538.27 1378.97 
-1906.61 -1536.05 1370.16 
-1906.27 -1536.28 1370.12 
-1907.15 -1536.55 1369.73 
-1905.89 -1536.6 1370.05 
-1933.91 -1537.45 1374.91 
-1935 -1538.37 1373.42 
-1935.19 -1538.47 1373.26 
-1935.47 -1538.52 1373.24 
-1925.12 -1543.55 1366.52 
-1926.84 -1542.58 1367.2 
-1926.1 -1543.34 1366.73 
-1928.03 -1543.07 1367.36 
-1928.2 -1542.63 1367.47 
-1928.13 -1542.32 1367.49 
-1929.13 -1542.14 1367.74 
-1929.48 -1542.22 1367.65 
-1929.15 -1542.42 1367.6 
-1927.58 -1541.19 1368.44 
-1927.76 -1541.38 1368.41 
-1927.95 -1541.39 1368.47 
-1928.33 -1540.85 1369.11 
-1929.07 -1540.3 1369.54 
-1929.87 -1541.51 1368.52 
-1929.26 -1541.93 1368.23 
-1929.93 -1539.58 1370.04 
-1930.15 -1540.09 1369.62 
-1930.46 -1540.51 1369.26 
-1929.44 -1542.12 1368.03 
-1929.51 -1542.19 1367.84 
-1919.44 -1537.31 1369.83 
-1919.11 -1537.35 1369.75 
-1921.32 -1538.34 1369.32 
-1919.05 -1537.47 1369.75 
-1921.03 -1538.47 1369.31 
-1934.25 -1539.88 1374.45 
-1936.06 -1539.83 1376.23 
-1936.69 -1539.37 1377.45 
-1929.84 -1540.73 1371.71 
-1931.55 -1540.07 1373.77 
-1931.99 -1540.33 1373.65 
-1933.29 -1539.74 1374.53 
-1935.81 -1538.3 1374.41 
-1935.74 -1538.62 1373.12 
-1935.87 -1538.58 1374.08 
-1936.35 -1538.91 1376.97 
-1927.44 -1542.11 1367.34 
-1927.34 -1541.91 1367.39 
-1918.54 -1537.7 1369.73 
-1915.69 -1537.2 1369.38 
-1912.34 -1537.05 1369.31 
-1927.64 -1541.42 1367.65 
-1928.37 -1541.05 1367.51 
-1928.2 -1540.86 1367.59 
-1928.11 -1540.65 1367.62 
-1927.38 -1540.56 1368.1 
-1927.43 -1540.17 1368.72 
-1927.62 -1540.22 1368.88 
-1927.82 -1540.2 1369.09 
-1927.82 -1540.57 1368.85 
-1928.02 -1540.5 1369.1 
-1928.18 -1540.59 1369.19 
-1928.05 -1540.44 1367.64 
-1910.13 -1536.78 1369.32 
-1909.06 -1536.84 1369.35 
-1908.29 -1537.36 1369.09 
-1906.99 -1539.05 1368.84 
-1906.27 -1539.31 1369.03 
-1907.06 -1538.44 1368.99 
-1907.31 -1537.47 1369.2 
-1907.38 -1538 1369.03 
-1905.92 -1538.95 1369.27 
-1905.82 -1538.14 1369.49 
-1905.91 -1537.16 1369.71 
-1906.06 -1537.7 1369.49 
-1924.41 -1535.23 1380.98 
-1924.7 -1535.09 1381.11 
-1924.78 -1535.04 1381.37 
-1926.32 -1534.82 1381.23 
-1927.31 -1534.78 1381.66 
-1927.35 -1534.76 1382.32 
-1927.4 -1534.94 1383 
-1927.26 -1535.15 1383.58 
-1928.63 -1535.19 1384.56 
-1926.96 -1535.45 1384.22 
-1928.16 -1535.36 1384.43 
-1929.02 -1535.3 1384.79 
-1931.94 -1535.63 1383.62 
-1930.67 -1535.69 1384.96 
-1929.56 -1535.49 1384.91 
-1932.02 -1535.59 1382.25 
-1930.96 -1535.48 1381.17 
-1929.78 -1535.13 1380.08 
-1931.3 -1536.12 1377.07 
-1931.64 -1536.94 1374.49 
-1933.23 -1537.99 1373.29 
-1933.8 -1538.32 1373.06 
-1933.85 -1538.02 1373.49 
-1934.16 -1537.98 1373.66 
-1934.73 -1538.25 1373.52 
-1914.7 -1536.44 1369.78 
-1916.45 -1536.89 1369.66 
-1931 -1539.8 1374.26 
-1909.55 -1536.2 1369.69 
-1911.09 -1536.66 1369.52 
-1914.3 -1536.72 1369.58 
-1928.33 -1539.87 1374.04 
-1929.81 -1539.81 1374.17 
-1908.47 -1536.45 1369.6 
-1926.02 -1539.6 1379.09 
-1925.84 -1539.37 1378.26 
-1926.4 -1539.51 1378.91 
-1926.48 -1539.49 1376.03 
-1924.23 -1535.35 1380.78 
-1923.12 -1535.6 1380.94 
-1923.89 -1535.48 1380.65 
-1924.08 -1538.61 1379.53 
-1923.02 -1536.72 1380.08 
-1923.18 -1536.23 1380.56 
-1926.17 -1539.67 1379.67 
-1906.67 -1536.75 1369.72 
-1906.27 -1536.96 1369.71 
-1907.52 -1536.84 1369.48 
-1934.78 -1538.59 1372.85 
-1935.02 -1538.73 1372.6 
-1935.33 -1538.79 1372.59 
-1928.16 -1541.96 1367.52 
-1928.83 -1542.05 1367.46 
-1929.03 -1542.38 1367.56 
-1928.79 -1541.68 1367.35 
-1929.26 -1542.4 1367.43 
-1929.62 -1542.28 1367.48 
-1929.95 -1542.29 1367.7 
-1929.3 -1542.38 1367.28 
-1929.05 -1542.16 1367.31 
-1928.52 -1540.32 1369.56 
-1929.29 -1539.5 1370.15 
-1930.79 -1540.91 1368.93 
-1930.06 -1542.02 1368.08 
-1930.82 -1539.19 1370.36 
-1930.18 -1538.62 1370.81 
-1930.62 -1538.77 1370.73 
-1931.06 -1539.6 1370.01 
-1931.36 -1539.98 1369.7 
-1918.81 -1537.58 1369.75 
-1934.6 -1539.64 1375.03 
-1935.75 -1539.64 1376.5 
-1936.42 -1539.27 1377.57 
-1934.86 -1539.32 1375.98 
-1932.68 -1539.6 1374.9 
-1934.03 -1539.55 1375.36 
-1936.14 -1538.47 1374.2 
-1935.88 -1538.78 1372.78 
-1935.59 -1538.83 1372.58 
-1936.1 -1538.67 1373.97 
-1928.43 -1541.52 1367.48 
-1928.26 -1541.37 1367.54 
-1916.3 -1537.08 1369.51 
-1909.95 -1536.48 1369.48 
-1929.41 -1540.39 1366.86 
-1929.25 -1540.29 1366.92 
-1929.08 -1540.19 1367 
-1928.95 -1540.07 1367.05 
-1927.36 -1540.35 1368.17 
-1927.93 -1540.28 1367.69 
-1927.52 -1539.78 1368.93 
-1927.7 -1539.65 1369.34 
-1927.88 -1539.73 1369.46 
-1928.05 -1539.97 1369.47 
-1928.24 -1540.01 1369.63 
-1928.5 -1539.94 1369.83 
-1928.84 -1539.93 1367.09 
-1908.81 -1536.67 1369.43 
-1907.83 -1537.09 1369.27 
-1906.38 -1538.62 1369.15 
-1906.69 -1537.86 1369.26 
-1906.3 -1538.18 1369.29 
-1906.92 -1537.15 1369.43 
-1906.43 -1537.47 1369.41 
-1924.78 -1535.26 1380.36 
-1925.01 -1535.12 1380.63 
-1925.39 -1535 1380.97 
-1928.95 -1534.88 1381.07 
-1928.06 -1534.66 1380.36 
-1927.09 -1534.82 1378.79 
-1928.45 -1535.02 1378 
-1928.4 -1534.84 1382.12 
-1929.2 -1534.96 1381.75 
-1927.77 -1534.97 1382.78 
-1927.46 -1535.1 1383.23 
-1927.19 -1535.22 1383.38 
-1928.79 -1535.5 1384.51 
-1929.33 -1535.46 1384.67 
-1927.99 -1535.68 1384.34 
-1926.78 -1535.53 1384.05 
-1931.28 -1535.51 1383.17 
-1930.42 -1535.65 1384.53 
-1929.72 -1535.53 1384.76 
-1931.16 -1535.4 1382.15 
-1930.29 -1535.29 1381.4 
-1929.33 -1534.97 1380.7 
-1931.05 -1536.59 1375.53 
-1930.52 -1535.78 1377.71 
-1933.52 -1538.42 1372.75 
-1933.6 -1538.62 1372.3 
-1934.11 -1538.51 1372.82 
-1934.51 -1538.44 1373.1 
-1931.72 -1539.53 1375.11 
-1930.82 -1539.58 1374.92 
-1928.88 -1539.75 1374.59 
-1930.02 -1539.61 1374.86 
-1926.62 -1539.59 1379.41 
-1926.61 -1539.38 1378.78 
-1927.1 -1539.47 1376.54 
-1926.82 -1539.43 1379.31 
-1924.38 -1535.38 1379.87 
-1923.4 -1535.91 1380.9 
-1923.66 -1535.61 1380.55 
-1924.03 -1535.51 1379.93 
-1924.18 -1539.03 1379.93 
-1926.17 -1539.69 1380.24 
-1923.47 -1537.33 1380.47 
-1923.58 -1536.65 1380.76 
-1926.6 -1539.6 1379.73 
-1926.63 -1539.5 1380.19 
-1934.35 -1538.7 1372.45 
-1934.57 -1538.89 1372.1 
-1934.91 -1539.03 1371.89 
-1935.31 -1538.99 1372.12 
-1930.09 -1540.98 1366.77 
-1929.97 -1540.68 1366.65 
-1929.72 -1540.57 1366.73 
-1929.74 -1542.34 1367.28 
-1930.05 -1542.36 1367.44 
-1930.59 -1542.17 1367.92 
-1930.5 -1542.39 1367.57 
-1930.29 -1541.31 1366.86 
-1930.37 -1541.64 1366.95 
-1930.92 -1541.54 1366.97 
-1929.31 -1538.84 1370.68 
-1931.67 -1540.36 1369.4 
-1931.07 -1541.29 1368.6 
-1931.16 -1538.78 1371.06 
-1931.43 -1539.19 1370.71 
-1930.21 -1538.11 1371.29 
-1930.84 -1538.34 1371.39 
-1931.67 -1539.59 1370.37 
-1931.98 -1540.02 1370.02 
-1935.44 -1539.46 1376.74 
-1935.05 -1539.28 1376.44 
-1933.05 -1539.44 1375.63 
-1933.9 -1539.48 1375.89 
-1936.39 -1538.6 1373.94 
-1936.05 -1538.9 1372.56 
-1935.66 -1539.03 1372.09 
-1929.58 -1540.47 1366.78 
-1929.93 -1539.68 1366.61 
-1929.71 -1539.68 1366.7 
-1929.58 -1539.52 1366.76 
-1929.46 -1539.42 1366.81 
-1929.35 -1539.35 1366.85 
-1927.37 -1540.08 1368.29 
-1927.79 -1540.15 1367.74 
-1928.69 -1539.82 1367.16 
-1927.62 -1539.45 1369.08 
-1927.81 -1539.12 1369.73 
-1927.99 -1539.13 1369.96 
-1928.14 -1539.36 1369.95 
-1928.32 -1539.47 1370.05 
-1928.55 -1539.49 1370.19 
-1929.24 -1539.27 1366.88 
-1925.34 -1535.14 1380.03 
-1924.99 -1535.24 1379.38 
-1925.79 -1534.93 1380.07 
-1929.26 -1535.41 1377.63 
-1929.76 -1535.16 1381.57 
-1928.32 -1535.21 1377.31 
-1927.88 -1535.34 1376.89 
-1927.84 -1535.21 1376.91 
-1929.69 -1536.07 1375.85 
-1930.09 -1536.09 1376.1 
-1929.8 -1535.23 1383.07 
-1929.38 -1535.28 1383.13 
-1928.47 -1534.95 1381.79 
-1928.04 -1534.88 1382.17 
-1930.35 -1535.22 1382.26 
-1927.61 -1535.06 1382.75 
-1927.32 -1535.19 1382.89 
-1926.9 -1535.36 1383.4 
-1928.91 -1535.79 1384.48 
-1929.34 -1535.71 1384.61 
-1929.82 -1535.78 1384.72 
-1927.4 -1535.88 1384.19 
-1928.27 -1535.97 1384.27 
-1928.68 -1535.92 1384.38 
-1926.59 -1535.57 1383.9 
-1930.54 -1535.38 1383.15 
-1930.23 -1535.77 1384.48 
-1930.65 -1536.14 1376.35 
-1930.7 -1536.88 1374.46 
-1933.09 -1538.35 1372.64 
-1933.19 -1538.4 1371.77 
-1933.91 -1538.74 1372.15 
-1933.04 -1538.5 1371.44 
-1933.19 -1538.61 1371.16 
-1931.98 -1539.36 1375.81 
-1930.78 -1539.41 1375.61 
-1929.52 -1539.55 1375.36 
-1926.86 -1539.51 1379.69 
-1926.68 -1539.57 1379.78 
-1927.62 -1539.41 1377.11 
-1926.93 -1539.26 1379.04 
-1928.76 -1539.62 1375.31 
-1927.12 -1539.4 1379.97 
-1927.1 -1539.32 1379.55 
-1924.63 -1535.34 1378.98 
-1924.48 -1535.48 1379.36 
-1923.61 -1535.85 1380.98 
-1923.94 -1535.72 1380.57 
-1924.32 -1535.63 1379.92 
-1924.12 -1539.07 1380.28 
-1925.97 -1539.69 1380.75 
-1926.6 -1539.42 1380.66 
-1924.3 -1538.69 1380.62 
-1923.82 -1537.05 1380.67 
-1923.8 -1536.06 1380.95 
-1926.87 -1539.44 1380.17 
-1926.82 -1539.35 1380.71 
-1934.08 -1538.91 1371.75 
-1934.08 -1539.01 1371.17 
-1934.53 -1539.12 1371.51 
-1934.62 -1539.27 1371 
-1935.08 -1539.2 1371.56 
-1935.4 -1539.19 1371.7 
-1931.28 -1540.16 1366.66 
-1930.94 -1539.9 1366.6 
-1930.43 -1539.95 1366.53 
-1930.09 -1539.77 1366.54 
-1930.25 -1542.43 1367.26 
-1931.29 -1541.61 1367.01 
-1930.51 -1542.44 1367.4 
-1931.1 -1542.3 1367.78 
-1931.77 -1541.31 1368.55 
-1930.99 -1542.51 1367.46 
-1931.87 -1540.19 1366.75 
-1932.16 -1539.93 1367.03 
-1928.76 -1538.81 1370.72 
-1929.79 -1537.87 1371.46 
-1931.93 -1540.72 1369.11 
-1932.33 -1540.45 1369.73 
-1931.4 -1538.46 1371.66 
-1931.7 -1538.89 1371.32 
-1932 -1539.26 1371.05 
-1930.42 -1537.6 1372.06 
-1930.68 -1537.93 1371.82 
-1931.21 -1538.05 1372.06 
-1932.21 -1539.68 1370.65 
-1932.52 -1540.11 1370.31 
-1935.15 -1539.33 1376.99 
-1934.61 -1539.21 1376.62 
-1932.68 -1539.38 1376.16 
-1933.64 -1539.44 1376.36 
-1936.55 -1538.71 1373.7 
-1936.52 -1538.69 1375.2 
-1936.1 -1538.67 1373.97 
-1936.24 -1539.03 1372.33 
-1935.93 -1539.14 1371.97 
-1935.65 -1539.31 1371.51 
-1930.25 -1539.22 1366.51 
-1930.09 -1539.16 1366.57 
-1929.9 -1539.33 1366.64 
-1929.83 -1539.13 1366.67 
-1929.74 -1539.03 1366.7 
-1929.63 -1538.94 1366.74 
-1929.52 -1538.87 1366.77 
-1927.47 -1539.72 1368.48 
-1927.61 -1540.05 1367.83 
-1928.51 -1539.71 1367.24 
-1929.13 -1539.18 1366.92 
-1927.93 -1538.72 1369.97 
-1927.74 -1539.09 1369.29 
-1928.1 -1538.52 1370.45 
-1928.27 -1538.67 1370.53 
-1928.41 -1538.86 1370.55 
-1929.41 -1538.8 1366.81 
-1925.69 -1534.99 1378.82 
-1925.55 -1535.21 1378.49 
-1926.07 -1534.77 1378.73 
-1927.79 -1535.46 1376.29 
-1930.05 -1536.87 1373.47 
-1929.77 -1536.71 1374.02 
-1930.04 -1536.79 1374.16 
-1930.12 -1536.8 1374.3 
-1927.25 -1534.97 1380.63 
-1928.2 -1535.15 1380.24 
-1929.6 -1535.49 1382.87 
-1930.39 -1535.97 1384.27 
-1927.69 -1535.04 1382.09 
-1927.42 -1535.17 1382.44 
-1927.03 -1535.33 1382.96 
-1926.72 -1535.65 1383.71 
-1929.15 -1536.09 1384.42 
-1929.53 -1535.97 1384.58 
-1929.87 -1536.03 1384.57 
-1927.77 -1536.1 1384.12 
-1928.75 -1536.19 1384.27 
-1928.35 -1536.23 1384.18 
-1932.54 -1538.15 1372.45 
-1932.58 -1538.28 1371.63 
-1932.55 -1538.33 1371.06 
-1933.55 -1538.76 1371.32 
-1932.57 -1538.42 1370.42 
-1932.93 -1538.61 1370.24 
-1931.04 -1539.37 1376.13 
-1929.74 -1539.47 1375.91 
-1928.33 -1539.46 1376.73 
