-1777.04 -1726.26 -140.379 
-1776.2 -1726.44 -140.691 
-1779.13 -1725.7 -141.34 
-1781.83 -1726.28 -139.867 
-1780.92 -1726.99 -139.534 
-1781.73 -1726.55 -139.748 
-1779.75 -1725.41 -142.026 
-1779.83 -1724.88 -143.324 
-1779.12 -1724.9 -143.783 
-1778.27 -1725.07 -144.091 
-1779.55 -1724.13 -145.33 
-1778.94 -1725.53 -142.342 
-1776.68 -1726.38 -139.95 
-1776 -1726.78 -139.647 
-1777.31 -1726.76 -139.69 
-1774.95 -1726.92 -140.542 
-1775.63 -1726.52 -141.203 
-1774.69 -1727.03 -141.061 
-1774.65 -1726.95 -141.289 
-1776.94 -1727.76 -139.312 
-1776.63 -1727.49 -139.392 
-1776.3 -1727.23 -139.465 
-1781.15 -1727.62 -139.224 
-1780.86 -1727.46 -139.317 
-1781.46 -1729.29 -138.895 
-1781.8 -1728.91 -138.971 
-1781.48 -1728.61 -138.986 
-1780.58 -1727.31 -139.438 
-1777.29 -1728.23 -139.132 
-1776.78 -1728.01 -139.161 
-1782.8 -1733.43 -141.831 
-1783.15 -1733.75 -142.489 
-1775.21 -1726.62 -141.595 
-1777.14 -1725.96 -142.521 
-1775.29 -1726.46 -142.649 
-1775.57 -1726.23 -143.119 
-1777.24 -1725.24 -144.361 
-1779.23 -1724.22 -145.64 
-1775.27 -1726.55 -141.938 
-1783.28 -1734.12 -143.2 
-1783.37 -1734.01 -142.956 
-1783.26 -1733.91 -142.799 
-1775.18 -1726.9 -140.094 
-1775.66 -1727.17 -139.568 
-1775.22 -1727.21 -140.089 
-1774.86 -1727.2 -140.667 
-1774.6 -1727.3 -141.136 
-1774.32 -1727.23 -141.886 
-1774.38 -1727.41 -141.574 
-1776.28 -1727.75 -139.216 
-1775.94 -1727.48 -139.324 
-1781.7 -1728.21 -139.084 
-1782.13 -1727.67 -139.169 
-1777.78 -1728.72 -138.945 
-1777.61 -1728.47 -139.031 
-1781.56 -1729.98 -138.802 
-1781.45 -1729.63 -138.837 
-1777.51 -1729.41 -138.512 
-1777.77 -1729.19 -138.666 
-1777.54 -1728.89 -138.8 
-1776.94 -1728.42 -138.971 
-1776.52 -1728.23 -139.007 
-1776.08 -1728.02 -139.14 
-1783.02 -1733.66 -142.338 
-1782.54 -1733.04 -141.088 
-1782.72 -1733.26 -141.547 
-1782.36 -1732.87 -140.78 
-1782.2 -1732.67 -140.37 
-1780.33 -1733.6 -141.909 
-1780.69 -1733.27 -141.02 
-1780.36 -1733.51 -141.336 
-1779.33 -1734.01 -142.913 
-1779.5 -1733.87 -142.296 
-1774.29 -1727.17 -142.226 
-1778.77 -1724.47 -145.779 
-1774.37 -1726.94 -142.441 
-1774.11 -1727.31 -142.899 
-1774.21 -1726.99 -143.073 
-1774.74 -1726.46 -143.391 
-1776.79 -1725.43 -144.605 
-1783.15 -1734.24 -143.524 
-1783.55 -1734.38 -144.194 
-1783.09 -1734.34 -143.862 
-1779.08 -1734.37 -143.663 
-1779.14 -1734.17 -143.394 
-1775.53 -1727.58 -139.715 
-1775.2 -1727.61 -140.193 
-1774.93 -1727.65 -140.582 
-1774.66 -1727.7 -140.936 
-1774.44 -1727.83 -141.275 
-1774.3 -1727.82 -141.56 
-1774.09 -1727.85 -142.03 
-1773.98 -1727.8 -142.436 
-1775.73 -1727.87 -139.497 
-1777.09 -1728.65 -138.864 
-1781.58 -1730.69 -138.718 
-1781.59 -1730.35 -138.799 
-1778.6 -1730.1 -138.498 
-1777.72 -1729.7 -138.436 
-1776.93 -1729.21 -138.55 
-1777.06 -1729.84 -138.556 
-1776.88 -1729.54 -138.551 
-1777.07 -1728.99 -138.666 
-1776.73 -1728.8 -138.73 
-1776.43 -1728.54 -138.846 
-1776.09 -1728.42 -139.075 
-1775.75 -1728.4 -139.494 
-1782.79 -1731.66 -138.874 
-1780.99 -1731.38 -138.843 
-1781.24 -1731.23 -138.785 
-1782.1 -1731.56 -138.998 
-1781.95 -1731.77 -139.229 
-1781.52 -1731.03 -138.725 
-1780.5 -1732.96 -140.452 
-1780.01 -1733.18 -140.617 
-1781.87 -1732.37 -139.79 
-1782.02 -1732.55 -140.158 
-1780.17 -1732.8 -140.071 
-1780.28 -1732.61 -139.792 
-1781.66 -1732.23 -139.581 
-1781.36 -1732.11 -139.492 
-1779.65 -1733.79 -141.664 
-1779.47 -1733.46 -140.854 
-1779.12 -1733.74 -141.167 
-1778.57 -1734.17 -142.438 
-1778.47 -1734.24 -143.108 
-1778.77 -1734.06 -141.763 
-1773.99 -1727.65 -142.731 
-1778.12 -1724.85 -145.887 
-1777.77 -1725.08 -146.042 
-1776.36 -1725.69 -144.799 
-1773.76 -1727.89 -143.023 
-1773.91 -1727.5 -143.182 
-1774.01 -1727.26 -143.461 
-1774.12 -1727.02 -143.56 
-1774.83 -1726.47 -143.836 
-1783.48 -1734.43 -144.646 
-1779.09 -1734.57 -143.862 
-1778.99 -1734.78 -144.162 
-1779.23 -1734.83 -144.454 
-1778.36 -1734.5 -144.213 
-1778.46 -1734.31 -143.79 
-1775.32 -1728.02 -140.052 
-1775.01 -1728.18 -140.429 
-1774.72 -1728.21 -140.789 
-1774.44 -1728.33 -141.178 
-1774.2 -1728.38 -141.557 
-1774.04 -1728.29 -141.937 
-1773.8 -1728.33 -142.485 
-1773.69 -1728.21 -142.844 
-1775.47 -1728.37 -139.857 
-1778.52 -1730.41 -138.489 
-1777.57 -1730.18 -138.423 
-1776.52 -1729.61 -138.764 
-1776.61 -1729.12 -138.631 
-1776.65 -1730.08 -138.885 
-1777.13 -1730.41 -138.633 
-1776.37 -1728.89 -138.784 
-1776.13 -1728.79 -139.052 
-1775.8 -1728.83 -139.445 
-1775.4 -1728.9 -139.94 
-1781.19 -1731.97 -139.341 
-1781.1 -1731.61 -138.976 
-1779.54 -1731.74 -138.648 
-1779.03 -1731.73 -138.555 
-1778.77 -1731.25 -138.521 
-1778.87 -1730.76 -138.554 
-1781.08 -1731.78 -139.093 
-1779.34 -1733.04 -140.148 
-1778.71 -1733.29 -140.381 
-1780.01 -1732.42 -139.438 
-1779.37 -1732.73 -139.661 
-1779.29 -1732.5 -139.311 
-1779.95 -1732.23 -139.258 
-1779.77 -1732.03 -139.006 
-1778.34 -1733.51 -140.707 
-1778.25 -1733.9 -141.19 
-1777.96 -1734.31 -142.191 
-1777.85 -1734.38 -142.789 
-1777.91 -1734.43 -143.433 
-1778.02 -1734.17 -141.593 
-1778.66 -1724.67 -146.786 
-1776.23 -1725.86 -145.032 
-1776.1 -1726.05 -145.236 
-1777.41 -1725.37 -146.095 
-1778.67 -1724.75 -147.051 
-1774.97 -1726.51 -144.265 
-1773.64 -1727.95 -143.475 
-1773.49 -1728.44 -142.978 
-1773.47 -1728.27 -143.252 
-1773.73 -1727.76 -143.784 
-1773.79 -1727.56 -143.942 
-1774.02 -1727.23 -143.902 
-1783.14 -1734.38 -145.691 
-1783.38 -1734.39 -145.37 
-1782.99 -1734.45 -145.015 
-1778.53 -1734.67 -144.299 
-1778.43 -1734.81 -144.629 
-1779.36 -1734.87 -144.832 
-1778.64 -1734.88 -144.8 
-1777.95 -1734.71 -144.72 
-1777.61 -1734.6 -144.61 
-1777.94 -1734.47 -144.102 
-1775.14 -1728.62 -140.273 
-1774.8 -1728.73 -140.649 
-1774.5 -1728.79 -141.027 
-1774.22 -1728.92 -141.47 
-1773.99 -1728.76 -141.887 
-1773.82 -1728.64 -142.319 
-1773.62 -1728.61 -142.772 
-1778.15 -1730.76 -138.481 
-1777.67 -1730.71 -138.516 
-1776.3 -1730.22 -139.156 
-1776.36 -1729.3 -138.797 
-1776.26 -1729.79 -139.036 
-1776.71 -1730.6 -138.966 
-1777.29 -1730.97 -138.648 
-1776.15 -1729.16 -139.051 
-1775.9 -1729.18 -139.372 
-1775.57 -1729.21 -139.752 
-1774.99 -1729.14 -140.437 
-1775.21 -1729.42 -140.183 
-1779.84 -1731.86 -138.864 
-1779.29 -1732.04 -138.678 
-1778.88 -1731.9 -138.714 
-1778.55 -1731.58 -138.664 
-1778.22 -1731.12 -138.588 
-1778.78 -1732.75 -139.724 
-1778.5 -1732.8 -139.947 
-1778.21 -1732.92 -140.244 
-1779.12 -1732.35 -139.113 
-1778.78 -1732.5 -139.346 
-1778.71 -1732.26 -139.093 
-1779.29 -1732.24 -138.975 
-1779.15 -1732.13 -138.815 
-1778 -1733.45 -140.889 
-1777.98 -1732.96 -140.525 
-1777.91 -1733.8 -141.407 
-1777.48 -1734.15 -142.828 
-1777.7 -1734.08 -142.099 
-1777.48 -1734.35 -143.373 
-1777.46 -1734.52 -143.986 
-1774.48 -1726.99 -144.601 
-1776.23 -1726.1 -145.621 
-1774.47 -1727.14 -145.072 
-1777.46 -1725.47 -146.368 
-1778.7 -1724.85 -147.306 
-1778.82 -1724.9 -147.595 
-1773.99 -1727.36 -144.223 
-1773.4 -1728.41 -143.875 
-1773.43 -1728.28 -144.164 
-1773.38 -1728.66 -143.124 
-1773.47 -1728.86 -142.929 
-1773.34 -1728.7 -143.586 
-1773.49 -1728.05 -144.284 
-1773.65 -1727.81 -144.32 
-1783.41 -1734.31 -146.08 
-1779.69 -1734.84 -145.594 
-1779.24 -1734.96 -145.189 
-1783.6 -1734.22 -146.477 
-1783.88 -1734.03 -147.256 
-1783.57 -1734.14 -146.854 
-1777.94 -1734.84 -145.111 
-1778.49 -1734.95 -145.144 
-1777.42 -1734.74 -145.12 
-1777.2 -1734.51 -144.705 
-1774.67 -1729.25 -140.789 
-1774.4 -1729.29 -141.174 
-1774.16 -1729.38 -141.634 
-1773.98 -1729.15 -141.918 
-1773.8 -1728.95 -142.28 
-1773.65 -1728.88 -142.663 
-1777.89 -1731.28 -138.622 
-1776.11 -1730.28 -139.344 
-1776.35 -1730.63 -139.215 
-1776.13 -1729.52 -139.109 
-1776.04 -1729.92 -139.292 
-1776.8 -1730.94 -138.946 
-1777.14 -1731.26 -138.818 
-1777.69 -1731.39 -138.697 
-1775.87 -1729.57 -139.442 
-1775.53 -1729.59 -139.843 
-1774.93 -1729.58 -140.528 
-1775.2 -1729.78 -140.245 
-1778.75 -1731.95 -138.844 
-1778.32 -1731.7 -138.749 
-1778.36 -1732.43 -139.559 
-1778.7 -1732.33 -139.275 
-1778.11 -1732.51 -139.83 
-1777.8 -1732.61 -140.129 
-1778.9 -1732.15 -138.983 
-1778.58 -1732.01 -138.915 
-1778.39 -1732.07 -138.985 
-1777.87 -1733.22 -141.038 
-1777.69 -1732.77 -140.648 
-1777.77 -1733.66 -141.665 
-1777.17 -1734.07 -143.609 
-1777.15 -1733.85 -143.18 
-1777.48 -1733.83 -142.408 
-1777.2 -1734.28 -144.089 
-1773.68 -1727.86 -144.561 
-1773.8 -1727.76 -144.849 
-1775.21 -1726.82 -145.675 
-1773.81 -1727.87 -145.334 
-1777.26 -1725.68 -146.507 
-1778.81 -1725.01 -147.813 
-1779.56 -1724.62 -148.429 
-1777.45 -1725.7 -146.921 
-1773.28 -1728.72 -144.336 
-1773.31 -1728.86 -144.067 
-1773.24 -1728.51 -144.594 
-1773.24 -1728.84 -144.624 
-1773.38 -1728.98 -143.248 
-1773.57 -1729.17 -142.741 
-1773.43 -1729.19 -143.042 
-1773.34 -1729.12 -143.702 
-1773.33 -1728.33 -144.708 
-1780.01 -1734.68 -146.083 
-1778.67 -1735.08 -146.049 
-1778.55 -1735.23 -145.789 
-1778.29 -1735.16 -145.638 
-1783.55 -1733.91 -147.923 
-1783.53 -1733.99 -147.575 
-1780.01 -1734.48 -147.005 
-1780.17 -1734.55 -146.607 
-1777.8 -1735.07 -145.648 
-1777.37 -1734.87 -145.547 
-1777.11 -1734.59 -145.291 
-1776.9 -1734.34 -145.282 
-1776.96 -1734.24 -144.744 
-1774.67 -1729.61 -140.831 
-1774.37 -1729.67 -141.305 
-1774.11 -1729.78 -141.806 
-1773.9 -1729.58 -142.131 
-1773.76 -1729.25 -142.324 
-1775.96 -1730.37 -139.506 
-1776.2 -1730.63 -139.341 
-1776.51 -1731.03 -139.147 
-1775.81 -1729.96 -139.552 
-1776.91 -1731.41 -139.001 
-1777.56 -1731.56 -138.86 
-1778.11 -1731.76 -138.825 
-1775.49 -1729.97 -139.934 
-1774.91 -1729.9 -140.597 
-1775.17 -1730.08 -140.325 
-1777.92 -1732.25 -139.415 
-1778.18 -1732.15 -139.177 
-1777.68 -1732.39 -139.682 
-1777.34 -1732.46 -139.91 
-1777.92 -1731.89 -138.963 
-1777.75 -1733.17 -141.344 
-1777.45 -1732.83 -141.052 
-1777.14 -1732.52 -140.33 
-1777.54 -1733.44 -142.054 
-1776.87 -1734 -144.364 
-1776.82 -1733.78 -143.932 
-1776.91 -1733.5 -143.468 
-1777.24 -1733.56 -142.774 
-1773.38 -1728.35 -144.906 
-1773.47 -1728.3 -145.108 
-1774.05 -1727.69 -145.733 
-1775.59 -1726.73 -146.184 
-1773.73 -1728.15 -145.783 
-1773.55 -1728.34 -145.467 
-1779.53 -1724.66 -148.573 
-1777.06 -1726.06 -147.187 
-1778.48 -1725.31 -147.908 
-1775.41 -1726.95 -146.51 
-1779.24 -1725.03 -148.706 
-1779.37 -1724.83 -148.621 
-1779.43 -1725.26 -148.948 
-1773.27 -1729.16 -144.548 
-1773.28 -1729.21 -144.199 
-1773.21 -1728.74 -144.848 
-1773.23 -1729.1 -144.826 
-1773.38 -1729.36 -143.331 
-1773.62 -1729.5 -142.593 
-1773.48 -1729.42 -142.903 
-1773.45 -1729.61 -143.163 
-1773.3 -1729.47 -143.905 
-1773.28 -1728.66 -144.978 
-1778.87 -1734.86 -146.355 
-1778.01 -1735.44 -146.396 
-1778.2 -1735.26 -146.659 
-1777.72 -1735.24 -146.135 
-1783.14 -1733.89 -148.206 
-1779.99 -1734.39 -147.444 
-1778.77 -1734.66 -147.229 
-1778.57 -1734.88 -146.844 
-1777.34 -1734.91 -145.894 
-1777.06 -1734.6 -145.626 
-1776.67 -1734.03 -145.105 
-1776.77 -1734.25 -145.528 
-1774.62 -1729.94 -140.974 
-1774.28 -1730.08 -141.578 
-1773.96 -1730.04 -142.131 
-1773.75 -1729.82 -142.46 
-1775.71 -1730.29 -139.744 
-1776.25 -1730.88 -139.335 
-1775.96 -1730.62 -139.59 
-1776.47 -1731.29 -139.252 
-1777.35 -1731.71 -139.045 
-1776.83 -1731.66 -139.204 
-1775.41 -1730.29 -140.079 
-1774.84 -1730.2 -140.722 
-1775.12 -1730.37 -140.43 
-1777.33 -1732.21 -139.436 
-1777.52 -1732 -139.191 
-1776.87 -1732.2 -139.684 
-1777.5 -1733.1 -141.811 
-1777.09 -1732.72 -141.505 
-1776.89 -1732.46 -140.909 
-1776.54 -1732.11 -140.205 
-1777.16 -1733.23 -142.711 
-1776.53 -1733.75 -144.76 
-1776.52 -1733.5 -144.328 
-1776.66 -1733.22 -143.662 
-1773.38 -1728.63 -145.173 
-1774 -1727.87 -146.147 
-1773.67 -1728.38 -145.854 
-1773.86 -1728.16 -146.167 
-1773.51 -1728.62 -145.541 
-1775 -1727.39 -146.749 
-1776.5 -1726.59 -147.424 
-1778.05 -1725.73 -148.101 
-1779.31 -1725.79 -149.016 
-1779.55 -1726.07 -149.253 
-1778.21 -1726 -148.412 
-1773.26 -1729.45 -144.789 
-1773.27 -1729.52 -144.45 
-1773.22 -1729 -145.016 
-1773.23 -1729.34 -145.006 
-1773.39 -1729.69 -143.544 
-1773.57 -1729.72 -142.885 
-1773.61 -1729.95 -143.188 
-1773.53 -1729.93 -143.432 
-1773.3 -1729.76 -144.231 
-1773.29 -1728.91 -145.143 
-1778.79 -1727.5 -149.294 
-1779.47 -1726.56 -149.357 
-1777.58 -1735.29 -146.734 
-1777.52 -1735.13 -146.437 
-1777.69 -1735.15 -146.999 
-1777.21 -1734.83 -146.153 
-1783.15 -1733.8 -148.597 
-1779.68 -1734.29 -147.944 
-1778.78 -1734.48 -147.65 
-1777.93 -1734.9 -147.238 
-1778.23 -1734.66 -147.501 
-1776.95 -1734.52 -145.869 
-1776.47 -1733.87 -145.366 
-1776.64 -1734.14 -145.741 
-1774.52 -1730.33 -141.245 
-1774.16 -1730.29 -141.939 
-1773.92 -1730.11 -142.373 
-1773.73 -1729.93 -142.726 
-1775.61 -1730.52 -140.01 
-1776.14 -1731.01 -139.558 
-1775.86 -1730.82 -139.88 
-1776.45 -1731.61 -139.537 
-1776.2 -1731.31 -139.67 
-1776.89 -1731.93 -139.397 
-1775.31 -1730.58 -140.346 
-1774.87 -1730.51 -140.744 
-1776.43 -1731.84 -139.827 
-1776.99 -1732.88 -142.206 
-1776.62 -1732.53 -141.863 
-1776.51 -1732.31 -141.279 
-1776.33 -1732.06 -140.742 
-1775.98 -1731.7 -140.35 
-1776.68 -1732.97 -142.998 
-1776.22 -1733.53 -145.163 
-1776.22 -1733.2 -144.423 
-1776.16 -1732.88 -143.643 
-1773.39 -1728.94 -145.416 
-1774.17 -1728.06 -146.601 
-1773.77 -1728.45 -146.178 
-1773.58 -1728.76 -145.857 
-1774.04 -1728.31 -146.646 
-1774.98 -1727.82 -146.994 
-1776.46 -1727.02 -147.661 
-1777.75 -1726.75 -148.427 
-1778.43 -1726.86 -148.872 
-1776.25 -1727.56 -147.775 
-1773.29 -1729.73 -144.713 
-1773.26 -1729.65 -144.93 
-1773.24 -1729.23 -145.205 
-1773.23 -1729.57 -145.15 
-1773.41 -1729.97 -143.901 
-1773.76 -1730.18 -143.091 
-1773.7 -1730.28 -143.467 
-1773.57 -1730.17 -143.743 
-1773.32 -1729.97 -144.602 
-1773.38 -1730.14 -144.313 
-1778.29 -1728.54 -149.381 
-1778.48 -1728.87 -149.551 
-1778.81 -1728.91 -149.666 
-1777.51 -1727.83 -148.682 
-1777.31 -1728.61 -148.844 
-1777.13 -1735.04 -147.008 
-1777.22 -1734.96 -146.748 
-1777.07 -1734.74 -146.417 
-1777.23 -1734.99 -147.302 
-1776.84 -1734.44 -146.098 
-1782.9 -1733.74 -148.93 
-1779.33 -1734.1 -148.272 
-1778.38 -1734.34 -147.924 
-1778.05 -1734.57 -147.777 
-1777.65 -1734.78 -147.571 
-1782.72 -1733.62 -149.246 
-1783.23 -1733.43 -149.709 
-1776.36 -1733.79 -145.619 
-1776.57 -1734.1 -146.017 
-1774.65 -1730.58 -141.175 
-1774.36 -1730.48 -141.742 
-1774.09 -1730.36 -142.285 
-1773.9 -1730.19 -142.645 
-1775.61 -1730.83 -140.221 
-1775.9 -1731.14 -140.025 
-1776.08 -1731.52 -140 
-1775.36 -1730.84 -140.513 
-1775.07 -1730.72 -140.693 
-1776.36 -1732.65 -142.671 
-1776.01 -1732.28 -142.256 
-1776.1 -1732.12 -141.534 
-1775.95 -1731.88 -140.989 
-1775.68 -1731.5 -140.72 
-1775.73 -1731.26 -140.338 
-1775.97 -1733.24 -145.101 
-1776.09 -1733.41 -145.488 
-1775.86 -1732.97 -144.523 
-1775.87 -1732.5 -143.139 
-1775.79 -1732.7 -143.899 
-1773.39 -1729.16 -145.58 
-1774.44 -1728.28 -147.007 
-1773.98 -1728.58 -146.688 
-1773.8 -1728.77 -146.356 
-1773.59 -1729.09 -146.01 
-1774.26 -1728.51 -147.145 
-1774.98 -1728.26 -147.253 
-1776.43 -1727.94 -148.072 
-1775.28 -1728.48 -147.598 
-1773.3 -1729.95 -144.856 
-1773.28 -1729.84 -145.083 
-1773.25 -1729.49 -145.366 
-1773.34 -1729.85 -145.393 
-1773.55 -1730.39 -144.156 
-1773.9 -1730.44 -143.094 
-1773.86 -1730.62 -143.549 
-1773.72 -1730.48 -143.793 
-1773.36 -1730.23 -144.71 
-1773.48 -1730.41 -144.588 
-1777.1 -1729.5 -149.023 
-1777.25 -1729.92 -149.167 
-1779.02 -1729.03 -149.748 
-1777.39 -1730.22 -149.244 
-1776.14 -1728.74 -148.192 
-1776.46 -1729.28 -148.553 
-1777.08 -1734.82 -147.274 
-1776.99 -1734.65 -147.018 
-1776.95 -1734.66 -146.697 
-1776.77 -1734.4 -146.383 
-1777.17 -1734.81 -147.621 
-1778.91 -1733.88 -148.545 
-1778.13 -1734.23 -148.189 
-1777.78 -1734.5 -148.042 
-1777.54 -1734.66 -147.893 
-1779.06 -1733.59 -148.806 
-1779.28 -1733.28 -149.073 
-1776.31 -1733.71 -145.834 
-1776.53 -1734.04 -146.24 
-1774.59 -1730.7 -141.62 
-1774.92 -1730.85 -141.128 
-1774.26 -1730.57 -142.182 
-1774.04 -1730.46 -142.643 
-1775.45 -1731.1 -140.618 
-1775.19 -1731.01 -140.939 
-1775.72 -1731.91 -141.739 
-1775.61 -1732.2 -142.873 
-1775.49 -1731.91 -142.25 
-1775.63 -1731.65 -141.278 
-1775.41 -1731.27 -141.031 
-1775.75 -1733.06 -145.225 
-1776 -1733.3 -145.674 
-1775.63 -1732.75 -144.526 
-1775.59 -1732.43 -143.653 
-1773.42 -1729.48 -145.719 
-1774.66 -1728.51 -147.38 
-1774.19 -1728.77 -147.2 
-1774.05 -1728.95 -146.955 
-1773.8 -1729.08 -146.465 
-1773.62 -1729.42 -146.112 
-1774.5 -1728.74 -147.59 
-1774.98 -1728.69 -147.693 
-1775.51 -1728.86 -147.912 
-1773.41 -1730.24 -145.019 
-1773.4 -1730.13 -145.248 
-1773.51 -1730.23 -145.553 
-1773.5 -1729.84 -145.72 
-1773.75 -1730.68 -144.102 
-1773.66 -1730.61 -144.473 
-1774.03 -1730.73 -143.155 
-1773.9 -1730.85 -143.861 
-1773.5 -1730.46 -144.976 
-1773.6 -1730.57 -144.877 
-1776.54 -1729.81 -148.726 
-1776.62 -1730.29 -148.877 
-1779.59 -1728.99 -149.942 
-1779.1 -1729.84 -149.819 
-1777.87 -1730.28 -149.438 
-1776.65 -1730.64 -148.912 
-1777.05 -1730.75 -149.114 
-1775.93 -1729.37 -148.246 
-1777.04 -1734.57 -147.404 
-1776.72 -1734.31 -146.624 
-1776.79 -1734.33 -147.005 
-1777.14 -1734.56 -147.817 
-1777.98 -1733.79 -148.597 
-1777.86 -1734.17 -148.412 
-1777.5 -1734.4 -148.268 
-1777.32 -1734.54 -148.129 
-1779.1 -1732.98 -149.32 
-1778.81 -1732.73 -149.499 
-1777.99 -1733.45 -148.763 
-1777.98 -1733.16 -148.966 
-1776.26 -1733.62 -146.01 
-1776.41 -1733.84 -146.332 
-1775.03 -1731.11 -141.474 
-1774.6 -1730.88 -142.002 
-1774.2 -1730.71 -142.606 
-1775.39 -1731.62 -141.851 
-1775.33 -1732.13 -143.43 
-1775.13 -1731.84 -142.826 
-1774.99 -1731.51 -142.4 
-1775.34 -1731.41 -141.475 
-1775.46 -1732.75 -145.052 
-1775.69 -1733.02 -145.506 
-1776.07 -1733.36 -146.009 
-1775.73 -1733.05 -145.785 
-1775.43 -1732.46 -144.242 
-1774.46 -1729.12 -147.613 
-1774.08 -1729.29 -146.928 
-1774.4 -1729.41 -147.372 
-1773.88 -1729.44 -146.538 
-1773.7 -1729.76 -146.117 
-1774.81 -1729.08 -147.853 
-1775.22 -1729.1 -147.946 
-1775.61 -1729.47 -148.178 
-1773.55 -1730.49 -145.333 
-1773.68 -1730.56 -145.712 
-1773.66 -1730.15 -145.879 
-1773.86 -1730.83 -144.351 
-1773.79 -1730.77 -144.751 
-1774.13 -1730.95 -143.059 
-1774 -1730.98 -143.557 
-1773.95 -1731.02 -144.094 
-1773.64 -1730.63 -145.224 
-1773.75 -1730.75 -145.134 
-1776.05 -1729.93 -148.493 
-1776.14 -1730.44 -148.689 
-1779.29 -1730.56 -149.892 
-1777.5 -1730.92 -149.331 
-1776.22 -1730.88 -148.69 
-1776.7 -1731.08 -148.912 
-1776.86 -1734.28 -147.383 
-1776.55 -1734.04 -146.658 
-1776.54 -1733.96 -146.905 
-1776.92 -1734.23 -147.749 
-1777.42 -1733.66 -148.487 
-1777.41 -1734.06 -148.388 
-1777.19 -1734.16 -148.264 
-1777.06 -1734.25 -148.061 
-1779.38 -1732.42 -149.842 
-1777.66 -1732.92 -149.015 
-1777 -1732.74 -148.927 
-1777.48 -1733.27 -148.677 
-1780.22 -1732.14 -150.156 
-1779.47 -1731.31 -149.956 
-1778.97 -1731.85 -149.777 
-1776.29 -1733.64 -146.423 
-1774.99 -1731.26 -141.966 
-1774.55 -1731.04 -142.436 
-1775.11 -1732.16 -144.09 
-1774.68 -1731.77 -143.585 
-1774.57 -1731.52 -143.081 
-1774.49 -1731.23 -142.807 
-1775.39 -1732.74 -145.447 
-1775.24 -1732.46 -144.806 
-1776.02 -1733.29 -146.213 
-1775.37 -1732.72 -145.711 
-1775.7 -1733 -146.005 
-1774.7 -1729.64 -147.734 
-1774.88 -1729.57 -148.009 
-1774.37 -1729.75 -147.154 
-1774.72 -1730 -147.586 
-1774.13 -1729.87 -146.725 
-1773.98 -1730.2 -146.341 
-1775.24 -1729.58 -148.13 
-1775.67 -1729.99 -148.4 
-1773.73 -1730.71 -145.563 
-1774 -1730.58 -146.173 
-1774.03 -1730.72 -146.026 
-1773.93 -1730.99 -144.558 
-1773.9 -1730.94 -144.997 
-1774.13 -1731.23 -143.378 
-1774.01 -1731.19 -143.796 
-1774.01 -1731.21 -144.247 
-1773.81 -1730.8 -145.458 
-1773.92 -1730.95 -145.376 
-1775.75 -1730.46 -148.557 
-1777.62 -1731.39 -149.352 
-1777.04 -1731.29 -149.083 
-1776.11 -1731.25 -148.604 
-1775.75 -1730.86 -148.516 
-1776.48 -1731.48 -148.772 
-1776.65 -1733.99 -147.294 
-1776.38 -1733.67 -147.006 
-1776.25 -1733.56 -146.618 
-1776.76 -1733.85 -147.78 
-1776.64 -1733.84 -147.497 
-1776.98 -1733.46 -148.409 
-1777 -1733.79 -148.297 
-1776.91 -1733.91 -148.088 
-1777.94 -1732.28 -149.369 
-1777.09 -1733.08 -148.643 
-1777.1 -1732.88 -148.789 
-1777.07 -1732.7 -148.879 
-1777.41 -1731.87 -149.204 
-1777.16 -1732.38 -149.019 
-1774.8 -1732.11 -144.735 
-1774.48 -1731.79 -144.245 
-1774.12 -1731.43 -143.865 
-1775.07 -1732.44 -145.287 
-1775.89 -1733.17 -146.361 
-1775.51 -1732.86 -146.061 
-1774.97 -1732.38 -145.442 
-1775.1 -1732.56 -145.684 
-1775.01 -1730.11 -148.002 
-1775.27 -1730.08 -148.309 
-1774.61 -1730.23 -147.287 
-1774.93 -1730.48 -147.677 
-1774.4 -1730.31 -146.91 
-1774.34 -1730.63 -146.629 
-1774.06 -1730.82 -145.873 
-1774.34 -1730.83 -146.411 
-1774.3 -1731.06 -146.136 
-1774.04 -1731.2 -144.76 
-1774.11 -1731.25 -145.281 
-1774.29 -1731.57 -144.585 
-1774.07 -1730.99 -145.668 
-1774.18 -1731.44 -145.499 
-1775.39 -1730.54 -148.361 
-1776.87 -1731.79 -148.943 
-1775.92 -1731.6 -148.47 
-1775.69 -1731.19 -148.417 
-1775.39 -1730.9 -148.146 
-1776.28 -1731.94 -148.623 
-1776.1 -1733.28 -146.869 
-1776.06 -1733.33 -146.667 
-1776.38 -1733.51 -147.247 
-1776.68 -1733.57 -147.92 
-1776.47 -1733.45 -147.537 
-1776.63 -1733.14 -148.277 
-1776.7 -1733.41 -148.137 
-1776.62 -1732.95 -148.443 
-1776.62 -1732.76 -148.559 
-1776.61 -1732.56 -148.656 
-1776.64 -1732.31 -148.764 
-1774.65 -1731.96 -145.134 
-1775.63 -1733.01 -146.353 
-1775.21 -1732.69 -145.949 
-1774.68 -1732.06 -145.412 
-1774.77 -1732.29 -145.559 
-1775.16 -1730.51 -148.027 
-1774.79 -1730.65 -147.352 
-1775.11 -1730.77 -147.784 
-1774.57 -1730.69 -146.978 
-1774.54 -1731.06 -146.663 
-1774.25 -1731.3 -145.825 
-1774.49 -1731.38 -146.33 
-1774.43 -1731.64 -146.003 
-1774.37 -1731.59 -145.178 
-1774.41 -1731.73 -145.436 
-1774.36 -1731.82 -145.684 
-1774.49 -1731.98 -145.571 
-1775.88 -1731.85 -148.267 
-1775.58 -1731.37 -148.156 
-1775.27 -1731.16 -147.794 
-1776.22 -1732.21 -148.485 
-1776.12 -1733.13 -147.068 
-1775.7 -1733 -146.577 
-1776.43 -1733.21 -147.708 
-1776.17 -1733.04 -147.303 
-1776.31 -1732.77 -148.001 
-1776.41 -1733.03 -147.883 
-1776.29 -1732.6 -148.193 
-1776.25 -1732.4 -148.373 
-1775.2 -1732.74 -146.128 
-1774.86 -1732.45 -145.754 
-1774.73 -1730.94 -147.057 
-1774.97 -1730.92 -147.458 
-1774.71 -1731.43 -146.686 
-1774.63 -1731.83 -146.263 
-1774.56 -1732.16 -145.883 
-1774.67 -1732.34 -145.759 
-1775.88 -1732.01 -147.993 
-1775.56 -1731.6 -147.917 
-1775.14 -1731.29 -147.445 
-1775.5 -1731.67 -147.626 
-1775.8 -1732.78 -146.839 
-1775.38 -1732.72 -146.427 
-1776.12 -1732.83 -147.451 
-1775.84 -1732.62 -147.048 
-1776.1 -1732.65 -147.624 
-1775.94 -1732.36 -147.622 
-1776 -1732.27 -147.929 
-1774.95 -1732.5 -146.092 
-1774.88 -1731.2 -147.121 
-1774.99 -1731.54 -146.994 
-1774.87 -1731.82 -146.595 
-1774.86 -1732.2 -146.22 
-1775.69 -1732 -147.513 
-1775.34 -1731.66 -147.27 
-1775.36 -1732.45 -146.564 
-1775.84 -1732.43 -147.27 
-1775.56 -1732.28 -146.9 
-1775.59 -1732.07 -147.147 
-1775.24 -1731.88 -146.896 
-1775.16 -1732.14 -146.57 
