-1873.8 -1830.08 233.359 
-1875.87 -1831.26 232.38 
-1875.39 -1831.92 230.224 
-1887.06 -1836.95 232.69 
-1878.56 -1833.96 229.662 
-1881.83 -1832.51 235.872 
-1883.9 -1834.36 234.072 
-1887.06 -1836.54 233.664 
-1872.12 -1832.43 226.678 
-1871.98 -1831.85 227.474 
-1870.18 -1831.64 225.839 
-1874.55 -1830.55 232.225 
-1885.39 -1831.71 239.334 
-1889.53 -1830.87 242.423 
-1890.04 -1830.96 242.597 
-1889.54 -1830.97 241.904 
-1888.86 -1830.91 242.188 
-1889.11 -1830.85 242.802 
-1889.27 -1830.87 243.4 
-1882.03 -1831.89 247.827 
-1881.89 -1831.42 246.97 
-1883.33 -1832.73 249.274 
-1888.89 -1830.8 243.254 
-1884.64 -1830.95 242.716 
-1888.07 -1830.75 243.457 
-1882.36 -1831.01 244.996 
-1882.66 -1831.07 244.227 
-1882.47 -1831.06 245.803 
-1873.56 -1830.85 237.009 
-1874.15 -1830.08 235.158 
-1873.99 -1830.06 234.565 
-1870.98 -1831.86 239.182 
-1872.99 -1830.58 237.115 
-1871.05 -1831.25 240.014 
-1871.28 -1829.85 241.082 
-1871.09 -1830.52 240.611 
-1890.36 -1832.62 256.62 
-1890.69 -1833.29 254.934 
-1891.17 -1833.75 253.909 
-1890.55 -1833.91 253.142 
-1890.83 -1833.08 255.908 
-1890.51 -1833.97 252.325 
-1890.61 -1833.99 252.652 
-1890.57 -1834.06 251.454 
-1891.37 -1834.17 251.774 
-1888.68 -1834.05 251.273 
-1890.29 -1830.25 259.55 
-1891.17 -1832.52 257.066 
-1991.9 -1819.12 212.604 
-1991.4 -1820.21 212.348 
-1991.8 -1819.18 211.282 
-1990.89 -1820.89 213.913 
-1990.27 -1821.58 214.9 
-1989.83 -1821.43 216.346 
-1991.7 -1819.12 210.172 
-1991.98 -1818.09 209.669 
-1988.55 -1820.63 220.166 
-1988.32 -1821.06 219.949 
-1986.95 -1820.03 224.862 
-1985.31 -1820.3 230.206 
-1985.17 -1820.23 231.006 
-1978.97 -1823.27 240.34 
-1980.47 -1823.15 238.448 
-1981.57 -1822.67 237.284 
-1982.41 -1822.52 236.096 
-1983.15 -1822.13 234.852 
-1972.12 -1824.5 246.374 
-1972.7 -1825.28 245.095 
-1971.82 -1825.56 245.654 
-1973.22 -1823.85 245.811 
-1974.18 -1824.45 244.387 
-1976.64 -1822.98 243.117 
-1971.7 -1826.74 244.64 
-1971.06 -1827.28 244.414 
-1972.54 -1826.6 244.184 
-1969.61 -1828.18 244.06 
-1967.95 -1828.6 244.067 
-1972.13 -1831.09 241.085 
-1971.54 -1831.71 240.822 
-1964.25 -1829.06 244.046 
-1963.35 -1827.86 245.344 
-1844.53 -1811.8 232.326 
-1846.59 -1813.93 229.757 
-1844.1 -1812.87 230.09 
-1839.41 -1810.85 231.1 
-1839.59 -1810.11 232.113 
-1839.77 -1811.53 230.409 
-1840.75 -1811.67 230.667 
-1841.14 -1811.57 231.263 
-1838.79 -1810.21 231.297 
-1838.96 -1810.67 230.766 
-1838.58 -1810.21 230.961 
-1838.47 -1809.85 231.66 
-1838.52 -1810.07 231.225 
-1838.71 -1810.22 231.157 
-1838.57 -1810.3 230.636 
-1838.28 -1809.59 231.451 
-1838.14 -1808.04 232.638 
-1838.8 -1808.63 220.89 
-1838.63 -1810 223.619 
-1839.26 -1809.11 220.249 
-1839.72 -1809.63 219.867 
-1839.01 -1810.57 223.161 
-1840.64 -1810.82 219.529 
-1839.64 -1811.2 222.473 
-1841 -1811.41 219.602 
-1841.31 -1811.88 219.918 
-1843.33 -1813.01 217.894 
-1843.94 -1813.49 217.335 
-1842.68 -1812.55 218.227 
-1844.93 -1814.1 215.225 
-1843.24 -1812.21 213.068 
-1845.36 -1814.35 216.142 
-1844.62 -1814.31 217.18 
-1845.28 -1814.9 217.08 
-1872.27 -1827.23 247.159 
-1872 -1826.61 247.571 
-1872.12 -1827.66 242.698 
-1872.04 -1827.05 244.963 
-1887.52 -1833.96 250.841 
-1884.97 -1833.5 250.005 
-1886 -1833.74 250.2 
-1887.08 -1833.92 250.395 
-1873.84 -1829.84 233.753 
-1873.9 -1829.83 234.27 
-1873.9 -1829.85 232.975 
-1874 -1830.07 232.188 
-1873.96 -1829.9 232.498 
-1873.88 -1829.67 233.429 
-1874.84 -1830.65 231.804 
-1874.74 -1831.19 230.586 
-1874.12 -1831.68 229.833 
-1871.27 -1831.18 227.661 
-1871.58 -1832.48 225.923 
-1881.94 -1835.46 229.556 
-1888.93 -1838.03 232.992 
-1894.13 -1838.78 236.07 
-1894.03 -1839.12 235.478 
-1887.69 -1836.47 235.013 
-1887.58 -1835.87 235.824 
-1886.78 -1832.29 238.19 
-1885.61 -1832.18 238.014 
-1886.63 -1831.77 239.33 
-1892.64 -1838.02 236.1 
-1865.95 -1831 222.312 
-1865.81 -1830.7 222.526 
-1865.75 -1828.86 224.911 
-1866.32 -1829.92 223.255 
-1874.12 -1830.06 231.823 
-1890.19 -1831.01 243.212 
-1891.37 -1831.28 243.249 
-1889.75 -1831.07 241.838 
-1890.91 -1831.15 242.521 
-1890.58 -1831.14 243.717 
-1890.23 -1831.07 244.074 
-1890.88 -1831.22 244.057 
-1882.56 -1832.01 247.774 
-1883.55 -1832.76 249 
-1882.7 -1831.28 246.327 
-1882.62 -1831.63 246.993 
-1889.47 -1830.99 244.16 
-1884.59 -1830.93 242.919 
-1887.1 -1830.65 243.393 
-1888.34 -1830.85 244.037 
-1882.71 -1831.11 244.978 
-1884.56 -1830.87 243.462 
-1883.06 -1831.2 245.602 
-1873.85 -1829.76 235.085 
-1873.88 -1829.6 234.741 
-1870.95 -1831.42 239.467 
-1872.49 -1829.59 237.288 
-1872.81 -1830.03 237.21 
-1873.49 -1829.23 235.082 
-1871.04 -1830.75 240.003 
-1871.18 -1829.98 240.648 
-1871.42 -1829.03 241.193 
-1891.93 -1833.58 254.843 
-1892.98 -1833.82 254.192 
-1892.23 -1834.16 252.976 
-1892.47 -1833.98 253.541 
-1891.95 -1834.23 252.433 
-1892.43 -1833.33 255.786 
-1894.04 -1834.35 251.164 
-1893.46 -1834.22 250.607 
-1895.08 -1834.56 252.225 
-1894.64 -1834.48 251.764 
-1892.85 -1834.13 250.181 
-1891.68 -1830.33 259.668 
-1892.69 -1833.01 256.419 
-1991.9 -1817.79 208.631 
-1991.61 -1818.48 208.49 
-1991.63 -1818.88 209.3 
-1990.9 -1821.32 212.565 
-1991.23 -1820.74 211.389 
-1991.4 -1820.3 210.544 
-1990.43 -1821.82 213.858 
-1989.44 -1822.16 216.283 
-1989.8 -1822.58 214.783 
-1988.12 -1821.48 219.925 
-1991.43 -1819.97 209.744 
-1986.65 -1820.48 224.739 
-1985.23 -1820.56 229.975 
-1983.79 -1821.48 234.001 
-1983.85 -1821.7 233.541 
-1977.1 -1823.93 241.796 
-1979.39 -1823.8 239.357 
-1980.69 -1823.59 237.821 
-1981.58 -1823.06 236.945 
-1982.47 -1822.82 235.658 
-1983.22 -1822.39 234.39 
-1973.59 -1826.23 243.671 
-1974.83 -1825.42 243.102 
-1973.07 -1830.04 241.453 
-1972.77 -1830.76 241.099 
-1973.94 -1829.7 241.175 
-1973.83 -1830.75 240.574 
-1970.91 -1832.91 240.03 
-1966.63 -1833.1 240.259 
-1969.85 -1833.62 239.607 
-1974.29 -1834.95 237.76 
-1973.69 -1835.08 237.844 
-1973.03 -1835.63 237.577 
-1960.28 -1833.25 240.362 
-1958.47 -1833.74 239.977 
-1958.47 -1829.41 244.279 
-1843.57 -1813.15 229.15 
-1846.05 -1814.11 229.044 
-1846.2 -1814.31 228.802 
-1847.15 -1814.41 229.313 
-1846.72 -1814.87 228.312 
-1847.73 -1814.75 229.166 
-1848.22 -1815.02 229.076 
-1847.32 -1815.33 228.004 
-1839.18 -1811.27 230.168 
-1840.83 -1811.94 229.81 
-1839.79 -1811.84 229.488 
-1838.72 -1810.52 230.54 
-1838.92 -1811.1 229.945 
-1838.38 -1810.43 229.983 
-1838.43 -1810.26 230.539 
-1838.43 -1810.05 230.991 
-1838.2 -1809.43 231.342 
-1838.63 -1810.78 229.838 
-1838.24 -1809.84 230.746 
-1838.02 -1809.57 230.499 
-1838.08 -1809.23 231.21 
-1837.66 -1806.82 224.97 
-1837.84 -1808.79 226.109 
-1837.85 -1807.18 223.875 
-1838.37 -1809.53 224.175 
-1838.29 -1809.86 225.312 
-1838.13 -1809.16 224.942 
-1838.51 -1810.16 224.624 
-1838.11 -1809.62 225.933 
-1839.04 -1810.87 223.875 
-1839.77 -1811.76 223.296 
-1841.52 -1812.37 220.299 
-1839.92 -1811.89 223.574 
-1840.62 -1812.33 222.921 
-1843.99 -1814.13 218.361 
-1843.5 -1813.61 219.085 
-1843.01 -1813.14 218.933 
-1845.92 -1815.3 218.973 
-1841.86 -1812.9 220.635 
-1843.27 -1812.52 211.851 
-1841.57 -1810.08 209.606 
-1844.87 -1814.16 214.487 
-1842.23 -1811.24 209.239 
-1841.59 -1810.21 208.342 
-1846.12 -1814.95 216.274 
-1847.24 -1815.74 218.743 
-1847.53 -1815.87 218.478 
-1842.39 -1811.95 208.114 
-1841.66 -1810.4 207.534 
-1842.24 -1811.83 207.165 
-1841.92 -1810.87 206.674 
-1846.76 -1815.63 219.001 
-1837.78 -1809.32 230.191 
-1837.92 -1809.01 231.016 
-1837.77 -1808.8 230.844 
-1871.7 -1825.81 244.991 
-1871.67 -1825.4 245.807 
-1871.69 -1826.06 242.467 
-1891.27 -1834.06 250.091 
-1885.07 -1833.43 249.688 
-1886.14 -1833.66 249.84 
-1887.06 -1833.86 249.954 
-1887.3 -1833.87 250.08 
-1891.07 -1833.95 249.652 
-1873.88 -1829.57 234.029 
-1873.87 -1829.39 234.465 
-1874.18 -1828.69 232.253 
-1874.11 -1828.62 232.713 
-1873.7 -1829.04 231.712 
-1873.89 -1828.86 231.975 
-1873.78 -1828.48 233.41 
-1874.13 -1830.28 231.361 
-1874.14 -1830.9 230.668 
-1871.95 -1830.12 229.737 
-1870.77 -1829.26 229.605 
-1869.19 -1827.86 230.425 
-1867.72 -1827.18 230.219 
-1872.66 -1832.83 225.956 
-1866.61 -1831.21 222.484 
-1882.64 -1835.93 229.071 
-1888.34 -1838.27 231.776 
-1894.38 -1839.55 235.135 
-1894.23 -1839.62 234.634 
-1899.26 -1839.89 239.132 
-1899.49 -1839.21 241.093 
-1892.49 -1837.85 236.86 
-1895.81 -1838.59 238.255 
-1887.68 -1832.3 238.612 
-1887.9 -1835.39 236.807 
-1893.69 -1837.85 237.781 
-1890.55 -1831.2 241.846 
-1862.68 -1831.69 219.687 
-1863.01 -1832.03 219.305 
-1863.47 -1830.67 221.149 
-1862.4 -1831.36 220.046 
-1865.87 -1826.26 230.548 
-1863.15 -1827.17 226.381 
-1863.16 -1828.64 223.001 
-1862 -1827.24 225.05 
-1873.53 -1829.17 231.344 
-1891.97 -1831.44 243.749 
-1895.53 -1832.81 245.498 
-1892.21 -1831.47 243.166 
-1891.64 -1831.28 242.317 
-1895.9 -1832.97 245.426 
-1893.22 -1831.87 243.497 
-1893.03 -1831.82 243.145 
-1894.14 -1832.35 245.505 
-1894.67 -1832.51 245.533 
-1893.76 -1832.27 245.614 
-1893.04 -1832.14 245.53 
-1890.46 -1831.26 244.561 
-1883.05 -1832.05 247.564 
-1883.88 -1832.74 248.658 
-1883.19 -1831.67 246.894 
-1883.23 -1831.31 246.206 
-1889.4 -1831.18 244.623 
-1892.63 -1832.23 245.677 
-1886.92 -1830.75 243.81 
-1888.21 -1831 244.443 
-1884.45 -1830.88 244.138 
-1885.22 -1831.18 245.216 
-1884.71 -1830.92 244.615 
-1872.8 -1827.81 234.927 
-1871.36 -1830.05 239.257 
-1871.17 -1830.31 239.639 
-1872.35 -1829.04 237.127 
-1872.44 -1827.64 235.512 
-1872.7 -1827.89 235.174 
-1871.23 -1829.76 240.325 
-1871.33 -1829.3 240.644 
-1871.42 -1828.99 240.871 
-1893.69 -1833.66 254.898 
-1896.09 -1833.57 254.024 
-1895.69 -1833.86 253.527 
-1895.54 -1834.21 253.096 
-1895.37 -1834.47 252.669 
-1894.08 -1833.54 255.401 
-1896.43 -1834.4 250.998 
-1896.26 -1834.19 250.226 
-1896.02 -1833.95 249.44 
-1896.81 -1834.32 251.502 
-1895.24 -1833.68 248.757 
-1893.95 -1833.15 256.265 
-1894.46 -1833.48 255.591 
-1991.39 -1817.87 206.922 
-1990.79 -1818.52 205.532 
-1991.29 -1818.49 207.118 
-1990.8 -1818.06 205.27 
-1990.32 -1818.26 204.233 
-1991.23 -1819.21 207.528 
-1991.38 -1819.34 208.384 
-1990.9 -1819.34 206.42 
-1990.65 -1819.17 205.475 
-1991.42 -1819.69 209.019 
-1990.2 -1822.62 213.261 
-1989.99 -1823.75 212.059 
-1990.19 -1823.6 211.133 
-1990.67 -1822.82 209.757 
-1990.85 -1822.33 209.014 
-1987.98 -1821.91 219.859 
-1989.11 -1822.85 216.263 
-1989.43 -1823.58 214.5 
-1986.45 -1821.06 224.436 
-1990.94 -1822.01 208.213 
-1985.21 -1821.04 229.188 
-1985.16 -1820.81 229.782 
-1983.93 -1821.98 233.053 
-1976.55 -1825.23 241.5 
-1978.41 -1824.52 239.94 
-1979.78 -1824.3 238.492 
-1981.75 -1823.43 236.4 
-1980.95 -1824.04 237.148 
-1982.56 -1823.1 235.144 
-1983.31 -1822.75 233.893 
-1974.7 -1829.72 240.654 
-1975.61 -1829.86 239.885 
-1976.27 -1828.81 239.901 
-1974.87 -1834.45 237.78 
-1975.56 -1833.76 237.725 
-1975.59 -1834.9 237.017 
-1972.14 -1836.19 237.247 
-1964.78 -1835.56 237.966 
-1970.81 -1836.56 237.057 
-1973.59 -1836.41 236.929 
-1974.37 -1836.24 236.748 
-1975.18 -1835.99 236.477 
-1972.7 -1836.94 236.618 
-1960.42 -1836.06 237.367 
-1957.6 -1834.33 239.611 
-1956.65 -1829.8 244.186 
-1955.71 -1831.74 242.538 
-1959.4 -1836.65 236.9 
-1843.29 -1813.51 228.244 
-1845.96 -1814.63 228.133 
-1846.54 -1815.57 227.134 
-1846.08 -1815.18 227.346 
-1849.57 -1815.71 230.565 
-1848.81 -1815.29 229.455 
-1850.44 -1814.15 232.573 
-1848.06 -1815.72 228.271 
-1847.15 -1815.91 227.212 
-1839.16 -1811.58 229.268 
-1840.57 -1812.1 229.225 
-1840.43 -1812.2 228.699 
-1839.68 -1811.96 228.6 
-1838.81 -1811.17 229.235 
-1838.22 -1810.31 229.634 
-1838.22 -1810.44 228.934 
-1838.44 -1810.71 229.272 
-1838.31 -1810.24 230.284 
-1838.62 -1811.02 228.754 
-1838.16 -1810.09 230.11 
-1837.92 -1809.75 229.837 
-1837.97 -1809.11 225.744 
-1837.96 -1809.54 226.632 
-1838.18 -1810.06 226.48 
-1838.35 -1810.21 225.78 
-1838.53 -1810.52 225.247 
-1837.94 -1809.69 227.199 
-1839.08 -1811.14 224.513 
-1837.65 -1809.21 229.541 
-1837.6 -1809.01 228.967 
-1837.65 -1808.85 230.082 
-1837.57 -1808.5 228.819 
-1837.61 -1808.71 229.72 
-1839.72 -1811.97 224.638 
-1839.1 -1811.39 225.349 
-1840.85 -1812.61 223.253 
-1846.1 -1815.02 220.235 
-1846.21 -1815.25 221.64 
-1843.2 -1813.99 221.72 
-1842.36 -1813.45 221.036 
-1846.47 -1815.12 219.836 
-1848.02 -1816.08 220.901 
-1848.37 -1816.25 220.445 
-1843.1 -1812.95 209.699 
-1843.81 -1813.55 211.654 
-1845.02 -1814.6 213.982 
-1846.13 -1815.29 215.909 
-1847.83 -1816.2 218.41 
-1848.74 -1816.57 220.033 
-1849.05 -1816.89 219.967 
-1849.34 -1817.2 219.672 
-1843.06 -1813.92 207.467 
-1843.2 -1813.87 208.473 
-1841.93 -1810.6 206.121 
-1842.48 -1811.67 205.359 
-1842.17 -1810.34 204.998 
-1842.45 -1812.05 205.894 
-1842.5 -1812.46 206.413 
-1843.21 -1814.81 206.44 
-1848.75 -1816.59 220.513 
-1848.53 -1816.37 220.416 
-1837.69 -1809.36 229.271 
-1871.42 -1825.6 240.661 
-1871.08 -1825 240.119 
-1871.73 -1827.86 241.224 
-1871.59 -1826.23 240.237 
-1885.57 -1833.39 249.231 
-1886.8 -1833.65 249.403 
-1887.34 -1833.82 249.606 
-1891.23 -1833.83 248.973 
-1894.48 -1833.75 248.05 
-1873.66 -1828.42 233.827 
-1873.47 -1828.39 234.213 
-1873.35 -1827.49 232.21 
-1873.09 -1827.24 232.731 
-1873.15 -1827.24 233.069 
-1872.82 -1827.37 232.091 
-1872.6 -1827.63 231.804 
-1872.01 -1826.22 234.753 
-1873.16 -1829.36 231.168 
-1872.7 -1829.77 230.668 
-1870.3 -1827.08 231.774 
-1871.27 -1827.59 231.524 
-1869.55 -1826.86 231.963 
-1868.95 -1826.25 232.581 
-1867.68 -1825.15 234.353 
-1873.68 -1833.2 225.814 
-1868.68 -1831.48 223.388 
-1866.13 -1831.44 221.759 
-1881.83 -1835.71 228.273 
-1887.91 -1838.24 231.003 
-1894.03 -1839.59 233.603 
-1894.4 -1839.66 234.283 
-1898.71 -1840.62 237.048 
-1898.87 -1841.34 235.623 
-1901.32 -1839.93 241.099 
-1901.09 -1839.27 243.029 
-1900.67 -1838.48 243.721 
-1901.57 -1838.95 244.156 
-1897.93 -1838.4 240.89 
-1888.49 -1835.09 237.86 
-1893.1 -1837.17 238.32 
-1888.43 -1832.3 238.795 
-1892.06 -1831.57 241.997 
-1895.43 -1835.99 241.766 
-1899.16 -1837.17 244.786 
-1893.57 -1832.35 242.791 
-1862.26 -1832.41 218.21 
-1861.9 -1831.98 218.707 
-1863.15 -1832.43 218.607 
-1862.17 -1831.05 220.368 
-1861.54 -1831.49 219.264 
-1861.25 -1824.91 230.331 
-1864.51 -1822.36 238.487 
-1863.39 -1823.68 234.845 
-1859.8 -1824.84 229.114 
-1861.84 -1828.87 221.989 
-1860.97 -1827.24 223.656 
-1859.95 -1826.47 224.541 
-1858.77 -1824.82 227.902 
-1872.08 -1827.71 231.646 
-1897.23 -1833.72 247.227 
-1895.13 -1832.66 245.51 
-1898.01 -1834 247.48 
-1898.39 -1834.14 247.437 
-1893.69 -1832.2 243.177 
-1896.25 -1833.27 245.292 
-1896.67 -1833.76 245.208 
-1898.62 -1834.29 247.262 
-1896.56 -1833.49 247.384 
-1897.11 -1833.68 247.489 
-1896.29 -1833.46 247.63 
-1895.57 -1833.27 247.526 
-1884.28 -1832.66 248.226 
-1883.5 -1832 247.234 
-1883.69 -1831.57 246.565 
-1888.66 -1831.19 244.856 
-1892.17 -1832.32 245.871 
-1895.01 -1833.46 247.791 
-1886.96 -1830.96 244.345 
-1885.67 -1831.42 245.653 
-1887.94 -1831.34 245.335 
-1887.97 -1831.2 244.97 
-1872.13 -1826.5 234.847 
-1871.48 -1826.25 236.566 
-1871.33 -1825.92 236.254 
-1871.5 -1829.45 239.088 
-1871.24 -1829.71 239.925 
-1871.42 -1829.42 239.335 
-1872.03 -1828.36 237.15 
-1871.83 -1826.96 236.68 
-1871.59 -1826.5 236.86 
-1871.5 -1828.65 240.293 
-1871.53 -1828.54 240.631 
-1896.5 -1833.45 254.454 
-1898.61 -1833.58 253.116 
-1897.92 -1833.8 252.539 
-1897.42 -1833.96 252.15 
-1897.17 -1834.14 251.793 
-1896.79 -1833.37 254.812 
-1897.05 -1834.3 250.084 
-1897.05 -1834.47 250.862 
-1896.85 -1834.07 249.306 
-1895.84 -1833.63 248.437 
-1896.62 -1833.83 248.557 
-1897.5 -1834.44 251.026 
-1897.07 -1833.28 255.134 
-1897.26 -1833.01 255.468 
-1894.01 -1830.66 259.221 
-1977.23 -1821.35 188.455 
-1977.66 -1822.42 189.965 
-1978 -1822.11 189.764 
-1976.06 -1821.89 188.491 
-1976.87 -1822.7 189.931 
-1976.73 -1821.74 188.689 
-1977.38 -1822.69 190.158 
-1990.24 -1818.77 204.318 
-1987.16 -1818.91 198.463 
-1987.93 -1818.81 199.797 
-1988.96 -1818.31 201.594 
-1985.49 -1819.78 196.161 
-1986.5 -1819.86 197.696 
-1986.52 -1822.25 198.182 
-1985.39 -1822.1 196.66 
-1984.4 -1820.35 194.785 
-1983.63 -1819.8 193.41 
-1983.76 -1820.45 193.924 
-1984.84 -1819.64 194.991 
-1982.87 -1820.67 193.061 
-1990.66 -1821.75 206.106 
-1990.81 -1821.76 206.858 
-1990.9 -1821.83 207.494 
-1990.48 -1821.7 205.394 
-1990.31 -1819.45 204.634 
-1990.34 -1821.58 204.873 
-1979.94 -1823.33 191.996 
-1980.35 -1823.15 192.161 
-1978.83 -1821.56 189.824 
-1979.54 -1821.5 190.322 
-1980.79 -1822.94 192.338 
-1980.23 -1821 190.613 
-1981.28 -1822.79 192.675 
-1978.45 -1821.87 189.839 
-1979.52 -1823.52 191.888 
-1989.26 -1824.85 213.646 
-1988.98 -1826.19 213.164 
-1989.53 -1825.62 210.442 
-1988.96 -1826.51 212.389 
-1990.22 -1824.73 208.194 
-1990.38 -1824.43 207.471 
-1987.43 -1822.1 221.042 
-1988.82 -1823.49 216.306 
-1988.88 -1824.67 215.278 
-1985.22 -1821.67 228.327 
-1985.12 -1821.34 229.106 
-1990.44 -1824.2 206.849 
-1984.06 -1822.4 232.44 
-1977.38 -1828.49 239.011 
-1978.61 -1825.39 239.205 
-1980.09 -1824.99 237.737 
-1981.94 -1823.9 235.776 
-1981.24 -1824.77 236.369 
-1982.72 -1823.58 234.546 
-1983.55 -1823.14 233.179 
-1976.24 -1833.42 237.384 
-1977.64 -1832.47 236.71 
-1977.05 -1833.74 236.538 
-1976.32 -1834.86 236.477 
-1976 -1835.92 236.004 
-1971.85 -1837.29 236.352 
-1965.05 -1836.7 236.738 
-1970.47 -1837.37 236.261 
-1973.89 -1837.26 236.182 
-1974.54 -1837.06 235.975 
-1973.01 -1837.49 236.09 
-1975.22 -1836.65 235.917 
-1972.06 -1837.79 235.811 
-1960.42 -1837.45 235.951 
-1961.97 -1837.58 235.748 
-1957.07 -1835.14 239.054 
-1955.21 -1833.47 241.119 
-1958.36 -1837.06 236.786 
-1959.53 -1837.86 235.811 
-1843.26 -1813.78 227.554 
-1846.71 -1816.17 226.471 
-1846.25 -1815.83 226.358 
-1845.79 -1815.5 226.608 
-1848.74 -1816.14 229.035 
-1850.26 -1818.25 230.193 
-1850.16 -1816.19 230.811 
-1847.95 -1816.49 227.917 
-1847.49 -1816.57 227.267 
-1839.01 -1811.58 228.632 
-1840.65 -1812.45 227.884 
-1843.13 -1813.85 226.816 
-1839.73 -1812.15 227.765 
-1840.49 -1812.54 227.215 
-1838.08 -1810.11 229.333 
-1838.06 -1810.15 228.603 
-1838.35 -1810.73 228.414 
-1838.22 -1810.52 227.951 
-1838.77 -1811.34 228.111 
-1837.97 -1809.9 229.252 
-1837.77 -1809.53 228.919 
-1837.59 -1808.69 228.261 
-1837.61 -1808.31 227.825 
-1837.76 -1809.28 227.491 
-1837.83 -1809.25 226.854 
-1837.67 -1808.93 227.821 
-1838.24 -1810.38 226.925 
-1837.98 -1809.91 227.577 
-1838.46 -1810.67 226.251 
-1838.73 -1810.95 225.71 
-1837.71 -1809.37 228.047 
-1837.78 -1809.56 228.27 
-1837.61 -1809.09 228.526 
-1839.78 -1812.13 225.306 
-1840.79 -1812.66 223.923 
-1839.18 -1811.73 226.35 
-1838.9 -1811.37 226.522 
-1847.78 -1816.36 222.819 
-1847.52 -1815.77 220.802 
-1847.28 -1816.12 223.756 
-1843.94 -1814.43 223.063 
-1846.46 -1815.78 223.746 
-1841.37 -1813 223.781 
-1848.14 -1817.01 223.157 
-1848.47 -1816.5 221.328 
-1848.69 -1816.63 221.074 
-1843.66 -1814.08 209.824 
-1844.19 -1814.39 211.427 
-1845.09 -1815.05 213.415 
-1846.07 -1815.7 215.471 
-1846.75 -1815.54 216.82 
-1847.93 -1816.39 218.222 
-1849.84 -1818.35 220.548 
-1849.64 -1818.08 221.562 
-1849.83 -1818.23 221.211 
-1843.82 -1815.74 207.122 
-1843.8 -1815.24 208.064 
-1843.89 -1814.85 209.127 
-1842.76 -1811.4 204.66 
-1843.32 -1814.36 205.147 
-1843.18 -1813.01 204.698 
-1843.34 -1814.9 205.694 
-1844.07 -1816.33 206.131 
-1849.38 -1817.96 222.047 
-1843.29 -1811.39 203.636 
-1842.7 -1810.22 203.725 
-1837.64 -1809.17 228.353 
-1859.02 -1821.74 235.61 
-1859.13 -1820.48 238.122 
-1860.24 -1820.22 239.382 
-1871.02 -1825.46 238.244 
-1871.7 -1826.8 240.055 
-1871.3 -1825.92 238.172 
-1871.18 -1825.65 238.311 
-1886.46 -1833.39 248.809 
-1887.28 -1833.65 249.174 
-1887 -1833.6 249.115 
-1890.04 -1833.89 249.008 
-1891.78 -1832.45 246.118 
-1891.46 -1832.59 246.352 
-1872.41 -1826.84 232.877 
-1871.03 -1825.81 234.811 
-1871.43 -1825.93 234.736 
-1871.71 -1826 234.767 
-1871.76 -1826.93 232.449 
-1871.82 -1826.69 232.991 
-1871.61 -1827.17 232 
-1871.1 -1825.52 236.378 
-1870.71 -1825.18 237.257 
-1870.81 -1826.95 232.09 
-1869.03 -1825.73 232.953 
-1868.37 -1824.47 236.39 
-1867.31 -1823.25 238.47 
-1874.03 -1833.35 225.47 
-1868.73 -1831.54 222.746 
-1866.38 -1831.66 221.492 
-1882.07 -1835.96 227.824 
-1887.41 -1838.15 230.084 
-1894.17 -1839.71 232.891 
-1899.07 -1841.61 234.799 
-1900.45 -1840.59 238.133 
-1899.99 -1841.58 235.622 
-1902.71 -1840.09 241.679 
-1902.2 -1839.72 243.278 
-1902.35 -1839.61 244.091 
-1900.98 -1837.05 246.798 
-1901.29 -1837.02 247.146 
-1902.34 -1839 245.425 
-1901.6 -1837.11 247.741 
-1900.48 -1837.02 246.457 
-1892.28 -1836.4 239.024 
-1890.76 -1834.39 239.958 
-1889.39 -1832.26 239.59 
-1894.19 -1835.01 241.431 
-1891.93 -1831.77 241.824 
-1896.69 -1835.74 243.834 
-1899.86 -1835.95 247.043 
-1897.35 -1835.46 244.977 
-1897.13 -1834.6 245.152 
-1862.42 -1832.76 217.627 
-1861.91 -1832.45 217.847 
-1861.54 -1832.15 218.196 
-1863.38 -1832.65 218.139 
-1861.56 -1831.09 219.922 
-1860.94 -1831.38 219.01 
-1861.12 -1831.79 218.481 
-1860.2 -1822.18 235.77 
-1861.83 -1820.72 239.549 
-1857.65 -1823.17 231.353 
-1861.36 -1829.14 221.292 
-1859.98 -1827.02 222.528 
-1858.59 -1826.07 223.446 
-1857.5 -1824.4 227.216 
-1856.35 -1823.05 230.263 
-1897.95 -1833.98 247.753 
-1898.7 -1834.3 248.357 
-1899.07 -1834.43 248.2 
-1899.39 -1834.55 247.995 
-1899.22 -1835.1 247.139 
-1897.34 -1833.86 248.171 
-1898.11 -1834.07 248.243 
-1884.66 -1832.48 247.697 
-1883.91 -1831.86 246.859 
-1890.15 -1832.29 246.314 
-1887.6 -1832.5 247.012 
-1888.68 -1831.37 245.288 
-1871.4 -1826.01 237.293 
-1871.3 -1825.74 236.809 
-1871.04 -1825.46 236.948 
-1870.87 -1825.32 237.783 
-1871.75 -1828.67 238.167 
-1871.35 -1828.84 240.05 
-1871.11 -1829.21 239.817 
-1871.45 -1828.57 238.86 
-1871.72 -1826.93 237.555 
-1871.56 -1826.46 237.637 
-1871.72 -1827.21 239.947 
-1899.52 -1833.45 253.533 
-1899.38 -1834.11 252.271 
-1898.4 -1834.1 251.835 
-1898 -1834.28 251.311 
-1897.7 -1834.16 249.043 
-1897.79 -1834.42 249.974 
-1898.22 -1834.57 250.527 
-1901.63 -1832.14 254.666 
-1900.11 -1833.09 254.294 
-1978.69 -1824.21 192.155 
-1979.12 -1823.84 191.991 
-1977.86 -1824.48 192.217 
-1978.28 -1824.37 192.198 
-1989.91 -1819.6 203.73 
-1989.71 -1818.9 203.272 
-1989.14 -1819.48 202.196 
-1988.82 -1818.89 201.519 
-1988.29 -1819.61 200.595 
-1987.43 -1819.67 199.116 
-1987.39 -1822.49 199.472 
-1983.96 -1821.82 194.826 
-1986.78 -1823.89 198.831 
-1988.34 -1824.65 201.133 
-1988.65 -1824.43 201.55 
-1983.12 -1822.06 194 
-1982.5 -1822.4 193.548 
-1981.97 -1820.9 192.284 
-1981.85 -1822.64 193.096 
-1990.3 -1823.95 205.082 
-1990.36 -1824.18 205.547 
-1990.39 -1824.27 206.148 
-1990.2 -1823.87 204.596 
-1990.11 -1821.59 204.264 
-1990.05 -1823.63 204.131 
-1981.06 -1824.81 193.791 
-1980.71 -1824.98 193.739 
-1981.34 -1824.49 193.754 
-1981.94 -1824.51 194.254 
-1982.34 -1824.2 194.396 
-1980.27 -1825.15 193.661 
-1979.78 -1825.33 193.585 
-1988.78 -1825.92 214.738 
-1988.86 -1826.25 214.083 
-1988.75 -1827.17 213.11 
-1988.42 -1828.97 215.461 
-1988.38 -1829.33 214.896 
-1989.42 -1826.08 209.968 
-1988.77 -1827.15 212.381 
-1990.18 -1825.12 207.175 
-1990.27 -1824.89 206.443 
-1987.33 -1822.53 221.026 
-1985.2 -1822.05 228.06 
-1988.5 -1824.1 216.979 
-1988.49 -1825.46 216.609 
-1988.63 -1825.81 215.665 
-1984.19 -1822.94 231.709 
-1978.6 -1828.31 237.846 
-1979.39 -1831.24 235.469 
-1979.69 -1827.98 236.775 
-1980.62 -1827.6 235.868 
-1982.15 -1824.55 235.033 
-1981.62 -1827.62 234.591 
-1983.04 -1823.88 233.772 
-1983.66 -1823.77 232.641 
-1978.58 -1832.84 235.429 
-1977.63 -1834.27 235.566 
-1976.89 -1835 235.866 
-1976.58 -1835.9 235.41 
-1975.84 -1836.54 235.519 
-1970.82 -1837.86 235.766 
-1965.85 -1837.75 235.678 
-1974.01 -1837.7 235.581 
-1975.18 -1837.14 235.446 
-1974.56 -1837.55 235.387 
-1973.22 -1837.97 235.445 
-1972.29 -1838.3 235.14 
-1971.04 -1838.27 235.323 
-1960.29 -1837.95 235.417 
-1961.82 -1838.19 235.217 
-1966 -1838.29 235.16 
-1950.88 -1834.72 242.183 
-1954.52 -1832.16 242.595 
-1950.62 -1834.33 242.711 
-1951.71 -1833.05 243.505 
-1955.99 -1835.51 239.059 
-1957.21 -1837 237.132 
-1958.5 -1837.92 236.081 
-1957.45 -1837.75 236.505 
-1959.04 -1838.62 235.37 
-1959.56 -1838.36 235.236 
-1846.8 -1816.37 226.187 
-1847.26 -1816.74 226.831 
-1846.61 -1816.11 225.778 
-1846.22 -1815.84 225.845 
-1845.65 -1815.47 226.162 
-1851.69 -1818.37 231.959 
-1851.35 -1814.89 232.785 
-1849.46 -1818.5 229.162 
-1851.11 -1820.04 230.719 
-1853.84 -1819.99 234.711 
-1849.2 -1818.42 228.634 
-1848.93 -1818.25 228.186 
-1848.7 -1818.18 227.987 
-1839.12 -1811.8 227.921 
-1843.13 -1813.96 226.101 
-1840.58 -1812.63 226.423 
-1839.87 -1812.24 226.882 
-1843.48 -1814.18 225.341 
-1837.9 -1809.83 228.389 
-1838.09 -1810.2 227.779 
-1838.57 -1811.04 227.794 
-1838.35 -1810.66 227.173 
-1838.64 -1811.08 227.222 
-1838.93 -1811.51 227.284 
-1839.22 -1811.85 227.152 
-1838.65 -1811.02 226.563 
-1840.73 -1812.7 224.718 
-1839.86 -1812.24 226.099 
-1847.58 -1816.89 224.549 
-1847.22 -1816.45 224.41 
-1843.55 -1814.26 223.874 
-1845.88 -1815.6 224.06 
-1846.64 -1816.09 224.537 
-1848.73 -1818.08 223.256 
-1847.91 -1817.5 224.701 
-1844.23 -1814.91 210.477 
-1845.02 -1815.48 212.59 
-1845.76 -1816.03 214.535 
-1848.73 -1817.7 218.869 
-1846.65 -1815.96 216.212 
-1847.94 -1816.62 218.067 
-1849.7 -1818.36 220.031 
-1849.94 -1819.74 221.088 
-1850.14 -1819.92 221.541 
-1850.13 -1819.5 221.757 
-1849.94 -1819.6 222.89 
-1850.09 -1819.64 222.333 
-1844.2 -1816.59 206.752 
-1844.18 -1816.3 207.626 
-1844.21 -1815.75 208.698 
-1844.38 -1815.56 209.971 
-1843.43 -1812.63 204.092 
-1843.94 -1815.39 204.491 
-1844.19 -1816.41 205.327 
-1844.33 -1816.35 204.818 
-1843.69 -1814.52 204.004 
-1844.63 -1817.45 206.19 
-1844.54 -1817.18 205.63 
-1848.82 -1818.89 224.412 
-1843.9 -1812.53 203.24 
-1843.95 -1811.57 202.584 
-1869.09 -1824.63 236.513 
-1870.46 -1825.58 235.107 
-1869.86 -1824.53 237.494 
-1870.96 -1826.38 233.336 
-1869.55 -1824.5 237.236 
-1870.67 -1826.52 232.906 
-1870.2 -1824.09 239.22 
-1870.35 -1824.96 236.827 
-1857.31 -1819.71 238.753 
-1856.69 -1819.56 238.681 
-1856.86 -1818.64 239.644 
-1858.13 -1820.02 238.44 
-1857.23 -1821.32 235.185 
-1856.34 -1821 235.236 
-1858.07 -1821.62 235.164 
-1856.49 -1822.59 231.456 
-1871.19 -1825.56 237.524 
-1871.44 -1826.27 238.351 
-1887.09 -1833.43 248.751 
-1889.29 -1833.68 248.723 
-1891.62 -1833.58 247.538 
-1870.53 -1825.07 236.989 
-1875.56 -1833.72 225.642 
-1869.71 -1831.83 222.639 
-1866.6 -1831.74 221.18 
-1868.56 -1831.3 222.023 
-1882.15 -1836.13 227.418 
-1892.29 -1839.18 230.776 
-1887.06 -1838.17 229.201 
-1894.53 -1839.82 232.244 
-1899.68 -1841.74 234.472 
-1900.24 -1841.74 235.1 
-1901.97 -1840.76 238.303 
-1901.43 -1841.52 235.716 
-1905.9 -1840.32 241.08 
-1903.43 -1839.72 243.382 
-1906.6 -1840.1 242.192 
-1903.4 -1839.58 244.275 
-1903 -1839.03 245.477 
-1900.5 -1835.33 248.092 
-1900.63 -1834.97 248.783 
-1900.95 -1835.12 249.155 
-1901.95 -1837.02 248.1 
-1900.04 -1835.04 248.085 
-1862.13 -1832.61 217.558 
-1862.46 -1832.65 217.511 
-1861.7 -1832.4 217.699 
-1861.33 -1832.09 218.006 
-1861.07 -1831.83 218.265 
-1864.29 -1832.53 218.511 
-1863.16 -1832.61 217.769 
-1861.18 -1830.91 219.733 
-1860.68 -1831.06 218.974 
-1860.84 -1831.56 218.561 
-1859.46 -1826.95 221.202 
-1861.16 -1829.14 220.991 
-1856.48 -1825.49 220.064 
-1856.59 -1823.97 226.952 
-1855.76 -1823.73 226.1 
-1854.62 -1822.26 230.288 
-1855.08 -1822.65 229.52 
-1898.48 -1834.32 248.972 
-1899.12 -1834.55 248.992 
-1899.63 -1834.69 248.674 
-1885.37 -1832.27 247.034 
-1871.33 -1827.78 239.944 
-1870.92 -1828.36 239.836 
-1871.69 -1827.01 238.374 
-1871.59 -1826.65 238.528 
-1900.63 -1834.16 252.49 
-1900.59 -1834.47 251.639 
-1899.54 -1834.36 251.54 
-1899.05 -1834.44 251.056 
-1898.92 -1834.62 250.446 
-1901.26 -1833.38 253.513 
-1898.76 -1834.53 249.624 
-1973.88 -1821.73 187.43 
-1974.09 -1822.91 188.777 
-1974.9 -1822.61 188.605 
-1972.89 -1821.88 187.817 
-1972.4 -1822.3 188.823 
-1975.9 -1822.97 189.973 
-1977.39 -1824.6 192.281 
-1976.43 -1822.87 189.957 
-1979.41 -1825.47 193.565 
-1978.66 -1826.01 193.944 
-1979.11 -1825.82 193.828 
-1989.84 -1821.6 203.613 
-1989.45 -1821.57 202.82 
-1988.97 -1821.55 201.921 
-1988.47 -1821.63 201.011 
-1987.92 -1822.13 200.181 
-1988.89 -1824.17 201.837 
-1985.28 -1823.55 196.951 
-1987.91 -1824.84 200.563 
-1988.59 -1825.28 201.879 
-1988.99 -1825.04 202.432 
-1989.12 -1824.65 202.451 
-1983.76 -1823.4 195.259 
-1982.89 -1823.81 194.666 
-1990.15 -1824.65 204.996 
-1990.24 -1824.88 205.688 
-1990.09 -1824.35 204.51 
-1989.93 -1824.19 203.979 
-1989.8 -1823.6 203.565 
-1981.72 -1825.01 194.396 
-1981.2 -1825.37 194.334 
-1980.73 -1825.72 194.36 
-1982.62 -1824.62 194.906 
-1983.12 -1824.19 195.109 
-1980.2 -1825.94 194.312 
-1979.71 -1826.2 194.415 
-1988.42 -1828.61 216.025 
-1988.35 -1828.53 216.779 
-1988.29 -1829.67 214.422 
-1988.11 -1830.84 217.608 
-1988.14 -1831.06 216.499 
-1988.05 -1831.28 217.549 
-1988.8 -1827.09 211.927 
-1988.61 -1827.8 212.367 
-1988.47 -1828.14 212.069 
-1988.61 -1827.63 211.215 
-1989.4 -1826.18 209.514 
-1989.98 -1825.56 207.366 
-1990.09 -1825.43 206.314 
-1987.14 -1822.93 221.379 
-1985.11 -1822.58 228.092 
-1988.21 -1824.6 217.758 
-1988.06 -1825.44 218.277 
-1988.04 -1828.37 218.43 
-1988.21 -1828.51 217.625 
-1984.13 -1823.96 231.442 
-1980.99 -1832.05 232.972 
-1980.84 -1830.86 233.95 
-1981.85 -1830.6 232.823 
-1982.84 -1824.66 233.804 
-1982.43 -1827.72 233.374 
-1983 -1831.44 230.624 
-1983.6 -1824.81 232.384 
-1979.3 -1833.28 234.119 
-1977.37 -1835.15 235.1 
-1976.92 -1836.12 234.785 
-1976.1 -1836.85 234.966 
-1969.29 -1838.55 235.015 
-1974.12 -1838.15 234.902 
-1975.09 -1837.62 234.905 
-1975.61 -1837.41 234.811 
-1974.63 -1838.01 234.744 
-1973.41 -1838.44 234.768 
-1972.72 -1838.77 234.403 
-1971.58 -1838.61 234.819 
-1970.1 -1838.81 234.753 
-1960.08 -1838.32 234.974 
-1961.33 -1838.5 234.936 
-1962.67 -1838.72 234.737 
-1965.89 -1838.73 234.746 
-1947.85 -1834.74 244.372 
-1950.43 -1835.22 241.96 
-1948.03 -1836.48 242.815 
-1947.34 -1835.9 243.567 
-1946.96 -1835.28 244.21 
-1955.03 -1836.16 238.965 
-1956.5 -1837.69 236.871 
-1958.07 -1838.64 235.678 
-1956.99 -1838.6 236.065 
-1958.93 -1839 234.916 
-1958.41 -1839.33 234.994 
-1959.31 -1838.82 234.749 
-1847.11 -1816.88 226.379 
-1846.88 -1816.52 225.878 
-1848.47 -1818.23 227.392 
-1846.71 -1816.24 225.336 
-1846.39 -1815.96 225.169 
-1845.81 -1815.56 225.511 
-1852.79 -1816.4 233.444 
-1853.44 -1819.17 234.879 
-1852.27 -1816 232.941 
-1854.67 -1819.45 237.063 
-1852 -1818.15 232.221 
-1850.4 -1820.08 229.19 
-1851.47 -1820.44 230.522 
-1852.2 -1820.58 231.65 
-1854.67 -1820.33 235.32 
-1852.14 -1820.06 231.888 
-1855.67 -1819.32 238.131 
-1853.93 -1818.96 236.199 
-1850.11 -1820.12 228.159 
-1849.73 -1819.87 227.742 
-1840.63 -1812.68 225.631 
-1843.65 -1814.29 224.579 
-1845.88 -1815.59 224.752 
-1847.23 -1816.79 225.018 
-1847.63 -1817.25 225.145 
-1846.92 -1816.49 225.048 
-1844.72 -1815.67 211.368 
-1845.43 -1816.43 213.282 
-1845.91 -1816.59 214.646 
-1846.85 -1816.36 216.292 
-1848.73 -1817.85 218.727 
-1849.37 -1819.97 219.612 
-1849.75 -1820.32 220.025 
-1849.74 -1819.74 220.555 
-1850.35 -1820.29 221.119 
-1850.59 -1820.2 221.915 
-1850.08 -1820.35 220.605 
-1850.35 -1820.11 222.689 
-1849.51 -1819.92 224.529 
-1850.5 -1820.29 223.012 
-1850.91 -1820.42 222.237 
-1844.46 -1817.23 207.345 
-1844.43 -1816.52 208.522 
-1844.53 -1816.19 209.83 
-1844.81 -1816.23 211.192 
-1843.97 -1814.05 203.344 
-1844.47 -1815.88 203.747 
-1844.56 -1816.75 204.134 
-1844.57 -1817.59 204.772 
-1844.58 -1817.38 204.345 
-1844.93 -1818.54 206.107 
-1844.84 -1818.14 205.161 
-1844.71 -1817.97 206.897 
-1848.25 -1818.47 225.456 
-1844.56 -1812.67 202.2 
-1844.6 -1813.83 202.555 
-1856.24 -1819.37 238.587 
-1855.24 -1820.66 235.084 
-1854.73 -1821.9 231.326 
-1853.13 -1821.32 230.946 
-1852.52 -1820.94 231.197 
-1875.11 -1833.62 224.966 
-1869.48 -1831.69 221.961 
-1866.8 -1831.66 220.753 
-1868.72 -1831.26 221.518 
-1881.27 -1835.84 226.704 
-1895.24 -1839.89 230.897 
-1898.98 -1841.34 233.277 
-1889.98 -1838.68 229.191 
-1883.21 -1836.8 227.144 
-1903.38 -1842.13 233.287 
-1903.04 -1842.18 232.813 
-1902.28 -1842.04 232.637 
-1903.89 -1842.11 233.698 
-1905.19 -1840.75 239.052 
-1905.41 -1842.07 234.031 
-1911.66 -1841.05 241.127 
-1911.21 -1841.38 240.222 
-1904.47 -1839.25 244.525 
-1908.51 -1839.98 242.866 
-1913.88 -1841.38 241.292 
-1903.86 -1838.84 245.512 
-1903.44 -1838.39 246.439 
-1902.24 -1836.8 248.516 
-1900.17 -1834.58 249.073 
-1900.38 -1834.77 249.333 
-1900.92 -1834.78 249.762 
-1862.17 -1832.45 217.434 
-1861.89 -1832.44 217.498 
-1862.53 -1832.52 217.419 
-1861.55 -1832.35 217.458 
-1861.38 -1832.22 217.694 
-1861.16 -1831.97 217.926 
-1860.94 -1831.7 218.203 
-1864.75 -1832.39 218.6 
-1863.9 -1832.45 218.082 
-1862.99 -1832.45 217.457 
-1860.97 -1830.58 219.718 
-1860.52 -1830.58 219.137 
-1860.73 -1831.42 218.51 
-1860.56 -1831.02 218.737 
-1857.61 -1826.39 219.091 
-1858.43 -1826.73 220.139 
-1859.83 -1827.49 220.763 
-1860.99 -1829.12 220.832 
-1855.78 -1825.87 217.076 
-1853.62 -1823.96 218.923 
-1853.55 -1823.29 220.604 
-1854.56 -1823.68 222.265 
-1852.89 -1823.09 219.739 
-1857.42 -1827.32 215.932 
-1857.8 -1827.25 216.873 
-1854.71 -1823.08 226.41 
-1854.01 -1822.32 228.571 
-1853.45 -1821.92 229.169 
-1853.34 -1821.68 230.069 
-1899.34 -1834.71 249.778 
-1899.71 -1834.8 249.227 
-1903.02 -1833.08 252.974 
-1902.03 -1834.4 251.997 
-1901.56 -1834.68 251.426 
-1900.23 -1834.55 250.914 
-1900.94 -1834.45 250.989 
-1899.79 -1834.6 250.365 
-1904.41 -1835.49 250.121 
-1905.41 -1834.61 250.886 
-1974.91 -1823.3 190.105 
-1976.43 -1824.91 192.504 
-1975.44 -1823.14 190.167 
-1976.09 -1825.24 192.852 
-1967.84 -1824.37 194.951 
-1966.94 -1827.47 200.387 
-1967.38 -1827.75 200.763 
-1967.93 -1827.96 200.859 
-1968.3 -1824.26 194.536 
-1976.89 -1824.72 192.338 
-1978.18 -1826.18 194.031 
-1977.76 -1826.38 194.162 
-1979.2 -1826.52 194.53 
-1978.64 -1826.73 194.689 
-1989.45 -1823.63 202.822 
-1989.14 -1823.85 202.204 
-1989.38 -1824.38 202.807 
-1986.62 -1824.47 198.955 
-1988.31 -1825.41 201.685 
-1988.86 -1825.65 202.638 
-1989.08 -1825.38 202.804 
-1989.42 -1824.92 203.14 
-1989.46 -1825.24 203.465 
-1983.82 -1823.82 195.572 
-1989.98 -1824.88 204.527 
-1990.06 -1824.98 204.9 
-1990.05 -1825.29 205.472 
-1989.88 -1824.63 204.069 
-1989.67 -1824.13 203.389 
-1989.66 -1824.65 203.492 
-1982.11 -1825.21 194.909 
-1981.21 -1825.73 194.69 
-1980.72 -1826.19 194.837 
-1985.82 -1824.83 198.467 
-1985.88 -1825.14 198.893 
-1982.9 -1824.94 195.474 
-1986.59 -1824.79 199.22 
-1980.19 -1826.5 194.877 
-1979.71 -1826.78 195.164 
-1988 -1830.99 218.252 
-1987.88 -1830.97 218.871 
-1988.15 -1830.13 214.06 
-1987.96 -1831.5 215.501 
-1988.03 -1831.45 216.274 
-1987.68 -1831.83 219.073 
-1987.91 -1831.84 217.502 
-1987.64 -1832.19 218.872 
-1988.01 -1830.4 213.61 
-1988.3 -1828.51 211.766 
-1989.27 -1826.59 209.007 
-1988.43 -1828.1 210.814 
-1989.89 -1825.91 206.869 
-1989.89 -1825.83 205.806 
-1986.97 -1823.33 221.636 
-1985.11 -1823.09 227.845 
-1987.65 -1828.05 219.682 
-1987.21 -1830.99 221.142 
-1987.49 -1831.2 220.145 
-1986.99 -1824.61 221.45 
-1984.34 -1824.9 230.517 
-1984.14 -1828.1 230.153 
-1982.29 -1833.22 230.245 
-1982.27 -1831.97 231.316 
-1983.04 -1833.09 229.318 
-1983.11 -1828.06 232.15 
-1983.65 -1828.19 231.124 
-1983.74 -1831.49 229.444 
-1983.8 -1833.03 228.267 
-1984.37 -1833.02 227.348 
-1979.87 -1833.88 232.756 
-1979.14 -1834.7 232.936 
-1976.97 -1836.43 234.283 
-1976.31 -1837.21 234.316 
-1966.27 -1839.04 234.47 
-1974.49 -1838.44 234.248 
-1973.94 -1838.69 234.253 
-1975.13 -1838.06 234.301 
-1975.75 -1837.74 234.184 
-1973.55 -1839 233.881 
-1972.28 -1839.1 233.929 
-1971.46 -1838.93 234.407 
-1970.16 -1839.15 234.4 
-1966.68 -1839.29 234.186 
-1959.92 -1838.67 234.548 
-1961.19 -1838.87 234.491 
-1962.54 -1839.16 234.375 
-1947.95 -1833.74 245.492 
-1949.63 -1833.64 244.669 
-1951.74 -1836.34 240.623 
-1946.71 -1837.57 242.911 
-1948.29 -1837.72 241.998 
-1945.99 -1836.08 244.1 
-1945.74 -1835.09 244.956 
-1946.62 -1834.4 245.213 
-1955.47 -1838.52 237.059 
-1956.4 -1839.22 235.921 
-1957.55 -1839.36 235.327 
-1956.8 -1839.97 235.301 
-1958.81 -1839.35 234.487 
-1958.39 -1839.66 234.581 
-1957.95 -1839.88 234.759 
-1959.23 -1839.12 234.322 
-1848.2 -1818.29 226.793 
-1847.09 -1816.88 225.898 
-1849.51 -1819.68 227.523 
-1847.16 -1816.88 225.518 
-1854.44 -1818.87 237.323 
-1855.19 -1818.62 238.189 
-1855.85 -1818.33 238.921 
-1851.61 -1820.73 229.557 
-1854.64 -1818.12 237.511 
-1850.82 -1820.59 228.138 
-1850.04 -1820.23 227.44 
-1847.48 -1817.18 225.457 
-1845.24 -1816.56 212.445 
-1846.03 -1817.18 214.768 
-1845.6 -1817.22 213.638 
-1846.9 -1817.07 216.174 
-1848.64 -1818.19 218.479 
-1850.28 -1820.84 219.961 
-1849.77 -1820.95 219.16 
-1849.27 -1820.63 218.972 
-1848.88 -1820.15 218.657 
-1850.66 -1820.85 220.59 
-1851.04 -1820.74 221.429 
-1851.18 -1820.69 222.625 
-1850.14 -1820.46 224.694 
-1848.99 -1819.77 225.715 
-1851.52 -1820.97 222.004 
-1844.63 -1818.04 208.16 
-1844.55 -1817.25 208.371 
-1844.65 -1816.91 209.439 
-1844.92 -1816.94 211.178 
-1844.78 -1816.96 210.415 
-1845.2 -1817.26 212.099 
-1844.66 -1815.31 203.173 
-1844.9 -1817.38 203.712 
-1845.05 -1816.85 203.129 
-1844.8 -1817.98 203.913 
-1844.69 -1818.44 204.169 
-1844.9 -1819.13 204.715 
-1845.01 -1821.87 206.092 
-1845 -1819.21 205.451 
-1844.86 -1820.95 207.264 
-1848.15 -1818.39 225.866 
-1845.42 -1812.88 201.049 
-1844.87 -1812 201.42 
-1847.02 -1812.69 199.021 
-1847.13 -1812.09 198.447 
-1845.39 -1813.91 201.617 
-1845.13 -1815.06 202.485 
-1852.38 -1821.19 229.428 
-1874.07 -1833.42 224.014 
-1869.31 -1831.77 221.404 
-1867.05 -1831.41 220.38 
-1867.18 -1831.5 219.909 
-1878.09 -1834.52 225.435 
-1900.44 -1841.31 231.133 
-1901.64 -1841.81 232.101 
-1890.76 -1838.65 228.909 
-1882.97 -1836.75 226.777 
-1909.81 -1843.67 229.599 
-1911.07 -1844.24 228.076 
-1910.85 -1844.24 227.699 
-1906.8 -1843.11 229.861 
-1910.84 -1843.66 229.797 
-1906.52 -1841.56 235.748 
-1908.26 -1840.86 239.545 
-1908.71 -1841.31 236.342 
-1911.14 -1842.8 231.799 
-1914.16 -1842.19 239.979 
-1910.74 -1841.63 239.256 
-1913.02 -1842.4 238.959 
-1908.81 -1839.27 244.207 
-1905.19 -1838.4 245.974 
-1913.57 -1840.27 242.714 
-1917.79 -1841.94 240.208 
-1917.33 -1842.24 239.685 
-1904.19 -1837.92 247.033 
-1902.51 -1836.54 248.873 
-1901.43 -1835.04 250.087 
-1900.08 -1834.69 249.833 
-1900.57 -1834.41 250.38 
-1862.31 -1832.42 217.26 
-1861.85 -1832.36 217.167 
-1861.64 -1832.34 217.263 
-1861.31 -1832.21 217.402 
-1861.35 -1832.25 217.142 
-1861.18 -1832.02 217.661 
-1860.99 -1831.79 217.923 
-1860.76 -1831.51 218.24 
-1864.34 -1832.25 217.793 
-1862.44 -1832.49 216.966 
-1863.06 -1832.4 217.069 
-1860.6 -1829.19 220.306 
-1860.19 -1829.3 219.659 
-1860.39 -1830.66 218.792 
-1860.57 -1831.15 218.487 
-1858.17 -1827.2 217.589 
-1858.53 -1827.07 219.043 
-1859.32 -1827.5 220.248 
-1853.37 -1824.42 217.471 
-1854.3 -1825.5 215.925 
-1855.76 -1826.56 215.082 
-1856.94 -1827.13 215.005 
-1852.16 -1822.94 218.768 
-1852.04 -1823.59 217.555 
-1852.52 -1822.5 220.291 
-1853.05 -1822.61 221.357 
-1853.64 -1822.87 222.655 
-1851.86 -1822.34 219.481 
-1857.43 -1827.35 215.11 
-1857.7 -1827.39 215.979 
-1858.08 -1827.33 216.72 
-1853.9 -1822.69 225.848 
-1852.54 -1821.71 227.495 
-1851.78 -1821.23 227.812 
-1851.62 -1821.04 228.273 
-1903.72 -1835.91 249.583 
-1901.76 -1835.17 250.512 
-1902.94 -1836.23 249.163 
-1905.03 -1830.67 254.684 
-1910 -1834.58 250.751 
-1910.83 -1837.78 247.548 
-1909.84 -1838.06 246.675 
-1973.75 -1823 189.746 
-1975.08 -1825.61 193.447 
-1974.45 -1823.56 190.672 
-1975.69 -1825.59 193.27 
-1974.05 -1825.41 193.548 
-1977.42 -1826.71 194.47 
-1977.03 -1826.91 194.698 
-1967.39 -1824.09 194.39 
-1966.55 -1827.43 200.145 
-1968.52 -1828.4 201.143 
-1968.86 -1824.16 194.038 
-1967.44 -1829.81 203.271 
-1966.24 -1830.19 204.425 
-1966.69 -1829.29 202.591 
-1966.09 -1829.13 202.09 
-1967.73 -1830.77 205.807 
-1978.29 -1826.84 194.676 
-1977.94 -1827.05 194.823 
-1979.17 -1827.03 195.117 
-1978.84 -1826.96 194.93 
-1978.33 -1827.2 195.071 
-1988.22 -1825.63 201.884 
-1989.32 -1825.6 203.462 
-1988.75 -1825.89 202.78 
-1989.16 -1825.86 203.409 
-1989.68 -1824.99 203.784 
-1989.58 -1825.54 204.03 
-1989.77 -1825.24 204.196 
-1989.92 -1825.42 204.974 
-1984.02 -1825.13 197.054 
-1982.12 -1825.55 195.218 
-1981.28 -1826.14 195.192 
-1980.67 -1826.66 195.324 
-1988.1 -1825.84 202.041 
-1986.79 -1825.45 200.272 
-1987.83 -1826.16 202.143 
-1988.29 -1826.13 202.54 
-1980.18 -1826.95 195.349 
-1979.8 -1827.02 195.283 
-1987.57 -1831.5 219.689 
-1987.82 -1831.84 215.151 
-1987.87 -1832.01 216.296 
-1987.71 -1832.41 217.69 
-1987.12 -1832.54 220.731 
-1987.15 -1832.79 220.356 
-1987.49 -1832.64 219.008 
-1987.88 -1830.5 213.063 
-1987.6 -1832.24 214.68 
-1988.09 -1829 211.582 
-1989.16 -1826.9 208.58 
-1988.25 -1828.47 210.311 
-1988.1 -1828.75 210.983 
-1989.7 -1826.27 206.436 
-1989.72 -1826.08 205.274 
-1985.12 -1823.96 227.62 
-1986.29 -1827.33 223.665 
-1986.7 -1830.1 222.675 
-1986.32 -1830.98 223.602 
-1986.76 -1831.84 222.139 
-1986.96 -1832.19 221.41 
-1985.24 -1825.09 227.023 
-1984.62 -1828.3 228.918 
-1985.11 -1828.06 227.596 
-1985.23 -1832.14 226.099 
-1985.74 -1831.59 224.939 
-1983.17 -1834.24 228.054 
-1983.81 -1834.23 227.247 
-1984.33 -1834.13 226.505 
-1984.56 -1832 227.677 
-1985.08 -1833.32 225.701 
-1984.93 -1834.08 225.443 
-1978.4 -1835.31 233.248 
-1982.05 -1834.47 229.137 
-1978.21 -1835.79 232.914 
-1976.38 -1837.41 233.81 
-1978.27 -1835.9 232.492 
-1974.82 -1838.47 233.867 
-1974.22 -1838.82 233.799 
-1975.53 -1838.06 233.766 
-1976.15 -1837.73 233.507 
-1973.26 -1839.31 233.439 
-1973.89 -1839.13 233.424 
-1972.28 -1839.52 233.405 
-1971.42 -1839.28 233.973 
-1970.26 -1839.44 234.08 
-1966.88 -1839.49 233.844 
-1963.34 -1839.68 233.921 
-1959.75 -1838.99 234.142 
-1960.94 -1839.18 234.087 
-1962.12 -1839.54 233.921 
-1945.42 -1834.09 245.899 
-1951.78 -1837.36 240.185 
-1944.62 -1837.51 243.379 
-1947.78 -1841.66 240.052 
-1948.59 -1841.08 240.139 
-1949.61 -1841.34 239.535 
-1950.06 -1840.27 239.806 
-1944.14 -1835.91 244.673 
-1952.64 -1842.11 237.571 
-1955.09 -1839.58 236.648 
-1955.95 -1840.01 235.666 
-1956.09 -1840.43 235.43 
-1957.29 -1840.09 235.046 
-1956.56 -1840.56 235.207 
-1956.06 -1840.9 235.322 
-1959.1 -1839.53 234.085 
-1958.77 -1839.66 234.269 
-1958.23 -1840.14 234.334 
-1957.6 -1840.47 234.572 
-1959.5 -1839.29 233.941 
-1848.06 -1818.33 226.284 
-1849.14 -1819.85 226.856 
-1849.72 -1820.06 227.132 
-1850.34 -1820.49 227.227 
-1845.46 -1817.62 213.034 
-1846.33 -1818 215.063 
-1847.02 -1818.04 216.067 
-1845.73 -1817.93 213.986 
-1848.38 -1818.69 217.91 
-1850.87 -1821.34 219.948 
-1850.23 -1821.4 219.102 
-1849.6 -1821.57 218.192 
-1849.13 -1821.23 218.1 
-1848.76 -1820.95 217.874 
-1848.38 -1820.05 217.757 
-1848.41 -1820.8 217.521 
-1851.39 -1821.31 220.833 
-1850.69 -1820.85 224.797 
-1851.99 -1821.33 222.647 
-1849 -1820.02 226.259 
-1852.48 -1821.83 221.843 
-1852.16 -1821.88 220.956 
-1851.79 -1821.37 221.348 
-1844.82 -1820.38 208.35 
-1844.78 -1820.19 209.223 
-1844.68 -1817.72 209.213 
-1844.75 -1819.58 210.456 
-1844.98 -1819.73 211.479 
-1844.88 -1819.67 211.021 
-1845.16 -1819.73 212.054 
-1845.22 -1816.24 202.65 
-1845.42 -1817.93 202.948 
-1845.41 -1818.7 203.29 
-1845.21 -1818.67 203.735 
-1845.65 -1817.81 202.319 
-1845.71 -1816.98 202.045 
-1845.06 -1819.13 203.922 
-1845.18 -1822.06 204.466 
-1845.21 -1821.92 203.862 
-1845.11 -1822.1 205.411 
-1845.26 -1824.37 204.107 
-1845.21 -1824.48 204.806 
-1845.15 -1824.12 205.987 
-1844.92 -1822.83 208.049 
-1850.62 -1813.95 194.893 
-1850.65 -1814.45 195.381 
-1850.99 -1814.48 195.034 
-1849.85 -1813.7 195.971 
-1849.97 -1814.32 196.232 
-1850.32 -1814.4 195.722 
-1846.61 -1813.46 199.894 
-1848.21 -1813.91 198.103 
-1845.8 -1814.97 201.54 
-1846.37 -1814.29 200.555 
-1849.07 -1814.24 197.18 
-1848.8 -1813.47 197.142 
-1845.71 -1815.94 201.886 
-1873 -1833.19 222.876 
-1869.33 -1831.86 220.957 
-1867.47 -1831.43 219.472 
-1877 -1834.22 224.348 
-1900.18 -1841.09 230.496 
-1907.55 -1843.21 228.397 
-1909.5 -1843.8 227.623 
-1887.4 -1838.06 227.901 
-1892.46 -1838.76 228.391 
-1881.67 -1836.12 225.978 
-1914.25 -1845.02 228.069 
-1913.7 -1845.34 227.688 
-1918.96 -1847.07 225.935 
-1919.24 -1847.15 226.259 
-1912.57 -1844.67 226.241 
-1919.24 -1847.02 225.529 
-1914.51 -1844.29 228.948 
-1908.57 -1841.18 238.058 
-1912.55 -1841.95 236.084 
-1915.93 -1842.38 234.367 
-1912.9 -1843.35 230.222 
-1912.83 -1843.08 231.319 
-1918 -1842.7 234.503 
-1916.9 -1842.73 238.311 
-1917.33 -1842.61 239.03 
-1910.41 -1841.8 238.248 
-1912.19 -1842.52 237.896 
-1914.29 -1842.53 238.607 
-1909.97 -1838.62 245.555 
-1913.27 -1839.16 244.393 
-1906.24 -1837.71 246.968 
-1918.44 -1841.58 240.766 
-1922.09 -1843 237.078 
-1923.66 -1842.76 237.968 
-1920.41 -1842.75 236.595 
-1861.97 -1832.37 216.957 
-1861.53 -1832.3 216.841 
-1861.4 -1832.27 216.964 
-1861.18 -1832.12 217.088 
-1861.07 -1831.97 217.364 
-1861.2 -1832.14 216.811 
-1860.96 -1831.79 217.653 
-1860.82 -1831.59 217.981 
-1860.59 -1831.28 218.219 
-1863.72 -1832.37 217.035 
-1864.75 -1832.04 217.305 
-1862.69 -1832.49 216.466 
-1862.07 -1832.55 216.412 
-1860.04 -1829.38 219.136 
-1859.28 -1827.72 219.169 
-1860.39 -1830.76 218.551 
-1858.67 -1827.37 218.132 
-1858.52 -1827.46 217.333 
-1852.77 -1824.84 215.986 
-1854.97 -1826.32 214.421 
-1856.06 -1826.86 214.402 
-1853.66 -1825.78 214.701 
-1857.03 -1827.33 214.492 
-1851.2 -1822.26 218.73 
-1851.21 -1822.75 218.062 
-1851.56 -1824.14 216.35 
-1851.13 -1823.26 217.297 
-1851.68 -1821.91 220.096 
-1852.98 -1822.21 222.709 
-1852.8 -1822.1 225.259 
-1851 -1821.8 219.285 
-1857.91 -1827.44 215.831 
-1858.02 -1827.62 215.215 
-1857.79 -1827.69 214.522 
-1858.39 -1827.64 216.315 
-1850.94 -1820.97 226.519 
-1850.1 -1820.46 226.811 
-1914 -1838.3 248.243 
-1916.07 -1835.92 249.429 
-1914.09 -1839.22 246.91 
-1913.53 -1839.06 245.818 
-1976.52 -1827.4 195.371 
-1971.15 -1823.96 192.617 
-1972.28 -1827.55 197.987 
-1972.62 -1825.51 194.104 
-1969.2 -1828.68 201.316 
-1975.64 -1827.67 195.857 
-1977.13 -1827.25 195.066 
-1977.5 -1827.46 195.201 
-1967.29 -1823.81 193.957 
-1965.79 -1827.52 199.685 
-1966.22 -1827.36 199.818 
-1965.5 -1829.14 201.744 
-1968.72 -1831.18 206.524 
-1969.08 -1830.55 204.383 
-1965.42 -1830.07 203.887 
-1967.84 -1831.62 208.037 
-1965.24 -1830.69 205.626 
-1967.99 -1832.08 209.062 
-1964.41 -1830.13 203.56 
-1971.54 -1834.33 213.307 
-1970.82 -1834.24 213.367 
-1977.77 -1827.57 195.401 
-1979.53 -1827.29 195.53 
-1978.85 -1827.39 195.457 
-1978.58 -1827.29 195.253 
-1978.03 -1827.65 195.574 
-1989.42 -1825.93 204.099 
-1988.71 -1826.23 203.135 
-1989.03 -1826.34 203.726 
-1989.25 -1826.31 204.246 
-1989.61 -1825.92 204.64 
-1989.76 -1825.6 204.667 
-1983.72 -1825.46 197.289 
-1986.58 -1825.78 200.742 
-1982.04 -1825.91 195.616 
-1981.07 -1826.62 195.602 
-1981.6 -1826.29 195.809 
-1980.55 -1827.07 195.73 
-1988.39 -1826.52 202.946 
-1987.84 -1826.53 202.669 
-1987.65 -1826.32 202.301 
-1988.69 -1826.55 203.349 
-1980.12 -1827.29 195.704 
-1987.7 -1832.37 215.841 
-1987.54 -1832.82 217.617 
-1987.27 -1833.17 219.291 
-1986.6 -1833.33 221.791 
-1986.46 -1832.9 222.404 
-1987.06 -1833.2 220.309 
-1986.59 -1833.62 221.5 
-1987.66 -1830.83 212.509 
-1987.33 -1832.46 213.893 
-1987.14 -1832.89 214.009 
-1987.42 -1832.75 215.13 
-1987.85 -1829.36 211.201 
-1989.02 -1827.18 208.123 
-1988.05 -1828.72 209.838 
-1987.86 -1829.05 210.556 
-1989.48 -1826.49 205.814 
-1986.12 -1832.53 223.484 
-1985.63 -1833.07 224.46 
-1966.23 -1823.95 193.311 
-1965.28 -1827.35 198.924 
-1965.62 -1827.27 199.159 
-1983.7 -1835.08 226.379 
-1984.25 -1835.08 225.631 
-1984.71 -1834.92 225.143 
-1985.1 -1834.58 224.601 
-1985.51 -1833.92 224.195 
-1985.6 -1834.34 223.628 
-1981.84 -1834.89 228.863 
-1983.73 -1835.55 225.719 
