-1789.57 -1905.21 6478.04 
-1795.84 -1902.82 6476.72 
-1792.44 -1905.68 6483.19 
-1795.57 -1905.78 6484.98 
-1789.56 -1908.77 6491.72 
-1800.49 -1904.06 6478.81 
-1800 -1901.55 6476.33 
-1795.41 -1901.28 6472.79 
-1792.28 -1902.28 6468.23 
-1801.02 -1906.78 6484.77 
-1794.33 -1907.83 6490.75 
-1806.43 -1905.63 6479.85 
-1805.03 -1903.33 6477.97 
-1800.6 -1899.7 6474.64 
-1795.01 -1901.47 6469.51 
-1804.07 -1901.04 6476.38 
-1799.75 -1899.11 6472.6 
-1796.09 -1902.3 6468.25 
-1807.67 -1907.88 6483.81 
-1799.36 -1908.88 6491.15 
-1803.15 -1909.22 6490.49 
-1811.7 -1908.24 6483.62 
-1804.75 -1909.38 6491.08 
-1811.86 -1903.89 6478.74 
-1813.36 -1906 6480.33 
-1809.78 -1901.62 6477.11 
-1806.69 -1897.88 6474.26 
-1807.98 -1899.21 6475.35 
-1799.82 -1899.71 6470.69 
-1794.28 -1903.2 6465.25 
-1791.64 -1902.58 6463.3 
-1789.3 -1901.77 6463.17 
-1790.49 -1902.11 6462.69 
-1813.98 -1907.64 6482.79 
-1808.77 -1908.86 6488.48 
-1816.24 -1904.59 6479.89 
-1817.67 -1900.12 6476.32 
-1817.07 -1902.28 6478.09 
-1818.16 -1898.44 6474.89 
-1807.47 -1897.99 6473.72 
-1819 -1898.54 6474.02 
-1818.42 -1898.44 6474.46 
-1805.11 -1898.1 6472.71 
-1797.96 -1901.49 6467.96 
-1814.93 -1908.15 6458.56 
-1817.73 -1908.1 6457.74 
-1814.44 -1906.68 6462.42 
-1815.02 -1907.61 6483.28 
-1809.55 -1909.83 6490.59 
-1817.77 -1904.54 6480.31 
-1820.84 -1901.67 6478.09 
-1822.95 -1898.29 6474.98 
-1821.31 -1900.21 6476.77 
-1823.61 -1897.82 6473.81 
-1812.72 -1898.81 6473.46 
-1816.88 -1899.08 6473.9 
-1819.84 -1898.55 6473.6 
-1823.18 -1898.02 6473.31 
-1822.36 -1898.25 6472.8 
-1823.2 -1898.49 6472.02 
-1804.56 -1898.43 6471.66 
-1794.73 -1901.8 6463.82 
-1792.98 -1902.28 6462.8 
-1791.59 -1902.35 6462.02 
-1817.6 -1906.1 6461.39 
-1816.62 -1904.49 6466.18 
-1818.33 -1907.19 6458.73 
-1819.38 -1908.27 6456.55 
-1815.38 -1903.61 6468.17 
-1811.91 -1904.38 6467.25 
-1820.1 -1907.93 6456.8 
-1819.22 -1907.09 6458.36 
-1820.61 -1908.98 6455.74 
-1815.58 -1908.44 6485.22 
-1797.22 -1901.44 6459.23 
-1818.85 -1905.16 6481.09 
-1822.77 -1901.16 6477.96 
-1825.55 -1897.68 6474.59 
-1826.6 -1897.42 6474.59 
-1825.08 -1897.61 6473.92 
-1824.8 -1898.22 6472.27 
-1824.09 -1898.42 6471.97 
-1820.1 -1898.66 6473 
-1817.19 -1899.38 6473.39 
-1811.38 -1898.74 6472.67 
-1822.65 -1898.7 6471.58 
-1823.77 -1899.3 6469.57 
-1824.11 -1898.95 6470.49 
-1803.29 -1898.9 6470.24 
-1794.45 -1901.45 6462.89 
-1806.77 -1906.61 6462.49 
-1809.81 -1904.07 6466.41 
-1806.26 -1906.49 6463.23 
-1807.88 -1906.89 6462.16 
-1807.89 -1903.22 6466.26 
-1806.04 -1906.13 6463.93 
-1808.9 -1902.16 6468.5 
-1811.3 -1901.94 6470.07 
-1816.57 -1902.95 6468.63 
-1817.38 -1903.26 6467.89 
-1819.79 -1902.63 6465.82 
-1819.68 -1903.32 6464.95 
-1820.09 -1903.9 6463.41 
-1818.68 -1905.95 6460.67 
-1815.03 -1901.07 6472.51 
-1821.14 -1908.16 6456.39 
-1820.29 -1907.08 6458 
-1819.62 -1906.25 6459.36 
-1819.78 -1906.2 6481.55 
-1819.09 -1913.79 6490.34 
-1799.61 -1900.73 6463.45 
-1796.2 -1900.53 6460.94 
-1796.36 -1901.33 6459.07 
-1798.47 -1900.94 6461.08 
-1796.75 -1901.01 6459.97 
-1800.26 -1900.87 6462.87 
-1799.41 -1900.76 6462.85 
-1823.15 -1901.74 6478.42 
-1827.15 -1897.81 6475.08 
-1825.95 -1898.02 6472.24 
-1826.99 -1897.8 6472.62 
-1828.1 -1897.77 6473.04 
-1825.76 -1898.8 6470.51 
-1825 -1898.96 6470.2 
-1817.13 -1899.57 6473.04 
-1820.13 -1898.74 6472.41 
-1821.87 -1898.65 6471.85 
-1808.04 -1898.34 6471.72 
-1814.67 -1899.54 6472.62 
-1822.83 -1899.29 6469.85 
-1823.9 -1899.93 6467.74 
-1824.78 -1899.88 6467.6 
-1825.01 -1899.48 6468.7 
-1802.32 -1899.64 6468.54 
-1794.67 -1901.09 6462.5 
-1806.39 -1902.69 6466.47 
-1805.31 -1906.63 6464.47 
-1805.97 -1903.97 6466.24 
-1804.81 -1906.69 6465.21 
-1807.12 -1901.73 6467.76 
-1805.47 -1901.75 6466.57 
-1806.76 -1900.16 6469.11 
-1805.68 -1900.93 6467.75 
-1807.86 -1899.56 6470.35 
-1817.5 -1902.25 6469.33 
-1816.56 -1901.08 6471.98 
-1819.8 -1901.99 6466.74 
-1821.97 -1901.19 6465.76 
-1822.28 -1901.11 6465.29 
-1822.26 -1901.8 6464.06 
-1820.73 -1904.31 6461.76 
-1822.7 -1902.39 6462.59 
-1821.26 -1904.74 6460.37 
-1811.55 -1899.27 6472.22 
-1822.14 -1909.12 6456.03 
-1822.21 -1907.85 6456.71 
-1821.46 -1906.94 6457.71 
-1820.8 -1906.4 6458.64 
-1822.22 -1905.07 6459.51 
-1820.98 -1911.51 6484.72 
-1822.67 -1905.96 6479.92 
-1824.64 -1901.71 6477.47 
-1794.54 -1900.84 6461.8 
-1796.91 -1902.69 6459.27 
-1800.21 -1900.72 6464.31 
-1799.61 -1900.64 6464.49 
-1803.2 -1901.16 6464.91 
-1803.6 -1901.18 6465.55 
-1804.04 -1901.21 6466.23 
-1798.07 -1901.56 6459.4 
-1800.16 -1901.13 6461.42 
-1799.65 -1901.01 6461.54 
-1802.6 -1901.19 6463.78 
-1802.39 -1901.3 6463.16 
-1799.06 -1902.16 6460.92 
-1797.43 -1902.13 6459.01 
-1803.69 -1901.42 6464.72 
-1828.69 -1898.06 6473.9 
-1826.89 -1898.66 6471.07 
-1828.07 -1898.65 6471.52 
-1829.21 -1898.68 6471.89 
-1826.64 -1899.29 6469.74 
-1825.81 -1899.43 6468.94 
-1819.84 -1899.2 6471.68 
-1818.03 -1900.34 6471.8 
-1821.81 -1899.08 6470.83 
-1806.12 -1898.57 6470.55 
-1817.52 -1901.28 6470.83 
-1822.87 -1899.88 6468.17 
-1823.97 -1900.44 6466.22 
-1824.73 -1900.3 6466.41 
-1825.48 -1900.25 6466.37 
-1825.57 -1899.82 6467.65 
-1801.82 -1900.24 6466.98 
-1805.2 -1904.11 6465.94 
-1804.94 -1901.73 6465.8 
-1805.16 -1902.46 6465.63 
-1804.25 -1906.74 6465.6 
-1804.5 -1904.18 6465.33 
-1803.68 -1906.73 6465.55 
-1803.82 -1900.22 6467.62 
-1803.77 -1900.91 6466.7 
-1819.79 -1901.14 6468.28 
-1822 -1900.69 6466.94 
-1822.79 -1900.92 6465.51 
-1823.04 -1901.1 6464.48 
-1823.3 -1900.91 6464.93 
-1823.24 -1902.92 6461.25 
-1823.62 -1901.85 6462.77 
-1822.88 -1908.53 6456.55 
-1823.12 -1909.84 6455.91 
-1823.38 -1908.92 6456.53 
-1822.28 -1906.83 6457.53 
-1822.86 -1907.36 6457.08 
-1823.17 -1905.35 6458.92 
-1823.93 -1903.5 6460.38 
-1822.79 -1911.56 6483.06 
-1826.49 -1901.49 6476.19 
-1825.79 -1905.86 6478.42 
-1795.33 -1900.6 6461.92 
-1796.83 -1903.27 6460.05 
-1799.4 -1901.58 6460.45 
-1801.43 -1901.5 6462.32 
-1803.33 -1902.3 6463.96 
-1804.21 -1902.33 6464.75 
-1802.39 -1902.7 6463.37 
-1800.35 -1902.38 6462.04 
-1798.32 -1906.39 6462.69 
-1829.96 -1898.53 6473.04 
-1827.73 -1899.25 6470.23 
-1828.79 -1899.36 6470.41 
-1830.39 -1899.11 6471.55 
-1829.84 -1899.45 6470.59 
-1826.69 -1899.76 6468.65 
-1827.64 -1899.72 6469.13 
-1826.25 -1899.95 6467.79 
-1819.76 -1900.12 6470.02 
-1821.58 -1899.67 6469.7 
-1823.22 -1900.65 6466.01 
-1822.06 -1900.14 6468.16 
-1824.3 -1900.82 6465.12 
-1824.96 -1900.67 6465.3 
-1825.78 -1900.57 6465.41 
-1826.37 -1900.57 6465.87 
-1826.09 -1900.25 6466.73 
-1803.68 -1904.2 6464.61 
-1803.05 -1906.63 6465.66 
-1802.32 -1906.55 6465.85 
-1802.78 -1904.13 6464.29 
-1801.73 -1904.26 6464.74 
-1801.57 -1906.45 6466.04 
-1823.83 -1900.95 6464.88 
-1824.14 -1901.4 6463.61 
-1824.53 -1901.31 6463.85 
-1824.09 -1902.55 6461.29 
-1824.84 -1902.15 6462.02 
-1823.08 -1908.1 6456.84 
-1823.97 -1909.33 6456.52 
-1823.82 -1908.22 6456.93 
-1823.45 -1907.59 6457.09 
-1824.67 -1905.96 6458.02 
-1824.01 -1905.68 6458.37 
-1825.33 -1904.02 6459.75 
-1824.73 -1903.29 6460.42 
-1824.61 -1909.8 6456.48 
-1824.35 -1908.49 6456.91 
-1837.09 -1912.6 6466.66 
-1837.44 -1911.99 6466.3 
-1836.46 -1920.94 6466.32 
-1839.32 -1910.74 6465.71 
-1836.41 -1920.67 6466.1 
-1840.9 -1911.09 6465.09 
-1836.46 -1920.52 6465.71 
-1837.1 -1913.18 6467.38 
-1837.4 -1907.17 6467.29 
-1837.06 -1913.47 6467 
-1836.58 -1907.94 6468.04 
-1836.63 -1913.9 6467.96 
-1837.73 -1906.48 6466.81 
-1835.68 -1908.3 6468.84 
-1835.72 -1914.29 6468.77 
-1834.81 -1908.24 6469.6 
-1834.75 -1915.62 6470.1 
-1834.11 -1910.05 6470.34 
-1832.69 -1912.66 6474.17 
-1825.51 -1910.32 6480.85 
-1825.88 -1917.2 6486.05 
-1828.67 -1901.63 6475 
-1829.14 -1906.31 6477.12 
-1799.24 -1907.07 6464.01 
-1801.23 -1903.07 6463.43 
-1831.28 -1899.14 6472.19 
-1828.62 -1899.85 6469.2 
-1829.64 -1899.93 6469.42 
-1831.27 -1899.58 6470.84 
-1830.95 -1900.05 6469.64 
-1826.99 -1900.23 6467.61 
-1827.91 -1900.24 6468.03 
-1826.78 -1900.52 6466.55 
-1824.93 -1901.13 6464.21 
-1825.62 -1900.9 6464.6 
-1826.64 -1900.55 6465.59 
-1827.18 -1900.61 6466.06 
-1825.31 -1901.67 6462.88 
-1825.73 -1901.27 6463.76 
-1825.44 -1902.74 6461.19 
-1826.08 -1902.15 6462.08 
-1825.85 -1906.77 6457.72 
-1825.35 -1906.37 6457.78 
-1826.23 -1904.24 6459.54 
-1826.85 -1904.92 6459.09 
-1826.19 -1903.33 6460.52 
-1825.22 -1910.59 6456.19 
-1825.26 -1909.46 6456.67 
-1824.83 -1908.76 6456.86 
-1826.49 -1907.2 6457.59 
-1838.63 -1905.56 6466.19 
-1839.83 -1906.63 6465.55 
-1840.91 -1908.38 6464.73 
-1842.12 -1912.01 6464.57 
-1837.3 -1920.1 6465.12 
-1841.87 -1910.21 6463.9 
-1837.55 -1903.1 6466.87 
-1836.58 -1902.92 6467.9 
-1835.67 -1902.92 6468.81 
-1838.12 -1904.19 6465.85 
-1834.63 -1902.27 6469.71 
-1830.89 -1916.28 6479.58 
-1830.8 -1910.26 6477.72 
-1828.62 -1916.64 6482.89 
-1833.72 -1903.71 6470.59 
-1832.63 -1906.48 6472.67 
-1828.1 -1911.48 6480.26 
-1826.76 -1916.45 6484.16 
-1831.48 -1902.27 6473.51 
-1832.67 -1900.12 6471.22 
-1829.16 -1900.42 6468.09 
-1830.66 -1900.62 6468.18 
-1832.53 -1900.23 6469.81 
-1832.13 -1900.81 6468.3 
-1827.61 -1900.64 6466.86 
-1829.08 -1900.9 6466.85 
-1827.55 -1900.67 6466.39 
-1826.41 -1900.79 6464.85 
-1827.34 -1900.55 6465.5 
-1827.76 -1900.62 6465.83 
-1829.36 -1900.97 6465.76 
-1826.38 -1901.47 6463.35 
-1826.95 -1900.97 6464.47 
-1826.74 -1902.62 6461.42 
-1827.1 -1901.83 6462.63 
-1828.15 -1905.49 6459.17 
-1827.63 -1904.86 6459.34 
-1827.16 -1903.86 6459.94 
-1827.46 -1902.97 6460.91 
-1825.68 -1910.38 6456.54 
-1825.95 -1909.55 6456.73 
-1826.3 -1911.03 6456.62 
-1827.07 -1907.61 6457.53 
-1827.49 -1907.97 6457.61 
-1828.86 -1906.01 6459.12 
-1826.64 -1910.23 6456.81 
-1826.92 -1911.51 6456.73 
-1839.03 -1906.01 6464.84 
-1839.95 -1907.53 6464.33 
-1840.89 -1909.28 6463.56 
-1843.19 -1913.27 6464.04 
-1838.13 -1919.58 6464.93 
-1842.87 -1911.77 6463.46 
-1841.73 -1910.95 6462.76 
-1836.73 -1902.76 6466.73 
-1835.8 -1902.14 6467.47 
-1835.02 -1901.49 6468.5 
-1838.07 -1904.95 6464.98 
-1837.2 -1903.32 6466.07 
-1833.6 -1900.45 6470.1 
-1834.21 -1901.16 6468.65 
-1830.67 -1901.17 6466.84 
-1832.18 -1901.39 6466.94 
-1833.37 -1900.92 6468.56 
-1833.76 -1901.6 6467.08 
-1829.65 -1901.08 6466.08 
-1831.89 -1901.55 6465.84 
-1829.41 -1900.97 6465.09 
-1828.23 -1900.94 6464.86 
-1830.19 -1901.1 6465.2 
-1832.44 -1901.68 6464.74 
-1832.26 -1901.63 6465.23 
-1843.53 -1913.65 6463.84 
-1838.72 -1919.09 6464.73 
-1827.74 -1901.38 6463.68 
-1827.9 -1902.09 6462.17 
-1828.97 -1904.2 6460.07 
-1828.18 -1903.55 6460.25 
-1828.47 -1902.51 6461.38 
-1827.85 -1908.34 6457.61 
-1828.2 -1908.87 6457.72 
-1829.96 -1906.05 6459.56 
-1830.38 -1907.17 6459.38 
-1829.58 -1904.9 6459.99 
-1827.46 -1911.08 6456.98 
-1828.9 -1909.63 6457.89 
-1828.3 -1911.85 6457.16 
-1829.76 -1910.6 6458.07 
-1830.77 -1911.62 6458.25 
-1838.97 -1906.87 6463.78 
-1839.99 -1908.51 6463.16 
-1840.82 -1910.19 6462.33 
-1842.82 -1912.31 6462.94 
-1842.19 -1911.76 6462.57 
-1841.09 -1911.1 6461.8 
-1835.99 -1902.67 6466.35 
-1834.88 -1901.92 6467.16 
-1836.93 -1903.55 6465.57 
-1837.65 -1905.19 6464.42 
-1833.25 -1901.86 6465.86 
-1834.12 -1902.18 6465.98 
-1834.94 -1902.39 6466.19 
-1833.87 -1902.42 6465.03 
-1830.72 -1901.58 6464.35 
-1832.08 -1901.66 6464.37 
-1829.44 -1901.56 6464.14 
-1833.59 -1902.66 6463.94 
-1833.83 -1902.69 6464.48 
-1839.66 -1918.2 6464.48 
-1843.72 -1913.39 6463.59 
-1840.54 -1917.37 6464.23 
-1842.99 -1912.61 6463.03 
-1828.87 -1901.83 6463.09 
-1829.28 -1902.92 6460.93 
-1830.03 -1903.47 6460.83 
-1829.77 -1902.42 6462.25 
-1830.99 -1907.74 6459.58 
-1830.82 -1905.46 6460.29 
-1830.62 -1904.41 6460.61 
-1831.49 -1905.78 6460.38 
-1831.38 -1908.63 6459.43 
-1831.76 -1909.56 6459.22 
-1831.57 -1912.57 6458.55 
-1833.85 -1910.29 6459.68 
-1833.15 -1909.19 6459.77 
-1838.51 -1906.98 6463.28 
-1839.64 -1908.82 6462.32 
-1840.36 -1910.43 6461.42 
-1841.38 -1911.52 6461.98 
-1841.82 -1911.96 6462.25 
-1840.18 -1910.82 6461.22 
-1839.84 -1910.36 6461.15 
-1835.9 -1903.04 6465.73 
-1836.41 -1903.97 6464.88 
-1837.11 -1905.78 6463.61 
-1834.5 -1902.96 6465.09 
-1835.15 -1903.14 6465.33 
-1834.8 -1903.69 6464.31 
-1831.84 -1902.29 6463.57 
-1832.93 -1902.43 6463.58 
-1830.69 -1902.23 6463.38 
-1834.26 -1903.53 6463.08 
-1834.67 -1903.81 6463.67 
-1842.05 -1915.81 6463.91 
-1842.43 -1912.5 6462.63 
-1843.16 -1912.96 6463 
-1830.45 -1902.99 6461.75 
-1831.07 -1903.64 6461.31 
-1831.26 -1902.8 6462.78 
-1831.86 -1907.02 6460.03 
-1831.37 -1904.56 6460.7 
-1832.13 -1905.26 6460.63 
-1832.33 -1907.94 6459.85 
-1834.88 -1911.16 6459.77 
-1832.06 -1913.56 6458.84 
-1835.93 -1909.68 6460.41 
-1834.86 -1908.46 6460.46 
-1833.82 -1907.18 6460.51 
-1838.28 -1907.75 6462.46 
-1839.29 -1909.24 6461.55 
-1839.1 -1909.5 6461.19 
-1840.6 -1911.29 6461.44 
-1841.16 -1911.81 6461.79 
-1839.42 -1910.5 6460.96 
-1838.76 -1909.7 6461.02 
-1838.54 -1909.29 6461.09 
-1835.63 -1904.01 6464.49 
-1835.93 -1905.1 6463.5 
-1836.93 -1906.45 6462.65 
-1832.44 -1903.07 6462.76 
-1833.56 -1903.25 6462.74 
-1834.96 -1904.46 6462.24 
-1835.54 -1904.93 6462.79 
-1842.53 -1915.34 6463.67 
-1839.32 -1917.97 6463.03 
-1843.37 -1913.17 6463.05 
-1841.53 -1912.2 6462 
-1842.18 -1912.63 6462.32 
-1831.51 -1903.29 6462.27 
-1832.51 -1903.88 6461.95 
-1832.09 -1904.07 6461.56 
-1832.75 -1903.61 6462.25 
-1832.86 -1905.84 6460.61 
-1832.56 -1904.57 6461.17 
-1833.6 -1905.41 6460.95 
-1835.93 -1911.95 6459.89 
-1833.07 -1914.58 6459.25 
-1836.07 -1914.02 6459.76 
-1836.33 -1910.89 6460.24 
-1837 -1910.68 6460.35 
-1835.88 -1908.59 6460.61 
-1836.92 -1909.92 6460.51 
-1834.94 -1907.33 6460.72 
-1834.09 -1906.18 6460.82 
-1837.77 -1907.56 6461.85 
-1838.07 -1908.19 6461.37 
-1837.6 -1908.19 6461.2 
-1839.89 -1911.09 6461.02 
-1840.24 -1911.52 6461.17 
-1838.16 -1909.45 6460.94 
-1838.47 -1909.94 6460.88 
-1837.31 -1908.33 6461.05 
-1837.32 -1908.58 6460.97 
-1836.51 -1906.2 6461.92 
-1834.02 -1903.95 6462.03 
-1835.53 -1905.4 6461.66 
-1842.89 -1914.98 6463.45 
-1839.94 -1917.29 6462.66 
-1842.96 -1913.1 6462.72 
-1840.67 -1911.93 6461.4 
-1841.32 -1912.38 6461.71 
-1840.91 -1916.45 6462.54 
-1833.54 -1904.76 6461.3 
-1833.89 -1904.58 6461.51 
-1834.25 -1904.45 6461.68 
-1834.96 -1906.66 6460.91 
-1834.59 -1905.99 6461.05 
-1837.02 -1911.79 6460.17 
-1837.27 -1914.09 6459.91 
-1837.87 -1912.17 6460.19 
-1837.87 -1911.35 6460.35 
-1836.81 -1909.14 6460.68 
-1836 -1908.04 6460.78 
-1838.03 -1911.07 6460.46 
-1837.83 -1910.38 6460.6 
-1835.37 -1907.25 6460.85 
-1836.69 -1906.87 6461.44 
-1836.31 -1907.08 6461.2 
-1838.89 -1910.51 6460.82 
-1839.27 -1911.07 6460.77 
-1836.99 -1908.62 6460.87 
-1837.33 -1909.15 6460.81 
-1836.01 -1907.31 6461.01 
-1836.24 -1907.79 6460.92 
-1835.36 -1905.76 6461.43 
-1843.39 -1914.53 6463.27 
-1843.04 -1913.25 6462.69 
-1841.97 -1912.81 6462.04 
-1839.86 -1911.83 6460.84 
-1840.33 -1912.54 6460.99 
-1840.96 -1913.11 6461.28 
-1841.82 -1915.62 6462.37 
-1839.98 -1916.73 6461.55 
-1835 -1905.92 6461.23 
-1838.38 -1914.54 6460.14 
-1838.48 -1913.16 6460.19 
-1838.65 -1912.41 6460.29 
-1838.77 -1912.07 6460.39 
-1837.97 -1909.97 6460.74 
-1838.8 -1911.62 6460.5 
-1838.88 -1911.2 6460.62 
-1843.82 -1914.33 6463.09 
-1843.04 -1913.61 6462.58 
-1842.02 -1913.36 6461.94 
-1839.56 -1912.16 6460.65 
-1840.07 -1912.88 6460.81 
-1841.23 -1913.85 6461.3 
-1840.5 -1913.55 6460.93 
-1842.62 -1915.39 6462.3 
-1841.03 -1915.95 6461.47 
-1838.98 -1915.18 6460.29 
-1839.1 -1913.33 6460.38 
-1839.57 -1914.07 6460.52 
-1839.57 -1915.84 6460.45 
-1839.29 -1912.83 6460.49 
-1839.41 -1912.46 6460.56 
-1842.13 -1916.98 6461.89 
-1844.45 -1915.03 6463.28 
-1843.09 -1914.33 6462.45 
-1842.19 -1914.13 6461.88 
-1839.9 -1913.16 6460.71 
-1840.33 -1913.9 6460.84 
-1840.89 -1914.25 6461.04 
-1841.55 -1914.63 6461.35 
-1843.53 -1916.19 6462.76 
-1839.76 -1913.49 6460.63 
-1840.15 -1914.41 6460.73 
-1843.89 -1917.67 6462.87 
-1844.72 -1916.74 6463.38 
-1845.13 -1916.05 6463.52 
-1843.29 -1914.86 6462.47 
-1843.54 -1915.04 6462.55 
-1842.4 -1915.02 6461.83 
-1840.83 -1914.66 6460.98 
-1840.52 -1915.37 6460.83 
-1841.46 -1915.16 6461.2 
-1840.22 -1916.61 6460.6 
-1841.13 -1915.75 6461.04 
-1845.39 -1917.92 6463.64 
-1845.73 -1917.09 6463.72 
-1843.44 -1915.41 6462.36 
-1842.86 -1915.48 6462.01 
-1844.32 -1918.05 6462.93 
-1843.36 -1918.21 6462.36 
-1842.12 -1915.72 6461.5 
-1842.04 -1916.96 6461.54 
-1840.83 -1917.59 6460.53 
-1845.36 -1918.16 6463.46 
