-2003.42 -1897.89 1415.68 
-2003.08 -1897.5 1415.44 
-2003.46 -1898.42 1415.91 
-2003.83 -1899.15 1416.42 
-2003.58 -1899.01 1416.17 
-2001.88 -1896.51 1414.18 
-2001.56 -1897.11 1414.58 
-2000.3 -1896.52 1413.41 
-1999.63 -1896.49 1412.87 
-2011.64 -1899.59 1433.18 
-2012.06 -1899.28 1433.23 
-2011.46 -1899.81 1433.31 
-2011.38 -1899.93 1433.55 
-2012.17 -1898.88 1432.88 
-2012.58 -1898.28 1432.79 
-2010.64 -1900.09 1433.83 
-2008.32 -1899.81 1433.6 
-2011.22 -1900.08 1433.3 
-2011.1 -1900.21 1433.28 
-2010.79 -1900.26 1433.41 
-2005.28 -1900.14 1427.07 
-2005.67 -1899.9 1427.58 
-2006.05 -1899.69 1428.16 
-2003.69 -1901.26 1427.66 
-2004.76 -1900.52 1426.55 
-2004.18 -1900.96 1426.84 
-2006.34 -1899.58 1429.05 
-2006.5 -1899.48 1428.56 
-2006.29 -1899.71 1431.78 
-2006.93 -1899.46 1430.19 
-2006.91 -1899.55 1431.32 
-2006.7 -1899.43 1429.53 
-2001.23 -1903.31 1431.71 
-2002.76 -1901.95 1429.3 
-2000.32 -1904.53 1430.49 
-1998.28 -1908.5 1421.29 
-1992.73 -1911.05 1418.19 
-2000.53 -1907.34 1422.23 
-2001.71 -1907.3 1421.94 
-2002.09 -1906.87 1422.01 
-2002.13 -1906.46 1423.53 
-2002.1 -1906.37 1422.89 
-2002.28 -1906.31 1422.29 
-2000.93 -1905.78 1426.49 
-1986.21 -1912.88 1424.03 
-1985.89 -1913.59 1421.82 
-1987.09 -1913.92 1416.44 
-1984.55 -1915.33 1417.53 
-1984.74 -1914.8 1419.48 
-1982.7 -1912.44 1431.11 
-1980.07 -1911.3 1438.73 
-1980.4 -1912.29 1433.98 
-1981.91 -1913.36 1428.37 
-2012.48 -1898.1 1432.37 
-2012.25 -1898.24 1432.1 
-2009.29 -1897.07 1428.78 
-2008.22 -1898.09 1428.41 
-2008.84 -1897.75 1429.04 
-2011.14 -1896.68 1429.94 
-2011.64 -1897.81 1431.19 
-2010.54 -1897.26 1429.93 
-2011.9 -1898.31 1431.83 
-2012.06 -1898.3 1431.96 
-2006.93 -1899.29 1428.57 
-2007.31 -1899.06 1428.56 
-2007.66 -1898.78 1428.51 
-2008.11 -1898.45 1428.78 
-2004.42 -1899.4 1418.04 
-2004.54 -1899.49 1418.45 
-2004.59 -1900 1418.87 
-2005.13 -1900.05 1422.36 
-2005.24 -1900.42 1423.09 
-2004.86 -1900.4 1424.35 
-2004.56 -1900.86 1424.83 
-2004.48 -1900.89 1425.79 
-2004.61 -1901.55 1420.36 
-2004.67 -1901.51 1419.82 
-2004.55 -1901.56 1420.96 
-2004.54 -1901.56 1419.32 
-2004.46 -1901.62 1419.13 
-2004.63 -1901.51 1419.51 
-1981.34 -1910.13 1446.37 
-1978.04 -1911.27 1446.37 
-1979.74 -1910.78 1442.23 
-1979.16 -1910.91 1442.46 
-1977.56 -1911.45 1444.6 
-1981.28 -1910.5 1458.94 
-1980.61 -1911.04 1456.71 
-1981.67 -1909.67 1461.84 
-1979.88 -1910.88 1448.69 
-1979.84 -1911.26 1454.64 
-1980.05 -1911.27 1452.89 
-1980.94 -1908.62 1467.58 
-1995.81 -1896.3 1407.12 
-1998.22 -1897.24 1412.52 
-1997.73 -1897.44 1412.17 
-1999.44 -1896.91 1413.28 
-1998.74 -1897.34 1413.22 
-1997.22 -1897.33 1411.2 
-2004.26 -1899.64 1417.85 
-2004.09 -1900.22 1417.66 
-2004.19 -1900.42 1417.99 
-2003.98 -1900.22 1417.38 
-2003.87 -1900.37 1417.16 
-2003.81 -1899.83 1416.78 
-2002.89 -1898.12 1415.69 
-2001.44 -1897.73 1415 
-2003.09 -1898.8 1416 
-2003.64 -1899.67 1416.52 
-2003.36 -1899.43 1416.28 
-2000.02 -1897.06 1413.81 
-1999.87 -1897.64 1414.23 
-2011.38 -1899.72 1432.98 
-2011.65 -1899.42 1432.84 
-2011.99 -1899.01 1432.65 
-2011.27 -1899.93 1433.13 
-2012.28 -1898.58 1432.46 
-2008.61 -1899.83 1433.02 
-2011.06 -1899.94 1432.96 
-2010.67 -1900.15 1433.07 
-2010.79 -1899.96 1432.87 
-2008.87 -1899.78 1432.55 
-2001.87 -1902.98 1429.35 
-2003.57 -1901.59 1427.15 
-2003.96 -1901.32 1426.24 
-2006.83 -1899.36 1429.1 
-2007.48 -1899.43 1430.94 
-2007.64 -1899.3 1430.42 
-2007.19 -1899.27 1429.73 
-1997.13 -1909.1 1419.94 
-2000.67 -1907.33 1421.39 
-1990.62 -1912.06 1416.22 
-1985.36 -1914.92 1415.49 
-2001.71 -1907.25 1421.38 
-2002.25 -1906.76 1421.47 
-2002.49 -1906.33 1421.74 
-2002.81 -1906.03 1423.61 
-2002.53 -1906.06 1423.08 
-2002.35 -1906.04 1422.63 
-2002.65 -1905.9 1422.01 
-2001.39 -1905.2 1426.98 
-1984.43 -1913.39 1424.62 
-1983.93 -1914.76 1421.5 
-1983.71 -1914.24 1423.44 
-1983.74 -1916 1416.07 
-1982.89 -1916.35 1418.03 
-1982.43 -1916.78 1416.88 
-1982.73 -1916.19 1419.33 
-1978.99 -1911.48 1439.69 
-1978.94 -1912.52 1435.36 
-1980.12 -1913.81 1429.63 
-2012.08 -1898.58 1432.18 
-2010.5 -1897.99 1430.5 
-2008.64 -1898.19 1429.31 
-2010.63 -1898.5 1430.81 
-2011.6 -1898.37 1431.6 
-2011.93 -1898.54 1432.02 
-2011.71 -1898.56 1431.9 
-2007.25 -1899.18 1429.11 
-2007.71 -1898.94 1429.17 
-2008.02 -1898.65 1429.12 
-2008.59 -1898.42 1429.58 
-2004.42 -1900.23 1418.49 
-2004.31 -1900.43 1418.27 
-2004.35 -1901.73 1418.89 
-2004.54 -1901.6 1421.63 
-2004.52 -1901.79 1422.41 
-2005.09 -1900.83 1423.73 
-2004.19 -1901.28 1425.32 
-2004.43 -1901.37 1424.44 
-2003.99 -1903.18 1420.17 
-2003.98 -1903.25 1420.51 
-2004.01 -1903.08 1419.79 
-2003.86 -1903.38 1420.99 
-2003.91 -1903.32 1419.12 
-2003.97 -1903.16 1419.45 
-2003.89 -1903.28 1418.75 
-1975.8 -1912.06 1447.34 
-1977.97 -1911.57 1450.56 
-1976.69 -1912 1442.57 
-1975.03 -1912.39 1445.41 
-1980.18 -1910.35 1460.88 
-1980.43 -1909.45 1464.95 
-1979.58 -1911.05 1457.49 
-1977.46 -1911.67 1452.07 
-1979.93 -1908.38 1469.87 
-1995.63 -1896.88 1407.56 
-1993.92 -1896.09 1403.58 
-1993.72 -1896.94 1404.15 
-1998.39 -1897.81 1413.38 
-1998.01 -1897.8 1412.92 
-1997.4 -1897.94 1412.35 
-1997.7 -1898.2 1412.96 
-1999.31 -1897.46 1413.78 
-1998.79 -1897.89 1413.84 
-1996.87 -1897.93 1411.37 
-2003.76 -1901.95 1417.59 
-2003.95 -1901.98 1417.79 
-2004.14 -1902.01 1417.98 
-2003.59 -1901.97 1417.38 
-2003.63 -1900.42 1416.97 
-2003.31 -1902.05 1417.17 
-2001.39 -1898.32 1415.37 
-2002.71 -1898.71 1415.88 
-1999.64 -1898.24 1414.58 
-2002.92 -1899.4 1416.17 
-2003.44 -1900.06 1416.64 
-2003.21 -1899.96 1416.47 
-1999.25 -1897.96 1414.16 
-2011.12 -1899.69 1432.79 
-2011.31 -1899.44 1432.64 
-2011.62 -1899.15 1432.51 
-2011.88 -1898.82 1432.31 
-2010.68 -1899.69 1432.57 
-2010.94 -1899.67 1432.64 
-2008.99 -1899.55 1432.01 
-2009.14 -1899.33 1431.66 
-2002.63 -1902.71 1427.64 
-2003.49 -1901.97 1426.46 
-2003.83 -1901.81 1425.44 
-2007.95 -1899.13 1430.23 
-2007.55 -1899.1 1429.6 
-1999.19 -1907.96 1420.37 
-1993.38 -1910.75 1416.74 
-2001.52 -1907.09 1421.01 
-1986.71 -1914.02 1414.43 
-1983.82 -1915.71 1414.8 
-1982.84 -1916.38 1415.22 
-2002.17 -1906.75 1421.06 
-2002.75 -1905.88 1421.37 
-2002.52 -1906.17 1421.14 
-2002.94 -1905.69 1423.36 
-2003.12 -1905.46 1424.17 
-2002.55 -1905.81 1422.95 
-2002.7 -1905.67 1422.36 
-2002.94 -1905.58 1421.68 
-2002.07 -1904.75 1426.66 
-1981.99 -1916.05 1421.27 
-1982.17 -1915.3 1423.14 
-1979.58 -1914.59 1428.4 
-1981.89 -1917.06 1416.39 
-1981.23 -1917.35 1418.59 
-1980.79 -1917.8 1417.41 
-1981.23 -1916.99 1419.98 
-1976.21 -1912.58 1440.51 
-1975.28 -1913.41 1438.79 
-1975.06 -1914.14 1436.54 
-2011.74 -1898.7 1432.09 
-2011.45 -1898.68 1431.72 
-2010.39 -1898.69 1430.87 
-2011.21 -1898.85 1431.78 
-2011.49 -1898.72 1431.96 
-2008.44 -1898.71 1429.76 
-2008.21 -1898.94 1429.93 
-2009.89 -1898.74 1430.81 
-2004.29 -1901.86 1418.58 
-2004.23 -1901.97 1418.27 
-2003.73 -1903.23 1418.37 
-2003.59 -1903.64 1421.65 
-2004.18 -1902.13 1423.26 
-2003.32 -1903.87 1422.38 
-2003.68 -1902.53 1424.17 
-2003.87 -1903.89 1420.46 
-2003.91 -1903.62 1420.1 
-2003.82 -1903.81 1420.8 
-2003.89 -1903.64 1419.78 
-2003.55 -1904.16 1421.35 
-2003.87 -1903.72 1419.46 
-2003.79 -1903.77 1419.01 
-2003.75 -1903.6 1418.61 
-1974.66 -1912.28 1447.98 
-1972.78 -1913.18 1444.52 
-1973.2 -1912.77 1446.48 
-1978.87 -1910.3 1462.6 
-1979.4 -1909.5 1466.43 
-1978.66 -1911.1 1457.64 
-1976.66 -1911.74 1452.9 
-1973.11 -1912.36 1450.28 
-1978.96 -1908.42 1470.65 
-1995.41 -1897.49 1407.84 
-1993.69 -1898.16 1405.12 
-1992.88 -1898.62 1404.12 
-1992.83 -1896.54 1402.39 
-1991.95 -1899.87 1403.95 
-1990.59 -1899.07 1401.84 
-1990.73 -1896.38 1399.88 
-1989.38 -1899.94 1401.53 
-1988.34 -1897.61 1398.7 
-1987.79 -1898.75 1399.37 
-1998.14 -1898.27 1413.56 
-1998.55 -1898.28 1413.92 
-1997.03 -1898.32 1412.19 
-1997.34 -1898.69 1412.88 
-1997.77 -1898.7 1413.5 
-1998.97 -1898.3 1414.22 
-1996.54 -1898.41 1411.26 
-2002.98 -1903.37 1417.4 
-2003.18 -1903.29 1417.63 
-2003.44 -1903.13 1417.86 
-2003.61 -1903.13 1418.12 
-2002.85 -1903.36 1417.18 
-2003.41 -1900.56 1416.93 
-2003.16 -1902.12 1417.05 
-2002.67 -1903.5 1417 
-2001.3 -1898.95 1415.67 
-1999.85 -1898.61 1414.92 
-1999.11 -1898.51 1414.46 
-2001.01 -1899.53 1415.8 
-2002.96 -1900.08 1416.43 
-2003.22 -1900.51 1416.79 
-2002.89 -1900.72 1416.69 
-2010.97 -1899.4 1432.41 
-2011.29 -1899.14 1432.32 
-2011.55 -1898.88 1432.18 
-2010.68 -1899.43 1432.29 
-2009.33 -1899.09 1431.3 
-2002.91 -1904.3 1426.2 
-2003.02 -1902.74 1426.4 
-2003.53 -1903.15 1425.12 
-1997.99 -1908.48 1419.33 
-2001.21 -1907.01 1420.68 
-1991.56 -1911.33 1414.88 
-1986.8 -1913.86 1413.85 
-2002.05 -1906.7 1420.64 
-1983.4 -1915.77 1413.98 
-1982.38 -1916.47 1414.21 
-1981.55 -1917.22 1415.72 
-1981.47 -1917.18 1414.78 
-2002.43 -1906.21 1420.7 
-2003.08 -1905.45 1421.07 
-2002.78 -1905.67 1420.62 
-2002.84 -1905.37 1423.27 
-2003 -1904.9 1423.79 
-2003.16 -1904.65 1424.73 
-2002.66 -1905.56 1422.82 
-2002.9 -1905.32 1422.32 
-2003.06 -1905.32 1421.77 
-1980.37 -1916.22 1423.6 
-1980.31 -1917.2 1421.39 
-1978.13 -1915.4 1428.58 
-1971.56 -1915.63 1437.42 
-1980.51 -1918.05 1416.2 
-1979.91 -1918.46 1418.07 
-1980.09 -1918.09 1419.54 
-1979.61 -1918.9 1416.5 
-1969.56 -1913.77 1446.71 
-1968.44 -1914.26 1446.29 
-1968.36 -1914.79 1444.6 
-2010.97 -1899.01 1431.87 
-2011.28 -1898.89 1432.03 
-2009.53 -1898.85 1430.93 
-2010.73 -1899.19 1432.03 
-2003.55 -1903.69 1418.34 
-2003.24 -1904.54 1421.93 
-2003.05 -1904.06 1423.14 
-2002.97 -1904.85 1422.55 
-2002.9 -1904.31 1423.81 
-2003.83 -1904.14 1420.16 
-2003.67 -1904.65 1420.59 
-2003.55 -1904.54 1421.07 
-2003.81 -1904.14 1419.79 
-2003.24 -1904.89 1421.71 
-2003.76 -1904.07 1419.36 
-2003.66 -1904.02 1418.75 
-2003.64 -1904.31 1419.12 
-1971.61 -1912.72 1449.4 
-1969.78 -1913.15 1449.15 
-1978.46 -1909.58 1467.3 
-1977.73 -1908.74 1470.59 
-1976.46 -1909.2 1469.88 
-1977.59 -1910.03 1466.15 
-1975.93 -1909.76 1468.14 
-1977.89 -1910.67 1461.51 
-1975.23 -1911.7 1454.69 
-1970.09 -1912.41 1452.5 
-1976.21 -1910.33 1465.12 
-1970.26 -1909.91 1467.42 
-1965 -1911.69 1458.96 
-1966.53 -1913.03 1452.68 
-1963.02 -1911.77 1460.71 
-1968.18 -1912.58 1453.01 
-1966.77 -1911.31 1459.36 
-1970.52 -1911.77 1455.79 
-1966.27 -1910.47 1463.9 
-1971.53 -1910.73 1462.46 
-1965.05 -1913.16 1454.02 
-1959.52 -1911.97 1464.62 
-1964.19 -1913.27 1454.79 
-1995.34 -1898.17 1408.44 
-1993.77 -1899.67 1406.47 
-1993.28 -1900.73 1406.48 
-1992.8 -1901.93 1406.83 
-1992.88 -1904.72 1408.8 
-1991.73 -1905.66 1408.5 
-1991.13 -1902.79 1405.75 
-1989.75 -1903.32 1405.01 
-1987.93 -1903.1 1403.49 
-1988.2 -1901.13 1401.78 
-1986.95 -1899.93 1399.87 
-1986.58 -1899.09 1398.76 
-1998.22 -1898.6 1413.88 
-1998.64 -1898.54 1414.16 
-1996.65 -1898.73 1411.89 
-1996.88 -1898.73 1412.44 
-1997.34 -1899.22 1413.37 
-1998.33 -1899.17 1414.09 
-1996.3 -1898.88 1411.24 
-2002.63 -1903.97 1417.5 
-2002.89 -1903.87 1417.62 
-2003.12 -1903.77 1417.85 
-2003.34 -1903.57 1418.04 
-2002.45 -1903.81 1417.22 
-2002.84 -1902.12 1416.86 
-2002.57 -1903.57 1416.87 
-2002.13 -1903.91 1417.11 
-2002.25 -1903.88 1417.18 
-1999.53 -1898.83 1414.89 
-1998.78 -1898.73 1414.4 
-2002.5 -1900.4 1416.42 
-2000.52 -1900.01 1415.85 
-1999.44 -1899.19 1415.05 
-1999.58 -1899.55 1415.3 
-2002.08 -1902.03 1416.63 
-2002.56 -1902.06 1416.73 
-2011.05 -1899.08 1432.11 
-2004.13 -1903.9 1426.11 
-1998.42 -1908.15 1419.25 
-2001.44 -1906.85 1420.3 
-1992.78 -1910.54 1415.12 
-1986.74 -1913.72 1413.25 
-1989.03 -1912.17 1412.59 
-1983.8 -1915.32 1413.35 
-2002.14 -1906.55 1420.12 
-2002.41 -1906.22 1420.25 
-1982.62 -1915.91 1412.85 
-1982.06 -1916.45 1413.25 
-1981.19 -1917.18 1413.51 
-1980.46 -1918.05 1415.06 
-1980.58 -1917.83 1414.08 
-2002.68 -1905.79 1420.24 
-2003.33 -1905.08 1421.19 
-2003.24 -1905.18 1420.57 
-2003.11 -1905.38 1420.16 
-2002.8 -1904.9 1423.22 
-1977.07 -1916.58 1427.63 
-1978.76 -1917.64 1423.19 
-1978.96 -1918.54 1420.86 
-1970.98 -1916.69 1435.6 
-1966.14 -1914.39 1448.99 
-1967.28 -1915.2 1444.87 
-1979.63 -1918.9 1415.19 
-1978.98 -1919.43 1417.19 
-1979.07 -1919.02 1418.97 
-1978.88 -1919.74 1415.22 
-1978.48 -1920.08 1415.89 
-2003.51 -1904.2 1418.5 
-2003.34 -1904 1418.2 
-2003.75 -1904.5 1420.06 
-2003.48 -1904.99 1420.27 
-2003.66 -1904.52 1419.61 
-2003.52 -1904.49 1418.84 
-2003.5 -1904.87 1419.41 
-1974.86 -1911.23 1458.66 
-1961.48 -1913.14 1458.75 
-1995.21 -1898.98 1408.89 
-1994.19 -1901.09 1408.22 
-1993.78 -1901.64 1407.97 
-1993.95 -1904.04 1409.46 
-1993.42 -1904.37 1409.05 
-1991.98 -1907.76 1410 
-1989.69 -1906.74 1407.24 
-1989.15 -1908.58 1407.54 
-1994.05 -1907.21 1411.52 
-1994.01 -1906.6 1410.98 
-1987.56 -1904.8 1404.59 
-1988.44 -1906.7 1406.24 
-1987.03 -1903.96 1403.61 
-1984.04 -1902.89 1400.91 
-1984.22 -1902.06 1400.36 
-1984.36 -1901.18 1399.71 
-1998.33 -1898.85 1414.13 
-1996.52 -1899.28 1412.05 
-1996.71 -1899.76 1412.74 
-1997.02 -1899.76 1413.26 
-1997.39 -1899.79 1413.81 
-1997.8 -1899.54 1414.09 
-1998.24 -1899.33 1414.34 
-1996.24 -1899.64 1411.68 
-2002.66 -1904.51 1418.08 
-2002.36 -1904.61 1418.04 
-2002.24 -1904.24 1417.6 
-2002.91 -1904.39 1418.1 
-2003.14 -1904.26 1418.14 
-2002.2 -1903.62 1416.76 
-2002.32 -1903.72 1416.87 
-2001.88 -1904.31 1417.52 
-2001.73 -1904.15 1417.23 
-1998.84 -1898.96 1414.6 
-1998.48 -1899 1414.34 
-2000.41 -1901.96 1416.34 
-1999.25 -1900.19 1415.41 
-1998.94 -1899.64 1414.99 
-2000.28 -1903.58 1416.57 
-2000.34 -1903.94 1416.62 
-1999.17 -1907.71 1419.43 
-2001.3 -1906.85 1419.89 
-1996.64 -1908.74 1417.69 
-1990.88 -1911.08 1413.16 
-1986.46 -1913.68 1412.71 
-1984.07 -1914.96 1412.81 
-1988.67 -1912.1 1411.93 
-1982.38 -1915.76 1412.39 
-2002.41 -1906.56 1419.88 
-2002.77 -1906.02 1419.9 
-2002.91 -1905.72 1420 
-1982.4 -1915.63 1411.92 
-1981.74 -1916.27 1412.16 
-1981.03 -1916.96 1412.37 
-1980.52 -1917.64 1412.92 
-1979.72 -1918.7 1414.05 
-1979.96 -1918.31 1413.25 
-2003.5 -1905.09 1419.96 
-1975.37 -1918.01 1427.32 
-1977.32 -1919.33 1422.33 
-1977.52 -1919.8 1420.9 
-1978.15 -1919.84 1419.24 
-1969.21 -1917.15 1436.93 
-1966.88 -1915.39 1444.92 
-1964.2 -1914 1452.95 
-1979.04 -1919.5 1414.1 
-1978.03 -1920.48 1416.72 
-1978.38 -1919.95 1417.82 
-1977.36 -1921.83 1414.31 
-1977.04 -1922.11 1415.3 
-1976.86 -1922.2 1416.27 
-2003.31 -1904.54 1418.5 
-2003.39 -1904.92 1418.97 
-2003.27 -1905.49 1419.84 
-2003.33 -1905.38 1419.49 
-1958.76 -1913.52 1461.49 
-1995.27 -1899.73 1409.55 
-1995.38 -1900.68 1410.38 
-1995.15 -1904.15 1411.44 
-1995.14 -1904.86 1411.7 
-1995.9 -1906.33 1413.38 
-1994.46 -1906.29 1411.21 
-1993.91 -1907.9 1412.12 
-1991.51 -1908.62 1410.11 
-1988.86 -1909.34 1407.42 
-1988.17 -1908.92 1406.65 
-1995.61 -1906.89 1413.5 
-1994.32 -1906.76 1411.47 
-1995.55 -1907.31 1414 
-1984.37 -1905.49 1402.65 
-1983.86 -1903.65 1401.34 
-1985.56 -1908.08 1404.82 
-1981.59 -1901.83 1398.81 
-1981.61 -1902.46 1399.27 
-1982.03 -1901.53 1398.87 
-1996.46 -1899.91 1412.35 
-1996.83 -1900.43 1413.35 
-1996.56 -1900.45 1412.85 
-1997.23 -1900.4 1413.86 
-1997.69 -1900.24 1414.32 
-1998.12 -1899.95 1414.64 
-1998.62 -1899.32 1414.65 
-1998.51 -1899.8 1414.83 
-1996.31 -1900.41 1412.3 
-2001.97 -1904.76 1418.02 
-2002 -1905.12 1418.33 
-2002.36 -1905.12 1418.55 
-2002.66 -1905.05 1418.64 
-2002.95 -1904.98 1418.69 
-2001.51 -1903.94 1417.08 
-2001.72 -1904.2 1417.34 
-2001.5 -1904.53 1417.58 
-2001.52 -1904.86 1417.84 
-2000.29 -1905.1 1416.7 
-1999.19 -1902.14 1415.94 
-1999.31 -1903.93 1416.43 
-1998.79 -1900.28 1415.2 
-2000.32 -1904.62 1416.41 
-1998.92 -1904.5 1416.49 
-1999.2 -1904.98 1416.51 
-1999.47 -1907.45 1419.3 
-1999.55 -1907.34 1419.05 
-2001.51 -1906.64 1419.55 
-1995.43 -1909.13 1416.29 
-1990.17 -1911.1 1412.04 
-1989.15 -1911.73 1411.71 
-1986.22 -1913.58 1412.02 
-1983.92 -1914.76 1412.18 
-1988.25 -1912.07 1411.24 
-1983.05 -1915 1411.62 
-2002.62 -1906.71 1419.67 
-2003.05 -1905.92 1419.63 
-1981.62 -1915.88 1411.27 
-1982.21 -1915.29 1411.07 
-1980.94 -1916.58 1411.27 
-1980.64 -1917.04 1411.74 
-1980.24 -1917.7 1412.28 
-1979.29 -1919.05 1413.08 
-1979.7 -1918.45 1412.49 
-1971.57 -1918.33 1431.64 
-1974.98 -1919.73 1425.16 
-1975.97 -1920.43 1422.46 
-1977.16 -1920.91 1419.3 
-1976.36 -1921.16 1420.83 
-1977.66 -1920.83 1417.9 
-1966.42 -1915.63 1445.11 
-1968.24 -1917.46 1437.76 
-1964.35 -1914.43 1451.77 
-1961.38 -1913.88 1457.41 
-1978.02 -1920.86 1412.84 
-1976.78 -1922.36 1417.37 
-1975.94 -1924.11 1414.74 
-1975.67 -1924.41 1416.26 
-1975.72 -1924.2 1416.96 
-1975.74 -1924 1417.65 
-2003.17 -1905.07 1418.86 
-2003.19 -1905.51 1419.21 
-1939.7 -1917.82 1470.46 
-1941.22 -1918.95 1467.4 
-1939.15 -1918.96 1468.66 
-1940.32 -1918.45 1466.57 
-1942.05 -1918.97 1468.34 
-1957.24 -1914.16 1462.3 
-1955.16 -1914.74 1464.25 
-1955.33 -1913.97 1465.47 
-1951.08 -1916.2 1466.78 
-1948.57 -1917.83 1466.49 
-1949.92 -1916.03 1467.35 
-1947.39 -1918.24 1466.4 
-1947.2 -1917.59 1466.66 
-1946.08 -1918.38 1466.42 
-1946.22 -1916.25 1468.91 
-1944.64 -1917.66 1467.92 
-1945.16 -1919.1 1466.51 
-1943.94 -1918.17 1466.57 
-1995.59 -1901.95 1411.39 
-1996.11 -1902.89 1412.82 
-1996.4 -1905.07 1414.22 
-1996.43 -1902.73 1413.42 
-1996.67 -1905.6 1414.81 
-1996.74 -1906.21 1415.05 
-1991.51 -1909.06 1410.95 
-1995.54 -1907.66 1414.64 
-1988.98 -1910.34 1408.43 
-1988.53 -1910.19 1407.6 
-1988.08 -1909.63 1406.96 
-1985.81 -1908.67 1405.31 
-1996.93 -1906.18 1415.6 
-1996.98 -1906.35 1415.85 
-1997 -1906.58 1416.1 
-1981.29 -1903.13 1399.48 
-1982.3 -1904.9 1400.86 
-1980.17 -1910.05 1401.59 
-1983.39 -1908.02 1403.2 
-1982.38 -1908.98 1403.01 
-1983.13 -1909.14 1403.94 
-1980.93 -1902.51 1398.86 
-1996.87 -1902.69 1414.21 
-1996.67 -1902.71 1413.87 
-1997.1 -1902.58 1414.48 
-1997.35 -1902.42 1414.74 
-1997.66 -1902.3 1415.05 
-1998.4 -1900.44 1415.03 
-2001.48 -1905.18 1418.02 
-2001.66 -1905.45 1418.31 
-2002.22 -1905.47 1418.65 
-2002.7 -1905.38 1418.89 
-2002.88 -1905.57 1419.05 
-2000.21 -1905.43 1416.95 
-2000.21 -1905.57 1417.27 
-1998.85 -1905.32 1416.56 
-1998.92 -1905.88 1416.55 
-1998.54 -1902.18 1415.64 
-1998.68 -1904.03 1416.21 
-1998.54 -1904.77 1416.43 
-1999.74 -1907.12 1418.83 
-1997.71 -1907.9 1418.07 
-2001.92 -1906.56 1419.31 
-1991.87 -1910.15 1412.87 
-1996.76 -1908.33 1417.14 
-1989.22 -1911.33 1410.71 
-1988.67 -1911.72 1410.93 
-1985.93 -1913.45 1411.25 
-1983.7 -1914.53 1411.44 
-1987.64 -1912.15 1410.58 
-1982.85 -1914.51 1410.59 
-2002.9 -1906.07 1419.27 
-1980.98 -1915.97 1410.43 
-1981.55 -1915.23 1410.13 
-1982.22 -1914.33 1409.69 
-1980.35 -1917.19 1411.31 
-1980.45 -1916.62 1410.56 
-1979.97 -1917.9 1411.83 
-1978.52 -1920.07 1411.57 
-1979.47 -1918.54 1411.81 
-1970.75 -1919.12 1431.57 
-1973.93 -1920.25 1425.64 
-1974.83 -1920.85 1423.51 
-1976.41 -1922.64 1418.55 
-1975.62 -1922.87 1419.92 
-1974.64 -1923.03 1421.42 
-1966.05 -1916.03 1444.97 
-1963.88 -1914.61 1452.14 
-1967.81 -1917.89 1437.62 
-1961.03 -1914.3 1456.98 
-1976.87 -1922.7 1412.41 
-1975.14 -1924.14 1418.85 
-1975.82 -1924.4 1414.44 
-1975.42 -1924.98 1416.37 
-1975.27 -1925.05 1417.29 
-1975.21 -1924.96 1418.03 
-1975.02 -1924.85 1418.94 
-1918.54 -1917.41 1448.64 
-1923.76 -1919.05 1446.23 
-1919.26 -1917.52 1445.02 
-1943.08 -1918.16 1465.98 
-1941.11 -1918.33 1465.05 
-1939.32 -1918.09 1465.21 
-1942.18 -1918.23 1465.53 
-1938.86 -1918.53 1463.09 
-1936.07 -1918.5 1458.89 
-1937.57 -1918.12 1463.45 
-1929.98 -1918.74 1451.58 
-1934.79 -1917.96 1459.29 
-1928.15 -1918.14 1452.36 
-1927.36 -1919.95 1446.7 
-1924.67 -1919.36 1447.99 
-1923.85 -1919.3 1442.82 
-1922.45 -1918.57 1441.47 
-1957.3 -1914.85 1461 
-1955.62 -1915.47 1462.28 
-1953.43 -1915.71 1464.55 
-1949.8 -1917.92 1465.63 
-1948.24 -1918.88 1466.07 
-1951.42 -1917.11 1464.83 
-1951.99 -1915.98 1465.96 
-1947.38 -1919.91 1465.77 
-1946.82 -1919.84 1465.82 
-1944.4 -1918.73 1465.36 
-1946.3 -1920.34 1465.81 
-1944.54 -1921.4 1467.12 
-1996.77 -1904.81 1414.74 
-1997.05 -1906.29 1415.66 
-1996.92 -1905.3 1415.17 
-1995.49 -1907.96 1414.97 
-1991.21 -1909.7 1411.21 
-1988.99 -1910.9 1409.19 
-1997.29 -1906.71 1416.64 
-1988.34 -1910.8 1408.17 
-1987.93 -1910.28 1407.31 
-1986.04 -1909.25 1405.83 
-1983.4 -1909.62 1404.61 
-1997.41 -1905.96 1416.05 
-1997.42 -1906.2 1416.31 
-1997.41 -1906.43 1416.54 
-1980.71 -1906.03 1400.1 
-1979.43 -1904.4 1398.47 
-1979.27 -1903.69 1397.92 
-1979.05 -1912.05 1401.76 
-1978.81 -1907.38 1399.18 
-1977.89 -1912.77 1401.05 
-1977.57 -1914.01 1401.24 
-1979.33 -1912.29 1402.26 
-1981.87 -1910.28 1403.7 
-1979.17 -1902.98 1397.35 
-1996.96 -1904.62 1415.04 
-1997.2 -1904.51 1415.41 
-1998 -1902.27 1415.32 
-1997.61 -1904.54 1415.8 
-1998.06 -1904 1415.88 
-2000.24 -1905.67 1417.55 
-2000.24 -1905.85 1417.79 
-2001.66 -1905.75 1418.5 
-2000.24 -1906.04 1418 
-2002.44 -1905.73 1418.58 
-2002.63 -1906.19 1418.78 
-2002.43 -1906.26 1418.36 
-2002.72 -1905.74 1418.76 
-1998.92 -1906.04 1416.85 
-1998.98 -1906.15 1417.22 
-1998.36 -1905.15 1416.53 
-1998.36 -1905.64 1416.66 
-1998.22 -1904.52 1416.13 
-1997.99 -1904.91 1416.19 
-1999.94 -1906.92 1418.69 
-1997.81 -1907.41 1417.77 
-2001.67 -1906.38 1418.96 
-1995.78 -1908.46 1416.02 
-1991.05 -1910.21 1411.6 
-1989.02 -1911.18 1409.91 
-1988.15 -1911.6 1409.58 
-1988.36 -1911.66 1410.17 
-1987.75 -1911.98 1410.13 
-1985.46 -1913.22 1410.5 
-1983.53 -1914.19 1410.63 
-1985.45 -1912.77 1409.75 
-1982.81 -1913.4 1408.99 
-1983.39 -1913.51 1409.57 
-1980.77 -1914.89 1408.58 
-1980.41 -1916.06 1409.66 
-1981.42 -1913.69 1407.82 
-1982.12 -1912.98 1407.7 
-1980.04 -1917.4 1410.9 
-1980.03 -1916.81 1410.09 
-1979.63 -1918.16 1411.27 
-1978.71 -1919.52 1410.53 
-1978.21 -1920.77 1410.1 
-1977.83 -1921.25 1410.58 
-1970.66 -1920.11 1430.42 
-1970.85 -1922.61 1427.47 
-1973.28 -1922.78 1423.79 
-1974.22 -1924.53 1420.1 
-1973.25 -1924.79 1421.31 
-1972.23 -1924.84 1422.92 
-1965.63 -1916.42 1445.01 
-1963.8 -1914.97 1451.62 
-1960.99 -1914.7 1456.26 
-1966.76 -1918.1 1439.34 
-1967.93 -1921.54 1432.99 
-1976.8 -1922.79 1411.68 
-1974.13 -1925.29 1420.2 
-1975.82 -1924.47 1414.07 
-1975.18 -1925.48 1416.36 
-1974.83 -1925.85 1417.35 
-1974.58 -1926.02 1418.6 
-1974.46 -1925.83 1419.7 
-1927.05 -1920.74 1444.02 
-1943.74 -1918.84 1464.27 
-1942.75 -1918.57 1463.89 
-1941.99 -1918.75 1463.15 
-1940.39 -1918.58 1463.57 
-1941.38 -1919.06 1461.61 
-1940.01 -1918.9 1461.86 
-1938.68 -1918.97 1461.12 
-1936.47 -1919.15 1456.82 
-1931.51 -1919.88 1449.88 
-1930.85 -1922.01 1443.11 
-1923.52 -1919.28 1439.94 
-1921.96 -1918.52 1437.76 
-1920.85 -1917.96 1439.35 
-1927.27 -1921.01 1440.7 
-1957.9 -1915.58 1459.03 
-1955.73 -1916.49 1460.98 
-1953.43 -1916.64 1463.2 
-1948.94 -1922 1463.3 
-1950.24 -1921.17 1463.05 
-1951.75 -1920.37 1462.49 
-1953.14 -1919.65 1461.69 
-1948.59 -1923.73 1462.52 
-1949.03 -1923.68 1462.15 
-1947.96 -1923.5 1463.13 
-1943.41 -1921.69 1467.05 
-1946.72 -1922.75 1464.59 
-1944.41 -1923.95 1465.37 
-1945.7 -1923.46 1464.9 
-1997.36 -1905.62 1415.9 
-1997.14 -1905.17 1415.5 
-1995.54 -1908.23 1415.42 
-1997.35 -1907.02 1416.95 
-1988.36 -1911.31 1409.11 
-1997.96 -1906.68 1417.18 
-1998 -1906.45 1417.03 
-1987.91 -1911.18 1408.52 
-1987.57 -1910.76 1407.74 
-1985.99 -1909.76 1406.34 
-1983.86 -1910.01 1405.42 
-1982.81 -1910.35 1404.83 
-1997.75 -1906 1416.56 
-1997.86 -1905.77 1416.45 
-1997.77 -1906.24 1416.76 
-1978.06 -1905.39 1397.52 
-1977.97 -1904.35 1396.8 
-1977.28 -1914.67 1401.51 
-1978.15 -1909.52 1399.78 
-1977.86 -1905.95 1397.63 
-1977.37 -1914.04 1400.94 
-1977.23 -1914.46 1401.11 
-1976.95 -1914.88 1401.43 
-1979.41 -1912.79 1402.71 
-1977.54 -1914.71 1401.77 
-1981.57 -1911.04 1404.17 
-1997.48 -1905.04 1415.88 
-1998.75 -1906.3 1417.39 
-2001.66 -1906.07 1418.65 
-2000.22 -1906.26 1418.19 
-1998.67 -1906.55 1417.51 
-1998.34 -1905.87 1416.9 
-1998.32 -1906.1 1417.03 
-1997.89 -1905.37 1416.33 
-2000.1 -1906.71 1418.56 
-1998.23 -1907.01 1417.74 
-1997.54 -1907.25 1417.38 
-1987.37 -1911.96 1409.55 
-1987.51 -1911.6 1408.99 
-1985.49 -1912.34 1409.07 
-1983.39 -1912.69 1408.37 
-1982.67 -1912.56 1407.67 
-1979.97 -1914.82 1406.96 
-1980.95 -1913.01 1405.98 
-1979.9 -1916.19 1408.97 
-1981.91 -1912.22 1406.28 
-1982.58 -1911.76 1406.46 
-1979.68 -1917.74 1410.61 
-1979.66 -1917.23 1409.84 
-1978.76 -1919.03 1409.78 
-1978.32 -1920.64 1409.16 
-1978.02 -1921.04 1409.38 
-1977.74 -1921.39 1409.69 
-1969.36 -1925.09 1427.14 
-1972.82 -1925.87 1421.62 
-1971.81 -1925.77 1423.15 
-1964.59 -1916.55 1447.1 
-1963.45 -1915.45 1451.35 
-1961.7 -1915.08 1454.76 
-1964.84 -1917.68 1444.28 
-1966.11 -1921.47 1436.62 
-1967.37 -1921.23 1434.37 
-1966.2 -1925.46 1431.67 
-1965.62 -1924.68 1433.5 
-1977.04 -1922.28 1410.59 
-1972.98 -1926.53 1421.33 
-1975.64 -1924.98 1414.33 
-1974.83 -1925.97 1416.4 
-1974.38 -1926.56 1417.54 
-1973.94 -1926.69 1419.28 
-1973.61 -1926.74 1420.44 
-1930.75 -1923.08 1439.95 
-1943.56 -1922.24 1464.13 
-1943.65 -1920.35 1462.55 
-1943.6 -1920.44 1461.03 
-1942.68 -1920.92 1459.71 
-1940.31 -1919.44 1460.35 
-1938.98 -1919.51 1459.61 
-1936.73 -1920.05 1454.89 
-1933.17 -1921.51 1447.02 
-1933.44 -1923.11 1442.74 
-1920.25 -1917.41 1433.58 
-1918.1 -1916.58 1433.89 
-1923.97 -1919.72 1437.17 
-1927.14 -1921.48 1437.78 
-1921.95 -1918.61 1434.7 
-1929.97 -1922.87 1437.86 
-1957.63 -1916.71 1458.37 
-1960.38 -1915.93 1455.47 
-1957.14 -1919.13 1458.35 
-1955.12 -1919.32 1460.11 
-1953.07 -1927.13 1457.44 
-1954.16 -1926.8 1456.72 
-1955.31 -1926.92 1455.62 
-1956.28 -1926.07 1455.23 
-1952.4 -1927.81 1457.33 
-1951.83 -1928.47 1457.04 
-1950.41 -1927.53 1458.39 
-1943.06 -1923.88 1465.55 
-1950.02 -1927.95 1458.13 
-1948.54 -1927.62 1458.68 
-1949.58 -1928.2 1457.94 
-1997.96 -1906.88 1417.42 
-1998.52 -1906.77 1417.64 
-1987.27 -1911.26 1408.34 
-1985.77 -1910.93 1407.46 
-1985.85 -1910.28 1406.87 
-1984.1 -1910.57 1406.28 
-1983.17 -1910.75 1405.7 
-1982.17 -1911.3 1405.31 
-1977.62 -1904.83 1396.75 
-1977.66 -1903.67 1395.96 
-1976.76 -1916.2 1402.55 
-1977.04 -1916.07 1402.74 
-1977.63 -1910.27 1399.79 
-1977.37 -1906.46 1397.47 
-1977.14 -1905.19 1396.51 
-1977.03 -1914.49 1400.81 
-1976.51 -1915.16 1401.26 
-1976.77 -1914.96 1401.24 
-1976.49 -1916.3 1402.34 
-1980.78 -1911.85 1404.05 
-1979.24 -1913.56 1403.15 
-1977.61 -1915.89 1403.09 
-1977.33 -1915.92 1402.94 
-1981.33 -1911.96 1405.1 
-1977.11 -1904.07 1395.75 
-2000.15 -1906.49 1418.38 
-1985.29 -1912.03 1408.44 
-1983.12 -1912.03 1407.32 
-1979.12 -1915.88 1406.67 
-1978.64 -1915.72 1404.49 
-1980.18 -1913.49 1404.92 
-1980.65 -1912.57 1404.58 
-1979.46 -1916.66 1408.67 
-1983.32 -1911.3 1406.49 
-1978.8 -1918.76 1409.25 
-1978.8 -1918.54 1408.66 
-1978.44 -1920.6 1408.48 
-1978.11 -1921.03 1408.39 
-1977.85 -1921.23 1408.55 
-1977.58 -1921.49 1408.64 
-1968.56 -1925.91 1427.83 
-1971.45 -1926.73 1423.37 
-1963.22 -1916.58 1450.06 
-1962.38 -1915.77 1452.44 
-1965.25 -1921.21 1438.94 
-1963.57 -1917.63 1447.82 
-1964.59 -1925 1435.73 
-1964.52 -1926.28 1434.28 
-1965.88 -1926.85 1431.25 
-1964.64 -1927.26 1433.37 
-1976.91 -1922.34 1410.07 
-1972.05 -1927.47 1422.03 
-1971.35 -1927.45 1423.08 
-1976.02 -1924.08 1412.2 
-1974.94 -1925.88 1415.55 
-1974.12 -1926.68 1416.95 
-1973.69 -1926.98 1418.81 
-1972.95 -1927.54 1420.47 
-1972.42 -1927.71 1421.46 
-1931.36 -1923.96 1437.99 
-1948.19 -1927.51 1457.85 
-1947.68 -1927.44 1457.27 
-1947.02 -1927.32 1456.57 
-1941.63 -1921.28 1458.51 
-1946.12 -1927.51 1455.44 
-1939.29 -1920.02 1458.32 
-1936.26 -1921.16 1451.56 
-1938.62 -1920.78 1455.73 
-1933.88 -1923.71 1441.34 
-1917.16 -1915.69 1424.03 
-1922.58 -1918.11 1428.42 
-1922.33 -1917.67 1425.67 
-1925.16 -1920.71 1433.77 
-1927.41 -1922.26 1434.48 
-1929.37 -1923.01 1435.82 
-1923.18 -1919.36 1432.31 
-1958.44 -1917.95 1457.01 
-1960.37 -1916.82 1454.81 
-1957.36 -1926.19 1454.24 
-1958.04 -1926.42 1453.59 
-1958.24 -1923.04 1455.16 
-1953.32 -1929.39 1456.02 
-1954.69 -1929.64 1454.7 
-1955.99 -1929.66 1453.59 
-1956.96 -1928.93 1453.3 
-1957.78 -1930.02 1451.71 
-1958.13 -1928.81 1452.42 
-1952.64 -1930.05 1455.38 
-1951.35 -1929.89 1456.11 
-1951.97 -1930.4 1454.42 
-1950.42 -1930.38 1454.95 
-1949.59 -1930.4 1454.61 
-1948.9 -1930 1455.15 
-1985.56 -1911.58 1408.08 
-1983.9 -1911.41 1407.1 
-1976.79 -1917.44 1403.87 
-1976.55 -1917.54 1403.53 
-1977.02 -1917.31 1404.18 
-1977.21 -1910.73 1399.72 
-1976.99 -1907.27 1397.89 
-1976.85 -1905.72 1396.63 
-1976.41 -1904.67 1395.57 
-1976.66 -1904.02 1395.24 
-1976.81 -1914.56 1400.7 
-1975.71 -1917.47 1402.59 
-1976.27 -1916.37 1402.2 
-1976.06 -1916.41 1402.15 
-1975.84 -1918.76 1403.77 
-1976 -1918.79 1404.14 
-1979.02 -1914.32 1403.63 
-1977.97 -1915.96 1403.15 
-1977.28 -1916.8 1404.09 
-1977.39 -1916.78 1404.33 
-1977.21 -1917 1404.2 
-1976.98 -1902.92 1394.56 
-1976.3 -1903.05 1393.96 
-1978.78 -1916.62 1406.77 
-1978.09 -1916.86 1405.65 
-1978.36 -1916.06 1403.35 
-1977.68 -1916.53 1404.2 
-1977.7 -1916.8 1404.98 
-1978.7 -1918.39 1407.76 
-1978.64 -1920.7 1408.04 
-1978.92 -1920.6 1407.72 
-1978.16 -1921.28 1407.77 
-1977.75 -1921.59 1407.76 
-1977.16 -1921.68 1408.25 
-1977.25 -1921.89 1407.67 
-1968.29 -1926.98 1427.67 
-1962.34 -1917.51 1450.53 
-1961.53 -1916.77 1452.91 
-1964.61 -1920.3 1441.64 
-1964.26 -1924.6 1438 
-1962.8 -1918.49 1448.96 
-1963.73 -1926.66 1435.58 
-1963.8 -1925.85 1437.01 
-1963.68 -1927.65 1434.83 
-1964.51 -1928.67 1432.05 
-1965.51 -1928.03 1431.01 
-1963.67 -1928.6 1434.15 
-1970.85 -1928.7 1423.12 
-1970.78 -1928.32 1423.59 
-1968.19 -1927.64 1427.37 
-1975.24 -1925.7 1414.5 
-1976.4 -1922.71 1409.79 
-1974.07 -1926.51 1416.03 
-1973.26 -1926.98 1417.68 
-1973.03 -1927.53 1419.62 
-1972.1 -1928.33 1421.1 
-1971.51 -1928.56 1422.13 
-1931.98 -1924.13 1437.15 
-1930.69 -1923.57 1435.87 
-1947.9 -1930.38 1453.13 
-1947.12 -1930.25 1452.41 
-1946.47 -1930.21 1451.46 
-1941.32 -1922.45 1456.96 
-1945.24 -1927.48 1454.62 
-1945.76 -1930.1 1450.68 
-1937.9 -1921.91 1452.39 
-1936.29 -1922.67 1447.19 
-1940.06 -1922.21 1455.52 
-1934.26 -1923.99 1439.83 
-1919.6 -1916.77 1422.99 
-1923.82 -1918.91 1428.36 
-1925.55 -1919.1 1425.12 
-1925.68 -1919.13 1424.14 
-1924.25 -1918.57 1423.68 
-1926.4 -1921.55 1431.54 
-1927.92 -1922.54 1432.61 
-1929.19 -1923.24 1433.92 
-1925.22 -1920.6 1430.46 
-1918.03 -1916.24 1415.98 
-1912.38 -1912.35 1411.17 
-1914.46 -1914.32 1417.83 
-1959.85 -1918.23 1455.08 
-1958.77 -1923.86 1454.21 
-1959.21 -1928.59 1451.51 
-1959.16 -1927.79 1451.99 
-1954.22 -1930.56 1453.29 
-1956.36 -1930.81 1451.25 
-1957.79 -1930.7 1450.47 
-1958.96 -1929.68 1450.79 
-1959.18 -1930.54 1450.48 
-1960.01 -1929.2 1450.22 
-1953.82 -1931.06 1451.68 
-1951.07 -1930.6 1453.51 
-1952.57 -1931.19 1451.65 
-1950.11 -1931.03 1451.94 
-1948.72 -1930.82 1452.47 
-1976.2 -1918.95 1404.62 
-1976.4 -1919.18 1405.11 
-1977.19 -1917.51 1404.78 
-1976.6 -1919.21 1405.52 
-1976.9 -1911.03 1399.68 
-1976.95 -1908.44 1398.49 
-1976.52 -1907.82 1397.97 
-1976.47 -1906.41 1396.91 
-1976.13 -1905.23 1395.91 
-1976.01 -1903.79 1394.43 
-1976.41 -1914.9 1400.79 
-1975.5 -1917.43 1402.47 
-1975.64 -1918.71 1403.48 
-1975.23 -1920.25 1404.1 
-1974.91 -1920.39 1404.05 
-1975.46 -1920.25 1404.2 
-1975.61 -1920.41 1404.49 
-1975.83 -1920.32 1404.83 
-1977.49 -1916.83 1404.62 
-1977.39 -1917.48 1405.08 
-1978.37 -1918.82 1407.14 
-1977.97 -1919.18 1406.93 
-1977.82 -1917.36 1405.65 
-1977.6 -1917.39 1405.32 
-1979.02 -1920.5 1407.39 
-1978.37 -1921.19 1407.39 
-1978.44 -1920.99 1407.06 
-1977.81 -1921.59 1407.18 
-1977.37 -1921.86 1406.98 
-1976.86 -1921.86 1407.29 
-1976.77 -1921.43 1407.42 
-1976.89 -1922.13 1406.86 
-1960.78 -1918.2 1453.47 
-1961.74 -1918.9 1451.24 
-1963.52 -1919.26 1445.96 
-1964.39 -1922.64 1440.17 
-1963.31 -1925.86 1438.86 
-1963.68 -1925.04 1439.57 
-1962.36 -1919.86 1449.57 
-1962.8 -1927.62 1436.37 
-1962.94 -1926.81 1438.15 
-1962.75 -1928.61 1434.92 
-1962.89 -1929.47 1434.4 
-1963.75 -1929.42 1432.85 
-1965.17 -1928.91 1430.72 
-1967.3 -1928.63 1427.29 
-1969.97 -1928.96 1422.99 
-1967.18 -1928.83 1426.69 
-1967.7 -1928.12 1427.42 
-1974.23 -1926.28 1415.09 
-1975.53 -1923.85 1411.31 
-1972.78 -1926.92 1417.03 
-1972.85 -1927.62 1419.09 
-1971.61 -1928.49 1420.75 
-1970.59 -1928.79 1422.02 
-1932.55 -1924.35 1436.11 
-1931.39 -1923.93 1435.41 
-1930.17 -1923.65 1433.96 
-1948.09 -1931.13 1450.58 
-1948.72 -1931.28 1450.77 
-1947.63 -1931.22 1449.74 
-1946.74 -1930.95 1449.63 
-1944.37 -1927.87 1453.15 
-1944.96 -1930.56 1448.83 
-1945.37 -1931.56 1447.2 
-1938.54 -1923.1 1451.48 
-1937.05 -1923.22 1446.84 
-1939.85 -1922.93 1453.94 
-1943.32 -1927.5 1452.29 
-1934.8 -1924.46 1439.35 
-1920.96 -1917.41 1421.26 
-1916.81 -1915.6 1418.97 
-1920.56 -1917.78 1417.13 
-1925.28 -1919.87 1428.1 
-1926.46 -1919.62 1425.35 
-1927.35 -1920.1 1424.2 
-1926.83 -1920.2 1421.34 
-1927.72 -1920.79 1421.23 
-1925.17 -1919.04 1422.94 
-1924.3 -1919.43 1420.14 
-1928.1 -1922.65 1431.34 
-1926.9 -1921.79 1430.51 
-1929.26 -1923.33 1432.46 
-1926.75 -1920.69 1427.54 
-1925.88 -1920.95 1416.57 
-1921.95 -1918.57 1414.48 
-1915.07 -1914.08 1411.36 
-1959.31 -1923.56 1453.72 
-1960.3 -1927.28 1450.98 
-1960.93 -1928.17 1449.72 
-1960.8 -1928.6 1449.69 
-1961.19 -1928.96 1449.06 
-1955.94 -1931.29 1449.92 
-1957.63 -1931.35 1449.84 
-1959.22 -1931.39 1450.47 
-1960.46 -1930.08 1449.56 
-1960.6 -1931.12 1449.34 
-1961.32 -1929.52 1448.58 
-1955.48 -1931.63 1449.19 
-1954.19 -1931.73 1449.32 
-1951.4 -1931.24 1451.45 
-1952.83 -1931.84 1449.48 
-1949.74 -1931.42 1450.65 
-1951.61 -1931.84 1449.52 
-1975.98 -1920.58 1405.24 
-1976.16 -1920.8 1405.6 
-1976.86 -1919.13 1405.88 
-1976.51 -1920.65 1405.78 
-1976.51 -1911.26 1399.6 
-1976.05 -1908.32 1398.06 
-1975.95 -1906.83 1397.03 
-1975.8 -1905.8 1396.16 
-1975.69 -1904.67 1395.12 
-1976.11 -1914.94 1400.74 
-1975.16 -1917.71 1402.53 
-1974.89 -1917.58 1402.36 
-1975 -1921.02 1404.38 
-1975.32 -1920.9 1404.34 
-1974.61 -1920.41 1403.91 
-1974.65 -1921.25 1404.46 
-1975.5 -1920.93 1404.56 
-1975.75 -1920.72 1404.9 
-1977.18 -1919.04 1406.15 
-1975.39 -1903.49 1393.75 
-1975.25 -1905.24 1395.5 
-1973.08 -1904.5 1394.69 
-1973.65 -1905.63 1395.71 
-1973.82 -1904.45 1394.6 
-1974.45 -1905.81 1395.85 
-1974.95 -1904.3 1394.47 
-1974.9 -1905.78 1395.87 
-1974.32 -1904.53 1394.66 
-1978.36 -1920.62 1406.9 
-1977.54 -1919.12 1406.51 
-1977.72 -1920.48 1406.65 
-1977.76 -1921.39 1406.76 
-1977.73 -1921.11 1406.55 
-1977.14 -1921.67 1406.45 
-1976.72 -1922 1406.33 
-1976.43 -1922.24 1406.39 
-1976.35 -1922.11 1406.96 
-1976 -1922.08 1407.45 
-1975.61 -1922.82 1409.48 
-1960.82 -1923.62 1451.37 
-1960 -1923.81 1452.63 
-1961.57 -1923.73 1450.04 
-1962.76 -1920.47 1448.25 
-1963.69 -1920.53 1444.49 
-1964.21 -1922.59 1441.24 
-1964.05 -1924.4 1440.2 
-1962.97 -1926.7 1442.86 
-1962.74 -1927.04 1442.59 
-1963.25 -1926.27 1443.07 
-1962.18 -1923.91 1448.66 
-1962.15 -1928.61 1437.28 
-1962.29 -1928.05 1441.99 
-1962.55 -1927.41 1442.21 
-1961.85 -1929.55 1436.16 
-1962.25 -1929.58 1434.49 
-1962.86 -1929.56 1433.44 
-1964.08 -1929.19 1431.33 
-1964.54 -1929.01 1429.94 
-1968.84 -1929.05 1422.95 
-1966.22 -1928.99 1426.93 
-1973.07 -1926.65 1415.77 
-1974.06 -1925.71 1414.15 
-1972.04 -1927.32 1417.73 
-1972.46 -1928.22 1419.48 
-1970.15 -1928.61 1420.69 
-1969.61 -1928.91 1421.82 
-1931.5 -1924.08 1434.49 
-1932.65 -1924.66 1435.48 
-1935.18 -1924.94 1438.82 
-1930.07 -1923.69 1432.86 
-1949.09 -1931.84 1448.85 
-1948.09 -1931.77 1448.47 
-1949.96 -1931.94 1449.05 
-1946.1 -1932.05 1446.74 
-1943.73 -1931.28 1446.41 
-1944.25 -1932.11 1445.24 
-1944.85 -1932.54 1444.63 
-1937.61 -1923.74 1446.12 
-1938.96 -1924.16 1450.58 
-1940.87 -1925.82 1451.22 
-1942.45 -1928.2 1450.03 
-1943 -1931.01 1446.34 
-1924.57 -1920.32 1417.54 
-1927.71 -1920.36 1424.69 
-1928.49 -1921.23 1421.39 
-1928.91 -1921.45 1421.75 
-1927.58 -1921.52 1417.81 
-1928.5 -1921.83 1418.56 
-1929.02 -1923.24 1430.93 
-1928.45 -1922.69 1429.79 
-1927.63 -1922.19 1429.96 
-1929.7 -1923.54 1431.57 
-1927.73 -1921.26 1427.19 
-1928.03 -1920.64 1424.91 
-1921.83 -1918.19 1412.69 
-1914.7 -1913.52 1407.58 
-1915.76 -1913.92 1406.55 
-1926.62 -1921.28 1415.93 
-1928.11 -1922 1417.05 
-1961.86 -1928.08 1448.34 
-1961.25 -1927.19 1449.82 
-1961.71 -1928.5 1448.23 
-1961.56 -1928.97 1447.96 
-1957.03 -1931.79 1448.81 
-1958.75 -1931.98 1449 
-1960.14 -1931.86 1448.55 
-1961.16 -1930.33 1448.31 
-1960.87 -1931.14 1448.02 
-1961.39 -1929.62 1447.66 
-1955.19 -1931.96 1448.9 
-1956.54 -1932.06 1448.55 
-1953.94 -1932.05 1448.88 
-1952.9 -1932.25 1448.24 
-1950.97 -1931.98 1449.05 
-1952.07 -1932.38 1447.76 
-1975.91 -1920.97 1405.32 
-1976.16 -1921.03 1405.52 
-1976.46 -1920.98 1405.63 
-1976.82 -1920.54 1405.89 
-1976.13 -1911.44 1399.54 
-1975.23 -1908.7 1398.18 
-1975.37 -1907.26 1397.2 
-1975.57 -1906.36 1396.52 
-1975.78 -1915.07 1400.72 
-1974.56 -1917.5 1402.25 
-1974.23 -1920.23 1403.55 
-1974.71 -1921.74 1404.56 
-1975.08 -1921.58 1404.46 
-1975.28 -1921.63 1404.61 
-1974.22 -1921.18 1404.3 
-1974.26 -1921.66 1404.62 
-1975.69 -1921.15 1404.99 
-1975.44 -1921.61 1404.85 
-1977.15 -1920.5 1406.12 
-1971.64 -1904.32 1394.78 
-1972.05 -1905.14 1395.45 
-1972.48 -1905.13 1395.35 
-1974.41 -1906.6 1396.6 
-1973.45 -1905.92 1396.04 
-1974.97 -1906.9 1396.84 
-1975.32 -1906.97 1396.96 
-1977.5 -1920.91 1406.27 
-1977.01 -1921.32 1406.14 
-1976.52 -1921.69 1405.95 
-1976.23 -1922.04 1405.94 
-1976.03 -1922.06 1406 
-1975.96 -1922.13 1406.51 
-1975.15 -1922.92 1409.22 
-1975.63 -1922.07 1406.85 
-1961.78 -1926.96 1449.12 
-1962.06 -1926.55 1448.8 
-1962.73 -1923.86 1447.18 
-1963.17 -1923.84 1445.29 
-1963.46 -1924.56 1443.66 
-1963.51 -1925.57 1443.21 
-1962.44 -1927.85 1445.76 
-1962.64 -1927.35 1445.95 
-1962.25 -1928.26 1445.26 
-1962.77 -1926.95 1446.1 
-1962.43 -1926.32 1447.69 
-1961.93 -1928.61 1441.33 
-1961.45 -1929.44 1440.55 
-1961.55 -1929.4 1444.37 
-1961.91 -1929.14 1445.77 
-1960.94 -1930.31 1439.9 
-1961.52 -1929.78 1435.8 
-1961.7 -1929.58 1434.25 
-1961.29 -1929.85 1435.48 
-1962.73 -1929.34 1432.32 
-1963.26 -1929.28 1431.39 
-1963.71 -1929.1 1430.02 
-1967.81 -1929.14 1423.13 
-1965.61 -1929.07 1426.82 
-1972.14 -1926.74 1416.1 
-1973.3 -1925.73 1414.18 
-1971.1 -1927.55 1417.86 
-1971.1 -1928.34 1419.52 
-1968.31 -1929.09 1422.18 
-1968.88 -1928.8 1420.83 
-1931.08 -1924.06 1433.19 
-1932.03 -1924.47 1434.26 
-1934.97 -1925.44 1437.61 
-1932.88 -1925.07 1434.93 
-1938.01 -1924.21 1445.88 
-1937.31 -1924.9 1441.54 
-1930.38 -1923.86 1431.97 
-1949.19 -1932.55 1446.81 
-1947.79 -1932.57 1446.25 
-1946.67 -1932.49 1445.87 
-1950.88 -1932.48 1447.34 
-1945.67 -1933.07 1443.56 
-1942.79 -1932.08 1443.79 
-1943.4 -1932.52 1443.28 
-1943.96 -1932.89 1442.75 
-1944.59 -1933.23 1442.27 
-1939.08 -1924.6 1449.69 
-1941.15 -1928.43 1448.06 
-1941.81 -1930.72 1445.79 
-1942.06 -1931.48 1444.4 
-1928.6 -1921.07 1424.29 
-1929.27 -1921.69 1421.91 
-1929.59 -1922.31 1419.16 
-1929.38 -1922.33 1418.7 
-1928.67 -1922.24 1417.73 
-1928.92 -1923.24 1429.68 
-1929.53 -1923.78 1430.19 
-1928.41 -1921.73 1426.85 
-1930.28 -1924.1 1430.74 
-1928.72 -1921.23 1424.56 
-1923.11 -1918.67 1411.76 
-1920.35 -1916.62 1408.64 
-1927.02 -1921.42 1415.22 
-1928.51 -1922.31 1416.39 
-1929.07 -1922.66 1417.01 
-1961.9 -1928.04 1447.45 
-1961.99 -1927.62 1448.02 
-1961.73 -1928.55 1447.37 
-1961.6 -1929.14 1446.98 
-1958.05 -1932.22 1447.97 
-1959.02 -1931.96 1447.28 
-1959.92 -1931.45 1447.37 
-1961.17 -1930.39 1447.51 
-1960.45 -1931.24 1446.67 
-1961.41 -1929.88 1446.9 
-1955.09 -1932.31 1447.82 
-1956.37 -1932.32 1447.45 
-1957.78 -1932.39 1446.96 
-1954.09 -1932.49 1447.3 
-1953.16 -1932.73 1446.5 
-1951.64 -1932.97 1445.56 
-1976.04 -1921.28 1405.36 
-1976.88 -1920.97 1405.82 
-1976.52 -1921.29 1405.69 
-1975.83 -1911.66 1399.47 
-1974.87 -1909.34 1398.5 
-1975.5 -1911.93 1399.43 
-1974.93 -1908 1397.65 
-1974.16 -1917.48 1402.24 
-1975.34 -1915.12 1400.76 
-1973.8 -1920.08 1403.23 
-1973.73 -1921.04 1403.9 
-1975.04 -1921.91 1404.68 
-1974.39 -1922.08 1404.72 
-1975.35 -1921.77 1404.94 
-1973.81 -1921.56 1404.37 
-1973.9 -1922.05 1404.76 
-1975.69 -1921.63 1405.16 
-1975.53 -1921.74 1405.2 
-1972.64 -1906.06 1396.26 
-1973.57 -1907.46 1397.33 
-1974.26 -1907.88 1397.53 
-1974.63 -1907.88 1397.51 
-1977.09 -1921.09 1406.06 
-1975.93 -1921.86 1405.54 
-1976.16 -1921.57 1405.53 
-1975.75 -1921.88 1405.61 
-1975.64 -1921.89 1405.8 
-1973.93 -1924.07 1410.83 
-1975.21 -1922.15 1407.26 
-1975.28 -1921.92 1406.08 
-1962.15 -1927.21 1447.8 
-1962.38 -1926.7 1447.79 
-1962.73 -1926.34 1446.61 
-1962.76 -1926.64 1446.38 
-1962.1 -1928.6 1446.1 
-1962.16 -1928.09 1446.32 
-1962.35 -1927.65 1446.63 
-1962.45 -1927.14 1446.99 
-1960.75 -1930.47 1443.8 
-1961.34 -1930.04 1445.61 
-1961.84 -1928.82 1446.34 
-1961.66 -1929.53 1446.28 
-1960.53 -1930.96 1439.03 
-1959.99 -1931.37 1443.06 
-1961.4 -1929.64 1433.84 
-1961.02 -1930 1435.2 
-1960.16 -1931.24 1438.39 
-1962.28 -1929.38 1432.1 
-1963.27 -1929.15 1429.38 
-1962.23 -1929.31 1431.43 
-1965.21 -1929.18 1426.27 
-1972.09 -1926.26 1415.3 
-1970.66 -1927.18 1417.06 
-1969.87 -1928.31 1419.36 
-1969.45 -1928.14 1418.86 
-1967.19 -1929.24 1422.63 
-1964.11 -1929.31 1426.74 
-1968.19 -1928.83 1420.69 
-1966.67 -1929.23 1422.49 
-1931.08 -1924.34 1432.1 
-1931.95 -1924.8 1433.23 
-1935.33 -1926.12 1437.02 
-1937.29 -1925.69 1440.29 
-1933.36 -1925.36 1435.39 
-1933.32 -1928.11 1432.9 
-1932.75 -1925.41 1433.89 
-1938.42 -1924.73 1445.74 
-1937.84 -1925.2 1441.77 
-1949.63 -1933.12 1444.79 
-1948.07 -1933.3 1444.05 
-1946.85 -1933.34 1443.52 
-1945.79 -1933.64 1441.9 
-1944.56 -1933.46 1441.42 
-1941 -1932.18 1439.72 
-1940.78 -1931.9 1440.04 
-1941.27 -1932.48 1439.56 
-1941.53 -1932.76 1439.25 
-1941.96 -1932.92 1438.96 
-1938.75 -1925.24 1445.65 
-1940.74 -1928.27 1447.49 
-1940.26 -1931.23 1440.85 
-1940.14 -1930.83 1441.12 
-1940.47 -1931.61 1440.21 
-1929.53 -1921.91 1421.98 
-1929.98 -1922.63 1419.03 
-1929.93 -1922.83 1418.37 
-1929.69 -1922.87 1417.8 
-1929.25 -1923.58 1428.88 
-1928.83 -1922.14 1426.76 
-1929.84 -1924.22 1429.3 
-1929.75 -1922.11 1421.9 
-1929.01 -1921.5 1424.55 
-1930.96 -1924.72 1431.07 
-1930.45 -1924.41 1430.12 
-1924.18 -1918.78 1410.17 
-1917.44 -1914.24 1404.72 
-1925.57 -1920.14 1412.23 
-1927.63 -1921.64 1414.64 
-1924.41 -1918.55 1409.01 
-1918.81 -1914.73 1404.52 
-1929.16 -1922.47 1415.73 
-1929.75 -1922.9 1416.41 
-1930.08 -1923.19 1417.07 
-1961.89 -1928.28 1446.72 
-1962.1 -1927.63 1446.99 
-1959.51 -1931.85 1446.16 
-1958.62 -1932.3 1445.94 
-1961.02 -1930.66 1446.62 
-1959.67 -1932.02 1445.25 
-1960.25 -1931.34 1445.58 
-1960.94 -1930.49 1447.17 
-1955.25 -1932.85 1445.61 
-1956.38 -1932.76 1445.58 
-1957.57 -1932.66 1445.61 
-1954.14 -1933.08 1444.86 
-1952.51 -1933.41 1443.59 
-1950.41 -1933.58 1443.02 
-1974.56 -1909.76 1398.68 
-1975.23 -1912.06 1399.47 
-1974.46 -1908.95 1398.26 
-1973.87 -1917.07 1402.07 
-1973.43 -1920.01 1403.1 
-1974.94 -1914.78 1400.66 
-1973.26 -1920.93 1403.53 
-1973.29 -1921.5 1404.01 
-1974.82 -1921.97 1404.9 
-1975.27 -1921.79 1405.07 
-1974.22 -1922.22 1405 
-1975.44 -1921.76 1405.35 
-1973.48 -1921.9 1404.46 
-1973.64 -1922.38 1404.94 
-1972.46 -1907.22 1397.26 
-1969.73 -1905.38 1396.4 
-1973.62 -1908.68 1398.09 
-1972.83 -1908.42 1397.99 
-1975.28 -1921.82 1405.47 
-1972.57 -1925.44 1413.47 
-1973.78 -1923.41 1409.09 
-1974.66 -1922.19 1406.54 
-1974.69 -1922.07 1405.75 
-1960.45 -1931.01 1444.43 
-1959.29 -1932.18 1442.25 
-1959.65 -1931.89 1443.65 
-1960.99 -1929.73 1433.54 
-1960.8 -1930.09 1434.85 
-1959.76 -1931.37 1438.01 
-1958.83 -1932.57 1441.41 
-1962.29 -1929.03 1429.83 
-1960.94 -1929.54 1432.7 
-1971.04 -1926.42 1415.68 
-1969.57 -1927.6 1417.64 
-1967.93 -1928.65 1420.04 
-1963.36 -1929.45 1426.64 
-1962.69 -1929.52 1426.27 
-1961.06 -1929.47 1430.9 
-1966.42 -1929.12 1422.04 
-1961.78 -1929.47 1424.93 
-1931.58 -1925.29 1431.5 
-1932.32 -1925.8 1432.28 
-1934.04 -1928.03 1434.2 
-1935.91 -1927.03 1436.54 
-1936.47 -1927.31 1437.38 
-1937.04 -1927.02 1438.44 
-1937.95 -1926.56 1439.98 
-1938.14 -1925.7 1441.52 
-1932.97 -1928.51 1431.48 
-1933.58 -1930.45 1431.44 
-1933.03 -1931.03 1429.58 
-1948.7 -1933.75 1442.4 
-1947.01 -1933.91 1441.81 
-1945.17 -1933.67 1441.28 
-1942.66 -1933.13 1438.63 
-1939.31 -1932.4 1436.28 
-1939.07 -1932.02 1436.54 
-1939.58 -1932.69 1435.94 
-1940.18 -1932.6 1435.5 
-1940.94 -1932.43 1436.11 
-1939.06 -1925.75 1445.43 
-1940.33 -1927.82 1447.22 
-1939.95 -1930.41 1441.2 
-1939.03 -1931.58 1437.09 
-1939.02 -1931.04 1437.45 
-1939.26 -1930.78 1438.28 
-1930.32 -1922.85 1419 
-1930.3 -1923.11 1418.18 
-1930.19 -1923.24 1417.53 
-1929.7 -1923.97 1428.09 
-1929.14 -1922.47 1426.69 
-1929.47 -1922.87 1426.58 
-1929.95 -1922.24 1421.81 
-1930.19 -1924.63 1428.69 
-1931.14 -1925.19 1430.49 
-1931.47 -1925.46 1430.86 
-1930.8 -1925.19 1429.57 
-1928.66 -1921.91 1413.34 
-1928.29 -1921.88 1414.08 
-1929.39 -1922.41 1415.14 
-1924.76 -1918.48 1408.25 
-1929.15 -1921.94 1412.7 
-1930.4 -1922.98 1415.89 
-1930.32 -1922.77 1415.23 
-1930.57 -1923.18 1416.59 
-1930.63 -1923.29 1417.06 
-1921.75 -1915.3 1403.39 
-1918.35 -1913.61 1402.02 
-1958.78 -1932.66 1444.92 
-1957.91 -1932.96 1444.67 
-1958.86 -1932.8 1443.86 
-1954.7 -1933.3 1443.7 
-1956.05 -1933.16 1444.11 
-1956.97 -1933.04 1444.54 
-1952.82 -1933.78 1441.67 
-1950.95 -1933.99 1441 
-1949.21 -1933.95 1441.36 
-1974.04 -1909.72 1398.67 
-1974.82 -1912.29 1399.67 
-1973.45 -1916.83 1402.04 
-1972.87 -1919.56 1403.03 
-1972.97 -1920.61 1403.27 
-1974.52 -1914.62 1400.74 
-1972.77 -1921.22 1403.66 
-1973.02 -1921.86 1404.56 
-1972.47 -1921.45 1404.3 
-1974.81 -1921.99 1405.28 
-1974.2 -1922.25 1405.43 
-1973.65 -1922.49 1405.35 
-1973.19 -1922.25 1404.93 
-1973.07 -1922.7 1405.32 
-1952.92 -1910.14 1396.72 
-1953.39 -1910.74 1397.31 
-1954.17 -1909.73 1396.59 
-1958.32 -1908.43 1397.14 
-1958.39 -1908.83 1397.54 
-1961.58 -1907.74 1397.96 
-1949.74 -1910.55 1396.86 
-1970.08 -1907.33 1397.74 
-1970.07 -1906.27 1397.05 
-1972.99 -1909.46 1398.58 
-1969.91 -1908.35 1398.32 
-1971.98 -1925.43 1413.12 
-1973.16 -1923.6 1408.95 
-1974 -1922.4 1406.39 
-1974.03 -1922.34 1405.87 
-1958.8 -1932.83 1442.96 
-1960.27 -1930.05 1433.97 
-1960.37 -1930.28 1434.86 
-1959.4 -1931.47 1437.65 
-1958.6 -1932.7 1440.92 
-1958.55 -1933.32 1443.14 
-1960.59 -1929.59 1433.07 
-1959.84 -1930.16 1433.92 
-1970.12 -1926.66 1415.7 
-1968.49 -1928.03 1418.45 
-1966.09 -1928.93 1421.44 
-1966.17 -1928.65 1420.01 
-1958.35 -1929.82 1428.43 
-1958.43 -1929.77 1431.12 
-1962.09 -1929.4 1423.14 
-1957.83 -1929.84 1423.79 
-1931.99 -1926.24 1430.75 
-1932.65 -1928.8 1430.26 
-1935.92 -1928.13 1436.06 
-1934.57 -1929.83 1433.05 
-1934.63 -1930.32 1432.78 
-1934.13 -1930.04 1432.54 
-1938 -1928.85 1438.25 
-1938.61 -1928.63 1439.36 
-1938.59 -1926.31 1441.64 
-1932.71 -1930.94 1428.88 
-1933.4 -1931.45 1429.95 
-1934.51 -1930.78 1432.26 
-1933.04 -1931.76 1428.98 
-1932.71 -1931.53 1428.61 
-1947.8 -1934.12 1441.55 
-1945.71 -1933.82 1441.07 
-1943.18 -1933.28 1438.13 
-1941.8 -1932.33 1435.56 
-1941.17 -1932.36 1435.24 
-1936.69 -1932.2 1433.2 
-1936.78 -1932.42 1432.83 
-1936.61 -1931.91 1433.57 
-1938.3 -1931.82 1435.92 
-1936.95 -1932.58 1432.55 
-1937.85 -1932.7 1432.34 
-1936.98 -1932.65 1432.13 
-1939.32 -1926.35 1445.41 
-1939.85 -1929.26 1443.32 
-1939.23 -1930.37 1438.78 
-1938.43 -1931.28 1436.32 
-1938.4 -1930.76 1436.4 
-1938.82 -1930.63 1437.34 
-1938.82 -1930.35 1437.69 
-1930.56 -1922.92 1419.13 
-1930.6 -1923.24 1418.15 
-1930.53 -1923.36 1417.45 
-1930.2 -1924.31 1427.35 
-1930.09 -1922.94 1423.93 
-1930.17 -1922.37 1421.65 
-1930.64 -1924.97 1428.3 
-1931.77 -1926.22 1430.2 
-1931.48 -1926.04 1429.84 
-1931.25 -1926.02 1429.32 
-1931.01 -1925.69 1428.48 
-1930.46 -1922.72 1414.53 
-1925.67 -1918.69 1407.97 
-1921.86 -1914.53 1401.5 
-1929.59 -1921.48 1411.4 
-1929.49 -1921.79 1412.11 
-1931.13 -1922.7 1413.93 
-1930.96 -1923.11 1416.08 
-1930.91 -1922.96 1415.46 
-1931.05 -1922.83 1414.83 
-1931.18 -1923.28 1416.65 
-1931 -1923.36 1417.05 
-1924.51 -1916.39 1403.96 
-1921.73 -1913.18 1398.92 
