-2083.08 -1849.14 1698.34 
-2073.82 -1852.48 1685.6 
-2073.67 -1852.32 1685.35 
-2074.1 -1852.73 1686.02 
-2073.02 -1852.63 1685.03 
-2071.61 -1855.27 1684.43 
-2072.1 -1854.91 1684.63 
-2069.45 -1854.85 1683.46 
-2070.72 -1855.47 1684.04 
-2069.72 -1855.72 1683.61 
-2066.99 -1853.87 1682.55 
-2065.35 -1851.73 1681.85 
-2068.57 -1855.66 1683.2 
-2066.15 -1854.15 1682.34 
-2082.59 -1854.31 1704.27 
-2083.18 -1852.63 1704.18 
-2083.32 -1851.95 1704.03 
-2083.25 -1852.25 1703.96 
-2083.51 -1851.14 1703.42 
-2081.91 -1855.59 1703.77 
-2056.98 -1872.06 1736.66 
-2053.67 -1871.69 1741.11 
-2068.86 -1876.54 1720.39 
-2068.87 -1876.68 1719.49 
-2069.15 -1876.51 1719.11 
-2068.88 -1876.5 1718.41 
-2068.29 -1876.63 1721.03 
-2068.15 -1876.33 1722.05 
-2066.31 -1874.79 1725.11 
-2060.72 -1873.48 1730.92 
-2065.92 -1874.95 1725.18 
-2069 -1876.5 1717.86 
-2070.46 -1875.39 1715.31 
-2070.07 -1874.44 1714.36 
-2070.11 -1875.14 1714.5 
-2070.18 -1875.86 1716.04 
-2070.17 -1876.11 1716.75 
-2069.97 -1876.33 1717.29 
-2070.07 -1875.78 1714.99 
-2069.39 -1876.45 1717.47 
-2070.04 -1875.6 1714.62 
-2080.14 -1857.53 1703.17 
-2078.35 -1858.6 1702.5 
-2081.17 -1856.59 1703.68 
-2080.51 -1857.18 1703.17 
-2081.58 -1856.07 1703.61 
-2075.08 -1861.23 1701.8 
-2071.67 -1865.54 1703.83 
-2069.37 -1867.94 1704.84 
-2069.09 -1868.4 1704.06 
-2068.63 -1868.78 1704.04 
-2068.04 -1869.2 1704.07 
-2067.63 -1869.75 1704.17 
-2067.98 -1874.67 1708.84 
-2069.74 -1873.96 1713.09 
-2068.21 -1875.02 1709.34 
-2067.42 -1872.4 1706.29 
-2067.46 -1870.24 1704.59 
-2067.22 -1872.08 1705.15 
-2083.85 -1849.66 1699.78 
-2083.9 -1849.82 1699.87 
-2083.97 -1849.98 1700.03 
-2083.89 -1850.13 1699.94 
-2083.83 -1850.3 1699.9 
-2083.87 -1850.46 1700.03 
-2083.73 -1849.5 1699.57 
-2083.8 -1850.35 1702.81 
-2084.02 -1850.85 1702.25 
-2083.93 -1851.52 1701.71 
-2083.94 -1850.63 1700.26 
-2084.02 -1850.75 1700.64 
-2083.95 -1850.99 1700.84 
-2083.89 -1851.33 1701.24 
-2081.98 -1847.56 1697.04 
-2080.19 -1847.75 1695.77 
-2080.91 -1847.45 1696.52 
-2078.15 -1850.06 1691.68 
-2075.5 -1852.32 1688.11 
-2074.94 -1852.86 1687.07 
-2074.43 -1852.98 1686.49 
-2079.72 -1848.25 1694.34 
-2079.98 -1848.14 1695.37 
-2083.49 -1849.35 1699.15 
-2083.36 -1849.38 1698.85 
-2082.47 -1848.45 1697.42 
-2082.85 -1849.07 1697.93 
-2082.99 -1849.24 1698.15 
-2083.16 -1849.31 1698.47 
-2073.14 -1854.38 1685.59 
-2072.91 -1854.16 1685.19 
-2073.29 -1854.62 1685.92 
-2070.59 -1856.8 1683.98 
-2071.22 -1856.96 1684.23 
-2071.94 -1856.81 1684.6 
-2069.6 -1856.81 1683.61 
-2068.62 -1856.6 1683.27 
-2067.67 -1856.32 1682.93 
-2063.95 -1852.59 1681.64 
-2065.5 -1854.87 1682.3 
-2067.07 -1856.6 1682.78 
-2082.36 -1854.54 1703.89 
-2083.04 -1852.55 1703.93 
-2083.12 -1852.18 1703.73 
-2083.33 -1851.56 1703.53 
-2083.2 -1851.81 1703.54 
-2083.52 -1850.97 1703.17 
-2081.65 -1855.78 1703.39 
-2053.3 -1873.68 1739.85 
-2051.61 -1874.83 1741.23 
-2051.16 -1873.4 1742.75 
-2055.49 -1873.72 1736.5 
-2068.41 -1876.83 1719.99 
-2068.62 -1876.78 1718.76 
-2068.32 -1876.94 1719.23 
-2068.59 -1876.74 1718.05 
-2068.04 -1876.81 1720.52 
-2068.02 -1876.43 1721.51 
-2065.38 -1875.16 1724.9 
-2059.52 -1874.28 1731.11 
-2068.65 -1876.57 1717.51 
-2069.28 -1874.98 1712.14 
-2069.58 -1875.26 1713.24 
-2069.93 -1876.02 1714.93 
-2069.67 -1876.13 1715.42 
-2068.91 -1876.15 1715.96 
-2068.61 -1876.1 1711.98 
-2068.98 -1875.93 1712.15 
-2068.1 -1876.24 1716.36 
-2078.28 -1858.59 1701.94 
-2078.15 -1858.33 1701.42 
-2076.22 -1859.54 1701.14 
-2080.72 -1856.84 1703.13 
-2081.35 -1856.29 1703.43 
-2080.03 -1857.29 1702.36 
-2074.11 -1862.62 1701.6 
-2075.06 -1860.19 1699.09 
-2069.74 -1867.23 1703.48 
-2071.74 -1865.05 1702.52 
-2073.69 -1861.68 1698.68 
-2069.39 -1867.73 1702.92 
-2068.66 -1868.29 1702.75 
-2068.22 -1868.59 1702.99 
-2067.96 -1868.95 1703.42 
-2067.47 -1869.4 1703.44 
-2067.2 -1869.95 1703.59 
-2067.19 -1874.56 1706.9 
-2068.39 -1875.35 1709.75 
-2067.22 -1875.08 1707.03 
-2067.05 -1871.86 1704.12 
-2066.96 -1874.51 1705.74 
-2083.64 -1849.81 1699.36 
-2083.52 -1849.59 1699.13 
-2083.7 -1849.99 1699.54 
-2083.66 -1850.18 1699.54 
-2083.57 -1850.35 1699.44 
-2083.62 -1850.48 1699.57 
-2083.69 -1850.63 1699.76 
-2083.74 -1850.33 1702.63 
-2083.93 -1850.96 1702.19 
-2083.83 -1851.7 1701.66 
-2083.88 -1850.83 1700.33 
-2083.74 -1850.74 1699.89 
-2083.83 -1851.15 1700.73 
-2083.79 -1851.5 1701.19 
-2081.96 -1847.75 1697.02 
-2080.78 -1847.59 1696.51 
-2080.23 -1847.95 1695.87 
-2077.99 -1850.55 1691.84 
-2079.63 -1848.54 1694.25 
-2075.5 -1852.73 1688.35 
-2073.89 -1855.15 1686.93 
-2073.46 -1854.92 1686.24 
-2079.91 -1848.45 1695.24 
-2083.27 -1849.49 1698.66 
-2082.52 -1848.74 1697.41 
-2082.83 -1849.2 1697.82 
-2083.04 -1849.4 1698.23 
-2072.4 -1856.91 1684.96 
-2072.45 -1857 1685.21 
-2072.43 -1857.02 1685.46 
-2070.75 -1857.62 1684.14 
-2070.12 -1857.51 1683.82 
-2071.24 -1857.63 1684.51 
-2071.64 -1857.77 1684.86 
-2069.04 -1857.28 1683.45 
-2068.01 -1857 1683.09 
-2063.52 -1854.75 1682.02 
-2065 -1855.68 1682.39 
-2066.8 -1857.05 1682.73 
-2065.09 -1856.58 1682.53 
-2062.51 -1855.62 1682 
-2067.24 -1857 1682.85 
-2067.4 -1856.8 1682.88 
-2082.12 -1854.71 1703.56 
-2082.88 -1852.65 1703.78 
-2082.95 -1852.22 1703.54 
-2083.08 -1851.75 1703.33 
-2083.01 -1851.98 1703.43 
-2083.43 -1851.09 1703.11 
-2083.23 -1851.47 1703.22 
-2081.43 -1855.97 1703.16 
-2052.98 -1875.44 1737.51 
-2049.51 -1875.01 1742.61 
-2067.9 -1877.09 1719.68 
-2068.15 -1877 1718.23 
-2067.94 -1877.13 1718.9 
-2067.86 -1876.79 1717.43 
-2067.91 -1876.64 1720.69 
-2064.88 -1875.64 1723.71 
-2064.79 -1875.29 1724.61 
-2058.08 -1875.16 1730.95 
-2067.43 -1876.61 1716.4 
-2068.08 -1875.97 1709.46 
-2067.64 -1875.71 1708.2 
-2068 -1876.36 1711.38 
-2067.79 -1876.5 1712.18 
-2067.46 -1876.66 1713.13 
-2067.61 -1875.64 1708.11 
-2067.25 -1877.14 1708.14 
-2067.12 -1877.1 1713.44 
-2077.96 -1858.16 1700.85 
-2076.56 -1858.62 1699.52 
-2075.46 -1858.87 1697.99 
-2080.94 -1856.53 1703.07 
-2080.4 -1856.92 1702.54 
-2078.2 -1857.73 1700.6 
-2074.1 -1859.98 1696.2 
-2074.69 -1859.06 1696.03 
-2069.5 -1866.9 1701.81 
-2070.04 -1866.12 1702.2 
-2071.89 -1863.56 1699.6 
-2072.77 -1861.99 1697.92 
-2073.03 -1860.4 1694.98 
-2068.76 -1867.69 1701.89 
-2067.92 -1867.86 1701.54 
-2067.85 -1868.31 1702.04 
-2067.49 -1868.62 1702.26 
-2067.48 -1868.98 1702.85 
-2067.09 -1869.59 1702.84 
-2066.95 -1871.5 1703.24 
-2066.98 -1875.17 1705.79 
-2067.16 -1875.56 1706.77 
-2066.74 -1874.08 1704.35 
-2083.47 -1849.9 1699.11 
-2083.38 -1849.69 1698.88 
-2083.48 -1850.07 1699.17 
-2083.46 -1850.23 1699.2 
-2083.43 -1850.35 1699.19 
-2083.41 -1850.45 1699.19 
-2083.44 -1850.62 1699.31 
-2083.55 -1850.71 1699.54 
-2083.69 -1850.31 1702.49 
-2083.94 -1850.25 1702.14 
-2083.8 -1851.69 1702.17 
-2083.74 -1851.92 1701.75 
-2083.76 -1850.88 1700.05 
-2083.59 -1850.82 1699.65 
-2083.7 -1851.38 1700.69 
-2083.74 -1851.12 1700.37 
-2083.67 -1851.72 1701.18 
-2082.33 -1848.53 1697.12 
-2081.96 -1847.86 1696.89 
-2081.43 -1847.65 1697.09 
-2080.55 -1847.78 1696.38 
-2080.21 -1848.19 1695.87 
-2077.61 -1851.24 1691.63 
-2079.52 -1848.91 1694.3 
-2079.72 -1848.8 1694.91 
-2077.08 -1851.98 1691.25 
-2074.18 -1855.24 1687.53 
-2072.64 -1857 1685.73 
-2073.19 -1857.18 1686.47 
-2079.99 -1848.6 1695.52 
-2083.18 -1849.6 1698.52 
-2082.62 -1849.1 1697.45 
-2082.83 -1849.36 1697.83 
-2082.98 -1849.56 1698.14 
-2071.95 -1857.97 1685.2 
-2072.22 -1857.94 1685.37 
-2070.85 -1858.22 1684.4 
-2070.51 -1858.17 1684.11 
-2069.82 -1857.92 1683.75 
-2071.13 -1858.47 1684.7 
-2071.45 -1858.58 1685.01 
-2068.62 -1857.65 1683.34 
-2067.72 -1857.47 1683.04 
-2066.93 -1857.34 1682.78 
-2062.89 -1855.85 1682.16 
-2065.04 -1856.98 1682.57 
-2066.65 -1857.67 1682.73 
-2064.87 -1857.18 1682.56 
-2081.97 -1854.71 1703.33 
-2082.65 -1852.92 1703.57 
-2082.8 -1852.3 1703.41 
-2082.87 -1852.04 1703.28 
-2083.07 -1851.5 1703.07 
-2082.94 -1851.8 1703.18 
-2083.4 -1850.99 1702.9 
-2083.29 -1851.06 1702.79 
-2081.14 -1856.14 1702.85 
-2049.71 -1878.6 1733.99 
-2050.1 -1875.38 1741.34 
-2067.82 -1876.84 1720.12 
-2067.52 -1877.33 1719.59 
-2067.57 -1877.37 1718.16 
-2067.22 -1877.44 1717.06 
-2067.54 -1877.37 1719.01 
-2066.88 -1877.38 1716.03 
-2064.75 -1875.85 1723.25 
-2060.05 -1875.78 1727.5 
-2060.03 -1876.51 1726.4 
-2055.31 -1876.54 1731.27 
-2066.77 -1877.64 1713.52 
-2067.26 -1876.28 1706.85 
-2067.19 -1876.19 1707.06 
-2067.2 -1877.44 1708.19 
-2067.35 -1877.54 1709.13 
-2067.24 -1877.81 1709.49 
-2067 -1877.55 1706.34 
-2067.01 -1877.95 1707.02 
-2067.06 -1878.02 1709.81 
-2076.32 -1858.43 1698.7 
-2076.71 -1857.99 1698.92 
-2075.5 -1858.45 1696.84 
-2076.3 -1858.06 1697.93 
-2080.52 -1856.69 1702.47 
-2078.47 -1857.29 1700.51 
-2073.7 -1859.74 1694.65 
-2074.19 -1859.36 1695.43 
-2073.42 -1859.56 1691.23 
-2074.04 -1859.09 1691.96 
-2074.74 -1858.63 1693.24 
-2068.59 -1866.69 1701.04 
-2069.24 -1865.81 1701 
-2070.47 -1865.18 1701.34 
-2071.37 -1863.3 1697.96 
-2072.15 -1861.35 1695.32 
-2071.47 -1862.02 1695.49 
-2072.24 -1860.73 1693.85 
-2072.73 -1860.08 1690.82 
-2072.45 -1860.17 1691.33 
-2068.22 -1867.21 1701.27 
-2067.2 -1867.34 1700.59 
-2067.22 -1867.85 1701.14 
-2067 -1868.39 1701.42 
-2067.09 -1869.07 1702.22 
-2067.05 -1868.69 1701.84 
-2066.92 -1869.45 1701.97 
-2066.83 -1871.16 1702.47 
-2066.56 -1873.79 1703.27 
-2066.99 -1875.86 1705.81 
-2066.67 -1874.92 1704.46 
-2083.29 -1849.88 1698.78 
-2083.29 -1850.1 1698.85 
-2083.21 -1850.29 1698.88 
-2083.25 -1850.43 1698.89 
-2083.26 -1850.55 1698.96 
-2083.28 -1850.72 1699.05 
-2083.42 -1850.79 1699.34 
-2083.65 -1850.96 1702.15 
-2083.87 -1850.15 1702.05 
-2083.72 -1851.72 1702.07 
-2083.62 -1852.01 1701.54 
-2083.64 -1850.94 1699.8 
-2083.64 -1851.2 1700.16 
-2083.48 -1850.95 1699.51 
-2083.59 -1851.61 1700.74 
-2083.54 -1851.99 1701.23 
-2081.94 -1848.05 1696.84 
-2082.36 -1848.8 1697.09 
-2081.38 -1847.8 1697.1 
-2080.52 -1847.95 1696.42 
-2080.25 -1848.37 1695.98 
-2079.38 -1849.31 1694.28 
-2079.6 -1849.22 1694.99 
-2079.8 -1848.91 1695.48 
-2074.64 -1855.06 1688.52 
-2077.2 -1852.33 1691.76 
-2079.3 -1849.73 1694.56 
-2073.68 -1857.51 1687.2 
-2072.61 -1857.76 1685.4 
-2073.02 -1857.92 1685.66 
-2080.02 -1848.73 1695.91 
-2083.12 -1849.74 1698.45 
-2082.64 -1849.34 1697.47 
-2082.78 -1849.53 1697.8 
-2082.94 -1849.74 1698.14 
-2071.78 -1858.61 1685.32 
-2072.16 -1858.52 1685.49 
-2070.76 -1858.82 1684.45 
-2070.28 -1858.57 1684.03 
-2069.45 -1858.22 1683.65 
-2071.03 -1859.18 1684.82 
-2071.36 -1859.2 1685.16 
-2068.57 -1858.16 1683.38 
-2067.6 -1857.8 1683.04 
-2066.94 -1857.73 1682.83 
-2066.44 -1857.89 1682.76 
-2062.45 -1856.68 1682.39 
-2064.71 -1857.41 1682.56 
-2062.54 -1856.16 1682.23 
-2061.37 -1857.75 1682.87 
-2061.61 -1858.09 1683.17 
-2061.72 -1857.77 1682.68 
-2060.39 -1859.23 1683.11 
-2060.66 -1859.41 1683.5 
-2060.46 -1858.66 1682.95 
-2081.86 -1854.61 1703.03 
-2082.5 -1852.94 1703.34 
-2082.64 -1852.38 1703.28 
-2082.74 -1852.1 1703.16 
-2082.81 -1851.81 1703.01 
-2082.91 -1851.56 1702.94 
-2083.07 -1851.24 1702.77 
-2083.25 -1850.86 1702.48 
-2083.58 -1851.03 1702.03 
-2080.78 -1856.3 1702.42 
-2049.71 -1880.52 1729.73 
-2044.95 -1881.1 1735.39 
-2064.56 -1876.05 1722.83 
-2067.29 -1877.35 1719.92 
-2064.55 -1876.47 1722.31 
-2067.12 -1877.59 1719.36 
-2066.98 -1877.73 1718.18 
-2066.55 -1878.05 1716.75 
-2066.28 -1878.23 1715.26 
-2066.46 -1878.02 1713.55 
-2060.4 -1876.89 1725.94 
-2056.09 -1877.55 1728.06 
-2053.03 -1878.7 1728.62 
-2066.84 -1878.31 1709.78 
-2066.95 -1876.55 1705.73 
-2066.79 -1878.18 1707.29 
-2066.87 -1878.38 1706.69 
-2066.72 -1878.23 1707.66 
-2066.5 -1878.26 1707.6 
-2066.51 -1877.19 1705.2 
-2066.41 -1877.42 1705.17 
-2066.72 -1878.07 1705.98 
-2066.43 -1878.27 1707.81 
-2077.02 -1857.34 1698.64 
-2076.6 -1857.36 1697.81 
-2076.09 -1857.81 1696.87 
-2075.04 -1858.15 1693.2 
-2076.5 -1857.37 1697.19 
-2078.79 -1856.91 1700.54 
-2072.95 -1860.33 1690.37 
-2072.57 -1859.83 1688.62 
-2072.82 -1859.5 1688.23 
-2073.27 -1859 1688.55 
-2068.2 -1865.91 1700.1 
-2067.7 -1866.32 1700.08 
-2069.79 -1864.89 1699.91 
-2068.67 -1865.41 1699.78 
-2070.38 -1863.71 1697.65 
-2070.55 -1862.7 1695.6 
-2071.68 -1861.25 1694.15 
-2071.07 -1861.77 1694.17 
-2071.95 -1860.51 1691.23 
-2072.2 -1860.19 1688.27 
-2071.87 -1860.4 1688.42 
-2067.25 -1866.82 1700.17 
-2066.87 -1867.72 1700.49 
-2065.13 -1866.91 1698.45 
-2064.97 -1867.33 1698.66 
-2066.79 -1868.18 1700.8 
-2066.61 -1868.56 1700.84 
-2066.77 -1868.65 1701.24 
-2066.75 -1868.89 1701.42 
-2066.64 -1871.09 1701.8 
-2066.58 -1869.45 1701.34 
-2066.26 -1873.25 1702.09 
-2066.26 -1874.01 1702.57 
-2066.26 -1874.99 1703.53 
-2066.71 -1875.77 1704.75 
-2083.12 -1849.94 1698.51 
-2083.12 -1850.14 1698.57 
-2083.11 -1850.33 1698.62 
-2083.1 -1850.49 1698.65 
-2083.11 -1850.62 1698.72 
-2083.31 -1850.94 1699.21 
-2083.16 -1850.88 1698.93 
-2083.1 -1850.75 1698.75 
-2083.5 -1851.15 1699.71 
-2083.53 -1851.45 1700.26 
-2083.31 -1851.15 1699.34 
-2083.49 -1851.79 1700.73 
-2083.43 -1852.11 1701.1 
-2081.92 -1848.23 1696.78 
-2082.5 -1849.26 1697.21 
-2081.07 -1847.9 1697.03 
-2080.5 -1848.18 1696.46 
-2080.27 -1848.57 1696.17 
-2079.61 -1849.45 1695.47 
-2079.79 -1849.07 1695.84 
-2074.79 -1855.76 1689.17 
-2074.05 -1857.81 1687.78 
-2077.08 -1852.97 1692.13 
-2079.03 -1850.47 1694.79 
-2079.43 -1849.83 1695.16 
-2073.33 -1858.3 1686.17 
-2072.53 -1858.42 1685.43 
-2072.73 -1858.58 1685.51 
-2080 -1848.89 1696.35 
-2082.65 -1849.58 1697.52 
-2082.76 -1849.72 1697.82 
-2082.95 -1849.95 1698.22 
-2071.75 -1859.05 1685.5 
-2072.14 -1859.01 1685.73 
-2059.67 -1861.13 1683.03 
-2059.82 -1861.82 1683.71 
-2060.34 -1860.05 1683.51 
-2058.94 -1862.2 1682.52 
-2060.58 -1860 1683.75 
-2058.62 -1862.48 1682.27 
-2059.18 -1862.77 1682.86 
-2058.02 -1861.91 1681.77 
-2058.46 -1862.9 1682.28 
-2059.06 -1863.21 1682.73 
-2070.41 -1858.89 1684.13 
-2070.77 -1859.16 1684.49 
-2069.5 -1858.63 1683.8 
-2071.12 -1859.46 1684.85 
-2071.4 -1859.53 1685.33 
-2067.86 -1858.23 1683.2 
-2068.92 -1858.67 1683.63 
-2066.97 -1858.11 1682.92 
-2066.25 -1858.18 1682.79 
-2062.22 -1857.81 1682.82 
-2062.03 -1857.31 1682.5 
-2062.53 -1857.16 1682.63 
-2064.46 -1857.73 1682.6 
-2062.02 -1858.15 1683.17 
-2060.93 -1859.19 1683.74 
-2061.3 -1859.71 1684.39 
-2060.94 -1858.59 1683.5 
-2061.33 -1858.9 1684.04 
-2061.12 -1858.09 1683.3 
-2061.12 -1860.18 1684.47 
-2061.51 -1858.4 1683.81 
-2062.01 -1858.48 1683.83 
-2060.89 -1859.61 1683.88 
-2060.87 -1860.36 1684.29 
-2081.66 -1854.77 1702.71 
-2082.27 -1852.99 1703.04 
-2082.4 -1852.43 1703.05 
-2082.6 -1852.15 1703.03 
-2082.35 -1852.11 1702.8 
-2082.67 -1851.88 1702.88 
-2082.79 -1851.53 1702.75 
-2082.94 -1851.19 1702.57 
-2083.18 -1850.71 1702.22 
-2083.44 -1851.17 1701.8 
-2083.52 -1851.08 1701.92 
-2079.29 -1856.52 1700.83 
-2044.16 -1882.94 1733.28 
-2047.66 -1882.84 1728.89 
-2050.98 -1880.64 1727.1 
-2066.67 -1877.86 1719.5 
-2066.34 -1877.63 1720.13 
-2064.27 -1876.87 1721.87 
-2060.65 -1877.12 1725.19 
-2066.59 -1877.96 1718.49 
-2066.06 -1878.33 1717.13 
-2065.9 -1878.65 1714.97 
-2066.05 -1878.44 1713.41 
-2066.56 -1878.44 1711.41 
-2056.86 -1877.69 1726.55 
-2054.63 -1878.5 1726.78 
-2053.4 -1879.09 1726.13 
-2066.34 -1878.36 1708.17 
-2065.82 -1878.26 1707.28 
-2066.35 -1875.87 1704.06 
-2066.4 -1878.31 1706.23 
-2066.36 -1878.34 1706.69 
-2066.41 -1878.35 1705.5 
-2066.26 -1878.51 1706.71 
-2065.99 -1878.3 1707 
-2065.95 -1876.51 1703.54 
-2066.19 -1877.74 1704.95 
-2065.89 -1877.1 1703.62 
-2077.02 -1856.81 1698.16 
-2076.89 -1856.6 1697.55 
-2075.57 -1857.41 1693.69 
-2076.38 -1857.06 1696.59 
-2073.76 -1858.44 1688.9 
-2076.77 -1856.63 1696.84 
-2072.42 -1859.97 1687.83 
-2072.72 -1859.67 1687.38 
-2073.21 -1859.16 1687.66 
-2065.84 -1865.79 1697.79 
-2066.3 -1865.46 1697.69 
-2065.63 -1866.14 1698.07 
-2066.75 -1865.12 1697.48 
-2067.02 -1864.78 1696.92 
-2067.61 -1864.36 1696.59 
-2066.4 -1864.08 1693.85 
-2070.04 -1862.4 1693.97 
-2067.43 -1863.55 1693.85 
-2071.44 -1860.86 1691.02 
-2070.94 -1861.22 1690.9 
-2071.49 -1860.59 1688.28 
-2072.01 -1860.26 1687.71 
-2071.79 -1860.4 1687.86 
-2065.4 -1866.51 1698.31 
-2064.66 -1867.63 1698.67 
-2063.45 -1866.26 1696.54 
-2062.91 -1866.52 1696.49 
-2062.71 -1866.77 1696.68 
-2064.46 -1867.91 1698.67 
-2066.42 -1869.02 1700.88 
-2066.23 -1868.76 1700.41 
-2064.27 -1868.22 1698.61 
-2066.22 -1871.14 1701.08 
-2065.99 -1873.05 1701.31 
-2066.18 -1869.46 1700.67 
-2065.65 -1873.87 1701.37 
-2065.86 -1874.59 1702.12 
-2065.96 -1875.17 1702.89 
-2065.52 -1875.59 1702.49 
-2082.93 -1850.15 1698.25 
-2082.94 -1850.35 1698.33 
-2082.96 -1850.56 1698.43 
-2082.97 -1850.71 1698.49 
-2082.97 -1850.91 1698.61 
-2082.95 -1851.11 1698.7 
-2083.13 -1851.09 1698.99 
-2083.39 -1851.44 1699.86 
-2083.4 -1851.76 1700.41 
-2083.12 -1851.27 1699.07 
-2083.23 -1851.38 1699.38 
-2083.33 -1852.17 1700.91 
-2082.29 -1848.95 1696.94 
-2081.91 -1848.4 1696.67 
-2081.46 -1848.06 1697.02 
-2082.58 -1849.64 1697.28 
-2080.93 -1848.06 1697.02 
-2080.52 -1848.4 1696.56 
-2080.25 -1848.72 1696.57 
-2079.59 -1849.65 1695.86 
-2079.79 -1849.23 1696.24 
-2074.62 -1856.99 1689.29 
-2073.82 -1858.51 1687.45 
-2077.09 -1853.73 1693.92 
-2078.03 -1852.72 1696.46 
-2075.31 -1855.53 1690.29 
-2078.87 -1851.3 1697.18 
-2079.34 -1850.23 1695.81 
-2072.83 -1858.83 1685.82 
-2073.11 -1858.84 1686.37 
-2072.32 -1859.21 1685.84 
-2080.02 -1849.02 1696.82 
-2082.66 -1849.79 1697.56 
-2082.77 -1849.92 1697.9 
-2071.74 -1859.46 1685.68 
-2071.85 -1859.75 1685.92 
-2060.53 -1860.85 1684.21 
-2059.96 -1862.44 1684.29 
-2060.79 -1861.07 1684.64 
-2058.7 -1863.27 1682.72 
-2059.12 -1863.35 1683.43 
-2057.95 -1862.71 1682.04 
-2058.24 -1863.08 1682.47 
-2070.5 -1859.12 1684.17 
-2069.97 -1859.02 1684.01 
-2070.87 -1859.32 1684.44 
-2071.14 -1859.58 1684.66 
-2071.32 -1859.65 1685.08 
-2071.54 -1859.78 1685.5 
-2067.79 -1858.53 1683.29 
-2069.77 -1859.27 1684.06 
-2068.71 -1858.94 1683.68 
-2066.77 -1858.51 1682.93 
-2066.11 -1858.56 1682.82 
-2062.76 -1857.73 1682.93 
-2064.1 -1858.28 1682.66 
-2062.43 -1858.37 1683.49 
-2062.74 -1858.18 1683.24 
-2061.75 -1859.85 1684.77 
-2061.75 -1860.53 1685.31 
-2061.43 -1860.89 1685.24 
-2061.75 -1859.04 1684.49 
-2061.15 -1861.27 1685.19 
-2062.44 -1858.84 1684.24 
-2062.14 -1859.04 1684.63 
-2081.45 -1854.74 1702.35 
-2082.02 -1853.11 1702.74 
-2082.16 -1852.28 1702.72 
-2082.09 -1852.75 1702.75 
-2082.44 -1851.93 1702.7 
-2082.19 -1851.78 1702.36 
-2082.07 -1851.94 1702.42 
-2082.67 -1851.59 1702.64 
-2082.53 -1851.77 1702.62 
-2082.73 -1851.29 1702.44 
-2082.95 -1850.93 1702.25 
-2083.35 -1851.3 1701.65 
-2083.13 -1850.49 1701.89 
-2079.61 -1856.23 1700.89 
-2077.87 -1856.46 1699.21 
-2045.84 -1883.72 1730.31 
-2041.19 -1883.96 1735.28 
-2047.76 -1884.02 1727.68 
-2048.8 -1883.08 1726.94 
-2051.52 -1880.59 1725.66 
-2066.02 -1877.95 1719.32 
-2066.06 -1878.31 1718.26 
-2063.97 -1877.33 1721.42 
-2061.46 -1877.08 1724.54 
-2059.32 -1877.55 1724.66 
-2057.3 -1877.72 1725.48 
-2065.46 -1878.46 1716.83 
-2065.56 -1878.8 1714.6 
-2065.79 -1878.8 1712.69 
-2066.21 -1878.62 1710.16 
-2055.48 -1878.35 1725.82 
-2054.5 -1878.79 1725.58 
-2053.95 -1879.02 1724.99 
-2065.07 -1878.06 1707.52 
-2064.43 -1877.87 1706.83 
-2064.93 -1877.89 1706.04 
-2064.17 -1877.67 1706.03 
-2066.16 -1879.43 1705.28 
-2066.13 -1878.98 1704.84 
-2065.4 -1877.18 1703.5 
-2065.19 -1877.21 1703.59 
-2065.65 -1878.46 1705.76 
-2065.68 -1879.19 1704.67 
-2065.33 -1875.8 1702.05 
-2065.27 -1876.23 1702.39 
-2065.06 -1876.5 1702.65 
-2077.45 -1856.18 1698.45 
-2077.27 -1855.74 1698.12 
-2077.06 -1856.08 1697.55 
-2076.07 -1856.59 1694.24 
-2074.65 -1857.41 1690.08 
-2073.93 -1858.41 1688.32 
-2073.4 -1858.98 1687.33 
-2076.19 -1855.7 1693.7 
-2072.28 -1860.05 1687.4 
-2072.87 -1859.46 1686.8 
-2072.5 -1859.83 1686.93 
-2063.69 -1865.98 1696.26 
-2063.86 -1865.78 1695.98 
-2063.99 -1865.62 1695.71 
-2063.88 -1865.5 1695.07 
-2064.21 -1864.72 1692.33 
-2063.33 -1865.19 1692.39 
-2065.01 -1863.48 1689.95 
-2064.28 -1863.98 1690.09 
-2065.61 -1863.41 1690.49 
-2067.72 -1862.93 1692.49 
-2070.25 -1861.6 1690.81 
-2066.34 -1862.87 1690.22 
-2071.09 -1860.82 1688.51 
-2070.57 -1861.09 1688.46 
-2070.82 -1860.92 1687.84 
-2071.15 -1860.72 1687.59 
-2071.43 -1860.57 1687.54 
-2071.83 -1860.32 1687.15 
-2071.55 -1860.48 1687.24 
-2062.18 -1867.03 1696.6 
-2062.78 -1866.32 1695.83 
-2062.37 -1866.6 1695.96 
-2061.82 -1866.94 1695.98 
-2061.88 -1867.31 1696.65 
-2065.86 -1869.09 1700.15 
-2064.02 -1868.59 1698.53 
-2062.05 -1867.74 1696.93 
-2065.4 -1873.02 1700.45 
-2065.44 -1871.31 1700.24 
-2065.36 -1873.6 1700.66 
-2065.56 -1869.55 1699.97 
-2065.2 -1874.46 1700.98 
-2065.3 -1875.13 1701.54 
-2082.77 -1850.1 1697.93 
-2082.79 -1850.26 1698.02 
-2082.83 -1850.44 1698.17 
-2082.84 -1850.63 1698.24 
-2082.84 -1850.83 1698.32 
-2082.78 -1851.05 1698.36 
-2082.77 -1851.26 1698.48 
-2082.93 -1851.34 1698.8 
-2083.22 -1851.68 1699.78 
-2083.28 -1851.95 1700.37 
-2083.06 -1851.49 1699.11 
-2083.21 -1852.29 1700.75 
-2082.37 -1849.33 1696.97 
-2081.89 -1848.59 1696.63 
-2081.37 -1848.2 1697.01 
-2082.6 -1849.91 1697.33 
-2080.86 -1848.24 1697.06 
-2080.48 -1848.58 1696.86 
-2080.26 -1848.83 1697 
-2079.57 -1849.93 1696.41 
-2079.79 -1849.37 1696.63 
-2075.15 -1856.5 1690.5 
-2077.86 -1853.6 1697.89 
-2079.16 -1851.01 1697.49 
-2078.81 -1851.92 1698.45 
-2072.51 -1859.38 1686.05 
-2072.71 -1859.39 1686.4 
-2072.13 -1859.81 1686.15 
-2079.99 -1849.17 1697.26 
-2080.22 -1848.97 1697.32 
-2082.68 -1849.99 1697.65 
-2071.85 -1860.07 1685.97 
-2071.62 -1859.92 1685.5 
-2060.17 -1863 1684.99 
-2060.9 -1861.93 1685.32 
-2059.1 -1863.76 1684.01 
-2058.58 -1863.48 1683.25 
-2058.33 -1863.67 1683.4 
-2057.98 -1863.47 1682.94 
-2057.65 -1863.18 1682.42 
-2057.45 -1865 1684.8 
-2057.81 -1865.22 1685.24 
-2058.21 -1863.86 1683.59 
-2057.48 -1863.26 1682.44 
-2057.17 -1864.81 1684.42 
-2070.32 -1859.39 1684.21 
-2070.82 -1859.46 1684.35 
-2071.13 -1859.71 1684.54 
-2071.39 -1859.79 1685 
-2067.44 -1858.86 1683.24 
-2069.37 -1859.44 1684.03 
-2069.97 -1859.65 1684.24 
-2068.29 -1859.24 1683.64 
-2066.48 -1858.95 1682.93 
-2065.81 -1858.88 1682.83 
-2063.72 -1858.89 1682.75 
-2063.09 -1858.72 1683.5 
-2062.89 -1858.84 1683.97 
-2064.09 -1859.25 1682.93 
-2062.26 -1860.07 1685.17 
-2062.15 -1860.45 1685.54 
-2062.49 -1861.29 1686.16 
-2062.05 -1861.58 1686.04 
-2061.59 -1861.78 1685.88 
-2061.29 -1862.34 1685.96 
-2062.66 -1860.06 1685.31 
-2062.86 -1859.6 1684.8 
-2063.4 -1859.28 1684.22 
-2081.26 -1854.62 1702.02 
-2081.75 -1853.26 1702.49 
-2081.93 -1852.32 1702.46 
-2081.85 -1852.87 1702.48 
-2082.32 -1851.59 1702.28 
-2082.02 -1851.53 1702 
-2081.89 -1851.68 1702.03 
-2081.81 -1851.9 1702.16 
-2082.56 -1851.51 1702.42 
-2082.6 -1851.2 1702.21 
-2082.85 -1850.84 1702.03 
-2083.27 -1851.48 1701.48 
-2083.03 -1850.35 1701.67 
-2083.18 -1851.52 1701.31 
-2079.82 -1855.86 1700.82 
-2078.49 -1856.23 1699.71 
-2078.04 -1855.85 1698.99 
-2045.81 -1884.56 1729.47 
-2040.56 -1884.27 1734.8 
-2048.23 -1884.7 1726.67 
-2049.39 -1883.18 1726.02 
-2048.57 -1884.04 1726.59 
-2051.72 -1880.81 1724.79 
-2063.81 -1877.6 1720.93 
-2065.34 -1878.12 1718.43 
-2063.42 -1877.77 1720.63 
-2060.81 -1877.47 1723.92 
-2057.09 -1877.86 1724.43 
-2058.91 -1877.65 1723.34 
-2055.93 -1878.23 1724.8 
-2064.55 -1878.19 1717.27 
-2064.79 -1878.68 1714.93 
-2065.2 -1878.95 1712.41 
-2065.29 -1878.22 1709.76 
-2054.91 -1878.78 1724.11 
-2054.1 -1879.09 1723.64 
-2062.19 -1877.33 1706.16 
-2062.19 -1877.3 1705.27 
-2062.37 -1877.26 1704.35 
-2063.08 -1877.1 1703.47 
-2062.69 -1877.15 1703.74 
-2065.3 -1877.98 1704.15 
-2065.09 -1877.3 1703.79 
-2063.29 -1875.54 1701.11 
-2063.18 -1875.84 1701.34 
-2063.13 -1876.12 1701.67 
-2063.27 -1877.05 1703.05 
-2063.16 -1876.69 1702.52 
-2063.29 -1874.68 1700 
-2063.26 -1874.94 1700.34 
-2063.3 -1875.23 1700.74 
-2077.68 -1855.69 1698.66 
-2078.03 -1853.77 1698.39 
-2072.08 -1860.16 1686.95 
-2072.33 -1859.89 1686.53 
-2062.99 -1866.05 1695.35 
-2063.06 -1865.89 1694.92 
-2062.57 -1865.68 1692.53 
-2063.21 -1864.48 1689.61 
-2062.45 -1865.1 1689.77 
-2064.56 -1863.32 1689.17 
-2065.13 -1862.85 1688.92 
-2065.74 -1862.68 1689.09 
-2063.75 -1863.83 1689.21 
-2069.31 -1861.93 1690.43 
-2068.5 -1862.02 1689.47 
-2070.06 -1861.31 1688.19 
-2067.96 -1861.94 1688.39 
-2070.36 -1861.08 1687.33 
-2070.8 -1860.9 1686.92 
-2071.1 -1860.72 1687.05 
-2071.72 -1860.38 1686.56 
-2071.48 -1860.52 1686.68 
-2071.23 -1860.67 1686.78 
-2061.35 -1867.45 1695.92 
-2062.12 -1866.44 1694.89 
-2061.74 -1866.73 1695.09 
-2061.54 -1867.01 1695.42 
-2061.16 -1867.46 1695.29 
-2061.14 -1867.85 1696.06 
-2063.87 -1869.11 1698.46 
-2062 -1868.34 1696.94 
-2061.35 -1868.06 1696.35 
-2063.14 -1873.09 1698.22 
-2063.3 -1873.46 1698.53 
-2063.15 -1872.71 1698.2 
-2065 -1871.27 1699.84 
-2063.65 -1869.68 1698.37 
-2063.22 -1874.14 1699.09 
-2063.17 -1873.78 1698.66 
-2063.19 -1874.37 1699.53 
-2082.7 -1850.22 1697.74 
-2082.75 -1850.37 1697.94 
-2082.78 -1850.55 1698.02 
-2082.79 -1850.73 1698.07 
-2082.76 -1850.92 1698.11 
-2082.68 -1851.16 1698.11 
-2082.74 -1851.48 1698.56 
-2082.64 -1851.37 1698.26 
-2082.87 -1851.58 1698.85 
-2083.02 -1851.76 1699.38 
-2083.11 -1852.03 1700.06 
-2083.05 -1852.36 1700.42 
-2082.41 -1849.64 1696.97 
-2081.88 -1848.75 1696.55 
-2081.31 -1848.35 1696.98 
-2082.58 -1850.15 1697.29 
-2082.64 -1850.09 1697.5 
-2080.93 -1848.4 1697.32 
-2080.67 -1848.51 1697.19 
-2080.47 -1848.75 1697.36 
-2079.76 -1849.68 1697.14 
-2079.39 -1850.76 1697.7 
-2079.17 -1851.71 1699.11 
-2078.91 -1852.19 1699.15 
-2071.98 -1860.2 1686.43 
-2080.13 -1849.19 1697.61 
-2079.91 -1849.57 1697.65 
-2080.32 -1849 1697.59 
-2071.67 -1860.23 1685.7 
-2071.81 -1860.43 1686.13 
-2071.47 -1860.12 1685.28 
-2060.48 -1863.52 1685.77 
-2059.46 -1864.5 1685.28 
-2058.9 -1864.18 1684.43 
-2058.13 -1865.44 1685.69 
-2056.64 -1866.67 1686.48 
-2056.27 -1866.23 1685.97 
-2056.88 -1867.05 1686.84 
-2056.96 -1864.65 1683.96 
-2055.83 -1865.69 1685.31 
-2056.22 -1865.86 1685.58 
-2056.75 -1864.61 1683.54 
-2070.54 -1859.68 1684.36 
-2071.25 -1860.04 1684.84 
-2070.82 -1859.91 1684.48 
-2067.23 -1859.25 1683.24 
-2069.12 -1859.72 1684.04 
-2070.24 -1859.91 1684.37 
-2069.72 -1859.93 1684.27 
-2067.87 -1859.64 1683.55 
-2066.64 -1859.47 1683.06 
-2065.94 -1859.23 1682.9 
-2064.64 -1859.54 1683.1 
-2064.74 -1859.59 1683.41 
-2065.84 -1859.61 1682.95 
-2062.7 -1860.78 1685.95 
-2062.77 -1860.53 1685.73 
-2062.61 -1861.97 1686.52 
-2063.1 -1862.11 1686.89 
-2063.23 -1861.54 1686.44 
-2061.96 -1862.22 1686.41 
-2062.45 -1862.25 1686.69 
-2061.74 -1862.74 1686.59 
-2063.37 -1860.19 1685.22 
-2063.3 -1860.58 1685.73 
-2063.75 -1859.82 1684.65 
-2064.81 -1859.69 1683.78 
-2081.07 -1854.63 1701.56 
-2081.35 -1853.17 1702.12 
-2081.52 -1852.7 1702.12 
-2080.73 -1852.3 1701.28 
-2081.72 -1852.4 1702.22 
-2082.4 -1851.37 1702.14 
-2082.13 -1851.34 1701.9 
-2081.71 -1851.35 1701.62 
-2081.86 -1851.24 1701.64 
-2081.65 -1851.64 1701.82 
-2081.55 -1851.86 1701.88 
-2082.47 -1851.12 1701.97 
-2082.71 -1850.8 1701.85 
-2083.06 -1851.81 1701.13 
-2083 -1850.24 1701.29 
-2082.85 -1850.37 1701.59 
-2080.36 -1853.99 1701.06 
-2078.68 -1855.81 1699.66 
-2078.69 -1854.34 1699.15 
-2078.32 -1853.94 1698.65 
-2046.8 -1885.2 1727.59 
-2043.69 -1884.85 1730.3 
-2049.05 -1884.56 1725.46 
-2048.06 -1885.31 1725.9 
-2049.96 -1883.05 1724.69 
-2052.2 -1880.83 1723.59 
-2062.8 -1877.85 1720.15 
-2060.55 -1877.57 1723.03 
-2056.42 -1878.08 1723.64 
-2057.32 -1877.84 1723.01 
-2059.58 -1877.66 1722.28 
-2057.87 -1877.72 1721.77 
-2055.66 -1878.46 1723.66 
-2061.23 -1877.68 1718.43 
-2061.97 -1877.81 1719.67 
-2063.8 -1878.14 1716.39 
-2064.69 -1879 1712.76 
-2063.52 -1878.49 1714.76 
-2062.48 -1877.4 1707.8 
-2062.47 -1877.38 1709.08 
-2055.31 -1878.59 1722.39 
-2054.62 -1878.94 1722.36 
-2053.95 -1879.3 1721.93 
-2060.64 -1877.31 1705.57 
-2060.69 -1877.32 1704.24 
-2060.9 -1877.27 1703.34 
-2061.14 -1877.08 1702.77 
-2060.84 -1876.91 1701.99 
-2060.76 -1876.74 1701.31 
-2063.09 -1876.41 1702.01 
-2061.31 -1875.46 1698.96 
-2061.17 -1875.65 1699.19 
-2061.26 -1875.81 1699.7 
-2061.35 -1876.01 1700.22 
-2061.01 -1876.43 1700.88 
-2061.36 -1876.21 1700.62 
-2061.27 -1874.82 1697.8 
-2061.16 -1875.04 1698.05 
-2061.16 -1875.25 1698.42 
-2061.44 -1866.39 1692.32 
-2062.01 -1866.13 1692.85 
-2061.63 -1865.69 1689.77 
-2062.77 -1864.09 1688.51 
-2062.15 -1864.81 1688.92 
-2064.64 -1862.72 1688.36 
-2063.67 -1863.31 1688.78 
-2065.53 -1862.3 1688.34 
-2064.98 -1862.34 1688.03 
-2067.71 -1861.79 1687.66 
-2063.53 -1863.39 1688.32 
-2069.67 -1861.41 1687.57 
-2069.97 -1861.17 1687.06 
-2069.62 -1861.21 1686.8 
-2070.32 -1860.95 1686.54 
-2071 -1860.95 1686.63 
-2071.55 -1860.7 1686.25 
-2071.37 -1860.81 1686.4 
-2060.9 -1867.9 1695.4 
-2060.96 -1866.76 1692.43 
-2060.66 -1867.05 1692.57 
-2060.37 -1867.34 1692.76 
-2060.08 -1867.66 1692.79 
-2059.88 -1867.94 1692.85 
-2059.7 -1868.19 1692.84 
-2060.74 -1868.23 1695.31 
-2060.95 -1868.34 1695.74 
-2061.92 -1868.89 1696.89 
-2061.29 -1868.5 1696.3 
-2061.15 -1873.59 1696.12 
-2060.83 -1872.9 1695.85 
-2061.29 -1873.98 1696.55 
-2063.3 -1871.07 1698.22 
-2061.41 -1871.06 1696.51 
-2061.12 -1869.15 1696.18 
-2061.42 -1874.48 1697.41 
-2061.19 -1874.32 1696.73 
-2082.65 -1850.33 1697.54 
-2082.71 -1850.45 1697.78 
-2082.73 -1850.63 1697.87 
-2082.73 -1850.78 1697.87 
-2082.71 -1850.97 1697.93 
-2082.67 -1851.05 1697.79 
-2082.63 -1851.21 1697.82 
-2082.6 -1851.39 1698 
-2082.59 -1851.59 1698.3 
-2082.68 -1851.7 1698.58 
-2082.82 -1851.83 1699 
-2082.93 -1852.07 1699.66 
-2082.86 -1852.35 1699.91 
-2082.88 -1852.61 1700.35 
-2082.36 -1849.73 1696.85 
-2081.87 -1848.9 1696.45 
-2081.36 -1848.54 1696.85 
-2082.54 -1850.33 1697.13 
-2082.61 -1850.45 1697.38 
-2081.09 -1848.53 1697.26 
-2080.85 -1848.69 1697.86 
-2080.68 -1848.71 1697.65 
-2080.48 -1848.98 1697.79 
-2079.57 -1850.55 1698 
-2079.51 -1851.48 1699.45 
-2079.4 -1851.96 1699.68 
-2079.47 -1851.73 1699.6 
-2079.23 -1852.3 1699.66 
-2080.07 -1849.52 1697.93 
-2080.26 -1849.22 1697.88 
-2079.74 -1850.38 1698.19 
-2071.58 -1860.57 1685.74 
-2071.33 -1860.44 1685.24 
-2060.76 -1863.94 1686.51 
-2058.41 -1865.76 1686.26 
-2058.86 -1865.91 1686.83 
-2057.37 -1867.1 1687.06 
-2056.19 -1866.71 1686.4 
-2056.3 -1867.11 1686.74 
-2056.31 -1867.58 1687.02 
-2055.6 -1866.12 1685.69 
-2055.6 -1866.63 1686.17 
-2056.87 -1867.86 1687.43 
-2056.93 -1867.44 1687.17 
-2070.95 -1860.24 1684.69 
-2070.51 -1860.13 1684.48 
-2068.59 -1859.97 1683.89 
-2070.04 -1860.18 1684.4 
-2069.35 -1860.18 1684.21 
-2067.38 -1859.92 1683.42 
-2066.43 -1859.85 1683.07 
-2066.4 -1860.09 1683.23 
-2063.33 -1860.94 1686.08 
-2063.72 -1862.72 1687.8 
-2063.72 -1862.16 1687.22 
-2063.02 -1862.62 1687.34 
-2063.81 -1861.6 1686.66 
-2062.37 -1862.64 1687 
-2062.07 -1863.18 1687.24 
-2063.97 -1860.42 1685.3 
-2065.42 -1860.21 1684.42 
-2064.01 -1860.81 1685.79 
-2064.99 -1859.9 1684.15 
-2066.65 -1860.26 1683.54 
-2080.78 -1852.62 1701.45 
-2081.33 -1852.1 1701.76 
-2080.7 -1851.93 1701.12 
-2080.08 -1852.07 1700.58 
-2079.91 -1851.48 1700.02 
-2079.84 -1851.74 1700.11 
-2082.2 -1851.1 1701.75 
-2081.95 -1851.02 1701.51 
-2081.68 -1850.96 1701.28 
-2081.04 -1850.56 1700.4 
-2080.77 -1850.37 1699.94 
-2081.42 -1851.34 1701.42 
-2080.72 -1851.12 1700.68 
-2080.62 -1851.29 1700.74 
-2082.32 -1850.9 1701.66 
-2082.59 -1850.69 1701.69 
-2082.88 -1852.57 1700.92 
-2082.74 -1851.89 1700.7 
-2082.79 -1850.13 1701.4 
-2079.21 -1854.02 1699.96 
-2079.64 -1852.36 1700.18 
-2079.32 -1852.51 1699.85 
-2044.15 -1885.39 1728.79 
-2038.06 -1885.48 1732.58 
-2046.51 -1885.45 1726.65 
-2048.89 -1884.96 1724.61 
-2049.75 -1883.95 1723.84 
-2047.57 -1885.35 1725.13 
-2050.67 -1882.82 1723.24 
-2052.57 -1880.75 1722.19 
-2056.87 -1877.98 1722.31 
-2056.08 -1878.28 1722.56 
-2058.64 -1877.61 1721.28 
-2056.7 -1877.46 1718.59 
-2056.98 -1877.36 1718.57 
-2059.6 -1877.46 1715.64 
-2057.52 -1877.32 1718.48 
-2062.35 -1877.47 1710.39 
-2061.64 -1877.43 1711.49 
-2060.1 -1877.35 1707.1 
-2060.39 -1877.21 1708.6 
-2055.06 -1878.26 1718.55 
-2055.55 -1878.01 1718.8 
-2054.63 -1878.55 1718.49 
-2053.76 -1879.3 1718.28 
-2054.22 -1878.9 1718.48 
-2060.05 -1877.42 1704.74 
-2060.13 -1877.34 1703.26 
-2060.42 -1877.16 1702.37 
-2060.06 -1877.12 1701.63 
-2059.95 -1876.99 1700.98 
-2060.09 -1876.72 1700.36 
-2060.46 -1875.52 1698.12 
-2060.5 -1875.87 1698.76 
-2060.52 -1876.15 1699.41 
-2060.57 -1876.35 1700.07 
-2060.61 -1874.89 1696.87 
-2060.24 -1875.26 1697.03 
-2060.13 -1875.53 1697.34 
-2060.54 -1866.12 1688.73 
-2059.92 -1866.99 1689.73 
-2062.81 -1863.33 1687.81 
-2061.85 -1863.85 1687.6 
-2060.6 -1865.44 1687.91 
-2064.24 -1862.52 1687.83 
-2064.63 -1862.12 1687.57 
-2065.43 -1861.97 1687.6 
-2067.51 -1861.7 1686.94 
-2065.14 -1861.79 1687.22 
-2069.41 -1861.12 1686.28 
-2069.95 -1860.95 1686.09 
-2070.68 -1860.97 1686.22 
-2071.16 -1861.04 1686.19 
-2071.54 -1860.93 1686 
-2059.55 -1868.49 1693.08 
-2059.41 -1867.48 1689.71 
-2058.91 -1868 1689.53 
-2058.67 -1868.37 1689.86 
-2058.28 -1868.87 1689.72 
-2058.27 -1869.16 1690.41 
-2059.25 -1869.65 1693.48 
-2059.35 -1869.03 1693.22 
-2060.68 -1868.78 1695.5 
-2060.62 -1874.25 1695.75 
-2060.22 -1873.65 1695.11 
-2060.49 -1871 1695.63 
-2059.79 -1871.37 1694.69 
-2060.32 -1874.71 1696.11 
-2082.67 -1850.58 1697.62 
-2082.68 -1850.82 1697.68 
-2082.64 -1850.91 1697.5 
-2082.62 -1851.12 1697.56 
-2082.57 -1851.36 1697.71 
-2082.54 -1851.6 1698.03 
-2082.52 -1851.81 1698.3 
-2082.64 -1851.92 1698.67 
-2082.74 -1852.15 1699.27 
-2082.67 -1852.5 1699.7 
-2082.28 -1849.78 1696.71 
-2081.86 -1849.09 1696.37 
-2081.44 -1848.74 1696.7 
-2082.38 -1850.22 1696.79 
-2082.54 -1850.55 1697.13 
-2082.62 -1850.67 1697.42 
-2081.33 -1848.83 1696.81 
-2081.07 -1848.56 1697.76 
-2080.83 -1848.93 1698.21 
-2080.64 -1849.02 1698.09 
-2080.42 -1849.2 1698.09 
-2079.63 -1851.29 1699.49 
-2079.5 -1851.3 1699.32 
-2079.68 -1851.94 1700.03 
-2079.72 -1851.59 1699.83 
-2080.24 -1849.48 1698.19 
-2079.92 -1850.21 1698.38 
-2079.73 -1851.06 1699.46 
-2071.32 -1860.79 1685.5 
-2070.92 -1860.56 1684.92 
-2060.89 -1864.45 1687.19 
-2059.32 -1865.88 1687.24 
-2057.85 -1867.32 1687.51 
-2058.23 -1867.46 1687.93 
-2057.28 -1867.69 1687.47 
-2056 -1867.16 1686.67 
-2056.47 -1868.2 1687.49 
-2056.08 -1867.93 1687.18 
-2056.02 -1867.55 1686.91 
-2055.48 -1867.07 1686.43 
-2056.84 -1868.53 1687.86 
-2057.25 -1868.18 1687.79 
-2070.46 -1860.4 1684.54 
-2068.4 -1860.21 1683.8 
-2069.68 -1860.43 1684.35 
-2068.75 -1860.43 1684.06 
-2067.39 -1860.18 1683.48 
-2064.19 -1861.14 1686.18 
-2064.23 -1861.97 1687.24 
-2064.46 -1861.42 1686.57 
-2065.99 -1860.49 1684.68 
-2067.65 -1860.42 1683.65 
-2067.46 -1860.56 1683.89 
-2066.58 -1860.74 1684.91 
-2080.61 -1851.56 1700.9 
-2080.09 -1851.25 1700.11 
-2082.01 -1850.75 1701.33 
-2081.75 -1850.74 1701.14 
-2081.14 -1850.32 1700.27 
-2080.77 -1849.4 1698.9 
-2080.78 -1850.97 1700.65 
-2080.35 -1850.15 1699.24 
-2080.79 -1849.19 1698.59 
-2080.62 -1849.28 1698.51 
-2080.11 -1850.12 1698.77 
-2079.88 -1850.85 1699.51 
-2082.51 -1850.52 1701.52 
-2082.23 -1850.62 1701.4 
-2082.6 -1851.7 1700.55 
-2082.64 -1850.07 1701.27 
-2044.52 -1885.56 1727.61 
-2039.55 -1885.79 1730.01 
-2046.29 -1885.57 1725.59 
-2048.65 -1884.77 1723.92 
-2049.7 -1883.93 1722.98 
-2050.79 -1883.31 1722.4 
-2047.06 -1885.02 1724.24 
-2051.44 -1882.26 1722 
-2052.46 -1880.87 1718.65 
-2056.36 -1877.56 1718.36 
-2055.99 -1877.81 1719.14 
-2058.32 -1877.34 1711.25 
-2057.87 -1877.51 1710.99 
-2058.96 -1877.29 1711.93 
-2059.44 -1877.55 1706.66 
-2055.38 -1877.94 1714.11 
-2054.96 -1878.32 1713.48 
-2055.85 -1877.57 1714.66 
-2054.47 -1878.55 1714.57 
-2053.97 -1878.91 1714.7 
-2052.36 -1880.56 1714.54 
-2059.44 -1877.64 1704.91 
-2059.56 -1877.58 1703.48 
-2059.57 -1877.49 1702.2 
-2059.29 -1877.58 1701.35 
-2059.34 -1877.27 1700.46 
-2059.83 -1876.64 1699.41 
-2059.37 -1877.06 1699.76 
-2059.91 -1876.09 1698.13 
-2059.61 -1875.96 1697.07 
-2059.47 -1876.23 1697.38 
-2059.82 -1876.4 1698.67 
-2059.68 -1875.36 1696.22 
-2059.46 -1875.73 1696.39 
-2059.13 -1876.12 1696.32 
-2059.3 -1867.33 1688.82 
-2058.78 -1867.34 1688.25 
-2064.77 -1861.62 1686.92 
-2067.3 -1861.58 1686.29 
-2069.12 -1861.07 1685.79 
-2067.11 -1861.33 1685.91 
-2069.73 -1860.95 1685.67 
-2070.41 -1861 1685.82 
-2071.09 -1861.04 1685.77 
-2058.03 -1869.75 1690.88 
-2058.68 -1867.87 1688.66 
-2058.23 -1868.49 1688.83 
-2057.91 -1869.12 1689.23 
-2057.79 -1869.66 1690.04 
-2058.94 -1871.84 1693.49 
-2057.94 -1870.7 1691.36 
-2058.84 -1874.82 1694.12 
-2058.58 -1875.57 1694.34 
-2058.21 -1876.32 1694.27 
-2082.57 -1850.77 1697.23 
-2082.58 -1851 1697.31 
-2082.56 -1851.26 1697.43 
-2082.49 -1851.48 1697.47 
-2082.51 -1851.55 1697.75 
-2082.48 -1851.78 1697.98 
-2082.48 -1852.03 1698.43 
-2082.42 -1852 1698.17 
-2082.56 -1852.26 1698.99 
-2082.43 -1852.52 1699.42 
-2081.85 -1849.34 1696.37 
-2082.47 -1850.62 1696.89 
-2081.27 -1848.75 1697.33 
-2081.01 -1848.77 1698.17 
-2080.44 -1849.36 1698.37 
-2070.9 -1860.89 1685.22 
-2070.55 -1860.73 1684.74 
-2057.64 -1867.87 1687.87 
-2058.07 -1867.91 1688.22 
-2055.85 -1868.25 1687.28 
-2055.59 -1867.55 1686.76 
-2055.51 -1867.92 1686.96 
-2056.22 -1868.31 1687.46 
-2056.1 -1868.66 1687.58 
-2056.48 -1868.88 1687.91 
-2056.74 -1869.13 1688.22 
-2057.14 -1868.85 1688.26 
-2057.53 -1868.48 1688.24 
-2070.05 -1860.62 1684.49 
-2068.17 -1860.36 1683.81 
-2069.17 -1860.71 1684.23 
-2068.4 -1860.61 1683.94 
-2066.82 -1860.92 1685.23 
-2066.95 -1861.11 1685.57 
-2068.19 -1860.76 1684.11 
-2068.77 -1860.97 1684.37 
-2081.79 -1850.47 1700.95 
-2082.05 -1850.39 1701.09 
-2081.44 -1850.43 1700.65 
-2081.11 -1849.67 1699.55 
-2080.91 -1849.34 1698.95 
-2080.96 -1849.03 1698.54 
-2082.35 -1850.35 1701.29 
-2082.45 -1851.65 1700.39 
-2082.48 -1850.01 1701.14 
-2039.84 -1886.06 1728.09 
-2044.87 -1885.56 1726.11 
-2046.1 -1885.28 1724.48 
-2047.85 -1884.06 1720.93 
-2048.96 -1883.5 1720.36 
-2049.81 -1883.21 1719.95 
-2050.68 -1882.86 1719.73 
-2051.28 -1882.3 1719.44 
-2046.68 -1884.31 1721.47 
-2051.05 -1881.87 1716.01 
-2057.34 -1877.74 1710.59 
-2058.82 -1877.8 1706.27 
-2055.94 -1878.77 1708.54 
-2056.41 -1878.42 1709.02 
-2054.5 -1878.81 1712.31 
-2055.67 -1879.01 1708 
-2056.93 -1878.09 1709.53 
-2053.89 -1879.2 1712.63 
-2052.41 -1880.8 1711.87 
-2050.69 -1882.34 1714.28 
-2050.87 -1882.45 1711.18 
-2058.91 -1877.84 1704.17 
-2058.97 -1877.83 1702.62 
-2058.84 -1877.74 1700.6 
-2058.64 -1878.02 1701.61 
-2058.66 -1877.71 1699.62 
-2059.37 -1876.8 1698.76 
-2059.05 -1877.17 1699.06 
-2059.3 -1876.55 1697.8 
-2058.85 -1876.51 1696.41 
-2058.89 -1876.76 1697.1 
-2059.13 -1876.85 1698.08 
-2058 -1877.2 1694.39 
-2057.76 -1877.67 1694.55 
-2057.61 -1877.94 1694.93 
-2069.11 -1861 1685.36 
-2069.32 -1861.28 1685.17 
-2069.81 -1860.93 1685.28 
-2070.18 -1861.01 1685.48 
-2057.61 -1870.6 1690.64 
-2057.95 -1868.31 1688.45 
-2057.72 -1868.88 1688.69 
-2057.54 -1869.59 1689.28 
-2057.34 -1870.56 1689.91 
-2057.77 -1872.95 1691.88 
-2057.48 -1875.7 1692.6 
-2057.26 -1876.81 1692.88 
-2057.08 -1878.35 1693.26 
-2082.52 -1850.87 1697.06 
-2082.54 -1851.12 1697.15 
-2082.5 -1851.32 1697.21 
-2082.45 -1851.46 1697.11 
-2082.43 -1851.64 1697.36 
-2082.45 -1851.71 1697.67 
-2082.37 -1851.95 1697.92 
-2082.33 -1852.26 1698.67 
-2082.17 -1852.22 1698.41 
-2082.19 -1852.5 1699.13 
-2081.82 -1849.47 1696.33 
-2082.41 -1850.73 1696.74 
-2081.17 -1848.67 1698.12 
-2081.4 -1848.93 1697.22 
-2070.14 -1861.09 1684.99 
-2069.8 -1861.04 1684.58 
-2053.82 -1867.06 1686.02 
-2055.22 -1868.39 1687 
-2055.7 -1869.2 1687.49 
-2055.49 -1868.72 1687.27 
-2056.05 -1869.51 1687.81 
-2056.92 -1869.5 1688.53 
-2056.34 -1869.71 1688.12 
-2057.35 -1869.27 1688.69 
-2069.2 -1861.32 1684.87 
-2081.84 -1850.17 1700.77 
-2081.55 -1850.22 1700.58 
-2082.15 -1850.09 1700.96 
-2081.35 -1849.72 1699.81 
-2081.21 -1849.08 1698.89 
-2081.1 -1849.12 1698.82 
-2081.11 -1848.93 1698.54 
-2082.32 -1851.53 1700.26 
-2082.19 -1851.44 1700.12 
-2082.35 -1849.82 1700.92 
-2040.53 -1886.04 1726.21 
-2045.11 -1885.6 1724.7 
-2041.51 -1885.79 1723.41 
-2045.62 -1884.74 1721.86 
-2046.9 -1884.2 1717.03 
-2048.58 -1883.57 1715.75 
-2049.53 -1882.91 1716.4 
-2050.39 -1882.36 1716.4 
-2045.21 -1884.63 1718.61 
-2058.25 -1878.12 1705.55 
-2057.63 -1878.62 1704.56 
-2054.89 -1879.65 1707.71 
-2056.72 -1879.36 1703.12 
-2056.93 -1879.15 1703.94 
-2053.18 -1880.96 1708.09 
-2050.09 -1882.74 1714.48 
-2050.34 -1883 1710.56 
-2052.09 -1882.48 1705.52 
-2058.4 -1878.13 1703.75 
-2058.23 -1878.29 1702.72 
-2058.33 -1878.15 1700.64 
-2058.1 -1878.4 1701.78 
-2058.5 -1877.66 1698.95 
-2058.1 -1878.1 1699.49 
-2058.09 -1878.23 1700.2 
-2058.91 -1877.14 1698.38 
-2058.49 -1877.54 1698.36 
-2058.72 -1877.09 1697.36 
-2058.52 -1876.94 1696.39 
-2057.49 -1878.17 1695.37 
-2058.32 -1877.32 1696.63 
-2058.53 -1877.37 1697.71 
-2056.75 -1879.05 1693.61 
-2056.63 -1879.33 1694.01 
-2056.54 -1879.53 1694.34 
-2057.34 -1873 1691.25 
-2057.09 -1870.18 1689.14 
-2056.54 -1872.63 1689.95 
-2056.77 -1873.09 1690.49 
-2056.95 -1876.86 1692.45 
-2057.01 -1875.8 1692.06 
-2056.7 -1878.32 1692.87 
-2056.43 -1879.04 1693.28 
-2082.48 -1851.01 1696.92 
-2082.47 -1851.22 1696.91 
-2082.42 -1851.4 1696.82 
-2082.37 -1851.63 1697.08 
-2082.34 -1851.87 1697.63 
-2082.25 -1851.84 1697.44 
-2082.16 -1852.1 1698.05 
-2081.97 -1852.32 1698.43 
-2081.96 -1852.52 1698.94 
-2081.83 -1849.62 1696.27 
-2082.38 -1850.91 1696.65 
-2081.3 -1848.71 1698.07 
-2081.5 -1849.05 1697.29 
-2055.07 -1868.93 1687.09 
-2053.43 -1867.86 1686.14 
-2054.4 -1870.43 1687.07 
-2054.82 -1870.93 1687.49 
-2055.13 -1871.44 1687.92 
-2055.46 -1871.71 1688.38 
-2056.73 -1870.02 1688.64 
-2055.8 -1872.17 1688.96 
-2081.64 -1849.92 1700.37 
-2081.87 -1849.88 1700.58 
-2082.08 -1849.79 1700.69 
-2081.57 -1849.61 1699.9 
-2081.32 -1849.13 1699.08 
-2081.45 -1848.85 1698.43 
-2081.34 -1848.78 1698.37 
-2082.06 -1851.24 1700 
-2082.19 -1849.52 1700.56 
-2044 -1885.25 1722.48 
-2043.82 -1884.96 1718.93 
-2041.23 -1885.84 1715.81 
-2047.94 -1884.3 1711.86 
-2046.42 -1884.74 1713.29 
-2049.53 -1883.38 1712.11 
-2048.96 -1883.88 1710.84 
-2044.65 -1885.14 1714.28 
-2057.55 -1878.74 1703.57 
-2055.07 -1880.72 1702.36 
-2057.56 -1878.77 1702.67 
-2056.94 -1879.3 1701.94 
-2051.68 -1883.02 1704.28 
-2053.82 -1882.02 1700.69 
-2057.92 -1878.51 1701.1 
-2057.52 -1878.82 1701.71 
-2058.08 -1878.04 1698.8 
-2057.67 -1878.54 1699.41 
-2057.67 -1878.61 1700.14 
-2057.59 -1878.76 1700.82 
-2058.14 -1877.82 1698.02 
-2058.16 -1877.63 1697.16 
-2057.37 -1878.48 1695.8 
-2056.47 -1879.65 1694.66 
-2057.22 -1878.79 1696.16 
-2056.47 -1879.79 1693.78 
-2056.81 -1880.01 1693.91 
-2057.06 -1880.4 1694.15 
-2056.09 -1872.36 1689.37 
-2056.13 -1875.91 1691.1 
-2056.55 -1876.19 1691.7 
-2056.48 -1877.9 1692.37 
-2056.2 -1879.2 1693 
-2056.17 -1880.03 1693.59 
-2082.38 -1851.14 1696.61 
-2082.34 -1851.3 1696.51 
-2082.31 -1851.61 1696.87 
-2082.13 -1851.85 1697.31 
-2082.07 -1852.07 1697.86 
-2081.96 -1852.07 1697.72 
-2081.86 -1852.31 1698.26 
-2081.74 -1852.53 1698.73 
-2081.86 -1849.8 1696.27 
-2081.57 -1849.12 1697.46 
-2053.19 -1868.17 1686.13 
-2052.57 -1869.19 1686.07 
-2052.49 -1870.38 1686.14 
-2054 -1872.37 1687.49 
-2054.47 -1873.99 1688.57 
-2054.9 -1874.51 1689.22 
-2055.46 -1875.51 1690.27 
-2081.78 -1849.59 1700.14 
-2081.97 -1849.49 1700.28 
-2081.52 -1849.17 1699.31 
-2081.74 -1849.28 1699.7 
-2081.52 -1848.91 1698.61 
-2081.66 -1849.57 1697.24 
-2081.93 -1851.07 1699.81 
-2082.1 -1849.31 1700.08 
-2046.45 -1885.07 1707.38 
-2040.27 -1886.2 1712.29 
-2049.56 -1884.2 1704.28 
-2051.26 -1883.64 1701.37 
-2048.39 -1884.57 1705.27 
-2051.5 -1883.4 1702.62 
-2055.55 -1880.46 1701.27 
-2054.55 -1881.59 1699.53 
-2056.99 -1879.29 1700.88 
-2053.89 -1882.28 1699.17 
-2054.33 -1881.97 1698.66 
-2057.72 -1878.38 1698.65 
-2056.54 -1879.83 1697.5 
-2057.22 -1879.02 1699.48 
-2057.12 -1879.19 1700.02 
-2057.84 -1878.11 1697.85 
-2057.05 -1879.07 1696.47 
-2056.35 -1879.92 1694.9 
-2056.72 -1880.38 1694.47 
-2056.25 -1880.29 1695.11 
-2056.86 -1880.79 1693.8 
-2057.1 -1881.1 1693.64 
-2057.89 -1881.27 1694.07 
-2057.55 -1881.07 1694.35 
-2055.88 -1877.4 1691.57 
-2056.22 -1877.82 1692.03 
-2056.1 -1879.12 1692.67 
-2055.95 -1880.09 1693.39 
-2056.33 -1881.09 1693.6 
-2081.85 -1850.09 1696.21 
-2082.21 -1851.55 1696.57 
-2081.74 -1850.54 1695.99 
-2082.04 -1851.81 1697.08 
-2081.85 -1852.05 1697.53 
-2081.75 -1852.3 1698.11 
-2081.65 -1852.28 1697.92 
-2081.59 -1852.53 1698.55 
-2052.4 -1870.96 1686.23 
-2054.16 -1874.06 1688.36 
-2055.25 -1876.94 1690.81 
-2054.82 -1877.2 1690.67 
-2081.92 -1849.19 1699.83 
-2081.56 -1850.03 1698.6 
-2081.56 -1849.99 1698.01 
-2081.52 -1850.64 1698.72 
-2081.6 -1850.23 1697.13 
-2081.59 -1851.75 1699.3 
-2081.54 -1850.89 1699.08 
-2045.26 -1885.19 1705.98 
-2037.53 -1885.99 1709.51 
-2047.7 -1884.71 1703.22 
-2050.09 -1884.11 1699.92 
-2051.21 -1883.68 1699.73 
-2052.55 -1883.23 1697.65 
-2053.15 -1882.97 1697.87 
-2053.62 -1882.61 1698.48 
-2055.78 -1880.36 1700.36 
-2054.99 -1881.34 1698.61 
-2054.69 -1881.73 1698.11 
-2055.89 -1880.37 1699.32 
-2054.27 -1882.17 1697.83 
-2056.71 -1879.63 1696.95 
-2056.88 -1879.37 1696.72 
-2056.27 -1880.09 1697.85 
-2056 -1880.79 1695.64 
-2055.58 -1881.13 1696.01 
-2055.52 -1881 1697.04 
-2056.04 -1880.31 1698.51 
-2056.14 -1880.35 1695.47 
-2056.84 -1880.73 1694.71 
-2056.92 -1881.07 1694.95 
-2056.48 -1880.99 1695.26 
-2057.55 -1881.78 1693.89 
-2056.58 -1882.22 1693.61 
-2057.81 -1881.79 1694.22 
-2057.69 -1882.44 1693.84 
-2057.57 -1881.42 1694.57 
-2055.65 -1878.93 1691.98 
-2055.78 -1879.47 1692.45 
-2055.68 -1879.98 1692.92 
-2055.85 -1880.99 1693.42 
-2056.25 -1882.14 1693.5 
-2081.62 -1850.84 1695.86 
-2081.93 -1851.65 1696.39 
-2081.74 -1851.93 1696.95 
-2081.51 -1852.19 1697.41 
-2081.49 -1852.49 1698.33 
-2081.24 -1852.39 1697.87 
-2050.82 -1869.99 1685.26 
-2052.61 -1871.56 1686.5 
-2053.85 -1873.48 1687.89 
-2054.22 -1876.3 1689.88 
-2055.24 -1879.39 1691.96 
-2054.79 -1879.08 1691.64 
-2081.28 -1851.9 1697.46 
-2081.37 -1851.46 1697.03 
-2081.44 -1851.04 1696.51 
-2081.27 -1852.45 1698.68 
-2041.39 -1884.25 1699.73 
-2041.06 -1884.29 1698.25 
-2040.58 -1884.42 1699.85 
-2043.58 -1884.76 1703.39 
-2040.2 -1884.7 1703.42 
-2042.53 -1884.25 1699.75 
-2042.14 -1884.11 1698.17 
-2048.75 -1884.43 1699.85 
-2049.92 -1884.06 1698.53 
-2051.26 -1883.67 1697.25 
-2052.05 -1883.48 1697.14 
-2053.74 -1882.91 1696.51 
-2053.47 -1883.21 1695.91 
-2054.01 -1882.54 1697.2 
-2055.25 -1881.19 1697.76 
-2054.99 -1881.59 1697.34 
-2054.78 -1881.89 1697.07 
-2054.58 -1882.14 1696.67 
-2054.6 -1881.97 1697.36 
-2055.9 -1881.33 1695.35 
-2055.33 -1881.67 1695.53 
-2055.26 -1881.41 1696.62 
-2056.97 -1881.59 1694.75 
-2056.46 -1881.49 1695.02 
-2056.83 -1882.58 1693.89 
-2055.79 -1882.67 1693.61 
-2056.88 -1881.91 1694.48 
-2056.18 -1882.11 1694.43 
-2055.72 -1882.52 1694.07 
-2055.3 -1880.19 1692.51 
-2055.51 -1880.46 1692.98 
-2056.04 -1881.81 1693.41 
-2055.79 -1882.53 1693.51 
-2081.47 -1851.12 1695.69 
-2081.64 -1851.74 1696.2 
-2081.44 -1852 1696.7 
-2081.18 -1852.2 1697.11 
-2038.36 -1885.94 1688.96 
-2039.25 -1887.58 1690.84 
-2038.61 -1886.38 1690.69 
-2038.61 -1886.85 1689.74 
-2037.74 -1886.29 1688.6 
-2038.81 -1887.27 1690.18 
-2038.84 -1888.11 1690.12 
-2038.96 -1888.02 1690.51 
-2038.02 -1887.56 1689.95 
-2037.41 -1886.63 1688.61 
-2037.88 -1887.8 1689.26 
-2036.99 -1886.81 1688.13 
-2037.88 -1887.9 1688.79 
-2036.99 -1887.81 1688.64 
-2053.71 -1873.8 1688 
-2052.56 -1872.07 1686.76 
-2053.98 -1877.2 1690.36 
-2054.48 -1879.55 1691.74 
-2054.93 -1880.09 1692.2 
-2081.23 -1851.74 1696.75 
-2081.31 -1851.33 1696.28 
-2041.89 -1884.02 1697.2 
-2041.4 -1884.17 1696.84 
-2040.49 -1884.52 1697.8 
-2040.33 -1884.69 1696.87 
-2039.6 -1884.82 1698.81 
-2041.05 -1884.39 1696.29 
-2045.79 -1884.41 1700.14 
-2043.8 -1884.2 1698.92 
-2043.05 -1884.12 1698.32 
-2043.23 -1883.97 1697.37 
-2042.65 -1883.85 1696.78 
-2050.08 -1883.86 1697.17 
