5.79478 -3241.6 288.544
7.17912 -3238.66 287.956
11.2668 -3231.1 274.799
10.6343 -3233.03 278.205
4.30776 -3244.88 290.012
3.40631 -3248.62 289.5
6.37772 -3241.03 287.621
8.23988 -3238.23 285.39
7.65443 -3238.82 286.505
8.49145 -3237.2 284.921
11.2068 -3233.61 275.096
11.2006 -3234.18 274.055
11.2435 -3232.95 272.792
10.6727 -3234.65 277.366
9.57499 -3235.98 281.371
10.2467 -3235.86 279.46
4.74203 -3244.76 288.745
4.43162 -3247.37 287.906
2.63199 -3250 289.48
3.44956 -3249.42 288.036
4.44709 -3248.09 287.289
6.93498 -3240.92 286.482
5.22628 -3244.8 287.632
8.11886 -3240.53 284.251
9.03634 -3239.51 282.683
9.0202 -3240.57 282.413
9.23567 -3237.2 282.164
11.0166 -3237.33 276.032
11.0757 -3238.19 275.529
11.0021 -3235.43 271.865
11.0294 -3239.1 274.939
11.0633 -3234.31 270.24
10.767 -3236.64 277.045
10.6665 -3238.64 277.764
9.6565 -3238.1 280.831
2.69614 -3251.2 287.77
2.01954 -3252 288.45
4.61842 -3248.36 286.745
3.02965 -3250.95 287.369
5.41276 -3246.45 286.376
1.51468 -3253.44 288.204
6.69409 -3242.61 286.08
8.79274 -3242.35 282.376
7.91413 -3244.38 283.262
10.1236 -3243.28 279.573
10.0241 -3244.64 279.688
10.8827 -3243.36 277.097
10.8317 -3242.88 277.466
10.9108 -3243.59 276.723
10.7645 -3237.44 271.1
10.7404 -3235.62 269.084
10.8957 -3239.88 274.097
10.9027 -3243.89 276.359
10.3129 -3241.28 278.934
10.6675 -3244.14 278.158
2.17544 -3253.28 287.07
4.44366 -3249.35 286.377
5.23214 -3248.31 285.707
3.1856 -3251.3 286.884
6.64702 -3245.48 284.89
1.01774 -3255.22 286.746
9.76499 -3245.47 280.033
9.12669 -3246.39 280.721
8.14357 -3247.97 281.798
10.6093 -3246.01 278.464
10.2805 -3246.8 278.974
10.8216 -3245.8 277.74
10.8616 -3245.95 277.43
10.8507 -3246.05 277.109
10.4733 -3238.14 269.974
10.6872 -3241.68 273.933
9.70354 -3238.44 267.102
10.8211 -3244.16 275.959
10.7957 -3246.21 276.839
10.7746 -3246.26 278.036
2.95862 -3253.19 285.915
1.84876 -3254.52 286.134
5.30284 -3250.36 284.886
3.34263 -3251.72 286.396
4.81173 -3250.92 285.191
6.37066 -3248.45 284.207
5.68129 -3249.46 284.766
0.724481 -3257.33 284.549
9.8283 -3247.26 279.558
8.71477 -3248.51 280.828
6.67488 -3249.8 283.423
10.387 -3246.98 278.512
10.1364 -3247.37 279.114
10.8442 -3246.75 277.819
10.8245 -3246.74 277.519
10.7295 -3246.99 277.33
9.5392 -3240.42 268.596
9.82932 -3242.68 271.66
10.4787 -3245.03 275.358
10.7024 -3246.01 276.422
8.51768 -3243.89 267.279
8.62772 -3242.89 266.36
10.6572 -3246.91 276.903
10.5951 -3247.05 278.23
4.25625 -3252.53 284.826
4.21448 -3253.1 284.394
3.96089 -3253.77 284.088
2.87212 -3255.18 283.985
6.2505 -3250.9 283.48
4.36899 -3251.86 285.126
5.76654 -3251.79 283.529
3.92062 -3254.76 282.984
0.83637 -3258.13 283.224
-0.714866 -3260.73 281.618
9.72814 -3247.97 279.531
7.94853 -3249.52 281.515
10.3498 -3247.59 278.718
9.9799 -3248.1 279.176
10.6979 -3247.35 277.786
10.5942 -3247.4 278.174
10.5643 -3247.65 277.567
10.537 -3247.53 277.218
8.70403 -3245.04 269.113
9.96878 -3246 274.431
8.78363 -3247.37 271.309
10.4221 -3246.94 276.246
7.71554 -3249.5 268.496
7.56476 -3249.64 267.645
8.00828 -3245.84 265.974
10.1509 -3247.67 276.585
5.29496 -3252.54 283.547
5.36471 -3253.21 282.844
5.65908 -3252.39 283.16
6.80395 -3250.96 282.431
3.94778 -3255.05 282.417
5.41594 -3253.53 282.251
1.91139 -3258.54 280.08
0.0183202 -3261.9 278.244
-1.16326 -3263.06 278.71
-3.63843 -3264.24 280.813
9.07067 -3249.01 280.066
10.4169 -3247.9 278.476
10.0723 -3248.36 278.892
9.15762 -3249.22 279.745
10.5122 -3247.77 278.112
10.4538 -3248 277.866
10.3336 -3248.14 277.403
10.2324 -3248.49 277.664
10.0406 -3248.28 277.117
9.6016 -3247.38 274.565
8.58376 -3248.6 272.449
7.92782 -3250.22 270.143
7.32221 -3251 267.581
7.29514 -3252.31 269.183
7.70947 -3247.4 265.476
7.32141 -3251.02 267.012
9.28808 -3248.46 274.879
9.21844 -3249.08 275.315
6.70452 -3251.61 281.986
6.631 -3252.11 281.561
4.27356 -3255 281.661
6.69376 -3252.31 281.024
2.74234 -3257.96 279.005
1.05133 -3260.95 277.471
-5.88505 -3266.39 280.95
0.702027 -3262.32 276.216
-0.458865 -3263.65 276.668
-3.28777 -3264.86 279.202
-2.42334 -3265.26 277.356
10.356 -3248.3 278.222
10.032 -3248.66 278.674
9.20724 -3249.39 279.41
-7.58784 -3268.64 280.551
10.1366 -3248.68 277.998
9.85481 -3248.9 277.133
9.70188 -3249.11 277.702
9.03522 -3249.67 275.452
7.93034 -3250.39 271.28
8.29023 -3249.74 273.118
7.12141 -3253.3 268.305
7.0299 -3253.2 269.631
7.40071 -3251.9 270.952
7.95828 -3248.11 264.066
7.2561 -3251.96 266.662
8.35448 -3247.51 262.15
8.45309 -3247.47 260.579
8.42565 -3247.7 261.361
8.33562 -3247.59 259.638
9.09332 -3249.71 279.15
4.50389 -3254.95 280.936
6.61944 -3252.52 280.649
8.87937 -3250.14 278.943
5.07611 -3254.49 280.077
3.58121 -3257.15 277.811
2.79465 -3258.97 275.832
2.59121 -3259.67 275.225
-7.2163 -3268.82 279.414
-6.30667 -3268.31 278.709
2.45898 -3260.7 274.501
0.659511 -3263.14 275.305
-0.651723 -3264.42 276.067
-2.17983 -3265.6 276.631
-5.78725 -3268.89 277.288
9.81594 -3249 278.371
-8.28005 -3269.25 281.338
-7.91622 -3270.06 278.841
-9.43387 -3271.03 279.876
9.28624 -3249.74 278.221
8.72394 -3250.21 275.731
9.3767 -3249.52 277.206
9.01162 -3250 277.894
7.88233 -3250.83 273.838
7.75932 -3250.82 272.546
6.78634 -3255.05 267.946
6.79793 -3254.34 269.081
6.74334 -3254 270.089
7.09595 -3252.94 270.982
7.2889 -3251.82 272.531
7.80808 -3251.23 264.428
8.15627 -3251.05 262.887
7.14751 -3253.48 266.6
8.27429 -3250.85 261.985
7.82724 -3247.29 257.531
8.22898 -3250.68 260.403
8.27783 -3250.7 261.197
7.94325 -3251 259.178
7.73972 -3251.46 279.351
7.27587 -3252.1 278.653
5.40167 -3254.56 277.508
4.39784 -3256.43 276.422
4.18794 -3257.4 274.686
4.30382 -3257.66 273.72
4.10965 -3258.73 272.939
-7.18873 -3270.03 277.652
4.00407 -3259.89 272.176
2.53725 -3262.33 273.092
1.25704 -3264.61 273.454
0.151011 -3265.34 274.36
-0.829494 -3265.99 275.022
-1.74182 -3267.14 274.965
-4.32935 -3268.69 275.814
-5.7727 -3270.18 275.705
-8.82709 -3271.17 278.255
-8.55486 -3271.72 276.548
-11.0022 -3274.65 275.155
8.25624 -3250.85 275.931
7.66716 -3251.56 274.559
7.52162 -3251.63 273.604
7.61087 -3251.66 276.647
7.23651 -3252.21 277.731
7.31417 -3255.06 265.622
6.30037 -3256.55 269.043
6.68601 -3257.8 267.194
6.35147 -3255.36 269.732
5.5586 -3255.52 272.005
5.50214 -3255.23 272.733
5.60788 -3254.78 273.32
5.78005 -3254.29 273.959
5.96901 -3253.85 274.769
7.79731 -3254.87 264.067
8.00467 -3254.42 263.137
7.95786 -3254.71 262.345
6.57141 -3248.88 253.777
5.93608 -3249.04 252.015
7.33771 -3251.83 257.174
8.06988 -3253.64 261.347
7.78701 -3254.23 259.725
7.33437 -3254.99 258.04
6.35545 -3253.27 275.673
5.27326 -3256.61 272.001
5.09324 -3258.33 271.219
-7.03257 -3270.64 276.467
5.21899 -3260.85 269.849
4.68348 -3261.36 270.487
4.11137 -3263.25 270.347
3.18583 -3265.56 270.307
2.00457 -3267.01 270.941
1.07713 -3267.96 271.382
0.706181 -3268.84 271.127
-2.33116 -3268.64 274.107
-2.79128 -3269.99 273.1
-5.00461 -3271.2 273.682
-10.341 -3274.5 274.106
-8.72179 -3273.14 274.153
-8.90924 -3275.24 270.196
-10.2938 -3275.95 271.102
7.03698 -3259.03 265.51
6.39938 -3261.15 267.292
6.09221 -3260.74 268.199
5.74429 -3257.24 270.377
6.72797 -3261.24 266.019
6.61162 -3261.49 266.546
7.30444 -3258.09 264.574
7.3004 -3258.32 263.94
7.43864 -3257.97 262.981
4.71532 -3249.91 249.959
6.73517 -3253.05 255.624
4.91296 -3252.51 251.625
6.06458 -3252.96 253.962
7.54004 -3256.48 261.184
7.19882 -3257.17 259.354
6.77458 -3257.97 258.228
6.73529 -3256.02 256.847
5.67783 -3260.52 269.14
-7.75911 -3272.17 274.663
5.73208 -3263.45 267.82
4.94219 -3264.82 268.518
3.82447 -3266.9 268.921
3.13179 -3267.67 269.304
2.52795 -3268.53 269.356
0.662494 -3269.42 270.626
2.02343 -3269.18 269.337
-0.14714 -3269.95 270.735
-5.96543 -3271.95 273.547
-1.19965 -3270.71 270.688
-9.23225 -3275.88 269.367
-7.981 -3274.56 270.265
-7.8579 -3275.44 268.117
-8.5417 -3276.21 267.527
6.88927 -3261.19 265.47
6.81476 -3262.3 266.282
6.42964 -3262.6 266.963
7.16949 -3261.88 265.824
6.93264 -3261.15 265.001
6.92177 -3261.24 264.598
7.04625 -3260.42 263.229
7.00776 -3261.29 264.231
1.94522 -3252.96 246.016
2.52234 -3254.18 248.166
3.88661 -3256.47 251.766
5.86908 -3255.93 254.867
6.71758 -3260.84 262.246
6.40789 -3260.34 259.26
5.98481 -3260.64 258.029
5.767 -3262.26 258.928
6.0429 -3258.47 256.685
-6.57632 -3272.69 272.863
-7.93658 -3273.4 272.669
5.07559 -3265.23 267.964
6.22159 -3263.14 267.079
4.15427 -3267 268.385
3.64834 -3267.73 268.636
3.26009 -3268.41 268.519
1.43026 -3269.77 269.314
2.85165 -3268.93 268.526
-4.33353 -3272.2 271.625
-0.585469 -3270.81 269.873
1.19983 -3270.1 269.07
-6.44709 -3273.25 271.577
-5.52237 -3273.43 270.01
-5.67512 -3274.15 268.302
-7.46231 -3275.53 267.311
-8.17041 -3276.16 266.548
7.63396 -3261.97 265.507
7.45474 -3262.07 265.925
6.93169 -3262.46 266.378
7.54789 -3262.23 265.222
7.36016 -3262.36 265.029
7.11543 -3262.34 264.555
0.818024 -3254.95 245.217
1.29073 -3257.55 247.979
2.78787 -3260.99 252.41
4.63892 -3260.31 255.157
5.98451 -3262.3 260.862
6.55181 -3262.01 263.462
5.71515 -3262.84 259.513
4.90885 -3262.44 257.009
5.10722 -3263.48 258.252
5.20855 -3263.88 259.009
6.00383 -3263.85 267.006
4.31321 -3267.11 267.962
6.96721 -3262.61 266.29
3.85927 -3267.88 268.213
3.52418 -3268.52 268.022
2.48775 -3269.39 268.38
3.09274 -3269.04 267.979
-1.21107 -3271.27 269.613
1.33352 -3270.21 268.644
2.57528 -3269.55 267.931
-4.49348 -3273.73 267.382
-0.858536 -3271.35 268.801
-7.05221 -3275.33 266.706
-7.32232 -3275.7 264.925
-8.4608 -3276.85 264.143
7.48984 -3262.28 265.539
7.28816 -3262.38 265.876
7.17708 -3262.57 265.062
7.23625 -3262.57 265.465
6.95909 -3262.56 264.552
6.87375 -3262.84 264.889
-0.307768 -3257.4 245.334
0.115375 -3259.36 247.423
1.5099 -3260.89 250.426
2.32406 -3264.48 253.793
3.28987 -3263.88 254.993
5.6947 -3263.34 262.748
5.4411 -3263.69 260.89
6.24469 -3262.69 263.574
6.70462 -3262.83 264.5
5.20901 -3264.16 259.58
3.57943 -3264.59 256.046
3.88148 -3265.02 257.209
4.65316 -3264.86 258.897
6.3194 -3263.56 266.584
4.45898 -3267.04 267.63
3.90127 -3268.13 267.796
7.04835 -3262.73 265.829
3.43417 -3268.82 267.692
3.05049 -3269.28 267.552
2.30349 -3269.86 267.756
1.57516 -3270.31 267.96
2.85255 -3269.63 267.25
-0.317317 -3271.28 267.968
-4.8279 -3274.08 266.514
-6.40312 -3274.98 264.96
-6.87703 -3275.6 263.26
-8.47767 -3277.02 262.913
-9.19719 -3277.64 263.417
6.95608 -3262.84 265.366
6.28245 -3263.57 265.217
6.3726 -3263.6 265.628
-1.92465 -3260.25 245.485
-0.73801 -3261.68 248.179
1.17647 -3263.4 251.608
1.89733 -3265.71 253.954
2.45396 -3265.53 254.626
4.96517 -3264.76 261.311
5.96093 -3263.49 264.018
4.79847 -3265.27 263.225
6.10099 -3263.67 264.886
4.68886 -3265.1 259.696
2.51924 -3266.22 255.328
3.18802 -3266.14 257.07
3.40435 -3266.3 258.149
6.57046 -3263.29 266.252
4.67309 -3266.77 267.238
4.08837 -3267.93 267.544
3.75643 -3268.55 267.378
6.44953 -3263.56 266.048
3.35637 -3269.03 267.356
3.19661 -3269.24 267.109
2.34168 -3269.96 267.38
1.95532 -3270.26 267.273
2.91649 -3269.59 266.947
2.51756 -3269.9 267.024
-0.161211 -3271.28 267.538
-2.69048 -3272.85 266.346
-4.89926 -3274.17 265.105
-4.62651 -3274.11 264.052
-5.88153 -3274.71 263.185
-6.70498 -3275.42 262.597
-8.49713 -3276.93 262.156
-9.12364 -3277.58 262.44
4.43626 -3267.04 266.152
4.46589 -3267.14 266.53
4.55073 -3267.06 266.892
-3.20705 -3262.87 246.3
-4.9396 -3264.81 246.28
-1.66754 -3263.1 248.322
0.690164 -3264.66 251.879
1.5152 -3266.35 253.988
2.10362 -3266.57 254.956
4.49444 -3265.62 261.313
4.32396 -3266.9 265.127
4.2561 -3265.79 259.804
2.34289 -3266.91 255.857
2.30329 -3267.29 256.475
2.70804 -3267.17 257.884
3.93517 -3268.3 267.204
3.63634 -3268.79 267.043
3.44751 -3269.03 266.845
3.20165 -3269.33 266.716
2.17868 -3270.14 266.884
0.272029 -3271.12 267.173
2.82483 -3269.73 266.791
-2.56163 -3272.84 265.814
-3.43142 -3273.55 264.63
-4.50379 -3274.01 263.412
-4.62598 -3273.96 262.69
-7.35246 -3275.83 261.814
-8.82368 -3276.9 261.239
3.80277 -3268.46 266.488
3.80622 -3268.58 266.831
-4.14301 -3265.08 247.548
-2.46368 -3264.5 248.836
-5.63503 -3267.06 248.422
0.13099 -3265.36 251.855
1.04839 -3266.92 254.008
1.53123 -3267.22 254.909
1.9107 -3267.46 255.748
4.00834 -3266.28 261.204
4.15249 -3266.34 262.91
3.95056 -3267.45 264.882
3.622 -3268.69 266.255
2.0405 -3267.8 256.909
1.63521 -3268.01 256.224
1.93997 -3268.15 257.642
3.08984 -3267.13 260.023
3.5562 -3268.88 266.604
2.97312 -3269.57 266.516
3.24119 -3269.18 266.407
2.57683 -3269.89 266.633
1.94404 -3270.25 266.617
0.458281 -3271.04 266.898
-1.15715 -3271.81 266.529
-2.34561 -3272.7 265.363
-2.28922 -3272.57 264.722
-2.06381 -3271.85 263.286
-5.55026 -3274.08 260.923
-2.94202 -3272.06 261.121
-8.22487 -3276.01 260.189
-4.90688 -3267.39 249.736
-2.99204 -3266.16 250.073
-0.417327 -3265.93 251.949
-7.32377 -3269.38 249.382
-7.08893 -3270.28 251.33
0.400643 -3267.31 253.869
0.882602 -3267.61 254.647
1.27514 -3267.96 255.519
3.7391 -3266.84 262.89
3.67536 -3267.71 264.49
3.32507 -3268.97 265.982
1.49599 -3268.35 256.817
1.07962 -3268.37 256.042
1.68842 -3268.57 260.075
1.54565 -3268.52 257.485
2.3605 -3267.88 259.939
2.93677 -3267.36 262.069
2.92136 -3269.48 266.188
2.61777 -3269.78 266.23
2.11669 -3270.13 266.416
0.635459 -3270.88 266.545
-0.906367 -3271.6 266.025
-0.330925 -3270.57 264.158
-0.273928 -3270.13 262.065
-3.97441 -3272.07 258.887
-7.31443 -3274.55 258.449
-2.13853 -3270.84 259.615
-8.88911 -3275.55 257.63
-3.69116 -3268.17 251.949
-5.65968 -3269.81 252.187
-1.10818 -3266.48 251.985
-1.39052 -3267.34 252.626
-9.63472 -3272.77 251.67
-8.16935 -3273.76 255.635
-5.83783 -3272.13 256.106
0.250041 -3267.92 254.404
0.568661 -3268.19 255.05
3.06293 -3267.47 262.876
3.33627 -3268.08 264.283
3.01219 -3269.2 265.63
1.13541 -3268.61 256.675
0.565335 -3268.74 256.095
1.17739 -3268.93 259.524
1.88361 -3268.64 262.264
1.10023 -3268.79 257.206
2.24057 -3268.22 262.718
2.81419 -3269.51 265.832
2.33051 -3270.03 266.308
2.57851 -3269.84 266.01
0.789804 -3270.71 266.175
2.14061 -3270.11 266.047
0.184725 -3270.2 264.249
1.64608 -3268.8 262.947
-0.961498 -3270.21 260.051
0.557234 -3269.22 259.172
-3.8974 -3270.78 256.194
-2.54826 -3270.4 257.679
-1.38759 -3270.04 258.82
-9.83353 -3274.53 254.283
-3.07837 -3268.87 253.521
-1.36927 -3267.98 253.423
-4.61071 -3270.36 254.154
-1.1842 -3268.54 254.346
0.229417 -3268.58 255.331
2.94674 -3268.47 264.177
0.672531 -3268.95 256.631
0.22487 -3269.02 256.05
0.666959 -3269.02 257.105
0.0469726 -3269.38 258.359
2.58259 -3268.82 264.128
2.27225 -3269.15 264.407
1.81912 -3269.46 264.567
1.06492 -3270.56 265.871
1.27855 -3270.07 265.063
-2.66751 -3269.92 255.737
-2.70592 -3269.56 254.823
-2.32089 -3270 256.971
-0.871366 -3269.61 257.338
-1.026 -3268.97 255.185
0.261229 -3269.16 256.665
-0.98069 -3269.28 255.833
-1.05956 -3269.49 256.429
