-314.567 -3287.51 1950.76 
-314.715 -3287.89 1951.65 
-314.654 -3287.94 1952.04 
-314.492 -3287.56 1950.1 
-314.307 -3287.62 1949.37 
-314.098 -3287.24 1948.81 
-313.87 -3287.79 1948.11 
-319.452 -3281.38 1965.21 
-318.75 -3280.95 1964.23 
-319.131 -3281.28 1964.88 
-319.276 -3281.45 1965.14 
-318.607 -3281.09 1964.25 
-318.443 -3281.32 1964.31 
-318.253 -3281.61 1964.29 
-317.346 -3283.01 1965.25 
-317.068 -3282.05 1963.89 
-317.163 -3284.02 1966.21 
-317.039 -3284.51 1966.6 
-315.559 -3284.84 1964.38 
-315.631 -3286.01 1965.65 
-316.042 -3286.2 1966.52 
-318.267 -3285.21 1969 
-315.568 -3283.6 1963.05 
-315.612 -3282.99 1962.13 
-315.74 -3282.43 1961.23 
-315.011 -3285.53 1962.55 
-313.711 -3288.24 1947.78 
-313.341 -3288.91 1947.08 
-313.028 -3290.61 1946.49 
-312.937 -3292.28 1946.55 
-313.134 -3291.58 1946.73 
-312.42 -3292.84 1945.48 
-312.026 -3291.79 1944.68 
-311.925 -3293.42 1944.51 
-310.928 -3291.97 1943.42 
-310.38 -3292.89 1942.81 
-310.475 -3295.07 1943.12 
-310.392 -3295.8 1943.17 
-309.942 -3294.88 1942.1 
-310.257 -3296.66 1943.15 
-309.852 -3295.38 1941.85 
-307.076 -3306.36 1936.56 
-307.547 -3305.37 1936.77 
-306.602 -3304.83 1935.08 
-305.997 -3305.51 1934.62 
-305.951 -3306.77 1935.24 
-305.33 -3311.37 1936.64 
-306.683 -3308.11 1937.01 
-303.299 -3312.95 1934.41 
-310.503 -3298.18 1944.39 
-310.206 -3297.46 1943.19 
-310.393 -3299.93 1945.53 
-309.702 -3302.51 1943.48 
-310.787 -3298.15 1945.23 
-310.769 -3298.62 1945.93 
-307.688 -3305.86 1937.31 
-307.889 -3305.98 1937.96 
-308.348 -3305.6 1939.84 
-308.867 -3305.77 1942.81 
-308.537 -3306.63 1942.22 
-307.563 -3315.83 1979.93 
-311.33 -3311.64 1984.4 
-312.777 -3312.17 1983.18 
-313.303 -3312.25 1982.78 
-313.608 -3312.2 1982.52 
-313.906 -3311.7 1982.29 
-313.852 -3311.86 1982.3 
-313.821 -3312.01 1982.3 
-314.169 -3311.01 1982.39 
-314.087 -3311.28 1982.28 
-313.988 -3311.59 1982.14 
-313.684 -3309.93 1982.69 
-313.16 -3308.25 1982.79 
-313.087 -3307.39 1982.69 
-313.12 -3306.76 1982.87 
-313.479 -3305.18 1983 
-313.798 -3303.56 1983.41 
-313.776 -3302.09 1982.98 
-313.788 -3297.88 1980.61 
-313.829 -3297.64 1980.16 
-313.618 -3298.06 1980.29 
-315.929 -3294.92 1979.33 
-313.497 -3298.43 1980.53 
-316 -3292.11 1971.51 
-316.592 -3291.46 1971.2 
-316.463 -3293.07 1976.7 
-316.147 -3292.48 1973.27 
-316.734 -3292.12 1974.56 
-315.858 -3292.46 1972.17 
-314.929 -3293.01 1970.02 
-315.029 -3292.81 1969.84 
-316.019 -3294.9 1978.77 
-315.694 -3292.1 1969.39 
-315.399 -3292.2 1968.8 
-314.62 -3292.11 1966.98 
-314.142 -3290.76 1963.76 
-314.263 -3290.25 1963.68 
-314.312 -3289.77 1963.56 
-314.512 -3289.73 1964.1 
-313.864 -3291.16 1963.75 
-313.456 -3292.6 1965.5 
-313.054 -3292.71 1964.66 
-315.017 -3289.67 1965.05 
-316.798 -3287.96 1968.23 
-315.273 -3288.59 1965.65 
-315.908 -3288.45 1966.86 
-315.806 -3287.34 1966.79 
-315.811 -3286.99 1966.67 
-315.79 -3286.62 1966.37 
-318.844 -3284.83 1969.34 
-319.094 -3284.48 1969.37 
-319.517 -3283.84 1968.68 
-319.52 -3281.96 1966.04 
-319.41 -3282.16 1966.14 
-319.543 -3283 1967.25 
-319.65 -3283.27 1967.66 
-319.745 -3283.32 1967.9 
-314.929 -3286.07 1962.34 
-314.298 -3287.72 1961.16 
-313.612 -3288.93 1958.41 
-314.026 -3288.25 1957.37 
-313.781 -3288.74 1956.1 
-313.642 -3289.07 1955.85 
-313.601 -3289.34 1955.43 
-313.551 -3289.69 1955.1 
-314.32 -3288.73 1953.64 
-314.45 -3288.53 1953.23 
-314.547 -3288.38 1952.77 
-314.72 -3288.44 1952.03 
-314.666 -3288.58 1952.31 
-314.66 -3288.05 1950.83 
-314.699 -3287.99 1951.25 
-314.591 -3288.08 1950.31 
-314.794 -3288.38 1951.29 
-314.781 -3288.39 1951.69 
-314.414 -3287.93 1949.75 
-314.326 -3288.08 1949.01 
-314.095 -3287.85 1948.54 
-313.891 -3288.27 1948.13 
-319.059 -3281.49 1964.96 
-319.171 -3281.62 1965.18 
-318.936 -3281.65 1964.92 
-318.882 -3282.4 1965.75 
-318.062 -3282.72 1965.52 
-318.648 -3283.87 1967.25 
-317.824 -3284.94 1967.91 
-315.199 -3285.93 1964.34 
-315.292 -3286.49 1965.24 
-315.442 -3286.83 1965.86 
-318.306 -3284.89 1968.57 
-315.21 -3285.19 1963.38 
-314.226 -3288.52 1962.34 
-313.647 -3289.92 1960.43 
-313.819 -3288.65 1947.88 
-313.574 -3289.13 1947.43 
-313.31 -3289.98 1946.93 
-313.304 -3290.82 1946.84 
-313.178 -3292.53 1946.96 
-312.815 -3293.15 1946.5 
-312.972 -3293.11 1946.8 
-313.965 -3291.89 1947.66 
-312.463 -3293.39 1945.67 
-311.899 -3293.91 1944.5 
-312.057 -3294.03 1944.85 
-311.688 -3293.5 1944.11 
-311.341 -3292.26 1943.86 
-311.123 -3294.35 1943.63 
-310.97 -3293.48 1943.37 
-311.005 -3294.15 1943.41 
-310.642 -3295.66 1943.53 
-311.234 -3294.67 1943.87 
-310.67 -3296.66 1944.14 
-310.554 -3296.07 1943.6 
-310.562 -3297.06 1944.08 
-306.621 -3308.97 1937.54 
-305.087 -3312.89 1937.76 
-304.005 -3313.59 1936.15 
-310.742 -3297.72 1944.88 
-310.71 -3299.1 1947 
-310.216 -3300.75 1946.16 
-309.509 -3303.34 1943.89 
-310.993 -3297.77 1945.75 
-310.985 -3297.35 1945.31 
-310.985 -3298.15 1946.61 
-307.961 -3306.99 1940.09 
-307.038 -3308.44 1938.22 
-308.582 -3306.66 1943.72 
-307.771 -3308.49 1942.53 
-307.46 -3308.89 1941.23 
-303.478 -3322.76 1977.79 
-303.557 -3322.5 1978.09 
-306.479 -3317.44 1979.07 
-308.455 -3314.3 1981.93 
-311.141 -3311.92 1984.25 
-311.114 -3312.22 1984.01 
-313.479 -3312.44 1982.56 
-313.642 -3312.37 1982.36 
-313.995 -3311.95 1982.12 
-314.019 -3311.83 1982.04 
-313.963 -3312.08 1982.12 
-313.921 -3312.21 1982.1 
-313.806 -3312.31 1982.15 
-314.092 -3311.21 1982.15 
-314.087 -3310.84 1982.21 
-314.037 -3311.47 1981.97 
-313.652 -3309.82 1982.43 
-313.166 -3307.75 1982.4 
-313.109 -3307.21 1982.48 
-313.167 -3306.59 1982.61 
-313.616 -3309.67 1982.2 
-313.261 -3308.27 1982.26 
-313.483 -3305.12 1982.79 
-313.452 -3305.15 1982.55 
-313.528 -3303.93 1982.51 
-313.214 -3300.66 1981.3 
-313.331 -3298.6 1980.23 
-314.689 -3296.58 1979.64 
-315.619 -3295.34 1979.46 
-315.777 -3295.22 1979.21 
-313.19 -3299.2 1980.56 
-313.14 -3299.06 1980.25 
-316.344 -3293.53 1976.88 
-315.772 -3292.83 1972.58 
-315.291 -3293.01 1971.23 
-315.042 -3293.11 1970.6 
-313.776 -3293.55 1968.18 
-314.08 -3293.21 1968.3 
-316.088 -3294.98 1978.39 
-315.85 -3295.3 1978.75 
-316.177 -3294.51 1978.16 
-313.766 -3290.97 1962.93 
-314.036 -3290.5 1963.01 
-314.087 -3290 1962.79 
-314.642 -3288.34 1964.14 
-314.498 -3288.24 1963.52 
-314.898 -3288.44 1964.84 
-313.627 -3291.37 1963.38 
-312.784 -3293.88 1966.42 
-312.221 -3294.58 1966.1 
-312.184 -3293.95 1964.55 
-312.833 -3292.37 1963.06 
-315.421 -3287.34 1966.06 
-319.352 -3283.97 1968.53 
-319.183 -3284.07 1968.36 
-319.285 -3282.32 1966.15 
-319.542 -3283.36 1967.56 
-313.089 -3290.36 1958.45 
-312.638 -3291.32 1957.77 
-313.144 -3289.76 1957.08 
-312.537 -3291.45 1957.4 
-312.506 -3291.59 1957.05 
-312.423 -3292.07 1956.82 
-312.441 -3292.49 1956.43 
-313.609 -3290 1954.63 
-314.33 -3288.99 1953.33 
-314.503 -3288.77 1952.94 
-314.625 -3288.89 1952.54 
-315.18 -3289.41 1951.23 
-315.153 -3289.55 1951.4 
-315.108 -3289.67 1951.57 
-314.71 -3288.51 1950.9 
-314.653 -3288.54 1950.48 
-314.624 -3288.45 1950.07 
-315.208 -3289.27 1951.01 
-315.196 -3289.16 1950.7 
-314.491 -3288.35 1949.5 
-314.355 -3288.46 1948.95 
-314.097 -3288.31 1948.46 
-313.946 -3288.67 1948.16 
-319.095 -3282.42 1966.03 
-318.733 -3284.11 1967.71 
-319.542 -3283.19 1967.16 
-315.037 -3286.81 1964.79 
-314.887 -3286.73 1964.09 
-315.172 -3287.15 1965.39 
-318.939 -3284.14 1968.07 
-313.296 -3290.88 1960.06 
-314.364 -3289.8 1948.14 
-314.456 -3289.54 1948.26 
-314.209 -3290.19 1947.93 
-314.095 -3290.73 1947.75 
-314.007 -3291.32 1947.65 
-313.192 -3293.07 1947.13 
-313.912 -3292.41 1947.72 
-312.861 -3293.72 1946.76 
-312.441 -3293.95 1945.8 
-313.038 -3293.59 1947.04 
-314.798 -3291.69 1948.44 
-314.787 -3291.38 1948.44 
-314.678 -3292.08 1948.41 
-311.886 -3294.44 1944.67 
-311.288 -3295.13 1944.13 
-310.728 -3296.12 1943.9 
-311.341 -3295.53 1944.49 
-311.002 -3297.01 1945.16 
-311.445 -3295.97 1945.04 
-305.388 -3312.93 1938.6 
-304.974 -3314.81 1939.99 
-304.073 -3314.98 1937.94 
-311.006 -3298.72 1948.02 
-310.406 -3300.04 1947.72 
-309.495 -3302.44 1947.46 
-309.008 -3304.59 1945.7 
-312.013 -3296.04 1946.44 
-311.954 -3296.37 1946.7 
-311.901 -3296.65 1947.11 
-311.779 -3297.11 1947.8 
-306.643 -3310.17 1939.48 
-305.637 -3312.99 1939.67 
-308.319 -3306.8 1947.12 
-308.057 -3307.69 1946.56 
-307.782 -3308.6 1943.5 
-306.559 -3311.89 1942.49 
-306.52 -3311.76 1941.92 
-306.148 -3312.45 1941.1 
-305.687 -3323.23 1973.67 
-305.79 -3323.15 1973.69 
-303.93 -3321.96 1978.1 
-305.792 -3323.01 1973.83 
-304.086 -3321.64 1978.1 
-305.207 -3319.36 1977.03 
-309.413 -3312.8 1984 
-305.694 -3318.42 1978.43 
-308.887 -3314.49 1980.98 
-309.079 -3314.92 1979.67 
-309.043 -3315.17 1978.65 
-312.485 -3312.43 1983.12 
-311.069 -3312.51 1983.7 
-312.36 -3312.54 1983.08 
-313.282 -3312.66 1982.53 
-312.934 -3312.61 1982.67 
-313.48 -3312.7 1982.21 
-314.079 -3312.24 1981.99 
-314.111 -3312.12 1981.94 
-314.088 -3311.94 1981.76 
-313.943 -3312.37 1981.95 
-313.764 -3312.46 1981.95 
-314.088 -3311.35 1981.79 
-314.012 -3310.89 1981.96 
-314.078 -3311.57 1981.61 
-314.09 -3311.78 1981.55 
-313.21 -3307.89 1982.14 
-313.124 -3307.07 1982.25 
-313.172 -3306.52 1982.28 
-313.61 -3309.61 1981.98 
-313.581 -3309.48 1981.8 
-313.425 -3304.29 1982.25 
-313.361 -3303.77 1982.04 
-311.183 -3305.85 1978.27 
-313.439 -3298.43 1979.81 
-313.587 -3298.18 1979.62 
-313.187 -3298.94 1979.85 
-313.077 -3299.18 1979.97 
-314.719 -3296.73 1979.31 
-315.663 -3295.44 1979.12 
-311.84 -3303.34 1978.8 
-316.233 -3294.4 1977.81 
-316.341 -3293.66 1976.8 
-316.322 -3292.97 1974.4 
-315.806 -3293.05 1972.91 
-315.103 -3293.38 1971.13 
-314.852 -3293.3 1970.38 
-314.548 -3293.35 1969.8 
-313.226 -3294.11 1967.72 
-315.991 -3295.29 1978.24 
-316.185 -3295 1977.99 
-315.662 -3295.75 1978.68 
-315.63 -3295.58 1978.96 
-313.441 -3291.42 1962.54 
-313.145 -3291.43 1960.4 
-311.505 -3295.94 1966.17 
-311.622 -3295.56 1965.81 
-311.753 -3294.48 1963.97 
-311.821 -3293.47 1962.3 
-312.559 -3292.44 1962 
-312.402 -3292.29 1958.84 
-311.723 -3293.43 1959.3 
-311.633 -3293.72 1958.96 
-311.58 -3293.97 1958.67 
-311.448 -3295.4 1957.68 
-312.589 -3293.32 1955.45 
-312.381 -3294.93 1955.25 
-313.414 -3291.5 1954.21 
-314.172 -3289.21 1953.58 
-314.293 -3289.44 1953.16 
-314.464 -3289.13 1952.85 
-314.916 -3289.96 1952.04 
-315.014 -3289.83 1951.81 
-315.543 -3290.19 1950.73 
-315.595 -3290.07 1950.59 
-315.493 -3290.36 1950.91 
-315.458 -3290.56 1951.09 
-315.087 -3289.19 1950.39 
-314.931 -3289.27 1950.12 
-314.907 -3289.31 1949.75 
-315.624 -3289.89 1950.36 
-315.56 -3289.8 1950.14 
-314.869 -3289.34 1949.36 
-314.751 -3289.34 1948.98 
-314.135 -3288.68 1948.52 
-314.558 -3289.35 1948.39 
-315.025 -3290.7 1948.8 
-315.154 -3290.51 1948.98 
-315.19 -3290.25 1949 
-314.94 -3291.03 1948.65 
-313.273 -3293.61 1947.37 
-313.861 -3292.95 1947.79 
-314.537 -3292.5 1948.32 
-312.423 -3294.5 1946.06 
-312.992 -3294.06 1947.16 
-311.985 -3294.61 1944.97 
-313.232 -3293.89 1947.42 
-315.061 -3291.33 1948.77 
-314.941 -3291.8 1948.65 
-314.797 -3292.21 1948.59 
-311.648 -3296.26 1945.72 
-312.448 -3294.9 1946.48 
-304.209 -3315.91 1939.68 
-305.534 -3314.27 1941.05 
-304.479 -3316.5 1942.06 
-303.604 -3317.84 1941.99 
-302.986 -3317.09 1938.57 
-301.872 -3316.62 1935.07 
-311.921 -3297.05 1949.1 
-310.89 -3299.19 1949.14 
-309.939 -3300.84 1950.07 
-309.686 -3301.45 1949.21 
-308.928 -3303.69 1950.15 
-309.299 -3301.96 1951.97 
-312.767 -3294.69 1947.28 
-312.895 -3294.75 1947.57 
-312.729 -3295.17 1947.72 
-312.632 -3295.49 1948.02 
-312.503 -3295.88 1948.4 
-308.002 -3307.51 1948.87 
-307.171 -3309.51 1947.53 
-307.341 -3309.27 1945.48 
-306.597 -3311.71 1943.16 
-305.892 -3313.79 1941.69 
-305.317 -3314.96 1942.83 
-305.136 -3315.45 1942.57 
-302.676 -3323.18 1978.11 
-305.459 -3323.4 1973.59 
-306.749 -3323.87 1971.82 
-306.769 -3323.43 1972.12 
-305.813 -3322.71 1973.94 
-306.882 -3323.22 1971.96 
-306.1 -3318.7 1975.18 
-304.884 -3320.03 1976.98 
-305.83 -3322.54 1974.01 
-305.756 -3319.38 1975.21 
-310.918 -3312.72 1983.42 
-309.398 -3313.15 1983.33 
-309.316 -3313.63 1982.66 
-308.288 -3316.01 1977.32 
-308.717 -3315.55 1977.71 
-309.046 -3315.25 1978.15 
-309.243 -3313.96 1981.9 
-309.376 -3314.55 1980.33 
-310.947 -3314.17 1980.13 
-310.927 -3314.27 1979.84 
-310.121 -3314.77 1978.91 
-310.176 -3314.78 1978.66 
-313.256 -3312.92 1982.27 
-312.864 -3312.83 1982.49 
-313.503 -3312.8 1981.93 
-313.575 -3312.77 1981.8 
-314.055 -3312.4 1981.79 
-314.17 -3312.2 1981.68 
-314.145 -3312.01 1981.46 
-313.841 -3312.55 1981.75 
-313.703 -3312.61 1981.79 
-314.068 -3311.17 1981.62 
-314.126 -3311.49 1981.37 
-314.121 -3311.67 1981.37 
-314.12 -3311.87 1981.29 
-313.253 -3308.14 1981.86 
-313.069 -3307.12 1981.85 
-314.007 -3310.96 1981.45 
-313.564 -3309.44 1981.61 
-313.912 -3310.64 1981.42 
-312.988 -3306.4 1981.49 
-313.035 -3307.35 1981.52 
-312.955 -3307.26 1981.25 
-312.914 -3305.49 1981.39 
-311.281 -3306.13 1978.55 
-310.737 -3306.8 1977.23 
-310.226 -3310.17 1976.75 
-310.186 -3309.96 1976.54 
-312.815 -3300.42 1978.76 
-313.201 -3299.56 1978.68 
-312.625 -3301.01 1978.81 
-312.53 -3301.2 1979.18 
-314.635 -3297.01 1979.1 
-313.4 -3299.39 1978.46 
-310.991 -3305.58 1977.22 
-311.072 -3305.19 1976.39 
-311.54 -3303.97 1977.39 
-316.323 -3293.97 1977.03 
-316.259 -3294.68 1977.62 
-316.362 -3293.38 1974.87 
-316.226 -3293.2 1974.12 
-315.901 -3293.41 1973.25 
-315.607 -3293.43 1972.43 
-315.236 -3293.59 1971.45 
-314.311 -3293.94 1969.64 
-312.952 -3294.61 1967.68 
-315.982 -3296.28 1977.55 
-316.222 -3295.97 1977.17 
-315.432 -3296.21 1978.66 
-312.902 -3291.8 1960.26 
-311.201 -3296.77 1966.29 
-311.141 -3296.46 1965.76 
-310.985 -3297.16 1966.14 
-311.444 -3295 1963.72 
-311.543 -3293.86 1961.74 
-311.745 -3293.39 1961.6 
-312.289 -3292.6 1960.73 
-312.007 -3292.94 1960.07 
-311.817 -3293.23 1959.63 
-311.184 -3294.5 1960.68 
-311.484 -3293.8 1961.06 
-311.068 -3294.95 1960.09 
-310.977 -3295.27 1959.81 
-311.234 -3294.86 1959.06 
-311.065 -3296.16 1958.37 
-311.128 -3297.27 1956.78 
-312.345 -3295.65 1954.66 
-313.459 -3293.32 1953.09 
-313.419 -3293.93 1952.81 
-313.67 -3291.27 1953.8 
-314.82 -3290.2 1952.05 
-314.729 -3290.49 1952.26 
-315.405 -3290.89 1951.18 
-315.469 -3290.57 1950.59 
-315.545 -3290.34 1950.42 
-315.594 -3290.2 1950.24 
-315.453 -3290.74 1950.82 
-315.448 -3290.95 1950.93 
-315.417 -3289.88 1949.95 
-315.316 -3289.98 1949.75 
-315.288 -3290.03 1949.55 
-315.541 -3290.14 1950.09 
-315.451 -3290.13 1949.94 
-315.246 -3290.04 1949.29 
-314.69 -3289.25 1948.57 
-315.216 -3290.02 1949.03 
-315.157 -3291.02 1948.94 
-315.342 -3290.53 1949.2 
-315.291 -3290.82 1949.1 
-315.33 -3290.31 1949.29 
-313.896 -3293.39 1947.97 
-314.477 -3292.89 1948.3 
-314.75 -3292.67 1948.55 
-312.926 -3294.38 1947.35 
-313.191 -3294.14 1947.53 
-313.906 -3293.7 1948.12 
-315.178 -3291.45 1948.95 
-315.08 -3291.94 1948.86 
-314.903 -3292.31 1948.74 
-302.593 -3319.02 1940.57 
-304.892 -3315.87 1942.28 
-303.989 -3317.84 1943.59 
-303.687 -3318.24 1943.51 
-303.228 -3318.74 1943.18 
-303.446 -3318.66 1943.46 
-302.427 -3319.63 1941.93 
-301.48 -3319.35 1938.88 
-301.821 -3320.2 1940.78 
-300.759 -3318.36 1935.68 
-311.914 -3297.39 1951.2 
-312.633 -3296.07 1949.96 
-312.545 -3296.04 1949.1 
-310.27 -3299.99 1952.5 
-310 -3300.3 1954.23 
-308.836 -3303.95 1950.94 
-309.491 -3301.6 1954.06 
-310.183 -3299.81 1955.68 
-313.08 -3294.79 1947.96 
-313.195 -3294.51 1947.87 
-313.121 -3294.39 1947.65 
-313.034 -3295.06 1948.2 
-312.955 -3295.35 1948.45 
-312.797 -3295.6 1948.77 
-308.181 -3306.92 1950.01 
-307.629 -3308.7 1948.99 
-306.801 -3310.42 1947.91 
-305.397 -3313.14 1946.92 
-305.394 -3313.15 1946.57 
-305.366 -3313.25 1946.25 
-306.424 -3311.81 1944.16 
-305.364 -3314.77 1943.2 
-304.52 -3316.49 1943.76 
-304.292 -3317.16 1943.87 
-304.08 -3317.57 1943.86 
-302.648 -3323.34 1977.69 
-305.263 -3323.45 1973.59 
-301.232 -3323.67 1978.44 
-306.985 -3323.51 1971.5 
-306.887 -3323.65 1971.4 
-306.544 -3323.66 1971.41 
-307.044 -3323.36 1971.44 
-307.024 -3323.11 1971.38 
-307.11 -3323.29 1971.2 
-307.014 -3317.57 1975.92 
-305.831 -3322.36 1974.09 
-304.947 -3320.16 1976.5 
-305.618 -3319.77 1975.07 
-306.779 -3322.83 1972.09 
-305.907 -3319.04 1974.29 
-305.775 -3319.33 1974.21 
-310.651 -3312.93 1983.2 
-312.151 -3312.91 1982.71 
-309.684 -3313.52 1982.58 
-309.546 -3313.87 1981.82 
-308.145 -3316.1 1976.87 
-308.806 -3315.45 1977.3 
-308.609 -3315.62 1976.97 
-309.106 -3315.22 1977.74 
-310.279 -3314.75 1978.51 
-312.329 -3313.36 1982 
-312.537 -3313.27 1981.81 
-312.733 -3313.19 1981.59 
-312.267 -3313.56 1980.75 
-312.333 -3313.64 1980.43 
-312.507 -3312.9 1982.51 
-312.892 -3312.99 1982.19 
-313.233 -3312.95 1981.97 
-312.576 -3313.02 1982.29 
-313.419 -3313 1981.73 
-313.559 -3312.91 1981.61 
-313.457 -3313.13 1981.55 
-314.117 -3312.34 1981.47 
-313.867 -3312.54 1981.47 
-314.18 -3312.17 1981.31 
-314.115 -3312.03 1981.15 
-313.65 -3312.75 1981.6 
-314.053 -3311.18 1981.26 
-314.119 -3311.59 1981.18 
-314.116 -3311.75 1981.19 
-314.111 -3311.83 1981.09 
-314.103 -3311.97 1981 
-313.188 -3308 1981.66 
-313.542 -3309.43 1981.46 
-313.929 -3310.73 1981.25 
-312.783 -3306.77 1980.93 
-313.162 -3308.17 1981.4 
-312.12 -3305.92 1980.02 
-310.415 -3309.97 1977.09 
-310.646 -3306.92 1976.8 
-310.131 -3310.03 1976.22 
-309.949 -3312.38 1976.23 
-309.83 -3312.32 1975.89 
-309.788 -3312.09 1975.6 
-312.544 -3301.75 1977.29 
-312.992 -3300.85 1977.31 
-313.365 -3300.36 1977.23 
-312.009 -3303 1977.29 
-312.377 -3302.2 1977.47 
-313.53 -3300.02 1977.42 
-310.628 -3307.06 1975.57 
-310.886 -3305.73 1974.9 
-311.296 -3304.24 1975.66 
-310.955 -3304.29 1974.24 
-311.658 -3303.49 1976.24 
-316.321 -3294.32 1977.16 
-316.339 -3293.95 1976.08 
-316.411 -3295.61 1976.83 
-316.344 -3293.75 1975.14 
-316.299 -3293.58 1974.47 
-316.094 -3294.66 1973.57 
-315.863 -3294.66 1972.89 
-315.547 -3293.78 1972.15 
-314.913 -3294.11 1970.86 
-314.406 -3294.17 1969.92 
-313.78 -3294.4 1968.87 
-312.536 -3295.28 1967.46 
-316.235 -3296.82 1976.11 
-314.736 -3298.12 1977.66 
-315.679 -3297.66 1976.6 
-311.067 -3297.26 1966.51 
-310.87 -3297.71 1966.43 
-310.917 -3297.16 1965.8 
-311.208 -3295.71 1964.02 
-310.736 -3297.95 1966.12 
-310.772 -3298.01 1966.34 
-311.3 -3294.32 1961.37 
-311.063 -3295.89 1963.42 
-310.967 -3295.3 1960.94 
-310.835 -3295.73 1960.49 
-310.918 -3296.52 1958.72 
-310.965 -3297.69 1957.13 
-311.047 -3297.74 1956.34 
-310.891 -3298.24 1956.57 
-311.808 -3296.77 1955.07 
-312.847 -3295.49 1953.17 
-313.453 -3294.27 1952.47 
-314.318 -3292.47 1952.07 
-314.283 -3292.9 1951.79 
-314.334 -3291.8 1952.45 
-314.232 -3293.26 1951.62 
-314.546 -3290.97 1952.47 
-315.258 -3291.17 1951.28 
-315.077 -3291.52 1951.41 
-315.387 -3291.27 1950.89 
-315.428 -3290.54 1950.25 
-315.349 -3290.97 1950.36 
-315.408 -3290.81 1950.56 
-315.501 -3290.42 1950.11 
-315.513 -3290.38 1949.96 
-315.388 -3291.1 1950.62 
-315.373 -3290.18 1949.77 
-315.375 -3290.24 1949.63 
-315.385 -3290.28 1949.48 
-315.436 -3290.37 1949.8 
-315.331 -3291.13 1949.15 
-315.47 -3290.74 1949.19 
-315.47 -3290.47 1949.3 
-314.614 -3293.14 1948.48 
-314.816 -3292.93 1948.65 
-313.834 -3293.97 1948.2 
-314.608 -3293.35 1948.59 
-315.27 -3291.62 1949.16 
-315.158 -3292.05 1949.01 
-314.911 -3292.6 1948.79 
-303.9 -3318.01 1943.94 
-303.804 -3318.26 1943.76 
-303.574 -3318.58 1943.78 
-302.871 -3319.3 1943.38 
-303.191 -3318.96 1943.46 
-302.766 -3319.29 1943.05 
-303.412 -3318.84 1943.75 
-302.047 -3320.23 1942.13 
-302.315 -3319.98 1942.91 
-302.544 -3319.64 1942.96 
-300.152 -3322.64 1941.46 
-299.652 -3323.56 1942.5 
-300.366 -3322.06 1940.77 
-312.608 -3296.23 1952.17 
-311.196 -3298.54 1952.77 
-313.09 -3295.41 1951.22 
-312.955 -3295.64 1950.71 
-313.67 -3294.79 1949.91 
-313.602 -3294.9 1949.54 
-313.607 -3294.89 1949.25 
-310.726 -3298.72 1955.69 
-311.374 -3298.09 1954.03 
-309.444 -3302.24 1955.17 
-309.072 -3303.3 1952.72 
-309.628 -3301.77 1956.21 
-310.247 -3299.69 1956.35 
-310.849 -3298.4 1956.91 
-313.777 -3294.41 1948.46 
-313.79 -3294.24 1948.32 
-313.773 -3294.57 1948.65 
-313.711 -3294.72 1948.84 
-313.611 -3294.87 1949.03 
-308.435 -3306.29 1950.81 
-307.422 -3309.36 1949.46 
-306.351 -3311.54 1947.71 
-305.416 -3313.19 1947.19 
-304.622 -3314.69 1947.01 
-304.595 -3314.74 1946.56 
-305.213 -3313.75 1945.72 
-304.601 -3314.89 1946.03 
-305.386 -3313.99 1944.52 
-304.655 -3315.57 1944.57 
-304.292 -3316.9 1944.27 
-304.444 -3315.9 1944.99 
-304.13 -3317.41 1944.26 
-303.989 -3317.82 1944.22 
-303.084 -3323.41 1976.6 
-305.019 -3323.51 1973.53 
-305.974 -3323.78 1971.65 
-306.265 -3323.71 1971.35 
-307.002 -3323.51 1971.01 
-306.708 -3323.59 1971.08 
-306.472 -3323.67 1970.93 
-306.96 -3322.94 1971.49 
-307.261 -3323.28 1970.77 
-307.31 -3323.48 1970.65 
-307.212 -3317.1 1974.44 
-306.991 -3317.32 1973.13 
-305.952 -3321.97 1973.99 
-306.744 -3322.63 1972.03 
-305.515 -3320.03 1974.85 
-305.415 -3320.57 1975.06 
-305.792 -3319.36 1973.71 
-306.96 -3322.8 1971.42 
-306.172 -3318.66 1973.04 
-306.332 -3318.46 1972.39 
-312.046 -3313.14 1982.47 
-312.307 -3313.08 1982.43 
-310.872 -3313.49 1982.35 
-309.374 -3315.1 1977.42 
-308.878 -3315.36 1976.72 
-310.389 -3314.71 1978.39 
-312.097 -3313.27 1982.23 
-312.596 -3313.15 1982.07 
-312.359 -3313.23 1982.24 
-312.855 -3313.08 1981.91 
-313.116 -3313.15 1981.48 
-313.105 -3313.09 1981.73 
-313.449 -3313.07 1981.37 
-313.511 -3312.87 1981.39 
-314.004 -3312.38 1981.22 
-313.631 -3312.69 1981.4 
-314.111 -3312.2 1981.06 
-314.075 -3312.12 1980.87 
-314.077 -3311.44 1981.05 
-314.107 -3311.7 1981.01 
-314.069 -3311.92 1980.82 
-313.998 -3312.09 1980.67 
-313.52 -3309.47 1981.26 
-313.849 -3310.64 1981.06 
-313.488 -3309.53 1981.02 
-313.375 -3309.51 1980.72 
-311.296 -3308.17 1978.5 
-310.609 -3309.89 1977.4 
-311.231 -3306.83 1978.45 
-310.16 -3312.36 1976.59 
-310.119 -3309.96 1975.83 
-309.862 -3311.68 1975.25 
-309.913 -3313.06 1976.22 
-309.706 -3312.97 1975.79 
-309.603 -3312.69 1975.37 
-309.676 -3312.25 1974.94 
-312.536 -3301.87 1976.88 
-312.923 -3301.14 1976.74 
-313.379 -3300.52 1976.74 
-314.511 -3299.32 1976.44 
-312.084 -3302.7 1976.32 
-312.45 -3302.07 1976.54 
-314.572 -3299.04 1976.82 
-310.228 -3309.45 1974.38 
-310.37 -3306.86 1972.95 
-310.629 -3305.61 1973.6 
-311.228 -3303.58 1974.8 
-310.933 -3303.53 1973.52 
-310.555 -3304.77 1972.84 
-310.568 -3304.39 1971.32 
-310.751 -3304.06 1973.15 
-311.441 -3303.11 1974.96 
-311.658 -3302.67 1975.08 
-316.383 -3294.93 1976.07 
-316.454 -3296.3 1975.76 
-316.312 -3294.79 1974.76 
-316.229 -3294.67 1974.16 
-315.984 -3295.93 1973.33 
-316.158 -3296.01 1974.21 
-315.214 -3296.63 1971.24 
-315.315 -3295.29 1971.52 
-314.552 -3294.56 1970.22 
-314.03 -3294.61 1969.33 
-313.399 -3294.9 1968.47 
-312.038 -3296.05 1967.15 
-316.056 -3297.3 1975.91 
-315.86 -3297.62 1976.04 
-315.537 -3298.14 1976.13 
-315.496 -3298.04 1976.45 
-316.21 -3296.97 1975.63 
-316.058 -3297.33 1975.41 
-316.304 -3296.54 1975.45 
-310.949 -3299.16 1966.97 
-310.865 -3299.26 1966.87 
-310.777 -3299.48 1966.81 
-310.749 -3297.69 1965.65 
-310.638 -3299.64 1966.58 
-310.652 -3298.35 1965.96 
-310.62 -3299.73 1966.4 
-310.687 -3299.64 1966.72 
-310.936 -3296.37 1963.52 
-310.856 -3296.59 1963.1 
-310.779 -3296.14 1960.69 
-310.84 -3296.65 1959.07 
-310.797 -3297.03 1963.3 
-310.886 -3297.97 1957.45 
-311.597 -3297.46 1954.6 
-312.766 -3295.83 1952.7 
-313.466 -3294.47 1952.08 
-314.21 -3293.51 1951.37 
-314.973 -3291.98 1951.27 
-314.916 -3292.34 1951.07 
-314.888 -3292.66 1950.83 
-315.192 -3291.68 1951.03 
-315.303 -3291.61 1950.72 
-315.479 -3291.05 1950.12 
-315.485 -3290.72 1949.95 
-315.254 -3291.56 1950.43 
-315.428 -3291.66 1950.03 
-315.458 -3290.62 1949.76 
-315.414 -3290.43 1949.65 
-315.45 -3290.46 1949.48 
-315.415 -3291.22 1949.4 
-315.515 -3290.76 1949.39 
-314.868 -3293.18 1948.78 
-314.477 -3293.7 1948.69 
-314.631 -3293.5 1948.71 
-315.33 -3291.7 1949.31 
-315.073 -3292.32 1948.99 
-315.238 -3292.1 1949.2 
-315.024 -3292.93 1948.96 
-303.793 -3318.43 1944.04 
-303.93 -3318.15 1944.26 
-303.583 -3318.86 1944.03 
-303.795 -3318.71 1944.25 
-303.021 -3319.26 1943.68 
-303.04 -3319.52 1943.72 
-302.641 -3319.58 1943.29 
-302.851 -3319.58 1943.54 
-303.288 -3319.01 1943.79 
-303.884 -3319.49 1944.63 
-301.059 -3321.33 1943.43 
-301.15 -3321.15 1943.82 
-301.403 -3320.89 1943.81 
-300.252 -3322.71 1942.52 
-301.956 -3320.28 1943.41 
-302.367 -3319.93 1943.28 
-298.811 -3324.5 1942.33 
-298.599 -3325.06 1943.28 
-298.334 -3325.67 1945.3 
-298.081 -3325.95 1945.21 
-298.672 -3323.67 1940.43 
-313.333 -3295.01 1951.37 
-313.792 -3294.6 1950.23 
-313.939 -3294.36 1950.44 
-314.449 -3293.9 1949.5 
-314.508 -3293.78 1949.74 
-314.389 -3293.99 1949.32 
-314.341 -3294.08 1949.16 
-309.45 -3302.97 1956.73 
-309.321 -3303.47 1956.42 
-309.406 -3303.14 1955.69 
-309.377 -3304.48 1954.48 
-309.309 -3304.81 1953.82 
-308.909 -3304.17 1952.18 
-310.015 -3300.63 1956.65 
-309.549 -3302.46 1956.99 
-309.497 -3302.81 1956.92 
-310.164 -3299.97 1956.48 
-310.569 -3298.95 1956.96 
-310.777 -3298.46 1957.21 
-310.69 -3298.64 1956.9 
-314.519 -3293.77 1948.83 
-314.453 -3293.9 1948.93 
-314.384 -3294 1949.03 
-308.384 -3306.9 1951.11 
-307.435 -3309.61 1949.87 
-308.963 -3306.25 1952.41 
-308.713 -3305.5 1951.51 
-306.415 -3311.7 1948.14 
-305.484 -3313.27 1947.63 
-305.464 -3313.22 1947.43 
-304.741 -3314.55 1947.33 
-304.487 -3315.15 1947.17 
-304.394 -3315.25 1946.64 
-304.432 -3315.23 1946.17 
-304.301 -3316.14 1945.37 
-304.209 -3317.07 1944.57 
-304.08 -3317.68 1944.53 
-304.163 -3317.41 1944.79 
-304.047 -3318.04 1944.67 
-304.706 -3323.58 1973.5 
-304.226 -3323.62 1973.72 
-301.843 -3323.67 1976.77 
-305.632 -3323.85 1971.45 
-306.002 -3323.79 1971.16 
-306.837 -3323.59 1970.64 
-307.048 -3323.56 1970.53 
-306.703 -3323.64 1970.43 
-307.193 -3323.48 1970.4 
-307.168 -3323.05 1970.94 
-307.368 -3323.1 1970.45 
-307.412 -3323.25 1970.27 
-307.28 -3323.33 1970.22 
-306.405 -3318.13 1971.97 
-306.773 -3317.31 1971.64 
-307.597 -3316.11 1972.99 
-308.269 -3315.59 1975.74 
-308.457 -3315.58 1976.32 
-306.08 -3321.85 1973.7 
-306.712 -3322.45 1972 
-306.955 -3322.67 1971.39 
-305.611 -3319.74 1974.03 
-305.947 -3319.53 1972.83 
-305.943 -3319.02 1972.7 
-307.222 -3322.91 1970.76 
-306.163 -3318.74 1972.25 
-306.308 -3318.35 1971.63 
-306.047 -3319.03 1972.07 
-309.52 -3314.97 1977.01 
-310.475 -3314.62 1978.14 
-310.411 -3314.67 1978.28 
-308.949 -3315.13 1976.36 
-309.448 -3314.87 1976.83 
-312.334 -3313.67 1980.02 
-313.236 -3313.01 1981.12 
-313.339 -3312.87 1981.12 
-313.508 -3312.69 1981.19 
-313.88 -3312.39 1981 
-313.597 -3312.57 1980.98 
-313.96 -3312.29 1980.8 
-313.821 -3312.28 1980.51 
-314.05 -3311.68 1980.81 
-314.027 -3311.69 1980.75 
-314 -3311.82 1980.68 
-313.918 -3312.02 1980.49 
-313.765 -3312.22 1980.31 
-313.891 -3311.22 1980.76 
-313.774 -3310.79 1980.72 
-313.174 -3309.35 1980.41 
-312.142 -3307.59 1979.67 
-310.721 -3310.67 1977.45 
-310.488 -3311.79 1977.07 
-310.408 -3312.61 1976.96 
-310.2 -3313.17 1976.71 
-310.07 -3310.63 1973.56 
-309.989 -3311.07 1973.46 
-309.994 -3313.46 1976.42 
-309.77 -3313.36 1975.91 
-309.491 -3313.2 1975.4 
-309.497 -3312.83 1974.97 
-309.626 -3312.36 1974.48 
-309.916 -3311.23 1972.88 
-312.803 -3301.39 1976.31 
-313.199 -3300.84 1976.38 
-314.369 -3299.65 1975.89 
-314.453 -3299.47 1976.16 
-315.342 -3298.64 1975.71 
-311.95 -3302.14 1975.07 
-312.578 -3301.75 1976.06 
-310.193 -3308.16 1971.6 
-310.14 -3309.16 1970.41 
-310.186 -3306.84 1969.86 
-310.371 -3305.12 1970.83 
-311.185 -3302.89 1973.64 
-310.802 -3303.75 1971.73 
-310.502 -3302.99 1967.68 
-310.55 -3303.44 1968.87 
-311.498 -3302.29 1973.8 
-316.38 -3296.1 1975.41 
-316.3 -3296.07 1974.95 
-316.063 -3296.36 1973.9 
-315.207 -3296.96 1971.39 
-316.118 -3296.54 1974.5 
-314.646 -3297.79 1969.83 
-314.658 -3297.5 1969.81 
-314.953 -3295.62 1970.77 
-314.553 -3297.3 1969.68 
-314.541 -3295.89 1969.98 
-314.092 -3294.95 1969.49 
-313.678 -3295.12 1968.87 
-312.869 -3295.6 1967.95 
-311.627 -3297.43 1967.16 
-311.054 -3299.08 1967.09 
-315.85 -3297.76 1975.56 
-315.626 -3298.13 1975.76 
-316.154 -3296.95 1975.1 
-315.875 -3297.74 1975.09 
-315.982 -3297.35 1974.78 
-316.252 -3296.47 1975.03 
-311.011 -3301.03 1967.61 
-311.263 -3300.79 1967.8 
-310.868 -3301.09 1967.42 
-310.754 -3301.14 1967.23 
-310.653 -3298.34 1965.64 
-310.674 -3301.47 1967.22 
-310.615 -3299.87 1966.21 
-310.627 -3301.46 1966.94 
-310.774 -3297.42 1963.39 
-310.82 -3296.91 1959.34 
-310.856 -3297.91 1957.95 
-310.627 -3300.01 1965.97 
-310.776 -3298.34 1957.64 
-313.446 -3294.75 1951.59 
-314.182 -3293.74 1951.11 
-314.887 -3292.9 1950.53 
-315.127 -3292.13 1950.84 
-315.079 -3292.56 1950.4 
-315.232 -3292.14 1950.55 
-315.46 -3291.75 1949.76 
-315.509 -3291.27 1949.88 
-315.476 -3291.08 1949.74 
-315.283 -3292.24 1950.12 
-315.393 -3292.02 1949.92 
-315.35 -3292.16 1949.68 
-315.473 -3290.7 1949.57 
-315.464 -3291.21 1949.62 
-314.767 -3293.48 1948.89 
-315.402 -3291.67 1949.49 
-315.107 -3292.5 1949.12 
-315.353 -3292.01 1949.42 
-315.164 -3292.44 1949.27 
-315.022 -3293.25 1949.13 
-315.057 -3292.97 1949.14 
-303.967 -3318.49 1944.46 
-304.029 -3318.33 1944.67 
-303.991 -3319.41 1944.74 
-304.079 -3319.3 1944.89 
-303.647 -3319.71 1944.52 
-303.621 -3319.87 1944.54 
-302.982 -3319.73 1943.78 
-303.591 -3320 1944.56 
-302.682 -3319.73 1943.58 
-302.395 -3319.89 1943.54 
-303.79 -3319.59 1944.57 
-304.156 -3320.05 1945.23 
-304.2 -3320.06 1945.38 
-304.196 -3319.95 1945.28 
-300.392 -3322.34 1943.62 
-299.845 -3323.04 1946.55 
-299.672 -3323.28 1946.38 
-300.091 -3322.77 1946.7 
-300.498 -3322.27 1946.31 
-298.707 -3325.13 1945.16 
-302.064 -3320.22 1943.63 
-300.97 -3321.69 1945.63 
-298.101 -3325.32 1942.53 
-298.043 -3325.88 1943.86 
-297.676 -3326.17 1943.65 
-297.669 -3326.5 1945.78 
-297.838 -3326.82 1948.61 
-297.604 -3327.04 1948.49 
-297.829 -3324.84 1941.18 
-314.071 -3294.11 1950.67 
-314.138 -3293.92 1950.89 
-314.598 -3293.62 1950 
-314.648 -3293.47 1950.24 
-314.849 -3293.44 1949.56 
-314.761 -3293.46 1949.72 
-314.865 -3293.27 1949.9 
-314.56 -3293.77 1949.28 
-309.424 -3303.03 1957.26 
-309.322 -3303.33 1956.94 
-308.853 -3304.43 1957.64 
-308.805 -3304.85 1957.18 
-309.317 -3304.08 1955.66 
-309.36 -3304.59 1954.87 
-309.112 -3308.63 1954.07 
-309.117 -3308.72 1953.84 
-309.133 -3305.23 1952.98 
-309.107 -3308.75 1953.63 
-310.188 -3300.18 1956.85 
-310.58 -3299.2 1957.19 
-309.684 -3302.03 1957.02 
-309.474 -3302.9 1957.43 
-309.546 -3302.69 1957.47 
-310.671 -3298.71 1957.3 
-314.663 -3293.62 1949.05 
-314.604 -3293.72 1949.17 
-308.864 -3306.95 1952.25 
-308.674 -3307.82 1952.07 
-307.942 -3308.98 1951.13 
-307.241 -3310.58 1949.94 
-306.746 -3311.44 1948.8 
-309.052 -3308.92 1953.42 
-308.947 -3309.09 1953.16 
-306.465 -3312.07 1948.44 
-306.203 -3312.16 1948.01 
-305.628 -3313.28 1947.94 
-304.825 -3314.64 1947.65 
-304.747 -3314.71 1947.54 
-304.593 -3315.1 1947.51 
-304.361 -3315.68 1947.21 
-304.306 -3315.59 1946.88 
-304.232 -3315.85 1946.57 
-304.3 -3315.56 1946.37 
-304.227 -3316.46 1945.57 
-304.138 -3317.89 1944.95 
-304.167 -3317.59 1945.21 
-304.184 -3316.76 1945.81 
-304.189 -3319.02 1945.28 
-304.126 -3318.22 1945.16 
-301.992 -3323.62 1974.87 
-303.964 -3323.71 1973.32 
-305.218 -3323.82 1972.02 
-304.885 -3323.86 1971.93 
-301.619 -3323.66 1975.69 
-300.966 -3323.63 1974.65 
-305.2 -3323.91 1971.27 
-305.743 -3323.87 1971.09 
-306.165 -3323.84 1970.7 
-306.269 -3323.77 1970.08 
-306.88 -3323.56 1970.26 
-307.046 -3323.47 1970.24 
-306.679 -3323.56 1970.01 
-306.562 -3323.6 1970.02 
-307.084 -3323.4 1970.1 
-307.47 -3323.04 1970.18 
-307.404 -3323.17 1970.04 
-307.255 -3323.27 1969.98 
-307.073 -3323.36 1969.91 
-308.216 -3315.5 1975.35 
-305.935 -3317.8 1970.15 
-307.053 -3316.22 1969.79 
-306.041 -3317.14 1968.97 
-306.037 -3317.59 1969.93 
-307.395 -3315.48 1969.21 
-307.788 -3314.86 1972.17 
-307.604 -3314.92 1968.79 
-307.987 -3314.46 1972.92 
-308.622 -3314.95 1975.69 
-306.893 -3322.46 1971.5 
-306.276 -3321.63 1973.13 
-306.836 -3322.26 1971.6 
-305.969 -3319.84 1972.65 
-305.975 -3319.27 1972.18 
-307.435 -3322.91 1970.35 
-306.095 -3318.53 1971.25 
-305.862 -3318.14 1970.17 
-305.986 -3318.88 1971.28 
-305.991 -3319.11 1971.57 
-310.469 -3314.58 1978.05 
-312.348 -3313.55 1979.81 
-311.579 -3314.09 1978.78 
-310.588 -3314.46 1977.86 
-312.535 -3313.46 1980.16 
-313.265 -3312.82 1980.86 
-313.63 -3312.52 1980.73 
-313.311 -3312.75 1980.61 
-313.671 -3312.44 1980.54 
-313.402 -3312.55 1980.23 
-313.448 -3312.44 1980.1 
-313.921 -3311.58 1980.59 
-313.91 -3311.66 1980.56 
-313.85 -3311.87 1980.38 
-313.731 -3312.11 1980.15 
-313.339 -3312.35 1979.85 
-313.634 -3311.13 1980.16 
-312.71 -3309.52 1979.69 
-313.388 -3311.05 1979.88 
-313.812 -3311.44 1980.41 
-312.347 -3309.87 1979.18 
-311.952 -3310.52 1978.63 
-310.933 -3310.94 1977.66 
-310.731 -3312.01 1977.36 
-311.921 -3312.27 1978.43 
-311.9 -3312.55 1978.45 
-311.51 -3313 1978.13 
-310.112 -3310.28 1971.01 
-310.092 -3309.43 1970.21 
-311.428 -3313.25 1978.09 
-309.544 -3313.56 1975.66 
-309.468 -3312.74 1974.47 
-309.827 -3311.38 1972.64 
-309.59 -3312.17 1973.67 
-309.993 -3310.74 1970.77 
-309.96 -3310.05 1969.97 
-312.87 -3301.28 1975.96 
-312.693 -3301.42 1975.69 
-313.201 -3300.93 1976.04 
-314.29 -3299.78 1975.63 
-315.334 -3298.69 1975.39 
-312.149 -3301.65 1974.72 
-311.859 -3301.55 1973.5 
-310.277 -3306.57 1966.58 
-310.089 -3308.17 1967.9 
-310.311 -3305.88 1967.52 
-310.519 -3302.86 1967.12 
-311.053 -3303.15 1971.88 
-311.435 -3302.29 1973.22 
-310.807 -3303.39 1969.9 
-310.609 -3302.18 1967.44 
-310.629 -3301.65 1966.82 
-310.755 -3302.94 1968.81 
-310.69 -3302.27 1967.86 
-311.689 -3301.85 1973.39 
-315.968 -3296.83 1974.11 
-315.25 -3297.13 1971.75 
-316.048 -3297 1974.59 
-314.555 -3298.06 1969.8 
-314.456 -3297.86 1969.44 
-314.285 -3298.32 1969.34 
-314.358 -3297.7 1969.33 
-314.374 -3297.31 1969.41 
-314.291 -3296.1 1969.54 
-313.846 -3295.39 1969.06 
-313.296 -3295.68 1968.41 
-312.654 -3296.23 1967.77 
-311.704 -3297.56 1967.24 
-311.422 -3300.04 1967.67 
-311.234 -3300.48 1967.63 
-315.596 -3298.25 1975.34 
-315.884 -3297.75 1974.59 
-315.784 -3298.06 1974.87 
-315.883 -3297.29 1974.28 
-311.223 -3301.31 1968.02 
-310.955 -3301.5 1967.8 
-311.454 -3300.72 1968 
-311.527 -3301.16 1968.34 
-310.778 -3301.6 1967.6 
-310.768 -3296.79 1961.65 
-310.718 -3299.36 1964.75 
-310.651 -3300.32 1965.76 
-310.791 -3297.16 1960.86 
-310.855 -3297.62 1958.61 
-310.849 -3298.31 1958.09 
-310.853 -3297.94 1958.23 
-310.729 -3298.67 1957.64 
-314.783 -3293.21 1950.37 
-315.038 -3292.86 1950.13 
-315.123 -3292.69 1949.96 
-315.345 -3292.14 1949.52 
-315.464 -3291.56 1949.7 
-315.247 -3292.43 1949.77 
-315.179 -3292.55 1949.43 
-315.154 -3292.66 1949.59 
-315.077 -3292.97 1949.33 
-314.937 -3293.33 1949.3 
-304.14 -3319.17 1945.07 
-304.213 -3319.87 1945.3 
-304.239 -3319.79 1945.4 
-304.136 -3320.16 1945.28 
-304.067 -3320.25 1945.26 
-302.805 -3319.78 1943.84 
-303.507 -3320.06 1944.55 
-304.003 -3320.33 1945.26 
-302.469 -3319.87 1943.78 
-302.185 -3320.17 1943.81 
-304.211 -3320.21 1945.54 
-304.255 -3320.23 1945.76 
-304.264 -3320.09 1945.62 
-299.546 -3323.64 1944.79 
-298.949 -3324.32 1948.24 
-299.35 -3323.89 1948.87 
-299.072 -3324.16 1948.71 
-299.609 -3323.6 1949.09 
-300.098 -3323.31 1949.41 
-298.449 -3325.61 1946.58 
-298.024 -3326.55 1948.52 
-301.181 -3321.52 1945.59 
-300.412 -3322.83 1947.77 
-297.209 -3325.89 1942.22 
-297.383 -3326.69 1945.09 
-296.972 -3327.16 1945.78 
-297.172 -3326.69 1943.83 
-296.707 -3326.44 1942.66 
-297.105 -3327.41 1948.26 
-297.34 -3327.29 1948.78 
-297.769 -3327.41 1950.37 
-297.45 -3327.88 1950.72 
-297.578 -3327.72 1950.82 
-297.33 -3327.93 1950.51 
-314.82 -3293.25 1950.13 
-314.89 -3293.36 1949.49 
-315.098 -3292.88 1949.78 
-315.032 -3293.08 1949.58 
-309.013 -3303.96 1958.35 
-308.952 -3304.12 1958.03 
-308.501 -3305.31 1958.74 
-308.41 -3305.72 1958.37 
-308.091 -3307.23 1958.6 
-308.728 -3305.55 1956.68 
-307.733 -3308.85 1958.82 
-309.133 -3306.57 1954.87 
-309.12 -3307.79 1954.42 
-308.934 -3311.33 1954.86 
-308.956 -3311.44 1954.64 
-308.975 -3311.56 1954.44 
-308.977 -3311.64 1954.25 
-309.967 -3301.05 1956.96 
-310.342 -3299.87 1957.05 
-310.574 -3299.47 1957.3 
-310.68 -3299.03 1957.5 
-309.82 -3301.9 1957.22 
-309.644 -3302.3 1957.49 
-309.567 -3302.69 1957.89 
-309.126 -3303.76 1958.85 
-309.062 -3303.85 1958.6 
-308.254 -3309.54 1952.11 
-308.801 -3309.32 1952.9 
-307.679 -3310.49 1951.49 
-307.319 -3311.19 1950.4 
-307.339 -3312.85 1950.38 
-307.189 -3313.17 1950.13 
-308.878 -3310.17 1953.69 
-308.628 -3310.25 1953.27 
-308.812 -3311.62 1953.8 
-306.982 -3313.4 1949.88 
-306.354 -3312.51 1948.39 
-305.69 -3313.53 1948.29 
-304.969 -3314.61 1947.92 
-304.794 -3314.98 1947.88 
-304.673 -3315.17 1947.77 
-304.489 -3315.61 1947.55 
-304.521 -3316.73 1947.86 
-304.271 -3316.17 1947.06 
-304.217 -3316.08 1946.79 
-304.192 -3316.37 1946.59 
-304.165 -3317.95 1945.39 
-304.171 -3317.08 1946.08 
-304.23 -3318.86 1945.47 
-304.312 -3319.62 1945.83 
-304.267 -3319.75 1945.58 
-304.307 -3319.87 1945.9 
-304.26 -3318.79 1945.72 
-302.085 -3323.85 1972.14 
-303.936 -3323.99 1970.49 
-305.982 -3323.92 1970.6 
-306.135 -3323.85 1970.23 
-306.353 -3323.65 1969.88 
-305.656 -3323.77 1969.18 
-305.785 -3323.65 1968.97 
-306.797 -3323.48 1969.94 
-306.879 -3323.41 1969.82 
-306.581 -3323.48 1969.71 
-306.458 -3323.54 1969.75 
-307.338 -3323.08 1969.88 
-307.458 -3322.97 1970 
-307.235 -3323.22 1969.78 
-307.073 -3323.29 1969.67 
-306.891 -3323.32 1969.55 
-308.822 -3313.02 1973.02 
-308.126 -3313.36 1971.49 
-305.353 -3317.51 1967.52 
-305.442 -3317.16 1967.28 
-306.43 -3316.43 1968.31 
-307.199 -3314.91 1966.72 
-307.239 -3314.52 1965.76 
-305.696 -3316.49 1966.59 
-305.547 -3316.66 1966.57 
-307.357 -3314.15 1965.2 
-307.692 -3314.71 1969.01 
-307.631 -3314.98 1971.52 
-308.067 -3313.06 1969.52 
-308.124 -3312.85 1969.83 
-307.942 -3313.61 1971.36 
-307.97 -3313.53 1971.31 
-307.862 -3313.53 1966.35 
-307.081 -3322.47 1971.02 
-307.345 -3322.65 1970.49 
-306.374 -3321.55 1972.78 
-305.889 -3320.23 1973.15 
-306.996 -3322.26 1971.2 
-306.021 -3319.59 1971.9 
-306.13 -3319.96 1972.07 
-306.046 -3320.17 1972.43 
-307.478 -3322.73 1970.09 
-305.71 -3318.48 1970.03 
-305.806 -3318.34 1970.19 
-305.371 -3317.92 1968.2 
-305.656 -3318.67 1970.05 
-305.615 -3318.8 1969.98 
-311.595 -3314 1978.72 
-312.513 -3313.37 1979.9 
-312.526 -3313.3 1979.77 
-310.715 -3314.31 1977.79 
-309.431 -3314.19 1976.13 
-310.7 -3314.19 1977.65 
-311.563 -3313.92 1978.59 
-313.335 -3312.67 1980.37 
-312.511 -3313.22 1979.61 
-312.455 -3313.02 1979.29 
-312.455 -3313.16 1979.41 
-312.567 -3312.82 1979.29 
-313.763 -3311.72 1980.23 
-313.633 -3311.43 1980.17 
-313.657 -3311.98 1979.96 
-313.308 -3312.16 1979.71 
-311.039 -3313.67 1977.79 
-313.531 -3311.25 1979.98 
-313.177 -3311.07 1979.63 
-313.41 -3311.34 1979.81 
-313.04 -3311.35 1979.42 
-311.906 -3311.41 1978.45 
-311.916 -3311.94 1978.43 
-313.386 -3311.81 1979.68 
-313.145 -3311.59 1979.48 
-310.007 -3309.72 1970.03 
-309.921 -3308.97 1968.96 
-309.966 -3313.94 1976.62 
-309.71 -3311.34 1971.84 
-309.831 -3311 1970.83 
-309.569 -3311.61 1971.82 
-309.822 -3310.28 1969.83 
-309.679 -3310.59 1969.82 
-309.766 -3309.41 1968.62 
-309.697 -3309.66 1968.79 
-309.85 -3309.19 1968.71 
-313.084 -3300.98 1975.69 
-312.958 -3300.97 1975.32 
-312.461 -3301.16 1974.53 
-314.158 -3299.91 1975.37 
-315.156 -3298.88 1975.16 
-315.422 -3298.52 1974.99 
-312.197 -3300.97 1973.43 
-311.806 -3301.53 1972.91 
-312.056 -3301.12 1973.13 
-310.284 -3306.41 1965.57 
-310.547 -3303.22 1966.27 
-310.673 -3303.92 1964.53 
-310.609 -3304.19 1964.08 
-310.023 -3308.47 1967.51 
-311.44 -3302.32 1971.76 
-311.174 -3302.87 1970.26 
-311.082 -3302.83 1969.54 
-310.855 -3302.24 1968.23 
-311 -3302.54 1968.9 
-315.25 -3297.34 1972 
-314.526 -3298.27 1970.03 
-314.245 -3298.6 1969.57 
-314.19 -3298.18 1969.12 
-314.079 -3298.76 1969.36 
-314.224 -3298.41 1969.22 
-314.141 -3297.7 1969.05 
-314.091 -3298.06 1968.97 
-314.19 -3297.29 1969.16 
-314.014 -3296.32 1969.1 
-313.692 -3296.58 1968.71 
-313.381 -3296.88 1968.36 
-313 -3297.2 1968.05 
-311.94 -3297.25 1967.34 
-311.694 -3299.37 1967.61 
-311.731 -3300.34 1968.04 
-312.727 -3299.38 1968.27 
-315.834 -3297.63 1974.3 
-315.479 -3297.8 1973.48 
-315.696 -3298.13 1974.46 
-315.535 -3298.35 1974.72 
-315.522 -3297.45 1973.11 
-311.325 -3301.67 1968.44 
-311.03 -3302.02 1968.33 
-311.742 -3300.72 1968.31 
-311.766 -3301.25 1968.74 
-312.69 -3300.08 1968.69 
-310.76 -3298.97 1964.17 
-310.846 -3301.89 1964.94 
-310.835 -3297.46 1960.9 
-310.958 -3298.36 1962.66 
-310.871 -3297.59 1959.23 
-310.83 -3297.88 1958.55 
-310.791 -3298.81 1957.9 
-310.878 -3298.52 1958.31 
-304.28 -3320.01 1945.62 
-304.304 -3319.97 1945.79 
-304.169 -3320.31 1945.58 
-304.109 -3320.37 1945.5 
-303.396 -3320.08 1944.55 
-302.636 -3319.85 1944.01 
-303.935 -3320.41 1945.32 
-303.984 -3320.54 1945.59 
-302.384 -3320.05 1943.99 
-302.11 -3320.37 1944.17 
-301.267 -3321.63 1946 
-304.163 -3320.39 1945.85 
-304.271 -3320.27 1945.98 
-304.174 -3320.41 1946.1 
-304.33 -3320.16 1945.91 
-298.655 -3324.93 1947.7 
-298.559 -3325.05 1949.96 
-298.65 -3324.84 1950.31 
-298.933 -3324.47 1950.76 
-299.201 -3324.23 1950.89 
-298.741 -3324.69 1950.61 
-299.535 -3324 1951.29 
-300.425 -3322.93 1948.78 
-301.711 -3322.63 1952.03 
-300.468 -3323.45 1952.12 
-298.133 -3326.27 1948.56 
-297.887 -3326.98 1949.85 
-300.6 -3322.64 1947.74 
-296.952 -3328.21 1949.99 
-295.478 -3327.69 1943.85 
-296.171 -3327.02 1943.17 
-297.235 -3328.07 1950.49 
-297.06 -3328.01 1949.58 
-297.747 -3327.64 1951.78 
-297.495 -3327.92 1952.23 
-297.875 -3328.55 1953.56 
-297.469 -3328.27 1952.32 
-297.891 -3328.32 1953.38 
-297.796 -3328.7 1953.76 
-308.582 -3304.98 1959.26 
-308.646 -3304.86 1959.65 
-308.245 -3306.6 1959.05 
-308.476 -3305.39 1959.38 
-307.554 -3309.51 1959.72 
-307.856 -3308.57 1958.22 
-308.63 -3306.76 1956.11 
-306.959 -3312.84 1961.37 
-307.027 -3312.53 1960.69 
-308.437 -3308.52 1956.1 
-308.844 -3309.27 1954.85 
-308.881 -3311.2 1955.09 
-309.045 -3312.96 1955.01 
-308.935 -3312.91 1955.22 
-309.008 -3312.97 1954.72 
-308.915 -3311.57 1954.02 
-308.928 -3312.83 1954.26 
-308.822 -3313.43 1954.4 
-310.117 -3300.72 1957.15 
-309.978 -3301.58 1957.32 
-310.416 -3300 1957.25 
-310.571 -3299.7 1957.39 
-310.766 -3299.53 1957.63 
-310.746 -3299.2 1957.73 
-309.792 -3302.12 1957.58 
-309.579 -3302.84 1958.24 
-309.703 -3302.51 1957.96 
-309.173 -3303.7 1958.98 
-308.912 -3304.51 1960.24 
-308.758 -3304.68 1959.93 
-308.136 -3310.68 1952.53 
-307.718 -3311.05 1951.76 
-307.683 -3312.29 1951.58 
-308.147 -3313.2 1952.63 
-307.751 -3314.78 1951.97 
-308.263 -3313.96 1953.13 
-308.599 -3310.88 1953.4 
-308.752 -3311.77 1953.71 
-308.642 -3313.66 1954.03 
-306.802 -3313.74 1949.85 
-307.17 -3314.82 1950.93 
-307.542 -3314.88 1951.61 
-306.383 -3312.85 1948.79 
-305.833 -3313.75 1948.65 
-305.212 -3314.55 1948.27 
-304.995 -3315.72 1948.48 
-304.799 -3316.08 1948.32 
-304.663 -3316.37 1948.1 
-304.413 -3317.1 1947.6 
-304.79 -3317.48 1948.76 
-304.557 -3317.97 1948.39 
-304.678 -3317.99 1948.85 
-304.219 -3316.52 1946.83 
-304.324 -3317.34 1947.29 
-304.295 -3318.11 1946.52 
-304.348 -3319.77 1946.18 
-304.369 -3319.55 1946.15 
-304.353 -3320 1946.16 
-304.351 -3319.91 1946.28 
-300.448 -3324.09 1973.28 
-302.518 -3324.05 1970.55 
-302.169 -3324.13 1970.55 
-305.391 -3323.88 1969.5 
-305.899 -3323.54 1968.77 
-304.819 -3323.84 1968.16 
-304.798 -3323.82 1967.75 
-306.633 -3323.41 1969.56 
-306.716 -3323.32 1969.34 
-305.895 -3323.42 1968.31 
-305.963 -3323.44 1968.56 
-307.169 -3322.82 1969.66 
-307.247 -3323.04 1969.54 
-307.296 -3322.71 1969.83 
-307.235 -3323.06 1969.45 
-306.907 -3323.15 1969.07 
-308.977 -3312.02 1971.1 
-308.427 -3312.38 1970.31 
-308.254 -3312.57 1969.92 
-305.206 -3317.38 1966.76 
-305.247 -3317.06 1966.46 
-305.377 -3316.83 1966.39 
-306.396 -3315.47 1965.86 
-306.239 -3315.51 1965.44 
-306.716 -3314.78 1964.27 
-305.531 -3316.52 1965.88 
-307.405 -3313.82 1964.74 
-306.8 -3314.54 1963.68 
-307.825 -3314.08 1969.62 
-308.142 -3312.74 1967.22 
-308.397 -3311.66 1967.33 
-308.479 -3311.68 1968.24 
-308.063 -3312.37 1966.14 
-307.447 -3313.43 1964.49 
-307.223 -3322.37 1970.67 
-306.426 -3321.43 1972.46 
-307.158 -3322.19 1970.8 
-306.094 -3319.92 1971.68 
-305.935 -3319.59 1971.47 
-306.232 -3320.29 1971.84 
-306.508 -3321.17 1971.72 
-305.818 -3319.33 1970.99 
-305.571 -3318.98 1969.85 
-307.437 -3322.45 1970.02 
-307.264 -3322.44 1969.8 
-305.282 -3318.19 1968.16 
-305.219 -3317.85 1967.46 
-305.232 -3318.44 1967.93 
-313.528 -3311.52 1979.92 
-309.429 -3311.03 1969.85 
-309.553 -3309.83 1968.59 
-309.217 -3310.12 1967.29 
-309.685 -3309.26 1967.19 
-309.875 -3308.9 1967.36 
-314.086 -3299.92 1975.09 
-312.81 -3300.64 1974.25 
-314 -3299.9 1974.81 
-312.449 -3300.59 1973.27 
-315.057 -3298.94 1974.84 
-315.329 -3298.52 1974.55 
-312.273 -3300.74 1972.97 
-312.421 -3300.54 1972.88 
-311.804 -3301.6 1971.52 
-312.127 -3300.91 1972.69 
-310.262 -3306.38 1965.02 
-310.876 -3302.68 1964.5 
-310.906 -3303.11 1963.59 
-311.06 -3302.56 1963.42 
-310.61 -3304.04 1963.43 
-310.83 -3303.25 1963.26 
-310.047 -3308.21 1966.22 
-311.65 -3302.05 1970.3 
-311.543 -3302.18 1969.82 
-311.405 -3302.2 1969.33 
-311.258 -3302.14 1968.91 
-314.888 -3297.69 1971.25 
-314.775 -3297.96 1971.2 
-314.167 -3298.79 1969.76 
-313.967 -3299.05 1969.54 
-314.039 -3298.39 1968.97 
-313.803 -3299.17 1969.26 
-313.903 -3298.92 1969.14 
-313.932 -3298.69 1968.96 
-313.968 -3297.6 1968.88 
-313.924 -3297.98 1968.81 
-313.93 -3298.25 1968.83 
-313.734 -3297.89 1968.63 
-312.729 -3297.69 1967.89 
-313.591 -3298.2 1968.5 
-312.668 -3298.28 1967.92 
-312.614 -3298.69 1968 
-312.728 -3299.09 1968.16 
-312.775 -3299.62 1968.41 
-312.747 -3299.83 1968.54 
-313.609 -3298.57 1968.6 
-313.795 -3298.59 1968.77 
-313.656 -3298.91 1968.76 
-315.21 -3298.16 1973.48 
-314.937 -3297.91 1972.35 
-311.678 -3301.58 1968.94 
-312.828 -3300.19 1969 
-312.728 -3300.16 1968.81 
-313.718 -3299.04 1968.86 
-310.858 -3299.94 1964.17 
-311.515 -3301.29 1962.32 
-311.579 -3301.58 1962.1 
-310.956 -3297.82 1960.65 
-311.036 -3298.25 1961.74 
-310.939 -3297.77 1959.86 
-311.578 -3299.83 1961.49 
-311.518 -3300.25 1962 
-310.856 -3298.07 1958.75 
-310.96 -3297.98 1959.35 
-310.909 -3298.98 1958.14 
-311.018 -3298.83 1958.51 
-304.341 -3320.12 1946.15 
-304.031 -3320.55 1945.78 
-303.279 -3320.13 1944.6 
-303.825 -3320.51 1945.39 
-302.599 -3320.15 1944.06 
-303.851 -3320.67 1945.65 
-303.879 -3320.79 1945.9 
-302.27 -3320.41 1944.38 
-301.581 -3321.35 1945.83 
-301.129 -3322.38 1947.59 
-304.102 -3320.63 1946.29 
-304.038 -3320.65 1946.07 
-304.137 -3320.53 1946.5 
-304.258 -3320.31 1946.27 
-304.041 -3320.78 1946.59 
-298.331 -3325.48 1948.99 
-298.443 -3325.24 1950.89 
-298.154 -3326.01 1950.1 
-298.571 -3325.06 1951.15 
-299.063 -3324.48 1951.4 
-298.772 -3324.78 1951.27 
-300.446 -3323.84 1953.07 
-300.023 -3324.29 1953.12 
-301.266 -3322.71 1950.74 
-302.466 -3322.42 1953.41 
-303.199 -3321.85 1952.63 
-302.894 -3321.77 1951.69 
-302.559 -3322.05 1951.01 
-301.593 -3323.25 1954.38 
-297.913 -3327.23 1950.92 
-300.769 -3322.63 1948.24 
-296.587 -3328.36 1949.8 
-295.566 -3328.78 1949.96 
-297.243 -3328.54 1951.85 
-297.494 -3328.92 1953.93 
-297.689 -3328.82 1953.94 
-298.097 -3326.79 1952.21 
-297.639 -3327.87 1952.57 
-298.06 -3328.17 1953.73 
-298.051 -3327.96 1953.41 
-298.469 -3328.45 1955.7 
-298.346 -3328.78 1956.1 
-308.502 -3305.43 1959.93 
-308.59 -3305.23 1960.21 
-308.266 -3306.67 1959.71 
-307.624 -3309.37 1960.16 
-308.315 -3306.71 1960.3 
-306.983 -3312.75 1961.82 
-307.648 -3309.8 1958.42 
-306.993 -3313.54 1960.54 
-308.137 -3307.56 1957.3 
-306.658 -3314.77 1962.4 
-306.722 -3314.3 1962.64 
-306.749 -3314.87 1961.88 
-308.396 -3310.88 1956.35 
-307.294 -3312.83 1959.28 
