-124.453 -3386.13 1947.9 
-123.555 -3387.07 1950.27 
-124.209 -3387.28 1951.6 
-124.464 -3387.74 1953 
-124.499 -3389.12 1953.81 
-123.62 -3390.14 1956.34 
-123.812 -3390.81 1955.01 
-123.534 -3391.26 1956.02 
-123.754 -3391.13 1954.37 
-124.208 -3391.21 1961.58 
-123.865 -3391.6 1961.39 
-123.519 -3392.33 1960.82 
-123.404 -3392.81 1959.61 
-123.498 -3392.38 1958.87 
-123.779 -3392.88 1966.23 
-123.809 -3393.14 1967.67 
-124.598 -3382.73 1929.59 
-121.71 -3382.8 1929.39 
-116.864 -3384.62 1930.28 
-118.758 -3383.44 1930.56 
-122.648 -3382.83 1929.25 
-123.245 -3382.91 1928.82 
-125.082 -3392.24 1968.06 
-120.266 -3390.4 1950.17 
-120.731 -3391.2 1951.55 
-117.93 -3409.56 2003.49 
-119.548 -3408.4 1993.27 
-118.843 -3408.4 1995.83 
-123.846 -3407.17 1981.22 
-125.198 -3405.91 1978.49 
-125.159 -3404.95 1977.81 
-124.814 -3404.36 1977.8 
-124.255 -3403.27 1977.75 
-124.578 -3403.9 1977.81 
-118.833 -3409.29 1988.66 
-120.971 -3409 1986.5 
-123.063 -3408.63 1984.07 
-124.281 -3407.83 1981.74 
-119.448 -3409.22 1988.68 
-121.114 -3408.7 1994.44 
-120.401 -3408.92 1989.43 
-119.096 -3409.94 1988.56 
-121.563 -3408.14 1996.22 
-121.56 -3408.41 1995.21 
-122.059 -3408.16 1995.47 
-121.014 -3408.95 1999.73 
-121.626 -3408.77 1999.11 
-120.178 -3410.55 2001.88 
-120.634 -3409.85 2000.81 
-122.212 -3408.88 1998.79 
-122.57 -3408.14 1997.83 
-122.826 -3407.59 1996.94 
-122.242 -3407.76 1996.68 
-122.215 -3407.93 1996.07 
-119.885 -3410.55 2002.52 
-123.961 -3402.68 1977.7 
-118.365 -3400.47 1979.76 
-117.55 -3402.18 1984.48 
-118.918 -3401.05 1984.81 
-118.225 -3402.72 1984.8 
-119.92 -3400.87 1981.55 
-123.779 -3402.58 1978.3 
-123.033 -3402.49 1979.12 
-122.791 -3401.93 1979.13 
-119.057 -3393.47 1958.63 
-119.665 -3397.59 1969.26 
-120.257 -3396.52 1966.36 
-119.656 -3395.68 1963.96 
-119.032 -3399.13 1974.92 
-119.995 -3395.36 1962.48 
-121.635 -3387.9 1942.86 
-121.444 -3388.54 1944.84 
-120.968 -3389.31 1946.9 
-120.658 -3389.85 1948.17 
-120.395 -3386.16 1937.7 
-121.551 -3387.15 1940.69 
-120.488 -3390.22 1949.37 
-120.815 -3386.2 1934.46 
-121.156 -3385.45 1935.37 
-120.314 -3385.85 1935.79 
-120.091 -3385.98 1936.27 
-117.484 -3385.87 1930.86 
-120.921 -3386.96 1934.14 
-119.001 -3386.42 1932.57 
-120.406 -3386.82 1933.89 
-117.904 -3386.77 1931.62 
-118.096 -3386.6 1932.07 
-138.695 -3390.08 1965.88 
-139.249 -3389.88 1964.82 
-139.847 -3390.69 1972.39 
-139.961 -3390.49 1969.69 
-137.619 -3390.63 1971.52 
-136.164 -3390.46 1971.61 
-135.158 -3390.68 1970.7 
-134.844 -3390.93 1970.1 
-134.032 -3391.61 1969.81 
-135.21 -3390.55 1971.22 
-132.613 -3392.15 1970.84 
-137.006 -3390.75 1971.83 
-130.935 -3392.39 1970.54 
-129.176 -3392.15 1966.31 
-128.815 -3392.17 1967.73 
-128.706 -3392.26 1966.04 
-128.171 -3391.68 1965.11 
-127.597 -3391.86 1965.42 
-127.938 -3392.06 1968.17 
-127.206 -3392 1969.6 
-125.771 -3392.38 1969.29 
-131.927 -3385.84 1983.74 
-131.584 -3385.91 1982.42 
-131.452 -3386.52 1980.14 
-131.264 -3387.24 1978.77 
-132.321 -3388.22 1977.05 
-134.643 -3389.31 1974.76 
-135.502 -3389.93 1973.16 
-137.539 -3390.38 1972.14 
-136.353 -3390.24 1972.09 
-138.529 -3390.24 1972.89 
-139.061 -3390.56 1972.93 
-122.476 -3383.61 1933.98 
-124.203 -3382.53 1933.5 
-125.098 -3381.93 1932.97 
-125.564 -3382.32 1932.29 
-122.996 -3382.89 1933.25 
-123.202 -3383.79 1935.99 
-122.876 -3383.86 1934.96 
-127.312 -3382.87 1931.19 
-126.984 -3382.41 1931.52 
-126.777 -3383.16 1931.03 
-123.156 -3384.34 1937.15 
-123.411 -3383.93 1939.87 
-123.31 -3384.43 1938.11 
-123.694 -3385.1 1942.44 
-122.236 -3383.86 1945.58 
-124.011 -3385.1 1946.53 
-124.433 -3386.71 1947.51 
-123.442 -3387.6 1950.35 
-124.11 -3386.97 1948.95 
-123.587 -3387.43 1949.78 
-124.117 -3388.06 1951.58 
-124.401 -3388.13 1952.65 
-124.357 -3387.35 1947.73 
-124.511 -3386.75 1948.13 
-124.445 -3388.87 1953.27 
-124.247 -3389.97 1953.1 
-123.44 -3392.11 1955.94 
-123.943 -3390.67 1953.01 
-123.423 -3391.81 1954.44 
-123.719 -3392.34 1963.68 
-123.716 -3392.51 1964.67 
-123.571 -3392.02 1962.34 
-123.145 -3393.27 1961.61 
-123.144 -3393.56 1960.42 
-123.268 -3392.46 1962.1 
-123.165 -3393.7 1959.45 
-123.349 -3393.15 1958.97 
-123.342 -3393.64 1967.32 
-124.492 -3392.62 1967.91 
-123.74 -3393.53 1968.37 
-123.252 -3393.91 1967.75 
-125.543 -3392.25 1968.71 
-125.269 -3383.32 1928.97 
-125.614 -3383.43 1929.38 
-124.824 -3383.2 1928.71 
-126.298 -3383.28 1930.59 
-117.494 -3384.43 1930.63 
-117.729 -3384.84 1930.91 
-122.148 -3382.91 1929.05 
-124.341 -3383.09 1928.18 
-117.94 -3411.27 2009.4 
-117.371 -3409.26 2005.19 
-117.369 -3410.1 2008.03 
-120.34 -3391.64 1952.3 
-118.8 -3409.84 2002.85 
-117.825 -3407.29 1993.76 
-119.461 -3408.19 1994.98 
-118.113 -3407.78 1994.06 
-119.635 -3408.33 1995.64 
-116.925 -3407.17 1995.17 
-124.419 -3403.42 1977.17 
-123.536 -3401.87 1977.2 
-118.499 -3410 1988.89 
-117.053 -3408.92 1989.57 
-121.441 -3409.6 1986.78 
-123.593 -3409.23 1984.52 
-125.398 -3408.41 1981.64 
-118.162 -3409.62 1988.83 
-121.338 -3408.77 1993.94 
-121.991 -3408.37 1994.76 
-121.99 -3408.51 1994.25 
-121.592 -3408.72 1990.58 
-121.641 -3408.82 1993.29 
-121.147 -3409.08 1989.56 
-121.693 -3408.91 1989.99 
-120.17 -3409.93 1988.87 
-122.818 -3407.87 1995.49 
-122.69 -3408.09 1994.93 
-121.196 -3409.57 2000.15 
-121.722 -3409.58 1999.77 
-120.33 -3410.88 2002.53 
-121.14 -3410.3 2000.83 
-122.186 -3409.8 1999.62 
-122.717 -3409.1 1998.61 
-123.186 -3408.41 1997.66 
-123.427 -3407.45 1996.25 
-122.864 -3407.68 1996.12 
-123.668 -3407.92 1996.85 
-119.235 -3410.31 2003.08 
-118.431 -3400.1 1977.76 
-118.497 -3400.23 1978.33 
-117.839 -3401.31 1984.87 
-118.155 -3401.62 1984.53 
-117.96 -3401.93 1985.83 
-118.34 -3401.83 1985.51 
-118.543 -3402.76 1983.45 
-119.927 -3400.27 1981.21 
-119.561 -3400.43 1981.68 
-120.508 -3401.05 1981.01 
-121.72 -3401.07 1979.83 
-118.928 -3403.33 1983.47 
-123.467 -3401.79 1978.06 
-122.838 -3400.68 1978.18 
-123.096 -3401.15 1978.04 
-122.517 -3400.12 1978.23 
-119.48 -3393.52 1958.08 
-119.066 -3392.73 1955.88 
-119.568 -3392.05 1954.01 
-119.668 -3397.9 1970.18 
-119.431 -3398.83 1973.58 
-120.607 -3396.36 1965.35 
-120.328 -3397.03 1967.35 
-120.368 -3395.67 1963.61 
-120.307 -3394.73 1960.9 
-120.837 -3393.89 1959.58 
-120.137 -3394.05 1959.52 
-120.253 -3386.06 1936.88 
-120.752 -3385.96 1937.18 
-121.943 -3388.39 1944.64 
-120.811 -3390.39 1948.79 
-120.888 -3390.36 1949.94 
-121.54 -3385.3 1935.68 
-120.891 -3385.65 1936.1 
-121.321 -3386.22 1934.72 
-121.635 -3386.94 1934.69 
-119.47 -3386.44 1932.79 
-138.944 -3391.14 1967.21 
-139.252 -3389.95 1965.35 
-138.7 -3390.02 1965.27 
-138.403 -3391.19 1966.79 
-138.52 -3390.74 1971.39 
-139.214 -3390.88 1972.31 
-139.44 -3390.87 1973.05 
-135.252 -3390.38 1972.14 
-133.959 -3391.58 1970.37 
-134.529 -3390.85 1970.88 
-128.934 -3392.35 1969.45 
-129.921 -3392.62 1968.61 
-128.924 -3392.32 1970.13 
-130.082 -3392.5 1970.37 
-131.837 -3392.02 1971.49 
-130.991 -3392.28 1971.06 
-130.458 -3392.45 1970.78 
-128.298 -3392.67 1965.62 
-127.907 -3392.11 1969.68 
-126.345 -3392.24 1969.94 
-126.165 -3392.16 1970.46 
-132.258 -3385.79 1985.1 
-131.123 -3386.11 1981.41 
-131.125 -3386.36 1980.54 
-130.95 -3387.06 1979.13 
-131.17 -3389.72 1975.1 
-132.119 -3390.7 1973.65 
-132.609 -3390.85 1973.21 
-134.733 -3390.03 1973.34 
-138.44 -3390.56 1972.29 
-125.94 -3382.92 1931.17 
-122.517 -3383.33 1933.29 
-125.04 -3382.72 1932.3 
-124.566 -3382.93 1932.23 
-126.07 -3382.08 1931.88 
-123.066 -3383.74 1935.41 
-122.847 -3384.35 1935.17 
-123.202 -3384.3 1935.86 
-126.545 -3382.88 1931.38 
-123.559 -3384.68 1939.28 
-123.85 -3385.18 1940.02 
-123.853 -3385.3 1940.54 
-123.822 -3385.89 1941.9 
-123.051 -3384.65 1944.7 
-123.906 -3385.52 1946.13 
-124.302 -3386.43 1947.02 
-124.311 -3387.3 1946.43 
-123.587 -3388.41 1950.3 
-124.028 -3388.67 1951.42 
-123.869 -3389.35 1950.57 
-123.714 -3389.34 1950.05 
-124.023 -3387.71 1948.62 
-123.641 -3388.01 1949.69 
-123.699 -3387.91 1949.19 
-124.357 -3388.93 1952.69 
-124.257 -3387.77 1945.39 
-124.396 -3389.62 1952.59 
-123.671 -3390.15 1951.1 
-123.579 -3389.43 1949.41 
-123.602 -3391.32 1953.01 
-123.169 -3392.31 1954.79 
-123.295 -3392.57 1956.11 
-123.256 -3392.83 1957.59 
-123.055 -3394.29 1958.13 
-122.885 -3395.04 1957.84 
-123.74 -3391.7 1962.74 
-123.127 -3393.48 1962.75 
-122.951 -3394.11 1961.85 
-122.978 -3394.05 1961.17 
-123.672 -3393.12 1965.59 
-123.969 -3392.88 1964.11 
-123.02 -3393.94 1966.89 
-122.873 -3395.25 1968.72 
-125.24 -3383.06 1929.54 
-117.338 -3385.11 1930.6 
-121.157 -3382.84 1929.5 
-123.835 -3383 1928.45 
-117.419 -3409.58 2006.44 
-117.524 -3410.55 2008.56 
-121.399 -3390.07 1950.14 
-120.808 -3390.48 1950.47 
-120.99 -3391.48 1951.2 
-120.777 -3391.75 1951.92 
-118.793 -3409.9 2003.41 
-119.171 -3408.48 1994.29 
-119.155 -3408.39 1995.41 
-117.927 -3407.56 1995.62 
-117.375 -3407.58 1995.58 
-126.042 -3406.94 1978.83 
-125.863 -3406.16 1977.87 
-124.691 -3403.85 1976.99 
-117.771 -3410.91 1989.37 
-115.982 -3408.84 1990.05 
-117.406 -3409.22 1989.3 
-121.415 -3410.72 1987.15 
-119.568 -3411.83 1988.42 
-125.778 -3409.08 1982.33 
-124.026 -3409.87 1985.03 
-127.223 -3408.39 1980.07 
-126.907 -3407.71 1979.36 
-116.962 -3409.67 1989.3 
-122.738 -3408.24 1994.2 
-122.367 -3408.51 1993.74 
-121.896 -3408.89 1992.73 
-122.508 -3408.6 1993.21 
-120.765 -3409.54 1989.19 
-119.828 -3410.88 1988.6 
-119.157 -3411 1988.48 
-118.643 -3410.74 1988.57 
-116.354 -3410.17 1989.39 
-117.577 -3409.99 1988.94 
-115.792 -3409.78 1989.75 
-123.61 -3407.56 1995.53 
-123.371 -3407.8 1994.96 
-123.58 -3407.89 1994.34 
-121.643 -3410.45 2000.59 
-120.865 -3411.08 2001.9 
-119.532 -3410.7 2003.37 
-122.122 -3410.7 2000.45 
-122.664 -3409.99 1999.43 
-123.209 -3409.41 1998.52 
-123.698 -3408.75 1997.59 
-124.176 -3407.43 1995.91 
-124.212 -3408.17 1996.7 
-119.116 -3410.4 2003.57 
-122.908 -3400.8 1977.34 
-118.389 -3400.37 1979.27 
-118.741 -3401.26 1985.34 
-118.389 -3403.05 1983.93 
-118.057 -3402.64 1985.3 
-120.708 -3400.6 1980.57 
-119.277 -3400.27 1981.15 
-118.789 -3400.56 1981.12 
-122.365 -3399.91 1977.64 
-122.119 -3399.47 1977.53 
-120.374 -3392.19 1954.6 
-120.967 -3391.74 1953.59 
-120.191 -3398.84 1973.84 
-119.21 -3399.71 1976.46 
-120.791 -3397.52 1966.76 
-120.82 -3396.43 1964.85 
-120.87 -3393.45 1958.51 
-121.56 -3394.05 1960.18 
-120.4 -3393.05 1955.26 
-121.175 -3389.49 1947.36 
-121.196 -3390.02 1948.26 
-120.946 -3386.23 1937.68 
-122.205 -3387.2 1940.72 
-122.468 -3388.53 1944.55 
-121.77 -3389.65 1947.43 
-121.013 -3390.58 1949.24 
-121.26 -3385.6 1936.59 
-117.803 -3385.36 1931 
-122.114 -3385.45 1935.94 
-121.863 -3386.45 1935.08 
-121.925 -3387.45 1934.65 
-120.024 -3386.75 1933.45 
-118.49 -3386.32 1931.89 
-118.869 -3385.93 1931.96 
-138.72 -3391.2 1967.66 
-139.213 -3391.07 1967.65 
-139.961 -3390.78 1968.36 
-138.63 -3390.1 1966.41 
-140.418 -3390.54 1969.37 
-134.575 -3390.38 1972.52 
-134.457 -3390.6 1971.83 
-134.01 -3391.39 1970.9 
-133.116 -3391.9 1971.3 
-133.787 -3391.29 1971.44 
-129.894 -3392.48 1970.88 
-130.927 -3391.92 1972.01 
-130.303 -3392.22 1971.63 
-131.398 -3391.78 1972.19 
-132.686 -3392.07 1971.52 
-128.228 -3391.74 1965.75 
-126.787 -3392.12 1970.31 
-127.746 -3392.22 1970.41 
-126.358 -3392.02 1971.03 
-131.647 -3385.89 1984.21 
-131.261 -3385.92 1982.97 
-130.933 -3386.03 1982.08 
-130.703 -3386.87 1979.6 
-129.544 -3388.91 1976.33 
-127.588 -3390.63 1973.86 
-128.161 -3390.7 1973.74 
-128.696 -3390.66 1973.8 
-130.256 -3390.69 1973.86 
-130.978 -3391.7 1972.5 
-132.928 -3391.03 1972.72 
-121.996 -3384.05 1933.74 
-121.765 -3383.71 1933.23 
-123.138 -3383.21 1932.55 
-123.304 -3384.76 1936.45 
-122.433 -3384.05 1934.69 
-125.525 -3383.15 1931.47 
-123.399 -3385.03 1937.2 
-123.817 -3385.6 1938.68 
-124.024 -3385.92 1939.64 
-123.99 -3385.94 1940.21 
-123.932 -3386.27 1941.44 
-122.747 -3384.83 1944.33 
-123.018 -3384.48 1945.38 
-123.348 -3384.96 1945.45 
-124.268 -3387.29 1945.93 
-123.649 -3388.69 1949.62 
-123.982 -3389.85 1951.54 
-124.054 -3388.24 1948.22 
-124.305 -3387.87 1947.17 
-124.251 -3387.89 1944.87 
-123.348 -3392.43 1957.03 
-123.089 -3394.95 1958.61 
-123.407 -3392.83 1963.21 
-123.629 -3393.42 1964.33 
-123.185 -3393.86 1964.04 
-122.345 -3396.11 1964.52 
-122.848 -3394.7 1963.04 
-122.914 -3394.17 1960.45 
-122.911 -3394.94 1959.17 
-122.627 -3395.32 1967.83 
-123.32 -3394.89 1969.23 
-124.231 -3393.04 1968.46 
-122.57 -3396.84 1970.01 
-122.871 -3396.67 1970.61 
-122.236 -3396.39 1968.19 
-125.531 -3383.23 1930.4 
-119.592 -3383.01 1930.6 
-117.429 -3409.28 2005.85 
-117.998 -3410.85 2008.75 
-121.348 -3390.27 1950.67 
-121.857 -3390.2 1950.69 
-118.392 -3407.72 1995.11 
-125.042 -3404.51 1977.31 
-123.246 -3401.39 1977.29 
-123.175 -3400.91 1976.88 
-117.048 -3413.45 1990.06 
-116.597 -3409.7 1989.79 
-115.317 -3408.82 1990.33 
-116.518 -3414.58 1990.44 
-121.065 -3412.27 1987.5 
-126.317 -3407.6 1979.58 
-123.06 -3408.32 1993.48 
-123.531 -3408.06 1993.78 
-122.152 -3408.96 1992.17 
-122.746 -3408.65 1992.68 
-123.335 -3408.39 1992.85 
-121.381 -3409.68 1989.43 
-117.883 -3411.88 1988.87 
-117.402 -3411.53 1988.99 
-116.729 -3411.15 1989.21 
-114.546 -3410.06 1990.72 
-115.66 -3409.77 1990.25 
-124.541 -3407.3 1995.28 
-124.097 -3407.56 1994.84 
-124.482 -3407.61 1994.15 
-124.3 -3407.82 1993.62 
-121.151 -3411.42 2002.31 
-121.581 -3411.43 2001.58 
-122.481 -3411.11 2000.54 
-122.931 -3410.53 1999.7 
-123.429 -3410.07 1998.93 
-123.863 -3409.41 1998.03 
-124.399 -3408.8 1997.11 
-124.802 -3407.98 1996.1 
-117.556 -3402.78 1984.84 
-117.527 -3401.73 1984.71 
-117.526 -3401.7 1985.31 
-117.901 -3401.17 1985.52 
-117.849 -3401.35 1986.04 
-121.496 -3399.98 1979.67 
-122.573 -3400.08 1976.6 
-122.488 -3399.65 1975.91 
-122.152 -3399.02 1976.37 
-120.667 -3392.89 1954.56 
-119.941 -3392.63 1955.01 
-121.201 -3392.37 1953.99 
-120.913 -3391.8 1952.54 
-119.976 -3398.24 1971.27 
-120.463 -3398.67 1972.64 
-121.129 -3399.14 1973.09 
-120.672 -3398.88 1974.19 
-120.218 -3399.24 1975.11 
-120.826 -3397.68 1967.33 
-121.245 -3396.51 1963.65 
-120.817 -3395.19 1961.45 
-120.678 -3393.38 1957.37 
-121.592 -3394.54 1960.32 
-121.834 -3394.46 1959.2 
-121.302 -3392.96 1953.39 
-121.5 -3390.54 1948.64 
-121.743 -3390.78 1949.28 
-121.442 -3385.65 1937.09 
-121.782 -3386.14 1937.89 
-122.869 -3387.65 1941.74 
-122.662 -3388.78 1944.95 
-121.535 -3388.97 1946.14 
-122.001 -3390.61 1948.85 
-122.041 -3389.81 1950.24 
-121.886 -3385.18 1936.7 
-117.916 -3385.99 1931.2 
-119.371 -3385.57 1932.24 
-122.377 -3386.95 1935.29 
-139.829 -3389.87 1965.52 
-139.611 -3390.43 1969.28 
-138.578 -3390.17 1967.52 
-137.976 -3391.27 1966.48 
-133.441 -3391.24 1971.88 
-128.737 -3392.33 1970.61 
-130.339 -3391.94 1972.18 
-129.143 -3391.77 1972.07 
-128.962 -3392.02 1971.52 
-127.321 -3391.92 1970.82 
-126.918 -3391.34 1972.43 
-127.218 -3391.12 1972.85 
-127.233 -3391.48 1971.97 
-126.401 -3391.37 1973 
-126.878 -3391 1973.45 
-132.207 -3385.87 1985.98 
-131.125 -3386.01 1983.67 
-130.488 -3386.31 1981.57 
-130.28 -3386.68 1980.51 
-130.134 -3387.28 1979.04 
-127.99 -3389.82 1975.35 
-127.592 -3391.26 1972.5 
-129.623 -3391.17 1973.17 
-128.35 -3391.3 1972.7 
-124.961 -3383.19 1930.95 
-121.473 -3384.48 1933.3 
-121.289 -3383.93 1932.96 
-121.561 -3383.47 1932.54 
-122.138 -3384.43 1934.05 
-124.004 -3383.15 1932.05 
-122.232 -3383.36 1932.68 
-123.047 -3385.31 1935.54 
-123.21 -3385.76 1936 
-124.899 -3383.21 1931.58 
-123.988 -3386.63 1942.6 
-123.427 -3385.38 1944.07 
-124.182 -3387.04 1944.67 
-124.181 -3386.7 1946.5 
-123.706 -3388.92 1949.01 
-124.305 -3387.97 1946.21 
-123.968 -3386.52 1941 
-123.533 -3390.38 1950.54 
-123.553 -3389.45 1948.75 
-124.046 -3388.67 1947.59 
-123.235 -3391.9 1953.2 
-123.206 -3392.84 1956.6 
-123.156 -3393.93 1965.5 
-122.711 -3394.77 1965.37 
-122.027 -3397.01 1964.4 
-121.999 -3396.78 1965.85 
-121.806 -3397.98 1964.41 
-122.495 -3395.35 1967.24 
-122.783 -3394.41 1966.91 
-123.01 -3396.15 1970.24 
-125.019 -3392.67 1969.03 
-123.677 -3394.42 1969.3 
-122.525 -3397.26 1970.57 
-122.237 -3396.82 1969.2 
-122.861 -3397.49 1972.05 
-124.29 -3382.86 1928.93 
-124.486 -3383.12 1930.16 
-125.051 -3383.16 1930.21 
-118.393 -3384.67 1931.28 
-118.349 -3411.55 2009.24 
-117.579 -3410.05 2006.82 
-117.729 -3409.86 2005.94 
-121.812 -3390.87 1950.64 
-126.158 -3407.05 1979.32 
-123.889 -3402.07 1976.75 
-123.987 -3402.58 1977.03 
-123.683 -3401.59 1976.52 
-123.562 -3401.44 1975.91 
-123.152 -3400.88 1976.07 
-118.695 -3415.05 1989.15 
-121.135 -3413.95 1987.56 
-125.859 -3411.12 1984.28 
-127.583 -3409.03 1980.71 
-122.448 -3414.81 1986.8 
-126.676 -3407.68 1979.93 
-123.979 -3408.08 1993.1 
-122.132 -3408.94 1990.51 
-122.855 -3408.75 1992.19 
-123.506 -3408.51 1992.18 
-124.089 -3408.24 1992.37 
-122.223 -3409.2 1989.91 
-120.427 -3411.03 1988.82 
-118.291 -3412.77 1989 
-117.878 -3412.46 1989.03 
-115.216 -3416.49 1991.37 
-115.309 -3414.48 1990.75 
-115.01 -3413.6 1990.84 
-114.745 -3412.53 1990.9 
-114.671 -3410.74 1990.68 
-114.168 -3414.36 1991.6 
-114.28 -3415.02 1991.6 
-125.251 -3407.43 1995.23 
-124.88 -3407.33 1994.6 
-125.404 -3407.31 1993.97 
-125.18 -3407.52 1993.49 
-124.92 -3407.75 1993.02 
-119.817 -3411.12 2003.72 
-120.442 -3411.23 2003.01 
-122.921 -3411.43 2000.49 
-123.435 -3410.87 1999.63 
-123.937 -3410.23 1998.7 
-124.419 -3409.59 1997.78 
-124.938 -3408.98 1996.87 
-125.306 -3408.32 1996.02 
-118.506 -3403.56 1983.99 
-117.439 -3402.17 1985.05 
-117.8 -3403.21 1985.23 
-119.352 -3403.12 1982.83 
-120.202 -3400.06 1980.81 
-121.165 -3399.39 1979.78 
-121.794 -3398.96 1978.54 
-121.608 -3399.12 1977.6 
-123.048 -3400.77 1975.44 
-122.988 -3400.18 1974.69 
-122.53 -3399.37 1975.34 
-121.881 -3398.92 1977.17 
-121.142 -3392.27 1952.54 
-120.804 -3397.23 1968.36 
-120.364 -3397.82 1969.94 
-120.488 -3398.18 1971.24 
-120.792 -3398.46 1972.13 
-121.044 -3399.13 1974.73 
-121.138 -3397.74 1966.23 
-121.621 -3396.78 1963.36 
-121.679 -3395.07 1960.43 
-121.214 -3393.34 1955.64 
-121.461 -3392.7 1952.53 
-121.849 -3385.55 1937.45 
-122.549 -3386.53 1938.72 
-122.382 -3389.31 1946.8 
-122.168 -3389.84 1947.73 
-122.322 -3390.93 1949.24 
-119.722 -3384.98 1932.36 
-118.909 -3384.92 1931.72 
-122.35 -3388.37 1934.35 
-121.89 -3387.91 1934.34 
-122.488 -3385.83 1936.08 
-122.428 -3385.37 1936.8 
-121.428 -3387.54 1934.22 
-138.125 -3391.22 1967.31 
-139.413 -3389.96 1965.87 
-127.974 -3391.85 1971.31 
-129.384 -3391.49 1972.64 
-128.009 -3391.6 1971.85 
-127.537 -3391.66 1971.53 
-128.792 -3388.57 1977.43 
-126.103 -3391.77 1972.15 
-126.968 -3390.28 1975.77 
-128.741 -3388.39 1978 
-130.603 -3386.25 1983.32 
-130.307 -3386.36 1982.14 
-129.789 -3386.89 1981 
-124.304 -3383.19 1930.94 
-120.997 -3384.92 1933.16 
-120.805 -3384.44 1932.79 
-120.832 -3383.7 1932.39 
-120.202 -3383.88 1932.06 
-120.912 -3383.35 1931.97 
-121.899 -3383.24 1932.02 
-123.483 -3383.27 1931.83 
-122.616 -3383.2 1932 
-122.664 -3384.8 1934.75 
-122.017 -3385.03 1934 
-123.391 -3385.48 1936.43 
-123.857 -3386.12 1944.4 
-123.845 -3386.03 1945.69 
-124.184 -3388.11 1944.29 
-124.172 -3387.27 1943.75 
-123.94 -3388.8 1946.97 
-124.186 -3388.47 1945.68 
-122.976 -3392.76 1954.66 
-122.949 -3392.61 1953.66 
-123.064 -3395.59 1957.89 
-122.4 -3395.49 1966.57 
-121.77 -3398.49 1964.2 
-122.736 -3394.64 1961.11 
-122.209 -3396.3 1967.67 
-124.495 -3393.14 1964.78 
-124.239 -3393.32 1965.21 
-123.506 -3395.67 1970.41 
-123.261 -3396.76 1971.64 
-122.552 -3398.35 1972.63 
-122.887 -3398.2 1973.37 
-122.012 -3396.98 1968.38 
-121.982 -3396.87 1967.89 
-121.758 -3397.35 1966.39 
-121.659 -3397.43 1966.99 
-123.778 -3383.33 1928.88 
-119.084 -3383.67 1930.96 
-119.883 -3382.87 1930.15 
-122.966 -3383.25 1929.1 
-121.477 -3382.63 1930.17 
-117.79 -3409.47 2005.45 
-118.17 -3410.73 2008.13 
-122.292 -3390.32 1949.91 
-118.038 -3409.51 2004.24 
-118.606 -3409.77 2004.05 
-119.398 -3410.83 2003.9 
-125.118 -3404.45 1976.72 
-124.419 -3402.97 1976.62 
-124.128 -3402.2 1976.29 
-124.323 -3402.49 1975.33 
-123.996 -3402.05 1975.31 
-124.147 -3402.29 1974.67 
-123.711 -3401.7 1974.83 
-117.455 -3418.36 1990.33 
-119.641 -3417.44 1988.85 
-127.051 -3411.67 1983.63 
-124.883 -3414.61 1985.29 
-127.847 -3409.17 1981.14 
-121.441 -3418.38 1988.1 
-126.67 -3408.01 1980.65 
-124.646 -3407.97 1992.57 
-123.443 -3408.7 1991.58 
-124.26 -3408.4 1991.64 
-124.796 -3408.18 1991.93 
-120.956 -3410.8 1989.09 
-115.717 -3417.31 1991.09 
-114.642 -3418.03 1991.8 
-114.43 -3419.09 1992.19 
-114.62 -3419.8 1992.27 
-113.803 -3419.61 1992.66 
-125.625 -3407.14 1994.5 
-125.856 -3407.69 1995.06 
-126.229 -3407.1 1994.1 
-126.097 -3407.2 1993.43 
-125.936 -3407.43 1992.97 
-125.632 -3407.7 1992.63 
-122.275 -3411.92 2001.48 
-121.832 -3411.94 2002.28 
-123.427 -3411.69 2000.34 
-123.983 -3411.02 1999.35 
-124.501 -3410.33 1998.37 
-125.015 -3409.74 1997.48 
-125.556 -3409.2 1996.6 
-125.841 -3408.43 1995.71 
-118.226 -3403.6 1984.49 
-117.812 -3403.27 1984.73 
-117.399 -3402.26 1985.56 
-120.612 -3399.5 1980.2 
-121.871 -3399.14 1978.06 
-121.381 -3399.17 1977.04 
-119.149 -3403.8 1983.69 
-123.536 -3401.41 1974.32 
-123.513 -3401.09 1973.9 
-122.208 -3398.86 1975.49 
-120.637 -3397.91 1970.66 
-121.355 -3398.1 1972.14 
-121.203 -3398.97 1973.68 
-121.535 -3399.33 1975.03 
-120.369 -3399.44 1975.77 
-121.139 -3399.3 1976.02 
-118.906 -3400.2 1977.96 
-118.94 -3400.34 1979.29 
-119.209 -3400.32 1978.39 
-121.431 -3395.19 1961.11 
-121.406 -3393.32 1955.15 
-122.93 -3396.56 1958.95 
-121.634 -3393.08 1952.83 
-121.249 -3392.17 1952.01 
-122.36 -3385.41 1937.64 
-122.857 -3389.01 1945.36 
-119.546 -3384.15 1932.08 
-121.41 -3386.86 1933.99 
-122.895 -3386.2 1936.22 
-123.506 -3388.87 1934.74 
-139.092 -3390.27 1968.57 
-137.647 -3391.29 1966.97 
-125.811 -3392.43 1969.79 
-127.74 -3392.51 1965.29 
-127.565 -3392.34 1964.84 
-126.065 -3391.64 1973.8 
-125.698 -3392.36 1970.48 
-126.93 -3390.35 1976.8 
-128.508 -3388.4 1979.19 
-129.061 -3387.77 1979.66 
-131.627 -3385.98 1985.12 
-130.628 -3386.44 1984.05 
-130.163 -3386.49 1982.72 
-129.705 -3386.91 1981.57 
-123.932 -3383.23 1931.31 
-120.473 -3383.49 1931.77 
-119.666 -3383.67 1931.61 
-121.542 -3383.11 1931.58 
-121.556 -3385.27 1933.69 
-122.12 -3383.08 1931.35 
-123.194 -3383.23 1931.29 
-122.928 -3385.84 1935.16 
-123.63 -3389.28 1948.26 
-123.812 -3388.91 1946.49 
-123.054 -3391.95 1952.56 
-122.879 -3393.25 1956.57 
-122.993 -3393.05 1956 
-122.079 -3396.54 1967.07 
-121.543 -3398.78 1965.37 
-121.795 -3397.69 1965.47 
-121.583 -3398.34 1966.08 
-122.589 -3395.01 1962.57 
-122.18 -3398.95 1963.81 
-121.79 -3399.19 1965.2 
-122.694 -3394.66 1961.73 
-124.168 -3395.19 1970.43 
-125.763 -3393.04 1969.29 
-123.891 -3395.85 1971.03 
-121.933 -3397.31 1969.03 
-123.22 -3397.8 1973.08 
-122.287 -3399.07 1972.65 
-122.289 -3397.84 1971.17 
-121.437 -3398.34 1966.62 
-124.248 -3383.09 1929.54 
-123.959 -3383.14 1930.24 
-121.873 -3383.1 1930.12 
-119.124 -3411.39 2009.19 
-117.811 -3410.43 2007.79 
-118 -3410.27 2007.26 
-119.031 -3410.7 2008.75 
-122.015 -3391.36 1950.22 
-121.476 -3391.77 1951.09 
-118.956 -3410.3 2004.16 
-117.936 -3409.43 2004.97 
-118.409 -3409.34 2005.34 
-125.085 -3403.89 1976.28 
-124.726 -3403.48 1976.55 
-124.707 -3403 1975.29 
-124.928 -3403.36 1974.22 
-118.82 -3422.62 1991.09 
-121.99 -3422.32 1989.29 
-128.946 -3410.98 1982.26 
-128.368 -3410.1 1981.69 
-128.098 -3413.95 1983.27 
-123.553 -3417.95 1986.81 
-127.754 -3409.79 1981.69 
-125.749 -3423.39 1987.71 
-127.39 -3408.67 1981.06 
-126.845 -3408.34 1981.13 
-125.292 -3407.96 1992.29 
-123.577 -3408.89 1990.93 
-124.93 -3408.81 1992.16 
-125.417 -3408.62 1992.61 
-121.463 -3410.7 1989.27 
-119.664 -3412.63 1988.63 
-116.688 -3416.16 1990.5 
-115.443 -3418.48 1991.46 
-114.878 -3419.22 1991.95 
-115.315 -3421.04 1992.33 
-114.422 -3420.26 1992.51 
-113.797 -3420.81 1993.01 
-113.661 -3421.63 1993.35 
-126.419 -3407.81 1994.75 
-126.771 -3407.1 1993.65 
-126.624 -3407.58 1993.47 
-126.324 -3408.01 1993.35 
-125.902 -3408.36 1993.04 
-121.003 -3411.69 2003.03 
-120.11 -3411.53 2004.05 
-122.381 -3412.38 2002.3 
-122.922 -3412.34 2001.38 
-123.92 -3411.85 2000.12 
-124.501 -3411.13 1999.06 
-125.031 -3410.56 1998.17 
-125.544 -3410.07 1997.37 
-126.112 -3409.55 1996.5 
-126.215 -3408.79 1995.75 
-118.091 -3403.77 1985.02 
-117.911 -3402.47 1985.84 
-119.51 -3403.52 1983.13 
-119.277 -3400.18 1980.63 
-121.385 -3399.18 1979.03 
-121.631 -3398.99 1976.36 
-124.148 -3402.35 1973.69 
-123.128 -3400.32 1974.17 
-122.697 -3399.57 1974.54 
-122.295 -3399.18 1974.88 
-120.968 -3397.72 1968.3 
-121.038 -3397.78 1969.68 
-121.074 -3397.88 1970.98 
-121.296 -3398.12 1971.41 
-121.158 -3398.99 1972.35 
-121.344 -3399.51 1972.74 
-121.341 -3399.17 1974.28 
-121.385 -3399.7 1973.24 
-119.739 -3399.9 1976.96 
-120.826 -3399.39 1976.51 
-122.017 -3397.68 1963.71 
-121.693 -3395.85 1962.42 
-122.251 -3395.6 1959.89 
-121.222 -3393.22 1954.43 
-122.238 -3395.19 1958.25 
-122.611 -3396.35 1959.38 
-123.301 -3395.93 1957.58 
-122.312 -3391.29 1949.75 
-123.072 -3387.91 1942.33 
-122.5 -3387.53 1935.03 
-122.982 -3385.66 1936.85 
-124.1 -3389.39 1934.77 
-124.171 -3388.85 1935.05 
-122.831 -3388.26 1934.72 
-139.658 -3390.85 1968.78 
-140.075 -3390.51 1968.92 
-139.156 -3390.06 1966.47 
-138.715 -3390.11 1966.98 
-139.183 -3390.25 1967.81 
-137.428 -3391.35 1966.42 
-125.782 -3392.18 1971.82 
-126.105 -3391.51 1975.56 
-127.397 -3389.86 1978.82 
-128.537 -3388.38 1980.73 
-129.069 -3387.64 1981.16 
-131.25 -3386.54 1986.36 
-131.151 -3386.37 1985.82 
-130.731 -3386.58 1984.94 
-129.591 -3387.06 1982.25 
-119.086 -3384.05 1931.43 
-120.525 -3382.77 1930.79 
-120.35 -3383.34 1931.24 
-121.155 -3383.14 1931.21 
-122.09 -3385.58 1934.29 
-122.41 -3386.67 1934.69 
-122.057 -3386.8 1934.32 
-122.765 -3386.37 1934.99 
-122.809 -3387.03 1935.57 
-123.845 -3387.29 1942.19 
-123.425 -3389.32 1947.62 
-124.059 -3388.66 1945.13 
-124.043 -3387.76 1943.29 
-122.758 -3394.2 1957.01 
-122.957 -3394.09 1957.47 
-122.654 -3392.92 1953.28 
-122.855 -3395.43 1958.36 
-121.923 -3397.47 1964.21 
-122.234 -3396.02 1963.29 
-124.679 -3393.1 1965.33 
-123.678 -3396.86 1972.17 
-124.605 -3393.72 1969.48 
-124.606 -3394.79 1970.08 
-124.563 -3395.43 1970.84 
-122.09 -3397.26 1969.54 
-121.563 -3397.47 1967.52 
-123.652 -3397.83 1973.51 
-122.387 -3398.9 1973.16 
-122.856 -3398.42 1973.92 
-121.962 -3399.58 1972.88 
-123.346 -3398.29 1974.44 
-122.525 -3383.17 1930.41 
-123.581 -3383.34 1929.61 
-120.268 -3383.12 1930.35 
-119.901 -3383.31 1930.87 
-118.089 -3410.13 2006.23 
-119.514 -3411.13 2004.33 
-125.944 -3405.99 1976.72 
-124.776 -3403.08 1975.97 
-124.947 -3403.49 1972.55 
-122.969 -3425.63 1990.04 
-118.667 -3424.37 1991.78 
-113.107 -3421.25 1993.5 
-126.975 -3427.33 1988.57 
-129.985 -3411.96 1981.9 
-130.483 -3413.13 1981.74 
-125.61 -3417.25 1985.46 
-127.995 -3422.58 1986.19 
-130.682 -3427.81 1986.78 
-127.122 -3408.8 1981.71 
-122.981 -3409.56 1989.95 
-122.119 -3410.58 1989.37 
-124.159 -3409.35 1991.55 
-124.613 -3409.19 1991.98 
-125.523 -3409.34 1993.08 
-125.134 -3409.66 1992.79 
-125.995 -3409.08 1993.49 
-120.434 -3413.16 1988.24 
-119.357 -3413.48 1988.81 
-116.266 -3418.23 1991.03 
-115.498 -3420.28 1991.99 
-114.712 -3420.82 1992.55 
-115.625 -3421.67 1992.38 
-115.012 -3421.36 1992.59 
-114.279 -3421.04 1992.84 
-114.164 -3421.89 1993.18 
-127.278 -3408.34 1994.14 
-126.792 -3408.38 1994.93 
-126.953 -3409.05 1994.09 
-126.486 -3408.81 1993.86 
-121.849 -3412.33 2002.97 
-120.964 -3412.05 2003.75 
-124.548 -3411.85 1999.66 
-124.123 -3412.44 2000.48 
-125.047 -3411.29 1998.8 
-125.549 -3411.02 1998.19 
-126.006 -3410.38 1997.29 
-126.625 -3409.92 1996.42 
-126.907 -3409.33 1995.6 
-119.884 -3411.56 2004.53 
-118.582 -3404.08 1984.54 
-117.699 -3402.98 1985.68 
-117.561 -3403.48 1985.73 
-119.758 -3400.02 1979.66 
-120.817 -3399.59 1979.35 
-121.212 -3399.34 1978.36 
-123.344 -3401.28 1973.36 
-122.202 -3399.62 1974.28 
-121.206 -3397.9 1970.19 
-121.573 -3398.77 1971.84 
-121.527 -3399.52 1973.93 
-119.485 -3400.33 1977.9 
-121.179 -3398.22 1967.32 
-122.039 -3395.16 1961.1 
-122.2 -3395.36 1959.41 
-122.18 -3394.5 1957.35 
-123.635 -3396.44 1958.05 
-123.861 -3396.67 1957.63 
-123.888 -3397.19 1958.02 
-121.713 -3393.22 1954.72 
-121.973 -3391.88 1951.34 
-122.967 -3389.31 1946.99 
-122.647 -3390.51 1948.81 
-122.294 -3392.11 1951.65 
-123.808 -3388.43 1935.02 
-123.22 -3385.74 1937.39 
-123.426 -3386.73 1936.18 
-124.189 -3388.3 1935.42 
-123.644 -3388.01 1942.62 
-137.598 -3391.26 1967.56 
-139.061 -3391.12 1968.2 
-139.176 -3390.87 1968.98 
-138.061 -3390.97 1965.72 
-139.156 -3390.26 1967.17 
-139.804 -3390.2 1968.42 
-137.168 -3391.44 1966.87 
-125.299 -3392.78 1970.7 
-125.738 -3392.12 1973.37 
-125.741 -3392.21 1975.61 
-126.299 -3391.35 1977.49 
-127.436 -3390.13 1981.86 
-128.285 -3389.07 1983.19 
-129.006 -3387.85 1982.11 
-130.735 -3387.22 1986.69 
-130.245 -3387.33 1985.81 
-130.023 -3386.81 1983.51 
-121.049 -3383.1 1930.68 
-123.137 -3383.26 1930.68 
-123.104 -3387.31 1935.12 
-124.007 -3386.06 1939.16 
-123.442 -3390.14 1949.36 
-123.923 -3387.02 1940.89 
-122.592 -3399.1 1963.38 
-122.337 -3395.05 1961.81 
-122.592 -3394.67 1960.63 
-123.733 -3397.35 1973.1 
-125.371 -3393.8 1969.31 
-125.201 -3394.2 1969.63 
-125.173 -3394.8 1970.12 
-125.083 -3395.25 1970.58 
-124.614 -3396.24 1971.68 
-124.931 -3395.9 1971.42 
-125.836 -3392.94 1969.79 
-126.221 -3392.78 1970.28 
-121.771 -3397.57 1969.94 
-122.13 -3397.61 1970.36 
-122.261 -3399.36 1973.5 
-122.826 -3399.06 1974.87 
-123.524 -3398.51 1975.02 
-123.671 -3398.02 1974.99 
-124.083 -3397.69 1974.76 
-122.326 -3398.42 1972.18 
-118.367 -3409.63 2006.08 
-119.031 -3410.49 2008.2 
-118.605 -3410.2 2007.51 
-118.485 -3409.51 2004.53 
-119.164 -3410.73 2004.67 
-119.413 -3411.15 2004.93 
-125.65 -3405.36 1976.61 
-125.2 -3403.84 1972.28 
-123.963 -3427.66 1990.24 
-118.213 -3424.66 1992.1 
-129.919 -3430.72 1988.29 
-130.911 -3412.96 1981.45 
-130.701 -3414.06 1981.73 
-127.359 -3416.7 1984.31 
-130.251 -3421.55 1984.59 
-132.527 -3426.27 1985.2 
-128.726 -3410.53 1982.26 
-129.213 -3411.43 1982.31 
-127.854 -3409.41 1982.02 
-133.801 -3432.92 1987.08 
-135.674 -3430.96 1985.34 
-126.216 -3407.65 1980.54 
-125.809 -3407 1979.92 
-123.18 -3410.43 1988.33 
-120.929 -3413.12 1988.18 
-124.702 -3409.96 1992.45 
-126.017 -3409.88 1993.88 
-125.261 -3410.41 1993.3 
-117.244 -3416.49 1990.17 
-116.375 -3419.45 1991.35 
-116.756 -3422.71 1992.14 
-115.921 -3422.15 1992.39 
-115.31 -3421.96 1992.64 
-114.641 -3422.12 1993.02 
-128.143 -3410.44 1994.94 
-128.14 -3411.66 1995.15 
-126.986 -3410.76 1994.55 
-122.3 -3412.61 2002.83 
-122.8 -3412.66 2002.19 
-123.61 -3412.8 2001.27 
-124.584 -3412.7 2000.37 
-125.056 -3412.01 1999.42 
-125.547 -3411.97 1999.02 
-125.998 -3411.29 1998.1 
-126.435 -3410.65 1997.22 
-127.608 -3411.85 1996.87 
-128.128 -3411.68 1996.06 
-128.829 -3412.21 1995.67 
-119.933 -3411.83 2005.04 
-118.902 -3403.97 1984.13 
-120.161 -3399.9 1979.28 
-121.015 -3399.41 1977.72 
-123.044 -3400.25 1973.37 
-122.511 -3400.18 1973.42 
-121.495 -3397.6 1969.01 
-121.803 -3399.31 1972.39 
-121.562 -3399.98 1972.74 
-122.476 -3397.72 1962.26 
-121.732 -3396.16 1962.87 
-123.425 -3396.87 1958.36 
-123.205 -3397.01 1959.08 
-124.036 -3396.23 1957.08 
-124.358 -3396.87 1957.32 
-121.976 -3393.56 1953.06 
-123.474 -3388.86 1944.33 
-122.8 -3391.28 1950.56 
-122.65 -3392.4 1952.42 
-122.244 -3393.07 1952.67 
-123.293 -3388.26 1935 
-123.817 -3387.44 1935.89 
-123.438 -3386.22 1936.43 
-138.576 -3391.05 1968.38 
-138.201 -3391.2 1967.92 
-127.892 -3392.71 1966.04 
-127.194 -3392.57 1965.11 
-125.385 -3392.74 1971.72 
-125.34 -3392.66 1973.72 
-125.401 -3393.2 1977.81 
-126.17 -3391.86 1979.28 
-125.229 -3392.92 1974.44 
-127.128 -3390.6 1983.71 
-126.03 -3392.29 1981.13 
-129.048 -3388.23 1984.19 
-127.709 -3389.82 1985.13 
-128.318 -3389.26 1985.22 
-130.122 -3387.96 1986.96 
-130.61 -3387.96 1987.76 
-129.664 -3387.69 1984.99 
-129.066 -3388.56 1985.8 
-123.583 -3385.64 1936.98 
-123.124 -3390.49 1949.17 
-124.065 -3388.5 1944.59 
-122.737 -3393.03 1955.26 
-123.131 -3396.01 1958.21 
-122.642 -3399.44 1963.86 
-122.023 -3399.6 1966.64 
-121.959 -3395.34 1961.64 
-122.211 -3395.03 1960.55 
-124.096 -3397.52 1973.49 
-123.962 -3397.81 1973.91 
-124.383 -3397.54 1974.33 
-126.668 -3393.92 1969.57 
-126.346 -3394.41 1969.91 
-125.881 -3395.06 1970.4 
-125.575 -3395.47 1970.85 
-124.91 -3396.43 1972.13 
-124.179 -3396.82 1972.34 
-125.484 -3396.06 1971.57 
-126.244 -3393.22 1969.42 
-127.003 -3393.01 1969.89 
-124.605 -3397.42 1973.59 
-121.55 -3398.01 1970.72 
-122.378 -3399.88 1973.89 
-123.162 -3398.92 1975.39 
-121.997 -3400.24 1973.12 
-124.209 -3397.54 1975.27 
-118.588 -3409.77 2006.71 
-119.285 -3409.92 2007.77 
-118.828 -3410.27 2004.84 
-118.846 -3409.18 2005.67 
-125.554 -3404.91 1976.37 
-125.386 -3404.42 1976.23 
-125.215 -3403.68 1975.78 
-125.368 -3404.02 1973.07 
-125.007 -3403.59 1971.88 
-120.137 -3425.99 1991.59 
-125.363 -3428.87 1989.95 
-112.784 -3421.67 1993.8 
-129.014 -3431.11 1988.88 
-129.515 -3416.88 1983.21 
-134.802 -3425.7 1983.77 
-133.557 -3422.14 1983.05 
-136.485 -3430.16 1984.58 
-128.319 -3410.54 1982.66 
-129.56 -3413.03 1982.23 
-137.311 -3435.38 1986.18 
-132.214 -3433.67 1988.26 
-137.935 -3435.42 1985.83 
-126.666 -3408.53 1981.78 
-122.168 -3413.83 1987.03 
-123.169 -3409.9 1988.19 
-124.196 -3413.02 1985.54 
-119.616 -3416.11 1988.77 
-124.444 -3410.43 1992.39 
-124.948 -3410.84 1993.15 
-125.933 -3410.94 1994.22 
-125.45 -3411.24 1993.91 
-117.164 -3418.94 1990.78 
-116.016 -3420.55 1991.83 
-117.26 -3422.75 1991.9 
-119.096 -3424.8 1991.61 
-116.679 -3423.29 1992.36 
-117.615 -3424.21 1992.18 
-115.738 -3422.69 1992.65 
-115.254 -3422.48 1992.83 
-114.356 -3422.45 1993.27 
-128.634 -3413.47 1995.78 
-128.004 -3413.5 1995.61 
-126.574 -3411.58 1994.64 
-120.35 -3412.19 2005 
-123.244 -3413.06 2002.28 
-124.226 -3413.36 2001.38 
-124.641 -3413.54 2001.16 
-125.087 -3412.84 2000.12 
-125.584 -3412.74 1999.67 
-126.084 -3412.06 1998.7 
-126.598 -3411.46 1997.76 
-128.023 -3413.46 1997.68 
-129.716 -3414.57 1996.5 
-117.615 -3403.19 1986.15 
-117.696 -3402.25 1986.25 
-119.412 -3404.23 1983.89 
-122.83 -3400.53 1972.88 
-122.113 -3400.69 1972.67 
-119.844 -3400.42 1978.3 
-121.023 -3399.89 1976.74 
-121.739 -3398.27 1965.13 
-122.91 -3397.72 1961.03 
-122.453 -3398.15 1963.01 
-122.839 -3396.1 1958.77 
-121.573 -3393.55 1956.35 
-122.903 -3394.84 1956.91 
-121.711 -3393.51 1953.61 
-123.401 -3389.09 1945.64 
-123.226 -3386.3 1935.73 
-123.283 -3386.45 1938.36 
-123.889 -3385.96 1938.31 
-123.858 -3388.24 1943.37 
-125.162 -3414.41 2090.98 
-124.894 -3415.35 2089.23 
-125.428 -3414.14 2088.78 
-138.541 -3390.77 1965.6 
-138.505 -3391.14 1966.26 
-136.926 -3391.31 1966.22 
-126.031 -3392.83 1965.75 
-124.883 -3393.23 1970.44 
-124.545 -3393.62 1970.35 
-125.342 -3392.73 1972.68 
-124.879 -3394.08 1976.52 
-124.976 -3394.49 1979.09 
-126.674 -3390.77 1984.71 
-125.962 -3392.08 1982.52 
-124.741 -3394.98 1979.47 
-125.08 -3394.04 1980.67 
-127.97 -3389.61 1986.13 
-128.343 -3389.26 1986.05 
-127.172 -3390.17 1985.76 
-135.76 -3391.94 1996.83 
-129.53 -3388.36 1986.64 
-123.881 -3386.62 1939.17 
-122.581 -3393.07 1954.56 
-122.454 -3393.25 1953.77 
-122.539 -3393.79 1956.8 
-123.115 -3395.28 1957.39 
-121.968 -3399.09 1966.75 
-122.543 -3399.99 1967.11 
-125.489 -3392.52 1964.56 
-127.518 -3394.67 1970.22 
-128.158 -3395.6 1970.89 
-125.342 -3396.78 1972.63 
-125.656 -3396.49 1972.13 
-124.512 -3397.05 1972.94 
-127.538 -3395.98 1971.34 
-126.896 -3393.6 1969.06 
-127.512 -3393.98 1969.83 
-127.977 -3394.38 1970.13 
-126.96 -3393.27 1969.45 
-123.048 -3399.08 1976.02 
-123.572 -3398.55 1975.92 
-123.857 -3398.08 1975.48 
-118.744 -3409.28 2006.24 
-118.994 -3409.46 2007.1 
-118.822 -3409.21 2004.86 
-126.086 -3405.67 1976.1 
-117.883 -3425.01 1992.39 
-123.351 -3428.07 1990.68 
-113.864 -3422.48 1993.54 
-126.918 -3430.31 1989.66 
-133.091 -3419.3 1982.2 
-136.027 -3430.41 1984.87 
-134.885 -3426.44 1983.95 
-128.801 -3413.2 1982.66 
-130.966 -3418.26 1982.76 
-132.484 -3418.26 1982.07 
-127.15 -3409.11 1982.35 
-127.889 -3410.07 1982.77 
-128.042 -3412.86 1983 
-137.322 -3437.19 1987.04 
-128.665 -3434.35 1990.71 
-133.279 -3438.17 1989.97 
-138.399 -3437.43 1986.48 
-126.207 -3408.22 1981.87 
-125.832 -3407.43 1980.86 
-124.477 -3417.13 1985.98 
-122.831 -3409.17 1990.43 
-124.028 -3409.87 1991.65 
-123.05 -3409.29 1988.49 
-124.113 -3411.12 1985.47 
-124.345 -3411.72 1985.39 
-127.262 -3412.4 1983.35 
-126.771 -3410.96 1983.58 
-124.448 -3410.94 1992.68 
-125.774 -3412.07 1994.51 
-126.333 -3412.61 1994.87 
-118.352 -3421.6 1991.01 
-116.568 -3420.95 1991.69 
-118.874 -3423.8 1991.4 
-119.962 -3426.64 1991.99 
-118.639 -3425.93 1992.38 
-116.637 -3424.16 1992.65 
-115.897 -3423.37 1992.79 
-114.644 -3423.06 1993.32 
-127.493 -3413.65 1995.64 
-128.504 -3414.31 1996.42 
-120.054 -3412.13 2005.47 
-122.665 -3412.99 2002.99 
-123.675 -3413.33 2002.15 
-124.133 -3413.61 2001.98 
-126.123 -3412.83 1999.34 
-125.645 -3413.38 2000.17 
-126.797 -3412.54 1998.45 
-129.279 -3414.82 1997.15 
-117.257 -3402.55 1985.98 
-118.954 -3404.43 1984.48 
-123.601 -3401.1 1972.76 
-123.331 -3400.64 1972.89 
-120.486 -3399.74 1977.87 
-121.472 -3398.62 1967.14 
-122.715 -3397.64 1961.5 
-123.725 -3395.66 1956.87 
-123.747 -3385.85 1937.42 
-124.703 -3415.52 2094 
-124.566 -3416.24 2089.95 
-124.462 -3418.37 2086.76 
-125.222 -3414.19 2087.47 
-126.645 -3393.07 1970.32 
-127.346 -3392.75 1966.22 
-125.409 -3393.3 1970.78 
-124.467 -3393.89 1970.85 
-124.785 -3393.5 1971.46 
-124.748 -3393.66 1973.26 
-125.045 -3393.18 1972.86 
-124.549 -3395.28 1977.88 
-124.664 -3394.33 1975.6 
-124.394 -3395.85 1978.29 
-124.905 -3393.39 1973.82 
-125.589 -3390.27 1987.2 
-125.144 -3391.6 1985.77 
-124.199 -3393.84 1983.48 
-124.282 -3396.23 1978.67 
-124.032 -3396.12 1979.52 
-124.232 -3395.36 1980.54 
-128.414 -3389.46 1986.68 
-127.954 -3389.87 1986.75 
-129.267 -3388.8 1986.86 
-125.956 -3389.66 1987.5 
-134.782 -3392.09 1996.81 
-134.761 -3392.33 1996.13 
-135.773 -3392.11 1996.33 
-136.446 -3391.68 1996.62 
-136.167 -3391.79 1996.1 
-122.333 -3393.11 1955.62 
-121.845 -3393.25 1955.83 
-122.769 -3398.63 1962.8 
-123.244 -3399.02 1961.89 
-122.959 -3398.94 1962.36 
-124.892 -3397.26 1974.36 
-124.771 -3397.12 1975.05 
-128.664 -3395.21 1970.64 
-125.042 -3397.22 1973.37 
-125.905 -3397.08 1973.07 
-127.46 -3396.83 1972.53 
-128.226 -3393.12 1968.83 
-128.244 -3393.34 1969.55 
-127.639 -3393.05 1969.94 
-127.41 -3393.43 1970.27 
-124.759 -3397.21 1975.93 
-122.623 -3400.28 1977.37 
-121.608 -3400.67 1976.87 
-123.136 -3399.04 1976.77 
-123.643 -3398.12 1976.41 
-124.128 -3397.64 1975.79 
-119.165 -3410.54 2005.29 
-119.201 -3408.91 2005.4 
-119.29 -3409 2006.02 
-119.278 -3409.1 2006.65 
-125.851 -3405.92 1977.26 
-125.941 -3405.1 1975.86 
-112.84 -3422.29 1993.98 
-113.32 -3422.65 1993.87 
-124.144 -3429.62 1990.93 
-133.764 -3423.14 1983.26 
-136.165 -3433.81 1986.06 
-134.754 -3428.84 1984.88 
-138.143 -3436.98 1986.39 
-128.912 -3417.9 1983.69 
-133.256 -3424.08 1983.84 
-131.48 -3423.08 1984.23 
-127.381 -3409.78 1982.99 
-126.477 -3408.79 1982.61 
-127.06 -3417.89 1984.65 
-125.356 -3435.34 1993.2 
-130.092 -3439.55 1992.59 
-134.873 -3439.04 1989.43 
-126.991 -3421.12 1985.69 
-123.848 -3410.29 1986.12 
-122.918 -3409.04 1988.91 
-125.649 -3410.19 1984.15 
-126.136 -3410.66 1983.94 
-126.858 -3409.5 1983.13 
-121.058 -3422.74 1989.91 
-125.347 -3421.48 1986.84 
-124.987 -3411.53 1993.56 
-125.862 -3412.88 1995.08 
-125.373 -3412.57 1994.93 
-125.209 -3412.12 1994.35 
-124.912 -3412.33 1995.07 
-126.868 -3413.35 1995.67 
-120.946 -3425.93 1991.07 
-121.149 -3430.59 1993.34 
-118.797 -3431.43 1995.26 
-117.081 -3425.99 1993.32 
-117.339 -3430.37 1995.53 
-115.938 -3425.29 1993.61 
-115.134 -3423.91 1993.35 
-115.399 -3423.45 1993.06 
-127.86 -3413.93 1996.42 
-128.586 -3414.44 1996.96 
-120.74 -3412.33 2004.6 
-121.469 -3412.74 2004.29 
-121.993 -3412.84 2003.71 
-126.035 -3413.8 2000.25 
-126.602 -3413.36 1999.38 
-127.985 -3414.61 1998.6 
-128.875 -3415.02 1997.65 
-117.602 -3402.76 1986.44 
-117.29 -3403.52 1986.52 
-124.378 -3402.47 1970.93 
-123.127 -3401.1 1972 
-122.459 -3398.6 1963.5 
-122.78 -3398.35 1962.13 
-123.393 -3398.27 1960.63 
-122.388 -3393.44 1956.39 
-124.454 -3416.07 2093.31 
-124.465 -3417.02 2090.47 
-124.951 -3416.87 2086.5 
-124.874 -3418.45 2085.72 
-123.803 -3420.24 2086.88 
-124.965 -3413.7 2086.31 
-126.083 -3393.25 1970.56 
-127.239 -3392.73 1965.61 
-126.376 -3392.05 1964.21 
-126.644 -3392.68 1965.18 
-125.593 -3393.77 1970.96 
-124.389 -3394.1 1971.35 
-124.58 -3394.06 1973.51 
-124.51 -3394.53 1975.11 
-124.44 -3395.87 1977.55 
-124.526 -3395.05 1976.96 
-123.851 -3392.82 1986.64 
-122.287 -3396.08 1982.66 
-123.205 -3395.86 1981.61 
-123.726 -3397.38 1977.75 
-123.403 -3396.78 1979.62 
-127.175 -3390.07 1986.38 
-135.335 -3392.09 1995.78 
-134.498 -3392.42 1995.46 
-135.212 -3391.64 1995.42 
-134.942 -3391.11 1994.84 
-130.839 -3389.6 1990.06 
-129.723 -3388.66 1987.45 
-123.151 -3399.36 1962.58 
-123.529 -3399.46 1962.03 
-123.022 -3398.51 1961.69 
-125.289 -3397.24 1974.67 
-126.143 -3397.24 1973.48 
-125.981 -3397.35 1974.01 
-126.789 -3397.37 1973.88 
-127.558 -3393.31 1969.36 
-129.194 -3396.58 1971.62 
-125.947 -3397.34 1974.52 
-125.236 -3397.23 1975.41 
-122.109 -3399.91 1974.71 
-122.122 -3400.83 1977.64 
-122.955 -3399.44 1977.33 
-123.896 -3397.72 1976.81 
-125.194 -3397.41 1976.11 
-119.558 -3411.46 2005.36 
-125.613 -3404.32 1973.54 
-124.488 -3402.68 1970.43 
-124.251 -3402.24 1970.38 
-113.046 -3423.02 1994.13 
-114.052 -3423.11 1993.63 
-135.666 -3434.38 1986.51 
-137.466 -3436.72 1986.64 
-134.416 -3430.18 1985.53 
-138.739 -3438.15 1986.59 
-133.494 -3439.93 1990.7 
-129.36 -3421.9 1984.72 
-133.437 -3428.43 1985.34 
-131.676 -3427.92 1985.89 
-122.069 -3436.25 1995.64 
-127.565 -3440.81 1994.75 
-126.103 -3409.76 1983.1 
-125.368 -3406.6 1979.93 
-124.895 -3405.69 1978.88 
-127.608 -3425.75 1987.04 
-129.584 -3425.83 1986.02 
-123.772 -3410.12 1992.18 
-123.521 -3409.45 1986.87 
-125.139 -3409.75 1984.46 
-125.531 -3409.15 1983.6 
-123.28 -3427.11 1990.24 
-124.204 -3411.31 1994.01 
-125.604 -3413.22 1995.77 
-126.366 -3413.43 1995.94 
-124.511 -3412.41 1995.7 
-127.274 -3413.79 1996.54 
-122.075 -3434.84 1994.9 
-119.812 -3434.79 1996.44 
-118.154 -3437.77 1999.06 
-116.975 -3435.41 1998.48 
-115.739 -3431.74 1997.21 
-114.584 -3429.37 1996.61 
-113.796 -3425.77 1995.12 
-128.004 -3414.19 1997.03 
-122.724 -3413.44 2003.73 
-125.429 -3414.04 2000.97 
-124.654 -3413.9 2001.77 
-126.033 -3414.47 2000.9 
-126.861 -3414.46 1999.92 
-128.319 -3414.79 1997.31 
-127.698 -3415.05 1998.07 
-117.127 -3403.47 1987.02 
-119.895 -3403.85 1983.03 
-120.719 -3400.59 1977.38 
-123.06 -3398.22 1961.2 
-123.556 -3398.75 1961 
-122.486 -3415.77 2095.21 
-124.054 -3417.03 2091.8 
-123.832 -3418.94 2088.27 
-124.181 -3418.34 2087.76 
-124.818 -3416.47 2085.75 
-123.866 -3420.41 2086.08 
-124.358 -3419.37 2086.15 
-123.433 -3419.65 2088.86 
-123.658 -3419.16 2088.86 
-123.693 -3420.8 2086.63 
-124.567 -3415.31 2085.16 
-126.81 -3392.29 1964.5 
-125.68 -3392.86 1966.31 
-124.413 -3394.31 1971.88 
-124.267 -3394.69 1972.62 
-124.567 -3394 1972.29 
-124.337 -3394.53 1973.61 
-124.098 -3395.3 1974.76 
-124.538 -3395.12 1976.1 
-124.554 -3395.59 1976.8 
-124.331 -3396.78 1977.63 
-122.096 -3395.63 1984.32 
-121.485 -3396.66 1982.54 
-121.871 -3396.8 1981.98 
-122.699 -3396.8 1980.74 
-123.085 -3398.07 1977.06 
-122.963 -3397.7 1978.43 
-123.049 -3397.45 1978.89 
-122.213 -3397.29 1980.58 
-128.955 -3389.32 1987.13 
-134.136 -3392.28 1996.35 
-133.956 -3392.56 1995.22 
-134.207 -3392.26 1994.88 
-134.341 -3391.82 1994.6 
-134.178 -3391.11 1994.02 
-133.216 -3390.18 1992.7 
-131.779 -3389.36 1990.97 
-130.097 -3390.17 1989.78 
-129.657 -3390.27 1989.24 
-130.023 -3389.69 1989.25 
-130.173 -3388.36 1987.81 
-125.212 -3392.86 1965.6 
-125.164 -3392.9 1965.08 
-125.898 -3397.34 1975.05 
-128.393 -3397.37 1973.86 
-129.172 -3396.94 1972.66 
-128.619 -3397.52 1974.42 
-126.377 -3393.42 1968.97 
-127.599 -3393.15 1968.76 
-128.226 -3393.92 1969.96 
-127.913 -3393.49 1970.2 
-128.685 -3393.28 1969.83 
-126.811 -3393.57 1970.51 
-126.25 -3397.38 1975.41 
-121.96 -3400.64 1973.45 
-122.969 -3398.13 1977.57 
-124.42 -3397.51 1976.4 
-119.564 -3411.09 2005.74 
-119.594 -3408.67 2005.6 
-119.238 -3409.84 2005.41 
-119.45 -3409.45 2007.44 
-120.404 -3412.8 2006.25 
-126.169 -3404.99 1974.67 
-124.774 -3403.2 1971.37 
-124.359 -3402.45 1969.93 
-124.174 -3402.11 1969.58 
-112.954 -3423.54 1994.4 
-112.983 -3425.42 1995.37 
-135.465 -3435.06 1986.89 
-135.026 -3439.86 1989.7 
-139.863 -3439.61 1986.57 
-129.77 -3441.54 1993.77 
-134.087 -3433.27 1986.82 
-133.008 -3432.98 1987.19 
-118.839 -3436.5 1997.7 
-124.722 -3441.98 1997.06 
-125.508 -3407.33 1981.27 
-125.078 -3406.63 1980.54 
-131.026 -3431.56 1987.56 
-127.41 -3429.98 1988.99 
-130.817 -3429.78 1986.96 
-123.65 -3410.56 1993.27 
-123.371 -3409.04 1987.21 
-124.861 -3409.18 1984.42 
-125.055 -3408.26 1983.14 
-124.376 -3432.5 1992.06 
-123.797 -3411.71 1995.32 
-125.773 -3413.72 1996.54 
-125.142 -3413.11 1996.09 
-124.092 -3412.39 1996.18 
-124.704 -3412.96 1996.42 
-123.666 -3412.09 1996.2 
-123.33 -3411.72 1995.92 
-127.156 -3414.02 1997.08 
-120.068 -3439.64 1998.76 
-124.265 -3438.77 1995.02 
-122.088 -3441.27 1997.91 
-116.801 -3441.31 2001.75 
-118.103 -3443.22 2001.98 
-115.833 -3437.97 2000.5 
-115.018 -3435.58 1999.64 
-114.256 -3432.74 1998.53 
-114.232 -3431.16 1997.65 
-127.717 -3414.5 1997.35 
-120.753 -3412.93 2005.83 
-120.692 -3412.67 2005.37 
-123.56 -3413.69 2002.97 
-126.414 -3414.77 2000.64 
-125.878 -3414.75 2001.52 
-126.953 -3414.92 1999.39 
-127.165 -3414.84 1997.8 
-126.708 -3414.82 1998.73 
-117.599 -3403.05 1986.87 
-124 -3401.76 1970.75 
-123.857 -3401.53 1971.36 
-123.713 -3401.27 1972 
-123.765 -3399.23 1961.26 
-121.593 -3416.34 2094.97 
-123.546 -3417.4 2091.79 
-123.685 -3421.43 2086.63 
-123.62 -3421.43 2085.93 
-124.737 -3417.97 2085.5 
-123.801 -3420.36 2085.3 
-123.935 -3418.22 2091.26 
-123.762 -3421.57 2087.26 
-124.5 -3417.38 2084.81 
-124.092 -3417.2 2083.94 
-123.938 -3416.53 2083.6 
-123.62 -3415.18 2082.52 
-126.462 -3393.88 1970.86 
-126.624 -3392.8 1966.22 
-125.215 -3394.16 1971.31 
-125.524 -3394.81 1971.73 
-123.775 -3395.99 1974.75 
-124.254 -3395.52 1975.84 
-124.35 -3395.97 1976.25 
-124.613 -3396.28 1976.98 
-121.494 -3396.33 1984.39 
-120.864 -3396.87 1982.84 
-121.428 -3397.25 1981.89 
-122.943 -3398.15 1978.19 
-122.967 -3398.81 1977.36 
-121.784 -3397.67 1980.58 
-122.74 -3397.93 1978.82 
-124.793 -3397.38 1976.71 
-127.705 -3389.44 1987.13 
-128.374 -3389.42 1987.34 
-133.624 -3392.5 1995.77 
-133.709 -3392.7 1994.69 
-133.806 -3391.83 1993.97 
-129.87 -3390.71 1989.88 
-129.139 -3389.03 1987.68 
-123.85 -3399.68 1961.7 
-125.469 -3392.14 1964.16 
-129.951 -3396.96 1972.36 
-129.797 -3397.39 1973.9 
-129.499 -3397.14 1973.2 
-128.782 -3397.65 1974.95 
-129.111 -3395.75 1970.98 
-125.726 -3397.31 1976.25 
-126.85 -3397.41 1975.66 
-127.002 -3397.47 1975.03 
-122.01 -3400.41 1974.96 
-122.676 -3400.92 1972.3 
-119.808 -3411.85 2005.98 
-119.608 -3409.34 2005.68 
-119.913 -3408.8 2006.63 
-119.756 -3408.79 2006.15 
-125.433 -3405.19 1977.32 
-126.281 -3405.39 1975.52 
-125.915 -3404.69 1974.04 
-138.889 -3438.9 1986.84 
-135.548 -3441.28 1990.06 
-132.226 -3441.27 1992.11 
-136.892 -3442.29 1989.71 
-126.604 -3443.07 1996.46 
-136.101 -3436.5 1987.22 
-133.765 -3434.73 1987.55 
-137.272 -3437.84 1987.2 
-115.966 -3437.23 1999.79 
-121.767 -3442.54 1999.12 
-124.65 -3406.34 1980.53 
-131.471 -3434.01 1988.38 
-135.467 -3436.73 1987.63 
-128.44 -3436.27 1991.06 
-123.059 -3410.24 1993.32 
-123.064 -3411.32 1995.51 
-124.417 -3408.77 1984.72 
