-48.2051 -3349.2 2111.7 
-51.5625 -3351.89 2107.17 
-47.4233 -3349.24 2116.68 
-48.1093 -3350.75 2114.4 
-48.2482 -3350.52 2113.14 
-48.7553 -3350.82 2111.68 
-48.5176 -3350.93 2112.57 
-49.6595 -3350.21 2109.05 
-50.6085 -3351.08 2108.14 
-52.6408 -3353.35 2107.33 
-53.8581 -3354.34 2106.31 
-48.1594 -3351.48 2115.57 
-48.3003 -3352.01 2116.5 
-48.7352 -3353.28 2114.85 
-49.1002 -3350.9 2110.85 
-49.128 -3353.21 2113.44 
-48.9728 -3353.65 2114.43 
-50.3357 -3352.25 2109.82 
-49.5604 -3351.39 2110.35 
-51.7186 -3352.62 2108.11 
-53.8167 -3354.76 2107.15 
-55.7794 -3356.15 2106.13 
-48.8513 -3353.92 2115.88 
-49.0586 -3354.34 2115.45 
-50.1539 -3354.26 2112.55 
-49.2666 -3354.45 2114.69 
-51.5545 -3353.79 2109.42 
-52.3821 -3356.78 2110.99 
-53.571 -3355.07 2107.91 
-55.7332 -3356.6 2106.86 
-58.2937 -3358.31 2105.66 
-59.3219 -3358.63 2104.67 
-49.0689 -3354.55 2116.34 
-52.6605 -3357.74 2111.55 
-50.2639 -3355.21 2113.67 
-49.5562 -3355.18 2115.32 
-49.5032 -3355.29 2115.95 
-52.8362 -3356 2109.61 
-53.3622 -3358.05 2110.63 
-53.6135 -3358.98 2111.14 
-55.0095 -3356.61 2107.75 
-53.8212 -3357.08 2109.34 
-57.7624 -3359.29 2107.56 
-59.1094 -3359.26 2106.03 
-60.7379 -3359.68 2104.68 
-52.5847 -3357.84 2112.3 
-53.5969 -3359.16 2111.68 
-50.5321 -3355.88 2114.34 
-49.9115 -3355.79 2115.91 
-50.1655 -3356.26 2116.65 
-53.9918 -3359.51 2111.54 
-54.6476 -3357.86 2109.07 
-55.3936 -3358.56 2108.94 
-58.9976 -3360.13 2107.16 
-57.5205 -3360.69 2109.31 
-56.9343 -3360.55 2109.89 
-56.383 -3359.69 2109.53 
-55.1786 -3359.01 2109.54 
-60.7909 -3360.3 2105.45 
-61.7371 -3360.48 2104.83 
-52.889 -3358.47 2113.39 
-52.128 -3357.62 2114.36 
-53.5044 -3359.33 2112.88 
-51.1413 -3356.92 2115.46 
-51.4124 -3357.6 2116.61 
-52.9288 -3359.28 2116.39 
-53.9516 -3358.74 2110.44 
-53.9342 -3359.74 2112.24 
-58.4147 -3360.46 2108.06 
-60.0949 -3360.66 2106.47 
-60.7216 -3360.77 2105.94 
-57.9883 -3361.06 2109 
-57.8093 -3361.3 2109.49 
-56.6146 -3360.72 2110.55 
-56.337 -3360.34 2110.38 
-55.3069 -3359.53 2110.14 
-61.3926 -3360.79 2105.41 
-62.0376 -3360.85 2105.1 
-62.5198 -3360.97 2104.94 
-53.35 -3359.75 2116.95 
-53.4084 -3359.58 2114.75 
-53.9693 -3360.1 2113.15 
-54.159 -3360.25 2112.56 
-54.572 -3360.96 2115.44 
-54.1451 -3360.49 2114.26 
-54.1905 -3359.27 2110.75 
-54.6093 -3360.2 2111.69 
-59.641 -3360.93 2107.08 
-58.5599 -3361.03 2108.28 
-60.4252 -3361.09 2106.41 
-61.2148 -3361.08 2105.78 
-58.9059 -3362.42 2108.63 
-57.433 -3361.19 2109.94 
-57.0126 -3360.97 2110.28 
-56.2686 -3360.65 2111 
-55.3342 -3359.97 2110.72 
-61.7547 -3361.18 2105.6 
-62.9354 -3361.36 2105.2 
-67.1564 -3364.45 2110.02 
-55.0551 -3361.43 2116.21 
-54.387 -3360.69 2113.67 
-54.455 -3360.63 2112.96 
-55.0337 -3361.33 2115.09 
-54.3936 -3359.72 2111.05 
-55.5552 -3360.73 2111.85 
-55.4501 -3360.4 2111.32 
-54.7054 -3360.6 2112.45 
-59.8613 -3362.19 2107.43 
-60.2389 -3362.42 2107.18 
-59.4231 -3362.13 2107.86 
-60.8625 -3361.23 2106.15 
-58.7453 -3362.67 2109.1 
-56.9801 -3361.36 2111.21 
-56.5665 -3361.28 2111.74 
-66.6183 -3365.35 2112.95 
-63.7738 -3362.03 2105.9 
-65.7174 -3362.71 2106.65 
-66.6775 -3364.38 2110.19 
-65.9445 -3365.04 2112.74 
-55.5327 -3361.83 2116.01 
-54.8693 -3361.11 2114.04 
-54.9693 -3360.99 2113.28 
-55.5846 -3361.78 2115.37 
-55.77 -3361.12 2112.59 
-59.912 -3363.48 2107.89 
-60.7016 -3362.63 2106.94 
-59.5871 -3363.66 2108.32 
-58.7617 -3363.12 2109.46 
-57.6714 -3361.68 2110.26 
-57.3479 -3361.51 2110.76 
-57.1192 -3361.65 2111.64 
-56.9413 -3361.67 2112.27 
-61.5783 -3361.6 2106 
-66.4797 -3365.76 2114.83 
-65.7941 -3365.41 2114.66 
-62.5799 -3361.55 2105.56 
-62.1805 -3361.75 2105.85 
-63.3613 -3362.19 2106.14 
-64.6049 -3362.3 2106.17 
-65.6598 -3362.99 2107.29 
-66.3386 -3364.07 2109.46 
-65.7154 -3364.58 2111.53 
-64.6126 -3365.03 2114.78 
-65.1892 -3364.85 2112.92 
-55.8491 -3362.08 2116.68 
-55.998 -3362.16 2115.6 
-55.6089 -3361.69 2114.61 
-56.2496 -3361.65 2113.46 
-60.2747 -3364 2107.74 
-59.7971 -3364.25 2108.48 
-58.0484 -3362.36 2110.72 
-57.6356 -3362.13 2111.61 
-57.4741 -3362.05 2112.22 
-57.4149 -3362.09 2112.87 
-64.4797 -3365.64 2117.97 
-63.6828 -3365.04 2116.8 
-62.7478 -3362.18 2106.15 
-61.193 -3362.89 2106.79 
-64.8888 -3362.74 2106.89 
-65.6623 -3363.39 2108.14 
-64.1496 -3362.42 2106.38 
-64.4348 -3362.92 2107.04 
-65.6116 -3364.32 2110.65 
-64.88 -3364.65 2112.37 
-62.836 -3364.6 2115.28 
-61.0677 -3364.08 2117.28 
-64 -3364.79 2113.96 
-56.4667 -3362.43 2116.22 
-56.7624 -3362.17 2114.21 
-57.079 -3362.4 2114.65 
-60.3017 -3364.5 2107.99 
-59.5216 -3364.33 2109.03 
-57.9886 -3362.44 2111.99 
-57.8494 -3362.37 2112.67 
-57.9436 -3362.45 2113.2 
-61.7177 -3363.24 2106.86 
-63.6 -3362.55 2106.52 
-62.1488 -3363.49 2107.06 
-65.0984 -3363.44 2108.11 
-65.2704 -3363.92 2109.06 
-65.3396 -3364.2 2110.01 
-63.5872 -3362.9 2106.88 
-64.0294 -3363.34 2107.51 
-64.6321 -3363.3 2107.72 
-63.9007 -3364.65 2113.09 
-64.3269 -3364.59 2112.17 
-60.4441 -3363.63 2115.14 
-61.9316 -3364.26 2114.4 
-62.9317 -3364.55 2114 
-58.513 -3363.06 2116.24 
-57.4464 -3362.58 2115.1 
-58.3255 -3362.68 2113.71 
-58.9442 -3363.55 2109.78 
-58.3503 -3362.79 2111.35 
-58.3046 -3362.7 2112.36 
-59.9108 -3364.72 2108.81 
-58.5551 -3362.78 2113.13 
-60.8674 -3364.2 2107.58 
-62.5626 -3363.76 2107.39 
-64.9265 -3364.05 2109.42 
-64.9269 -3364.44 2111.29 
-63.0011 -3363.88 2107.73 
-64.3792 -3363.6 2108.08 
-62.8927 -3364.52 2113.35 
-63.3821 -3364.58 2112.77 
-63.7126 -3364.57 2112.01 
-64.1396 -3364.51 2111.42 
-59.7431 -3363.31 2114.18 
-61.3886 -3364.15 2113.53 
-60.3839 -3363.65 2113.92 
-62.1622 -3364.39 2113.58 
-59.6542 -3364.56 2109.46 
-59.2239 -3363.92 2110.4 
-58.8004 -3363.2 2111.91 
-58.9227 -3363.14 2112.57 
-59.2246 -3363.16 2113.31 
-60.8182 -3364.63 2107.92 
-61.4551 -3364.42 2107.65 
-64.538 -3363.84 2108.58 
-64.362 -3364.19 2109.41 
-64.6331 -3364.24 2109.93 
-63.2264 -3364.11 2108.21 
-62.3542 -3364.46 2113.1 
-62.8612 -3364.58 2112.13 
-63.5686 -3364.58 2111.34 
-63.0631 -3364.62 2111.62 
-63.8784 -3364.49 2110.9 
-60.6225 -3363.97 2112.99 
-61.3101 -3364.26 2112.85 
-59.9071 -3363.53 2113.24 
-61.802 -3364.4 2112.84 
-62.067 -3364.53 2112.39 
-60.4786 -3365.24 2108.26 
-60.1291 -3365.1 2109.13 
-59.3597 -3363.34 2112.84 
-59.4869 -3364.01 2111.06 
-63.2469 -3364.35 2108.68 
-63.0931 -3364.56 2109.17 
-64.4316 -3364.37 2110.62 
-62.2196 -3364.56 2108.28 
-61.6815 -3364.8 2107.99 
-62.3524 -3364.9 2110.42 
-60.5094 -3364.6 2111.2 
-61.1255 -3364.82 2111.06 
-59.9452 -3364.22 2111.37 
-61.8418 -3364.89 2110.93 
-60.6255 -3365.28 2109.02 
-59.9392 -3364.86 2109.84 
-60.4405 -3365.2 2109.69 
-62.7237 -3364.78 2110.02 
-61.5154 -3365.19 2109.47 
-60.4395 -3364.99 2110.15 
-62.1284 -3364.81 2108.83 
-61.033 -3365.13 2108.35 
-61.1461 -3365.11 2110.02 
-60.9953 -3365.4 2109.63 
-61.204 -3365.23 2108.95 
-61.5521 -3364.96 2108.56 
