-164.558 -3369.6 1525.51
-163.625 -3369.38 1522.41
-167.325 -3369.8 1525.3
-167.725 -3369.85 1526.47
-160.102 -3368.73 1519.44
-163.861 -3369.23 1518.47
-165.423 -3369.21 1520.13
-166.119 -3369.49 1522.56
-162.891 -3369.13 1517.93
-176.228 -3367.93 1532.09
-176.676 -3367.68 1533.32
-168.111 -3369.78 1527.33
-168.663 -3369.83 1525.51
-168.822 -3369.82 1526.36
-169.373 -3369.72 1527.63
-161.831 -3368.77 1515.8
-164.261 -3369.32 1516.7
-165.283 -3369.29 1518.44
-164.86 -3369.38 1517.05
-166.875 -3369.28 1518.61
-167.816 -3369.52 1523.23
-170.049 -3369.12 1520.86
-163 -3368.93 1515.08
-160.528 -3368.38 1513.91
-159.395 -3368.29 1512.46
-169.838 -3369.14 1530.13
-171.986 -3368.69 1531.03
-174.215 -3368.43 1531.15
-169.61 -3369.6 1528.4
-174.55 -3368.68 1530.04
-177.55 -3368.12 1530.52
-180.837 -3367.94 1530.64
-180.655 -3367.33 1532.96
-169.218 -3369.54 1523.71
-169.9 -3369.49 1524.19
-170.01 -3369.7 1527.03
-170.97 -3369.51 1528.2
-171.478 -3369.32 1529.14
-164.186 -3369.04 1514.98
-163.523 -3368.94 1514.75
-165.399 -3369.37 1516.87
-167.815 -3369.15 1517.65
-172.305 -3368.83 1519.62
-171.955 -3368.93 1521.26
-163.008 -3368.63 1513.12
-158.541 -3368.26 1509.75
-161.965 -3368.51 1511.17
-174.968 -3368.68 1529.47
-177.695 -3368.21 1529.74
-181.025 -3368.15 1529.72
-182.094 -3367.81 1530.56
-183.777 -3368.09 1528.87
-183.67 -3366.84 1532.28
-170.709 -3369.4 1525.5
-172.299 -3369.26 1527.94
-171.726 -3368.98 1522.63
-174.929 -3368.71 1528.97
-164.699 -3369.05 1515.17
-164.341 -3368.66 1512.86
-166.105 -3369.27 1516.53
-169.229 -3368.78 1516.62
-171.789 -3368.53 1517.31
-173.843 -3368.43 1518.12
-174.095 -3368.77 1519.84
-172.844 -3368.77 1520.83
-173.942 -3368.79 1520.3
-172.294 -3368.99 1520.51
-173.546 -3368.99 1521.34
-172.716 -3368.69 1521.75
-173.412 -3369.03 1521.26
-163.99 -3368.6 1511.31
-160.869 -3368.33 1509.03
-163.156 -3368.45 1508.82
-164.722 -3368.72 1508.35
-165.21 -3368.77 1508.59
-178.182 -3368.16 1529.41
-180.775 -3368.18 1529.45
-179.212 -3368.08 1529.7
-176.995 -3368.31 1528.88
-183.319 -3368.21 1528.67
-183.623 -3367.41 1530.71
-185.708 -3367.76 1528.58
-185.8 -3367.85 1527.99
-187.486 -3367.48 1527.88
-187.814 -3366.36 1530.95
-170.96 -3369.35 1525.74
-171.147 -3369.14 1524.44
-172.851 -3369.07 1527.6
-175.306 -3368.62 1528.38
-172.093 -3368.93 1523.15
-172.886 -3368.58 1522.21
-165.175 -3369.03 1515.16
-165.002 -3368.71 1513.65
-165.216 -3368.59 1512.01
-166.493 -3368.43 1513.2
-166.836 -3369.12 1516.25
-166.994 -3368.77 1515.13
-168.947 -3368.5 1515
-168.915 -3368.27 1513.88
-171.254 -3367.95 1513.27
-175.282 -3367.83 1514.59
-176.425 -3367.84 1516.45
-176.274 -3368 1518.33
-175.866 -3368.32 1519.64
-174.569 -3368.58 1519.42
-174.55 -3368.84 1520.2
-174.516 -3368.91 1520.48
-173.57 -3368.92 1521.03
-174.393 -3368.98 1520.72
-173.747 -3368.89 1521.46
-174.721 -3368.87 1521.01
-174.627 -3368.93 1520.77
-173.999 -3368.7 1521.55
-165.154 -3368.6 1510.63
-162.976 -3368.08 1506.41
-164.206 -3368.61 1507.82
-165.659 -3368.87 1507.1
-166.159 -3368.92 1507.12
-165.671 -3368.78 1508.63
-166.685 -3368.91 1507.28
-191.037 -3365.61 1531.69
-178.087 -3368.09 1528.75
-179.333 -3368.02 1529.2
-180.844 -3368.18 1529.05
-182.654 -3368.27 1528.47
-184.916 -3368.02 1528.03
-185.664 -3367.14 1530.2
-187.851 -3367.05 1529.11
-189.574 -3366.69 1528.78
-188.207 -3367.42 1526.77
-188.636 -3367.33 1527.08
-189.713 -3367 1527.02
-190.368 -3366.59 1528
-172.886 -3368.4 1525.23
-172.908 -3368.36 1524.84
-173.126 -3368.34 1525.63
-172.326 -3369.03 1526.68
-173.07 -3368.33 1524.45
-173.314 -3368.96 1527.52
-176.004 -3368.45 1527.99
-176.31 -3368.4 1528.27
-172.902 -3368.74 1522.82
-173.353 -3368.24 1524.11
-173.337 -3368.49 1522.38
-166.332 -3368.57 1514.07
-165.956 -3368.51 1510.33
-166.888 -3368.29 1511.09
-167.003 -3368.29 1512.09
-169.703 -3367.87 1511.44
-174.29 -3367.68 1512.43
-173.878 -3367.31 1509.61
-178.1 -3367.65 1513
-177.966 -3367.69 1513.9
-177.113 -3367.64 1515.18
-177.037 -3367.88 1518.39
-177.824 -3367.54 1516.58
-176.219 -3368.42 1520.61
-174.797 -3368.79 1520.34
-176.79 -3368.18 1519.93
-175.331 -3368.64 1521.06
-175.378 -3368.65 1520.82
-174.473 -3368.56 1521.86
-175.503 -3368.6 1521.39
-166.248 -3368.75 1508.61
-165.838 -3367.95 1503.42
-166.602 -3367.8 1502.57
-164.123 -3368.49 1507.04
-164.587 -3368 1504.74
-165.748 -3368.83 1506.82
-166.465 -3368.88 1506.72
-167.069 -3368.88 1506.78
-167.267 -3368.85 1507.58
-167.456 -3368.86 1507.07
-192.535 -3365.65 1529.71
-177.774 -3368.08 1528.23
-178.71 -3367.89 1528.22
-179.145 -3367.96 1528.65
-180.776 -3368.14 1528.66
-182.48 -3368.27 1528.24
-183.92 -3368.17 1528.14
-187.438 -3367.56 1526.73
-190.495 -3366.77 1526.03
-190.419 -3366.8 1526.41
-192.1 -3366.07 1527.05
-193.578 -3365.63 1526.24
-174.383 -3367.77 1525.51
-174.99 -3367.51 1525.16
-173.336 -3368.35 1525.98
-174.488 -3367.68 1525.57
-173.116 -3368.87 1527.09
-174.69 -3367.61 1524.91
-175.66 -3368.45 1527.66
-177.423 -3368.03 1527.93
-173.737 -3368.17 1523.8
-173.396 -3368.61 1522.89
-174.672 -3367.65 1524.68
-174.738 -3367.94 1523.56
-166.942 -3368.62 1508.86
-168.236 -3368.12 1510.16
-169.63 -3367.86 1510.59
-172.154 -3367.46 1509.02
-173.242 -3367.31 1509.04
-176.655 -3367.13 1508.95
-178.802 -3367.39 1510.68
-176.125 -3367.02 1507.87
-180.801 -3367.62 1512.81
-180.665 -3367.4 1510.9
-178.785 -3367.66 1514.21
-178.313 -3367.47 1515.83
-177.907 -3367.59 1517.82
-177.47 -3367.76 1518.76
-178.697 -3367.4 1516.6
-178.553 -3367.43 1517.05
-176.784 -3368.38 1520.86
-177.113 -3368.26 1520.59
-177.421 -3367.91 1519.9
-176.312 -3368.41 1521.39
-176.694 -3368.35 1521.13
-174.944 -3368.3 1522.48
-176.119 -3368.38 1521.75
-176.277 -3368.38 1521.59
-166.77 -3367.93 1503.16
-166.567 -3368.4 1504.81
-169.135 -3367.43 1501.08
-167.488 -3368.27 1504.29
-168.497 -3368.16 1504.11
-164.493 -3368.42 1506.24
-165.789 -3368.77 1506.54
-165.662 -3368.34 1505.17
-166.234 -3368.82 1506.47
-166.833 -3368.81 1506.17
-167.265 -3368.85 1506.45
-167.691 -3368.8 1506.6
-167.837 -3368.79 1507.19
-167.653 -3368.79 1507.6
-168.255 -3368.69 1506.75
-194.41 -3365.19 1528.44
-178.339 -3367.84 1527.81
-179.391 -3367.84 1528.05
-179.285 -3367.68 1527.54
-180.676 -3368.09 1528.31
-183.022 -3368.25 1528.17
-185.387 -3367.91 1527.34
-187.975 -3367.38 1526.23
-190.308 -3366.79 1525.78
-193.682 -3365.58 1524.9
-193.942 -3365.49 1525.54
-196.501 -3364.63 1526.91
-175.208 -3367.49 1525.57
-175.896 -3367.34 1525.39
-176.836 -3367.11 1524.73
-177.766 -3366.92 1524.82
-173.709 -3368.24 1526.19
-174.84 -3367.66 1525.81
-175.095 -3367.56 1525.76
-174.016 -3368.58 1527.1
-176.915 -3367.14 1524.41
-176.037 -3368.24 1527.4
-177.297 -3367.64 1526.87
-176.608 -3367.24 1524.25
-176.704 -3367.43 1523.62
-177.968 -3367.1 1523.44
-168.244 -3368.38 1508.87
-169.178 -3368.3 1508.1
-171.217 -3367.65 1508.02
-172.295 -3367.45 1506.65
-175.574 -3367.04 1507.54
-179.38 -3366.72 1506.6
-180.321 -3366.97 1507.97
-178.4 -3366.78 1505.91
-184.15 -3367.3 1513.22
-182.07 -3367.31 1511.06
-184.061 -3367.33 1513.89
-182.161 -3366.76 1507.31
-179.708 -3367.55 1514.54
-184.221 -3367.29 1514.68
-179.929 -3366.99 1517.04
-179.751 -3366.91 1517.55
-178.656 -3367.41 1517.58
-178.123 -3367.49 1518.19
-178.542 -3367.22 1518.87
-178.442 -3367.23 1519.29
-179.484 -3366.94 1517.86
-177.278 -3368.2 1520.78
-178.024 -3367.89 1520.62
-177.993 -3367.85 1520.46
-178.761 -3367.34 1520.12
-176.77 -3368.32 1521.3
-177.614 -3368.03 1520.92
-176.36 -3368.29 1521.86
-176.21 -3367.93 1522.78
-176.868 -3368.24 1521.56
-171.951 -3367.34 1502.08
-172.572 -3366.99 1500.18
-168.536 -3368.36 1505.05
-168.942 -3368.34 1505.5
-168.55 -3368.59 1507.13
-169.391 -3368.26 1506.12
-178.962 -3367.25 1526.43
-180.665 -3368.01 1527.95
-180.948 -3367.96 1527.64
-180.957 -3367.82 1527.3
-180.54 -3366.77 1525.59
-182.516 -3368.24 1528
-184.862 -3367.94 1527.29
-187.596 -3367.4 1526.07
-189.979 -3366.75 1525.44
-190.552 -3366.65 1525.45
-193.681 -3365.52 1524.52
-196.166 -3364.56 1524.47
-197.521 -3363.94 1522.66
-197.525 -3364.27 1525.52
-176.138 -3367.29 1525.55
-178.549 -3366.76 1524.86
-180.061 -3366.4 1523.68
-179.494 -3366.56 1523.46
-181.547 -3366.08 1523.48
-174.335 -3368.07 1526.36
-175.183 -3367.67 1526.04
-175.704 -3367.52 1526.05
-175.994 -3367.37 1525.78
-175.032 -3368 1526.62
-178.531 -3366.9 1523.37
-179.976 -3366.54 1522.19
-176.208 -3367.87 1526.87
-176.763 -3367.27 1525.88
-175.916 -3367.57 1526.28
-178.49 -3366.97 1525.63
-177.292 -3367.71 1522.52
-177.943 -3367.57 1522.15
-179.531 -3366.72 1522.31
-169.598 -3368.21 1507.13
-170.794 -3367.76 1507.42
-170.438 -3367.85 1504.92
-171.057 -3367.7 1504.12
-175.046 -3367.09 1507.27
-174.383 -3367.28 1506.3
-173.064 -3367.51 1504.55
-173.526 -3367.48 1505.38
-176.11 -3367.15 1505.47
-181.777 -3366.28 1503.93
-176.591 -3367.08 1504.35
-177.854 -3366.73 1502.7
-184.823 -3366.98 1511.68
-186.104 -3367.05 1514.03
-185.952 -3367.03 1512.6
-183.478 -3366.98 1510.26
-183.121 -3366.64 1507.24
-186.332 -3367.01 1515.97
-180.77 -3367.15 1516.03
-183.512 -3367.06 1516.11
-185.169 -3366.98 1516.9
-181.25 -3366.52 1519.29
-181.492 -3366.35 1520.44
-180.404 -3366.56 1519.35
-179.231 -3367.05 1518.19
-178.996 -3367.23 1518.49
-179.35 -3366.79 1519.12
-179.707 -3366.78 1519.78
-179.318 -3366.88 1519.94
-179.694 -3366.63 1519.03
-180.15 -3366.6 1519.47
-179.987 -3366.61 1518.88
-178.972 -3367.32 1520.7
-178.996 -3367.26 1520.99
-179.739 -3366.8 1520.39
-177.463 -3368.06 1521.21
-178.904 -3367.26 1521.37
-173.296 -3367.46 1503.68
-175.754 -3366.83 1501.61
-176.472 -3366.53 1499.94
-198.952 -3363.9 1525.23
-199.362 -3363.42 1523.08
-181.482 -3366.24 1524.53
-183.646 -3367.84 1527.15
-184.395 -3367.83 1526.95
-181.213 -3367.7 1527
-181.25 -3366.68 1525.44
-184.838 -3367.67 1526.59
-184.223 -3366.17 1524.42
-183.972 -3366.1 1524.26
-183.831 -3366.02 1524
-186.834 -3367.48 1526.1
-187.905 -3367.23 1525.64
-189.934 -3366.67 1525.19
-192.216 -3366.04 1524.46
-193.668 -3365.44 1524.15
-196.356 -3364.26 1522.58
-197.42 -3363.58 1520.71
-198.41 -3363.26 1519.66
-177.622 -3367.03 1525.48
-180.776 -3366.32 1524.4
-181.81 -3366.05 1523.82
-180.761 -3366.39 1521.47
-182.806 -3365.95 1522.53
-181.339 -3366.23 1521.82
-183.011 -3365.92 1523.12
-180.11 -3366.73 1520.95
-180.362 -3366.62 1520.39
-178.628 -3367.31 1521.84
-180.703 -3366.07 1500.25
-183.577 -3365.92 1502.87
-185.685 -3366.77 1510.52
-187.333 -3366.81 1514.48
-186.531 -3366.88 1512.24
-187.298 -3366.85 1515.75
-184.247 -3366.46 1507.83
-185.079 -3365.99 1505.82
-187.525 -3366.77 1516.38
-186.432 -3366.93 1516.62
-181.269 -3366.92 1517.36
-182.615 -3366.68 1519.01
-182.09 -3366.8 1518.16
-183.396 -3366.58 1519.15
-183.511 -3366.08 1520.88
-183.799 -3365.88 1521.69
-179.975 -3366.68 1519.65
-180.215 -3366.71 1520.47
-179.98 -3366.81 1520.61
-200.924 -3362.67 1522.95
-202.451 -3361.67 1520.3
-199.298 -3362.95 1519.21
-182.153 -3366.04 1524.1
-183.578 -3365.96 1523.8
-187.506 -3367.24 1525.61
-182.113 -3367.12 1526.09
-185.441 -3367.43 1526.12
-184.618 -3366.24 1524.51
-187.446 -3367.13 1525.39
-187.231 -3365.48 1523.14
-186.041 -3365.72 1523.46
-185.22 -3365.95 1523.69
-186.449 -3365.38 1522.84
-189.74 -3366.59 1524.94
-193.257 -3365.34 1523.54
-192.908 -3365.27 1523.22
-193.437 -3365.4 1523.83
-194.902 -3364.76 1523.24
-195.093 -3364.16 1521.77
-195.31 -3363.94 1521.08
-195.323 -3363.83 1520.5
-197.139 -3363.55 1519.75
-197.806 -3363.45 1516.92
-198.473 -3363.27 1516.77
-183.27 -3365.93 1523.53
-184.231 -3365.78 1522.47
-186.159 -3365.26 1521.84
-186.102 -3365.28 1521.57
-184.327 -3365.81 1522.86
-186.108 -3365.28 1502.29
-186.022 -3365.53 1503.69
-186.029 -3366.35 1509.16
-187.767 -3366.63 1513.91
-188.153 -3366.66 1516.14
-188.64 -3366.51 1515.85
-187.205 -3366.32 1510.25
-187.828 -3366.19 1510.61
-187.081 -3365.81 1507.87
-187.32 -3365.64 1506.52
-187.499 -3365.3 1504.45
-188.319 -3366.56 1516.57
-188.155 -3366.52 1516.9
-187.234 -3366.7 1517.02
-184.869 -3366.54 1518.69
-186.052 -3365.57 1520.37
-186.227 -3365.38 1520.86
-185.932 -3365.37 1521.27
-201.619 -3361.81 1517.6
-199.178 -3363 1516.74
-184.812 -3365.82 1523.21
-188.915 -3366.7 1524.94
-184.796 -3366.82 1525.38
-186.485 -3366.58 1524.71
-187.513 -3366.94 1525.1
-188.056 -3365.52 1523.21
-188.581 -3366.51 1524.59
-188.879 -3364.97 1522.3
-190.789 -3365.46 1523.16
-186.548 -3365.4 1522.98
-186.461 -3365.29 1522.62
-190.597 -3364.62 1521.73
-191.003 -3364.47 1521.41
-192.305 -3365.25 1523.03
-194.355 -3364.41 1522.14
-192.156 -3364.59 1521.93
-192.128 -3364.23 1520.9
-193.431 -3364.05 1520.32
-193.946 -3363.97 1519.72
-196.143 -3363.81 1516.82
-199.223 -3363.11 1513.4
-198.329 -3363.36 1513.99
-199.764 -3362.93 1513.34
-186.266 -3365.24 1522.12
-189.276 -3364.57 1521.11
-189.68 -3364.52 1520.77
-188.795 -3364.7 1520.73
-186.285 -3365.28 1522.42
-188.207 -3364.95 1501.88
-188.739 -3365.83 1511.07
-188.582 -3366.41 1514.69
-189.159 -3366.35 1515.65
-188.995 -3366.38 1516.29
-189.233 -3366.32 1515.97
-188.365 -3365.67 1508.53
-189.062 -3365.43 1508.81
-188.539 -3365.52 1507.63
-189.046 -3365.4 1506.84
-190.18 -3365.26 1505.82
-190.098 -3365.26 1505.32
-188.308 -3365.23 1504.67
-190.149 -3365.64 1517.33
-190.284 -3365.66 1517.05
-189.969 -3365.61 1517.63
-187.805 -3366.42 1517.42
-185.837 -3366.34 1518.72
-187.532 -3365.33 1519.92
-190.4 -3364.6 1519.73
-190.743 -3364.75 1519.06
-201.415 -3361.83 1516.45
-200.069 -3362.76 1514.13
-187.843 -3366.13 1524.04
-188.929 -3364.7 1521.68
-189.228 -3364.6 1521.35
-194.646 -3363.93 1518.35
-193.726 -3364.16 1517.83
-193.578 -3364.34 1516.25
-194.236 -3363.99 1514.18
-195.802 -3363.69 1513.03
-199.295 -3363.06 1511.63
-197.862 -3363.27 1511.09
-191.469 -3364.31 1519.98
-191.742 -3364.36 1519.41
-189.68 -3364.65 1500.45
-188.867 -3364.94 1502.58
-190.768 -3364.91 1503.12
-190.775 -3364.78 1511.34
-189.757 -3365.34 1512.11
-189.419 -3365.57 1513.13
-188.978 -3366.2 1514.57
-190.244 -3365.71 1515.61
-190.374 -3365.65 1515.88
-190.311 -3365.72 1516.22
-190.26 -3365.74 1516.58
-189.294 -3365.34 1507.91
-190.922 -3364.66 1510.03
-190.547 -3365.2 1506.21
-189.59 -3365.25 1507.24
-191.524 -3365.12 1505.41
-191.437 -3365.12 1504.97
-189.726 -3365.07 1504.15
-191.999 -3364.66 1518.28
-191.693 -3364.98 1517.27
-192.862 -3364.42 1517.92
-189.504 -3365.58 1518.11
-187.704 -3365.79 1518.83
-192.809 -3364.56 1516.9
-192.467 -3364.67 1515.99
-192.907 -3364.27 1514.09
-192.55 -3364.12 1511.57
-194.518 -3363.79 1510.88
-195.795 -3363.65 1508.8
-197.501 -3363.18 1509.13
-190.508 -3364.39 1500.07
-191.011 -3364.75 1502.35
-191.639 -3365 1504.25
-190.718 -3364.81 1512.94
-191.733 -3364.38 1512.62
-191.606 -3364.66 1514.47
-190.566 -3364.91 1513.03
-189.853 -3365.61 1514.4
-191.079 -3364.94 1514.7
-190.919 -3364.76 1513.35
-191.476 -3364.95 1515.73
-191.664 -3364.99 1516.22
-191.581 -3365.05 1516.73
-190.739 -3364.72 1509.03
-190.716 -3365.12 1506.67
-191.687 -3365.07 1505.79
-190.969 -3364.67 1508.71
-191.853 -3365.02 1504.72
-192.04 -3364.99 1505.3
-192.149 -3364.81 1516.51
-192.144 -3364.5 1514.29
-193.631 -3364.02 1509.34
-197.357 -3363.06 1507.21
-196.629 -3363.39 1508.12
-198.13 -3362.53 1505.67
-193.425 -3364.46 1506.43
-193.814 -3364.34 1506
-192.23 -3364.23 1501.44
-191.475 -3364.57 1501.89
-192.146 -3364.85 1503.98
-191.985 -3364.61 1507.88
-192.994 -3364.55 1506.84
-192.488 -3364.83 1504.68
-194.313 -3364.16 1505.64
-194.73 -3363.92 1505.02
-195.847 -3363.25 1504.29
-193.311 -3363.98 1501.91
-192.826 -3364.59 1503.78
-194.552 -3363.58 1502.47
