-174.544 -2891.99 1905.35
-180.729 -2873.21 1888.5
-179.762 -2873.55 1889.39
-180.042 -2872.73 1888.32
-175.316 -2925.83 1934.82
-175.484 -2925.64 1934.26
-175.522 -2925.57 1933.92
-175.591 -2925.45 1933.59
-176.474 -2924.18 1932.81
-176.515 -2924.06 1932.95
-173.159 -2925.68 1934.58
-173.08 -2925.19 1934.5
-172.977 -2924.82 1934.46
-173.027 -2924.22 1934.3
-173.044 -2923.66 1934.16
-173.014 -2923.23 1934.08
-172.919 -2922.92 1934.05
-173.677 -2926.82 1935.65
-173.507 -2926.92 1935.58
-173.416 -2927.09 1935.56
-173.105 -2927.32 1935.44
-173.254 -2927.17 1935.5
-173.082 -2927.47 1935.38
-173.031 -2927.13 1935.12
-174.243 -2926.34 1935.76
-174.023 -2926.49 1935.77
-174.856 -2925.9 1935.57
-174.652 -2926.02 1935.65
-174.456 -2926.1 1935.69
-173.883 -2926.5 1935.71
-173.755 -2926.66 1935.67
-175.046 -2925.91 1935.29
-189.001 -2878.99 1907.39
-189.242 -2878.72 1906.82
-181.423 -2892.12 1917.46
-186.455 -2875.57 1904.52
-180.587 -2890.81 1915.8
-179.607 -2889.42 1915.63
-178.317 -2886.56 1913.05
-178.075 -2885.7 1910.71
-177.513 -2885.95 1908.39
-178.831 -2885.91 1906.7
-183.666 -2879.42 1906.72
-183.073 -2879.11 1905.67
-181.731 -2882.79 1906.27
-184.897 -2873.42 1902.15
-183.93 -2873.32 1901.77
-183.554 -2875.15 1902.96
-183.451 -2876.78 1904.05
-183.173 -2873.45 1901.58
-185.219 -2873.15 1902.05
-186.663 -2875.04 1904.04
-187.115 -2875.09 1904.04
-186.49 -2873.71 1902.6
-187.323 -2874.67 1903.48
-187.619 -2874.92 1903.58
-181.052 -2891.19 1916.45
-173.149 -2921.76 1933.69
-172.966 -2922.36 1933.9
-173.325 -2921.18 1933.48
-173.499 -2920.58 1933.27
-174.233 -2919.46 1932.72
-173.907 -2919.86 1932.94
-173.674 -2919.95 1933.05
-177.694 -2921.27 1932.05
-177.181 -2920.54 1932.48
-177.642 -2921.89 1931.78
-176.702 -2920.41 1932.61
-177.302 -2922.59 1931.94
-176.51 -2923.93 1931.46
-176.174 -2920.28 1932.71
-175.596 -2920.16 1932.71
-174.519 -2919.7 1932.77
-174.772 -2919.92 1932.78
-175.147 -2920.13 1932.77
-174.114 -2919.38 1932.76
-174.244 -2919.52 1932.8
-179.914 -2897.9 1915.59
-180.154 -2895.93 1915.32
-180.799 -2892.24 1915.52
-180.325 -2893.02 1914.45
-180.208 -2893.97 1914.37
-180.961 -2891.36 1916.3
-180.734 -2891.38 1915.73
-180.595 -2891.58 1915.36
-189.713 -2879.3 1906.98
-188.16 -2872.19 1899.28
-187.968 -2872.11 1899.6
-188.526 -2875.2 1902.88
-187.711 -2871.83 1899.73
-187.079 -2868.33 1896.01
-185.446 -2864.29 1892.62
-183.838 -2860.1 1889.83
-182.322 -2856.26 1887.18
-182.438 -2856.41 1886.93
-182.253 -2855.99 1886.34
-182.231 -2855.99 1885.95
-182.237 -2856.12 1885.6
-182.273 -2856.32 1885.28
-186.46 -2926.11 1920.24
-187.068 -2927.03 1920.21
-187.138 -2926.64 1919.7
-178.735 -2869.56 1885.97
-177.368 -2865.81 1883.63
-175.999 -2856.83 1878.65
-176.477 -2856.5 1878.53
-177.107 -2856.53 1878.66
-174.82 -2856.64 1878.6
-175.771 -2861.81 1881.38
-173.699 -2856.48 1878.58
-178.316 -2858.38 1879.77
-177.212 -2854.8 1878.17
-177.621 -2854.72 1878.36
-177.257 -2850.12 1877.39
-176.629 -2850 1876.77
-176.756 -2849.41 1876.79
-176.443 -2850.39 1876.71
-177.574 -2849.81 1877.71
-177.718 -2848.74 1877.88
-178.001 -2847.44 1878.24
-181.449 -2855.52 1883.63
-180.185 -2851.87 1881.74
-180.382 -2852.01 1882.23
-178.308 -2847.07 1878.75
-178.58 -2847.13 1879.23
-181.54 -2855.15 1884.55
-181.243 -2854.48 1883.61
-176.314 -2924.39 1932.36
-177.384 -2922.34 1932.04
-175.124 -2886.56 1906.38
-174.535 -2887.28 1906.29
-177.204 -2886.43 1905.42
-179.006 -2886.36 1904.7
-179.269 -2884.88 1903.42
-180.857 -2884.41 1900.97
-173.69 -2890.07 1905.59
-173.442 -2891.16 1905.22
-173.72 -2888.89 1905.97
-173.683 -2888.12 1906
-181.452 -2882.81 1898.17
-179.662 -2878.51 1895.09
-179.161 -2876.01 1892.86
-177.882 -2871.99 1889.54
-177.691 -2871.06 1888.1
-179.94 -2896.5 1914.15
-179.966 -2894.74 1913.26
-179.922 -2894.97 1912.59
-179.964 -2895.02 1911.71
-179.909 -2894.66 1912.03
-179.765 -2894.33 1911.09
-179.737 -2894.28 1910.37
-179.846 -2894.48 1909.68
-179.829 -2894.49 1909.14
-179.72 -2894.45 1908.55
-177.794 -2893.63 1906.91
-174.03 -2891.76 1905.25
-177.782 -2869.39 1886.32
-177.066 -2869.53 1886.91
-175.308 -2925.68 1934.87
-176.312 -2924.25 1933.58
-176.258 -2924.21 1933.74
-176.526 -2923.89 1933.29
-176.51 -2924 1933.13
-177.49 -2922.11 1932.17
-177.387 -2922.26 1932.38
-172.892 -2926.28 1934.83
-172.907 -2925.77 1934.71
-172.753 -2925.58 1934.72
-172.738 -2924.69 1934.53
-172.662 -2925.24 1934.68
-172.801 -2924.14 1934.38
-172.735 -2923.71 1934.3
-172.616 -2923.41 1934.29
-172.712 -2922.78 1934.1
-173.583 -2926.75 1935.6
-173.414 -2926.84 1935.53
-173.329 -2927.01 1935.51
-172.923 -2927.41 1935.36
-173.144 -2927.14 1935.44
-172.973 -2927.25 1935.37
-172.845 -2927.31 1935.19
-174.306 -2926.11 1935.71
-174.123 -2926.32 1935.77
-174.855 -2925.73 1935.5
-175.027 -2925.79 1935.27
-174.665 -2925.85 1935.59
-174.495 -2925.9 1935.64
-173.814 -2926.41 1935.66
-173.69 -2926.58 1935.62
-173.978 -2926.34 1935.73
-188.135 -2875.85 1904.29
-188.446 -2875.64 1903.63
-187.827 -2874.21 1902.41
-185.759 -2873.18 1902.15
-180.322 -2890.7 1915.49
-179.141 -2889 1915.43
-175.868 -2885.79 1912.57
-176.281 -2885.7 1910.37
-175.518 -2885.9 1908.98
-176.983 -2885.81 1907.17
-180.991 -2883.15 1905.5
-180.135 -2883.48 1905.04
-182.306 -2879.51 1904.83
-182.679 -2877.31 1903.77
-183.66 -2870.12 1899.45
-183.259 -2871.02 1899.99
-181.428 -2869.44 1898.57
-182.231 -2871.39 1900.17
-182.759 -2874.18 1901.76
-182.352 -2875.75 1902.34
-181.575 -2871.41 1899.88
-184.444 -2870.16 1899.64
-186.692 -2873.18 1902.01
-185.468 -2871.23 1900.56
-185.794 -2870.87 1900.32
-186.433 -2871.27 1900.49
-187.436 -2873.41 1901.82
-186.623 -2871.15 1900.27
-180.622 -2890.96 1915.78
-172.864 -2922.05 1933.87
-173.029 -2921.4 1933.65
-173.21 -2920.81 1933.44
-173.422 -2920.17 1933.21
-173.923 -2919.36 1932.83
-173.705 -2919.39 1932.92
-177.668 -2920.99 1932.33
-177.325 -2920.68 1932.55
-176.835 -2920.51 1932.67
-176.293 -2920.39 1932.78
-175.723 -2920.26 1932.78
-174.495 -2919.79 1932.84
-174.842 -2920.07 1932.84
-175.287 -2920.25 1932.84
-173.976 -2919.39 1932.86
-174.183 -2919.6 1932.88
-180.091 -2894.78 1914.03
-180.452 -2891.99 1914.8
-180.055 -2892.82 1913.66
-180.003 -2893.77 1913.43
-180.414 -2890.92 1915.47
-180.37 -2891.16 1915.2
-180.326 -2891.41 1914.78
-186.876 -2868.19 1896.32
-186.66 -2868.03 1896.59
-187.438 -2871.63 1899.91
-186.428 -2867.89 1896.86
-185.229 -2864.1 1892.94
-183.808 -2860.35 1890.35
-182.43 -2856.62 1887.69
-180.878 -2853.13 1885.74
-181.148 -2853.64 1885.41
-180.68 -2852.42 1884.98
-181.165 -2853.64 1884.88
-181.273 -2853.89 1884.63
-181.377 -2854.3 1884.35
-186.572 -2926.55 1920.3
-176.262 -2865.49 1883.73
-174.765 -2862.04 1881.85
-174.37 -2853.08 1877.06
-173.218 -2853.47 1877.15
-175.223 -2852.56 1876.96
-176.82 -2854.91 1878.05
-175.554 -2851.75 1876.74
-172.151 -2853.62 1877.15
-172.87 -2856.64 1878.78
-171.267 -2853.9 1877.19
-175.816 -2850.63 1876.45
-176.155 -2850.41 1876.54
-176.267 -2844.91 1875.69
-176.592 -2844.71 1876.03
-175.631 -2845.22 1875.15
-175.867 -2844.52 1875.21
-175.311 -2845.02 1874.89
-176.846 -2844.13 1876.25
-177.307 -2843.72 1876.98
-176.981 -2843.33 1876.36
-178.756 -2847.12 1879.63
-180.14 -2850.87 1882.15
-178.884 -2846.76 1880.14
-178.812 -2846.87 1879.86
-177.474 -2843.43 1877.3
-177.923 -2844.64 1878.29
-181.125 -2853.81 1883.68
-174.261 -2886.73 1906.19
-174.964 -2886.22 1906.09
-173.647 -2887.45 1905.98
-176.549 -2885.96 1905.2
-177.919 -2885.93 1904.74
-178.675 -2885.38 1904.12
-179.388 -2883.87 1902.43
-181.298 -2883.75 1899.7
-173.169 -2889.67 1905.72
-172.961 -2890.83 1905.33
-173.216 -2891.26 1905.23
-172.981 -2888.82 1905.75
-172.866 -2888.13 1905.71
-180.603 -2881.32 1897.43
-178.89 -2877.17 1894.91
-177.597 -2872.94 1891.84
-177.04 -2871.2 1890.02
-175.637 -2867.83 1886.66
-175.419 -2868.04 1887.53
-175.302 -2866.67 1885.53
-179.894 -2894.19 1912.55
-179.674 -2893.94 1911.49
-179.567 -2893.79 1910.7
-179.547 -2893.88 1910
-179.454 -2893.96 1909.35
-179.102 -2893.75 1908.65
-176.872 -2893.03 1906.74
-177.188 -2893.25 1906.76
-173.813 -2891.59 1905.24
-175.499 -2865.73 1884.29
-175.776 -2924.65 1934.41
-176.124 -2924.33 1933.93
-177.117 -2922.36 1932.81
-176.95 -2922.61 1933.12
-177.43 -2922.11 1932.54
-177.685 -2921.33 1932.43
-172.653 -2926.84 1935.05
-172.643 -2926.27 1934.93
-172.457 -2925.78 1934.88
-172.452 -2924.89 1934.69
-172.539 -2924.37 1934.54
-172.39 -2925.28 1934.79
-172.389 -2924.05 1934.52
-172.454 -2923.09 1934.28
-172.346 -2923.58 1934.43
-172.599 -2922.43 1934.07
-173.505 -2926.66 1935.55
-173.27 -2926.77 1935.49
-173.231 -2926.96 1935.45
-172.761 -2927.38 1935.32
-173.002 -2927.07 1935.41
-172.667 -2927.18 1935.4
-172.649 -2927.44 1935.23
-174.311 -2925.94 1935.67
-174.129 -2926.16 1935.74
-174.837 -2925.58 1935.44
-175.585 -2924.78 1934.62
-174.67 -2925.64 1935.5
-174.499 -2925.71 1935.55
-173.935 -2926.23 1935.69
-173.74 -2926.29 1935.63
-173.644 -2926.47 1935.59
-187.08 -2871.14 1899.84
-180.167 -2890.53 1915.3
-179.066 -2889.06 1915.51
-175.239 -2886.14 1913.79
-173.45 -2885.48 1912.26
-174.401 -2885.65 1910.88
-173.485 -2885.78 1909.97
-174.355 -2885.91 1908.28
-176.948 -2884.87 1906.61
-181.39 -2880.06 1903.87
-179.917 -2883.04 1904.52
-180.624 -2880.52 1903.11
-181.805 -2877.85 1903.15
-181.482 -2876.16 1901.79
-181.804 -2865.73 1896.01
-180.379 -2866.34 1896.19
-179.122 -2869 1897.44
-177.826 -2865.86 1895.18
-181.865 -2873.96 1901.1
-181.274 -2872 1899.96
-177.591 -2869.5 1897.26
-183.758 -2866.77 1897.07
-182.763 -2865.77 1896.22
-185.901 -2870.15 1899.74
-184.161 -2866.49 1896.88
-184.78 -2866.29 1896.59
-185.013 -2866.35 1896.52
-186.669 -2870.5 1899.61
-185.171 -2866.29 1896.33
-172.741 -2921.74 1933.85
-172.898 -2921.05 1933.63
-173.139 -2920.41 1933.38
-173.383 -2919.77 1933.13
-173.628 -2919.25 1932.93
-177.175 -2920.78 1932.68
-177.464 -2921.14 1932.62
-176.829 -2920.57 1932.77
-175.842 -2920.38 1932.85
-176.278 -2920.47 1932.85
-174.345 -2919.78 1932.92
-174.617 -2919.98 1932.9
-174.912 -2920.21 1932.9
-175.48 -2920.37 1932.91
-173.885 -2919.43 1932.93
-174.098 -2919.67 1932.97
-180.183 -2891.85 1914.14
-179.7 -2892.74 1912.71
-179.842 -2893.51 1912.73
-179.959 -2890.2 1915.16
-180.156 -2890.64 1915.13
-180.167 -2890.82 1914.89
-180.162 -2891.07 1914.56
-185.034 -2863.99 1893.33
-184.948 -2864.1 1893.74
-186.09 -2867.56 1896.93
-184.885 -2864.33 1894.17
-183.76 -2860.48 1890.83
-182.372 -2856.66 1888.02
-180.795 -2853.11 1886.06
-179.852 -2850.22 1884.4
-179.736 -2849.59 1883.79
-180.298 -2850.98 1883.79
-179.626 -2848.95 1883.13
-180.227 -2850.61 1883.24
-180.386 -2851.07 1883.04
-180.285 -2850.96 1882.62
-173.541 -2861.85 1882.13
-172.075 -2856.89 1879.06
-172.666 -2851.09 1876.36
-173.998 -2848.45 1875.45
-171.409 -2851.83 1876.52
-174.464 -2847.18 1875.13
-174.72 -2845.88 1874.86
-170.766 -2852.44 1876.78
-170.584 -2854.19 1877.38
-170.387 -2853.07 1876.91
-175.002 -2845.13 1874.78
-175.636 -2839.93 1874.37
-175.323 -2840.12 1874.09
-175.869 -2839.47 1874.59
-174.977 -2840.11 1873.81
-174.683 -2840.23 1873.63
-174.188 -2839.33 1873.2
-176.095 -2839.14 1874.87
-176.33 -2838.96 1875.22
-176.529 -2838.87 1875.58
-177.749 -2843.17 1878.12
-178.899 -2846.71 1880.48
-178.052 -2844.02 1878.89
-177.146 -2841.17 1876.77
-176.617 -2838.47 1875.82
-174.117 -2886.15 1906.07
-173.476 -2886.74 1905.92
-175.986 -2885.7 1905.15
-172.865 -2887.35 1905.72
-177.452 -2885.36 1904.48
-178.05 -2884.99 1904.05
-178.657 -2884.16 1903.22
-180.251 -2883.64 1901.11
-178.933 -2883.73 1902.76
-180.923 -2882.91 1899.1
-172.538 -2890.36 1905.49
-172.431 -2889.48 1905.57
-172.67 -2890.92 1905.35
-173.211 -2891.2 1905.31
-172.109 -2888.61 1905.5
-172.11 -2887.67 1905.53
-179.956 -2880.23 1897.09
-178.466 -2876.9 1895.42
-177.039 -2872.41 1892.02
-176.903 -2872.84 1892.72
-175.499 -2869.2 1889.47
-172.983 -2863.66 1883.74
-172.655 -2864 1884.37
-173.123 -2865.28 1885.42
-174.557 -2867.25 1887.11
-173.235 -2862.65 1882.74
-179.649 -2893.57 1911.96
-179.504 -2893.51 1911.15
-179.383 -2893.4 1910.41
-179.099 -2893.31 1909.68
-178.552 -2893.01 1908.9
-176.521 -2892.77 1906.69
-173.783 -2891.52 1905.3
-176.966 -2922.13 1933.03
-176.775 -2922.52 1933.38
-177.085 -2921.66 1932.82
-177.518 -2921.42 1932.6
-172.423 -2926.58 1935.07
-172.417 -2927.23 1935.21
-172.399 -2926.12 1934.98
-172.164 -2925.6 1934.92
-172.194 -2925.25 1934.84
-172.261 -2924.43 1934.64
-172.159 -2924.7 1934.73
-172.089 -2923.85 1934.56
-172.145 -2923.57 1934.49
-172.174 -2923.1 1934.38
-172.316 -2922.79 1934.27
-172.44 -2922.21 1934.08
-173.367 -2926.53 1935.57
-173.054 -2926.61 1935.58
-172.739 -2926.7 1935.59
-172.935 -2926.87 1935.49
-172.4 -2927.29 1935.36
-172.59 -2926.99 1935.49
-172.229 -2927.08 1935.46
-174.188 -2925.89 1935.67
-174.071 -2926.07 1935.72
-174.34 -2925.71 1935.58
-174.86 -2925.38 1935.33
-175.625 -2924.51 1934.58
-174.671 -2925.43 1935.4
-174.487 -2925.52 1935.47
-173.828 -2926.11 1935.69
-173.397 -2926.16 1935.72
-173.356 -2926.34 1935.65
-185.578 -2866.82 1896.57
-178.722 -2888.76 1915.31
-174.345 -2885.95 1913.21
-172.547 -2885.7 1911.08
-172.915 -2885.72 1911.66
-172.723 -2885.71 1908.54
-172.043 -2885.82 1909.97
-175.858 -2884.72 1906.77
-179.572 -2883.08 1904.34
-180.963 -2878.49 1902.55
-180.133 -2881.07 1902.8
-180.371 -2879.35 1902.29
-180.725 -2876.95 1901.57
-180.461 -2874.71 1900.55
-181.105 -2874.16 1900.72
-180.229 -2861.27 1892.95
-178.956 -2861.41 1892.87
-177.492 -2861.37 1892.47
-175.806 -2867.11 1895.34
-175 -2867.59 1895.48
-176.225 -2861.94 1892.41
-180.125 -2871.95 1899.25
-177.656 -2870.42 1897.86
-174.855 -2869.43 1896.57
-174.457 -2867.56 1895.32
-181.701 -2862.43 1893.76
-182.632 -2863.36 1894.45
-184.41 -2866.09 1896.52
-182.881 -2862.84 1894.09
-183.2 -2862.69 1893.91
-183.374 -2862.3 1893.48
-183.312 -2861.5 1892.77
-183.79 -2862.5 1893.31
-172.574 -2921.57 1933.88
-172.673 -2920.98 1933.7
-172.911 -2920.44 1933.48
-173.141 -2919.85 1933.25
-173.404 -2919.25 1933.01
-173.6 -2919.3 1933
-176.949 -2920.85 1932.83
-177.077 -2921.1 1932.78
-176.711 -2920.6 1932.86
-176.121 -2920.53 1932.93
-174.395 -2919.92 1932.98
-174.667 -2920.13 1932.97
-175.049 -2920.34 1932.96
-175.609 -2920.47 1932.97
-173.82 -2919.49 1933.01
-173.922 -2919.66 1933.06
-174.188 -2919.85 1933.04
-179.825 -2891.58 1913.52
-179.387 -2892.82 1911.85
-178.323 -2888.47 1914.92
-178.26 -2888.34 1915.1
-179.848 -2890.13 1914.9
-179.928 -2890.34 1914.67
-179.949 -2890.69 1914.31
-183.684 -2860.64 1891.28
-183.616 -2860.87 1891.7
-184.583 -2864.06 1894.24
-183.498 -2860.85 1891.85
-182.332 -2856.77 1888.37
-180.666 -2853.01 1886.26
-179.648 -2849.87 1884.54
-178.714 -2846.54 1882.72
-178.595 -2845.6 1882.1
-178.909 -2846.47 1881.87
-178.936 -2846.51 1881.35
-178.932 -2846.66 1880.91
-171.186 -2857.62 1879.8
-171.233 -2856.66 1879.05
-170.215 -2854.39 1877.58
-171.528 -2849.63 1875.91
-172.992 -2847.19 1875.11
-173.568 -2843.19 1873.96
-172.816 -2842.27 1873.67
-170.908 -2851.42 1876.62
-173.365 -2839.68 1872.98
-173.812 -2839.58 1873.07
-170.376 -2852.02 1876.93
-170.095 -2853.5 1876.89
-170.09 -2852.63 1876.88
-174.661 -2835.88 1873.04
-175.004 -2836.1 1873.4
-175.403 -2836.2 1873.83
-174.319 -2835.96 1872.78
-175.617 -2836.06 1874.09
-173.738 -2835.33 1872.27
-172.828 -2834.55 1871.61
-172.758 -2833.1 1871.29
-175.814 -2835.98 1874.36
-176.029 -2835.96 1874.67
-176.185 -2835.98 1874.95
-176.856 -2838.53 1876.64
-176.738 -2838.42 1876.2
-178.091 -2843.78 1879.49
-177.53 -2841.32 1878.11
-176.279 -2835.93 1875.18
-173.402 -2886.09 1905.89
-175.609 -2885.47 1905.05
-172.669 -2886.44 1905.69
-172.04 -2886.81 1905.55
-177.136 -2885.03 1904.31
-177.643 -2884.55 1903.87
-178.264 -2884.35 1903.5
-180.386 -2883.36 1900.6
-178.428 -2884.03 1903.17
-179.024 -2883.48 1902.48
-180.526 -2882.07 1898.71
-172.035 -2890.48 1905.44
-171.738 -2889.95 1905.47
-171.516 -2889.13 1905.39
-172.69 -2890.84 1905.43
-171.957 -2890.29 1905.53
-173.214 -2891.14 1905.39
-171.397 -2887.82 1905.38
-171.077 -2888.38 1905.34
-171.269 -2886.96 1905.39
-179.601 -2879.79 1897.17
-178.328 -2877.08 1895.96
-176.68 -2873.26 1893.48
-175.376 -2869.71 1890.48
-175.35 -2869.99 1891.1
-174.566 -2868.26 1888.65
-171.597 -2859.89 1881.46
-170.957 -2859.79 1881.7
-171.575 -2862.3 1883.71
-170.645 -2859.73 1881.92
-172.297 -2864.71 1885.26
-173.641 -2866.55 1886.6
-179.082 -2892.68 1910.95
-178.896 -2892.71 1910.16
-178.262 -2892.4 1909.23
-176.253 -2892.4 1906.8
-173.764 -2891.45 1905.36
-176.826 -2921.53 1932.98
-176.605 -2921.83 1933.19
-176.416 -2922.77 1933.7
-176.851 -2921.16 1932.92
-172.177 -2926.93 1935.17
-172.181 -2926.04 1935.01
-171.914 -2925.46 1934.95
-171.923 -2925.06 1934.86
-171.973 -2924.74 1934.78
-171.988 -2924.08 1934.63
-171.858 -2924.24 1934.7
-171.803 -2923.47 1934.55
-171.881 -2923.22 1934.47
-171.977 -2923.01 1934.41
-171.875 -2922.5 1934.32
-172.056 -2922.56 1934.29
-172.139 -2922.34 1934.22
-172.258 -2922.01 1934.11
-172.934 -2926.42 1935.68
-172.578 -2926.51 1935.69
-172.255 -2926.62 1935.69
-172.436 -2926.81 1935.59
-172.085 -2927.17 1935.33
-172.143 -2926.92 1935.55
-171.848 -2927.01 1935.35
-173.916 -2925.93 1935.72
-174.08 -2925.7 1935.64
-174.241 -2925.5 1935.54
-174.82 -2925.15 1935.26
-175.618 -2924.1 1934.5
-174.595 -2925.04 1935.31
-174.448 -2925.31 1935.42
-173.431 -2925.96 1935.79
-173.008 -2926.04 1935.82
-172.939 -2926.23 1935.75
-173.957 -2886.04 1912.53
-172.287 -2886.02 1910.31
-171.852 -2886.13 1909.45
-172.653 -2886.06 1910.8
-171.8 -2885.67 1908.31
-175.816 -2884.52 1906.29
-171.261 -2886.15 1908.75
-179.525 -2882.74 1903.77
-179.745 -2880.69 1902.19
-180.195 -2878.2 1901.56
-179.763 -2879.28 1901.57
-180.004 -2876.44 1900.9
-179.486 -2874.28 1899.8
-179.506 -2872.33 1899.04
-178.942 -2872.64 1898.83
-179.875 -2858.85 1891.22
-177.912 -2857.72 1890.69
-176.691 -2857.82 1890.58
-175.615 -2858.41 1890.52
-175.325 -2862.75 1892.67
-174.943 -2859.14 1890.65
-176.878 -2871.05 1898.04
-174.638 -2869.8 1896.85
-174.04 -2868.9 1896.02
-173.938 -2867.62 1895.05
-174.381 -2864.38 1893.57
-180.988 -2859.14 1891.41
-181.483 -2858.87 1891.22
-181.861 -2858.66 1891.02
-181.882 -2857.96 1890.42
-182.232 -2858.1 1890.26
-183.31 -2860.63 1891.86
-172.37 -2921.46 1933.94
-172.481 -2920.86 1933.76
-172.73 -2920.3 1933.53
-172.959 -2919.73 1933.3
-173.248 -2919.19 1933.07
-173.408 -2919.26 1933.08
-173.656 -2919.47 1933.08
-176.651 -2920.74 1932.95
-175.835 -2920.59 1933.02
-176.32 -2920.72 1933.02
-174.45 -2920.07 1933.04
-174.77 -2920.31 1933.03
-175.212 -2920.47 1933.03
-173.721 -2919.64 1933.15
-173.99 -2919.8 1933.12
-174.243 -2920.02 1933.12
-179.598 -2890.91 1913.54
-179.215 -2891.81 1912.21
-178.072 -2888.33 1914.62
-174.004 -2886.33 1912.11
-178.494 -2888.69 1914.57
-179.553 -2889.81 1914.55
-179.329 -2889.96 1914.04
-182.301 -2856.92 1888.74
-182.169 -2856.88 1888.97
-181.997 -2856.9 1889.22
-180.792 -2853.55 1886.8
-180.088 -2851.58 1885.67
-179.137 -2848.72 1884.32
-178.425 -2845.87 1882.77
-177.573 -2841.73 1881.05
-177.792 -2842.43 1881.14
-177.845 -2842.46 1880.7
-177.383 -2840.58 1880.04
-177.944 -2842.62 1880.07
-177.798 -2842.02 1880.2
-178.014 -2843.15 1879.77
-170.038 -2855.62 1878.55
-169.932 -2854.56 1877.75
-169.799 -2853.73 1876.91
-170.612 -2849.16 1875.84
-171.302 -2844.51 1874.42
-172.117 -2842.66 1873.82
-172.459 -2837.62 1872.31
-171.629 -2836.97 1872.07
-170.838 -2837.09 1872.14
-170.355 -2851.09 1876.56
-171.983 -2833.36 1871.02
-171.513 -2833.15 1870.8
-169.883 -2851.62 1876.76
-169.801 -2852.93 1876.78
-169.507 -2851.79 1876.61
-174.147 -2830.8 1871.92
-173.837 -2831.05 1871.66
-174.79 -2833.58 1872.9
-175.068 -2833.45 1873.15
-173.405 -2831.03 1871.31
-175.32 -2833.47 1873.48
-172.828 -2830.58 1870.87
-171.706 -2831.23 1870.47
-172.505 -2829.5 1870.49
-171.917 -2829.81 1870.3
-175.531 -2833.44 1873.78
-176.069 -2834.79 1874.49
-176.774 -2837.76 1876.96
-176.48 -2837.02 1876.07
-176.496 -2836.77 1876.47
-176.327 -2836.09 1875.48
-176.871 -2838.05 1877.66
-176.329 -2834.65 1875.08
-175.776 -2833.44 1874.47
-175.115 -2885.27 1904.99
-172.846 -2885.85 1905.74
-172.217 -2885.55 1905.6
-171.614 -2885.99 1905.49
-170.874 -2886.17 1905.33
-176.898 -2884.63 1904.08
-177.813 -2883.91 1903.39
-177.041 -2883.84 1903.56
-180.18 -2883.07 1900.58
-180.25 -2881.88 1898.95
-178.507 -2883.7 1902.88
-178.009 -2883.55 1903.03
-179.095 -2883.25 1902.21
-171.004 -2889.51 1905.56
-170.564 -2889.18 1905.7
-169.816 -2888.29 1905.79
-171.917 -2890.1 1905.62
-172.456 -2890.45 1905.58
-171.044 -2889.38 1905.67
-173.053 -2890.86 1905.51
-170.572 -2887.28 1905.26
-169.98 -2887.66 1905.51
-170.223 -2886.52 1905.21
-179.56 -2880.02 1897.64
-178.407 -2877.54 1896.48
-176.532 -2873.73 1894.18
-175.368 -2870.36 1891.78
-174.313 -2868.63 1889.41
-174.273 -2868.95 1890.17
-173.316 -2866.73 1887.05
-169.977 -2856.22 1879.09
-169.61 -2855.89 1878.98
-171.465 -2862.64 1884.08
-170.459 -2859.91 1882.39
-169.301 -2856.13 1879.52
-169.316 -2855.53 1878.87
-171.739 -2864.53 1885.16
-171.939 -2865.43 1885.98
-178.829 -2891.44 1911.58
-178.506 -2892.09 1910.12
-175.994 -2891.96 1906.99
-177.828 -2891.88 1909.12
-173.609 -2891.21 1905.48
-176.514 -2921.38 1933.12
-176.207 -2921.57 1933.31
-176.23 -2922.13 1933.49
-176.062 -2922.91 1933.94
-176.55 -2921.04 1933.07
-171.92 -2926.7 1935.14
-171.653 -2926.76 1935.16
-171.447 -2926.42 1935.11
-171.659 -2924.81 1934.87
-171.712 -2924.46 1934.78
-171.697 -2923.66 1934.62
-171.592 -2923.88 1934.69
-171.529 -2923.05 1934.52
-171.624 -2922.82 1934.45
-171.72 -2922.6 1934.38
-171.642 -2922.06 1934.28
-171.832 -2921.99 1934.22
-171.958 -2921.78 1934.15
-172.072 -2921.58 1934.07
-172.463 -2926.32 1935.79
-172.086 -2926.44 1935.79
-171.81 -2926.56 1935.71
-171.984 -2926.74 1935.64
-171.835 -2926.86 1935.48
-171.551 -2926.84 1935.34
-173.615 -2925.75 1935.74
-173.933 -2925.51 1935.62
-174.144 -2925.3 1935.51
-175.272 -2924.08 1934.7
-174.312 -2925.08 1935.4
-174.486 -2924.57 1935.23
-173.054 -2925.81 1935.85
-172.606 -2925.96 1935.91
-172.544 -2926.12 1935.85
-172.267 -2886.83 1908.61
-171.743 -2886.68 1908.36
-170.969 -2886.55 1907.96
-172.9 -2886.54 1910.1
-172.783 -2885.15 1907.43
-170.594 -2886.31 1908.01
-179.076 -2882.88 1903.7
-179.371 -2881.03 1901.87
-179.26 -2880.04 1901.35
-179.479 -2877.47 1900.77
-179.081 -2878.28 1900.58
-179.158 -2875.28 1899.99
-178.458 -2873.23 1898.79
-176.589 -2871.58 1898.21
-176.332 -2871.96 1898.25
-177.924 -2856.07 1889.71
-178.908 -2856.14 1889.59
-175.595 -2852.48 1888.09
-175.167 -2853.22 1888.5
-174.606 -2853.29 1888.42
-174.344 -2854.46 1888.78
-174.426 -2859 1890.47
-174.453 -2861.66 1891.87
-173.611 -2854.19 1888.53
-174.497 -2870.18 1897.2
-173.987 -2869.22 1896.34
-173.549 -2868.8 1895.5
-173.227 -2867.85 1894.53
-173.799 -2865.65 1893.89
-173.843 -2862.79 1892.5
-179.716 -2856.02 1889.55
-179.968 -2855.4 1889.18
-180.065 -2854.85 1888.76
-180.344 -2854.15 1888.05
-179.946 -2853.83 1888.05
-180.722 -2854.42 1888.02
-172.169 -2921.27 1933.98
-172.284 -2920.8 1933.83
-172.526 -2920.22 1933.59
-172.758 -2919.67 1933.37
-173.069 -2919.13 1933.13
-173.191 -2919.2 1933.15
-173.454 -2919.41 1933.15
-175.441 -2920.59 1933.09
-176.032 -2920.8 1933.12
-176.228 -2921.14 1933.21
-174.575 -2920.25 1933.09
-174.856 -2920.46 1933.1
-173.477 -2919.54 1933.22
-173.716 -2919.76 1933.24
-173.968 -2919.89 1933.18
-174.162 -2920.09 1933.21
-174.425 -2920.22 1933.15
-178.968 -2890.19 1913.1
-174.238 -2886.83 1911.47
-174.705 -2887.37 1911.08
-177.894 -2888.63 1913.76
-177.63 -2888.84 1913.08
-180.852 -2853.92 1887.22
-180.681 -2853.77 1887.35
-180.307 -2853.18 1887.22
-179.952 -2851.7 1886.03
-179.128 -2848.97 1884.73
-178.21 -2845.29 1882.87
-177.394 -2841.34 1881.14
-177.037 -2839.31 1879.78
-176.865 -2838.9 1879.99
-176.883 -2837.99 1878.92
-176.61 -2837.31 1879.12
-176.982 -2837.95 1878.09
-176.952 -2837.87 1878.5
-169.537 -2854.03 1877.28
-169.292 -2854.28 1877.66
-169.492 -2853.43 1876.66
-169.756 -2848.72 1875.72
-170.126 -2845.66 1874.96
-170.235 -2841.42 1873.67
-170.115 -2837.76 1872.43
-171.138 -2833.11 1870.68
-170.689 -2832.71 1870.46
-169.979 -2832.84 1870.61
-170.381 -2832.76 1870.48
-169.701 -2850.7 1876.31
-170.607 -2830.88 1869.98
-171.045 -2830.49 1870.12
-170.342 -2831.22 1869.92
-169.23 -2850.67 1876.18
-169.313 -2852.33 1876.56
-168.843 -2850.81 1876.12
-174.421 -2830.24 1872.17
-173.943 -2828.89 1871.46
-174.347 -2828.72 1871.87
-173.519 -2829.14 1871.08
-174.726 -2831.41 1872.7
-174.717 -2830.02 1872.55
-173.099 -2828.97 1870.78
-174.918 -2831.48 1872.95
-171.524 -2827.72 1870.1
-171.914 -2827.52 1870.26
-171.176 -2828.33 1870
-175.663 -2833.39 1874.12
-175.218 -2831.91 1873.52
-176.447 -2836.48 1876.86
-176.351 -2835.99 1875.75
-176.426 -2835.87 1876.05
-176.515 -2835.71 1876.49
-176.383 -2834.8 1875.46
-176.494 -2836.29 1877.19
-175.876 -2833.46 1874.81
-175.998 -2833.36 1875.24
-175.28 -2831.62 1874
-175.606 -2832.18 1874.74
-174.997 -2884.64 1904.63
-171.525 -2884.92 1905.32
-174.857 -2883.88 1904.22
-170.638 -2885.36 1905.31
-169.927 -2885.63 1905.16
-177.442 -2883.02 1902.95
-176.682 -2883.11 1903.2
-179.889 -2882.74 1900.66
-179.925 -2881.5 1899.06
-178.56 -2883.29 1902.55
-178.09 -2882.98 1902.58
-177.636 -2882.61 1902.57
-179.048 -2883.05 1902.09
-170.089 -2888.55 1905.65
-169.659 -2888.43 1905.85
-168.545 -2887.12 1906.04
-168.497 -2887.54 1906.17
-171.404 -2889.54 1905.76
-172.119 -2890 1905.72
-170.199 -2888.5 1905.76
-172.709 -2890.38 1905.67
-169.135 -2886.66 1905.6
-169.106 -2885.86 1905.36
-179.398 -2879.97 1897.96
-178.268 -2877.56 1896.76
-176.336 -2873.88 1894.51
-175.308 -2870.66 1892.4
-174.187 -2869.15 1890.74
-173.419 -2867.74 1888.55
-173.11 -2867.78 1888.9
-172.384 -2866.09 1886.63
-171.423 -2865.25 1886
-168.985 -2854.24 1877.2
-171.286 -2862.68 1884.35
-170.337 -2860.11 1882.82
-169.166 -2856.14 1879.81
-168.668 -2854.38 1877.47
-171.094 -2864.62 1884.72
-171.505 -2863.53 1884.83
-170.972 -2864.43 1885.25
-178.338 -2890.89 1911.13
-175.55 -2891.43 1907.08
-173.324 -2890.73 1905.69
-177.382 -2890.29 1910.44
-175.252 -2890.79 1907.37
-175.954 -2921.32 1933.35
-175.885 -2921.77 1933.51
-175.831 -2922.38 1933.8
-175.79 -2922.87 1934.07
-171.161 -2926.38 1935.09
-171.267 -2926.73 1935.3
-171.451 -2924.03 1934.75
-171.368 -2924.48 1934.84
-171.426 -2923.27 1934.6
-171.325 -2923.49 1934.67
-171.27 -2922.66 1934.5
-171.366 -2922.41 1934.42
-171.474 -2922.19 1934.35
-171.544 -2921.53 1934.19
-171.395 -2921.69 1934.26
-171.686 -2921.41 1934.13
-171.793 -2921.18 1934.05
-171.906 -2921 1933.99
-172.124 -2926.17 1935.89
-171.824 -2926.28 1935.88
-171.609 -2926.38 1935.77
-171.463 -2926.49 1935.61
-171.653 -2926.68 1935.54
-171.358 -2926.61 1935.45
-173.431 -2925.55 1935.72
-173.796 -2925.31 1935.59
-174.033 -2925.08 1935.48
-175.263 -2923.69 1934.63
-174.179 -2924.59 1935.34
-174.543 -2923.86 1934.99
-172.929 -2925.58 1935.82
-172.495 -2925.79 1935.94
-172.103 -2925.97 1935.98
-172.569 -2887.19 1908.26
-171.2 -2887.23 1907.19
-170.873 -2886.93 1907.36
-170.356 -2886.68 1907.33
-173.102 -2887.41 1908.45
-174.747 -2884.44 1906.01
-171.689 -2885.13 1907.54
-170.279 -2886.1 1907.87
-169.922 -2886.44 1907.35
-179.025 -2882.86 1903.41
-179.251 -2881.27 1901.72
-178.989 -2880.37 1901
-178.956 -2879.45 1900.58
-178.902 -2875.98 1899.85
-178.618 -2875.75 1899.24
-178.939 -2877.34 1899.77
-178.244 -2874.26 1899.06
-176.093 -2872.48 1898.26
-176.053 -2872.19 1898.25
-174.341 -2870.46 1897.29
-176.213 -2851.32 1887.31
-177.364 -2852.04 1887.48
-174.122 -2845.64 1884.72
-174.014 -2848.29 1885.94
-172.768 -2847.32 1885.52
-173.438 -2850.06 1886.8
-172.832 -2850.71 1887.05
-173.87 -2859.01 1890.37
-172.456 -2854.17 1888.48
-171.867 -2850.99 1887.24
-173.815 -2869.56 1896.48
-173.414 -2869.09 1895.64
-172.588 -2869.21 1895.07
-172.03 -2869.53 1894.92
-173.464 -2866.07 1893.62
-172.688 -2866.83 1892.94
-172.091 -2868.6 1894.05
-173.231 -2864.07 1893.12
-173.226 -2862.4 1892.09
-173.387 -2859.8 1890.66
-178.125 -2852.3 1887.51
-178.482 -2851.85 1887.22
-178.779 -2851.7 1886.98
-179.422 -2851.76 1886.65
-178.979 -2851.34 1886.64
-172.017 -2920.74 1933.9
-172.265 -2920.39 1933.74
-172.525 -2919.66 1933.46
-172.874 -2919.09 1933.2
-172.958 -2919.12 1933.22
-173.234 -2919.34 1933.22
-175.128 -2920.61 1933.16
-175.699 -2920.73 1933.15
-175.751 -2921.08 1933.29
-174.653 -2920.44 1933.17
-173.238 -2919.47 1933.3
-173.49 -2919.67 1933.29
-173.652 -2919.86 1933.33
-173.912 -2919.97 1933.26
-174.18 -2920.23 1933.29
-174.377 -2920.29 1933.22
-177.095 -2888.84 1912.22
-174.604 -2887.8 1910.02
-173.31 -2888.04 1907.78
-174.479 -2888.38 1908.94
-179.633 -2851.34 1886.14
-179.152 -2850.43 1885.94
-179.07 -2849.18 1885.07
-178.12 -2845.38 1883.23
-177.31 -2841.39 1881.41
-176.814 -2839.08 1880.32
-176.471 -2836.7 1879.31
-176.306 -2836.3 1879.67
-176.239 -2835.13 1879.12
-176.199 -2833.14 1877.92
-176.27 -2833.51 1877.72
-176.071 -2832.63 1878.06
-176.287 -2833.71 1877.44
-176.34 -2834.16 1877.17
-169.235 -2853.92 1876.65
-168.969 -2852.78 1876.43
-169.17 -2848.83 1875.66
-169.038 -2846.06 1875.33
-169.264 -2843.37 1874.53
-168.619 -2839.45 1873.21
-169.095 -2836.43 1872.1
-169.19 -2832.4 1870.55
-169.815 -2830.93 1869.76
-169.365 -2831.06 1869.74
-168.26 -2830.23 1869.83
-169.037 -2849.82 1875.71
-170.048 -2830.32 1869.75
-170.084 -2828.69 1869.74
-169.703 -2828.44 1869.62
-170.585 -2828.24 1869.82
-168.648 -2849.82 1875.61
-168.751 -2851.65 1876.22
-168.327 -2850.54 1875.85
-168.269 -2849.82 1875.51
-174.932 -2828.53 1872.6
-173.541 -2828.39 1871.12
-174.259 -2828.19 1871.81
-173.845 -2828.17 1871.39
-174.926 -2828.16 1872.56
-174.812 -2830.41 1872.8
-175.328 -2829.11 1873.2
-175.438 -2828.54 1873.39
-175.815 -2828.47 1873.74
-172.441 -2826.88 1870.64
-172.256 -2827.21 1870.49
-175.001 -2831.14 1873.21
-174.962 -2830.43 1873.12
-169.904 -2824.24 1869.28
-170.208 -2823.6 1869.41
-170.793 -2823.92 1869.77
-175.196 -2830.79 1873.48
-176.486 -2835.32 1876.93
-176.42 -2834.66 1875.81
-176.459 -2834.53 1876.3
-176.468 -2834.65 1876.08
-176.081 -2833.32 1875.74
-175.806 -2831.87 1875.78
-175.599 -2831.74 1875.07
-175.288 -2830.88 1874.46
-171.181 -2884.02 1904.84
-174.409 -2883.08 1903.91
-169.75 -2884.78 1905.11
-168.859 -2884.91 1905.22
-177.073 -2882.1 1902.48
-176.272 -2882.36 1902.86
-179.486 -2882.38 1900.87
-179.644 -2881.46 1899.49
-178.62 -2882.72 1902.11
-178.201 -2882.44 1902.14
-177.745 -2882.04 1902.1
-177.326 -2881.72 1902.11
-178.933 -2882.6 1901.84
-169.164 -2887.59 1905.74
-168.87 -2887.57 1905.88
-167.892 -2886.03 1905.97
-167.581 -2886.48 1906.25
-168.003 -2886.61 1906.02
-171.223 -2889.22 1905.88
-170.499 -2888.67 1905.85
-171.817 -2889.57 1905.86
-169.299 -2887.58 1905.85
-172.401 -2889.92 1905.83
-168.139 -2885.7 1905.76
-168.628 -2885.07 1905.46
-179.339 -2880.25 1898.51
-178.717 -2878.77 1897.65
-176.083 -2873.98 1894.74
-177.734 -2876.87 1896.64
-175.271 -2871.28 1893.25
-174.388 -2869.64 1891.66
-173.459 -2868.69 1890.62
-173.185 -2868.13 1889.63
-171.993 -2866.11 1886.89
-172.133 -2866.83 1888.02
-170.942 -2864.37 1885.57
-170.901 -2864.34 1885.71
-168.856 -2853.56 1876.42
-168.726 -2854.17 1876.5
-171.204 -2862.79 1884.81
-170.903 -2861.93 1884.3
-170.031 -2859.63 1882.76
-168.924 -2855.55 1879.62
-168.386 -2854.22 1877.14
-168.071 -2854.55 1876.3
-171.228 -2863.43 1884.91
-173.21 -2890.21 1906.1
-175.257 -2889.87 1908.23
-173.248 -2889.58 1906.55
-175.647 -2921.52 1933.5
-175.536 -2921.96 1933.71
-175.502 -2922.42 1933.98
-175.393 -2922.91 1934.28
-170.853 -2926.08 1935.04
-170.968 -2926.65 1935.22
-171.047 -2926.52 1935.36
-171.145 -2923.77 1934.75
-171.152 -2922.85 1934.57
-171.083 -2923.12 1934.65
-171.101 -2922.06 1934.41
-171.011 -2922.32 1934.49
-171.21 -2921.79 1934.33
-171.279 -2921.13 1934.17
-171.391 -2920.92 1934.1
-171.165 -2921.31 1934.23
-171.538 -2920.84 1934.04
-171.6 -2920.53 1933.96
-171.769 -2920.49 1933.91
-171.7 -2926.08 1935.99
-171.453 -2926.18 1935.86
-171.265 -2926.28 1935.69
-171.131 -2926.39 1935.52
-173.283 -2925.33 1935.69
-173.657 -2925.05 1935.55
-173.825 -2924.56 1935.38
-173.971 -2923.9 1935.18
-174.663 -2922.98 1934.55
-172.741 -2925.29 1935.76
-172.438 -2925.57 1935.9
-172.008 -2925.75 1936.02
-171.586 -2925.88 1936.08
-171.925 -2887.59 1907.29
-170.659 -2887.46 1906.67
-171.276 -2887.97 1906.63
-170.243 -2887.04 1906.77
-169.738 -2886.79 1906.74
-172.335 -2888.25 1907.02
-175.498 -2884.01 1905.13
-172.147 -2884.69 1906.86
-169.886 -2886.03 1907.35
-169.324 -2886.52 1906.78
-179.188 -2882.62 1902.84
-179.088 -2881.38 1901.42
-178.882 -2880.58 1900.76
-178.865 -2879.77 1900.21
-178.912 -2878.09 1899.59
-177.812 -2874.43 1898.72
-178.463 -2876.11 1898.78
-177.726 -2874.85 1898.34
-175.935 -2872.76 1898.24
-174.07 -2871.06 1897.25
-174.143 -2870.67 1897.18
-173.553 -2869.85 1896.41
-175.386 -2846.34 1884.9
-176.569 -2848.17 1885.64
-172.303 -2843.65 1883.85
-173.809 -2841.94 1882.9
-172.881 -2841.31 1882.71
-171.125 -2845.36 1884.43
-171.295 -2842.32 1883.02
-171.061 -2846.75 1885.06
-170.421 -2847.2 1885.09
-171.209 -2854.37 1888.58
-170.921 -2851.39 1887.51
-169.672 -2847.69 1885.12
-173.44 -2869.31 1895.86
-172.797 -2869.54 1895.48
-172.362 -2869.65 1895.26
-171.807 -2869.92 1895.09
-171.495 -2870.01 1894.94
-173.011 -2866.31 1893.03
-173.11 -2865.25 1893
-172.123 -2865.85 1891.5
-171.808 -2866.02 1891.36
-171.728 -2868.79 1893.94
-171.658 -2866.38 1891.58
-171.301 -2870.06 1894.85
-172.961 -2863.45 1892.37
-172.537 -2859.13 1890.3
-172.572 -2861.94 1891.58
-170.821 -2854.82 1888.73
-177.295 -2848.44 1885.71
-177.725 -2848.35 1885.64
-178.136 -2848.79 1885.71
-178.516 -2848.75 1885.43
-177.828 -2846.97 1884.8
-171.769 -2920.11 1933.83
-171.999 -2920.28 1933.81
-172.238 -2920 1933.66
-172.316 -2919.48 1933.51
-172.679 -2919.05 1933.27
-172.765 -2919.09 1933.31
-173.028 -2919.27 1933.28
-174.829 -2920.61 1933.23
-175.447 -2920.8 1933.24
-175.45 -2921.23 1933.42
-174.492 -2920.45 1933.26
-172.944 -2919.31 1933.36
-173.115 -2919.5 1933.39
-173.371 -2919.68 1933.37
-173.501 -2919.89 1933.43
-173.758 -2920.05 1933.4
-173.915 -2920.07 1933.33
-174.062 -2920.26 1933.37
-174.331 -2920.44 1933.34
-174.57 -2889.09 1908.13
-173.045 -2888.85 1906.96
-178.538 -2847.85 1884.71
-177.855 -2845.93 1884.08
-177.991 -2845.43 1883.5
-177.201 -2841.39 1881.62
-176.661 -2839.19 1880.62
-176.168 -2836.27 1879.89
-175.9 -2832.12 1878.14
-175.671 -2832.13 1878.5
-175.7 -2831.41 1878.11
-176.079 -2831.18 1877.07
-175.99 -2831.28 1877.38
-176.152 -2831.24 1876.8
-175.893 -2830.87 1877.44
-176.064 -2831.4 1876.59
-176.144 -2833 1876.67
-175.94 -2831.5 1876.38
-168.195 -2851.27 1875.91
-168.307 -2852.24 1876.05
-168.897 -2849.18 1875.65
-168.591 -2847.78 1875.63
-168.371 -2846.24 1875.52
-168.193 -2843.71 1874.93
-167.932 -2839.89 1873.52
-168.139 -2835.9 1872
-168.307 -2832.21 1870.7
-167.318 -2829.93 1870.12
-169.069 -2828.24 1869.53
-168.707 -2829.64 1869.62
-167.223 -2826.23 1869.43
-166.123 -2825.91 1869.56
-168.468 -2849.2 1875.61
-168.993 -2823.42 1868.92
-168.17 -2822.4 1868.63
-168.416 -2824.23 1868.92
-168.077 -2849.23 1875.6
-167.751 -2850.07 1875.49
-167.935 -2849.83 1875.43
-167.816 -2849.23 1875.67
-175.649 -2827.96 1873.71
-172.771 -2826.72 1870.89
-174.146 -2827.61 1871.82
-174.748 -2827.5 1872.52
-173.083 -2826.55 1871.15
-175.469 -2827.69 1873.44
-175.126 -2829.81 1873.26
-175.516 -2829.01 1873.36
-176.066 -2828.57 1873.99
-175.91 -2828.13 1873.96
-176.17 -2828.39 1874.15
-171.223 -2823.68 1870.08
-175.225 -2830.26 1873.53
-168.202 -2820.28 1868.46
-168.751 -2820.57 1868.65
-169.434 -2820.61 1869
-168.3 -2818.2 1868.4
-169.842 -2820.65 1869.25
-175.297 -2830.52 1874.17
-176.109 -2833.18 1876.24
-175.841 -2832.12 1876.06
-175.673 -2831.12 1875.89
-175.746 -2831.76 1876.33
-175.78 -2831.28 1876.1
-175.611 -2831.1 1875.32
-175.565 -2830.78 1875.02
-174.147 -2882.26 1903.53
-173.943 -2881.53 1903.16
-170.995 -2883.07 1904.28
-169.292 -2884.04 1904.79
-170.417 -2883.91 1904.97
-171.438 -2882.9 1903.87
-176.849 -2881.06 1901.88
-176.163 -2881.49 1902.38
-179.186 -2881.94 1900.85
-179.341 -2881.14 1899.62
-178.187 -2881.94 1901.8
-177.807 -2881.55 1901.73
-177.289 -2881.06 1901.66
-178.63 -2882.59 1902.08
-177.741 -2882.34 1902.37
-168.382 -2886.68 1905.88
-168.701 -2886.75 1906.07
-168.995 -2885.2 1905.7
-169.055 -2885.48 1905.96
-168.721 -2885.9 1905.82
-168.94 -2886.1 1906.21
-170.907 -2888.76 1906.03
-170.283 -2888.29 1906
-169.656 -2887.75 1905.96
-171.555 -2889.15 1906.01
-169.196 -2886.95 1906.2
-172.298 -2889.47 1906.09
-170.241 -2884.31 1905.54
-179.018 -2879.96 1898.7
-178.449 -2878.42 1897.77
-175.624 -2873.75 1894.75
-174.898 -2871.32 1893.62
-177.451 -2876.64 1896.81
-174.566 -2870.14 1892.58
-173.733 -2869.38 1891.81
-172.434 -2867.51 1889.14
-172.676 -2868.07 1890.13
-170.961 -2864.66 1886.21
-170.854 -2864.37 1885.89
-171.567 -2866.47 1887.83
-171.108 -2863.17 1885.19
-170.964 -2863.24 1885.53
-168.224 -2853.07 1876.08
-170.853 -2862 1884.74
-169.806 -2859.34 1882.87
-168.977 -2856.21 1880.5
-168.393 -2853.99 1877.04
-167.545 -2854.47 1876.02
-167.835 -2853.05 1875.81
-175.316 -2921.67 1933.63
-175.1 -2922 1933.85
-175.049 -2922.42 1934.1
-170.574 -2926.05 1935.04
-170.735 -2926.48 1935.25
-170.819 -2926.34 1935.41
-170.809 -2923.58 1934.73
-170.867 -2922.57 1934.58
-170.821 -2921.76 1934.41
-170.958 -2921.52 1934.33
-170.78 -2922.09 1934.5
-170.952 -2921.12 1934.24
-170.983 -2920.73 1934.15
-171.11 -2920.58 1934.09
-171.181 -2920.32 1934.02
-171.341 -2920.3 1933.97
-171.346 -2919.91 1933.89
-171.538 -2919.98 1933.86
-171.329 -2925.99 1935.97
-171.124 -2926.09 1935.78
-170.908 -2926.18 1935.59
-173.105 -2924.93 1935.59
-173.363 -2924.46 1935.39
-173.58 -2923.84 1935.2
-173.741 -2923.09 1934.89
-174.683 -2922.54 1934.27
-172.117 -2925.25 1935.84
-172.55 -2924.78 1935.61
-171.664 -2925.48 1935.98
-171.294 -2925.69 1936.05
-171.013 -2888.36 1906.3
-170.366 -2887.83 1906.3
-171.797 -2888.76 1906.34
-169.789 -2887.29 1906.29
-177.702 -2883.09 1903.38
-175.026 -2883.42 1904.83
-172.681 -2884.08 1906.24
-169.754 -2885.77 1907.02
-169.168 -2886.26 1906.6
-178.877 -2881.18 1900.86
-178.743 -2880.18 1900.07
-178.863 -2878.79 1899.34
-178.485 -2876.74 1898.56
-175.706 -2872.93 1897.85
-177.563 -2875.19 1897.87
-175.461 -2873.13 1897.23
-173.663 -2870.91 1896.78
-173.324 -2870.15 1896.31
-173.388 -2869.55 1895.77
-175.161 -2842.92 1883.18
-176.088 -2843.66 1883.44
-171.771 -2840.41 1882.34
-174.197 -2840.03 1882.04
-173.069 -2839.25 1882.02
-171.871 -2838.26 1881.78
-170.24 -2841.48 1882.51
-170.602 -2839.48 1881.99
-169.532 -2842.6 1882.85
-168.988 -2843.33 1883.03
-169.966 -2851.87 1887.83
-169.204 -2848.23 1885.21
-168.248 -2843.5 1882.86
-173.135 -2869.51 1895.61
-172.473 -2869.81 1895.49
-171.94 -2869.99 1895.25
-171.503 -2870.17 1895.09
-171.289 -2870.21 1894.99
-172.54 -2865.65 1891.99
-172.868 -2864.8 1892.24
-171.766 -2865.08 1890.4
-171.617 -2865.31 1890.35
-171.355 -2865.59 1890.34
-171.594 -2866.94 1892.08
-171.434 -2868.98 1893.89
-171.196 -2869.99 1894.73
-171.17 -2866.1 1890.84
-171.068 -2870.29 1894.91
-171.083 -2870.16 1894.8
-172.798 -2863.58 1891.84
-172.471 -2862.32 1891.41
-171.776 -2859.44 1890.32
-170.315 -2854.98 1888.65
-169.185 -2852.39 1888.09
-176.37 -2843.02 1883.06
-176.813 -2843.79 1883.37
-177.08 -2842.65 1882.6
-176.819 -2842.27 1882.53
-171.527 -2919.54 1933.76
-171.763 -2919.69 1933.74
-172.006 -2919.86 1933.71
-172.062 -2919.45 1933.61
-172.333 -2918.95 1933.39
-172.54 -2918.96 1933.31
-172.502 -2918.98 1933.38
-172.695 -2919.16 1933.39
-174.632 -2920.63 1933.31
-175.093 -2920.75 1933.28
-175.203 -2921.03 1933.39
-175.129 -2921.4 1933.56
-172.853 -2919.38 1933.44
-173.07 -2919.7 1933.5
-173.26 -2919.75 1933.46
-173.752 -2920.28 1933.5
-173.543 -2920.23 1933.54
-173.948 -2920.34 1933.46
-174.215 -2920.51 1933.44
-174.492 -2920.64 1933.38
-177.427 -2842.79 1882.37
-176.987 -2841.47 1881.92
-176.56 -2839.54 1881.03
-176.04 -2836.55 1880.2
-175.523 -2832.13 1878.7
-175.789 -2830.87 1877.66
-175.684 -2829.36 1877.52
-175.842 -2829.11 1877.26
-175.935 -2829.22 1877.16
-175.98 -2830.58 1877.09
-176.046 -2830.58 1876.85
-176.113 -2830.5 1876.63
-176.154 -2831.02 1876.45
-176.028 -2829.26 1877.03
-176.099 -2829.27 1876.89
-176.184 -2830.96 1876.19
-176.001 -2831.04 1876.08
-167.594 -2850.47 1875.53
-167.709 -2851.65 1875.69
-168.257 -2847.94 1875.75
-167.852 -2846.45 1875.69
-167.67 -2843.89 1875.21
-167.437 -2840.1 1873.8
-167.273 -2835.58 1872.16
-167.342 -2832.03 1870.93
-165.959 -2829.04 1870.25
-165.122 -2825.73 1869.7
-167.98 -2825.44 1869.25
-167.059 -2821.48 1868.43
-165.787 -2821.5 1868.62
-166.438 -2821.19 1868.44
-164.526 -2821.29 1868.71
-166.609 -2817.64 1867.86
-166.05 -2817.95 1867.78
-167.992 -2848.1 1875.87
-167.67 -2849.29 1875.76
-167.565 -2849.36 1875.86
-167.712 -2848.02 1875.98
-175.926 -2827.68 1874
-176.149 -2827.91 1874.26
-171.594 -2823.47 1870.38
-173.444 -2826.65 1871.47
-173.733 -2826.38 1871.84
-175.036 -2827.31 1872.94
-172.482 -2824.71 1871.08
-175.668 -2827.49 1873.67
-175.239 -2829.51 1873.43
-175.268 -2829.89 1873.76
-175.582 -2829.04 1873.52
-175.971 -2828.77 1873.94
-176.133 -2828.75 1874.23
-176.251 -2828.56 1874.35
-176.244 -2828.22 1874.34
-176.394 -2828.4 1874.53
-170.329 -2820.67 1869.61
-175.362 -2830.23 1874.14
-167.338 -2816.89 1867.97
-166.705 -2816.39 1867.73
-168.288 -2816.57 1868.36
-168.805 -2816.79 1868.68
-167.271 -2815.17 1867.76
-169.166 -2817.14 1868.97
-175.5 -2830.45 1874.64
-175.702 -2830.79 1875.71
-175.766 -2830.82 1876.05
-175.761 -2830.57 1875.32
-173.552 -2880.86 1902.85
-169.763 -2882.52 1903.99
-175.696 -2880.96 1902.17
-174.958 -2881.59 1903.01
-175.615 -2880.58 1901.83
-169.888 -2882.58 1903.86
-175.602 -2880.47 1902
-179.03 -2880.79 1899.71
-178.923 -2881.47 1900.78
-176.698 -2881.95 1902.71
-176.821 -2881.33 1902.16
-176.602 -2882.96 1903.53
-178.317 -2882.75 1902.6
-175.878 -2882.62 1903.71
-170.122 -2884.69 1906.09
-170.13 -2884.98 1906.53
-169.39 -2885.63 1906.47
-174.56 -2882.13 1903.73
-178.763 -2879.57 1898.83
-178.433 -2877.89 1898.02
-175.236 -2873.64 1894.82
-174.581 -2871.16 1894.07
-174.576 -2870.46 1893.49
-177.457 -2876.18 1897.14
-175.008 -2873.72 1895.08
-173.324 -2869.38 1892.16
-174.156 -2870.41 1893.68
-171.519 -2866.74 1888.48
-172.272 -2868.02 1890.36
-170.881 -2864.5 1886.33
-170.938 -2863.33 1885.85
-170.799 -2864.72 1886.62
-171.061 -2862.7 1885.19
-171 -2862.74 1885.44
-167.326 -2851.56 1875.47
-170.651 -2861.77 1885.04
-169.846 -2859.69 1883.42
-168.607 -2855.23 1880.25
-168.49 -2854.14 1878.45
-168.335 -2853.78 1876.57
-167.25 -2854.08 1875.75
-167.159 -2852.19 1875.24
-174.893 -2921.73 1933.77
-174.629 -2922.02 1933.98
-170.307 -2926.07 1935.05
-170.484 -2926.32 1935.26
-170.588 -2926.18 1935.43
-170.508 -2923.41 1934.7
-170.542 -2922.06 1934.54
-170.559 -2921.6 1934.44
-170.542 -2921.19 1934.36
-170.736 -2921.28 1934.33
-170.716 -2920.87 1934.25
-170.726 -2920.51 1934.17
-170.759 -2920.19 1934.09
-170.88 -2920.06 1934.03
-170.954 -2919.81 1933.96
-171.097 -2919.72 1933.91
-171.183 -2919.47 1933.84
-171.315 -2919.43 1933.79
-171.032 -2925.88 1935.9
-170.81 -2925.98 1935.72
-170.576 -2926 1935.58
-172.827 -2924.34 1935.42
-173.198 -2923.73 1935.2
-172.842 -2923.72 1935.22
-173.233 -2923.11 1935
-174.043 -2922.69 1934.55
-174.254 -2922.19 1934.17
-171.707 -2924.88 1935.76
-172.068 -2924.71 1935.66
-172.242 -2924.2 1935.45
-171.453 -2925.16 1935.87
-171.164 -2925.41 1935.94
-173.681 -2883.26 1905.21
-170.203 -2885.24 1907.01
-178.724 -2880.37 1899.78
-178.802 -2879.26 1899.09
-178.419 -2877.24 1898.24
-177.505 -2875.66 1897.5
-175.038 -2873.19 1896.53
-174.861 -2873.37 1895.97
-173.782 -2871.25 1896.41
-173.51 -2870.23 1895.71
-173.523 -2869.78 1895.54
-173.414 -2869.64 1895.3
-175.12 -2840.57 1882.04
-175.553 -2840.16 1881.82
-170.767 -2836.66 1881.38
-174.384 -2837.53 1881.28
-173.271 -2835.49 1880.67
-172.076 -2835.03 1880.83
-170.952 -2834.05 1880.82
-169.335 -2839.4 1881.8
-169.612 -2838.25 1881.63
-169.77 -2835.02 1880.98
-168.804 -2840.6 1881.96
-168.08 -2840.07 1881.58
-168.842 -2848.8 1885.38
-167.832 -2844.4 1882.93
-167.382 -2840.77 1881.5
-172.882 -2869.8 1895.51
-172.35 -2870 1895.55
-171.874 -2870.14 1895.35
-171.522 -2870.29 1895.23
-171.284 -2870.35 1895.12
-171.069 -2870.43 1895.04
-172.019 -2864.85 1890.67
-172.434 -2864.49 1891.26
-171.462 -2864.56 1889.54
-171.36 -2864.83 1889.59
-171.229 -2865.1 1889.63
-170.925 -2865.25 1889.45
-170.613 -2865.62 1889.77
-171.025 -2866.82 1891.64
-171.115 -2869.06 1893.84
-170.987 -2870.1 1894.69
-170.552 -2866.1 1890.35
-170.778 -2870.4 1894.9
-170.787 -2870.27 1894.78
-172.286 -2862.51 1890.98
-172.4 -2863.69 1891.14
-171.305 -2859.71 1890.23
-169.925 -2855.13 1888.47
-168.942 -2852.25 1887.8
-168.556 -2849.34 1885.6
-176.05 -2840.25 1881.79
-176.282 -2839.81 1881.51
-176.415 -2839.58 1881.28
-171.571 -2919.2 1933.69
-171.53 -2919.41 1933.77
-171.786 -2919.33 1933.66
-172.155 -2918.91 1933.45
-171.851 -2919.04 1933.58
-172.267 -2918.92 1933.46
-172.469 -2919.13 1933.47
-172.669 -2919.34 1933.49
-174.859 -2920.81 1933.36
-174.867 -2921.13 1933.51
-174.774 -2921.43 1933.67
-172.93 -2919.81 1933.57
-173.215 -2920.23 1933.63
-173.381 -2920.25 1933.59
-173.84 -2920.7 1933.61
-174.021 -2920.88 1933.63
-173.687 -2920.75 1933.67
-174.184 -2920.82 1933.56
-174.429 -2920.82 1933.49
-174.234 -2921.02 1933.62
-174.601 -2920.91 1933.48
-175.899 -2836.7 1880.47
-175.406 -2832.43 1878.96
-175.383 -2829.2 1877.77
-175.556 -2829.19 1877.61
-175.868 -2827.63 1876.82
-176.047 -2827.76 1876.68
-176.153 -2827.86 1876.53
-176.049 -2827.59 1876.58
-176.17 -2829.24 1876.71
-176.236 -2829.21 1876.51
-176.298 -2829.22 1876.31
-176.174 -2830.5 1876.42
-176.206 -2827.91 1876.42
-176.262 -2828.05 1876.33
-176.203 -2830.23 1876.31
-176.061 -2830.55 1876.17
-175.87 -2830.51 1876.13
-167.497 -2849.45 1875.96
-167.282 -2850.41 1875.36
-167.074 -2850.53 1875.18
-167.405 -2846.2 1875.92
-167.674 -2847.35 1875.92
-167.21 -2843.96 1875.49
-166.936 -2840.4 1874.21
-166.452 -2835.52 1872.61
-165.117 -2829.92 1870.97
-165.655 -2829.82 1870.67
-164.23 -2825.9 1869.93
-163.62 -2821.37 1868.92
-165.092 -2816.86 1867.47
-164.524 -2816.37 1867.28
-163.922 -2816.34 1867.46
-163.114 -2816.45 1867.83
-165.448 -2814.22 1866.94
-165.875 -2813.65 1866.94
-164.926 -2813.81 1866.7
-167.509 -2847.89 1876.19
-167.315 -2847.58 1876.36
-176.302 -2827.64 1874.39
-176.071 -2827.46 1874.13
-176.443 -2828.04 1874.62
-176.443 -2827.72 1874.68
-171.77 -2822.87 1870.6
-170.743 -2820.52 1870.03
-174.017 -2826.35 1872.18
-172.831 -2824.51 1871.48
-175.228 -2827.19 1873.21
-172.022 -2822.85 1870.91
-175.867 -2827.2 1873.98
-175.352 -2829.67 1873.88
-175.457 -2830.05 1874.32
-175.604 -2829.11 1873.65
-175.968 -2828.95 1874.04
-176.236 -2828.75 1874.42
-176.138 -2828.92 1874.33
-176.354 -2828.58 1874.55
-176.461 -2828.4 1874.69
-169.532 -2817.13 1869.28
-175.674 -2830.32 1874.91
-166.39 -2813.76 1867.19
-166.97 -2813.36 1867.43
-167.296 -2813.06 1867.61
-167.467 -2812.51 1867.69
-166.21 -2812.49 1866.88
-168.037 -2812.85 1868.13
-175.665 -2830.45 1876.05
-175.709 -2830.35 1875.74
-175.761 -2830.21 1875.43
-173.373 -2880.1 1902.44
-169.721 -2881.19 1903.29
-175.607 -2879.94 1901.43
-175.426 -2879.71 1901.61
-170.715 -2881.79 1903.24
-169.054 -2880.92 1903.3
-174.185 -2882.67 1904.43
-174.334 -2871.16 1894.74
-174.424 -2870.33 1894.01
-174.832 -2873.6 1895.43
-172.492 -2868.79 1891.68
-173.547 -2870.22 1893.66
-174.082 -2870.29 1894.12
-170.655 -2865.01 1886.95
-171.389 -2867.16 1889.41
-170.907 -2863.34 1886.14
-170.949 -2862.77 1885.74
-170.868 -2863.44 1886.5
-170.551 -2861.7 1885.32
-166.84 -2850.59 1874.97
-169.747 -2859.58 1883.74
-168.736 -2856.44 1881.63
-168.143 -2853.15 1878.08
-168.295 -2853.43 1876.73
-166.554 -2853.34 1875.18
-166.699 -2853.46 1875.23
-166.643 -2850.76 1874.8
-166.442 -2851.35 1874.65
-174.513 -2921.63 1933.83
-174.268 -2921.83 1933.99
-170.072 -2926.07 1935.06
-170.231 -2926.17 1935.26
-170.316 -2926.03 1935.42
-169.882 -2925.63 1934.97
-170.052 -2923.55 1934.71
-170.243 -2921.59 1934.48
-170.344 -2921.09 1934.39
-170.277 -2920.59 1934.29
-170.506 -2920.74 1934.27
-170.473 -2920.24 1934.17
-170.528 -2919.94 1934.1
-170.697 -2919.84 1934.04
