20.5138 -3246.67 1240.66
20.3997 -3249.32 1240.81
20.1683 -3251.79 1241.01
20.8518 -3245.85 1237.26
20.9062 -3250.84 1237.84
20.6771 -3253.54 1238.41
19.8694 -3254.09 1241.11
19.2959 -3256.09 1241.74
18.8599 -3258.08 1241.7
20.2235 -3256.5 1238.85
17.3665 -3261.74 1241.59
18.9045 -3259.48 1240.64
18.631 -3260.47 1240.32
21.2773 -3244.64 1232.28
20.9963 -3248.07 1236.35
20.9455 -3245.3 1233.59
20.7462 -3254.54 1237.12
20.9381 -3252.45 1236.56
20.4211 -3256.88 1237.65
19.7586 -3258.92 1238.98
19.9802 -3259 1238.03
15.793 -3266.68 1239.53
17.297 -3262.83 1240.22
19.5723 -3260.43 1238.18
17.9925 -3262.65 1239.04
18.8038 -3262.8 1237.25
18.7285 -3262.42 1237.95
10.9123 -3275.8 1240.19
6.17284 -3285.23 1235.82
19.4911 -3244.83 1227.08
19.9035 -3244.16 1228.74
21.607 -3244.96 1231.87
21.9113 -3245.49 1231.49
20.8152 -3245.65 1231.79
3.66862 -3288.57 1232.87
4.18363 -3288.98 1229.4
1.97394 -3291.4 1226.69
0.543389 -3292.94 1225.01
0.170026 -3293.32 1222.48
20.7775 -3246.29 1233.09
20.9337 -3249.98 1235.33
20.3924 -3257.85 1236.65
20.5801 -3256.33 1236.14
20.6991 -3254.73 1235.47
20.0981 -3259.22 1237.1
19.7116 -3260.56 1237.34
16.959 -3266.41 1237.11
14.2753 -3269.96 1239.46
18.811 -3263.4 1236.33
16.9488 -3268.23 1235.16
10.5172 -3278.02 1238.55
9.7778 -3280.19 1237.45
12.7985 -3272.71 1239.66
8.80607 -3281.72 1237.25
8.13442 -3282.95 1236.09
5.29309 -3287.02 1232.44
19.0619 -3248.27 1225.7
20.0194 -3247.77 1228.76
20.3486 -3245.63 1229.81
22.6755 -3245.69 1231.21
20.8746 -3246.04 1231.41
21.3458 -3246.49 1231
20.5769 -3247.44 1231.98
6.97202 -3286.31 1229.66
7.67472 -3286.43 1226.68
5.6391 -3288.33 1225.93
3.29565 -3290.62 1224.36
2.63919 -3291.44 1223.23
1.7398 -3292.05 1221.51
20.463 -3252.71 1233.39
20.2534 -3258.85 1235.66
19.7797 -3260.86 1235.27
20.1442 -3258.39 1233.78
19.9405 -3256.54 1231.5
19.5164 -3261.65 1235.84
18.7177 -3264.1 1235.42
15.2452 -3270.15 1237.04
16.9824 -3268.65 1234.43
15.561 -3271.75 1234.69
12.4166 -3276.36 1237.11
13.1544 -3274.39 1237.69
12.1386 -3277.92 1236.02
11.8597 -3278.79 1235.45
11.7131 -3279.4 1234.81
14.1235 -3273.69 1236.6
10.6348 -3280.85 1234.32
8.80423 -3283.5 1232.41
19.3155 -3250.22 1226.39
18.4067 -3250.64 1222.72
20.3868 -3247.84 1230.36
20.7127 -3246.12 1231.13
20.6761 -3246.41 1230.77
20.032 -3249.49 1228.88
19.9469 -3250.91 1228.27
20.5131 -3245.32 1230.11
20.935 -3246.2 1230.92
21.2243 -3246.46 1230.59
22.7832 -3246.49 1230.8
21.6291 -3246.78 1230.62
19.9802 -3251.35 1229.97
8.60089 -3285.29 1227.45
9.47246 -3285.31 1223.93
8.98137 -3285.88 1223.51
8.34846 -3286.45 1223.19
5.66539 -3288.39 1224.05
4.68142 -3289.17 1223.95
3.86559 -3290.1 1223.22
3.78 -3290.07 1220.89
1.64349 -3291.89 1218
19.7569 -3260.72 1233.36
18.532 -3265.18 1231.97
19.0487 -3263.4 1231.1
19.5293 -3259.86 1229.39
19.7679 -3255.4 1229.64
18.3763 -3265.57 1234.17
16.9959 -3268.83 1233.88
14.6868 -3273.94 1235.23
15.3998 -3273.19 1233.51
14.6146 -3275.62 1233.99
13.8237 -3276.51 1234.87
13.6205 -3277.34 1234.35
13.7454 -3277.53 1233.87
13.1923 -3278.32 1233.62
14.2147 -3276.36 1234.23
10.5327 -3282.08 1231.4
19.3229 -3251.84 1225.67
18.5382 -3253.9 1221.97
19.836 -3252.18 1226.71
17.8135 -3254.96 1218.37
19.8923 -3252.04 1227.78
20.6821 -3245.03 1230.43
21.4575 -3246.52 1230.45
21.9655 -3246.98 1230.43
22.73 -3247.43 1230.29
19.8279 -3252.24 1228.78
10.4979 -3282.86 1228.21
10.2804 -3284.14 1224.62
10.6417 -3284.51 1222.54
10.1606 -3285.06 1222.22
9.5467 -3285.71 1222
8.33569 -3286.54 1222.49
7.31218 -3287.15 1221.79
5.94008 -3287.95 1220.75
5.28625 -3288.48 1220.58
3.45993 -3290.1 1217.06
19.179 -3262.63 1228.73
17.8165 -3267.23 1232.16
18.3923 -3266.06 1228.22
17.6451 -3267.83 1229.98
19.6677 -3256.86 1228.59
19.3449 -3259.31 1225.63
19.0252 -3261.56 1224.88
19.78 -3253.47 1228.69
17.0419 -3268.92 1232.76
15.5457 -3273.44 1231.79
14.6084 -3276.12 1233.22
14.2319 -3276.8 1233.65
14.0633 -3277.3 1233.28
12.7414 -3279.1 1232.75
17.3061 -3255.54 1216.05
18.9403 -3255.31 1223.1
19.2752 -3254.24 1224.53
20.2303 -3253.68 1226.22
20.0256 -3253.95 1225.99
18.7431 -3256.93 1221.76
20.2391 -3253.31 1226.39
17.9589 -3258.45 1218.72
20.5974 -3253.55 1226.72
21.6484 -3246.4 1230.55
22.4202 -3246.91 1230.56
22.2397 -3246.96 1230.5
22.508 -3247.57 1230.21
22.2186 -3247.76 1230.11
22.3597 -3247.96 1229.95
20.7552 -3254.06 1226.83
11.7894 -3281.15 1228.71
11.4176 -3282.86 1224.31
12.4748 -3282.31 1221.39
12.1528 -3282.78 1221.12
11.9422 -3283.05 1220.77
10.0454 -3285.25 1221.62
9.17956 -3285.99 1221.56
7.95289 -3286.64 1220.46
6.43733 -3287.38 1217.78
4.60447 -3288.54 1215.95
3.48592 -3289.57 1215.46
18.6985 -3264.67 1226.14
17.8585 -3268.89 1226.72
18.2991 -3267.69 1224.49
16.796 -3271.14 1228.75
19.5609 -3257.49 1226.98
19.7527 -3254.47 1228.48
19.9688 -3259.52 1224.16
20.1098 -3259.76 1223.95
18.7675 -3264.06 1222.68
19.1716 -3260.29 1223.73
18.8027 -3262.29 1222.7
18.6894 -3264.86 1223.2
20.8755 -3254.54 1226.78
14.8313 -3275.8 1231.48
15.505 -3275.12 1227.87
14.3485 -3276.82 1231.39
14.0634 -3277.4 1232.86
12.917 -3278.92 1232.2
16.0616 -3258.29 1213.27
15.644 -3258.84 1212.24
17.1187 -3257.23 1215.53
19.0673 -3257.22 1222.77
19.3198 -3254.85 1224.44
20.1207 -3254.09 1225.9
20.8827 -3253.42 1226.5
20.8218 -3253.18 1226.63
21.0063 -3253.54 1226.44
18.8566 -3259.93 1222.12
19.0491 -3259.11 1222.69
21.6177 -3254.21 1226.54
21.1906 -3253.38 1226.71
17.6977 -3261.2 1217.58
18.1096 -3261.39 1219.48
20.9693 -3245.02 1230.87
21.9245 -3246.3 1230.67
22.4987 -3246.76 1230.64
22.8502 -3247.6 1230.17
22.6772 -3247.7 1230.11
22.4999 -3248.32 1229.68
22.2571 -3248.28 1229.73
22.1643 -3248.13 1229.84
22.0834 -3247.99 1229.95
22.1998 -3248.26 1229.75
22.3025 -3248.48 1229.58
13.2237 -3278.45 1229.85
13.6639 -3278.47 1227.66
12.5999 -3281.64 1222.73
13.6499 -3281.06 1220.04
13.8416 -3280.67 1220.46
13.4027 -3281.41 1219.64
11.4129 -3283.62 1220.59
13.1172 -3281.69 1219.54
9.74089 -3285.52 1221.37
8.48644 -3286.24 1220.15
7.92252 -3286.17 1218.32
7.35988 -3286.35 1215.55
4.87617 -3288.06 1215.16
6.7283 -3286.86 1215.14
3.56913 -3288.45 1211.91
3.35914 -3288.47 1211.25
18.5809 -3266.1 1223.84
17.4354 -3271.46 1224.47
17.9709 -3269.48 1223.34
18.8596 -3267.45 1223.07
16.6851 -3273.26 1225
19.7282 -3255.33 1228.09
20.2489 -3258.91 1224.89
19.6682 -3256.48 1227.23
20.2458 -3259.38 1224.48
20.5595 -3254.84 1226.93
20.7467 -3254.72 1226.84
18.7714 -3263.89 1222.05
19.1706 -3266.43 1222.91
19.245 -3265.07 1222.66
19.1022 -3260.73 1223.01
18.7527 -3263.57 1221.48
14.9194 -3276.45 1227.77
15.726 -3275.87 1223.69
14.9808 -3277.16 1224.31
13.6202 -3277.9 1231.5
16.2889 -3259.65 1214.23
14.9531 -3262.75 1211.75
14.4496 -3263.69 1210.3
17.4136 -3262.15 1216.92
19.2153 -3257.43 1223.2
19.3262 -3258.97 1223.14
19.3557 -3255.48 1224.36
20.0976 -3254.29 1225.68
21.1216 -3253.68 1226.37
21.164 -3252.93 1226.78
21.3336 -3253.11 1226.7
20.44 -3260.53 1223.53
18.6194 -3261.69 1221.56
20.2521 -3260.54 1223.42
17.9992 -3264.34 1219.1
18.7869 -3264.17 1221.06
22.0985 -3246.15 1230.79
22.721 -3246.71 1230.68
22.9968 -3247.4 1230.29
22.8993 -3248.23 1229.71
22.6929 -3248.35 1229.64
22.5352 -3248.8 1229.33
22.3625 -3248.75 1229.38
22.0886 -3248.54 1229.56
22.1649 -3248.68 1229.45
22.0158 -3248.37 1229.68
21.9414 -3248.24 1229.78
22.0454 -3248.49 1229.59
22.1188 -3248.7 1229.44
22.1883 -3248.87 1229.31
14.1798 -3278.51 1224.78
13.7379 -3280.06 1221.94
14.0899 -3280.35 1220.02
13.8226 -3280.79 1219.78
14.2953 -3279.2 1221.52
14.6316 -3278.72 1220.97
13.4026 -3281.36 1219.45
11.5925 -3283.31 1220.03
9.85641 -3285.25 1220.79
13.0929 -3281.64 1219.19
9.0518 -3285.67 1219.89
11.06 -3283.64 1219.57
8.61065 -3285.14 1217.53
9.39609 -3284.44 1218.03
7.88825 -3285.8 1215.78
7.31641 -3286.26 1214.1
6.87896 -3286.64 1213.69
6.85398 -3286.71 1214.14
5.26245 -3287.71 1213.89
3.9059 -3288.34 1212.24
6.56936 -3286.91 1213.75
4.15696 -3287.92 1211.32
4.11663 -3287.63 1210.67
16.8107 -3273.39 1222.96
19.036 -3268.03 1222.88
17.7407 -3270.56 1222.85
20.3966 -3255.11 1227.06
19.9645 -3258.09 1225.4
20.4894 -3255.7 1226.95
19.8177 -3267.42 1223.03
19.7084 -3266.22 1222.83
19.7825 -3265.07 1222.67
14.8379 -3278.33 1220.58
14.8724 -3264.9 1212
16.3588 -3262.26 1214.72
14.1236 -3266.2 1210.39
17.7798 -3266.09 1218.87
16.1358 -3265.42 1214.73
19.3867 -3257.69 1223.56
19.6816 -3259 1223.49
19.4493 -3256.15 1224.39
19.9642 -3254.6 1225.4
20.8922 -3254.04 1226.1
21.5263 -3253.24 1226.64
21.5589 -3253.44 1226.54
21.489 -3252.62 1226.96
21.7204 -3252.6 1226.99
19.2907 -3264.81 1221.76
19.2121 -3264.63 1221.73
22.3609 -3246.07 1230.91
22.8638 -3246.58 1230.76
22.733 -3248.8 1229.32
22.6217 -3249.1 1229.11
22.4771 -3249.21 1229.04
22.3833 -3249.11 1229.11
22.2724 -3249.04 1229.18
21.9453 -3248.83 1229.36
22.0108 -3249.01 1229.22
22.5411 -3249 1229.23
22.0928 -3249.15 1229.11
21.8747 -3248.66 1229.48
14.2522 -3280.03 1219.61
13.742 -3280.85 1219.45
14.1501 -3280.16 1219.46
13.4079 -3281.24 1219.19
13.1654 -3281.34 1218.78
12.9664 -3281.65 1218.8
10.2564 -3283.81 1218.63
11.7993 -3282.75 1219.04
12.6909 -3281.96 1218.83
8.56056 -3284.97 1215.44
9.88823 -3283.42 1216.76
10.3927 -3282.6 1216.52
10.5027 -3282.84 1217.31
7.64494 -3285.88 1213.92
7.04583 -3286.42 1213.43
6.45211 -3286.89 1213.2
4.8097 -3287.87 1212.6
6.10226 -3287.18 1213.27
4.96171 -3287.69 1212.28
5.3693 -3287.3 1212.24
4.513 -3287.43 1211.23
4.87008 -3286.9 1210.85
5.33417 -3285.25 1208.95
5.80879 -3283.05 1205.82
16.4349 -3274.08 1221.34
15.0731 -3277.69 1220.36
19.0392 -3268.68 1222.73
20.4974 -3257.57 1225.72
20.3554 -3267.55 1223.26
20.4294 -3266.52 1223.1
14.066 -3268.58 1211.35
15.8495 -3267.09 1214.55
13.1301 -3268.57 1208.85
17.8031 -3267.68 1219.72
18.5435 -3266.06 1221.02
18.2813 -3267.13 1221.14
17.0263 -3267.88 1217.31
20.0503 -3258.94 1223.73
19.7032 -3257.72 1223.94
19.8059 -3255.51 1224.98
20.7113 -3254.4 1225.91
21.5256 -3253.74 1226.39
21.9161 -3252.63 1226.99
21.9547 -3252.83 1226.9
21.7476 -3252.03 1227.3
21.8117 -3252.18 1227.22
22.1871 -3251.58 1227.59
19.6684 -3264.8 1222.1
22.9052 -3246.32 1230.89
22.7689 -3249.03 1229.14
22.4933 -3249.9 1228.6
22.2991 -3249.4 1228.91
22.2203 -3249.28 1229.01
12.3654 -3268.65 1206.55
22.3555 -3249.23 1229.05
22.1007 -3249.38 1228.95
14.7226 -3278.65 1219.69
14.0059 -3280.37 1219.22
14.3863 -3279.59 1219.41
13.77 -3280.66 1218.99
13.3029 -3281.09 1218.58
12.9836 -3281.38 1218.44
12.7203 -3281.74 1218.48
11.5434 -3282.56 1218.31
10.8128 -3282.38 1217.03
8.93372 -3284.38 1215.09
10.3829 -3282.4 1215.95
11.026 -3281.86 1216.41
10.8668 -3281.56 1215.69
8.0103 -3285.33 1213.7
7.4446 -3285.9 1213.31
6.83615 -3286.39 1212.9
6.6109 -3286.7 1213
5.6092 -3286.99 1212.04
5.23404 -3286.18 1210.34
5.83546 -3286.63 1211.84
5.00878 -3286.25 1210.03
6.11 -3284.63 1209.69
7.48231 -3282.22 1209.34
7.19159 -3281.81 1207.9
7.37126 -3279.86 1204.97
17.069 -3271.89 1221.22
15.323 -3276.75 1219.67
20.756 -3268.44 1223.56
19.1298 -3268.28 1222.59
13.2184 -3271.23 1210.64
15.6195 -3269.17 1215.01
17.0684 -3269.71 1218.74
17.8336 -3268.86 1220.77
18.2339 -3267.93 1221.47
18.5154 -3267.1 1221.82
18.8365 -3266.38 1221.8
19.9286 -3264.9 1222.34
19.2976 -3267.72 1222.52
15.9084 -3270.86 1216.71
20.3798 -3258.79 1223.95
19.8955 -3257.59 1224.29
19.9879 -3256.03 1224.92
20.7208 -3254.64 1225.84
21.4979 -3253.99 1226.3
22.1516 -3251.23 1227.79
22.4419 -3249.94 1228.56
22.1665 -3249.51 1228.84
11.4627 -3271.64 1206.78
14.2306 -3279.8 1219.08
14.7767 -3278.08 1219.07
14.0106 -3280.04 1218.8
13.3788 -3280.77 1218.36
12.1726 -3281.17 1217.18
11.977 -3281.61 1217.37
11.8504 -3281.97 1217.71
9.19956 -3283.76 1214.64
9.5883 -3282.72 1214.11
11.2097 -3281.28 1215.95
11.4215 -3280.74 1215.75
10.5293 -3281.15 1214.28
8.09173 -3284.9 1213.26
7.62952 -3285.42 1212.97
7.00393 -3286.01 1212.61
6.05857 -3286.08 1211.4
6.61759 -3285.38 1211.34
7.29599 -3284.56 1211.54
8.13173 -3283.27 1211.75
9.13782 -3280.22 1210.55
8.91762 -3278.78 1208.07
8.6971 -3277.29 1205.03
16.0595 -3274.17 1219.54
20.6026 -3268.91 1223.62
20.1794 -3268.36 1223.34
20.5878 -3268.83 1223.6
19.8613 -3267.99 1223.06
13.4345 -3272.51 1211.99
15.5728 -3274.76 1218.59
19.2555 -3267.05 1222.53
19.9501 -3267.52 1223.01
19.4035 -3266.6 1222.57
19.3088 -3265.7 1222.19
19.2596 -3265.5 1222
20.3851 -3264.8 1222.67
20.4263 -3268.11 1223.39
14.8287 -3275.23 1217.17
20.7255 -3258.91 1224.03
20.3699 -3257.94 1224.31
20.622 -3264.86 1222.79
20.2329 -3256.82 1224.67
20.7359 -3254.87 1225.77
21.7042 -3253.96 1226.37
10.0244 -3275.47 1206.9
11.9018 -3273.92 1209.8
14.4041 -3278.84 1218.71
14.0759 -3277.98 1217.61
13.7856 -3280 1218.39
12.5153 -3280.58 1217.17
11.6755 -3280.09 1215.65
12.5044 -3277.82 1215.16
10.7534 -3279.23 1212.95
10.8584 -3276.68 1210.39
20.5529 -3268.61 1223.54
13.9478 -3274.63 1214.95
20.5267 -3267.55 1223.29
20.7257 -3268.22 1223.51
19.492 -3265.78 1222.5
20.7062 -3267.29 1223.31
20.2215 -3266.51 1222.98
20.78 -3257.98 1224.45
20.6014 -3255.49 1225.43
20.6078 -3256.98 1224.71
21.3954 -3254.44 1226.12
12.4272 -3275.71 1212.96
13.0519 -3279.23 1216.98
20.4678 -3266.12 1222.97
21.0659 -3255.08 1225.77
20.9596 -3256.52 1225.02
20.7504 -3269.13 1223.69
21.4817 -3254.84 1225.98
20.8317 -3269.35 1223.79
20.8518 -3269.2 1223.73
20.5639 -3269.36 1223.7
20.9934 -3269.26 1223.77
20.7294 -3269.41 1223.75
20.823 -3269.6 1223.82
20.7995 -3269.79 1223.9
20.8891 -3269.69 1223.86
20.7454 -3269.83 1223.87
