78.9304 -3037.89 1606.41 
75.2875 -3038.17 1606.4 
69.4223 -3039.12 1606.45 
66.4383 -3040.46 1606.57 
72.2589 -3037.69 1606.32 
159.42 -3042.5 1610.59 
159.506 -3042.39 1610.06 
162.374 -3039.1 1609.28 
161.892 -3039.48 1608.23 
161.366 -3039.73 1607.13 
160.611 -3039.98 1605.79 
156.106 -3043.94 1604.7 
159.24 -3040.85 1604.83 
155.666 -3043.91 1603.93 
155.339 -3043.74 1603.3 
155.069 -3043.45 1602.74 
98.8083 -3108.11 1601.27 
98.9074 -3108.03 1601.26 
99.5695 -3108.16 1600.91 
100.045 -3107.49 1601.39 
99.317 -3107.06 1601.95 
98.538 -3107.42 1601.85 
99.1216 -3107.81 1601.31 
151.059 -3046.6 1602.14 
154.714 -3043.05 1602.08 
147.296 -3049.35 1601.83 
150.209 -3046.58 1601.63 
124.87 -3061.79 1599.07 
128.696 -3061.12 1599.4 
132.776 -3057.98 1599.58 
133.568 -3058.67 1599.77 
136.258 -3056.19 1600.2 
137.733 -3055.69 1600.47 
136.285 -3055.04 1599.95 
139.454 -3055.08 1600.77 
144.057 -3051.06 1601.02 
143.514 -3050.48 1600.57 
146.968 -3048.52 1601.23 
62.3712 -3040.29 1606.52 
58.7888 -3039.74 1606.43 
59.7942 -3063.05 1610.79 
59.0351 -3062.55 1610.29 
59.8618 -3063.59 1611.32 
58.7303 -3061.6 1609.97 
61.6082 -3063.9 1611.33 
62.5626 -3063.86 1610.87 
61.3768 -3062.41 1610.12 
62.4281 -3063.59 1610.71 
59.6229 -3061.17 1609.61 
60.8398 -3061.77 1609.82 
51.1523 -3040.48 1604.32 
51.0576 -3038.46 1603.38 
51.355 -3041.37 1604.79 
51.3447 -3037.57 1604.76 
51.1069 -3036.72 1604.21 
56.0462 -3038.97 1606.34 
54.1759 -3038.63 1606.31 
52.3883 -3038.77 1606.4 
51.082 -3036.87 1604.89 
51.1147 -3037.05 1603.84 
69.7138 -3115.77 1602.79 
70.6926 -3115.77 1602.96 
69.1322 -3115.25 1602.64 
69.6667 -3114.49 1602.77 
70.4229 -3114.87 1602.76 
70.0716 -3115.46 1602.76 
84.7959 -3041.17 1605.63 
89.9016 -3040.54 1606.31 
95.7519 -3041.73 1607.07 
96.9564 -3045.22 1607.13 
101.986 -3048.03 1607.09 
105.803 -3050.21 1607.1 
70.9435 -3041.24 1606.2 
68.0249 -3046.1 1606.98 
76.3144 -3037.92 1605.11 
81.3945 -3037.85 1605.17 
66.1565 -3049.81 1607.34 
65.3278 -3053.91 1607.87 
66.8729 -3045.09 1606.9 
65.0136 -3055.5 1607.91 
65.1062 -3059.18 1607.82 
62.9544 -3061.66 1606.94 
64.3878 -3058.98 1607.63 
60.559 -3059.05 1605.51 
58.7477 -3054.72 1604.04 
59.0496 -3054.99 1604.19 
57.5249 -3049.47 1602.75 
108.67 -3058.36 1608.09 
108.46 -3052.93 1607.68 
110.802 -3055.36 1608.12 
109.499 -3064.34 1607.94 
109.989 -3058.92 1608.13 
110.446 -3059.81 1608.15 
111.176 -3061.09 1608.14 
111.264 -3060 1608.12 
106.502 -3080.07 1601.24 
105.338 -3079.89 1603.14 
108.829 -3077.56 1600.6 
111.194 -3074.87 1600.13 
110.925 -3074.79 1600.41 
112.302 -3073.23 1599.56 
112.822 -3073 1599.3 
108.171 -3068.79 1606.57 
106.472 -3075.41 1604.33 
107.466 -3071.55 1605.37 
108.32 -3069.21 1606.24 
109.893 -3064.91 1607.77 
110.116 -3065.22 1607.59 
123.202 -3062.13 1598.52 
122.384 -3063.88 1599.09 
122.969 -3062.04 1598.58 
117.255 -3068.72 1600.2 
114.306 -3071.84 1599.75 
115.978 -3068.35 1600.62 
113.394 -3072.9 1599.31 
119.897 -3067.76 1599.86 
118.857 -3067.03 1600.11 
121.411 -3064.52 1599.32 
47.4042 -3030.57 1601.26 
47.8367 -3030.47 1601.12 
46.7677 -3030.59 1601.42 
48.0837 -3031.6 1601.43 
48.2293 -3031.72 1601.68 
46.3083 -3030.92 1601.62 
48.2225 -3032.11 1602.12 
48.1394 -3031.76 1601.95 
48.4345 -3032.52 1602.31 
47.5881 -3028.05 1600.74 
47.5442 -3025.99 1600.3 
46.716 -3027.53 1601.25 
46.2584 -3028.78 1601.56 
51.0235 -3038 1602.24 
50.5782 -3036.14 1602.38 
50.3673 -3035.56 1602.12 
51.4679 -3040.35 1603.6 
50.9978 -3038.09 1602.47 
49.2027 -3033.97 1602.06 
48.6242 -3032.88 1602.46 
51.3092 -3040.36 1603.82 
56.176 -3045.79 1601.67 
55.3169 -3041.58 1600.8 
54.7019 -3039.08 1600.35 
53.561 -3036.35 1600.2 
52.6898 -3035.11 1600.15 
50.6262 -3031 1600.29 
48.3542 -3026.6 1600.28 
163.313 -3038 1611.19 
162.251 -3039.21 1610.32 
171.679 -3019.67 1620.02 
175.696 -3021.15 1620.27 
178.715 -3023.91 1620.85 
179.051 -3025 1620.85 
179.163 -3022.8 1620.55 
179.192 -3023.56 1620.77 
179.136 -3025.83 1620.47 
182.548 -3027.17 1620.62 
160.28 -3039.71 1616.57 
160.508 -3039.2 1615.64 
161.192 -3039.47 1616.68 
162.771 -3039.17 1616.51 
162.526 -3038.85 1616.54 
163.986 -3037.12 1612.73 
163.3 -3037.99 1616.42 
164.33 -3036.26 1616.56 
165.387 -3035.71 1616.31 
165.591 -3035.74 1613.99 
169.887 -3033.92 1615.43 
171.266 -3033.71 1615.74 
172.269 -3033.5 1615.98 
174.63 -3032.48 1616.88 
167.38 -3034.53 1615.06 
169.387 -3033.99 1615.15 
177.166 -3031.31 1617.85 
167.001 -3035.11 1613.15 
182.381 -3029.24 1619.8 
180.718 -3029.94 1619.18 
183.598 -3030.21 1620 
180.281 -3030.34 1618.98 
183.19 -3028.59 1620.13 
183.559 -3028.12 1620.28 
183.35 -3027.64 1620.52 
162.153 -3018.46 1619.21 
165.479 -3016.53 1618.77 
164.39 -3016.5 1618.63 
166.936 -3015.88 1618.45 
159.508 -3020.45 1619.15 
171.589 -3018.03 1619.43 
175.057 -3020.07 1619.96 
169.222 -3016.32 1618.79 
148.497 -3024.08 1613.87 
152.12 -3021.28 1614.31 
152.93 -3021.28 1615.15 
153.999 -3021.39 1616.26 
157.359 -3021.26 1618.12 
158.134 -3021.35 1618.58 
156.95 -3020.49 1617.3 
157.213 -3019.48 1616.72 
156.7 -3018.81 1615.75 
104.284 -3043.41 1608.28 
112.834 -3043.56 1610.74 
110.514 -3043.38 1610.15 
107.482 -3043.24 1609.41 
118.607 -3044.91 1612.11 
121.542 -3044.5 1614.95 
115.266 -3043.86 1611.34 
105.313 -3043.64 1608.57 
127.21 -3046.44 1616.25 
127.343 -3046.04 1614.5 
127.094 -3046.29 1614.9 
126.938 -3046.46 1615.33 
126.878 -3046.57 1615.76 
126.816 -3046.46 1616.25 
125.106 -3045.15 1617.16 
126.643 -3046.32 1616.6 
126.247 -3045.79 1617.09 
126.915 -3046.32 1613.73 
129.078 -3044.16 1612.75 
132.684 -3040.22 1612.71 
136.603 -3035.74 1612.62 
140.479 -3031.33 1612.5 
143.143 -3028.38 1611.99 
145.834 -3025.93 1612.44 
148.53 -3023.63 1612.98 
90.8741 -3035.16 1606.22 
97.0309 -3040.48 1606.94 
98.3867 -3041.86 1607.18 
98.2127 -3041.56 1607.13 
93.5963 -3037.17 1606.5 
101.928 -3044.01 1607.26 
98.8982 -3043.06 1607.09 
100.48 -3043.5 1607.11 
98.3338 -3042.78 1607.06 
87.2138 -3034.87 1606.15 
84.8344 -3036.3 1606.29 
81.021 -3036.59 1606.28 
76.4405 -3036.67 1606.25 
68.6201 -3037.6 1606.28 
65.4081 -3038.97 1606.4 
72.8052 -3036.1 1606.16 
163.712 -3037.68 1609.95 
163.707 -3037.67 1608.57 
163.74 -3037.51 1607.2 
163.799 -3037.09 1605.83 
163.219 -3037.12 1604.58 
158.806 -3040.84 1604.02 
158.612 -3040.54 1603.28 
158.319 -3040.32 1602.69 
158.14 -3040.02 1602.23 
98.993 -3108.06 1601.18 
99.7736 -3107.47 1601.45 
154.043 -3042.83 1601.42 
157.968 -3039.63 1601.71 
149.537 -3045.83 1600.8 
152.915 -3042.91 1600.79 
125.928 -3060.75 1599.38 
128.275 -3060.43 1599.31 
124.525 -3061.07 1599.04 
123.455 -3061.85 1598.52 
131.652 -3058.39 1599.49 
134.719 -3054.4 1599.65 
137.245 -3052.95 1599.79 
139.34 -3052.8 1600.08 
141.084 -3052.12 1600.29 
140.19 -3050.31 1599.67 
146.169 -3047.67 1600.54 
144.127 -3048.48 1600.14 
148.861 -3045.11 1600.1 
61.3951 -3038.65 1606.33 
58.916 -3037.19 1606.16 
57.0901 -3037.53 1606.2 
59.9512 -3062.58 1610.61 
59.2719 -3062.16 1610.22 
59.9746 -3063.26 1611.28 
60.1404 -3062.93 1611.18 
58.9218 -3061.39 1609.9 
61.1788 -3063.69 1611.47 
62.1481 -3063.79 1611.16 
61.8962 -3062.89 1610.36 
62.4689 -3063.8 1610.98 
59.8287 -3060.95 1609.48 
51.0339 -3038.35 1603.02 
50.9752 -3036.93 1603.5 
50.7342 -3036.36 1603.92 
50.8705 -3036.24 1604.94 
54.7228 -3036.09 1606.05 
52.6867 -3036.51 1606.09 
50.6993 -3035.76 1605.09 
88.1237 -3035.62 1606.12 
84.0136 -3033.37 1605.61 
92.7131 -3037.75 1606.69 
96.9787 -3041.71 1607.27 
95.8503 -3040.16 1607.07 
101.628 -3047 1607.17 
97.362 -3045.08 1607.19 
106.624 -3048.68 1607.14 
109.132 -3050.09 1607.36 
112.039 -3053.5 1608.23 
69.6074 -3038.94 1605.98 
73.7035 -3034.01 1604.87 
79.3881 -3031.6 1605.01 
65.7561 -3046.77 1606.61 
64.6577 -3049.8 1606.81 
64.1745 -3054.38 1607.55 
66.3039 -3042.67 1606.78 
62.7163 -3060.14 1606.76 
60.7943 -3058.53 1605.64 
63.8286 -3057.15 1607.47 
59.1339 -3054.37 1604.18 
57.6988 -3049.51 1602.85 
57.8755 -3049.31 1602.94 
56.2568 -3045.67 1601.64 
112.692 -3055.92 1608.13 
111.523 -3061.47 1608.1 
113.29 -3056.53 1608.06 
113.788 -3057.2 1608.04 
113.646 -3058.52 1607.99 
106.11 -3079.72 1602.22 
107.33 -3074.27 1604.15 
108.376 -3077.71 1600.89 
110.587 -3074.51 1600.9 
112.177 -3072.88 1599.98 
112.555 -3072.68 1599.53 
112.933 -3072.67 1599.39 
113.613 -3071.94 1599.82 
110.356 -3065.32 1607.42 
108.096 -3071.17 1605.09 
108.757 -3068.99 1606.11 
110.357 -3065.78 1607.19 
111.631 -3061.97 1608.02 
111.776 -3062.34 1607.85 
123.147 -3061.79 1598.5 
122.507 -3062.09 1598.68 
122.839 -3061.78 1598.49 
117.739 -3067.34 1600.38 
114.697 -3069.67 1600.65 
115.813 -3067.2 1601.05 
117.534 -3066.16 1600.67 
120.805 -3064.27 1599.42 
120.355 -3063.92 1599.57 
118.498 -3065.96 1600.33 
45.3256 -3028.7 1601.57 
44.8571 -3029 1601.62 
44.7963 -3030.08 1601.78 
46.2836 -3031.21 1601.86 
46.3322 -3031.46 1602.03 
44.9283 -3030.54 1601.89 
46.9923 -3031.67 1602.53 
46.4479 -3031.65 1602.22 
47.868 -3031.68 1602.36 
47.0239 -3031.62 1602.86 
46.2565 -3023.12 1600.14 
46.6013 -3023.38 1600 
46.7957 -3022.47 1599.91 
46.5885 -3022.55 1599.9 
46.0282 -3027.15 1601.31 
45.9094 -3022.83 1600.28 
45.2299 -3028.4 1601.49 
50.6879 -3036.65 1602.71 
50.373 -3035.83 1602.65 
49.9878 -3034.88 1602.28 
50.9951 -3038.22 1602.69 
49.1364 -3033.83 1602.47 
48.6879 -3032.99 1602.71 
47.2157 -3031.68 1603.15 
55.5725 -3041.7 1600.88 
55.1312 -3039.55 1600.44 
54.5727 -3037.41 1600.27 
53.6498 -3035.78 1600.2 
51.9092 -3031.73 1600.25 
51.0861 -3030.94 1600.27 
48.6954 -3026.17 1600.19 
47.137 -3022.43 1599.96 
164.333 -3037.16 1610.97 
175.705 -3020.81 1620.17 
183.556 -3026.02 1620.98 
182.726 -3026.07 1621.04 
182.888 -3026.75 1620.87 
178.921 -3021.9 1620.25 
181.652 -3023.83 1620.85 
183.097 -3025.35 1620.93 
184.488 -3025.62 1620.84 
183.735 -3027.26 1620.65 
160.391 -3039.75 1616.62 
160.759 -3039.04 1615.65 
160.588 -3039.86 1616.7 
161.961 -3039.76 1616.59 
163.324 -3039.23 1616.43 
163.621 -3037.02 1614.1 
165.449 -3035.67 1615.06 
163.954 -3037.78 1616.32 
163.705 -3037 1616.4 
165.034 -3036.11 1616.33 
166.013 -3036.08 1611.23 
171.687 -3033.48 1615.58 
171.824 -3033.52 1615.72 
172.615 -3033.44 1616.08 
175.4 -3032.18 1617.16 
177.073 -3031.4 1617.8 
168.531 -3034.29 1614.28 
171.123 -3033.5 1615.27 
180.159 -3030.79 1618.87 
168.746 -3034.42 1612.27 
184.867 -3030.11 1620.22 
184.728 -3029.15 1620.23 
184.786 -3031.51 1620.15 
186.112 -3031.31 1620.3 
184.943 -3032.45 1620.09 
184.783 -3028.14 1620.27 
185.325 -3027.81 1620.32 
161.554 -3017.56 1618.59 
160.425 -3019.17 1619.22 
163.471 -3016.14 1618.2 
166.359 -3014.04 1617.33 
167.575 -3014.04 1617.49 
165.428 -3013.95 1617.05 
169.231 -3013.98 1617.54 
159.362 -3019.93 1618.7 
171.849 -3016.99 1619.05 
175.387 -3019.3 1619.53 
179.471 -3021.65 1620.15 
170.695 -3014.37 1617.74 
153.025 -3019.94 1613.2 
155.848 -3017.72 1613.49 
156.601 -3018.03 1614.85 
157.93 -3020.45 1617.88 
157.998 -3018.52 1616.58 
159.218 -3018.77 1618 
159.195 -3019.26 1618.26 
158.207 -3017.72 1615.98 
102.947 -3044.37 1607.41 
112.346 -3043.71 1610.66 
109.637 -3043.49 1609.97 
107.076 -3043.63 1609.22 
118.545 -3045.37 1612.04 
121.305 -3044.91 1614.57 
114.942 -3044.1 1611.29 
104.636 -3044.45 1607.95 
126.709 -3046.53 1614.24 
126.572 -3046.63 1614.69 
126.442 -3046.75 1615.07 
126.468 -3046.56 1615.66 
126.351 -3046.31 1616.06 
124.2 -3045.07 1616.63 
126.277 -3046.07 1616.49 
125.849 -3045.62 1616.9 
126.269 -3046.91 1613.45 
127.156 -3046.03 1612.36 
130.165 -3042.99 1611.58 
132.795 -3039.92 1611.56 
136.573 -3035.55 1611.41 
140.24 -3031.42 1611.7 
142.978 -3028.33 1611.22 
146.088 -3025.29 1611.26 
148.858 -3022.8 1611.59 
152.59 -3019.74 1611.91 
89.9332 -3034.13 1606.1 
97.3174 -3040.84 1607.02 
94.1739 -3037.8 1606.6 
98.8761 -3043.44 1607.11 
98.6172 -3043.15 1607.1 
85.5486 -3033.62 1606 
83.4571 -3035.02 1606.13 
79.7667 -3035.52 1606.15 
76.9915 -3035.04 1606.08 
64.6279 -3037.51 1606.24 
68.6679 -3036.16 1606.12 
74.6818 -3034.44 1605.99 
71.0576 -3034.73 1605.99 
164.761 -3036.88 1609.82 
164.769 -3036.87 1608.38 
165.271 -3036.4 1607.3 
165.68 -3035.91 1606.46 
165.453 -3035.72 1605.5 
163.034 -3036.83 1603.76 
165.743 -3035.1 1604.66 
162.7 -3036.61 1603.03 
162.254 -3036.43 1602.36 
161.914 -3036.14 1601.76 
158.001 -3039.1 1601.24 
157.687 -3038.73 1600.81 
151.52 -3042.81 1600.03 
154.966 -3039.99 1600.18 
128.475 -3059.1 1599.36 
125.61 -3060.04 1599.49 
131.749 -3057.07 1599.55 
124.507 -3060.59 1599.04 
123.435 -3061.64 1598.51 
134.591 -3053.16 1599.61 
137.512 -3050.97 1599.62 
140.193 -3048.34 1599.22 
143.003 -3048.13 1599.74 
142.89 -3046.68 1599.34 
142.724 -3045.62 1599.04 
148.337 -3044.57 1599.64 
145.694 -3046.55 1599.94 
145.017 -3045.83 1599.56 
150.92 -3042.21 1599.48 
61.0767 -3036.57 1606.1 
58.7454 -3034.67 1605.9 
56.5793 -3035.1 1605.95 
60.0843 -3062.2 1610.42 
59.282 -3061.58 1610.06 
60.2982 -3062.62 1611.02 
59.3938 -3061.06 1609.68 
60.7824 -3063.45 1611.6 
60.5322 -3063.21 1611.69 
60.5734 -3063.07 1611.63 
61.6147 -3063.57 1611.37 
62.2413 -3063.2 1610.51 
62.4056 -3063.74 1611.01 
61.4813 -3063.47 1611.4 
60.2034 -3060.93 1609.45 
61.4419 -3062.28 1610.07 
50.7125 -3036.8 1603.03 
50.5552 -3036.45 1603.42 
50.3446 -3035.31 1603.57 
54.4957 -3033.33 1605.76 
52.3465 -3034.28 1605.86 
50.3904 -3034.79 1605.03 
86.3509 -3031.68 1605.89 
89.5194 -3034.13 1606.27 
81.3266 -3028.88 1605.29 
92.5792 -3037 1606.64 
97.1917 -3043 1607.33 
96.1656 -3040.38 1607.09 
97.1921 -3041.3 1607.29 
101.709 -3046.67 1607.25 
107.1 -3048.39 1607.27 
97.7252 -3045.2 1607.18 
110.548 -3049.64 1607.63 
113.505 -3052.21 1608.65 
113.617 -3054.27 1608.34 
66.5599 -3036.55 1605.47 
70.1976 -3033.47 1604.87 
75.9951 -3027.73 1604.63 
72.2954 -3027.81 1604.12 
63.9708 -3047.35 1606.24 
64.5104 -3043.6 1606.79 
63.7698 -3050.55 1606.64 
63.2642 -3053.95 1607.29 
63.1589 -3057.21 1607.22 
61.4596 -3058.11 1606.02 
59.4379 -3054.35 1604.42 
58.1514 -3049.2 1603.08 
56.3897 -3045.65 1601.64 
56.5547 -3045.51 1601.7 
113.921 -3059.2 1607.89 
114.881 -3054.9 1608.51 
115.664 -3055.39 1608.6 
115.329 -3056.92 1608.28 
106.589 -3078.9 1602.18 
108.556 -3074.94 1602.6 
109.222 -3071.69 1603.61 
107.932 -3077.81 1601.33 
111.703 -3072.37 1600.94 
112.344 -3071.41 1600.95 
112.685 -3071.67 1600.42 
113.079 -3071.74 1600.1 
114.048 -3069.62 1600.97 
112.056 -3062.48 1607.64 
109.266 -3068.74 1605.85 
110.232 -3069.69 1603.89 
110.739 -3065.68 1606.98 
112.182 -3062.74 1607.41 
113.891 -3059.79 1607.69 
122.987 -3061.49 1598.37 
123.274 -3061.41 1598.4 
122.19 -3061.87 1598.74 
122.653 -3061.57 1598.38 
114.143 -3068.36 1601.49 
116.616 -3064.87 1601.44 
117.755 -3064.72 1600.91 
119.682 -3063.32 1599.93 
120.154 -3063.4 1599.66 
121.744 -3061.75 1598.9 
44.5303 -3028.37 1601.93 
44.0088 -3029.55 1602 
44.0104 -3028.64 1602.3 
43.4914 -3031.65 1602.64 
44.2881 -3031.39 1602.49 
44.453 -3031.24 1602.55 
43.9686 -3030.56 1603.04 
43.9599 -3031.5 1603.03 
44.7017 -3029.06 1603.9 
44.7078 -3019.35 1600.27 
44.3587 -3019.41 1600.39 
45.0202 -3019.36 1600.11 
45.126 -3018.79 1599.97 
45.5756 -3018.22 1599.94 
45.306 -3027.2 1601.48 
45.6178 -3022.98 1600.52 
44.0956 -3019.52 1600.63 
44.9383 -3027.02 1601.83 
50.2846 -3035.76 1602.99 
49.8575 -3034.64 1602.62 
49.2329 -3033.61 1603.32 
48.677 -3032.81 1603.17 
47.5128 -3031.73 1603.38 
45.3291 -3029.01 1604.42 
55.7799 -3041.55 1600.91 
55.3135 -3038.96 1600.42 
54.6864 -3036.79 1600.27 
53.7218 -3034.76 1600.24 
52.6331 -3032.27 1600.27 
50.3993 -3027.45 1600.29 
49.5397 -3026.77 1600.26 
47.6006 -3022.22 1600.08 
46.2205 -3017.48 1600.04 
184.222 -3026.89 1620.74 
185.764 -3026.67 1620.57 
185.564 -3026.36 1620.73 
184.469 -3024.71 1620.63 
185.576 -3025.57 1620.74 
188.639 -3026.11 1620.5 
185.508 -3027.33 1620.4 
160.96 -3038.88 1615.72 
160.659 -3039.55 1616.62 
160.644 -3040 1616.72 
162.3 -3040.06 1616.54 
163.737 -3039.51 1616.38 
165.034 -3035.92 1615.14 
164.602 -3037.5 1616.22 
165.082 -3036.27 1616.24 
164.363 -3038.54 1616.28 
168.154 -3034.85 1610.61 
166.45 -3035.85 1609.6 
172.61 -3033.26 1615.89 
175.085 -3032.37 1617.03 
178.051 -3031.42 1618.1 
180.03 -3031.45 1618.73 
170.619 -3033.57 1613.2 
171.536 -3033.25 1615.17 
172.76 -3033.21 1615.94 
185.107 -3033.4 1620.02 
170.231 -3033.91 1610.54 
186.142 -3030.33 1620.31 
185.951 -3029.28 1620.31 
186.504 -3032.39 1620.31 
187.697 -3032.31 1620.39 
187.498 -3031.31 1620.39 
186.894 -3033.47 1620.33 
186.945 -3029.14 1620.38 
187.179 -3028.36 1620.4 
160.127 -3018.47 1618.72 
162.534 -3015.72 1617.59 
160.865 -3017.24 1618.19 
164.694 -3013.89 1616.81 
167.077 -3011.08 1615.6 
168.216 -3010.68 1615.54 
169.409 -3009.8 1615.22 
165.878 -3011.94 1615.61 
170.533 -3010.33 1615.49 
172.56 -3014.74 1617.64 
175.44 -3018.33 1619 
179.286 -3020.66 1619.72 
181.478 -3022.7 1620.54 
172.152 -3011.08 1615.75 
156.853 -3015.84 1611.74 
159.093 -3015.28 1613.75 
159.341 -3013.4 1611.42 
158.933 -3016.87 1615.83 
159.261 -3017.69 1617.31 
159.349 -3018.28 1617.78 
160.183 -3017.66 1618.38 
159.935 -3017.35 1618.18 
159.392 -3017.16 1617.21 
101.994 -3044.63 1607.2 
109.738 -3043.66 1610.04 
112.141 -3043.89 1610.66 
107.65 -3044.07 1609.25 
105.714 -3044.57 1608.29 
118.354 -3045.75 1611.95 
121.188 -3045.41 1614.24 
121.007 -3045.96 1613.82 
114.546 -3044.31 1611.22 
103.592 -3045.17 1607.36 
126.148 -3046.96 1614.01 
125.948 -3047.09 1614.46 
126.144 -3046.9 1615.23 
125.765 -3047.2 1614.76 
126.039 -3046.53 1615.61 
125.985 -3046.18 1616.03 
124.002 -3045.26 1616.31 
125.868 -3045.82 1616.44 
125.039 -3048.35 1612.44 
124.786 -3048.83 1611.12 
126.005 -3047.45 1611.33 
128.807 -3044.6 1610.42 
130.966 -3042.3 1610.06 
133.254 -3039.39 1610.25 
136.863 -3035.18 1609.55 
139.982 -3031.63 1610.83 
142.612 -3028.63 1610.57 
145.943 -3025.22 1610.27 
149.456 -3021.81 1609.66 
150.107 -3021.36 1610.32 
153.131 -3018.59 1610.2 
156.212 -3015.72 1610.35 
87.8146 -3032.55 1605.91 
91.3087 -3035.11 1606.25 
97.077 -3040.7 1607.02 
94.2517 -3037.97 1606.64 
98.123 -3041.54 1607.14 
98.2716 -3041.9 1607.24 
98.3168 -3043.4 1607.12 
83.0866 -3032.68 1605.87 
80.9225 -3034.04 1606 
78.2807 -3033.15 1605.88 
64.807 -3036.14 1606.09 
67.082 -3034.77 1605.96 
74.1974 -3033.15 1605.84 
69.9809 -3033.4 1605.83 
166.956 -3035.49 1608.28 
167.83 -3034.85 1607.46 
168.289 -3034.31 1606.61 
168.796 -3033.72 1605.88 
165.72 -3034.6 1603.84 
169.614 -3032.89 1605.33 
165.945 -3033.86 1603.08 
165.583 -3033.41 1602.3 
161.555 -3035.88 1601.18 
165.153 -3033.06 1601.64 
158.259 -3037.75 1600.49 
161.204 -3035.47 1600.73 
153.457 -3040.51 1599.72 
158.164 -3037.09 1600.15 
155.329 -3038.65 1599.71 
126.043 -3060.14 1599.34 
128.07 -3058.41 1599.43 
132.024 -3054.92 1599.65 
125.661 -3059.52 1599.43 
125.247 -3059.8 1599.47 
124.464 -3060.35 1599.08 
123.542 -3061.29 1598.56 
134.676 -3050.88 1599.56 
137.2 -3049.7 1599.53 
139.919 -3047.37 1599.01 
142.405 -3044.85 1598.8 
145.966 -3043.72 1598.93 
146.848 -3043.84 1599.03 
145.623 -3042.96 1598.72 
150.483 -3041.76 1599.09 
149.492 -3042.46 1598.92 
147.436 -3044.37 1599.35 
152.873 -3039.69 1599.19 
62.869 -3035.02 1605.95 
60.4963 -3033.82 1605.82 
58.6657 -3031.9 1605.62 
56.7802 -3032.75 1605.7 
60.3748 -3062.13 1610.52 
59.704 -3061.53 1610.13 
60.4666 -3062.47 1611.02 
59.6943 -3061.11 1609.79 
60.6593 -3062.95 1611.58 
61.9264 -3063.53 1611.2 
61.3595 -3063.37 1611.43 
60.4233 -3061.03 1609.48 
61.2302 -3061.97 1609.84 
49.9221 -3034.47 1603.31 
49.5946 -3033.77 1605.4 
49.8226 -3034.1 1604.07 
54.4781 -3030.99 1605.78 
51.5474 -3031.07 1606.59 
52.0439 -3032.27 1605.95 
49.3956 -3032.68 1606.55 
83.5932 -3028.56 1605.53 
85.5945 -3030.31 1605.75 
89.2753 -3033.8 1606.21 
76.9823 -3025.46 1604.75 
80.2275 -3025.62 1605.11 
92.799 -3037.12 1606.64 
97.4016 -3042.62 1607.38 
96.3152 -3040.44 1607.08 
97.3342 -3041.35 1607.29 
105.032 -3047.43 1607.34 
101.588 -3046.34 1607.26 
108.694 -3048.18 1607.6 
110.934 -3049.02 1608 
97.7573 -3044.91 1607.18 
115.14 -3051.36 1609.36 
115.202 -3052.38 1609.18 
62.8001 -3036.85 1605.28 
64.2077 -3030.49 1603.74 
67.0254 -3028.61 1603.55 
72.2604 -3022.42 1604.22 
73.6985 -3022.73 1604.37 
70.7119 -3023.41 1604.01 
65.6467 -3024.55 1603 
62.8909 -3046.83 1606.27 
62.5218 -3048.01 1605.79 
63.5036 -3042.97 1606.72 
63.0062 -3050.57 1606.45 
62.7925 -3053.72 1607.21 
63.0042 -3053.11 1607.28 
62.3387 -3050.96 1606.37 
62.7412 -3056.74 1607.08 
60.9236 -3056.03 1605.59 
59.7688 -3053.9 1604.61 
58.573 -3049.43 1603.34 
56.7503 -3045.37 1601.82 
56.9995 -3045.32 1601.99 
56.0174 -3041.75 1601.03 
116.062 -3056.84 1608.34 
116.435 -3052.58 1609.4 
117.117 -3054.77 1608.99 
117.346 -3053.1 1609.35 
112.389 -3068.65 1602.55 
113.75 -3067.74 1602.02 
114.176 -3060.1 1607.37 
109.897 -3068.15 1605.7 
112.293 -3063.32 1606.93 
110.855 -3067.54 1605.01 
113.37 -3064.58 1604.11 
113.81 -3065.06 1603.35 
112.248 -3062.94 1607.26 
113.969 -3060.95 1606.9 
115.524 -3058.18 1607.84 
122.886 -3061.11 1598.29 
123.245 -3060.97 1598.3 
123.43 -3060.95 1598.41 
122.35 -3061.39 1598.4 
116.561 -3063.75 1601.9 
119.461 -3062.36 1600.15 
119.232 -3062.02 1600.54 
119.698 -3062.72 1599.95 
120.76 -3061.52 1599.27 
121.221 -3061.67 1599.11 
121.814 -3061.34 1598.63 
44.6171 -3026.85 1602.25 
42.2534 -3030.37 1602.77 
43.213 -3029 1602.68 
43.417 -3028.12 1603.02 
42.3448 -3033.97 1603.72 
40.6843 -3032.35 1603.74 
42.3719 -3034.36 1604.13 
42.3369 -3033.14 1604.02 
40.2825 -3028.23 1604.03 
43.3161 -3029.81 1603.05 
44.1072 -3028.71 1603.8 
39.2495 -3029.62 1604.72 
44.6863 -3026.41 1605.24 
44.3117 -3026.47 1604.95 
43.7308 -3015.57 1600.06 
43.4841 -3015.89 1600.19 
43.1262 -3015.99 1600.36 
43.8908 -3014.99 1600 
44.1231 -3014.39 1600.06 
44.5444 -3013.88 1600.16 
45.3413 -3022.99 1600.86 
43.8965 -3019.57 1600.81 
42.8579 -3016.12 1600.53 
49.3194 -3033.48 1604.09 
48.627 -3032.74 1603.62 
47.8205 -3031.74 1603.66 
46.1112 -3030.04 1604.56 
45.1686 -3026.23 1606.38 
55.8136 -3039.36 1600.52 
55.3523 -3037.81 1600.4 
54.2507 -3035.1 1600.29 
53.4669 -3032.34 1600.34 
52.1507 -3030.33 1600.34 
49.2251 -3024.04 1600.26 
48.2351 -3022.65 1600.18 
46.9219 -3016.85 1600.1 
45.2276 -3013.26 1600.31 
186.477 -3027.13 1620.42 
188.535 -3026.63 1620.49 
188.949 -3027.46 1620.48 
184.749 -3024.14 1620.3 
189.052 -3025.8 1620.27 
190.46 -3026.11 1620.19 
190.688 -3026.23 1620.23 
192.111 -3027.07 1620.28 
194.557 -3027.81 1619.72 
161.693 -3038.25 1615.27 
161.166 -3038.66 1615.94 
160.794 -3039.62 1616.67 
161.017 -3040.24 1616.68 
163.174 -3040.36 1616.43 
164.553 -3040.01 1616.27 
164.079 -3039.81 1616.34 
164.588 -3036.27 1615.16 
165.381 -3036.33 1616.14 
164.899 -3038.75 1616.2 
165.19 -3037.72 1616.13 
169.124 -3034.37 1609.24 
172.802 -3033.5 1616.13 
174.871 -3032.51 1616.94 
177.843 -3031.88 1617.97 
182.293 -3033.34 1619.16 
186.073 -3034.72 1620.11 
172.531 -3032.86 1615.07 
172.085 -3032.95 1615.02 
171.764 -3033.25 1612.2 
172.882 -3033.08 1615.86 
172.881 -3033.35 1616.17 
172.491 -3033.73 1615.99 
187.258 -3034.51 1620.34 
171.949 -3033.27 1610.59 
171.233 -3033.48 1609.69 
187.34 -3030.28 1620.39 
187.917 -3033.33 1620.4 
189.896 -3033.12 1620.48 
189.964 -3032.36 1620.47 
189.692 -3031.54 1620.47 
188.268 -3034.42 1620.41 
189.61 -3030.73 1620.47 
189.359 -3029.91 1620.47 
189.267 -3028.31 1620.47 
189.305 -3029.14 1620.48 
164.147 -3013.7 1616.56 
161.817 -3015.57 1617.22 
161.283 -3016.32 1617.57 
166.636 -3009.65 1614.46 
168.283 -3007.18 1613.71 
168.853 -3007.74 1614.14 
170.464 -3006.36 1613.69 
171.37 -3007.69 1614.26 
164.889 -3012.09 1615.29 
165.342 -3010.63 1614.39 
172.952 -3008.72 1614.58 
174.812 -3012.34 1615.84 
176.201 -3015.82 1617.32 
179.287 -3019.86 1619.35 
181.523 -3021.38 1619.98 
176.486 -3010.84 1614.89 
159.4 -3012.46 1610.04 
161.242 -3014.69 1615.82 
159.62 -3016.2 1615.63 
161.784 -3014.51 1615.91 
161.67 -3013.15 1613.75 
160.715 -3012.51 1611.99 
161.369 -3010.48 1610.59 
159.498 -3016.55 1617.29 
159.391 -3016.71 1616.21 
159.989 -3016.64 1618.12 
160.835 -3016.19 1617.65 
160.697 -3015.27 1617.35 
160.039 -3016.12 1617.94 
159.122 -3014.01 1617.78 
98.9204 -3043.94 1607.12 
109.748 -3043.87 1610.06 
111.415 -3044.06 1610.52 
108.407 -3044.49 1609.34 
106.113 -3045.08 1608.21 
118.247 -3046.15 1611.9 
121.118 -3046.39 1613.73 
114.311 -3044.56 1611.19 
102.617 -3045.27 1607.24 
124.696 -3048.65 1612.55 
124.69 -3048.54 1613 
125.779 -3046.99 1615.29 
125.331 -3047.45 1614.83 
124.516 -3048.61 1613.22 
125.554 -3046.76 1615.52 
125.685 -3046.29 1615.89 
123.794 -3045.56 1615.99 
125.051 -3045.94 1616.08 
122.75 -3051.12 1609.53 
123.858 -3050.28 1608.49 
126.877 -3046.93 1609.28 
130.332 -3043.52 1608.19 
133.184 -3039.7 1608.8 
132.75 -3040.66 1607.37 
136.008 -3036.24 1607.98 
138.858 -3033.01 1608.15 
140.501 -3031 1609.72 
144.588 -3026.6 1609.5 
149.283 -3021.91 1608.77 
152.781 -3018.53 1608.5 
154.17 -3017.19 1608.87 
156.695 -3014.63 1608.91 
158.899 -3012.4 1609.01 
85.7451 -3031.44 1605.76 
90.5105 -3034.42 1606.18 
97.1674 -3040.87 1607.06 
93.6962 -3037.52 1606.6 
97.9896 -3041.52 1607.18 
97.9322 -3042.88 1607.2 
80.9753 -3031.68 1605.74 
77.0132 -3031.64 1605.7 
65.5844 -3033.57 1605.81 
73.1509 -3031.92 1605.7 
69.0898 -3032.11 1605.68 
170.022 -3033.88 1608.56 
170.898 -3033.32 1608.07 
171.555 -3032.74 1607.4 
171.92 -3032.23 1606.76 
170.775 -3031.83 1604.99 
172.218 -3031.67 1606.08 
170.528 -3031.05 1603.98 
169.81 -3030.28 1602.74 
165.028 -3032.52 1601.14 
169.739 -3029.12 1601.8 
161.01 -3034.83 1600.34 
164.753 -3031.99 1600.69 
158.686 -3035.82 1599.86 
162.366 -3032.6 1599.94 
155.436 -3037.76 1599.37 
127.032 -3058.28 1599.47 
130.401 -3054.85 1599.73 
133.694 -3051.12 1599.6 
125.017 -3059.51 1599.44 
125.331 -3059.16 1599.42 
124.198 -3060.35 1599.01 
136.488 -3048.65 1599.5 
139.454 -3046.42 1598.94 
139.642 -3046.86 1598.94 
142.032 -3044.56 1598.66 
145.493 -3042.17 1598.62 
148.844 -3041.35 1598.55 
149.224 -3041.91 1598.68 
148.546 -3040.49 1598.42 
151.997 -3039.62 1598.79 
151.333 -3039.58 1598.53 
62.4356 -3033.03 1605.74 
60.5593 -3031.07 1605.53 
57.98 -3029.19 1605.56 
56.3883 -3030.12 1605.63 
60.0754 -3061.41 1610.14 
60.5306 -3062 1610.52 
60.6608 -3062.36 1611.09 
60.1866 -3060.96 1609.73 
60.7737 -3062.85 1611.48 
61.2641 -3061.96 1609.76 
62.5941 -3063.6 1610.76 
61.8841 -3063.46 1611.2 
61.31 -3063.22 1611.4 
60.2999 -3060.6 1609.29 
49.0882 -3033.34 1604.93 
48.1818 -3033.01 1606.2 
47.5749 -3031.66 1607.05 
53.1067 -3029.48 1606.92 
50.5874 -3029.94 1607.61 
47.5662 -3030.14 1608.21 
48.1725 -3031.35 1607.59 
46.8983 -3029.86 1606.67 
80.9493 -3025.86 1605.17 
83.0831 -3027.83 1605.41 
86.4908 -3031.08 1605.84 
89.6966 -3034.1 1606.23 
76.3982 -3022.55 1604.64 
73.8716 -3019.9 1604.33 
77.2764 -3022.43 1604.72 
92.8976 -3037.12 1606.62 
97.6273 -3042.32 1607.46 
97.4749 -3043.45 1607.34 
97.5818 -3041.53 1607.4 
96.4571 -3040.5 1607.07 
97.4556 -3041.31 1607.27 
108.063 -3047.6 1607.79 
105.066 -3047.13 1607.35 
101.718 -3046.11 1607.25 
110.762 -3047.48 1608.65 
111.321 -3048.28 1608.52 
114.42 -3050.24 1609.45 
97.8741 -3044.76 1607.17 
116.862 -3051.53 1609.77 
60.9668 -3035.82 1605.01 
59.6168 -3029.48 1603.88 
60.3488 -3027.13 1603.55 
59.4862 -3028.03 1603.99 
73.7192 -3018.19 1604.3 
72.2958 -3018.2 1603.97 
69.6621 -3017.64 1603.76 
66.3331 -3019 1603.28 
63.4191 -3021.75 1602.98 
59.7832 -3025.94 1603.35 
59.5101 -3026.65 1603.61 
62.8167 -3045.32 1606.37 
61.9391 -3047.44 1605.75 
61.6583 -3048.66 1605.41 
62.032 -3040.61 1606.61 
62.3884 -3053.6 1607.01 
61.5608 -3051.54 1605.95 
62.2438 -3056.04 1606.75 
60.1982 -3050.21 1604.54 
60.7842 -3054.45 1605.42 
58.5594 -3047.81 1603.1 
56.2293 -3041.61 1601.12 
57.0882 -3044.93 1602.03 
56.4521 -3041.57 1601.26 
117.631 -3055.6 1608.47 
118.045 -3054.69 1608.93 
117.783 -3051.5 1609.91 
118.209 -3053.22 1609.34 
118.391 -3051.81 1609.82 
115.341 -3064.11 1602.6 
115.644 -3058.8 1607.38 
116.74 -3057.06 1607.92 
112.301 -3063.6 1606.69 
113.915 -3061.49 1606.49 
114.987 -3060 1606.82 
112.341 -3063.78 1606.47 
112.756 -3064.1 1605.45 
114.611 -3062.73 1603.97 
115.689 -3062.1 1603.41 
114.59 -3063.39 1603.52 
116.352 -3062.19 1602.8 
122.541 -3060.9 1598.33 
123.029 -3060.67 1598.3 
123.365 -3060.57 1598.34 
123.969 -3060.16 1598.95 
122.202 -3060.88 1598.41 
119.668 -3061.21 1600.36 
120.859 -3061.02 1599 
120.697 -3060.91 1599.29 
121.337 -3061.13 1598.78 
121.74 -3060.76 1598.45 
44.4611 -3026.14 1602.5 
44.9179 -3023.2 1601.4 
42.8401 -3027.82 1603.17 
42.3016 -3029.36 1602.85 
36.8194 -3028.61 1604.76 
38.2553 -3027.12 1604.04 
43.0575 -3025.87 1603.75 
43.3434 -3025.96 1603.64 
41.3442 -3036.15 1604.66 
40.7768 -3035.22 1604.5 
41.364 -3035.59 1604.78 
39.5862 -3033.58 1604.34 
36.1584 -3030.46 1605.23 
38.7467 -3032.02 1605.3 
36.5595 -3028.77 1605.64 
36.8952 -3025.73 1604.95 
38.6848 -3026.85 1604.1 
42.7951 -3029.59 1602.97 
43.5426 -3028.11 1603.77 
43.9659 -3025.98 1604.83 
35.1936 -3026.1 1605.75 
41.8533 -3011.46 1600.07 
42.0166 -3010.7 1600.12 
41.6444 -3011.87 1600.11 
41.4038 -3012.03 1600.22 
42.2301 -3009.81 1600.27 
42.8452 -3009.32 1600.41 
43.4402 -3008.81 1600.54 
43.7758 -3019.85 1600.98 
42.6338 -3016.2 1600.68 
41.1336 -3011.83 1600.38 
41.1934 -3012.24 1600.55 
48.2109 -3032.16 1604.84 
47.9469 -3031.83 1604.34 
46.8111 -3030.63 1604.8 
46.0243 -3027.98 1606.09 
46.6049 -3028.53 1609.35 
43.8786 -3023.61 1608.29 
56.0671 -3039.12 1600.58 
54.7448 -3035.57 1600.37 
55.6845 -3037.75 1600.55 
53.809 -3032.45 1600.4 
52.2484 -3029.12 1600.47 
51.4308 -3027.98 1600.42 
49.4643 -3023.62 1600.34 
48.3644 -3019.26 1600.3 
47.7088 -3018.98 1600.19 
47.9501 -3013.91 1600.4 
46.7402 -3011.78 1600.68 
44.0258 -3008.54 1600.68 
192.464 -3028.32 1620.59 
191.577 -3028.15 1620.45 
184.693 -3023.48 1620.01 
188.665 -3025.52 1620.11 
193.206 -3026.68 1619.67 
194.749 -3027.27 1619.39 
196.461 -3028.22 1619.17 
196.422 -3030.8 1620.13 
198.55 -3031.02 1619.43 
161.077 -3038.91 1616.28 
163.635 -3036.86 1615.19 
160.816 -3039.87 1616.72 
161.264 -3040.45 1616.63 
163.169 -3040.72 1616.41 
164.865 -3040.24 1616.23 
165.578 -3036.91 1616.06 
164.568 -3036.44 1615.48 
165.447 -3038.98 1616.13 
165.834 -3038.02 1616.05 
172.566 -3033.58 1616.05 
175.645 -3032.54 1617.17 
177.278 -3032.42 1617.71 
182.132 -3034.14 1618.99 
186.715 -3035.93 1620.15 
188.388 -3036.22 1620.4 
188.333 -3035.41 1620.4 
173.164 -3032.75 1615.61 
172.739 -3032.9 1613.05 
173.739 -3032.41 1614.88 
173.032 -3033.25 1616.18 
172.743 -3033.14 1611.32 
172.638 -3033.92 1615.98 
172.559 -3033.91 1615.96 
173.106 -3033.02 1610.71 
172.403 -3033.07 1609.92 
171.81 -3033.12 1609.02 
190.349 -3034.79 1620.48 
190.14 -3033.94 1620.48 
191.785 -3033.77 1620.41 
191.925 -3033.02 1620.38 
191.785 -3031.88 1620.4 
190.458 -3035.62 1620.48 
191.718 -3030.83 1620.4 
191.684 -3029.73 1620.41 
192.006 -3029.49 1620.48 
163.608 -3013.62 1616.27 
162.769 -3013.91 1615.94 
163.253 -3013.57 1615.96 
162.326 -3014.21 1615.89 
167.039 -3006.82 1612.95 
168.439 -3005 1612.6 
170.387 -3003.5 1612.43 
170.245 -3002.31 1611.86 
172.3 -3003.99 1612.84 
172.322 -3000.86 1611.72 
173.72 -3005.53 1613.31 
164.095 -3011.94 1614.69 
164.423 -3010.65 1613.83 
166.116 -3007.18 1612.58 
177.329 -3008.72 1614.1 
179.37 -3014.4 1615.72 
178.775 -3017.14 1617.39 
182.28 -3017.42 1616.37 
179.979 -3019.48 1619.17 
181.93 -3020.76 1619.53 
184.177 -3022.55 1619.72 
180.92 -3013.88 1615.31 
161.187 -3009.95 1609.58 
160.754 -3009.92 1608.63 
161.24 -3014.86 1615.85 
160.153 -3014.26 1617.16 
159.718 -3016.17 1616.95 
160.026 -3015.61 1616.6 
161.077 -3015.04 1616.06 
163.253 -3011.95 1614.06 
162.648 -3011.16 1612.79 
162.764 -3009.32 1611.21 
164.04 -3005.73 1609.14 
164.345 -3005.95 1609.85 
98.4979 -3044 1607.13 
97.8601 -3042.96 1607.23 
111.837 -3044.29 1610.65 
109.658 -3044.63 1609.75 
107.375 -3045.33 1608.57 
105.261 -3045.83 1607.58 
118.202 -3046.56 1611.86 
120.989 -3046.93 1613.42 
115.119 -3045.3 1611.31 
102.176 -3045.45 1607.23 
98.433 -3044.18 1607.14 
122.021 -3051.73 1609.63 
121.852 -3052.2 1608.61 
125.154 -3047.43 1615.11 
123.859 -3049.08 1613.04 
123.804 -3049.35 1612.58 
121.722 -3051.92 1609.74 
125.05 -3046.65 1615.6 
124.644 -3047.34 1615.08 
123.047 -3046.27 1615.1 
124.246 -3046.27 1615.72 
123.577 -3051 1607.32 
127.305 -3046.96 1607.93 
130.233 -3044.18 1606.77 
132.921 -3040.76 1606.29 
135.871 -3036.68 1606.84 
138.406 -3033.63 1607.23 
141.788 -3029.79 1608.37 
142.954 -3028.37 1609 
146.653 -3024.53 1608.2 
149.646 -3021.61 1607.81 
152.426 -3018.84 1607.61 
155.929 -3015.15 1607.37 
157.361 -3013.58 1607.68 
158.773 -3012.03 1607.82 
87.7116 -3031.8 1605.84 
83.7022 -3030.31 1605.62 
90.3892 -3034.41 1606.2 
94.188 -3038.08 1606.69 
97.2023 -3040.96 1607.1 
98.1783 -3041.94 1607.3 
79.7728 -3030.24 1605.58 
76.2536 -3030.02 1605.52 
65.2123 -3032.08 1605.65 
72.4593 -3030.71 1605.56 
68.2784 -3030.76 1605.53 
172.416 -3032.61 1608.25 
172.831 -3032.11 1607.4 
173.292 -3031.57 1606.8 
172.729 -3030.35 1604.92 
173.006 -3030.96 1605.75 
172.28 -3028.87 1603.37 
172.214 -3027.12 1602.02 
169.919 -3027.73 1601 
166.688 -3029.82 1600.47 
162.248 -3031.62 1599.44 
158.926 -3034.85 1599.55 
166.724 -3028.8 1600.01 
155.723 -3036.82 1599.07 
129.078 -3055.12 1599.84 
125.592 -3058.63 1599.47 
132.879 -3050.87 1599.67 
135.738 -3048 1599.55 
124.584 -3059.28 1599.44 
124.845 -3058.95 1599.45 
138.85 -3046.07 1599.07 
141.928 -3043.62 1598.74 
142.042 -3044.2 1598.65 
141.791 -3042.84 1598.87 
147.126 -3040.03 1598.5 
150.965 -3039.2 1598.29 
150.477 -3039.09 1598.13 
150.02 -3038.76 1598.21 
155.27 -3036.37 1598.87 
62.7786 -3030.96 1605.52 
59.9426 -3028.66 1605.37 
56.5272 -3027.6 1606.69 
54.3429 -3028.49 1607.01 
60.7186 -3061.91 1610.58 
60.4511 -3061.4 1610.21 
60.4803 -3060.92 1609.79 
60.3671 -3060.88 1609.71 
60.8093 -3062.24 1611.06 
60.8809 -3062.74 1611.38 
61.819 -3062.54 1610.11 
60.9389 -3061.46 1609.23 
60.4273 -3060.57 1609.29 
62.3625 -3063.55 1610.98 
61.8476 -3063.33 1611.16 
61.4189 -3063.11 1611.28 
49.5813 -3028.13 1608.75 
76.2114 -3022.36 1604.68 
79.4139 -3024.35 1604.95 
82.4323 -3027.11 1605.3 
86.0916 -3030.61 1605.76 
89.0436 -3033.38 1606.11 
73.7795 -3019.54 1604.81 
74.5178 -3016.61 1605.63 
76.2242 -3014.01 1606.28 
72.837 -3021 1604.65 
93.3477 -3037.46 1606.65 
97.8305 -3042.05 1607.52 
97.8674 -3044.54 1607.17 
97.5976 -3043.21 1607.34 
96.891 -3040.82 1607.1 
97.6854 -3041.57 1607.39 
109.386 -3046.73 1608.66 
111.908 -3047.17 1609.41 
107.408 -3047.1 1607.79 
104.746 -3046.76 1607.33 
101.642 -3045.83 1607.23 
115.068 -3049.42 1610 
117.592 -3050.66 1610.33 
59.8416 -3035.16 1605.01 
58.5376 -3029.81 1604.07 
56.4214 -3025.94 1604.39 
56.2826 -3026.43 1604.44 
56.245 -3024.74 1604.12 
56.5964 -3023.27 1603.91 
76.2104 -3013.83 1605.41 
77.6693 -3011.65 1606.9 
74.4374 -3014.97 1604.33 
71.4199 -3015.34 1603.81 
64.6389 -3012.85 1603.26 
69.9698 -3010.83 1603.56 
61.7207 -3016.29 1602.84 
59.3359 -3024.72 1603.33 
60.0202 -3022.8 1602.99 
59.724 -3019.6 1602.94 
57.4372 -3022.32 1603.75 
62.3795 -3044.66 1606.38 
61.4999 -3046.93 1605.53 
61.2476 -3047.94 1605.17 
59.8637 -3048.16 1604.08 
61.1602 -3040.64 1606.77 
61.4058 -3052.54 1605.97 
61.8799 -3055.27 1606.41 
61.6179 -3053.77 1606.15 
57.4379 -3044.98 1602.23 
56.6645 -3041.5 1601.4 
56.26 -3038.98 1600.7 
118.759 -3054.45 1608.64 
118.827 -3054.02 1608.94 
118.877 -3053.12 1609.29 
118.644 -3050.56 1610.59 
119.246 -3052.14 1609.77 
119.496 -3051.22 1610.3 
119.717 -3060.77 1600.49 
117.808 -3056.09 1607.9 
113.714 -3062.03 1606.19 
115.524 -3059.75 1606.49 
117.421 -3056.96 1607.37 
113.895 -3062.56 1605.16 
115.536 -3060.86 1605.06 
117.246 -3060.09 1603.69 
120.029 -3060.29 1600.45 
119.854 -3059.96 1601.15 
122.235 -3060.61 1598.41 
122.704 -3060.53 1598.38 
123.114 -3060.42 1598.42 
123.754 -3059.94 1598.97 
121.952 -3060.51 1598.47 
120.859 -3060.11 1599.06 
121.045 -3060.45 1598.8 
121.345 -3060.55 1598.56 
121.702 -3060.42 1598.55 
44.0739 -3025.58 1602.91 
44.544 -3023.46 1601.87 
43.7279 -3020.24 1601.28 
42.9736 -3024.66 1604.2 
43.1159 -3027.5 1603.59 
31.6866 -3028.34 1606.78 
30.88 -3025.82 1606.87 
34.1036 -3025.5 1605.57 
34.0887 -3023.74 1605.44 
43.6142 -3023.15 1603.53 
43.8806 -3024.2 1603.2 
39.5648 -3037.06 1605.68 
40.9251 -3039.02 1605.56 
41.0138 -3038.5 1605.51 
40.0702 -3036.61 1605.08 
38.9919 -3035.02 1604.86 
36.736 -3033.27 1606.16 
33.0768 -3031.4 1606.52 
34.296 -3029.32 1606.49 
31.629 -3025.2 1606.87 
33.202 -3023.02 1605.97 
43.6637 -3025.3 1604.71 
43.3272 -3024.92 1604.49 
39.2902 -3006.15 1600.36 
38.8189 -3005.54 1600.39 
39.3899 -3005.61 1600.29 
38.6636 -3005.86 1600.52 
38.3427 -3005.6 1600.65 
39.6015 -3005.31 1600.25 
40.0114 -3005.35 1600.27 
40.5973 -3005.3 1600.41 
42.322 -3016.6 1600.97 
42.4683 -3016.33 1600.83 
41.2628 -3012.68 1600.73 
38.1966 -3005.77 1600.76 
39.1485 -3008.67 1600.73 
44.1305 -3025.78 1610.83 
42.4781 -3021.03 1610.28 
42.3826 -3020.98 1607.42 
55.1622 -3035.62 1600.49 
54.5158 -3034.06 1600.45 
55.919 -3037.45 1600.67 
53.6808 -3031.51 1600.47 
52.4968 -3028.83 1600.56 
50.691 -3025.18 1600.54 
49.3521 -3021.65 1600.54 
48.8426 -3017.16 1600.47 
49.0637 -3014.31 1600.51 
49.5098 -3014.55 1600.6 
50.3411 -3011.41 1601.03 
52.524 -3011.3 1601.12 
46.7756 -3009.38 1601.35 
44.8026 -3008.73 1600.85 
48.5303 -3009.32 1601.51 
41.1904 -3005.21 1600.57 
193.153 -3030.37 1620.9 
195.734 -3031.89 1620.77 
187.3 -3024.53 1619.66 
190.974 -3025.88 1619.85 
199.26 -3028.65 1618.27 
197.702 -3027.7 1618.49 
200.233 -3030.13 1618.51 
201.574 -3033.03 1619.21 
199.707 -3035 1620.65 
200.483 -3034.12 1620.03 
161.124 -3039.41 1616.62 
161.441 -3038.33 1615.97 
160.946 -3040 1616.73 
160.992 -3040.72 1616.62 
160.715 -3040.36 1616.71 
165.284 -3040.45 1616.18 
163.798 -3040.95 1616.33 
166.186 -3037.11 1615.97 
164.565 -3036.53 1615.59 
166 -3039.26 1616.05 
166.459 -3038.35 1615.96 
175.638 -3033.03 1617.09 
179.566 -3034.25 1618.16 
182.621 -3035.18 1618.99 
187.001 -3036.86 1620.11 
188.89 -3037.39 1620.42 
190.55 -3037.24 1620.48 
190.492 -3036.43 1620.48 
173.412 -3032.67 1615.77 
173.173 -3033.08 1616.11 
174.07 -3032.3 1615.42 
174.481 -3032.32 1614.85 
173.368 -3032.79 1613.17 
173.611 -3033.01 1611.88 
174.618 -3032.27 1615.28 
173.104 -3033.43 1616.26 
173.811 -3032.95 1611.29 
172.658 -3034.04 1615.96 
174.602 -3032.74 1610.64 
173.732 -3032.72 1609.88 
172.813 -3032.72 1609.15 
192.094 -3036.06 1620.38 
191.912 -3034.93 1620.4 
192.289 -3034.54 1620.34 
192.559 -3033.98 1620.33 
192.384 -3032.77 1620.36 
192.419 -3031.89 1620.43 
192.009 -3036.82 1620.4 
192.443 -3030.98 1620.52 
193.89 -3032.41 1621.05 
168.834 -3002.14 1611.12 
170.147 -3000.9 1611.14 
172.282 -2999.26 1611.13 
171.87 -2998.22 1610.6 
173.904 -2999.79 1611.58 
174.636 -3001.44 1612.09 
175.706 -2995.34 1610.5 
174.303 -2995.81 1610.38 
178.365 -3004.28 1612.99 
164.153 -3009.7 1612.9 
166.093 -3005.48 1611.34 
168.558 -3001.6 1610.54 
180.328 -3010.85 1614.58 
183.256 -3017.41 1616.12 
180.584 -3018.75 1618.17 
183.59 -3018.93 1616.82 
183.224 -3019.21 1617.17 
186.393 -3020.35 1616.81 
182.923 -3020.42 1618.49 
186.031 -3023.06 1619.16 
183.605 -3016.13 1615.74 
184.539 -3018.05 1616.2 
163.779 -3005.6 1608.46 
160.895 -3009.25 1607.68 
163.583 -3005.45 1607.7 
164.803 -3006.77 1611.12 
165.936 -3003.84 1609.86 
167.231 -3001.29 1608.81 
167.016 -3001.01 1608.09 
98.08 -3041.98 1607.37 
112.856 -3044.67 1610.89 
110.603 -3045.02 1609.93 
108.962 -3045.46 1609.11 
105.315 -3046.27 1607.46 
107.268 -3045.99 1608.24 
118.863 -3047.31 1612.06 
120.814 -3047.51 1613.09 
115.533 -3046.06 1611.33 
102.338 -3045.77 1607.24 
98.3203 -3044.35 1607.15 
97.7867 -3043.05 1607.25 
120.649 -3053.22 1608.41 
120.925 -3053.27 1607.94 
122.638 -3052.33 1606.54 
124.035 -3048.56 1613.7 
121.702 -3051.6 1610.51 
121.209 -3052.33 1609.61 
124.187 -3047.11 1615.18 
123.713 -3048.37 1613.97 
122.994 -3049.71 1612.57 
123.479 -3046.9 1615 
122.129 -3047.57 1613.84 
127.201 -3047.84 1606.39 
130.378 -3044.78 1605.34 
132.887 -3041.17 1605.59 
135.933 -3036.89 1606.03 
138.576 -3033.68 1606.53 
141.671 -3030.22 1607.3 
143.999 -3027.66 1607.08 
146.226 -3025.18 1607.04 
149.554 -3021.85 1606.74 
151.993 -3019.41 1606.42 
154.531 -3016.68 1606.54 
157.304 -3013.57 1606.1 
158.465 -3012.11 1606.57 
160.257 -3009.83 1606.92 
86.3133 -3030.55 1605.69 
82.4296 -3029.02 1605.47 
91.5223 -3035.58 1606.37 
88.0227 -3032.24 1605.93 
94.6942 -3038.66 1606.79 
97.5127 -3041.34 1607.2 
97.8856 -3041.53 1607.25 
79.4604 -3028.35 1605.37 
75.577 -3028.6 1605.36 
71.5827 -3029.51 1605.42 
64.9638 -3030.14 1605.44 
67.5911 -3029.27 1605.36 
173.582 -3032.25 1608.27 
174.054 -3031.86 1607.74 
175.032 -3031.46 1607.53 
174.599 -3030.97 1606.65 
174.501 -3030.16 1605.69 
174.912 -3028.81 1604.61 
174.27 -3027.02 1602.81 
174.587 -3025.96 1602.14 
172.397 -3025.87 1601.33 
170.156 -3026.67 1600.62 
162.96 -3030.03 1599.13 
166.755 -3027.83 1599.62 
159.475 -3033.4 1599.23 
170.145 -3025.74 1600.25 
127.163 -3056.31 1599.84 
131.162 -3051.66 1599.85 
124.994 -3058.69 1599.49 
135.059 -3048.04 1599.67 
137.75 -3045.43 1599.29 
124.234 -3059.11 1599.41 
124.379 -3058.8 1599.51 
140.328 -3043.33 1599.03 
146.367 -3039.66 1598.57 
145.48 -3038.9 1598.76 
149.686 -3037.24 1598.39 
150.298 -3037.75 1598.39 
154.314 -3036.2 1598.7 
153.043 -3036.33 1598.5 
153.729 -3034.94 1598.74 
157.697 -3034.18 1599.03 
62.4224 -3028.81 1605.3 
59.8698 -3027.2 1605.69 
51.2702 -3026.91 1608.65 
57.3877 -3025.99 1607.16 
53.7419 -3026.11 1608.2 
60.9191 -3061.81 1610.64 
60.9402 -3062.15 1611 
60.7654 -3061.35 1610.24 
60.5225 -3060.84 1609.78 
60.9935 -3062.63 1611.26 
62.3755 -3063.13 1610.45 
61.5523 -3062.22 1609.74 
61.2895 -3061.81 1609.25 
61.782 -3062.44 1609.77 
60.5583 -3060.46 1609.26 
60.9705 -3061.06 1609.16 
62.3335 -3063.42 1610.94 
61.9197 -3063.18 1611.05 
61.5035 -3062.98 1611.17 
45.3934 -3024.76 1610.86 
72.2408 -3022.86 1604.7 
75.4361 -3023.68 1604.82 
78.6628 -3024.43 1604.93 
79.8862 -3025.69 1605.08 
84.212 -3028.74 1605.5 
86.4463 -3030.81 1605.76 
90.46 -3034.65 1606.26 
68.8855 -3018.12 1606.4 
69.4093 -3014.45 1607.84 
72.0697 -3011.4 1608.57 
74.6316 -3007.96 1609.48 
69.4839 -3020.66 1605.42 
98.1313 -3044.48 1607.15 
97.8979 -3042.01 1607.5 
97.9842 -3042 1607.43 
97.8068 -3041.56 1607.33 
110.381 -3045.88 1609.44 
112.444 -3046.54 1609.95 
108.421 -3046.25 1608.55 
116.491 -3048.99 1610.66 
106.025 -3046.68 1607.53 
58.006 -3029.76 1604.07 
59.2422 -3035.91 1605.34 
57.9307 -3030.55 1603.9 
55.9472 -3026.59 1604.36 
53.8757 -3022.7 1603.66 
54.4544 -3021.88 1603.67 
53.7645 -3023.3 1603.57 
55.2116 -3020.1 1603.55 
55.2764 -3018.95 1603.55 
55.8059 -3018.49 1603.56 
78.2034 -3009.99 1606.78 
78.942 -3007.56 1608.54 
77.214 -3010.31 1606.04 
73.7659 -3012.95 1604.08 
66.2549 -3008.06 1603.43 
59.3704 -3009.87 1602.23 
58.9979 -3012.51 1602.15 
71.9025 -3008.68 1603.84 
68.3004 -3004.98 1603.51 
58.2333 -3017.88 1602.96 
61.8208 -3044.67 1606.28 
61.024 -3046.66 1605.2 
60.8762 -3047.21 1604.94 
59.9848 -3047.4 1604.13 
57.819 -3045.08 1602.42 
60.4298 -3041.03 1606.94 
57.229 -3043.17 1602.06 
56.8255 -3041.12 1601.47 
56.448 -3038.91 1600.81 
119.614 -3053.84 1608.57 
119.731 -3053.36 1609 
119.569 -3053.14 1609.27 
119.93 -3052.37 1609.78 
119.338 -3049.75 1611.23 
120.296 -3051.4 1610.48 
120.468 -3050.08 1611.32 
119.249 -3054.47 1608.2 
117.756 -3057.88 1605.64 
118.101 -3056.43 1607.14 
119.729 -3054.41 1607.67 
120.426 -3058.27 1602.35 
119.868 -3056.85 1604.28 
120.906 -3059.92 1599.3 
121.033 -3059.88 1599.64 
122.421 -3060.4 1598.49 
122.173 -3060.3 1598.57 
122.818 -3060.3 1598.51 
123.532 -3059.75 1599.01 
121.935 -3060.21 1598.65 
121.141 -3059.9 1599.11 
121.153 -3060.22 1598.82 
121.576 -3060.22 1598.7 
43.536 -3020.31 1601.6 
42.1788 -3016.96 1601.12 
27.6557 -3031.4 1608.28 
26.7651 -3028.73 1608.37 
28.9889 -3023.45 1607.34 
29.1393 -3021.37 1607.19 
43.8236 -3023.43 1604.12 
43.0943 -3020.27 1601.96 
35.9211 -3038.01 1606.68 
38.5553 -3041.32 1606.25 
41.259 -3042.62 1605.68 
42.4979 -3040.9 1605.42 
40.3464 -3038.31 1605.6 
42.2053 -3039.33 1605.59 
42.611 -3039.87 1605.54 
38.2714 -3036.32 1605.36 
33.5354 -3034.24 1606.57 
33.3857 -3033.89 1607.03 
28.4059 -3034.76 1608.25 
30.6881 -3029.42 1607.39 
27.196 -3024.5 1607.97 
27.4936 -3026.62 1608 
38.4031 -3002.59 1599.92 
37.2671 -3000.2 1599.97 
38.8233 -3002.51 1599.72 
36.888 -3000.27 1600.23 
36.5306 -3000.31 1600.5 
39.1324 -3002.45 1599.78 
39.5945 -3003.33 1600.29 
39.9989 -3003.5 1600.79 
41.551 -3014.47 1601.11 
41.385 -3013.35 1600.92 
39.0931 -3008.91 1600.88 
37.6176 -3004.7 1600.94 
35.9594 -2999.88 1600.74 
37.3865 -3004.88 1601.11 
41.1149 -3022.17 1612.43 
40.8895 -3017.73 1611.78 
42.3884 -3021.27 1605.07 
40.8211 -3015.09 1610.03 
42.1044 -3018.26 1606.52 
55.1311 -3034.59 1600.59 
54.0279 -3031.91 1600.54 
56.1493 -3037.39 1600.77 
52.7267 -3028.61 1600.67 
51.2064 -3025.25 1600.7 
49.768 -3022.29 1600.66 
49.4945 -3019.45 1600.72 
49.5521 -3016.59 1600.77 
50.675 -3014.59 1601.03 
51.1075 -3013.02 1600.96 
51.5748 -3013.39 1601.1 
52.9557 -3009.13 1601.34 
49.9081 -3008.99 1601.5 
54.4376 -3011.26 1601.34 
56.0233 -3008.14 1601.69 
46.155 -3006.99 1602.04 
45.677 -3008.08 1601.52 
45.3468 -3006.39 1602.11 
44.0531 -3007.92 1600.77 
45.9324 -3004.9 1601.95 
42.476 -3004.09 1601.3 
42.1523 -3002.41 1601.68 
195.318 -3033.16 1621.32 
199.08 -3035.93 1621.22 
190.383 -3025.41 1619.58 
188.257 -3024.01 1618.85 
195.539 -3026.72 1618.89 
202.273 -3029.98 1617.46 
203.423 -3032.73 1618.33 
201.161 -3027.01 1616.46 
204.795 -3034.93 1618.69 
203.087 -3036.71 1620.63 
206.019 -3037.03 1619.12 
200.762 -3037.97 1622.63 
201.682 -3037.53 1621.97 
161.278 -3039.33 1616.59 
161.543 -3038.37 1616.17 
161.233 -3039.85 1616.71 
160.81 -3040.48 1616.68 
161.193 -3040.93 1616.58 
165.715 -3040.67 1616.12 
164.219 -3041.2 1616.27 
166.771 -3037.24 1615.85 
164.624 -3036.59 1615.66 
165.163 -3036.49 1615.71 
166.499 -3039.82 1615.99 
166.893 -3039.19 1615.91 
167.118 -3038.2 1615.81 
176.415 -3034.05 1617.19 
180.054 -3035.35 1618.15 
183.986 -3036.68 1619.2 
188.086 -3038.08 1620.24 
190.779 -3038.85 1620.48 
190.751 -3038.08 1620.49 
192.026 -3038.83 1620.41 
191.985 -3037.73 1620.41 
173.716 -3032.51 1615.89 
173.336 -3033.1 1616.27 
174.43 -3032.24 1615.72 
175.012 -3032.19 1615.6 
175.329 -3032.18 1615.55 
174.387 -3032.67 1613.49 
175.328 -3032.25 1615.13 
175.154 -3032.86 1612.2 
175.39 -3032.82 1611.84 
173.169 -3033.55 1616.25 
175.719 -3032.75 1611.26 
172.6 -3033.83 1616 
177.244 -3032.68 1611.22 
175.801 -3032.52 1610.32 
174.43 -3032.37 1609.14 
192.576 -3037.76 1620.32 
192.747 -3037.02 1620.29 
192.517 -3035.78 1620.32 
193.04 -3035.55 1620.36 
194.252 -3036.56 1620.8 
193.783 -3035.08 1620.72 
193.986 -3034.51 1620.88 
194.016 -3033.62 1620.99 
195.617 -3035.54 1621.55 
196.086 -3035.22 1621.71 
170.897 -2997.99 1609.86 
171.312 -2998.02 1610.18 
172.957 -2994.98 1609.63 
173.928 -2994.97 1610.01 
173.728 -2994.08 1609.65 
176.794 -2996.17 1610.87 
177.657 -2997.87 1611.33 
178.12 -2991.32 1609.47 
175.748 -2992.85 1609.83 
179.426 -2991.41 1609.63 
179.769 -2999.16 1611.69 
181.213 -3003.65 1612.94 
180.78 -3006.11 1613.44 
183.652 -3006.06 1615.27 
168.206 -3001.27 1609.96 
170.404 -2997.98 1609.35 
181.484 -3011.31 1614.71 
186.756 -3020.13 1616.7 
187.303 -3021.43 1617.05 
187.198 -3021.83 1617.44 
188.158 -3021.31 1616.72 
186.02 -3022.03 1618.28 
184.013 -3015.76 1615.68 
185.991 -3018.18 1616.27 
186.682 -3019.14 1616.47 
187.529 -3020.06 1616.59 
166.764 -3000.88 1607.35 
163.45 -3005.23 1606.73 
166.519 -3000.82 1606.54 
168.486 -3000.09 1609.16 
169.272 -2997.98 1608.02 
168.749 -2998.15 1607.32 
112.063 -3045.21 1610.39 
119.646 -3047.98 1612.22 
118.755 -3048.08 1611.8 
114.274 -3046.46 1610.79 
120.254 -3053.42 1608.51 
120.053 -3055 1606.44 
122.762 -3052.88 1605.4 
126.463 -3049.45 1604.92 
120.867 -3052.33 1609.92 
