-102.28 -3359.75 1212.33
-96.0191 -3358.46 1210.73
-100.765 -3359.78 1211.17
-103.206 -3360.16 1211.84
-102.376 -3360.34 1211.05
-104.762 -3360.22 1212.02
-103.941 -3360.19 1211.94
-86.2882 -3357.6 1203.22
-85.2182 -3357.05 1200.86
-87.5838 -3357.43 1206.28
-88.4761 -3357.34 1207.41
-87.2656 -3357.86 1205.1
-86.8982 -3357.92 1204.15
-91.4739 -3357.68 1209.01
-95.0669 -3358.8 1209.66
-100.058 -3360.09 1210.28
-101.946 -3360.65 1210.29
-103.312 -3360.53 1210.93
-102.777 -3360.71 1210.37
-105.538 -3360.23 1211.99
-104.154 -3360.42 1211.2
-106.353 -3360.33 1210.84
-106.358 -3360.42 1210.42
-107.18 -3360.31 1210.78
-84.8504 -3356.94 1199.22
-86.1339 -3357.76 1201.53
-87.3108 -3359.14 1202.27
-87.6267 -3359.29 1202.97
-85.6395 -3357.59 1199.81
-88.8329 -3359.26 1205.14
-88.4761 -3359.28 1204.66
-89.3577 -3359.18 1205.72
-90.2422 -3359.24 1206.3
-88.2102 -3359.34 1204.15
-88.0072 -3359.44 1203.61
-92.7868 -3359.71 1207.36
-94.572 -3360.66 1207.18
-98.7613 -3360.97 1208.58
-100.511 -3361.34 1208.86
-101.055 -3361.58 1208.74
-101.569 -3361.74 1208.55
-103.925 -3360.62 1210.66
-103.468 -3360.87 1210.19
-102.645 -3361.54 1208.98
-106.103 -3360.51 1210.14
-108.663 -3360.38 1209.92
-109.97 -3360.76 1208.97
-110.778 -3360.62 1209.58
-84.5215 -3356.53 1197.92
-85.076 -3357.12 1198.4
-85.4734 -3357.47 1199
-87.0292 -3359.04 1201.22
-86.8009 -3358.98 1200.2
-88.3179 -3360.61 1202
-87.9595 -3360.39 1201.34
-88.5801 -3360.65 1202.63
-86.6928 -3358.95 1199.42
-89.8066 -3360.66 1204.2
-89.2325 -3360.8 1203.46
-88.9754 -3360.88 1202.95
-92.7902 -3361.49 1205.2
-95.7284 -3361.98 1206.06
-98.8071 -3362.48 1206.62
-99.4806 -3362.86 1206.25
-100.475 -3362.91 1206.48
-104.279 -3360.85 1210.07
-105.748 -3360.65 1209.88
-103.656 -3361.45 1209.1
-102.301 -3362.22 1207.87
-108.728 -3361.14 1208.08
-109.65 -3360.9 1208.6
-110.712 -3360.73 1209.12
-111.885 -3361.22 1207.63
-110.253 -3361.58 1206.9
-113.31 -3361.18 1208.14
-114.284 -3361.13 1208.76
-115.312 -3361.05 1208.3
-85.2033 -3356.83 1197.12
-86.4567 -3358.45 1197.64
-86.461 -3358.57 1198.14
-86.4562 -3358.66 1198.7
-85.7948 -3356.06 1194.77
-86.1979 -3355.87 1193.6
-87.8133 -3360.36 1200.61
-88.4391 -3360.9 1201.57
-88.8145 -3361.01 1202.3
-88.1421 -3360.7 1200.79
-87.7188 -3360.3 1199.81
-89.6153 -3361.03 1203.44
-91.8244 -3361.61 1204.3
-89.2409 -3361.14 1202.83
-93.7478 -3362.17 1204.89
-95.663 -3362.52 1205.17
-96.0423 -3362.87 1204.61
-99.017 -3363.29 1205.14
-100.393 -3363.18 1205.8
-101.877 -3362.68 1206.96
-104.764 -3361.47 1208.61
-105.608 -3360.81 1209.51
-107.156 -3361.62 1207.38
-103.334 -3362.07 1208.37
-108.386 -3362.59 1204.83
-111.498 -3361.48 1206.45
-112.873 -3361.37 1206.54
-110.908 -3361.75 1205.61
-115.137 -3361.2 1206.71
-116.626 -3361.09 1206.38
-89.1751 -3356.53 1190.35
-86.1873 -3356.48 1194.95
-86.5312 -3358.27 1197.05
-86.6518 -3358.04 1196.38
-87.6925 -3359.97 1197.98
-87.4809 -3359.57 1197.3
-87.5872 -3360.08 1198.9
-87.9796 -3357.03 1192.98
-89.246 -3356.94 1191.23
-88.5246 -3361.06 1200.97
-88.7843 -3361.17 1201.71
-89.2488 -3361.33 1202.35
-88.1561 -3360.76 1199.98
-89.6856 -3361.34 1202.85
-91.4143 -3361.74 1203.66
-93.5193 -3362.45 1204.23
-96.3778 -3363.18 1204.01
-93.7278 -3362.77 1203.59
-98.5231 -3363.67 1203.83
-99.4379 -3363.45 1204.8
-100.727 -3363.3 1205.45
-103.235 -3362.71 1206.18
-104.231 -3362.09 1207.5
-105.512 -3363.08 1204.22
-109.114 -3362.7 1204.24
-106.329 -3363.77 1202.55
-107.188 -3363.95 1201.9
-113.344 -3361.65 1203.7
-113.484 -3361.53 1204.4
-115.463 -3361.34 1203.63
-109.581 -3362.86 1203.53
-112.836 -3361.97 1202.99
-117.362 -3361.22 1202.16
-117.491 -3361.16 1203.29
-91.1432 -3357.25 1189.11
-87.187 -3357.98 1195.36
-87.9987 -3358.26 1194.55
-87.7597 -3359.51 1196.61
-87.9153 -3359.93 1197.25
-88.1312 -3360.37 1198.13
-88.019 -3360.53 1199.13
-89.0482 -3358.5 1193.73
-90.7787 -3358.18 1191.38
-88.8053 -3361.26 1201.15
-88.6029 -3361.14 1200.3
-89.2771 -3361.45 1201.93
-90.6755 -3361.77 1202.64
-92.0038 -3362.14 1203.34
-96.0832 -3363.28 1203.46
-93.1745 -3362.73 1203.07
-93.8305 -3363.05 1202.7
-99.0301 -3363.76 1203.61
-98.4281 -3363.84 1203.11
-96.0977 -3363.38 1202.95
-99.8223 -3363.6 1204.27
-101.344 -3363.5 1204.05
-102.389 -3363.13 1205.15
-102.732 -3363.6 1203.08
-104.779 -3363.73 1202.78
-103.211 -3363.78 1202.58
-107.735 -3364.06 1201.32
-105.78 -3364.26 1201.73
-105.011 -3364.14 1202.03
-106.527 -3364.2 1201.7
-107.13 -3364.23 1201.31
-114.129 -3362.09 1201.31
-115.911 -3361.41 1202.05
-115.739 -3361.55 1201.41
-117.229 -3361.29 1200.18
-109.9 -3362.98 1202.88
-110.991 -3362.89 1201.8
-120.277 -3360.82 1198.1
-92.1592 -3357.13 1187.96
-92.2876 -3358.58 1190.16
-88.1533 -3359.47 1195.93
-88.3122 -3359.86 1196.45
-88.3339 -3360.17 1197.15
-88.6899 -3360.78 1198.59
-88.4775 -3360.94 1199.46
-89.3095 -3359.34 1194.56
-91.536 -3359.56 1192.56
-89.0135 -3361.37 1200.66
-89.1927 -3361.48 1201.41
-91.066 -3362.08 1201.88
-91.2983 -3362.09 1202.34
-93.2013 -3362.94 1202.14
-93.8847 -3363.16 1201.92
-99.0366 -3363.91 1202.92
-96.2758 -3363.47 1202.4
-98.3438 -3363.9 1202.57
-100.409 -3363.81 1202.89
-101.828 -3363.72 1202.67
-102.299 -3363.85 1202.32
-103.817 -3364.04 1202.09
-104.345 -3364.3 1201.75
-102.842 -3364.02 1201.84
-108.417 -3364.27 1200.05
-109.502 -3363.87 1200.08
-105.541 -3365.35 1200.37
-105.251 -3365.25 1200.57
-106.077 -3364.54 1201.24
-104.95 -3365.25 1200.57
-106.426 -3364.61 1201.03
-106.938 -3364.61 1200.7
-112.678 -3362.7 1199.97
-113.631 -3362.46 1200.11
-114.873 -3362 1201
-116.983 -3361.37 1199.13
-115.875 -3361.61 1199.71
-115.069 -3361.99 1200.61
-118.86 -3360.99 1197.34
-111.108 -3363.62 1199.22
-112.087 -3363.1 1199.52
-93.002 -3358.67 1189.7
-94.697 -3358.13 1188.08
-92.8061 -3359.68 1191.34
-89.3255 -3359.73 1195.23
-89.4948 -3360.04 1195.7
-88.7074 -3360.47 1197.47
-89.8857 -3361.3 1199.27
-88.9887 -3361.25 1199.93
-90.0231 -3361.54 1200.08
-91.9099 -3359.97 1192.97
-91.1293 -3362.15 1201.04
-91.1087 -3362.09 1200.5
-91.3485 -3362.23 1201.48
-93.418 -3363.05 1201.24
-94.8588 -3363.38 1199.45
-95.7826 -3363.45 1201.18
-99.9908 -3363.88 1202.36
-98.7457 -3363.99 1202.44
-97.4875 -3363.75 1201.23
-101.111 -3363.85 1201.92
-101.645 -3363.88 1202.08
-101.971 -3364.01 1201.66
-103.262 -3364.22 1201.61
-103.74 -3364.4 1201.47
-104.61 -3365.31 1200.46
-102.825 -3364.25 1201.36
-102.269 -3364.17 1201.32
-108.029 -3364.6 1199.68
-109.439 -3364.51 1198.61
-109.972 -3364.3 1198.64
-105.889 -3365.47 1200.06
-105.766 -3366.2 1199.25
-105.501 -3366.32 1199.27
-105.273 -3366.28 1199.37
-105.08 -3366.22 1199.46
-106.29 -3365.52 1199.75
-106.934 -3365.4 1199.35
-112.917 -3362.65 1199.14
-113.597 -3362.53 1199.22
-116.203 -3361.73 1197.78
-116.583 -3361.74 1196.66
-117.03 -3361.6 1196.24
-114.914 -3362.04 1199.49
-115.415 -3361.83 1198.21
-111.819 -3363.46 1198.69
-109.989 -3364.48 1198.17
-110.242 -3364.42 1197.97
-113.249 -3362.65 1198.49
-113.75 -3362.62 1197.66
-94.5487 -3359.03 1189.43
-93.6722 -3359.66 1190.72
-96.4563 -3359.97 1189.85
-99.8207 -3360.04 1187.86
-101.014 -3359.37 1185.58
-93.2359 -3359.92 1191.44
-90.5436 -3360.53 1196.01
-89.9622 -3360.89 1197.8
-91.3944 -3361.79 1199.26
-91.3593 -3361.26 1197.63
-93.2089 -3362.84 1199.17
-92.6767 -3362.52 1198.99
-92.559 -3360.43 1193.55
-94.2325 -3363.23 1199.31
-95.0023 -3363.39 1197.98
-97.4526 -3363.77 1196.62
-97.6443 -3363.8 1196.91
-97.6728 -3363.8 1197.21
-99.7515 -3363.96 1201.98
-100.917 -3363.79 1201.61
-98.6115 -3364.02 1201.96
-97.8294 -3363.78 1201.19
-98.2673 -3363.71 1198.56
-98.443 -3363.64 1199.86
-101.505 -3363.95 1201.51
-101.321 -3363.94 1201.3
-101.712 -3364.08 1201.06
-103.381 -3364.46 1201.28
-104.366 -3365.37 1200.38
-104.905 -3366.26 1199.41
-102.672 -3364.39 1200.94
-103.222 -3364.64 1200.88
-102.003 -3364.19 1200.9
-102.388 -3364.33 1200.79
-108.313 -3365.17 1198.56
-108.771 -3365.21 1198.16
-108.921 -3365.27 1197.96
-106.099 -3366.21 1198.98
-105.792 -3366.41 1198.93
-105.396 -3366.57 1198.95
-105.199 -3366.44 1199.09
-106.666 -3366.01 1198.64
-107.342 -3365.75 1198.5
-115.07 -3362.09 1197.44
-114.713 -3362.41 1196.32
-115.09 -3362.22 1196.5
-116.735 -3361.71 1195.84
-113.474 -3362.93 1195.9
-114.628 -3362.13 1199.15
-110.329 -3364.41 1197.73
-111.687 -3363.59 1197.74
-109.034 -3365.32 1197.76
-109.147 -3365.28 1197.58
-112.475 -3363.3 1196.43
-95.9181 -3360.38 1190.84
-97.6192 -3361.1 1191.72
-101.405 -3361.81 1189.69
-97.7054 -3361.43 1192.3
-102.504 -3361.73 1188.44
-101.167 -3359.21 1185.26
-102.855 -3361.47 1187.77
-93.5028 -3360.08 1191.56
-92.8757 -3362.12 1197.32
-93.485 -3362.2 1196.7
-93.0794 -3361.24 1195.41
-92.5848 -3362.24 1198.19
-94.8385 -3363.29 1197.57
-93.9911 -3362.99 1197.79
-93.0932 -3360.53 1193.41
-95.2893 -3361.01 1193.43
-97.4756 -3363.73 1196.23
-97.1673 -3363.64 1196.11
-100.61 -3364.26 1194.91
-99.7122 -3363.96 1196.16
-100.208 -3364.13 1195.39
-99.5931 -3363.79 1197.77
-99.2558 -3363.84 1201.12
-100.678 -3363.94 1201.42
-100.995 -3363.95 1201.17
-99.692 -3363.63 1199.46
-100.232 -3363.79 1200.63
-100.565 -3363.77 1200.45
-101.347 -3363.98 1200.82
-101.606 -3364.08 1200.62
-104.147 -3365.36 1200.29
-104.646 -3366.27 1199.42
-104.886 -3366.38 1199.11
-102.962 -3364.63 1200.66
-104.001 -3365.47 1200.07
-103.811 -3365.52 1199.85
-101.916 -3364.24 1200.48
-102.525 -3364.49 1200.39
-107.858 -3365.73 1198.29
-107.824 -3365.79 1198.07
-108.097 -3365.87 1197.86
-106.156 -3366.37 1198.67
-105.691 -3366.58 1198.74
-105.899 -3366.51 1198.7
-105.461 -3366.66 1198.72
-105.139 -3366.59 1198.89
-107.293 -3365.9 1198.44
-106.788 -3366.13 1198.53
-112.622 -3363.27 1195.62
-111.412 -3363.76 1196.49
-109.261 -3365.22 1197.45
-110.695 -3364.2 1197.21
-108.157 -3366.04 1197.74
-108.251 -3366.05 1197.59
-95.5754 -3360.64 1191.96
-94.9057 -3361.33 1194.36
-100.179 -3362.64 1191.98
-103.527 -3364.24 1191.97
-97.9736 -3362.39 1193.37
-95.6414 -3362.2 1194.95
-104.056 -3363.38 1190.07
-101.595 -3359.16 1185.11
-103.091 -3361.22 1187.26
-105.238 -3363.81 1190.23
-94.7682 -3363.13 1197.14
-94.3511 -3362.31 1196.08
-96.872 -3363.4 1195.68
-95.3924 -3363.2 1196.49
-97.8788 -3363.37 1194.73
-96.9778 -3363.54 1195.91
-100.344 -3364.17 1194.58
-100.338 -3364.12 1194.26
-101.99 -3364.62 1194.72
-101.709 -3364.59 1195.3
-100.669 -3363.92 1198.81
-100.134 -3363.8 1198.34
-100.992 -3364.29 1195.96
-101.069 -3364.04 1199.21
-104.432 -3366.18 1199.35
-104.627 -3366.35 1199.11
-104.881 -3366.53 1198.81
-103.489 -3365.38 1199.61
-104.243 -3366.12 1199.17
-101.424 -3364.23 1199.35
-101.961 -3364.45 1199.88
-103.141 -3365.32 1199.27
-107.43 -3365.97 1198.28
-107.867 -3365.9 1198.04
-106.194 -3366.48 1198.5
-105.965 -3366.58 1198.49
-105.318 -3366.67 1198.58
-105.904 -3366.61 1198.35
-107.032 -3366.21 1198.29
-110.867 -3364.03 1196.13
-110.792 -3363.85 1195.3
-110.596 -3364.24 1196.66
-109.271 -3365.2 1197.26
-108.3 -3366.06 1197.44
-109.26 -3365.17 1197
-107.772 -3366.28 1197.74
-107.911 -3366.31 1197.54
-110.597 -3363.64 1193.97
-102.18 -3358.95 1184.84
-100.85 -3363.66 1192.91
-98.6447 -3363.25 1193.9
-101.005 -3363.95 1193.27
-103.355 -3364.83 1193.14
-105.116 -3364.44 1191.19
-105.013 -3365.38 1192.44
-105.649 -3365.02 1191.8
-105.478 -3364.27 1190.82
-103.21 -3360.97 1186.83
-105.69 -3364.01 1190.33
-106.011 -3364.96 1191.63
-96.5728 -3363.16 1195.47
-99.3799 -3363.81 1194.26
-99.3666 -3363.72 1194
-102.049 -3364.53 1194.29
-100.966 -3364.18 1193.66
-101.934 -3364.39 1193.92
-102.927 -3365.1 1194.44
-103.039 -3365.31 1195.4
-103.096 -3365.41 1196.5
-101.728 -3364.59 1196.51
-101.057 -3364.26 1197.5
-104.446 -3366.26 1199.06
-104.586 -3366.39 1198.84
-105.149 -3366.67 1198.44
-104.83 -3366.57 1198.56
-104.111 -3366.09 1198.89
-104.343 -3366.25 1198.84
-101.47 -3364.46 1198.18
-102.817 -3365.25 1198.82
-103.95 -3366.03 1198.63
-107.329 -3366.26 1197.96
-106.552 -3366.4 1198.27
-105.605 -3366.65 1198.25
-106.289 -3366.52 1197.98
-105.827 -3366.65 1197.89
-106.814 -3366.29 1197.9
-109.176 -3365.2 1196.45
-109.215 -3365.22 1196.75
-109.045 -3365.18 1196.13
-108.578 -3364.98 1194.79
-107.889 -3366.25 1197.24
-108.333 -3366.04 1197.23
-107.197 -3366.35 1197.58
-107.411 -3366.28 1197.27
-109.815 -3363.82 1193.31
-107.641 -3365.06 1193.11
-103.047 -3359.4 1185.53
-103.737 -3361.06 1187
-102.068 -3364.33 1193.6
-103.09 -3364.97 1193.78
-104.404 -3365.55 1193
-105.149 -3365.6 1192.62
-105.737 -3365.36 1192.21
-105.387 -3363.4 1189.58
-106.226 -3364.74 1190.95
-106.1 -3365.06 1191.54
-105.901 -3365.35 1192.13
-101.919 -3364.3 1193.7
-104.081 -3365.92 1195.78
-103.961 -3365.53 1193.93
-104.275 -3366.27 1197.1
-102.991 -3365.4 1197.57
-104.267 -3366.25 1197.68
-104.476 -3366.36 1198.64
-104.949 -3366.6 1198.28
-105.394 -3366.67 1198
-104.536 -3366.42 1198.44
-104.257 -3366.24 1198.58
-102.832 -3365.3 1198.27
-104.108 -3366.18 1198.37
-103.976 -3366.08 1198.14
-106.142 -3366.55 1197.6
-106.588 -3366.37 1197.51
-105.506 -3366.64 1197.6
-105.829 -3366.55 1197.35
-108.182 -3366.05 1197
-107.768 -3365.99 1196.75
-107.696 -3365.8 1196.33
-107.88 -3365.53 1195.56
-107.401 -3365.34 1194.05
-107.009 -3365.46 1193.07
-107.322 -3366.16 1196.82
-106.809 -3366.31 1197.1
-110.065 -3363.31 1192.67
-107.31 -3365.09 1192.58
-108.193 -3364.28 1192.62
-110.723 -3361.14 1190.1
-109.423 -3360.32 1188.17
-106.532 -3365.45 1192.6
-106.415 -3365.55 1192.19
-106.937 -3359.56 1186.32
-104.706 -3359.63 1185.94
-104.146 -3360.95 1186.92
-105.758 -3363.55 1189.69
-104.528 -3365.66 1193.37
-105.662 -3365.54 1192.54
-105.097 -3365.69 1193.06
-106.25 -3364.94 1190.93
-106.133 -3365.33 1191.57
-106.091 -3365.23 1191.84
-105.887 -3365.55 1192.39
-104.408 -3366.01 1195.5
-104.526 -3366.32 1196.86
-104.638 -3366.41 1197.7
-104.362 -3366.29 1198.03
-105.151 -3366.63 1197.76
-104.823 -3366.52 1198.02
-104.442 -3366.35 1198.24
-106.277 -3366.43 1197.14
-105.558 -3366.55 1197.09
-105.151 -3366.56 1197.28
-106.068 -3366.47 1196.86
-107.188 -3365.98 1196.25
-107.303 -3365.69 1195.4
-107.048 -3365.47 1194.11
-106.916 -3365.49 1193.17
-106.877 -3366.23 1196.63
-106.522 -3366.43 1196.74
-108.665 -3363.43 1191.69
-110.571 -3362.01 1191.21
-106.714 -3365.3 1192.1
-106.12 -3365.75 1192.08
-107.845 -3364.14 1191.93
-108.605 -3360.47 1188.03
-108.749 -3361.15 1188.87
-107.462 -3360 1186.96
-106.471 -3365.55 1192.81
-106.284 -3365.58 1192.47
-106.061 -3365.74 1192.28
-105.804 -3365.89 1192.2
-106.32 -3360.13 1186.78
-104.798 -3360.89 1186.98
-105.93 -3363.56 1189.66
-104.67 -3365.95 1194.9
-105.534 -3365.64 1192.98
-105.771 -3365.62 1192.7
-104.992 -3365.99 1194.84
-106.277 -3365.12 1190.91
-106.175 -3365.57 1191.55
-106.145 -3365.46 1191.82
-106.082 -3365.47 1192.15
-105.951 -3365.64 1192.57
-104.913 -3366.41 1196.67
-104.863 -3366.48 1197.39
-105.309 -3366.48 1196.7
-105.771 -3366.44 1196.48
-106.145 -3366.43 1196.42
-106.44 -3366.43 1196.36
-106.844 -3365.87 1195.38
-106.813 -3366.3 1196.3
-106.652 -3365.59 1194.11
-106.795 -3365.52 1193.28
-107.988 -3363.26 1190.69
-109.053 -3362.3 1190.36
-106.557 -3365.36 1191.84
-106 -3365.81 1192.01
-105.976 -3365.75 1192.1
-107.228 -3364.53 1191.8
-107.534 -3363.8 1190.95
-107.466 -3360.5 1187.5
-107.28 -3362.67 1189.42
-106.732 -3362.59 1188.95
-106.555 -3362.21 1188.56
-106.5 -3365.59 1193.17
-106.138 -3365.66 1192.48
-106.284 -3365.62 1192.86
-106.112 -3365.74 1192.34
-105.918 -3365.87 1192.27
-106.096 -3365.85 1192.23
-105.735 -3365.84 1192.21
-105.457 -3361.06 1187.24
-106.227 -3361.29 1187.65
-106.811 -3360.56 1187.29
-105.965 -3363.37 1189.43
-106.361 -3364.44 1190.34
-105.767 -3365.63 1193.15
-105.281 -3365.98 1194.78
-106.026 -3365.61 1192.87
-106.277 -3365.48 1191.05
-106.182 -3365.72 1191.85
-106.211 -3365.83 1191.61
-106.156 -3365.63 1192.1
-105.441 -3366.1 1195.35
-105.693 -3366.12 1195.42
-106.015 -3366.09 1195.43
-106.42 -3365.99 1195.4
-106.269 -3365.68 1193.97
-106.932 -3363.66 1190.06
-106.709 -3363.62 1189.74
-107.138 -3363.19 1189.77
-106.514 -3365.36 1191.71
-106.028 -3365.83 1191.92
-105.69 -3365.92 1192.12
-105.838 -3365.86 1191.98
-106.96 -3364.6 1191.57
-107.13 -3364.1 1190.87
-106.796 -3363.82 1190.05
-106.184 -3363.72 1189.36
-106.329 -3363.98 1189.68
-106.099 -3363.4 1189.4
-106.334 -3364 1189.83
-106.224 -3365.62 1193.17
-105.939 -3366.01 1192.17
-106.215 -3365.96 1191.91
-105.614 -3365.94 1192.26
-105.541 -3365.91 1192.21
-106.378 -3364.71 1190.36
-105.973 -3365.63 1193.23
-105.564 -3365.71 1193.88
-106.317 -3365.62 1190.98
-106.247 -3366.03 1191.49
-106.259 -3366.14 1191.74
-105.938 -3365.71 1193.89
-106.269 -3363.91 1189.48
-106.323 -3363.99 1189.5
-106.2 -3363.77 1189.27
-106.462 -3365.35 1191.58
-106.044 -3365.86 1191.82
-105.871 -3365.93 1191.88
-105.667 -3365.93 1192
-105.559 -3365.91 1192.09
-105.72 -3366.06 1191.91
-106.789 -3364.65 1191.41
-106.904 -3364.22 1190.72
-106.689 -3363.96 1189.96
-106.338 -3364.08 1189.43
-106.346 -3363.92 1189.34
-106.362 -3364.27 1189.75
-106.392 -3364.94 1190.35
-106.221 -3366.33 1191.89
-105.473 -3365.99 1192.23
-105.371 -3365.98 1192.16
-105.403 -3365.92 1192.22
-106.332 -3365.87 1191.03
-106.284 -3366.29 1191.55
-106.266 -3363.82 1189.11
-106.27 -3363.84 1189.04
-106.358 -3364.29 1189.48
-106.385 -3365.4 1191.48
-106.069 -3366 1191.72
-105.913 -3366.11 1191.78
-105.77 -3366.23 1191.81
-105.581 -3366.18 1191.94
-105.52 -3366.04 1192.04
-105.65 -3366.31 1191.83
-106.685 -3364.66 1191.25
-106.742 -3364.34 1190.66
-106.655 -3364.08 1189.92
-106.443 -3364.16 1189.56
-106.322 -3364.12 1189.17
-106.306 -3363.89 1188.92
-106.385 -3364.84 1190
-106.373 -3364.58 1189.75
-106.408 -3365.34 1190.45
-106.355 -3366.11 1191.05
-106.215 -3366.48 1191.8
-105.353 -3366.06 1192.21
-105.222 -3366.11 1192.17
-105.419 -3366.18 1192.02
-105.306 -3366.16 1192.09
-106.319 -3366.5 1191.48
-106.369 -3364.59 1189.56
-106.351 -3364.19 1189.17
-106.391 -3365.03 1189.97
-106.309 -3365.49 1191.39
-106.068 -3366.13 1191.63
-105.966 -3366.27 1191.68
-105.86 -3366.38 1191.68
-105.754 -3366.41 1191.72
-105.497 -3366.35 1191.93
-105.63 -3366.46 1191.76
-106.609 -3364.66 1191.1
-106.641 -3364.33 1190.39
-106.591 -3364.23 1189.79
-106.408 -3364.29 1189.4
-106.306 -3363.85 1188.65
-106.351 -3364.06 1188.89
-106.36 -3364.52 1189.24
-106.416 -3365.56 1190.41
-106.386 -3366.3 1191.02
-106.242 -3366.64 1191.7
-105.213 -3366.13 1192.19
-105.791 -3366.45 1191.93
-105.235 -3366.23 1192.09
-105.149 -3366.2 1192.15
-105.331 -3366.28 1192.01
-106.357 -3366.74 1191.43
-106.399 -3365.29 1189.96
-106.376 -3364.8 1189.57
-106.418 -3365.67 1190.33
-106.259 -3365.61 1191.3
-106.072 -3366.21 1191.48
-106.058 -3366.22 1191.55
-106.508 -3364.8 1191.11
-106 -3366.4 1191.56
-105.918 -3366.47 1191.55
-105.822 -3366.51 1191.59
-105.725 -3366.57 1191.6
-105.72 -3366.49 1191.69
-105.493 -3366.5 1191.8
-105.393 -3366.39 1191.91
-105.595 -3366.6 1191.68
-106.565 -3364.45 1190.41
-106.532 -3364.37 1189.85
-106.452 -3364.41 1189.42
-106.377 -3364.24 1189.03
-106.158 -3363.64 1188.23
-106.458 -3364.7 1189.14
-106.181 -3363.78 1188.43
-106.397 -3365.32 1189.83
-106.434 -3365.37 1189.68
-106.409 -3366.51 1191.02
-106.234 -3366.79 1191.65
-105.625 -3366.49 1191.91
-105.107 -3366.25 1192.17
-105.277 -3366.38 1191.98
-105.192 -3366.31 1192.07
-105.065 -3366.25 1192.19
-106.241 -3366.89 1191.55
-106.43 -3366.01 1190.44
-106.428 -3366.01 1190.32
-106.428 -3366.75 1191.05
-106.228 -3365.7 1191.22
-106.082 -3366.22 1191.39
-106.443 -3364.9 1190.96
-106.058 -3366.34 1191.37
-106.037 -3366.39 1191.45
-106.5 -3364.59 1190.53
-105.998 -3366.48 1191.4
-105.896 -3366.54 1191.42
-105.802 -3366.58 1191.45
-105.673 -3366.64 1191.51
-105.453 -3366.64 1191.74
-105.364 -3366.52 1191.85
-105.569 -3366.67 1191.58
-106.459 -3364.53 1189.93
-106.45 -3364.53 1189.5
-106.395 -3364.39 1189.09
-106.273 -3364.05 1188.64
-105.886 -3363.41 1187.74
-106.378 -3364.19 1188.4
-106.61 -3365.07 1189.15
-106.573 -3365.51 1189.54
-106.44 -3366.12 1190.24
-106.558 -3366.12 1190.01
-105.443 -3366.67 1191.8
-105.026 -3366.37 1192.16
-105.26 -3366.53 1191.9
-105.195 -3366.42 1192
-105.111 -3366.36 1192.08
-104.994 -3366.32 1192.22
-106.288 -3367.04 1191.47
-105.744 -3366.82 1191.68
-106.329 -3366.94 1191.17
-106.375 -3367.12 1191.15
-106.452 -3366.61 1190.63
-106.205 -3365.77 1191.15
-106.098 -3366.21 1191.27
-106.39 -3364.98 1190.75
-106.074 -3366.33 1191.26
-106.435 -3364.7 1190.36
-106.046 -3366.45 1191.27
-105.986 -3366.54 1191.27
-105.991 -3366.68 1191.19
-105.959 -3366.76 1191.21
-105.923 -3366.82 1191.24
-105.642 -3366.74 1191.39
-105.398 -3366.73 1191.68
-105.339 -3366.65 1191.79
-105.49 -3366.7 1191.63
-105.554 -3366.77 1191.45
-106.393 -3364.75 1189.83
-106.412 -3364.68 1189.55
-106.42 -3364.57 1189.18
-106.339 -3364.29 1188.79
-106.042 -3363.87 1188.22
-105.782 -3363.5 1187.5
-106.711 -3364.89 1188.64
-106.718 -3365.11 1189.01
-106.709 -3365.65 1189.41
-106.673 -3366.12 1189.82
-106.455 -3367.32 1191
-106.547 -3366.7 1190.45
-106.689 -3366.72 1190.23
-105.406 -3366.99 1191.57
-104.949 -3366.46 1192.19
-105.241 -3366.64 1191.84
-105.153 -3366.59 1191.92
-105.146 -3366.5 1191.98
-105.046 -3366.46 1192.08
-104.928 -3366.4 1192.24
-105.732 -3367.16 1191.44
-106.288 -3367.38 1191.15
-105.708 -3367.43 1191.21
-106.187 -3365.83 1191.1
-106.112 -3366.2 1191.17
-106.332 -3365.09 1190.58
-106.086 -3366.33 1191.15
-106.384 -3364.87 1190.22
-106.064 -3366.44 1191.14
-106.05 -3366.55 1191.14
-106.112 -3366.76 1191.11
-106.318 -3367.11 1191
-106.356 -3367.2 1191.02
-105.856 -3366.92 1191.15
-106.283 -3367.11 1191.11
-106.36 -3367.22 1191.05
-105.837 -3367 1191.17
-105.309 -3366.76 1191.73
-105.393 -3366.82 1191.56
-105.475 -3366.8 1191.5
-105.844 -3367.07 1191.18
-106.444 -3364.81 1189.41
-106.379 -3364.94 1189.67
-106.41 -3364.61 1189.07
-106.283 -3364.33 1188.65
-105.981 -3363.98 1188.12
-105.659 -3363.56 1187.25
-106.782 -3365.07 1188.45
-106.851 -3365.91 1189.37
-106.96 -3365.76 1189.08
-106.806 -3366.51 1189.88
-106.636 -3367.6 1191.15
-106.318 -3367.38 1191.14
-105.644 -3367.29 1191.18
-106.074 -3367.42 1191.14
-106.668 -3367.21 1190.62
-106.873 -3367.41 1190.52
-105.37 -3367.27 1191.39
-104.882 -3366.55 1192.2
-105.213 -3366.75 1191.79
-105.152 -3366.68 1191.87
-105.062 -3366.6 1191.98
-104.97 -3366.53 1192.12
-104.874 -3366.46 1192.26
-105.532 -3367.49 1191.2
-105.536 -3367.38 1191.16
-105.212 -3367.26 1191.44
-105.263 -3367.16 1191.45
-105.366 -3367.22 1191.33
-106.172 -3365.9 1191.05
-106.107 -3366.24 1191.09
-106.281 -3365.24 1190.47
-106.079 -3366.38 1191.07
-106.338 -3365.04 1190.09
-106.101 -3366.6 1191.03
-106.154 -3366.77 1191.03
-106.317 -3367.1 1190.96
-106.486 -3367.43 1190.88
-106.516 -3367.47 1190.9
-106.486 -3367.46 1190.97
-106.463 -3367.43 1191.02
-106.359 -3367.24 1191.1
-105.318 -3366.84 1191.61
-105.246 -3366.87 1191.66
-105.517 -3367 1191.32
-105.421 -3367.02 1191.4
-105.688 -3367.13 1191.15
-106.398 -3367.32 1191.11
-106.188 -3367.26 1191.14
-106.483 -3364.87 1189.26
-106.407 -3365.06 1189.62
-106.364 -3364.56 1188.85
-105.953 -3364.17 1188.07
-105.635 -3363.7 1187.12
-106.916 -3365.41 1188.39
-107.11 -3366.22 1189.17
-106.941 -3367.04 1190.04
-107.005 -3366.53 1189.57
-106.856 -3367.79 1191.31
-106.505 -3367.54 1191.11
-106.48 -3367.48 1191.08
-105.666 -3367.21 1191.17
-105.348 -3367.08 1191.43
-107.333 -3367.9 1190.81
-107.132 -3368.01 1191.59
-105.341 -3367.53 1191.21
-105.162 -3367.45 1191.38
-104.756 -3366.51 1192.36
-104.786 -3366.47 1192.35
-105.169 -3366.9 1191.71
-105.085 -3366.72 1191.89
-104.976 -3366.66 1192.03
-104.872 -3366.55 1192.21
-105.213 -3367.42 1191.34
-105.084 -3366.91 1191.77
-105.12 -3367.25 1191.54
-105.014 -3366.92 1191.84
-106.174 -3365.95 1190.95
-106.094 -3366.31 1191
-106.073 -3366.41 1191
-106.305 -3365.39 1190.36
-106.308 -3365.22 1190.04
-106.195 -3366.81 1190.94
-106.314 -3367.08 1190.92
-106.477 -3367.4 1190.84
-106.556 -3367.56 1190.86
-106.561 -3367.59 1190.91
-106.567 -3367.62 1190.97
-106.543 -3367.57 1190.97
-106.536 -3367.57 1191.01
-106.502 -3367.51 1191.04
-106.537 -3367.59 1191.06
-106.52 -3365.08 1189.31
-106.43 -3364.77 1189
-106.41 -3365.18 1189.67
-106.161 -3364.47 1188.43
-105.88 -3364.13 1186.99
-105.748 -3363.94 1187.02
-107.111 -3365.84 1188.44
-107.27 -3366.58 1189.16
-107.179 -3367.01 1189.63
-107.143 -3367.49 1190.14
-106.53 -3367.59 1191.11
-107.401 -3368.24 1191.87
-108.006 -3368.37 1191.25
-106.553 -3367.66 1191.23
-104.937 -3367.12 1191.81
-105.116 -3367.37 1191.47
-104.766 -3366.57 1192.31
-104.866 -3366.66 1192.15
-104.873 -3366.93 1191.99
-104.929 -3366.91 1191.93
-106.177 -3366.01 1190.86
-106.083 -3366.4 1190.91
-106.142 -3366.63 1190.89
-106.279 -3366.97 1190.86
-106.351 -3365.54 1190.24
-106.353 -3365.37 1189.95
-106.432 -3367.29 1190.81
-106.555 -3367.54 1190.79
-106.594 -3367.65 1190.93
-106.584 -3367.61 1190.86
-106.594 -3367.67 1190.98
-106.566 -3367.63 1191.02
-106.593 -3367.68 1191.03
-106.563 -3367.64 1191.08
-106.489 -3365.26 1189.55
-106.431 -3364.82 1188.91
-106.531 -3365.09 1189.15
-106.181 -3364.6 1188.37
-105.71 -3363.84 1186.86
-106.746 -3365.44 1187.49
-107.333 -3366.27 1188.44
-107.437 -3366.94 1189.15
-107.376 -3367.44 1189.66
-107.55 -3367.91 1190.34
-107.661 -3368.45 1192.15
-106.57 -3367.75 1191.43
-108.577 -3368.74 1191.57
-104.864 -3367.12 1191.88
-105.036 -3367.35 1191.57
-104.661 -3366.58 1192.41
-104.791 -3366.92 1192.08
-106.181 -3366.09 1190.77
-106.177 -3366.66 1190.8
-106.381 -3367.14 1190.74
-106.439 -3367.29 1190.76
-106.395 -3365.69 1190.13
-106.423 -3365.48 1189.82
-106.545 -3367.48 1190.72
-106.592 -3367.62 1190.82
-106.619 -3367.69 1190.9
-106.637 -3367.74 1190.97
-106.62 -3367.72 1190.99
-106.618 -3367.74 1191.09
-106.586 -3367.71 1191.17
-106.606 -3367.8 1191.37
-106.569 -3365.35 1189.42
-106.455 -3364.85 1188.65
-106.593 -3365.22 1189.06
-105.861 -3363.94 1186.7
-107.236 -3366.19 1187.8
-107.723 -3367.18 1188.84
-107.591 -3367.3 1189.16
-107.707 -3367.85 1189.8
-108.266 -3368.42 1190.8
-107.865 -3368.64 1192.4
-106.586 -3367.83 1191.59
-109.226 -3369.19 1192.04
-104.793 -3367.14 1191.93
-104.724 -3366.92 1192.15
-106.198 -3366.2 1190.66
-106.491 -3367.33 1190.63
-106.535 -3367.45 1190.65
-106.563 -3367.52 1190.69
-106.473 -3365.79 1189.91
-106.488 -3365.59 1189.74
-106.593 -3367.6 1190.76
-106.629 -3367.7 1190.86
-106.652 -3367.76 1190.92
-106.655 -3367.84 1191.19
-106.638 -3367.8 1191.14
-106.663 -3367.8 1190.99
-106.625 -3367.87 1191.49
-106.615 -3367.96 1191.88
-106.6 -3367.91 1191.8
-106.606 -3365.52 1189.43
-106.526 -3364.91 1188.49
-106.016 -3364.11 1186.82
-106.679 -3365.35 1188.95
-107.996 -3367.57 1188.63
-106.949 -3365.51 1187.01
-107.97 -3367.77 1189.05
-108.037 -3368.08 1189.82
-108.397 -3368.31 1189.9
-108.777 -3368.73 1190.98
-109.589 -3369.41 1192.14
-108.041 -3368.8 1192.63
-106.252 -3366.37 1190.56
-106.606 -3367.54 1190.61
-106.59 -3367.57 1190.67
-106.515 -3367.29 1190.58
-106.609 -3367.58 1190.7
-106.484 -3365.93 1189.91
-106.576 -3365.73 1189.58
-106.63 -3367.68 1190.81
-106.669 -3367.78 1190.88
-106.683 -3367.83 1190.97
-106.676 -3367.9 1191.29
-106.661 -3367.98 1191.65
-106.643 -3367.93 1191.61
-106.631 -3368.02 1192
-108.402 -3369.05 1192.86
-106.672 -3365.55 1189.24
-106.634 -3364.98 1188.28
-106.219 -3364.23 1186.67
-106.753 -3365.5 1188.91
-108.013 -3367.45 1188.29
-108.865 -3368.59 1190.01
-109.224 -3368.79 1190.04
-106.753 -3365.04 1187.08
-109.259 -3369.03 1191.16
-109.532 -3369.17 1191.1
-109.995 -3369.65 1192.27
-106.325 -3366.47 1190.43
-106.622 -3367.62 1190.69
-106.606 -3367.39 1190.53
-106.643 -3367.54 1190.6
-106.652 -3367.72 1190.8
-106.63 -3367.66 1190.74
-106.547 -3365.94 1189.72
-106.651 -3365.73 1189.35
-106.688 -3367.79 1190.84
-106.709 -3367.86 1190.91
-106.706 -3367.89 1191.04
-106.694 -3367.96 1191.39
-106.677 -3368.06 1191.86
-106.648 -3368.09 1192.15
-107.161 -3368.47 1192.75
-110.84 -3370.38 1193.49
-106.828 -3365.3 1188.42
-107.116 -3365.58 1187.76
-106.753 -3365.68 1189.03
-107.82 -3367.02 1188.15
-109.075 -3368.66 1189.53
-108.292 -3368.09 1188.89
-110.131 -3369.54 1191.38
-110.588 -3369.81 1191.47
-110.56 -3369.99 1192.43
-106.415 -3366.54 1190.29
-106.652 -3367.66 1190.72
-106.661 -3367.42 1190.5
-106.672 -3367.57 1190.63
-106.683 -3367.69 1190.74
-106.609 -3365.96 1189.53
-106.75 -3367.84 1190.83
-106.716 -3367.71 1190.75
-106.791 -3367.97 1191.1
-106.713 -3368.05 1191.59
-106.696 -3368.14 1192.01
-106.686 -3368.27 1192.56
-106.666 -3368.2 1192.41
-107.415 -3368.69 1193.03
-111.442 -3370.79 1193.88
-106.989 -3365.82 1188.67
-107.368 -3366.14 1188.26
-107.895 -3367.3 1188.52
-106.757 -3365.89 1189.15
-109.699 -3369.27 1190.24
-108.574 -3368.46 1189.4
-108.192 -3368.07 1189.1
-111.227 -3370.42 1192.79
-111.965 -3370.91 1193.23
-111.716 -3370.64 1192.52
-106.487 -3366.6 1190.18
-106.649 -3366.76 1190.06
-106.691 -3367.48 1190.55
-106.705 -3367.6 1190.65
-106.991 -3367.84 1190.51
-107.167 -3368.02 1190.66
-106.861 -3367.66 1190.52
-106.979 -3368.1 1191.39
-106.716 -3368.21 1192.15
-106.705 -3368.36 1192.77
-107.555 -3368.92 1193.46
-107.488 -3368.81 1193.25
-112.029 -3371.19 1194.26
-107.196 -3366.24 1188.78
-107.547 -3366.68 1188.58
-107.928 -3367.64 1188.88
-106.903 -3366.21 1189.26
-110.342 -3369.89 1190.99
-108.433 -3368.32 1189.48
-108.941 -3368.98 1189.96
-108.142 -3368.11 1189.35
-112.546 -3371.55 1194.62
-113.074 -3371.67 1194.04
-112.543 -3371.28 1193.1
-106.819 -3366.94 1190
-106.712 -3367.41 1190.47
-106.752 -3367.52 1190.53
-107.336 -3367.9 1190.08
-107.534 -3368.08 1190.28
-107.569 -3368.19 1190.72
-107.398 -3367.35 1189.49
-107.695 -3367.84 1189.51
-107.19 -3368.22 1191.62
-106.726 -3368.35 1192.59
-106.723 -3368.51 1193.17
-107.645 -3369.04 1193.68
-107.108 -3367.08 1189.7
-107.882 -3367.77 1189.12
-110.021 -3370.11 1190.96
-108.381 -3368.31 1189.68
-108.81 -3368.83 1190.06
-109.327 -3369.54 1190.54
-108.197 -3368.29 1189.94
-107.95 -3368.11 1189.71
-112.822 -3371.81 1195
-113.612 -3372.29 1195.33
-113.68 -3372.18 1194.3
-110.503 -3370.7 1191.6
-107.897 -3368.28 1190.41
-108.005 -3368.33 1190.77
-107.538 -3368.32 1191.69
-107.315 -3368.44 1192.34
-106.907 -3368.62 1193.3
-107.755 -3369.25 1194.1
-107.932 -3369.28 1193.98
-108.466 -3368.51 1190.22
-108.732 -3368.81 1190.62
-109.651 -3369.99 1190.96
-109.019 -3369.14 1190.98
-114.364 -3372.81 1195.3
-111.494 -3371.28 1195.15
-111.179 -3371.37 1192.46
-108.792 -3369 1191.55
-107.597 -3369.14 1193.78
-108.913 -3369.2 1192.06
-111.37 -3371.34 1193.21
-115.064 -3373.14 1196.07
-114.602 -3372.89 1196.33
-111.453 -3371.05 1193.86
-111.414 -3371.29 1195.32
-108.074 -3369.47 1194.42
-113.232 -3371.62 1195.34
-114.939 -3373.09 1196.51
-114.852 -3373.63 1196.98
-114.445 -3372.98 1196.77
-113.247 -3372.08 1196.09
-113.458 -3372.16 1196.9
-110.053 -3369.98 1194.59
-108.091 -3369.35 1194.82
-109.696 -3369.63 1195.15
-111.545 -3370.33 1195.29
-112.888 -3371.6 1196.36
-114.928 -3373.27 1196.94
-113.808 -3372.55 1197.21
-114.1 -3373.62 1197.41
-115.799 -3374.25 1197.37
-113.722 -3372.85 1197.14
-113.251 -3372.31 1197.14
-112.702 -3371.68 1196.19
-112.43 -3371.41 1196.95
-111.939 -3371.23 1197.32
-112.398 -3371.67 1197.3
-108.106 -3369.24 1195.02
-109.912 -3369.62 1195.5
-110.475 -3369.75 1195.94
-110.916 -3369.94 1195.72
-110.847 -3369.97 1196.13
-112.057 -3370.8 1195.98
-113.001 -3371.72 1196.75
-115.121 -3373.47 1197.15
-114.148 -3372.92 1197.71
-115.464 -3373.75 1197.45
-113.726 -3373.88 1197.89
-112.972 -3372.75 1197.51
-115.605 -3374.44 1197.83
-112.582 -3372.23 1197.51
-111.922 -3371.63 1197.57
-111.999 -3371.2 1196.17
-111.631 -3370.88 1196.85
-111.273 -3370.68 1197.34
-110.739 -3370.53 1197.67
-111.285 -3371.04 1197.63
-107.986 -3369.12 1195.19
-109.681 -3369.49 1195.74
-109.983 -3369.54 1196.21
-110.226 -3369.62 1196.54
-109.739 -3369.42 1196.77
-109.816 -3369.5 1197.25
-111.259 -3370.5 1196.42
-110.226 -3369.9 1196.94
-113.648 -3372.41 1197.52
-112.229 -3371.31 1197.08
-115.802 -3374.03 1197.74
-114.323 -3373.07 1198.07
-112.745 -3373.74 1198.31
-114.325 -3374.42 1198.32
-112.399 -3372.72 1197.82
-111.849 -3372.06 1197.85
-115.765 -3374.76 1198.31
-111.009 -3371.36 1197.99
-110.661 -3370.89 1197.94
-111.304 -3370.71 1196.21
-110.724 -3370.28 1196.83
-110.53 -3370.17 1197.28
-110.181 -3370.01 1197.69
-109.474 -3369.74 1198
-110.086 -3370.31 1197.96
-107.908 -3368.98 1195.37
-109.443 -3369.34 1196.12
-109.457 -3369.32 1196.52
-109.263 -3369.22 1197
-109.41 -3369.26 1197.4
-108.898 -3369.04 1197.62
-108.841 -3369.04 1198.27
-109.113 -3369.38 1198.13
-110.599 -3370.42 1197.18
-109.626 -3369.82 1197.71
-114.016 -3372.91 1198.2
-112.903 -3372.06 1198.02
-111.612 -3371.19 1197.54
-116.095 -3374.27 1198.03
-114.657 -3373.41 1198.48
-112.407 -3374.16 1198.89
-114.1 -3374.62 1198.75
-111.609 -3372.63 1198.22
-111.467 -3372.17 1198.11
-110.675 -3371.47 1198.27
-115.536 -3375.01 1198.83
-116.55 -3374.71 1198.38
-109.581 -3370.7 1198.51
-109.66 -3370.52 1198.34
-109.31 -3370.04 1198.29
-108.913 -3369.4 1195.78
-110.129 -3369.88 1196.68
-109.286 -3369.34 1197.08
-109.63 -3369.58 1197.36
-109.21 -3369.36 1197.9
-108.309 -3369 1198.3
-108.922 -3369.58 1198.26
-109.092 -3369.18 1196.31
-108.836 -3369.04 1197.03
-108.583 -3368.95 1196.98
-108.584 -3368.92 1197.63
-108.674 -3368.93 1198.13
-108.144 -3368.67 1198.35
-108.252 -3369.09 1198.75
-108.202 -3368.78 1198.66
-108.362 -3369.27 1198.79
-108.74 -3369.5 1198.66
-110.698 -3370.86 1198
-109.557 -3370.05 1198
-113.059 -3372.64 1198.79
-114.1 -3373.31 1198.8
-111.985 -3371.72 1198.39
-114.633 -3373.91 1199.24
-116.379 -3374.77 1198.8
-111.84 -3374.42 1199.47
-113.607 -3374.76 1199.2
-111.156 -3372.93 1198.67
-110.684 -3371.9 1198.44
-110.61 -3372.2 1198.6
-109.375 -3370.84 1198.72
-109.929 -3371.36 1198.64
-114.761 -3375.13 1199.36
-116.256 -3375.39 1199.2
-108.375 -3369.9 1198.8
-108.358 -3370.12 1198.94
-108.419 -3369.71 1198.66
-108.146 -3369.34 1198.61
-108.768 -3369.25 1195.91
-109.25 -3369.3 1196.64
-108.425 -3368.78 1197.04
-108.446 -3368.81 1197.48
-108.631 -3368.94 1197.78
-107.983 -3368.58 1198.23
-107.814 -3368.89 1198.6
-108.032 -3369.06 1198.51
-107.819 -3368.7 1198.47
-108.524 -3368.94 1196.68
-108.141 -3368.72 1197.84
-108.012 -3368.67 1197.68
-107.975 -3368.68 1197.37
-107.697 -3369.06 1198.74
-107.616 -3369.2 1198.88
-108.23 -3369.54 1198.87
-107.55 -3369.34 1199.01
-108.727 -3369.83 1198.82
-108.143 -3369.68 1199
-111.192 -3371.5 1198.71
-109.627 -3370.42 1198.6
-112.242 -3372.43 1199.26
-113.731 -3373.51 1199.42
-114.657 -3374.56 1200.05
-115.531 -3374.74 1199.64
-116.974 -3375.25 1199.13
-111.088 -3374.5 1199.96
-112.946 -3374.9 1199.7
-110.434 -3372.88 1199.08
-109.921 -3372.07 1198.93
-109.733 -3371.6 1198.84
-108.363 -3370.36 1199.08
-108.885 -3370.94 1199.05
-114.129 -3375.27 1199.86
-115.892 -3375.62 1199.69
-117.534 -3375.95 1199.51
-107.446 -3369.47 1199.16
-107.379 -3369.62 1199.3
-108.387 -3368.99 1195.97
-108.279 -3368.86 1196.15
-108.283 -3368.67 1196.6
-107.592 -3368.19 1197.04
-107.666 -3368.25 1197.46
-107.7 -3368.3 1198.04
-107.859 -3368.64 1197.11
-107.679 -3368.41 1197.76
-107.64 -3368.41 1197.49
-108.578 -3370.08 1199.11
-108.003 -3369.79 1199.16
-110.632 -3371.59 1199.32
-109.915 -3370.89 1199.09
-112.152 -3372.91 1199.9
-113.549 -3373.91 1200.06
-113.995 -3374.75 1200.72
-115.781 -3375.49 1200.44
-114.975 -3375.49 1200.89
-116.209 -3375.38 1199.98
-117.181 -3375.63 1199.53
-110.395 -3374.58 1200.44
-112.204 -3375 1200.19
-109.753 -3372.87 1199.48
-109.222 -3371.95 1199.27
-109.009 -3371.41 1199.17
-107.985 -3370.37 1199.32
-107.242 -3369.75 1199.46
-108.043 -3370.75 1199.44
-113.446 -3375.39 1200.34
-116.475 -3376.13 1200.17
-117.766 -3376.28 1199.91
-107.913 -3368.64 1196.24
-107.68 -3368.47 1196.45
-107.379 -3367.93 1196.72
-107.297 -3367.6 1196.97
-107.375 -3367.61 1197.48
-107.594 -3368.05 1197.94
-107.596 -3368.38 1197.24
-107.637 -3368.22 1197.72
-107.608 -3368.24 1197.46
-107.728 -3369.87 1199.36
-108.072 -3370.17 1199.37
-108.951 -3370.65 1199.31
-110.458 -3371.89 1199.66
-109.016 -3371.06 1199.53
-112.223 -3373.54 1200.59
-113.059 -3374.94 1201.24
-113.675 -3375.46 1201.33
-116.198 -3376.2 1200.95
-116.702 -3376.05 1200.5
-115.273 -3376.17 1201.25
-117.42 -3375.97 1199.83
-109.916 -3374.87 1200.99
-111.666 -3375.16 1200.67
-109.124 -3373.26 1200.15
-108.769 -3372.1 1199.58
-108.376 -3371.29 1199.47
-108.188 -3371.5 1199.66
-107.173 -3369.95 1199.62
-107.482 -3370.83 1199.78
-107.173 -3370.19 1199.74
-113.699 -3375.83 1200.86
-115.471 -3376.12 1200.56
-117.452 -3376.86 1200.9
-117.618 -3376.63 1200.57
-117.546 -3376.33 1200.23
-107.428 -3368.12 1196.77
-107.541 -3368.08 1197.2
-107.549 -3367.92 1197.39
-107.398 -3367.57 1197.57
-107.627 -3368.02 1197.95
-107.616 -3368.09 1197.63
-108.188 -3370.49 1199.49
-109.487 -3371.68 1199.81
-108.282 -3370.87 1199.67
-111.363 -3373.6 1200.93
-112.294 -3375.32 1201.72
-114.137 -3376.06 1201.56
-112.623 -3375.75 1201.85
-116.228 -3376.73 1201.22
-108.574 -3373.83 1200.9
-109.967 -3375.21 1201.45
-111.597 -3375.41 1201.11
-108.078 -3372.19 1200.04
-107.867 -3371.67 1199.9
-107.254 -3371.1 1200.01
-107.162 -3370.39 1199.87
-106.969 -3370.61 1200.05
-114.342 -3376.39 1201.52
-107.54 -3367.7 1197.66
-107.406 -3367.46 1197.41
-107.6 -3367.89 1197.82
-107.4 -3367.57 1197.72
-108.62 -3371.46 1199.91
-107.906 -3370.96 1199.88
-111.447 -3374.84 1201.51
-109.143 -3372.19 1200.38
-111.265 -3375.58 1202.04
-112.362 -3376.02 1201.81
-107.252 -3371.93 1200.37
-107.728 -3373.52 1201.19
-108.732 -3374.99 1201.75
-110.495 -3375.7 1202.1
-107.098 -3371.44 1200.24
-106.654 -3370.89 1200.3
-107.985 -3371.35 1200.17
-110.268 -3374.72 1201.47
-108.364 -3372.03 1200.55
-109.89 -3375.56 1201.97
-106.766 -3372.08 1200.75
-106.869 -3371.25 1200.49
-106.972 -3371.55 1200.71
-107.193 -3373.64 1201.61
-108.763 -3375.39 1202.3
-108.477 -3373.37 1201.17
-108.203 -3374.43 1201.83
-106.988 -3372.31 1201.25
-107.043 -3371.86 1201.01
-106.329 -3373.15 1201.66
-107.476 -3374.82 1202.32
-107.499 -3373.8 1201.71
-106.026 -3372.27 1201.31
-106.342 -3374.39 1202.17
-103.681 -3372.1 1201.22
-105.11 -3371.42 1201.07
-105.041 -3371.2 1201.11
-106.36 -3372.73 1201.46
-105.478 -3374.22 1202.06
-102.409 -3372.24 1201.22
-102.99 -3371.33 1201.01
-100.268 -3371.23 1200.93
-104.662 -3371.11 1201.05
-104.768 -3370.89 1201.09
-104.81 -3371.16 1201.14
-104.259 -3370.58 1201.12
-105.858 -3372.82 1201.49
-104.484 -3373.83 1201.83
-100.311 -3371.79 1201.04
-101.335 -3370.91 1200.94
-100.772 -3371.09 1200.93
-99.82 -3370.46 1200.89
-98.5902 -3370.52 1201.09
-98.4684 -3371 1201.07
-104.588 -3370.87 1201.04
-101.852 -3370.75 1200.94
-104.382 -3370.53 1201.09
-104.44 -3370.5 1201.07
-104.49 -3371.04 1201.17
-103.745 -3370.33 1201.2
-102.368 -3369.67 1201.43
-102.599 -3369.61 1201.39
-105.19 -3372.75 1201.48
-99.3942 -3371.81 1201.03
-103.793 -3373.47 1201.6
-100.725 -3370.14 1200.84
-98.4549 -3369.99 1201.16
-99.5324 -3369.8 1200.99
-98.8246 -3369.17 1201.48
-98.8834 -3368.77 1201.47
-98.9643 -3369.3 1201.45
-104.399 -3370.62 1201.02
-102.12 -3370.53 1200.94
-104.395 -3370.39 1201.05
-102.76 -3369.6 1201.38
-102.69 -3369.45 1201.38
-104.376 -3371.31 1201.23
-103.61 -3370.5 1201.2
-102.098 -3369.8 1201.47
-100.876 -3368.52 1201.5
-100.817 -3368.32 1201.52
-100.968 -3368.3 1201.5
-101.16 -3368.37 1201.46
-104.694 -3372.69 1201.42
-99.7413 -3371.63 1201.05
-98.5375 -3370.39 1201.2
-103.771 -3372.52 1201.34
-101.295 -3370.13 1200.87
-101.275 -3369.75 1200.83
-100.445 -3369.5 1200.86
-98.698 -3369.55 1201.12
-99.1206 -3367.81 1201.41
-98.9571 -3368.35 1201.43
-99.5041 -3369.27 1201.03
-100.24 -3367.85 1201.62
-100.239 -3368.1 1201.63
-100.218 -3367.54 1201.58
-99.1901 -3369.07 1201.42
-100.238 -3368.36 1201.59
-100.464 -3368.26 1201.59
-104.291 -3370.41 1201
-102.539 -3370.41 1200.95
-103.256 -3369.69 1201.29
-101.83 -3370.03 1200.88
-101.287 -3368.39 1201.44
-101.421 -3368.33 1201.41
-102.237 -3370.08 1201.43
-103.406 -3370.8 1201.21
-100.79 -3368.59 1201.51
-100.494 -3367.99 1201.62
-100.733 -3367.96 1201.57
-100.878 -3367.93 1201.52
-100.349 -3371.05 1201.17
-99.5207 -3370.16 1201.16
-99.0033 -3369.66 1201.26
-99.4488 -3368.98 1201.35
-102.97 -3372.33 1201.18
-101.878 -3369.57 1200.84
-101.234 -3369.18 1200.79
-100.139 -3369.02 1200.95
-99.2014 -3369.11 1201.03
-99.2169 -3367.41 1201.37
-100.197 -3367.15 1201.53
-100.043 -3368.72 1200.92
-100.448 -3367.72 1201.59
-100.488 -3367.47 1201.54
-100.457 -3368.46 1201.55
-100.195 -3368.55 1201.46
-103.643 -3369.88 1201.09
-103.11 -3370.21 1200.96
-103.806 -3369.91 1201.19
-102.352 -3369.95 1200.9
-102.293 -3369 1201.39
-101.582 -3368.22 1201.29
-101.054 -3367.96 1201.44
-101.899 -3370.36 1201.39
-100.79 -3368.78 1201.5
-100.731 -3367.66 1201.47
-102.4 -3371.77 1201.08
-100.624 -3369.51 1201.38
-100.015 -3369.12 1201.28
-99.8304 -3368.95 1201.28
-99.7188 -3368.88 1201.27
-102.559 -3369.53 1200.87
-101.962 -3369.08 1200.79
-101.546 -3368.62 1200.76
-100.703 -3368.72 1200.88
-99.4124 -3368.57 1200.99
-99.358 -3366.84 1201.35
-100.194 -3366.76 1201.48
-100.453 -3367.24 1201.49
-100.891 -3368.37 1200.84
-100.583 -3368.24 1200.83
-99.906 -3368.24 1200.9
-100.364 -3368.65 1201.44
-103.795 -3369.72 1201.04
-102.351 -3368.86 1201.28
-102.999 -3369.24 1201.37
-103.126 -3369.32 1200.87
-101.695 -3368.09 1201.17
-100.985 -3367.83 1201.39
-100.653 -3367.42 1201.43
-102.585 -3368.96 1200.81
-102.319 -3368.5 1200.75
-101.648 -3368.17 1200.76
-99.5427 -3366.25 1201.33
-100.532 -3367.08 1201.43
-100.313 -3366.8 1201.46
-101.325 -3368 1200.76
-100.432 -3367.88 1200.82
-101.105 -3367.83 1200.75
-99.994 -3366.12 1201.25
-99.7466 -3366.09 1201.3
-103.84 -3369.47 1201.02
-102.186 -3368.37 1201.03
-102.845 -3368.96 1201.23
-103.257 -3368.86 1200.81
-102.121 -3368.03 1200.93
-101.144 -3367.8 1201.29
-100.813 -3367.52 1201.37
-102.961 -3368.38 1200.71
-102.333 -3367.92 1200.74
-101.93 -3367.68 1200.77
-100.618 -3366.94 1201.38
-100.812 -3367.34 1201.35
-100.466 -3366.78 1201.43
-101.723 -3367.47 1200.78
-101.101 -3367.56 1200.71
-100.649 -3367.02 1200.83
-101.608 -3367.25 1200.76
-100.057 -3365.75 1201.23
-100.445 -3366.64 1201.42
-103.955 -3369.35 1200.98
-102.452 -3368.3 1200.91
-103.036 -3368.96 1201.18
-103.514 -3368.75 1200.65
-101.285 -3367.68 1201.17
-103.512 -3368.5 1200.5
-102.756 -3368.05 1200.65
-100.961 -3367.29 1201.27
-100.743 -3366.89 1201.33
-100.66 -3366.67 1201.35
-101.339 -3366.92 1200.87
-101.042 -3366.74 1200.75
-100.139 -3365.68 1201.19
-100.537 -3366.52 1201.39
-104.061 -3369.23 1200.96
-102.908 -3368.71 1201
-102.981 -3368.03 1200.53
-104.149 -3369.13 1200.95
-103.737 -3368.42 1200.32
-101.182 -3366.57 1201
-100.336 -3365.79 1201.13
-103.075 -3368.71 1200.94
-103.262 -3368.1 1200.43
-104.171 -3369.01 1200.92
-106.342 -3374.39 1202.17
-106.026 -3372.27 1201.31
