-107.384 -3349.15 687.289
-107.519 -3349.42 687.884
-108.213 -3350.52 689.439
-109.133 -3351.88 691.835
-109.371 -3351.71 690.948
-109.404 -3351.37 690.067
-108.775 -3352.07 693.889
-108.548 -3349.13 686.201
-109.74 -3349.13 684.691
-109.728 -3349.2 685.367
-110.433 -3354.06 702.994
-110.167 -3352.75 704.263
-109.94 -3353.59 703.028
-108.407 -3351.4 702.997
-118.676 -3354.03 713.253
-116.523 -3354.01 712.289
-115.241 -3354.04 711.283
-119.305 -3353.87 713.155
-119.045 -3353.93 712.596
-121.407 -3352.53 712.114
-114.499 -3354 711.266
-113.41 -3353.66 709.998
-120.006 -3350.75 714.6
-121.483 -3351.51 712.718
-120.85 -3352.91 708.426
-121.181 -3352.92 709.797
-120.462 -3353.32 711.807
-122.592 -3353.18 708.054
-122.595 -3353.65 706.218
-121.982 -3354.22 703.132
-116.645 -3355.77 696.862
-117.395 -3355.68 697.023
-119.508 -3353.54 693.649
-120.107 -3350.22 693.034
-120.058 -3351.15 691.514
-120.47 -3351.63 691.462
-120.054 -3350.83 692.267
-119.894 -3352.37 692.014
-120.41 -3350.2 694.047
-121.434 -3350.36 695.859
-120.696 -3350.32 696.695
-118.465 -3350.15 692.721
-118.752 -3350.13 693.964
-118.153 -3350.43 691.363
-117.623 -3350.94 689.625
-116.823 -3351.42 688.368
-116.922 -3351.45 688.922
-116.446 -3351.33 687.862
-116.007 -3350.87 686.674
-113.347 -3351.49 684.089
-114.179 -3350.91 683.091
-113.992 -3351.23 683.583
-114.113 -3351.01 684.898
-119.642 -3353.86 695.426
-118.144 -3354.62 694.161
-118.687 -3354.02 693.893
-119.173 -3354.65 696.113
-108.732 -3352.49 695.71
-109.124 -3352.94 695.748
-109.641 -3354.07 697.314
-108.69 -3349.36 686.778
-108.843 -3349.62 687.236
-109.084 -3349.97 687.733
-109.556 -3350.44 688.225
-109.509 -3351.98 691.466
-110.139 -3350.78 688.242
-109.067 -3352.01 692.353
-109.982 -3349.39 685.772
-111.567 -3349.68 682.64
-110.221 -3349.34 685.113
-111.444 -3349.7 683.241
-111.458 -3353.94 704.186
-109.59 -3354.5 701.476
-109.36 -3353.01 702.854
-109.368 -3354 701.88
-108.581 -3352.22 702.466
-117.427 -3354.02 712.347
-114.293 -3353.94 709.79
-120.164 -3353.4 711.18
-120.295 -3352.88 713.562
-113.385 -3353.79 708.734
-119.598 -3351.76 714.444
-120.805 -3351.14 713.496
-121.316 -3352.98 708.084
-117.864 -3353.47 708.644
-118.16 -3353.35 707.385
-120.217 -3353.02 707.417
-119.481 -3353.37 706.451
-117.782 -3353.42 706.294
-121.27 -3353.14 707.513
-121.763 -3353.35 707.091
-121.853 -3354.1 704.009
-120.258 -3354.68 701.752
-116.969 -3355.6 697.692
-117.605 -3355.32 699.007
-117.175 -3355.79 695.503
-115.097 -3356.13 695.647
-116.093 -3356.07 695.66
-119.612 -3352.86 692.566
-119.947 -3351.58 692.474
-120.923 -3350.28 693.85
-121.248 -3350.35 696.587
-122.875 -3350.41 701.357
-117.201 -3351.13 689.836
-116.312 -3351.71 688.448
-114.906 -3352.34 688.281
-116.342 -3351.08 687.402
-114.72 -3351.65 686.699
-115.095 -3350.91 685.864
-113.243 -3352.19 685.863
-113.589 -3351.47 684.699
-113.668 -3352.07 686.114
-113.641 -3351.05 683.113
-113.488 -3351.27 683.562
-118.526 -3354.52 694.619
-117.855 -3355.29 695.013
-117.409 -3355.45 694.699
-119.078 -3354.5 695.487
-117.514 -3355.07 694.089
-117.595 -3354.51 693.645
-116.385 -3354.73 693.339
-114.956 -3354.18 691.313
-116.026 -3354.74 692.927
-115.631 -3354.97 693.323
-117.006 -3354.07 692.582
-108.849 -3353.48 701.653
-108.628 -3353.57 701.08
-109.034 -3354.2 700.194
-109.498 -3354.42 699.13
-109.501 -3352.58 692.849
-110.156 -3355.15 696.192
-110.004 -3354.8 695.741
-109.623 -3352.96 693.429
-110.105 -3354.9 697.623
-110.481 -3355.69 696.553
-110.46 -3349.74 686.141
-109.893 -3351.88 690.372
-110.934 -3351.37 687.829
-110.702 -3350.1 686.511
-111.292 -3349.7 683.859
-112.682 -3350.23 682.37
-111.669 -3353.7 705.061
-112.101 -3353.59 706.483
-108.993 -3354.02 701.187
-117.721 -3353.91 711.715
-119.4 -3353.54 710.779
-118.541 -3353.68 711.071
-115.246 -3354.09 710.061
-119.996 -3352.12 714.069
-120.398 -3352.22 713.602
-121.021 -3351.78 713.01
-113.674 -3353.83 708.002
-112.867 -3353.83 707.302
-120.521 -3350.62 714.631
-120.307 -3351.52 713.764
-116.938 -3353.67 709.855
-115.574 -3353.85 709.353
-116.96 -3353.55 707.516
-117.555 -3353.58 704.823
-119.491 -3353.59 704.661
-114.592 -3353.55 705.457
-120.784 -3353.42 706.015
-121.787 -3353.55 706.178
-121.126 -3353.66 705.382
-121.407 -3354.15 703.601
-121 -3354.27 702.989
-117.679 -3355.22 699.533
-115.465 -3355.64 697.069
-116.08 -3355.5 697.855
-117.713 -3355.56 695.646
-116.735 -3355.87 695.029
-115.19 -3355.88 696.159
-115.041 -3355.81 696.723
-114.356 -3356.4 695.685
-119.021 -3353.68 693.524
-119.625 -3352.51 693.342
-120.594 -3350.39 692.993
-119.761 -3352.15 692.582
-121.678 -3350.37 694.684
-121.137 -3350.31 694.347
-121.947 -3350.44 697.901
-123.146 -3350.44 701.949
-122.415 -3350.32 699.564
-122.941 -3350.52 702.405
-117.581 -3350.57 691.16
-115.709 -3352.25 689.036
-116.7 -3351.39 689.634
-116.294 -3352.03 689.387
-113.464 -3353.42 689.297
-113.545 -3352.84 688.001
-117.1 -3355.41 694.25
-115.919 -3355.86 694.303
-118.036 -3354.05 693.671
-114.882 -3355.56 693.817
-114.614 -3355.3 692.915
-114.18 -3354.6 691.209
-113.28 -3354.02 690.19
-113.884 -3353.46 689.806
-112.754 -3353.87 689.59
-115.423 -3353.21 690.197
-115.426 -3354.68 692.139
-116.125 -3353.12 690.696
-115.586 -3352.83 689.847
-116.665 -3353.61 691.679
-116.037 -3353.75 691.391
-109.863 -3352.71 692.078
-110.094 -3354.48 694.577
-110.895 -3356.68 695.415
-110.593 -3356.37 695.115
-110.719 -3356.09 694.562
-109.939 -3353.24 692.8
-111.557 -3356.98 695.622
-109.957 -3354.75 698.09
-110.766 -3349.7 685.569
-110.514 -3352.43 690.013
-110.436 -3352.96 690.966
-111.051 -3352.46 688.979
-112.09 -3350.91 685.294
-111.789 -3352.5 687.799
-111.589 -3351.05 686.227
-110.639 -3354.32 702.593
-109.411 -3354.58 700.644
-114.238 -3353.94 708.699
-120.036 -3351.25 714.673
-120.08 -3353.39 705.782
-114.639 -3354.04 709.102
-116.214 -3353.77 708.979
-115.555 -3353.49 706.304
-114.42 -3353.63 706.412
-113.979 -3353.5 706.214
-113.395 -3353.69 705.863
-115.605 -3353.6 704.388
-114.617 -3354.08 701.99
-114.486 -3353.79 704.043
-112.994 -3353.99 704.37
-121.7 -3353.65 705.227
-121.417 -3353.9 704.368
-120.242 -3354.46 702.392
-118.745 -3354.96 700.759
-114.888 -3356.08 694.964
-113.84 -3356.74 696.313
-113.621 -3356.88 695.847
-114.706 -3356.29 697.158
-113.508 -3356.88 695.056
-119.975 -3352.1 693.269
-120.923 -3350.87 693.314
-120.467 -3351.07 692.835
-123.019 -3350.29 700.71
-123.317 -3350.54 702.794
-122.321 -3350.42 698.373
-123.229 -3350.6 703.585
-123.576 -3350.46 705.364
-118.624 -3350.12 694.68
-117.916 -3350.2 692.864
-116.58 -3351.98 689.803
-116.801 -3351.38 690.236
-116.115 -3352.6 690.055
-113.419 -3353.03 688.519
-112.945 -3353.22 687.353
-112.999 -3352.56 686.21
-115.814 -3356.05 695.076
-116.798 -3354.97 693.656
-114.928 -3356 694.181
-113.777 -3354.5 690.87
-116.43 -3352.71 690.536
-109.796 -3354.76 699.364
-110.23 -3353.07 691.762
-110.255 -3354.3 693.446
-110.981 -3355.96 693.193
-111.047 -3355.68 692.58
-111.054 -3356.83 694.912
-110.672 -3354.44 692.283
-110.892 -3356.06 696.365
-112.935 -3357.75 695.999
-110.247 -3355.08 698.448
-110.622 -3356.02 697.064
-111.14 -3350.11 685.855
-111.277 -3354.62 690.937
-110.912 -3354.33 691.664
-112.305 -3350.76 684.605
-111.432 -3353.71 689.627
-112.012 -3354.02 704.402
-109.914 -3354.74 700.796
-112.691 -3353.85 706.352
-110.181 -3354.89 699.701
-113.595 -3353.69 707.216
-119.583 -3350.9 714.92
-120.009 -3353.61 704.405
-117.887 -3353.66 703.942
-115.086 -3353.99 708.575
-114.659 -3354.31 708.536
-116.118 -3353.68 708.277
-116.6 -3353.58 708.119
-116.585 -3353.34 707.198
-114.78 -3354.26 701.135
-113.876 -3354.1 702.02
-112.822 -3354.22 702.258
-113.268 -3354.48 700.088
-112.094 -3354.62 700.592
-120.421 -3353.99 703.632
-116.735 -3355.31 699.19
-115.992 -3355.48 698.412
-114.034 -3356.48 695.155
-113.376 -3357.04 696.522
-112.468 -3357.26 694.855
-112.135 -3357.27 695.555
-112.918 -3356.99 694.61
-113.986 -3356.52 696.887
-113.91 -3356.33 694.501
-120.366 -3351.61 693.28
-121.263 -3350.49 693.505
-121.935 -3350.39 696.167
-122.368 -3350.29 695.126
-122.747 -3350.45 698.675
-124.25 -3350.53 705.262
-123.671 -3350.53 703.854
-121.873 -3350.35 699.684
-123.261 -3350.52 704.957
-124.398 -3350.5 707.306
-118.63 -3350.09 695.236
-119.01 -3350.17 695.729
-112.599 -3353.46 688.816
-112.844 -3353.32 688.068
-116.034 -3355.62 693.755
-114.492 -3355.99 693.928
-115.177 -3355.3 694.138
-114.212 -3355.3 691.988
-114.235 -3354.95 691.61
-113.503 -3355.62 691.274
-112.994 -3354.98 690.446
-117.571 -3353.92 692.94
-118.239 -3353.65 693.398
-116.829 -3353.19 691.412
-111.095 -3356.4 693.565
-113.125 -3357.88 695.316
-113.651 -3358.35 695.98
-113.172 -3358.01 696.732
-113.816 -3358.52 696.555
-111.039 -3356.21 697.497
-111.605 -3350.05 684.285
-111.464 -3355.94 691.463
-111.297 -3356.1 692.091
-112.065 -3352.08 686.949
-111.891 -3353 688.086
-113.271 -3350.65 683.039
-110.841 -3354.5 702.043
-111.063 -3354.74 700.92
-110.714 -3354.94 699.983
-113.329 -3353.62 706.423
-110.588 -3355.04 698.839
-114.248 -3353.77 707.013
-120.389 -3353.47 704.831
-119.933 -3353.78 703.926
-120.796 -3353.64 704.346
-115.761 -3353.53 706.918
-114.651 -3354.51 700.044
-113.522 -3354.71 699.249
-111.969 -3354.4 702.59
-111.736 -3354.4 702.132
-112.419 -3354.81 699.248
-112.229 -3354.25 703.711
-117.821 -3353.85 703.015
-118.317 -3354.45 701.689
-115.557 -3354.9 699.471
-114.736 -3355.07 698.597
-112.618 -3357.25 693.892
-111.802 -3357.11 695.185
-113.251 -3356.77 694.198
-118.732 -3353.31 693.35
-120.61 -3351.21 693.53
-121.672 -3350.39 694.005
-122.288 -3350.46 694.469
-122.506 -3350.57 697.199
-120.595 -3350.31 697.235
-123.732 -3350.6 708.137
-118.145 -3350.22 694.249
-116.859 -3352.19 690.567
-117.024 -3351.48 690.764
-112.591 -3353.74 687.435
-112.683 -3353.12 686.442
-113.03 -3351.21 683.352
-112.519 -3351.25 683.409
-116.324 -3355.16 693.882
-114.105 -3355.86 693.027
-113.62 -3355.96 691.86
-114.017 -3356.13 693.546
-113.185 -3356.63 691.386
-113.173 -3356.27 690.987
-117.327 -3353.71 692.307
-117.768 -3353.21 692.742
-112.042 -3357.08 693.786
-113.785 -3358.4 695.361
-113.908 -3358.26 694.863
-114.517 -3359.11 696.582
-114.664 -3359.16 696.087
-114.098 -3358.82 697.314
-113.219 -3358.21 697.304
-114.719 -3359.3 697.167
-110.703 -3355.39 698.148
-112.711 -3350.39 683.001
-111.472 -3356.55 691.788
-112.689 -3351.08 684.106
-112.504 -3352.13 685.676
-112.24 -3353.28 687.795
-111.703 -3354.07 689.382
-111.503 -3354.98 690.643
-111.62 -3354.37 702.981
-120.564 -3353.39 705.533
-115.484 -3353.59 707.469
-114.036 -3354.78 698.789
-115.156 -3354.61 699.964
-111.113 -3355.1 699.045
-121.893 -3352.69 704.883
-121.575 -3352.99 704.619
-113.639 -3355.01 698.132
-114.847 -3356.32 697.753
-114.021 -3356.87 697.368
-112.294 -3357.54 692.746
-112.697 -3357.26 693.05
-113.534 -3356.59 693.562
-120.838 -3350.85 694.027
-120.013 -3351.52 693.663
-124.736 -3350.64 705.375
-124.462 -3350.58 707.844
-120.16 -3350.32 697.618
-121.201 -3350.38 699.108
-121.323 -3350.47 699.725
-122.397 -3350.55 701.946
-123.73 -3350.52 707.606
-121.21 -3350.86 701.428
-119.64 -3350.35 698.006
-117.219 -3350.79 691.579
-117.834 -3350.21 693.376
-112.233 -3354.03 689.094
-112.964 -3352.05 685.26
-116.983 -3352.49 690.954
-117.244 -3353.12 691.851
-113.58 -3357.82 694.259
-115.078 -3359.2 695.662
-115.267 -3359.06 695.169
-112.578 -3357.62 696.943
-115.6 -3359.96 696.823
-116.232 -3360.16 696.522
-115.082 -3359.67 697.928
-113.38 -3358.48 697.822
-115.79 -3360.23 697.844
-112.685 -3350.67 683.599
-112.615 -3351.65 684.479
-111.055 -3355.2 698.555
-114.171 -3353.91 707.907
-114.83 -3353.67 707.252
-113.904 -3354.34 706.661
-121.38 -3352.58 708.419
-120.964 -3352.49 707.923
-120.997 -3353.5 704.872
-114.915 -3354.56 708.028
-116.062 -3353.54 707.514
-112.514 -3355.02 698.661
-111.684 -3355.26 698.581
-113.121 -3355.04 698.228
-121.595 -3352.59 705.471
-120.915 -3353.12 705.22
-121.184 -3353.3 704.375
-113.521 -3356.82 697.479
-115.183 -3355.93 698.419
-111.636 -3356.57 697.36
-112.01 -3357.83 692.312
-110.739 -3357.62 696.917
-111.331 -3357.79 694.76
-120.376 -3351.15 694.175
-121.443 -3350.78 694.498
-122.905 -3350.56 698.21
-123.267 -3350.46 698.975
-125.46 -3350.53 707.792
-121.48 -3350.67 701.045
-122.394 -3350.7 703.428
-122.845 -3350.6 705.278
-123.088 -3350.56 707.65
-121.644 -3351.03 703.051
-121.737 -3350.66 701.514
-117.311 -3352.05 691.276
-112.669 -3353.7 686.863
-112.379 -3352.45 686.091
-112.307 -3351.05 682.793
-112.151 -3353.31 686.196
-113.564 -3356.2 692.322
-112.304 -3354.38 689.591
-118.044 -3353.13 693.154
-117.16 -3352.73 691.404
-117.548 -3352.89 692.38
-111.508 -3356.78 692.355
-112.092 -3357.04 693.216
-113.031 -3356.94 693.719
-114.682 -3358.43 694.421
-116.37 -3360.01 696.051
-116.861 -3360.1 695.706
-116.279 -3359.53 695.112
-112.611 -3357.7 697.473
-113.311 -3358.5 698.415
-112.317 -3357.27 696.276
-116.375 -3360.68 697.613
-116.912 -3360.83 697.271
-117.698 -3361.22 697.277
-117.676 -3360.98 696.744
-116.104 -3360.55 698.565
-115.193 -3359.9 698.466
-114.164 -3359.02 697.858
-113.668 -3358.86 698.44
-116.698 -3361.02 698.392
-111.817 -3355.04 690.253
-111.224 -3355.51 698.161
-114.204 -3354.86 707.541
-113.76 -3354.9 706.61
-113.737 -3354.65 705.994
-121.434 -3352.09 706.808
-122.233 -3350.95 707.982
-121.81 -3351.39 708.362
-119.237 -3350.75 715.276
-114.772 -3354.91 707.377
-115.66 -3353.92 707.937
-115.032 -3353.57 706.707
-111.7 -3355.66 697.904
-112.39 -3354.72 704.136
-111.941 -3354.64 703.279
-122.058 -3352.29 705.531
-122.883 -3352.08 705.014
-122.879 -3351.77 705.615
-115.467 -3355.28 698.415
-113.266 -3355.31 697.659
-111.012 -3356.8 697.716
-112.814 -3357.18 690.177
-110.305 -3357.04 698.417
-110.495 -3358.5 695.41
-111.34 -3358.26 693.07
-113.227 -3356.73 691.952
-112.808 -3357.18 692.559
-119.028 -3352.85 693.431
-119.354 -3352.11 693.643
-120.542 -3351.28 694.643
-123.09 -3350.61 696.665
-122.487 -3350.49 696.109
-121.565 -3350.95 694.975
-123.936 -3350.49 699.197
-124.405 -3350.65 703.905
-124.393 -3351.17 704.943
-124.95 -3350.52 707.397
-122.986 -3350.53 707.16
-122.074 -3350.82 703.82
-118.598 -3350.07 696.464
-117.341 -3351.04 692.201
-118.493 -3349.93 695.828
-117.482 -3351.14 692.771
-112.366 -3353.82 687.986
-112.887 -3351.01 682.83
-118.038 -3352.61 693.249
-117.39 -3352.1 691.928
-117.692 -3351 693.543
-113.136 -3356.93 693.026
-114.446 -3358.01 693.757
-115.729 -3358.98 694.491
-117.589 -3360.71 696.186
-117.471 -3360.35 695.327
-116.989 -3359.89 694.911
-116.472 -3359.37 694.388
-112.942 -3358.1 698.243
-111.479 -3355.94 698.701
-117.252 -3361.44 698.317
-117.661 -3361.49 697.898
-118.617 -3361.95 697.846
-118.408 -3361.55 697.079
-118.346 -3361.26 696.301
-117.092 -3361.41 699.182
-116.195 -3360.78 699.12
-114.518 -3359.57 698.799
-113.745 -3358.97 699.035
-117.825 -3361.98 699.001
-111.956 -3356.92 696.668
-112.093 -3351.56 684.224
-114.203 -3355.5 707.433
-113.219 -3354.69 705.62
-114.415 -3354.73 708.703
-120.916 -3352.25 707.313
-122.525 -3350.88 708.438
-119.42 -3351.34 714.745
-114.389 -3355.07 706.869
-114.549 -3354.93 708.246
-115.383 -3354.39 707.528
-115.125 -3354.55 705.416
-112.546 -3355.38 697.976
-112.078 -3355.16 704.129
-121.62 -3352.29 705.911
-122.365 -3352.41 704.916
-123.327 -3351.69 705.334
-115.532 -3355.75 697.988
-112.655 -3355.67 697.403
-113.917 -3356.61 697.808
-114.703 -3356.31 698.254
-110.624 -3356.58 698.119
-110.723 -3356.32 698.736
-112.981 -3356.51 697.431
-113.436 -3356.8 689.449
-110.334 -3357.76 697.589
-110.383 -3356.1 699.213
-110.674 -3357.18 697.922
-110.135 -3358.91 695.393
-109.988 -3359.18 694.5
-118.841 -3352.45 693.794
-122.239 -3350.55 693.875
-123.931 -3350.62 697.728
-122.757 -3350.53 694.809
-123.459 -3350.38 701.514
-125.09 -3350.78 704.798
-125.388 -3350.62 707.1
-125.054 -3350.62 708.104
-124.274 -3350.63 708.507
-122.291 -3350.78 705.39
-122.438 -3350.78 707.431
-122.957 -3350.64 708.139
-123.373 -3350.59 708.587
-121.725 -3351.1 704.109
-121.823 -3350.99 705.531
-118.163 -3350.43 695.413
-112.017 -3354.86 688.918
-111.83 -3354.49 689.739
-111.982 -3354.37 688.736
-112.436 -3354.16 686.633
-112.569 -3354.92 690.118
-112.857 -3356.12 690.545
-117.648 -3352.22 692.694
-118.361 -3353.05 693.572
-117.467 -3351.7 692.581
-117.743 -3350.54 694.214
-118.375 -3350.63 695.902
-111.943 -3357.26 692.291
-114.962 -3358.08 693.344
-115.748 -3358.76 693.956
-117.999 -3360.81 695.624
-117.783 -3360.4 694.771
-117.344 -3359.96 694.34
-116.875 -3359.54 694.046
-116.361 -3359.03 693.535
-112.352 -3357.49 698.205
-112.628 -3357.83 698.933
-113.312 -3358.56 699.101
-113.556 -3358.86 699.941
-114.188 -3359.5 699.691
-112.303 -3356.77 696.217
-118.743 -3362.53 699.02
-118.177 -3362 698.478
-119.084 -3362.49 698.52
-119.265 -3362.33 697.692
-118.872 -3361.84 696.986
-119 -3361.71 696.275
-118.575 -3361.21 695.597
-118.066 -3362.26 699.786
-117.149 -3361.61 699.724
-115.448 -3360.34 699.257
-114.924 -3360.05 699.399
-118.998 -3362.9 699.601
-111.704 -3356.77 691.353
-111.901 -3356.64 690.857
-111.605 -3356.15 691.012
-111.809 -3357.08 691.841
-112.011 -3351.39 683.48
-111.887 -3355.97 697.394
-111.99 -3356.28 697.004
-114.171 -3356.14 707.244
-114.494 -3355.4 709.098
-114.455 -3354.81 709.243
-113.92 -3355.93 706.712
-113.639 -3355.91 706.203
-113.186 -3355.51 705.45
-112.899 -3355.03 704.625
-113.816 -3354.57 704.746
-112.939 -3356 704.991
-112.753 -3355.5 704.735
-122.027 -3351.89 707.03
-121.764 -3351.16 707.504
-122.823 -3350.82 708.856
-121.301 -3352.12 708.238
-121.125 -3351.77 707.527
-119.057 -3351.27 715.211
-113.779 -3355.24 706.981
-115.196 -3354.74 706.835
-114.32 -3355.25 708.569
-114.623 -3354.53 705.046
-115.989 -3354.12 707.326
-115.274 -3354.63 706.256
-115.367 -3354.08 706.379
-111.479 -3355 702.911
-113.3 -3355.06 704.991
-122.375 -3351.91 705.833
-122.054 -3351.89 706.483
-123.996 -3351.35 705.255
-123.189 -3351.45 705.863
-110.973 -3356.42 699.487
-111.326 -3356.72 699.083
-113.414 -3356.77 688.872
-113.497 -3356.74 690.121
-110.082 -3356.19 699.614
-110.238 -3355.77 699.873
-110.476 -3358.31 696.623
-110.877 -3358.66 693.49
-119.113 -3352.16 694.169
-119.642 -3351.77 693.915
-119.971 -3351.48 694.47
-120.607 -3351.47 695.104
-122.77 -3350.62 695.393
-122.13 -3350.75 695.112
-123.841 -3350.59 702.874
-124.597 -3350.72 703.307
-123.716 -3351.64 704.886
-125.115 -3350.66 705.736
-124.462 -3351 705.636
-122.009 -3352.67 704.38
-125.013 -3350.58 708.73
-125.541 -3350.55 708.542
-122.024 -3350.92 706.973
-121.508 -3351.37 705.384
-121.55 -3351.2 706.726
-118.862 -3350.46 697.104
-111.634 -3351.6 683.758
-111.634 -3351.23 683.056
-111.178 -3352.04 684.103
-112.219 -3353.64 686.646
-118.456 -3352.7 694.002
-112.392 -3356.48 690.772
-112.407 -3357.43 691.047
-112.392 -3357.25 691.664
-117.845 -3352.11 693.186
-118.106 -3352.08 693.709
-118.126 -3350.93 694.868
-118.76 -3350.93 696.758
-119.071 -3351.1 697.295
-119.395 -3350.8 697.885
-114.759 -3357.71 692.735
-115.877 -3358.6 693.26
-115.438 -3358.12 692.696
-118.261 -3360.76 694.87
-117.825 -3360.18 693.957
-117.323 -3359.67 693.457
-116.816 -3359.26 693.269
-116.377 -3358.77 692.665
-112.244 -3357.39 699.218
-112.739 -3357.94 699.735
-113.172 -3358.41 700.315
-113.984 -3359.34 700.522
-113.547 -3358.81 700.961
-114.68 -3360.06 700.427
-112.149 -3356.34 697.621
-111.715 -3356.82 697.964
-119.719 -3363.13 699.209
-119.681 -3362.83 698.354
-119.92 -3362.78 697.673
-119.463 -3362.24 696.946
-119.576 -3362.06 696.115
-119.101 -3361.54 695.512
-118.83 -3361.12 694.759
-119.002 -3363.06 700.353
-118.045 -3362.4 700.34
-116.313 -3361.01 699.569
-115.671 -3360.79 700.133
-119.988 -3363.69 700.21
-120.288 -3363.62 699.561
-111.956 -3357.32 691.415
-114.151 -3356.8 707.093
-113.684 -3356.58 706.179
-113.139 -3356.53 705.304
-112.342 -3356.1 704.273
-122.601 -3351.72 706.425
-121.675 -3351.93 708.663
-120.645 -3352.74 706.068
-114.294 -3355.07 706.188
-114.068 -3355.32 708.016
-114.731 -3354.84 705.736
-114.327 -3354.82 705.34
-113.642 -3355.21 705.587
-111.54 -3355.46 703.75
-111.649 -3355.05 703.388
-114.533 -3355.16 698.125
-112.557 -3356.09 696.836
-110.883 -3356.11 700.07
-111.316 -3356.66 700.464
-111.649 -3357.01 699.97
-112.081 -3357.15 697.436
-114.072 -3356.46 689.056
-112.879 -3356.95 690.622
-112.792 -3356.68 691.045
-115.1 -3355.35 688.808
-110.626 -3355.76 700.363
-111.378 -3358.58 692.312
-112.066 -3357.84 690.957
-119.461 -3351.81 694.503
-121.724 -3351.12 695.497
-123.394 -3350.68 697.733
-123.389 -3350.59 698.444
-124.46 -3350.65 696.567
-123.954 -3350.62 696.834
-123.688 -3350.51 702.15
-124.938 -3350.74 704.01
-124.239 -3351.25 704.443
-123.723 -3350.63 708.948
-126.003 -3350.56 708.044
-121.432 -3351.47 703.174
-121.679 -3351.14 703.599
-120.291 -3350.85 699.733
-112.147 -3354.51 688.255
-112.794 -3354.58 686.654
-111.248 -3351.74 683.419
-111.475 -3352.49 684.757
-111.743 -3351.93 684.529
-112.385 -3357.48 692.15
-112.93 -3357.02 691.599
-118.029 -3351.42 694.048
-118.333 -3351.08 695.342
-119.528 -3351.4 698.205
-119.835 -3350.96 698.819
-120.256 -3351.42 699.978
-114.522 -3357.31 692.07
-115.078 -3357.65 691.968
-115.876 -3358.36 692.476
-115.552 -3357.91 691.739
-118.385 -3360.64 694.191
-118.172 -3360.25 693.414
-117.763 -3359.84 693.015
-117.354 -3359.43 692.595
-116.908 -3359.1 692.526
-116.577 -3358.66 691.879
-116.074 -3358.29 691.793
-111.866 -3356.99 699.384
-111.79 -3356.9 698.725
-112.242 -3357.35 700.022
-112.665 -3357.8 700.604
-113.017 -3358.18 701.236
-114.531 -3359.94 700.939
-114.119 -3359.46 701.337
-113.246 -3358.41 701.96
-113.721 -3358.97 701.803
-114.964 -3360.42 701.214
-120.212 -3363.27 698.579
-120.527 -3363.25 697.811
-120.037 -3362.62 696.881
-120.079 -3362.36 695.961
-119.511 -3361.71 695.137
-119.129 -3361.16 694.198
-118.664 -3360.66 693.637
-120.079 -3363.94 700.889
-118.92 -3363.15 700.862
-116.895 -3361.68 700.416
-115.819 -3361.08 700.694
-120.836 -3364.14 699.997
-120.72 -3363.74 698.957
-114.142 -3357.46 706.956
-113.575 -3357.49 705.783
-113.137 -3357.05 705.26
-114.478 -3355.96 708.914
-120.98 -3352.75 704.819
-112.721 -3355.68 705.601
-113.516 -3355.39 706.075
-113.692 -3355.42 707.477
-116.554 -3353.95 707.265
-115.568 -3354.26 705.898
-116.049 -3353.96 706.574
-115.799 -3354.4 706.392
-123.859 -3351.21 705.772
-121.201 -3352.84 704.125
-113.997 -3355.18 697.671
-113.063 -3355.69 697.004
-111.608 -3356.3 697.933
-111.119 -3356.26 700.871
-111.578 -3356.83 701.25
-111.802 -3357.23 700.944
-111.142 -3356.54 698.389
-112.557 -3356.79 697.651
-113.011 -3357.17 689.355
-113.558 -3356.56 688.385
-110.792 -3355.93 701.122
-110.204 -3355.53 700.576
-110.047 -3358.92 696.51
-109.945 -3357.17 698.841
-109.68 -3359.38 695.443
-109.283 -3359.7 694.482
-110.572 -3359.1 693.31
-109.577 -3359.62 693.902
-112.41 -3357.58 689.639
-120.023 -3351.67 694.93
-121.174 -3351.43 695.573
-120.573 -3351.74 695.534
-123.064 -3350.63 697.276
-123.032 -3350.62 696.045
-122.196 -3351.26 696.002
-122.283 -3350.92 695.624
-123.635 -3350.39 700.739
-123.321 -3351.74 704.565
-125.25 -3350.66 706.247
-122.832 -3352.1 704.507
-125.828 -3350.63 707.436
-124.873 -3350.6 706.678
-120.705 -3350.88 700.395
-121.128 -3351.59 706.638
-112.216 -3354.24 687.696
-111.046 -3352.77 684.739
-118.335 -3352.05 694.31
-120.484 -3351.51 700.531
-121.273 -3351.08 702.021
-114.694 -3357.14 691.197
-115.177 -3357.45 691.108
-115.747 -3357.8 690.942
-118.302 -3360.11 692.675
-117.809 -3359.61 692.165
-117.253 -3359.11 691.8
-116.268 -3358.19 691.046
-116.803 -3358.64 691.298
-111.931 -3357.22 700.46
-114.598 -3359.99 701.779
-114.137 -3359.42 702.333
-113.605 -3358.79 702.683
-115.069 -3360.52 702.133
-115.41 -3360.91 701.662
-115.955 -3361.34 701.187
-120.935 -3363.44 697.188
-120.543 -3362.96 696.823
-121.025 -3363.8 698.305
-120.538 -3362.62 695.689
-120.049 -3362.07 695.064
-119.659 -3361.56 694.296
-119.38 -3361.11 693.471
-118.893 -3360.65 693.089
-120.793 -3364.56 701.373
-121.334 -3364.68 700.499
-117.783 -3362.49 701.072
-119.149 -3363.48 701.361
-116.985 -3362.08 701.401
-117.97 -3362.79 701.597
-121.2 -3364.25 699.392
-112.703 -3356.35 696.409
-114.105 -3358.08 706.733
-113.491 -3358 705.723
-112.902 -3357.5 705.013
-112.573 -3356.62 704.58
-111.882 -3356.37 703.777
-113.973 -3355.76 708.341
-114.221 -3358.84 706.841
-123.011 -3351.58 706.734
-122.492 -3351.66 707.276
-121.933 -3351.77 707.734
-121.47 -3351.6 707.946
-123.255 -3350.71 709.186
-113.333 -3355.78 707.539
-111.012 -3355.41 702.796
-111.434 -3356.02 703.255
-111.274 -3356.4 701.62
-112.046 -3357.4 701.721
-111.76 -3356.91 702.005
-112.525 -3357.63 701.326
-114.759 -3356.01 689.72
-110.903 -3356.06 701.855
-110.196 -3355.6 701.672
-110.151 -3355.52 701.166
-110.443 -3355.75 702.266
-109.091 -3360.05 694.925
-111.265 -3359.1 692.042
-112.691 -3357.84 689.208
-118.72 -3352.42 694.487
-121.075 -3352.14 696.254
-122.919 -3350.34 699.834
-122.839 -3351 697.83
-122.691 -3351.04 696.354
-122.204 -3351.45 696.637
-121.497 -3351.84 696.189
-122.632 -3351.11 697.151
-123.974 -3350.47 701.544
-124.687 -3351.05 706.115
-124.026 -3350.65 709.424
-124.02 -3351.26 706.42
-121.507 -3351.56 704.39
-121.224 -3351.85 705.101
-121.126 -3351.74 705.981
-112.393 -3354.16 687.179
-114.236 -3356.85 691.271
-114.806 -3357.05 690.577
-116.197 -3357.91 690.279
-118.723 -3360.29 692.3
-118.287 -3359.81 691.737
-117.711 -3359.29 691.336
-117.237 -3358.82 690.907
-116.724 -3358.34 690.509
-112.767 -3357.87 702.013
-114.624 -3359.97 702.716
-114.023 -3359.24 703.251
-113.042 -3358.14 702.721
-115.151 -3360.57 703.076
-115.582 -3361.1 702.45
-116.001 -3361.57 702.249
-116.238 -3361.72 701.792
-117.165 -3362.39 701.934
-112.523 -3356.44 698.21
-112.033 -3356.32 698.319
-121.129 -3363.63 696.447
-120.8 -3363.06 696.217
-121.309 -3364.25 698.438
-120.471 -3362.31 694.716
-120.724 -3362.73 694.917
-120.157 -3361.86 694.153
-119.868 -3361.42 693.368
-119.272 -3360.75 692.549
-121.239 -3365.17 702.103
-121.884 -3365.22 700.488
-121.487 -3364.68 699.478
-120.228 -3364.32 701.783
-119.204 -3363.83 702.282
-118.175 -3363.11 702.131
-113.63 -3358.64 705.807
-113.2 -3358.23 705.266
-112.463 -3357.51 704.367
-114.231 -3358.57 707.419
-114.007 -3356.48 708.87
-123.484 -3351.43 706.29
-123.157 -3351.4 707.283
-120.603 -3352.33 706.858
-122.791 -3350.76 709.376
-121.103 -3352.65 705.816
-116.801 -3354.14 706.864
-116.39 -3354.22 706.246
-111.75 -3356.84 703.592
-111.426 -3356.56 702.374
-111.073 -3356.19 702.744
-113.997 -3356.33 698.271
-112.252 -3357.5 702.488
-111.923 -3357.04 702.703
-113.203 -3357.32 688.735
-114.038 -3356.29 688.565
-114.881 -3355.24 688.364
-113.706 -3356.98 688.138
-113.327 -3356.77 690.892
-115.081 -3355.56 689.697
-109.652 -3355.91 700.898
-110.053 -3358.64 696.972
-110.007 -3358.1 697.401
-110.343 -3359.6 692.942
-109.384 -3360.06 693.661
-111.964 -3358.33 690.73
-119.201 -3352.05 694.908
-121.095 -3352.38 696.974
-121.696 -3351.84 696.926
-122.847 -3351.04 698.73
-123.827 -3350.48 699.708
-122.186 -3351.41 697.551
-123.509 -3350.4 700.243
-124.589 -3350.68 702.77
-125.882 -3350.75 706.3
-121.803 -3352.45 703.9
-124.424 -3350.6 709.062
-124.276 -3351.04 707.054
-121.494 -3351.68 703.823
-120.887 -3352.33 705.347
-120.774 -3352.24 706.056
-112.192 -3355.03 688.474
-110.964 -3351.32 683.017
-118.54 -3351.19 695.905
-119.067 -3351.57 697.104
-121.031 -3351.67 702.267
-115.293 -3357.32 690.418
-116.028 -3357.6 689.663
-115.706 -3357.5 690.071
-118.908 -3360.22 691.654
-118.561 -3359.75 690.913
-118.083 -3359.42 690.934
-117.611 -3358.91 690.356
-117.108 -3358.45 690.005
-114.569 -3359.86 703.567
-113.642 -3358.76 703.969
-114.141 -3359.33 704.178
-113.277 -3358.4 703.948
-113.318 -3358.42 703.391
-115.858 -3361.38 703.141
-114.998 -3360.33 704.076
-115.487 -3360.92 703.747
-116.483 -3362.06 702.378
-116.381 -3362 702.922
-117.329 -3362.68 702.478
-118.314 -3363.39 702.691
-113.024 -3356.52 698.002
-121.173 -3363.87 697.495
-121.317 -3363.86 695.919
-120.942 -3363.2 695.657
-121.699 -3364.66 698.277
-120.36 -3361.89 693.381
-120.916 -3362.97 694.461
-120.567 -3362.31 693.887
-120.142 -3361.45 692.706
-119.732 -3361.04 692.458
-119.451 -3360.59 691.651
-121.823 -3365.69 701.407
-121.525 -3365.19 701.656
-122.381 -3365.85 700.412
-122.325 -3365.29 699.222
-120.725 -3365.12 702.386
-119.17 -3363.99 702.8
-113.543 -3358.68 705.134
-112.782 -3357.92 703.894
-112.091 -3357.17 703.996
-114.008 -3359.27 706.545
-114.098 -3359.23 705.139
-115.067 -3360.33 705.97
-115.021 -3360.3 705.145
-114.585 -3359.82 704.628
-122.487 -3351.54 707.77
-122.344 -3351.47 708.311
-113.024 -3355.61 706.488
-113.113 -3355.68 707.055
-115.978 -3354.28 705.524
-112.376 -3357.5 703.229
-115.084 -3355.33 698.017
-115.24 -3355.58 697.607
-113.503 -3356.38 698.074
-112.699 -3357.97 703.124
-114.624 -3355.66 688.469
-114.325 -3356.34 687.761
-115.332 -3355.12 689.678
-115.253 -3354.78 688.661
-109.801 -3355.98 700.223
-109.889 -3356.04 701.46
-111.922 -3355.92 704.983
-112.614 -3356.28 706.931
-109.77 -3358.9 697.43
-109.413 -3359.86 695.876
-109.169 -3360.15 694.13
-111.242 -3359.54 691.698
-112.782 -3358.18 688.757
-120.56 -3352.75 696.802
-120.545 -3352.42 696.145
-120.206 -3352.08 695.592
-121.81 -3351.66 697.785
-121.38 -3351.95 697.784
-122.904 -3350.92 699.813
-122.511 -3351.26 698.339
-124.309 -3350.58 701.949
-125.395 -3350.86 703.747
-123.809 -3351.55 703.866
-126.001 -3350.72 706.909
-123.821 -3350.98 708.523
-123.414 -3350.72 709.673
-123.508 -3351.2 707.615
-110.793 -3352.06 683.781
-110.629 -3351.56 683.693
-110.605 -3352.71 684.471
-114.064 -3356.63 690.676
-118.401 -3351.65 695.016
-118.557 -3351.62 695.581
-119.33 -3352.02 697.524
-120.867 -3351.52 701.638
-116.876 -3358.05 689.219
-116.543 -3357.97 689.698
-115.503 -3357.29 689.663
-119.093 -3360.1 690.852
-118.601 -3359.51 690.054
-118.077 -3359.17 690.146
-117.49 -3358.53 689.401
-113.171 -3358.33 704.451
-115.94 -3361.42 704.218
-116.306 -3361.88 703.708
-115.459 -3360.84 704.685
-116.818 -3362.47 703.035
-117.428 -3362.93 703.002
-116.83 -3362.48 703.718
-118.405 -3363.64 703.223
-119.32 -3364.32 703.396
-113.699 -3355.85 697.47
-113.656 -3355.39 697.278
-113.769 -3355.67 696.826
-121.758 -3364.35 696.301
-122.34 -3364.92 697.154
-122.053 -3364.34 695.107
-121.121 -3363.42 695.168
-121.15 -3363.28 693.991
-122.816 -3365.41 698.042
-120.304 -3361.62 692.228
-120.95 -3362.85 693.39
-120.539 -3362.06 692.613
-119.981 -3361.03 691.702
-119.689 -3360.53 690.891
-121.911 -3366.1 700.95
-122.522 -3366.39 700.306
-122.852 -3365.97 699.26
-119.8 -3364.65 703.211
-120.37 -3364.75 702.652
-112.918 -3356.08 707.308
-113.362 -3355.99 708.025
-113.481 -3357.04 708.772
-114.231 -3357.92 708.438
-114.581 -3359.75 706.268
-113.186 -3356.54 708.263
-115.562 -3360.91 705.642
-123.003 -3351.32 707.882
-123.266 -3351.17 708.375
-122.089 -3351.2 708.807
-121.302 -3352.41 703.799
-114.53 -3355.87 698.448
-115.046 -3354.76 688.205
-114.519 -3356.65 687.232
-114.348 -3356.86 687.74
-113.841 -3357.46 687.885
-115.004 -3355.66 690.228
-111.707 -3356.4 705.216
-109.695 -3358.5 697.732
-108.884 -3360.46 694.599
-108.927 -3360.4 695.269
-109.247 -3360.58 693.833
-110.314 -3360.19 692.736
-112.014 -3358.75 690.266
-118.655 -3352.36 695.028
-119.528 -3352.2 695.35
-121.408 -3352.01 698.564
-119.685 -3352.61 695.696
-122.004 -3351.58 698.365
-122.474 -3351.34 698.959
-125.086 -3350.77 702.78
-123.343 -3351.76 703.76
-122.256 -3352.21 704.071
-112.329 -3354.7 687.478
-112.404 -3355.87 688.818
-110.473 -3351.46 683.2
-110.24 -3351.9 683.581
-110.008 -3352.97 684.329
-119.698 -3351.8 698.498
-120.615 -3352.02 700.893
-114.637 -3356.51 689.591
-115.196 -3356.75 689.025
-119.202 -3359.94 690.092
-118.034 -3358.91 689.393
-118.749 -3359.39 689.342
-116.01 -3361.46 705.056
-116.552 -3362.12 704.542
-117.405 -3363.07 703.517
-117.187 -3362.87 704.259
-112.973 -3356.21 698.444
-112.581 -3355.89 698.84
-113.505 -3356.06 698.592
-113.372 -3355.86 698.114
-113.834 -3355.9 696.329
-122.81 -3365.02 695.952
-123.52 -3365.72 696.792
-123.288 -3365.13 694.769
-122.651 -3364.54 693.904
-121.583 -3363.79 693.981
-121.262 -3363.31 693.06
-121.036 -3362.86 692.531
-123.302 -3366.03 698.086
-120.626 -3362.02 691.476
-120.169 -3361.24 691.235
-119.965 -3360.78 690.43
-119.664 -3360.24 689.898
-121.98 -3366.52 700.407
-121.059 -3365.86 701.566
-121.454 -3366.47 700.625
-123.072 -3366.59 699.247
-122.597 -3366.82 699.902
-120.112 -3365.13 702.42
-120.587 -3365.56 701.963
-112.974 -3356.42 707.762
-112.659 -3356.57 707.36
-113.639 -3357.74 708.765
-113.66 -3358.83 707.219
-112.967 -3357.22 708.355
-113.174 -3357.73 688.345
-115.007 -3356.32 688.352
-114.662 -3356.27 688.891
-114.837 -3356.39 687.824
-114.698 -3357.22 687.361
-115.439 -3354.77 689.238
-110.036 -3356.06 701.978
-111.363 -3356.48 704.687
-112.162 -3356.85 706.866
-109.857 -3358.99 697.942
-109.701 -3359.35 696.8
-108.844 -3360.98 694.862
-108.85 -3361.39 695.179
-109.2 -3361.39 694.117
-111.304 -3360.1 691.442
-119.074 -3352.5 695.336
-120.967 -3352.26 697.882
-121.618 -3352.04 699.457
-120.939 -3352.29 698.6
-120.514 -3352.84 697.312
-120.007 -3352.76 696.147
-123.15 -3350.98 700.268
-122.135 -3351.55 699.689
-124.276 -3350.46 701.128
-126.351 -3350.72 707.303
-112.687 -3354.9 687.167
-110.474 -3352.23 684.213
-118.757 -3351.76 696.2
-121.083 -3351.91 702.732
-114.37 -3356.19 690.477
-117.675 -3358.42 688.612
-116.781 -3357.87 688.71
-115.733 -3356.92 688.494
-119.261 -3359.7 689.18
-118.26 -3358.89 688.838
-118.707 -3359.08 688.439
-118.108 -3358.6 688.187
-117.385 -3357.98 687.989
-118.483 -3363.87 703.726
-113.837 -3355.62 698.209
-113.713 -3356.19 695.929
-113.176 -3356.32 696.175
-123.895 -3365.72 695.591
-123.584 -3366.47 697.739
-124.06 -3366.32 696.305
-124.461 -3365.99 694.614
-123.788 -3365.27 693.622
-123.255 -3364.72 692.647
-122.113 -3363.98 692.93
-121.502 -3363.39 692.129
-121.142 -3362.89 691.67
-120.709 -3362 690.475
-120.452 -3361.57 690.41
-120.966 -3362.43 690.579
-120.036 -3360.69 689.142
-119.587 -3359.88 688.684
-122.008 -3366.94 699.874
-123.331 -3367.11 698.948
-122.73 -3367.17 699.432
-112.664 -3357.03 707.815
-113.258 -3358.58 707.509
-114.497 -3359.67 705.601
-113.087 -3357.84 708.368
-121.252 -3351.94 703.246
-112.164 -3359.35 689.941
-114.784 -3355.79 689.043
-115.415 -3356.8 687.668
-116.315 -3357.53 687.277
-115.771 -3357.22 687.031
-114.658 -3355.08 687.809
-115.18 -3356.85 686.784
-114.272 -3357.93 687.623
-114.8 -3355.85 690.735
-109.689 -3356.44 700.752
-109.703 -3356.49 700.214
-110.489 -3356.34 702.942
-111.795 -3356.84 705.957
-109.698 -3357.52 699.179
-109.889 -3359.41 697.657
-109.336 -3360.28 696.278
-108.982 -3361.65 694.736
-109.006 -3360.97 695.683
-109.41 -3361.18 693.644
-119.496 -3353.13 696.273
-121.213 -3352.37 699.515
-120.39 -3352.77 697.982
-120.723 -3352.61 699.028
-120.104 -3353.09 696.884
-122.453 -3351.34 700.019
-123.986 -3350.51 700.391
-124.851 -3350.71 702.138
-123.915 -3351.49 703.095
-126.577 -3350.78 706.833
-122.155 -3352.21 703.213
-112.82 -3356.27 688.501
-109.529 -3352.95 683.974
-118.915 -3352.33 696.134
-121.005 -3352.24 702.361
-114.501 -3356.13 691.093
-116.193 -3357.23 687.69
-119.214 -3359.37 688.197
-116.944 -3362.57 705.053
-117.955 -3363.8 704.573
-118.349 -3364.11 704.293
-118.86 -3364.41 703.749
-117.471 -3363.2 704.809
-119.415 -3364.88 702.877
-114.019 -3355.75 698.678
-113.289 -3355.73 699.027
-123.868 -3366.94 697.418
-124.414 -3366.68 695.679
-124.805 -3365.93 693.326
-124.929 -3366.51 694.121
-124.359 -3365.43 692.331
-123.773 -3364.84 691.345
-122.673 -3364.15 691.702
-121.907 -3363.5 691.039
-121.215 -3362.86 690.741
-120.821 -3362.02 689.495
-120.562 -3361.59 689.441
-121.088 -3362.48 689.64
-120.177 -3360.8 688.401
-119.778 -3360.13 688.286
-123.665 -3367.56 698.418
-123.056 -3367.56 698.879
-112.186 -3357.08 707.319
-122.362 -3351.13 709.301
-112.753 -3358.7 688.712
-113.151 -3358.74 688.189
-113.748 -3358.27 687.826
-116.87 -3357.61 687.687
-110.907 -3357.12 704.292
-111.149 -3357.01 704.81
-109.772 -3357.78 699.643
-108.97 -3362.18 695.164
-108.979 -3361.52 695.67
-109.311 -3362.15 694.254
-109.153 -3362.63 694.924
-121.816 -3351.93 700.108
-119.991 -3353.28 697.451
-120.421 -3352.64 698.556
-120.372 -3352.84 699.377
-122.22 -3351.93 700.588
-123.938 -3350.76 709.975
-112.984 -3355.34 687.233
-113.049 -3355.01 686.798
-109.946 -3352.37 683.911
-109.892 -3353.26 684.847
-119.289 -3352.55 697.013
-120.091 -3352.14 699.238
-118.533 -3358.73 687.711
-117.778 -3358.19 687.69
-116.398 -3361.93 705.348
-116.714 -3362.68 704.603
-118.702 -3364.84 702.997
-117.735 -3363.47 704.132
-119.092 -3365.14 702.521
-119.995 -3365.59 702.028
-124.213 -3367.31 696.828
-124.761 -3367.08 695.117
-125.373 -3366.23 692.43
-125.3 -3366.91 693.517
-124.912 -3365.66 691.383
-121.678 -3363.14 689.989
-121.611 -3362.95 689.061
-120.913 -3362.04 688.55
-120.325 -3361.1 687.861
-119.988 -3360.44 687.948
-119.225 -3359.21 687.473
-118.559 -3358.75 687.186
-121.644 -3367.21 699.626
-122.682 -3367.82 698.636
-120.608 -3366.11 701.469
-124.025 -3367.93 697.818
-123.377 -3367.98 698.282
-112.248 -3357.55 707.702
-112.482 -3358.11 707.919
-113.058 -3358.75 707.026
-113.595 -3359.35 706.208
-114.006 -3359.09 705.974
-116.044 -3362.04 704.674
-110.341 -3360.7 692.479
-113.603 -3359.1 687.97
-114.266 -3358.84 687.573
-117.349 -3358.09 687.224
-116.316 -3357.25 686.533
-114.756 -3358.4 687.403
-115.501 -3357.57 686.709
-115.064 -3357.74 687.185
-115.301 -3358.19 687.149
-115.609 -3356.99 686.434
-109.746 -3357.02 700.537
-109.887 -3356.58 701.597
-110.422 -3357.09 702.71
-111.735 -3357.32 706.734
-110.218 -3359.95 697.889
-109.468 -3360.82 696.671
-109.948 -3359.92 697.434
-109.042 -3361.95 695.966
-109.18 -3362.86 695.375
-109.884 -3362.24 693.545
-110.677 -3361.34 692.307
-109.509 -3362.93 694.521
-109.74 -3362.69 694.059
-119.615 -3352.87 697.368
-119.648 -3352.6 697.825
-121.318 -3352.37 700.128
-121.373 -3352.74 700.805
-122.647 -3351.67 700.604
-124.041 -3350.9 700.731
-124.727 -3350.59 701.487
-122.485 -3351.18 709.816
-112.444 -3355.41 688.209
-112.427 -3355.06 687.828
-113.04 -3356.03 688.111
-110.402 -3353.13 684.837
-109.312 -3353.17 684.401
-119.896 -3352.3 698.636
-120.239 -3351.9 699.802
-117.954 -3358.37 687.158
-118.031 -3364.37 703.797
-117.62 -3363.97 703.847
-124.588 -3367.66 696.139
-125.089 -3367.56 694.726
-125.661 -3366.64 692.225
-125.895 -3367.51 693.508
-122.47 -3363.68 689.566
-123.041 -3364.16 690.366
-124.021 -3364.96 690.656
-120.663 -3361.61 688.475
-120.971 -3362.65 688.649
-120.483 -3361.6 687.781
-119.526 -3359.67 687.598
-121.967 -3367.63 699.026
-121.076 -3367.38 699.673
-122.251 -3368.04 698.444
-122.947 -3368.25 698.037
-120.827 -3366.72 700.621
-124.447 -3368.2 697.023
-111.869 -3357.51 707.37
-113.871 -3359.6 705.859
-114.719 -3360.75 704.825
-115.384 -3361.37 704.787
-112.292 -3359.99 689.97
-112.914 -3359.35 688.669
-115.34 -3355.52 692.091
-115.389 -3355.26 690.927
-117.143 -3357.86 686.723
-115.339 -3354.37 688.341
-114.597 -3354.68 687.338
-115.961 -3358.12 686.815
-116.523 -3358.17 686.911
-115.519 -3358.94 687.244
-115.088 -3359.14 687.431
-116.848 -3357.91 687.229
-115.354 -3355.18 690.22
-115.772 -3354.44 689.526
-109.87 -3357.19 701.11
-110.804 -3357.46 703.875
-111.203 -3357.56 705.3
-110.068 -3359.09 698.417
-109.19 -3362.41 696.161
-110.891 -3362.05 692.52
-109.417 -3363.29 695.064
-109.782 -3363.37 694.473
-109.805 -3364.01 695.161
-123.145 -3351.62 700.858
-121.766 -3352.3 700.643
-122.855 -3351.95 701.127
-121.917 -3352.56 701.112
-122.737 -3351.97 703.225
-124.322 -3351.23 702.003
-123.225 -3351.12 709.971
-122.851 -3350.79 709.876
-112.874 -3355.46 687.841
-113.445 -3355.64 687.217
-113.892 -3356.4 688.015
-109.521 -3351.79 683.301
-109.965 -3351.47 683.107
-109.319 -3352.5 683.588
-109.455 -3353.54 684.943
-120.818 -3352.73 699.801
-116.361 -3362.71 704.02
-118.483 -3365.24 702.51
-119.413 -3365.69 702.038
-118.32 -3364.65 703.349
-120.039 -3366.21 701.548
-120.274 -3366.8 700.816
-125.005 -3368.29 695.838
-125.714 -3368.15 694.715
-125.587 -3367.15 692.657
-126.312 -3368.18 693.852
-124.437 -3366.38 691.871
-123.647 -3365.57 691.19
-120.601 -3362.09 687.959
-120.451 -3362.67 688.709
-121.115 -3363.42 689.358
-119.77 -3360.14 687.578
-118.318 -3359.42 687.214
-121.636 -3368.14 698.461
-122.287 -3368.43 697.961
-122.904 -3368.68 697.508
-123.475 -3368.57 697.521
-123.989 -3368.82 697.085
-112.453 -3358.54 707.057
-114.796 -3361.12 704.304
-115.508 -3361.82 704.203
-121.289 -3352.46 703.203
-123.147 -3351.74 702.743
-112.453 -3360.5 689.953
-113.045 -3360.9 689.696
-113.458 -3360.03 688.472
-113.869 -3359.55 688.015
-114.555 -3359.41 687.661
-114.944 -3355.79 691.59
-114.646 -3354.26 687.023
-115.979 -3359.4 687.143
-115.085 -3359.68 687.527
-115.552 -3354.41 688.857
-110.224 -3358.28 700.078
-111.03 -3357.73 704.389
-111.482 -3357.87 706.436
-110.481 -3359.36 698.907
-110.801 -3360.15 698.706
-110.456 -3359.89 698.363
-109.763 -3361.24 697.109
-110.495 -3360.64 697.958
-109.812 -3364.29 695.593
-109.554 -3363.74 695.545
-109.541 -3363.69 696.065
-109.473 -3362.95 696.486
-109.302 -3363.22 695.744
-110.144 -3363.71 694.356
-110.188 -3363.08 693.866
-120.728 -3353.02 700.516
-123.566 -3351.17 700.697
-121.853 -3352.71 701.771
-120.911 -3353.15 700.989
-124.229 -3351.2 701.479
-109.542 -3350.8 682.538
-109.607 -3351.2 682.838
-120.642 -3352.54 700.756
-120.878 -3352.7 701.789
-117.224 -3363.89 703.366
-117.684 -3364.45 703.22
-118.936 -3365.91 701.945
-117.893 -3364.94 702.785
-119.495 -3366.35 701.54
-120.432 -3367.35 700.036
-124.391 -3368.86 696.664
-125.005 -3368.8 695.766
-125.764 -3368.67 694.799
-125.208 -3367.47 692.95
-125.412 -3368.23 693.747
-125.081 -3368.77 694.443
-124.164 -3367.07 692.492
-121.921 -3363.85 689.719
-122.434 -3364.57 690.356
-123.24 -3365.83 691.42
-120.046 -3362.32 688.366
-119.907 -3362.79 688.862
-119.48 -3362.21 688.291
-120.812 -3363.79 689.714
-119.747 -3361.04 687.509
-121.647 -3368.53 697.976
-120.833 -3367.74 699.346
-122.237 -3368.81 697.483
-123.327 -3368.89 697.112
-114.232 -3360.11 705.226
-114.4 -3360.85 704.146
-115.117 -3361.58 704.002
-122.742 -3352.09 702.61
-123.312 -3351.91 702.104
-122.746 -3352.16 701.703
-113.832 -3360.77 688.895
-111.508 -3362.73 692.473
-114.386 -3360.45 688.204
-114.349 -3360 687.956
-114.234 -3354.56 686.88
-114.058 -3355 687.172
-117.155 -3359.38 687.1
-116.418 -3359.13 687.068
-117.425 -3358.85 687.095
-116.122 -3359.87 687.301
-115.568 -3359.93 687.421
-110.243 -3357.56 701.743
-111.585 -3358.33 706.153
-111.707 -3358.14 706.908
-111.103 -3360.23 699.117
-110.737 -3358.76 700.632
-111.073 -3360.63 698.739
-110.189 -3364.73 695.636
-109.957 -3364.39 696.108
-109.778 -3363.87 696.48
-109.687 -3363.39 696.652
-109.968 -3363.1 697.118
-109.992 -3363.64 697.025
-110.169 -3361.95 697.413
-110.614 -3364.35 694.464
-111.005 -3364.22 694.041
-110.439 -3364.84 695.207
-123.762 -3351.62 701.955
-122.448 -3352.44 702.235
-120.999 -3353.21 701.705
-113.23 -3355.77 687.675
-109.054 -3351.09 682.7
-108.823 -3351.61 683.087
-108.797 -3352.28 683.371
-115.932 -3362.69 703.438
-117.883 -3365.36 702.294
-121.187 -3367.92 698.936
-123.945 -3368.89 696.16
-124.387 -3368.9 695.203
-124.21 -3367.96 693.389
-124.51 -3368.68 694.194
-123.932 -3368.87 694.616
-123.575 -3367.08 692.535
-121.425 -3364.14 690.019
-122.729 -3365.75 691.423
-121.462 -3364.65 690.551
-119.438 -3361.55 687.84
-119.1 -3362.45 688.609
-120.012 -3363.68 689.656
-118.866 -3361.83 688.126
-120.497 -3364.32 690.251
-118.84 -3360.06 687.293
-121.544 -3368.87 697.535
-122.75 -3369.01 696.959
-123.235 -3369 696.162
-112.646 -3358.83 706.653
-113.218 -3359.44 705.886
-114.118 -3360.37 704.654
-112.463 -3362.72 691.771
-114.496 -3361.87 689.545
-115.034 -3361.54 688.986
-114.924 -3360.62 688.201
-115.62 -3354.95 690.598
-117.497 -3360.11 687.415
-118.739 -3360.89 687.587
-117.024 -3360.34 687.602
-116.572 -3360.63 687.818
-115.807 -3360.4 687.812
-115.714 -3360.97 688.302
-111.432 -3358.21 704.645
-112.16 -3358.79 705.738
-112.22 -3358.75 706.284
-111.513 -3360.44 699.737
-111.436 -3360.82 699.155
-111.184 -3359.34 700.771
-111.23 -3361.13 698.654
-110.568 -3365.14 695.661
-110.665 -3365.24 696.226
-110.316 -3364.85 696.109
-110.214 -3364.41 696.718
-110.643 -3362.5 697.778
-110.393 -3363.63 697.388
-110.515 -3364.18 697.36
-110.804 -3365 694.848
-112.644 -3363.56 692.568
-111.742 -3364.82 694.015
-111.189 -3365.48 695.239
-121.387 -3353.14 702.389
-121.785 -3352.55 703.054
-108.539 -3351.03 682.605
-108.26 -3351.72 683.032
-109.028 -3352.95 683.69
-116.108 -3363.55 702.564
-116.721 -3364.15 702.483
-117.222 -3364.95 702.163
-119.822 -3367.02 700.759
-118.734 -3366.48 701.314
-118.013 -3365.85 701.834
-121.197 -3368.39 698.337
-123.56 -3368.9 695.487
-123.813 -3368.61 694.129
-123.737 -3368.07 693.527
-123.099 -3368.93 694.97
-123.227 -3368.7 694.335
-121.981 -3365.85 691.627
-120.473 -3364.76 690.78
-118.36 -3362.14 688.469
-119.344 -3363.51 689.562
-118.139 -3361.17 687.868
-119.593 -3364.35 690.358
-121.312 -3369.05 697.116
-121.962 -3369.05 697.03
-122.409 -3369.13 696.291
-122.755 -3369.03 695.632
-113.68 -3359.85 705.305
-114.442 -3361.51 703.226
-114.39 -3361.12 703.67
-115.812 -3364.39 691.526
-114.307 -3365.17 693.134
-116.709 -3364.53 690.96
-115.922 -3361.94 689.048
-115.443 -3353.89 687.996
-114.957 -3354.48 687.754
-117.52 -3361.39 688.132
-116.715 -3361.44 688.39
-117.483 -3362.02 688.603
-116.951 -3362.49 689.142
-111.508 -3358.46 703.896
-112.759 -3359.23 705.673
-112.275 -3358.84 705.007
-111.973 -3360.73 700.159
-111.563 -3361.45 698.941
-111.809 -3361.29 699.413
-110.98 -3365.59 695.89
-111.669 -3366.04 696.229
-111.401 -3365.82 696.693
-110.732 -3364.89 696.985
-111.153 -3365.34 697.011
-111.262 -3362.98 698.241
-111.821 -3363.22 698.643
-110.92 -3364.65 697.413
-111.644 -3365.58 695.007
-112.152 -3365.51 694.581
-114.299 -3366.25 693.69
-111.914 -3366.05 695.505
-112.454 -3366.21 695.368
-115.631 -3363.38 702.28
-117.185 -3365.42 701.674
-116.617 -3365.25 701.294
-118.734 -3366.97 700.659
-120.214 -3367.75 699.564
-118.156 -3366.31 701.352
-123.209 -3368.3 693.87
-123.247 -3367.91 693.416
-122.062 -3369.1 695.416
-122.422 -3368.96 694.765
-122.71 -3368.41 693.987
-122.363 -3367.28 692.907
-121.182 -3365.98 691.857
-119.951 -3365.47 691.539
-119.424 -3364.75 690.862
-118.449 -3362.98 689.184
-118.668 -3363.88 689.999
-121.045 -3368.92 697.529
-121.735 -3369.21 696.552
-121.8 -3369.18 696.017
-113.601 -3360.59 703.613
-115.279 -3364.55 700.744
-115.988 -3365.11 700.859
-116.726 -3366.47 692.295
-117.307 -3364.48 690.483
-118.061 -3366.07 691.615
-115.614 -3354.76 689.881
-115.053 -3353.99 687.47
-114.883 -3353.74 686.932
-117.824 -3363.22 689.514
-117.963 -3364.23 690.388
-115.911 -3354.05 689.067
-111.696 -3358.77 703.469
-111.789 -3360.05 700.888
-112.937 -3361.46 700.854
-112.538 -3361.75 699.902
-112.238 -3366.39 695.889
-112.398 -3366.44 696.776
-112.983 -3366.8 695.97
-113.214 -3366.97 696.936
-111.75 -3365.91 697.178
-112.865 -3366.64 697.441
-111.469 -3365.21 697.511
-112.358 -3365.96 697.749
-111.996 -3365.07 698.041
-112.999 -3363.82 699.262
-113.518 -3366.53 695.052
-114.366 -3366.79 694.353
-116.538 -3367.43 693.249
-115.951 -3367.95 694.15
-113.797 -3367.19 695.814
-114.686 -3367.6 695.272
-108.74 -3352.57 683.844
-117.589 -3366.2 701.228
-116.769 -3366.21 700.625
-119.102 -3367.73 699.488
-118.184 -3366.79 700.739
-120.575 -3368.39 698.506
-120.406 -3368.89 697.645
-121.134 -3369.22 695.755
-121.834 -3368.91 694.626
-122.007 -3368.08 693.641
-121.604 -3368.56 694.214
-120.817 -3366.73 692.579
-121.592 -3367.74 693.378
-119.331 -3365.99 692.041
-118.735 -3364.8 690.99
-120.64 -3369.11 697.054
-112.652 -3359.19 704.98
-113.198 -3359.78 704.927
-113.142 -3360.18 703.653
-114.719 -3363.59 700.963
-113.573 -3361.65 701.518
-114.045 -3362.05 701.631
-115.862 -3366.09 700.002
-115.04 -3365.8 699.752
-117.824 -3367.2 692.698
-118.451 -3365.55 691.432
-119.015 -3366.65 692.347
-114.194 -3354.16 686.503
-115.715 -3354.01 688.575
-112.079 -3359.19 703.446
-112.548 -3360.51 701.584
-112.985 -3360.87 701.765
-114.007 -3363.8 700.163
