234.009003 -3346.320068 1462.479980 
234.899994 -3346.699951 1461.890015 
236.526993 -3347.340088 1461.119995 
236.567001 -3347.540039 1461.160034 
233.449997 -3345.939941 1462.719971 
233.878998 -3346.330078 1462.609985 
232.951004 -3346.010010 1462.510010 
258.484009 -3354.889893 1442.040039 
259.364014 -3355.149902 1442.150024 
261.398010 -3355.909912 1441.689941 
262.559998 -3356.030029 1441.949951 
263.209015 -3356.300049 1442.319946 
265.216003 -3355.909912 1442.469971 
266.054993 -3353.659912 1442.270020 
266.298004 -3354.300049 1441.959961 
267.385986 -3355.040039 1440.949951 
268.915985 -3354.659912 1439.829956 
267.052002 -3355.449951 1441.130005 
265.553009 -3356.310059 1442.140015 
265.755005 -3356.550049 1441.920044 
265.894989 -3357.189941 1441.609985 
266.170013 -3356.899902 1441.469971 
266.753998 -3356.560059 1441.079956 
265.410004 -3357.469971 1441.910034 
267.175995 -3356.239990 1440.819946 
220.779999 -3352.800049 1457.930054 
220.843002 -3352.629883 1459.640015 
221.078995 -3352.350098 1460.589966 
230.235001 -3352.169922 1458.859985 
235.591003 -3349.489990 1458.439941 
235.360001 -3349.919922 1457.699951 
235.350998 -3349.600098 1457.819946 
234.893997 -3349.949951 1457.099976 
234.710007 -3350.330078 1456.500000 
234.688004 -3350.530029 1456.410034 
234.815002 -3350.719971 1456.380005 
235.302994 -3350.100098 1457.310059 
234.770996 -3350.570068 1456.300049 
231.382004 -3351.370117 1460.250000 
230.139008 -3352.280029 1459.329956 
230.649994 -3351.850098 1459.869995 
231.511993 -3351.350098 1461.030029 
231.781006 -3351.090088 1461.209961 
231.128998 -3351.530029 1460.489990 
232.891998 -3349.530029 1461.489990 
234.272995 -3350.360107 1461.250000 
234.828995 -3351.169922 1461.270020 
231.695999 -3350.449951 1461.510010 
231.574997 -3351.070068 1461.400024 
231.389008 -3350.939941 1461.550049 
235.787994 -3350.760010 1461.300049 
235.889008 -3350.060059 1461.239990 
236.932007 -3348.429932 1461.089966 
236.679001 -3349.209961 1461.160034 
237.070999 -3347.739990 1461.089966 
237.401993 -3347.760010 1461.060059 
237.524002 -3347.629883 1461.020020 
237.578003 -3347.669922 1461.000000 
229.389999 -3355.149902 1459.989990 
229.311005 -3354.550049 1460.010010 
229.585999 -3353.429932 1459.560059 
222.360992 -3352.360107 1459.040039 
223.507996 -3352.590088 1458.869995 
225.031998 -3353.719971 1459.770020 
228.179993 -3355.469971 1460.449951 
226.975998 -3355.229980 1460.439941 
228.983002 -3355.250000 1460.369995 
245.347000 -3340.949951 1463.290039 
245.511002 -3340.739990 1463.160034 
245.729004 -3340.560059 1463.150024 
245.197998 -3341.179932 1463.520020 
244.843994 -3341.370117 1462.800049 
244.850006 -3341.500000 1462.510010 
244.869995 -3341.300049 1463.060059 
245.117996 -3341.179932 1462.140015 
245.141998 -3341.149902 1462.380005 
244.970993 -3341.280029 1462.609985 
269.617004 -3353.709961 1439.479980 
269.933014 -3353.669922 1439.180054 
270.078003 -3353.540039 1438.979980 
266.513000 -3352.699951 1441.910034 
244.882996 -3341.610107 1463.839966 
245.061005 -3341.399902 1463.719971 
237.826004 -3342.590088 1448.349976 
237.119003 -3342.659912 1448.260010 
236.608002 -3342.020020 1448.910034 
236.537994 -3342.360107 1448.530029 
238.440994 -3342.570068 1448.329956 
236.647003 -3341.479980 1449.489990 
236.587006 -3341.840088 1449.099976 
239.184006 -3342.540039 1448.270020 
238.940002 -3342.520020 1448.170044 
238.569000 -3342.520020 1448.099976 
237.733002 -3342.639893 1448.050049 
237.085007 -3342.550049 1448.109985 
237.089005 -3342.209961 1448.219971 
236.707001 -3341.260010 1448.510010 
236.526993 -3341.560059 1448.339966 
236.658997 -3341.919922 1448.199951 
236.358994 -3341.100098 1449.069946 
236.664993 -3341.179932 1449.770020 
268.893005 -3347.409912 1436.920044 
271.687988 -3348.510010 1434.839966 
271.722992 -3348.669922 1435.069946 
269.388000 -3348.149902 1436.989990 
274.759003 -3349.780029 1433.150024 
276.335999 -3351.689941 1431.719971 
278.472992 -3354.169922 1429.650024 
278.688995 -3354.580078 1429.050049 
280.941986 -3356.540039 1427.689941 
281.450989 -3356.899902 1427.219971 
282.596008 -3357.389893 1426.680054 
283.367004 -3357.790039 1426.199951 
283.957001 -3358.050049 1426.140015 
285.325012 -3358.760010 1424.709961 
285.334991 -3358.300049 1424.400024 
284.410004 -3358.290039 1426.040039 
284.906006 -3358.290039 1425.550049 
285.252991 -3358.530029 1425.089966 
285.929993 -3358.219971 1424.219971 
287.550995 -3360.010010 1423.130005 
287.196991 -3359.280029 1423.390015 
286.912994 -3358.649902 1423.949951 
286.674988 -3364.709961 1420.880005 
286.071991 -3365.689941 1421.219971 
288.627991 -3366.010010 1420.609985 
289.704010 -3365.389893 1420.949951 
291.819000 -3366.500000 1420.430054 
291.408997 -3365.469971 1421.130005 
290.285004 -3363.739990 1422.280029 
288.722992 -3360.899902 1423.020020 
290.384003 -3363.409912 1422.540039 
273.705994 -3358.149902 1426.660034 
277.321991 -3360.179932 1424.699951 
276.681000 -3360.370117 1424.859985 
271.371002 -3357.459961 1427.560059 
279.908997 -3361.300049 1423.469971 
281.612000 -3363.469971 1422.849976 
284.967987 -3366.399902 1421.530029 
269.770996 -3356.340088 1428.650024 
270.537994 -3357.070068 1428.119995 
268.595001 -3355.959961 1428.630005 
269.437012 -3356.459961 1428.540039 
265.714996 -3355.000000 1428.089966 
265.149994 -3355.310059 1427.589966 
267.592010 -3355.540039 1428.630005 
266.419006 -3355.280029 1428.329956 
264.457001 -3355.389893 1427.239990 
263.977997 -3355.239990 1427.630005 
263.348999 -3354.010010 1429.040039 
262.752991 -3352.870117 1430.339966 
261.891998 -3352.020020 1431.569946 
260.890015 -3350.709961 1433.270020 
249.332993 -3339.620117 1440.290039 
250.768997 -3340.820068 1440.459961 
251.634995 -3341.669922 1440.229980 
240.848999 -3343.300049 1446.530029 
240.792999 -3343.310059 1446.489990 
240.858994 -3343.330078 1446.380005 
241.054001 -3343.340088 1446.280029 
241.216003 -3343.370117 1446.140015 
241.645996 -3343.429932 1445.849976 
241.826004 -3343.449951 1445.760010 
241.468994 -3343.409912 1445.930054 
241.304001 -3343.389893 1446.030029 
240.712006 -3344.530029 1445.439941 
240.677994 -3343.969971 1446.000000 
240.542999 -3343.540039 1446.500000 
240.585999 -3343.330078 1446.630005 
241.134995 -3347.040039 1442.750000 
240.966995 -3346.409912 1443.469971 
241.001007 -3345.939941 1443.900024 
241.395996 -3347.179932 1442.420044 
240.863998 -3345.280029 1444.619995 
242.376999 -3347.629883 1441.290039 
242.567993 -3347.689941 1441.089966 
241.962006 -3347.429932 1441.770020 
242.740005 -3347.709961 1441.060059 
242.628998 -3347.679932 1441.109985 
241.559998 -3347.239990 1442.239990 
243.069000 -3347.810059 1440.920044 
242.968994 -3347.770020 1440.989990 
242.891998 -3347.709961 1441.069946 
242.787003 -3347.689941 1441.109985 
243.203995 -3347.760010 1440.959961 
246.507996 -3347.729980 1439.280029 
245.255997 -3347.610107 1440.150024 
245.897995 -3347.729980 1439.579956 
245.046997 -3347.560059 1440.560059 
244.690002 -3347.560059 1440.750000 
244.281998 -3347.639893 1440.780029 
243.944000 -3347.659912 1440.869995 
243.565002 -3347.679932 1440.959961 
258.868011 -3351.100098 1434.569946 
258.283997 -3351.419922 1435.329956 
258.713013 -3351.360107 1434.829956 
257.877014 -3351.320068 1435.729980 
256.050995 -3350.080078 1436.989990 
259.069000 -3350.909912 1434.329956 
259.122986 -3351.209961 1434.290039 
250.938995 -3348.090088 1438.540039 
253.996994 -3348.419922 1438.150024 
247.000000 -3347.860107 1438.989990 
248.895004 -3347.899902 1438.800049 
245.388000 -3340.840088 1462.380005 
265.455994 -3352.300049 1442.699951 
269.800995 -3352.959961 1439.060059 
269.904999 -3352.820068 1438.920044 
268.046997 -3351.889893 1440.229980 
269.221008 -3352.010010 1439.260010 
267.790985 -3351.100098 1439.920044 
268.148987 -3350.719971 1439.339966 
270.243011 -3352.750000 1438.579956 
270.441986 -3352.629883 1438.369995 
245.565994 -3340.629883 1462.510010 
269.584991 -3351.000000 1438.329956 
269.954987 -3350.500000 1437.699951 
272.829987 -3351.239990 1435.560059 
272.322998 -3350.600098 1435.569946 
272.170013 -3350.100098 1435.459961 
259.851013 -3355.379883 1437.270020 
259.345001 -3355.030029 1437.250000 
264.200012 -3357.889893 1435.829956 
264.026001 -3357.760010 1435.579956 
261.527008 -3356.149902 1436.380005 
262.645996 -3356.739990 1436.079956 
263.747009 -3357.530029 1435.439941 
260.571991 -3356.090088 1439.400024 
263.885010 -3357.750000 1437.050049 
264.041992 -3357.810059 1436.420044 
260.838989 -3356.179932 1439.709961 
260.893005 -3356.149902 1440.189941 
259.601990 -3354.100098 1435.949951 
259.381012 -3354.600098 1436.660034 
259.686005 -3355.020020 1436.619995 
249.330994 -3347.790039 1441.920044 
249.858994 -3347.889893 1440.660034 
250.244003 -3348.169922 1440.199951 
248.485001 -3347.790039 1439.869995 
247.531998 -3347.750000 1439.959961 
247.326996 -3347.770020 1439.770020 
247.044998 -3347.780029 1439.589966 
248.830994 -3347.889893 1438.979980 
247.328003 -3347.929932 1439.030029 
246.738007 -3347.790039 1439.390015 
253.541000 -3348.639893 1438.560059 
251.009003 -3348.189941 1438.880005 
255.145996 -3351.179932 1438.939941 
255.828003 -3350.820068 1437.780029 
254.154999 -3348.790039 1438.329956 
258.567993 -3352.899902 1436.170044 
246.229996 -3345.649902 1443.760010 
247.261002 -3346.600098 1443.199951 
247.955994 -3347.169922 1442.520020 
247.322006 -3346.699951 1442.959961 
248.748993 -3347.530029 1442.010010 
244.776001 -3344.189941 1444.729980 
245.440994 -3344.689941 1444.280029 
246.186996 -3345.590088 1443.619995 
243.927002 -3343.850098 1444.770020 
243.261993 -3343.399902 1444.709961 
242.932999 -3343.310059 1444.869995 
242.427994 -3343.389893 1445.189941 
242.658005 -3343.350098 1444.989990 
241.886002 -3343.469971 1445.660034 
241.981003 -3343.469971 1445.540039 
242.121994 -3343.439941 1445.359985 
231.860001 -3345.379883 1462.300049 
227.863998 -3343.860107 1463.239990 
227.069000 -3343.550049 1463.500000 
231.617004 -3345.580078 1462.400024 
218.382996 -3343.260010 1464.660034 
217.608994 -3345.419922 1464.800049 
217.906006 -3345.030029 1464.750000 
218.561996 -3344.000000 1464.609985 
218.147995 -3344.820068 1464.709961 
217.154999 -3346.939941 1464.939941 
217.154999 -3347.360107 1464.920044 
218.817993 -3342.620117 1464.579956 
218.610992 -3342.879883 1464.630005 
218.681000 -3343.320068 1464.589966 
217.112000 -3348.629883 1464.849976 
217.145004 -3348.020020 1464.890015 
217.255997 -3349.100098 1464.709961 
217.453003 -3349.570068 1464.540039 
217.729996 -3350.060059 1464.310059 
218.944000 -3351.340088 1462.849976 
219.244995 -3351.679932 1461.479980 
218.223007 -3350.679932 1463.910034 
218.699997 -3351.040039 1463.439941 
219.807007 -3352.070068 1459.910034 
220.569000 -3352.590088 1458.140015 
220.229996 -3352.250000 1459.300049 
219.580002 -3342.310059 1464.359985 
223.593002 -3342.639893 1463.939941 
224.626007 -3342.530029 1463.819946 
234.274994 -3346.629883 1462.280029 
235.945007 -3347.290039 1461.420044 
237.104004 -3348.000000 1461.130005 
233.410004 -3346.370117 1462.719971 
232.906998 -3346.209961 1462.650024 
234.167999 -3346.800049 1462.420044 
261.260986 -3356.110107 1440.800049 
263.149994 -3356.310059 1441.780029 
262.907013 -3356.649902 1440.160034 
264.951996 -3357.580078 1441.969971 
268.454987 -3355.570068 1440.000000 
269.703003 -3354.020020 1439.400024 
269.537994 -3354.340088 1439.439941 
269.251007 -3355.060059 1439.489990 
270.088989 -3356.209961 1439.010010 
270.306000 -3355.800049 1438.949951 
269.596985 -3356.010010 1439.219971 
267.520996 -3355.919922 1440.619995 
268.806000 -3356.189941 1439.670044 
268.221985 -3358.500000 1439.550049 
268.278992 -3357.979980 1439.660034 
268.652008 -3357.750000 1439.469971 
268.953003 -3357.439941 1439.349976 
267.848999 -3358.540039 1439.810059 
269.212006 -3357.100098 1439.260010 
220.548004 -3352.449951 1459.739990 
220.574997 -3352.280029 1461.390015 
221.673996 -3352.300049 1460.650024 
235.716995 -3349.429932 1458.390015 
235.649994 -3349.679932 1457.900024 
235.431000 -3349.590088 1457.599976 
234.988007 -3349.939941 1456.680054 
234.910995 -3349.949951 1456.829956 
234.865997 -3350.310059 1456.359985 
234.953995 -3350.679932 1456.260010 
235.425995 -3350.060059 1457.209961 
234.910004 -3350.500000 1456.199951 
229.785995 -3352.719971 1459.790039 
230.332993 -3352.250000 1460.349976 
231.341995 -3351.449951 1461.359985 
230.867004 -3351.810059 1460.910034 
233.477997 -3349.479980 1461.520020 
231.695007 -3349.929932 1461.800049 
234.593002 -3350.669922 1461.349976 
235.496002 -3351.550049 1461.449951 
231.210999 -3350.780029 1461.709961 
231.164001 -3351.379883 1461.589966 
230.962006 -3351.199951 1461.750000 
236.608994 -3349.969971 1461.209961 
235.925003 -3351.530029 1461.500000 
236.632004 -3350.360107 1461.280029 
237.100998 -3349.739990 1461.199951 
237.238007 -3348.540039 1461.069946 
236.735992 -3349.459961 1461.160034 
237.212997 -3349.219971 1461.119995 
237.356003 -3347.939941 1461.089966 
237.867996 -3348.159912 1461.089966 
237.656998 -3347.800049 1461.030029 
237.839005 -3347.719971 1461.000000 
237.886002 -3347.750000 1460.979980 
229.022995 -3354.580078 1460.339966 
229.264008 -3353.639893 1459.949951 
228.822998 -3354.979980 1460.569946 
223.257996 -3352.600098 1459.349976 
225.285004 -3354.100098 1460.260010 
227.447998 -3355.449951 1460.859985 
228.356995 -3355.229980 1460.760010 
244.983002 -3341.139893 1462.869995 
245.363998 -3340.830078 1462.630005 
245.171005 -3341.040039 1462.619995 
270.825989 -3354.979980 1438.800049 
271.128998 -3355.260010 1438.689941 
270.306000 -3353.429932 1438.709961 
271.311005 -3354.889893 1438.449951 
269.658997 -3353.080078 1439.219971 
237.731003 -3342.699951 1448.170044 
237.082001 -3342.820068 1448.030029 
236.503998 -3342.639893 1448.209961 
236.511993 -3342.219971 1448.660034 
238.315002 -3342.679932 1448.150024 
236.251007 -3341.479980 1449.109985 
236.296005 -3341.770020 1448.829956 
236.334000 -3342.060059 1448.560059 
239.378006 -3342.639893 1448.089966 
238.806000 -3342.669922 1448.119995 
239.173004 -3342.629883 1447.989990 
238.906006 -3342.629883 1447.939941 
238.442001 -3342.639893 1447.920044 
236.858994 -3342.729980 1447.979980 
237.505997 -3342.780029 1447.880005 
236.703003 -3342.320068 1448.079956 
236.222000 -3341.300049 1448.540039 
236.181000 -3341.139893 1449.329956 
271.747009 -3349.129883 1435.260010 
274.941986 -3350.270020 1433.449951 
275.041992 -3350.689941 1433.810059 
272.269012 -3349.709961 1435.199951 
276.459015 -3352.060059 1432.099976 
278.816010 -3354.419922 1429.839966 
280.644989 -3356.280029 1427.959961 
281.652008 -3356.989990 1427.810059 
282.053986 -3357.129883 1427.270020 
283.156006 -3357.500000 1426.949951 
283.579987 -3357.620117 1426.410034 
284.174011 -3357.870117 1426.380005 
284.514008 -3358.169922 1426.400024 
285.450989 -3358.250000 1424.750000 
286.217010 -3357.939941 1424.670044 
286.450989 -3357.969971 1424.500000 
285.002014 -3358.110107 1425.969971 
285.437012 -3358.040039 1425.510010 
285.520996 -3358.179932 1425.109985 
288.127991 -3357.139893 1423.430054 
288.328003 -3357.340088 1423.170044 
287.466003 -3359.479980 1423.010010 
289.166992 -3358.659912 1422.060059 
288.654999 -3359.919922 1422.630005 
289.092987 -3358.050049 1422.380005 
288.722992 -3357.679932 1422.810059 
288.066986 -3366.919922 1420.530029 
287.082001 -3367.610107 1420.790039 
289.080994 -3366.909912 1419.939941 
290.752991 -3366.909912 1419.949951 
293.083008 -3367.340088 1419.949951 
293.841003 -3368.540039 1419.119995 
293.386993 -3367.280029 1419.930054 
289.666992 -3360.719971 1422.140015 
290.755005 -3363.189941 1422.329956 
293.507996 -3367.060059 1419.979980 
273.976013 -3358.850098 1426.430054 
276.325012 -3360.689941 1424.849976 
279.431000 -3361.679932 1423.339966 
278.688995 -3361.800049 1423.300049 
271.420013 -3357.770020 1427.510010 
281.102997 -3363.580078 1423.040039 
283.042999 -3367.179932 1421.449951 
285.544006 -3368.199951 1420.420044 
270.066986 -3357.050049 1428.199951 
270.653015 -3357.560059 1427.930054 
269.390991 -3356.850098 1428.329956 
269.063995 -3356.929932 1428.290039 
265.867004 -3355.669922 1427.790039 
265.500000 -3356.100098 1427.319946 
264.885010 -3355.879883 1427.099976 
267.494995 -3355.969971 1428.390015 
266.480011 -3355.989990 1427.949951 
264.390991 -3356.209961 1426.680054 
263.821014 -3355.780029 1427.310059 
263.144989 -3354.489990 1428.780029 
262.378998 -3353.260010 1430.260010 
261.476013 -3352.270020 1431.630005 
260.536987 -3350.909912 1433.319946 
249.654007 -3339.699951 1440.020020 
250.800995 -3340.729980 1440.339966 
251.856995 -3341.729980 1440.099976 
251.503006 -3341.399902 1440.290039 
249.912994 -3339.739990 1439.719971 
240.417999 -3343.330078 1446.609985 
240.667999 -3343.360107 1446.459961 
240.886002 -3343.340088 1446.290039 
240.582993 -3343.409912 1446.410034 
240.639999 -3343.419922 1446.319946 
241.041000 -3343.350098 1446.189941 
241.145996 -3343.370117 1446.069946 
241.511002 -3343.419922 1445.829956 
241.692993 -3343.439941 1445.750000 
241.317993 -3343.399902 1445.949951 
240.615005 -3344.909912 1445.140015 
240.494995 -3344.449951 1445.660034 
240.285995 -3343.939941 1446.290039 
240.389999 -3343.810059 1446.349976 
240.173996 -3343.469971 1446.839966 
240.201996 -3343.290039 1446.989990 
239.317993 -3343.020020 1447.180054 
239.167007 -3343.110107 1447.069946 
239.733994 -3342.959961 1447.380005 
240.962006 -3346.979980 1442.920044 
240.815994 -3346.580078 1443.410034 
240.669998 -3345.909912 1444.150024 
240.750000 -3345.590088 1444.400024 
241.162003 -3347.050049 1442.699951 
242.182999 -3347.510010 1441.520020 
242.473999 -3347.620117 1441.209961 
241.766006 -3347.310059 1442.010010 
242.667999 -3347.649902 1441.160034 
242.557007 -3347.610107 1441.209961 
241.360001 -3347.120117 1442.479980 
243.014008 -3347.739990 1441.040039 
242.925003 -3347.679932 1441.130005 
242.813004 -3347.649902 1441.170044 
242.703995 -3347.620117 1441.219971 
243.175003 -3347.709961 1441.060059 
245.501007 -3347.560059 1440.119995 
246.373001 -3347.790039 1439.369995 
245.072998 -3347.500000 1440.709961 
245.464005 -3347.479980 1440.390015 
244.776993 -3347.500000 1440.829956 
244.358002 -3347.580078 1440.849976 
243.960007 -3347.600098 1440.949951 
243.580994 -3347.620117 1441.050049 
258.362000 -3351.790039 1435.500000 
258.601013 -3351.649902 1435.050049 
259.005005 -3351.479980 1434.520020 
256.627991 -3350.860107 1436.890015 
259.014008 -3351.100098 1434.229980 
259.080994 -3351.370117 1434.199951 
251.770004 -3348.260010 1438.599976 
247.184006 -3347.939941 1438.880005 
271.484009 -3353.899902 1437.709961 
271.549011 -3353.639893 1437.479980 
272.181000 -3353.280029 1437.040039 
269.734009 -3351.929932 1438.800049 
272.541992 -3353.159912 1436.739990 
270.201996 -3351.790039 1438.290039 
272.154999 -3353.889893 1437.239990 
272.446014 -3353.709961 1436.989990 
271.851013 -3352.030029 1436.869995 
271.958008 -3351.659912 1436.469971 
274.631989 -3352.149902 1434.810059 
277.367004 -3354.290039 1433.589966 
275.523010 -3352.040039 1434.300049 
275.502991 -3351.620117 1434.010010 
261.463013 -3356.000000 1436.050049 
261.296997 -3355.790039 1435.729980 
268.161011 -3359.949951 1433.349976 
265.720001 -3358.879883 1434.369995 
268.239014 -3359.909912 1432.770020 
265.717987 -3358.780029 1434.040039 
262.437012 -3356.489990 1435.869995 
263.653015 -3357.379883 1435.109985 
265.049011 -3358.280029 1434.250000 
263.806000 -3357.689941 1437.560059 
267.049988 -3359.439941 1435.910034 
266.998993 -3359.409912 1435.119995 
269.337006 -3360.560059 1433.510010 
263.975006 -3357.750000 1437.900024 
260.653015 -3355.020020 1435.510010 
259.890991 -3353.409912 1434.969971 
260.963013 -3354.530029 1434.790039 
260.972992 -3355.439941 1435.599976 
249.291000 -3347.659912 1441.069946 
248.322998 -3347.719971 1440.219971 
247.671005 -3347.719971 1440.150024 
247.059998 -3347.590088 1440.310059 
246.751999 -3347.590088 1440.150024 
246.442001 -3347.590088 1439.969971 
246.209000 -3347.600098 1439.880005 
246.026993 -3347.629883 1439.819946 
258.453003 -3352.179932 1435.750000 
259.200012 -3352.560059 1435.150024 
258.824005 -3352.330078 1435.369995 
247.490005 -3346.939941 1442.619995 
248.169998 -3347.280029 1442.140015 
246.960007 -3346.489990 1442.910034 
248.647003 -3347.520020 1441.219971 
244.785004 -3344.270020 1444.359985 
245.201996 -3344.530029 1444.209961 
245.453003 -3344.760010 1444.030029 
246.154007 -3345.570068 1443.459961 
244.085999 -3343.870117 1444.530029 
243.546997 -3343.550049 1444.469971 
242.889008 -3343.310059 1444.790039 
242.360001 -3343.389893 1445.150024 
242.576004 -3343.350098 1444.959961 
241.751007 -3343.459961 1445.650024 
241.863998 -3343.469971 1445.540039 
241.854004 -3343.469971 1445.469971 
242.085999 -3343.439941 1445.290039 
231.423004 -3345.919922 1462.589966 
226.602997 -3343.540039 1463.619995 
230.847000 -3346.179932 1462.819946 
217.376007 -3346.750000 1464.910034 
217.634003 -3346.469971 1464.880005 
218.860992 -3344.139893 1464.560059 
218.059998 -3345.830078 1464.790039 
217.335999 -3347.229980 1464.910034 
217.373993 -3347.850098 1464.869995 
219.570007 -3343.270020 1464.400024 
219.175003 -3343.600098 1464.479980 
217.335999 -3349.110107 1464.780029 
217.332001 -3348.530029 1464.839966 
217.570007 -3349.560059 1464.560059 
217.873993 -3350.020020 1464.300049 
218.182007 -3350.479980 1464.020020 
219.237000 -3351.379883 1462.750000 
219.638000 -3351.770020 1461.239990 
218.628006 -3350.840088 1463.609985 
219.091995 -3351.139893 1463.150024 
220.371994 -3352.239990 1460.020020 
220.082001 -3351.949951 1460.660034 
223.035004 -3343.139893 1464.010010 
226.811005 -3344.600098 1463.569946 
235.358002 -3347.110107 1461.689941 
236.919998 -3348.080078 1461.170044 
237.511002 -3348.310059 1461.150024 
237.339996 -3348.419922 1461.189941 
232.893005 -3346.489990 1462.770020 
233.582001 -3346.810059 1462.630005 
234.089005 -3347.020020 1462.430054 
234.953003 -3347.120117 1461.880005 
264.308014 -3357.500000 1439.079956 
264.757996 -3357.679932 1441.959961 
267.888000 -3358.770020 1439.760010 
269.669006 -3357.439941 1439.160034 
270.563995 -3355.469971 1438.880005 
269.897003 -3357.379883 1439.109985 
270.136993 -3357.340088 1439.079956 
270.364014 -3356.969971 1439.030029 
269.424988 -3357.969971 1439.239990 
268.269989 -3358.719971 1439.319946 
268.553009 -3358.659912 1439.390015 
268.141998 -3358.669922 1439.339966 
268.213013 -3358.699951 1439.329956 
268.848999 -3358.590088 1439.349976 
269.148010 -3358.399902 1439.310059 
268.057007 -3358.649902 1439.359985 
220.339005 -3352.100098 1461.670044 
220.953995 -3352.219971 1462.020020 
222.835999 -3352.570068 1460.219971 
235.832001 -3349.370117 1458.290039 
235.789001 -3349.659912 1457.780029 
235.962997 -3349.320068 1458.290039 
235.078995 -3349.959961 1456.510010 
235.410004 -3349.649902 1457.160034 
235.158005 -3350.040039 1456.349976 
235.074997 -3350.669922 1456.099976 
235.473007 -3350.120117 1456.969971 
235.018997 -3350.520020 1456.079956 
235.246002 -3350.090088 1456.239990 
229.488998 -3353.100098 1460.300049 
230.022003 -3352.649902 1460.859985 
230.863998 -3352.020020 1461.359985 
234.365005 -3350.110107 1461.430054 
232.636993 -3349.199951 1461.910034 
231.207001 -3350.290039 1461.969971 
235.403000 -3351.310059 1461.439941 
236.341003 -3351.919922 1461.770020 
237.067001 -3352.020020 1461.959961 
236.425995 -3351.669922 1461.729980 
230.742004 -3351.030029 1461.910034 
230.539993 -3351.679932 1461.660034 
230.354004 -3351.370117 1461.930054 
237.483994 -3349.219971 1461.130005 
236.113998 -3351.419922 1461.489990 
237.210999 -3351.959961 1461.949951 
237.063004 -3350.070068 1461.270020 
237.556000 -3349.399902 1461.180054 
238.149994 -3348.639893 1461.089966 
237.757996 -3348.560059 1461.040039 
238.268997 -3348.340088 1461.040039 
237.684006 -3348.199951 1461.109985 
238.031006 -3348.080078 1461.050049 
237.985001 -3348.590088 1461.170044 
238.283997 -3348.239990 1461.119995 
238.162994 -3348.459961 1461.170044 
238.229996 -3347.889893 1460.989990 
238.091003 -3347.949951 1461.010010 
238.292007 -3347.870117 1460.959961 
228.891998 -3354.050049 1460.430054 
228.634995 -3354.639893 1460.750000 
228.399994 -3354.889893 1460.979980 
224.356995 -3353.360107 1460.400024 
226.457993 -3354.909912 1461.060059 
227.746994 -3355.120117 1461.140015 
270.860992 -3356.340088 1438.910034 
270.604004 -3356.610107 1438.969971 
272.088989 -3357.459961 1438.119995 
271.782990 -3357.830078 1438.219971 
271.386993 -3354.239990 1438.030029 
272.502991 -3356.879883 1437.859985 
237.667007 -3342.800049 1447.989990 
237.003998 -3342.939941 1447.829956 
236.524994 -3342.919922 1447.849976 
236.391998 -3342.620117 1448.079956 
236.352005 -3342.340088 1448.310059 
238.248001 -3342.790039 1447.959961 
239.533005 -3342.790039 1447.819946 
238.848999 -3342.760010 1447.959961 
239.235992 -3342.719971 1447.819946 
238.886993 -3342.739990 1447.709961 
238.281006 -3342.760010 1447.760010 
237.272995 -3342.909912 1447.719971 
276.575989 -3352.469971 1432.500000 
276.684998 -3352.879883 1432.900024 
279.015991 -3354.669922 1430.189941 
280.846985 -3356.489990 1428.300049 
282.410004 -3357.370117 1427.959961 
282.776001 -3357.459961 1427.469971 
281.614990 -3356.989990 1428.089966 
283.946014 -3357.780029 1427.199951 
284.115997 -3357.689941 1426.670044 
284.592987 -3357.800049 1426.790039 
284.757996 -3358.040039 1426.739990 
285.178986 -3358.010010 1426.380005 
286.294006 -3357.770020 1424.849976 
288.475006 -3356.729980 1423.880005 
288.342987 -3356.909912 1423.619995 
285.585999 -3357.939941 1425.939941 
286.311005 -3357.550049 1424.989990 
286.231995 -3357.520020 1425.339966 
290.209015 -3356.679932 1423.050049 
290.494995 -3356.479980 1422.839966 
290.308990 -3356.620117 1422.680054 
290.027008 -3359.270020 1421.349976 
291.381012 -3358.229980 1420.630005 
290.985992 -3357.469971 1421.430054 
290.927002 -3356.989990 1421.910034 
288.487000 -3368.310059 1419.949951 
287.264008 -3369.159912 1420.380005 
289.362000 -3368.080078 1419.400024 
291.899994 -3368.129883 1419.209961 
294.299988 -3369.489990 1418.459961 
294.822998 -3369.169922 1418.540039 
295.149994 -3370.090088 1417.829956 
295.101990 -3369.070068 1418.510010 
290.722992 -3360.169922 1420.869995 
291.212006 -3362.830078 1421.650024 
293.877991 -3367.139893 1419.810059 
295.415985 -3369.030029 1418.410034 
273.429993 -3358.959961 1426.739990 
274.817993 -3360.189941 1425.829956 
276.157013 -3361.090088 1424.810059 
278.192993 -3362.169922 1423.189941 
280.536011 -3363.639893 1423.130005 
279.460999 -3362.820068 1423.160034 
271.287994 -3358.090088 1427.689941 
281.362000 -3366.550049 1421.680054 
281.915985 -3368.739990 1420.209961 
283.985992 -3369.409912 1419.579956 
285.545990 -3370.290039 1419.579956 
270.058014 -3357.379883 1428.170044 
270.519012 -3357.760010 1428.160034 
268.993988 -3357.159912 1428.260010 
269.911987 -3357.560059 1428.310059 
266.061005 -3356.510010 1427.410034 
265.550995 -3356.929932 1426.869995 
265.049011 -3356.520020 1426.819946 
267.347992 -3356.379883 1428.150024 
266.636993 -3356.679932 1427.630005 
264.028992 -3356.689941 1426.449951 
264.667999 -3356.939941 1426.359985 
263.179993 -3355.879883 1427.640015 
263.006012 -3355.050049 1428.420044 
262.294006 -3353.979980 1429.729980 
261.565002 -3353.149902 1430.859985 
260.858002 -3352.280029 1432.010010 
260.192993 -3351.100098 1433.380005 
250.479004 -3340.139893 1439.859985 
250.856995 -3340.639893 1440.209961 
251.975998 -3341.679932 1439.979980 
251.744995 -3341.540039 1440.199951 
250.257996 -3339.830078 1439.430054 
251.056000 -3340.689941 1439.989990 
240.417999 -3343.409912 1446.520020 
239.209000 -3343.199951 1446.969971 
240.826996 -3343.379883 1446.209961 
240.302994 -3343.469971 1446.469971 
240.419998 -3343.479980 1446.380005 
240.363998 -3343.520020 1446.329956 
240.529007 -3343.479980 1446.239990 
240.975006 -3343.370117 1446.099976 
241.154007 -3343.379883 1445.979980 
241.552002 -3343.429932 1445.729980 
241.356995 -3343.409912 1445.849976 
240.485992 -3345.159912 1444.989990 
240.365005 -3344.600098 1445.599976 
240.169006 -3344.080078 1446.239990 
239.472000 -3343.469971 1447.239990 
239.404999 -3343.659912 1447.089966 
239.529007 -3343.250000 1447.420044 
239.563004 -3343.050049 1447.599976 
238.686996 -3342.949951 1447.380005 
238.371994 -3343.080078 1447.260010 
239.074997 -3342.820068 1447.579956 
240.623001 -3346.590088 1443.520020 
240.727005 -3346.850098 1443.199951 
240.494003 -3345.989990 1444.189941 
240.345993 -3345.340088 1444.910034 
240.932007 -3346.919922 1442.969971 
242.052994 -3347.429932 1441.680054 
242.391998 -3347.560059 1441.310059 
241.589996 -3347.199951 1442.219971 
242.595001 -3347.580078 1441.270020 
242.477005 -3347.550049 1441.310059 
241.113998 -3346.989990 1442.770020 
242.996994 -3347.679932 1441.140015 
242.852997 -3347.620117 1441.229980 
242.725998 -3347.580078 1441.280029 
242.613007 -3347.540039 1441.339966 
243.225998 -3347.639893 1441.140015 
245.214005 -3347.429932 1440.770020 
245.656006 -3347.419922 1440.449951 
245.052994 -3347.409912 1440.869995 
244.712006 -3347.449951 1440.920044 
244.365005 -3347.530029 1440.930054 
244.013000 -3347.540039 1441.020020 
243.671005 -3347.560059 1441.119995 
258.621002 -3351.969971 1435.250000 
258.816010 -3351.879883 1434.859985 
259.022003 -3351.679932 1434.530029 
258.980988 -3351.300049 1434.109985 
259.040009 -3351.580078 1434.229980 
272.865997 -3356.290039 1437.640015 
273.044006 -3355.669922 1437.540039 
273.209015 -3355.110107 1437.300049 
276.589996 -3355.800049 1434.699951 
275.942993 -3355.570068 1435.180054 
273.212006 -3353.139893 1436.189941 
276.746002 -3355.560059 1434.560059 
274.393005 -3353.229980 1435.310059 
275.468994 -3355.879883 1435.829956 
275.968994 -3355.919922 1435.329956 
274.920990 -3352.860107 1434.859985 
277.493988 -3354.870117 1434.040039 
277.738007 -3354.850098 1433.680054 
277.987000 -3354.639893 1432.770020 
280.485992 -3356.919922 1431.109985 
280.631989 -3357.169922 1431.339966 
278.032013 -3354.409912 1432.300049 
262.921997 -3356.239990 1434.439941 
263.480011 -3357.169922 1434.849976 
261.609009 -3355.110107 1434.739990 
271.045990 -3361.459961 1432.260010 
270.881012 -3361.340088 1431.640015 
270.871002 -3361.270020 1431.180054 
268.213013 -3359.810059 1432.300049 
265.864014 -3358.570068 1433.520020 
267.131989 -3359.459961 1436.339966 
269.571014 -3360.709961 1434.939941 
269.479004 -3360.669922 1434.400024 
271.161987 -3361.419922 1433.310059 
260.808990 -3354.149902 1434.609985 
259.651001 -3352.760010 1434.709961 
247.882996 -3347.629883 1440.540039 
247.416000 -3347.610107 1440.449951 
246.796997 -3347.459961 1440.650024 
246.429001 -3347.429932 1440.530029 
245.977997 -3347.409912 1440.430054 
258.838013 -3352.139893 1435.050049 
259.011993 -3352.239990 1434.969971 
247.610001 -3347.010010 1442.300049 
247.016006 -3346.570068 1442.719971 
248.128998 -3347.310059 1441.449951 
247.526993 -3347.379883 1440.900024 
245.380997 -3344.739990 1443.839966 
245.044998 -3344.500000 1443.900024 
244.432999 -3344.110107 1444.250000 
246.145004 -3345.580078 1443.310059 
243.753006 -3343.679932 1444.280029 
242.901001 -3343.370117 1444.709961 
242.294006 -3343.389893 1445.099976 
242.477997 -3343.360107 1444.920044 
241.682007 -3343.459961 1445.609985 
241.820007 -3343.469971 1445.400024 
241.664993 -3343.459961 1445.530029 
242.031006 -3343.439941 1445.229980 
230.841995 -3346.429932 1462.910034 
217.492996 -3347.120117 1464.910034 
217.707001 -3347.040039 1464.890015 
219.153000 -3344.540039 1464.520020 
218.589996 -3345.679932 1464.680054 
218.369995 -3346.870117 1464.750000 
217.550003 -3347.439941 1464.869995 
217.667007 -3348.120117 1464.780029 
217.649002 -3348.840088 1464.699951 
219.720001 -3344.199951 1464.380005 
222.557007 -3343.959961 1464.050049 
217.768005 -3349.540039 1464.520020 
218.072006 -3350.040039 1464.239990 
218.395004 -3350.510010 1463.930054 
219.621002 -3351.500000 1462.400024 
218.884003 -3350.850098 1463.459961 
219.371994 -3351.169922 1462.959961 
220.179001 -3351.909912 1461.770020 
220.013000 -3351.719971 1461.930054 
226.940994 -3345.790039 1463.540039 
230.940002 -3346.679932 1462.949951 
236.554001 -3347.919922 1461.260010 
237.869003 -3348.790039 1461.229980 
237.162994 -3348.520020 1461.219971 
237.753998 -3348.979980 1461.290039 
237.500000 -3348.929932 1461.290039 
233.039993 -3346.870117 1462.739990 
233.856003 -3347.229980 1462.540039 
235.998993 -3347.979980 1461.520020 
234.276993 -3347.320068 1462.260010 
236.072006 -3347.560059 1461.439941 
263.937988 -3357.020020 1441.479980 
264.653992 -3357.469971 1439.670044 
266.522003 -3358.959961 1437.390015 
267.183014 -3358.560059 1439.119995 
264.886993 -3358.159912 1442.119995 
267.729004 -3358.949951 1439.869995 
268.088989 -3358.729980 1439.520020 
268.014008 -3358.679932 1439.400024 
269.476990 -3358.629883 1439.229980 
269.721008 -3358.469971 1439.180054 
269.903992 -3358.290039 1439.170044 
270.468994 -3358.979980 1438.329956 
270.678986 -3358.840088 1438.339966 
270.971008 -3358.649902 1438.310059 
269.148987 -3358.760010 1439.250000 
267.923004 -3358.840088 1438.680054 
268.240997 -3358.959961 1438.630005 
268.380005 -3358.770020 1439.290039 
267.579010 -3358.739990 1438.760010 
268.527008 -3358.800049 1439.260010 
268.812988 -3358.780029 1439.260010 
267.328003 -3358.639893 1438.920044 
220.417007 -3351.919922 1462.640015 
221.035995 -3352.290039 1462.390015 
222.360001 -3352.520020 1461.060059 
235.585007 -3349.570068 1457.229980 
235.751007 -3349.830078 1457.339966 
235.983002 -3349.570068 1457.709961 
236.093002 -3349.280029 1458.260010 
235.813004 -3349.439941 1457.520020 
235.289993 -3350.530029 1456.060059 
235.516006 -3350.189941 1456.709961 
235.132004 -3350.530029 1455.959961 
235.332001 -3350.139893 1456.109985 
235.690994 -3349.629883 1456.810059 
229.119003 -3353.570068 1460.770020 
230.419006 -3352.889893 1461.130005 
230.908005 -3352.350098 1461.250000 
234.156998 -3349.649902 1461.479980 
233.914001 -3349.300049 1461.699951 
234.776993 -3350.340088 1461.439941 
231.494995 -3349.419922 1462.280029 
230.656006 -3350.629883 1462.109985 
235.662003 -3351.080078 1461.339966 
236.197006 -3351.290039 1461.550049 
236.567993 -3351.449951 1461.709961 
237.524002 -3352.179932 1462.150024 
236.904007 -3352.070068 1461.979980 
236.936005 -3351.850098 1461.930054 
238.541000 -3352.239990 1462.410034 
238.481995 -3352.169922 1462.349976 
237.412994 -3351.520020 1461.969971 
237.667999 -3351.729980 1462.099976 
230.102997 -3351.189941 1462.119995 
229.524994 -3352.379883 1461.410034 
229.371002 -3351.909912 1461.839966 
236.214005 -3351.409912 1461.489990 
237.291000 -3351.889893 1461.920044 
238.470993 -3352.110107 1462.310059 
237.063995 -3350.239990 1461.300049 
237.850998 -3349.320068 1461.199951 
238.306000 -3348.669922 1461.119995 
238.483994 -3348.250000 1461.089966 
238.505005 -3347.969971 1461.069946 
238.481003 -3347.889893 1461.010010 
238.270004 -3348.139893 1461.050049 
238.352005 -3348.070068 1461.060059 
238.056000 -3348.659912 1461.219971 
238.395996 -3348.149902 1461.130005 
238.266006 -3348.370117 1461.180054 
238.151001 -3348.590088 1461.239990 
228.500000 -3354.270020 1460.869995 
228.238007 -3354.500000 1461.130005 
227.903000 -3354.750000 1461.369995 
224.774994 -3353.560059 1461.000000 
226.848999 -3354.879883 1461.500000 
271.554993 -3358.179932 1438.209961 
271.247009 -3358.429932 1438.290039 
274.466003 -3359.320068 1435.969971 
275.385986 -3359.169922 1435.540039 
273.837006 -3359.510010 1436.219971 
276.354004 -3359.020020 1435.109985 
237.651993 -3342.919922 1447.819946 
236.697006 -3343.090088 1447.640015 
237.317993 -3343.070068 1447.689941 
238.649994 -3342.889893 1447.810059 
238.175003 -3342.959961 1447.770020 
239.104996 -3342.909912 1447.790039 
238.610001 -3342.870117 1447.510010 
238.084000 -3342.870117 1447.609985 
237.343994 -3343.010010 1447.560059 
279.148010 -3354.959961 1430.589966 
279.237000 -3355.229980 1431.000000 
280.963013 -3356.729980 1428.869995 
281.851990 -3357.209961 1428.520020 
283.598999 -3357.790039 1427.760010 
283.157990 -3357.679932 1428.260010 
284.522003 -3357.969971 1427.589966 
284.684998 -3357.780029 1427.180054 
285.078003 -3357.860107 1427.160034 
285.317993 -3357.919922 1426.810059 
285.695007 -3357.850098 1426.400024 
288.450989 -3356.360107 1424.349976 
288.682007 -3356.479980 1424.089966 
290.852997 -3355.679932 1423.750000 
290.591003 -3356.189941 1423.349976 
286.259003 -3357.459961 1425.729980 
288.536987 -3356.169922 1424.630005 
288.648987 -3356.010010 1424.939941 
291.052002 -3356.090088 1422.969971 
291.455994 -3356.010010 1422.599976 
291.194000 -3356.429932 1422.310059 
292.040009 -3359.149902 1419.540039 
291.761993 -3357.790039 1420.709961 
292.313995 -3358.889893 1419.310059 
291.696014 -3357.260010 1421.199951 
291.726013 -3356.840088 1421.560059 
288.287994 -3369.760010 1419.819946 
289.056000 -3369.310059 1419.280029 
286.782013 -3370.889893 1419.530029 
290.119995 -3368.439941 1419.010010 
292.410004 -3368.870117 1418.709961 
295.208008 -3371.040039 1416.979980 
296.001007 -3371.479980 1416.449951 
296.796997 -3371.060059 1416.540039 
296.559998 -3371.239990 1416.510010 
297.494995 -3372.770020 1415.050049 
297.029999 -3370.889893 1416.520020 
291.852997 -3361.060059 1420.079956 
292.804993 -3359.860107 1418.530029 
293.369995 -3366.100098 1420.349976 
295.434998 -3368.580078 1418.609985 
297.105988 -3370.570068 1416.640015 
273.457001 -3359.399902 1426.800049 
274.451996 -3360.219971 1426.150024 
275.931000 -3361.459961 1424.839966 
277.303009 -3362.090088 1423.449951 
278.506989 -3363.100098 1422.869995 
279.210999 -3363.300049 1423.010010 
280.203003 -3363.909912 1422.969971 
280.373993 -3365.770020 1421.890015 
271.834015 -3358.639893 1427.599976 
270.751007 -3358.139893 1428.209961 
280.273010 -3368.659912 1420.119995 
282.040009 -3370.540039 1418.750000 
283.691986 -3371.429932 1418.670044 
284.863007 -3371.979980 1418.619995 
270.274994 -3357.919922 1428.380005 
268.979004 -3357.360107 1428.280029 
269.828003 -3357.800049 1428.449951 
266.217010 -3357.250000 1427.069946 
265.566010 -3357.459961 1426.599976 
265.019989 -3357.419922 1426.300049 
268.260986 -3357.199951 1428.140015 
268.164001 -3357.360107 1428.130005 
266.832001 -3357.290039 1427.390015 
264.279999 -3357.439941 1425.900024 
263.408997 -3356.919922 1426.550049 
262.493988 -3355.949951 1427.910034 
262.268005 -3354.770020 1429.109985 
261.427002 -3353.780029 1430.439941 
260.576996 -3352.780029 1431.780029 
259.604004 -3351.469971 1433.469971 
259.886993 -3351.239990 1433.469971 
251.223007 -3340.719971 1439.780029 
252.123993 -3341.669922 1439.829956 
250.542999 -3339.860107 1439.109985 
239.214996 -3343.280029 1446.880005 
238.195007 -3343.149902 1447.209961 
240.667999 -3343.459961 1446.140015 
239.223007 -3343.370117 1446.780029 
240.207993 -3343.550049 1446.390015 
240.091003 -3343.610107 1446.349976 
240.237000 -3343.580078 1446.280029 
240.378998 -3343.560059 1446.180054 
241.009995 -3343.389893 1445.969971 
240.806000 -3343.439941 1446.050049 
241.199997 -3343.389893 1445.880005 
241.373001 -3343.419922 1445.760010 
241.518005 -3343.439941 1445.650024 
240.246002 -3344.770020 1445.520020 
240.035004 -3344.239990 1446.170044 
239.348007 -3343.850098 1446.939941 
238.557999 -3343.570068 1447.270020 
238.556000 -3343.419922 1447.390015 
238.690002 -3343.270020 1447.510010 
238.567993 -3343.750000 1447.119995 
238.742996 -3343.090088 1447.650024 
237.942001 -3343.030029 1447.400024 
240.382996 -3346.399902 1443.869995 
240.440994 -3346.689941 1443.540039 
240.246994 -3345.820068 1444.510010 
240.123993 -3345.239990 1445.150024 
239.542999 -3344.340088 1446.319946 
240.673996 -3346.790039 1443.270020 
241.975998 -3347.370117 1441.780029 
242.307999 -3347.500000 1441.410034 
241.593994 -3347.179932 1442.219971 
241.188995 -3347.000000 1442.689941 
242.509003 -3347.520020 1441.369995 
242.389008 -3347.489990 1441.410034 
240.701996 -3346.780029 1443.250000 
243.024994 -3347.620117 1441.239990 
242.927994 -3347.620117 1441.239990 
242.854996 -3347.560059 1441.329956 
242.725006 -3347.520020 1441.300049 
242.660004 -3347.520020 1441.390015 
242.526993 -3347.469971 1441.449951 
243.388000 -3347.560059 1441.209961 
245.432999 -3347.360107 1440.800049 
245.285995 -3347.330078 1440.920044 
244.895996 -3347.370117 1440.979980 
244.423004 -3347.459961 1441.010010 
244.104996 -3347.479980 1441.089966 
243.822998 -3347.479980 1441.180054 
258.988007 -3352.060059 1434.709961 
259.035004 -3351.840088 1434.430054 
258.959991 -3351.530029 1434.060059 
276.687988 -3358.399902 1435.079956 
277.291992 -3358.100098 1434.719971 
279.371002 -3357.969971 1433.260010 
280.730988 -3357.580078 1432.619995 
277.148010 -3355.419922 1434.349976 
280.601990 -3357.100098 1432.589966 
277.369995 -3355.120117 1434.209961 
278.786011 -3358.469971 1433.630005 
280.898987 -3357.520020 1431.410034 
280.541992 -3356.959961 1432.089966 
280.593994 -3356.780029 1430.469971 
281.411011 -3357.540039 1430.319946 
281.346008 -3357.320068 1430.000000 
281.572998 -3357.840088 1430.449951 
265.407990 -3356.989990 1432.030029 
266.260986 -3357.919922 1432.050049 
266.028015 -3358.449951 1433.099976 
262.574005 -3355.550049 1433.949951 
260.718994 -3353.870117 1434.459961 
272.394012 -3362.360107 1432.400024 
272.466003 -3362.350098 1431.479980 
272.317993 -3362.159912 1430.780029 
269.385010 -3360.340088 1431.400024 
272.119995 -3361.860107 1430.380005 
269.835999 -3360.800049 1435.229980 
271.053986 -3361.379883 1434.310059 
272.204010 -3362.219971 1433.239990 
259.687988 -3352.659912 1434.469971 
259.250000 -3352.270020 1434.729980 
247.128998 -3347.409912 1440.800049 
246.317001 -3347.340088 1440.800049 
246.496994 -3347.239990 1440.989990 
245.828003 -3347.239990 1440.930054 
245.742004 -3347.300049 1440.790039 
259.079987 -3352.129883 1434.650024 
247.276001 -3346.790039 1442.339966 
247.641998 -3347.030029 1441.689941 
246.960007 -3346.520020 1442.579956 
247.195007 -3347.110107 1441.300049 
246.886993 -3347.179932 1441.150024 
245.375000 -3344.790039 1443.599976 
244.897003 -3344.449951 1443.780029 
244.434006 -3344.149902 1444.000000 
246.143005 -3345.590088 1443.170044 
243.755997 -3343.719971 1444.160034 
243.011002 -3343.469971 1444.579956 
242.175995 -3343.409912 1445.069946 
242.511993 -3343.399902 1444.819946 
241.804001 -3343.469971 1445.319946 
241.645996 -3343.469971 1445.449951 
241.503998 -3343.439941 1445.569946 
217.764008 -3347.270020 1464.849976 
218.404007 -3347.270020 1464.689941 
219.850998 -3346.280029 1464.420044 
220.554001 -3345.959961 1464.319946 
219.235992 -3346.719971 1464.550049 
219.143005 -3347.360107 1464.469971 
218.052002 -3348.060059 1464.640015 
218.052994 -3349.000000 1464.500000 
218.113998 -3349.719971 1464.359985 
223.125000 -3345.590088 1463.979980 
226.996994 -3346.750000 1463.540039 
218.352997 -3350.159912 1464.119995 
218.628006 -3350.540039 1463.810059 
219.917007 -3351.489990 1462.609985 
219.141998 -3350.870117 1463.290039 
219.774994 -3351.239990 1462.949951 
220.251999 -3351.719971 1462.670044 
230.593002 -3346.939941 1463.060059 
232.994003 -3347.199951 1462.719971 
236.582001 -3348.129883 1461.280029 
237.985001 -3348.830078 1461.280029 
237.294998 -3348.919922 1461.300049 
237.598999 -3349.290039 1461.369995 
237.830994 -3349.120117 1461.349976 
233.988998 -3347.629883 1462.439941 
235.514008 -3348.409912 1461.560059 
236.774002 -3348.979980 1461.280029 
237.216003 -3349.639893 1461.410034 
264.450989 -3357.469971 1441.420044 
264.640015 -3357.409912 1439.920044 
267.023010 -3358.510010 1439.329956 
267.033997 -3359.250000 1437.229980 
269.901001 -3360.830078 1435.469971 
267.967010 -3358.750000 1439.479980 
267.951996 -3358.709961 1439.410034 
267.653992 -3359.159912 1439.880005 
264.884003 -3358.489990 1442.069946 
268.128998 -3358.810059 1439.609985 
269.799011 -3359.189941 1438.280029 
270.010010 -3359.120117 1438.280029 
270.184998 -3359.030029 1438.339966 
271.540985 -3359.929932 1436.859985 
272.783997 -3360.250000 1436.150024 
273.302002 -3360.159912 1436.079956 
273.523010 -3359.840088 1436.189941 
269.210999 -3359.219971 1438.380005 
269.509003 -3359.219971 1438.319946 
268.774994 -3359.840088 1436.979980 
267.558014 -3359.340088 1437.250000 
269.326996 -3360.320068 1436.349976 
268.566986 -3359.060059 1438.569946 
269.145996 -3359.899902 1437.000000 
268.894989 -3359.159912 1438.449951 
220.623993 -3351.790039 1463.020020 
221.352005 -3352.370117 1462.619995 
222.996002 -3352.600098 1461.430054 
235.794998 -3349.889893 1457.109985 
236.237000 -3349.209961 1458.270020 
235.992004 -3349.729980 1457.260010 
236.143005 -3349.459961 1457.780029 
236.009003 -3349.350098 1457.579956 
235.397995 -3350.520020 1455.930054 
235.750000 -3350.050049 1456.750000 
235.397003 -3350.239990 1455.959961 
235.492004 -3350.290039 1455.829956 
235.766006 -3349.689941 1456.510010 
235.897995 -3349.659912 1456.479980 
235.927002 -3349.520020 1456.969971 
228.835999 -3353.760010 1460.949951 
229.604004 -3353.149902 1461.020020 
235.041000 -3349.909912 1461.380005 
234.455994 -3349.010010 1461.550049 
233.014008 -3348.870117 1462.150024 
234.214005 -3349.189941 1461.609985 
230.813004 -3349.760010 1462.420044 
230.005005 -3350.870117 1462.270020 
235.970993 -3350.790039 1461.250000 
236.352997 -3351.010010 1461.439941 
236.852005 -3351.040039 1461.660034 
237.139008 -3351.280029 1461.819946 
237.570007 -3352.250000 1462.219971 
238.649002 -3352.389893 1462.530029 
238.656998 -3352.350098 1462.489990 
237.916000 -3351.949951 1462.229980 
238.423004 -3352.080078 1462.369995 
238.261993 -3351.899902 1462.239990 
238.253006 -3351.840088 1462.189941 
237.731995 -3351.550049 1462.030029 
238.074997 -3351.810059 1462.199951 
229.453995 -3351.129883 1462.390015 
228.522003 -3353.139893 1461.140015 
228.834000 -3351.939941 1462.000000 
228.292007 -3352.659912 1461.650024 
236.416000 -3351.360107 1461.510010 
238.423004 -3351.959961 1462.199951 
237.391006 -3351.810059 1461.890015 
238.462006 -3352.050049 1462.260010 
237.479996 -3349.929932 1461.280029 
238.240005 -3349.110107 1461.199951 
238.419006 -3348.689941 1461.160034 
238.496994 -3348.360107 1461.140015 
238.544998 -3348.020020 1461.130005 
238.391006 -3348.250000 1461.189941 
238.259003 -3348.479980 1461.239990 
238.059006 -3348.810059 1461.310059 
228.102997 -3353.979980 1461.229980 
227.837006 -3354.209961 1461.469971 
227.113998 -3354.540039 1461.739990 
225.554001 -3354.030029 1461.660034 
277.338989 -3360.750000 1434.250000 
276.476990 -3360.770020 1434.579956 
279.009003 -3361.459961 1433.459961 
275.756012 -3360.939941 1434.839966 
279.329987 -3360.850098 1433.430054 
238.013000 -3343.129883 1447.630005 
237.315002 -3343.239990 1447.560059 
236.832993 -3343.219971 1447.500000 
237.455994 -3343.100098 1447.420044 
281.026001 -3356.939941 1429.479980 
282.553009 -3357.570068 1428.560059 
281.665985 -3357.310059 1429.260010 
284.210999 -3358.040039 1428.109985 
283.640015 -3358.010010 1428.619995 
285.080994 -3357.889893 1427.750000 
284.931000 -3358.070068 1428.099976 
285.322998 -3357.770020 1427.500000 
285.613007 -3357.790039 1427.079956 
285.854004 -3357.739990 1426.739990 
286.359985 -3357.350098 1426.079956 
290.653992 -3355.489990 1424.209961 
291.571014 -3355.489990 1423.410034 
291.403015 -3355.100098 1424.290039 
291.678009 -3355.209961 1423.910034 
288.657990 -3355.919922 1425.250000 
290.963013 -3355.040039 1424.719971 
291.005005 -3354.800049 1425.199951 
291.869995 -3355.570068 1423.020020 
291.875000 -3356.489990 1421.689941 
291.993011 -3356.110107 1422.000000 
293.281006 -3359.750000 1417.959961 
292.489990 -3358.600098 1419.130005 
292.460999 -3358.179932 1419.359985 
293.520996 -3359.530029 1417.640015 
292.096985 -3357.479980 1420.420044 
292.148987 -3357.100098 1420.680054 
