-304.285 -3242.37 1429.84
-304.221 -3243.12 1428.21
-306.287 -3236.56 1426.93
-306.479 -3236.23 1426.6
-306.635 -3235.88 1426.16
-306.781 -3235.18 1424.9
-308.025 -3227.63 1422.49
-307.226 -3234.58 1421.54
-307.676 -3233.29 1420.01
-307.955 -3232.59 1419.6
-308.027 -3231.57 1419.9
-307.889 -3228.61 1421.57
-308.086 -3232.32 1419.33
-307.844 -3226.38 1422.36
-307.668 -3225.16 1422.27
-307.72 -3224.65 1422.16
-308.1 -3222.87 1422.39
-308.142 -3222.98 1422.17
-307.67 -3222.06 1423.72
-307.288 -3222.34 1424.18
-307.876 -3222.17 1423.12
-306.726 -3222.21 1424.88
-308.086 -3222.02 1422.91
-306.598 -3221.84 1425.24
-305.083 -3237.68 1428.12
-304.651 -3238.35 1427.44
-305.734 -3237.15 1427.56
-306.261 -3236.69 1426.8
-304.301 -3239.64 1423.63
-304.559 -3238.96 1425.51
-303.347 -3242.57 1423.26
-304.157 -3240.05 1421.93
-303.915 -3240.77 1422.07
-303.425 -3242.44 1424.49
-305.441 -3219.18 1427.6
-305.394 -3219.64 1427.28
-306.182 -3220.51 1426.2
-306.016 -3220.79 1426.21
-306.85 -3221.82 1424.97
-306.795 -3221.53 1425.27
-305.476 -3218.68 1427.98
-305.034 -3215.42 1432.33
-305.791 -3217.21 1429.54
-305.692 -3218.48 1427.98
-303.658 -3213.18 1436.99
-304.373 -3213.73 1436.11
-304.511 -3214.4 1434.84
-304.851 -3214.44 1434.63
-305.135 -3215.42 1432.34
-305.411 -3215.55 1432.07
-302.857 -3210.41 1436.6
-302.861 -3210.08 1436.4
-302.801 -3212.25 1437.54
-302.855 -3211.54 1437.33
-302.887 -3210.83 1437
-302.928 -3210.73 1437.1
-302.919 -3210 1436.58
-302.924 -3210.26 1436.77
-302.965 -3212.44 1437.68
-302.923 -3212.41 1437.67
-303.007 -3212.48 1437.7
-302.833 -3212.32 1437.66
-302.881 -3212.37 1437.66
-303.141 -3212.6 1437.72
-303.096 -3212.54 1437.77
-303.134 -3212.57 1437.81
-303.042 -3212.48 1437.81
-303.08 -3212.51 1437.84
-303.247 -3212.71 1437.66
-303.539 -3212.99 1437.28
-303.303 -3209.43 1437.92
-303.304 -3209.17 1437.56
-303.242 -3208.46 1436.64
-303.293 -3208.96 1437.17
-303.254 -3208.78 1436.82
-303.329 -3209.71 1438.16
-303.111 -3208.56 1436.32
-301.695 -3204.57 1443.03
-301.71 -3204.35 1443.16
-301.718 -3204.18 1443.22
-301.713 -3204.1 1443.19
-301.735 -3203.85 1443.37
-301.767 -3203.43 1443.62
-301.744 -3203.65 1443.43
-301.754 -3203.34 1443.17
-301.761 -3203.15 1443.18
-301.747 -3203.51 1443.16
-301.939 -3202.39 1443.72
-301.916 -3202.18 1443.54
-301.875 -3202.62 1443.64
-301.781 -3202.93 1443.3
-301.861 -3202.44 1443.49
-301.821 -3202.65 1443.43
-301.789 -3202.77 1443.32
-301.852 -3202.4 1443.69
-301.838 -3202.43 1443.98
-301.869 -3202.46 1443.39
-301.809 -3202.67 1443.71
-301.893 -3202.51 1443.14
-301.771 -3202.96 1443.21
-301.775 -3203.24 1443.66
-301.777 -3203.08 1443.55
-301.784 -3202.9 1443.5
-303.696 -3210.37 1439.85
-306.639 -3210.74 1438.94
-304.648 -3212.17 1438.01
-304.173 -3210.59 1439.58
-303.647 -3210.54 1439.72
-303.617 -3210.68 1439.61
-303.51 -3210.72 1439.63
-303.391 -3210.7 1439.7
-301.71 -3204.21 1443.04
-301.704 -3204.37 1443.04
-301.722 -3203.91 1443.06
-301.704 -3204.14 1442.97
-301.728 -3203.72 1443.05
-303.328 -3210.76 1439.61
-303.341 -3210.6 1439.27
-303.319 -3210.34 1439.03
-303.363 -3210.25 1438.7
-303.364 -3209.99 1438.36
-308.486 -3208.36 1441.25
-310.49 -3207.63 1442.2
-311.373 -3207.59 1442.72
-312.363 -3208.05 1442.52
-312.061 -3207.83 1442.49
-313.116 -3208.9 1442.64
-313.105 -3208.83 1442.54
-313.294 -3210.92 1440.65
-313.426 -3211.73 1439.86
-313.227 -3212.13 1439.14
-313.77 -3211.34 1440.57
-312.405 -3212.73 1437.6
-312.859 -3212.64 1438.13
-311.902 -3213.4 1436.14
-311.3 -3214.16 1434.43
-314.158 -3211.34 1440.88
-313.801 -3210.77 1441.23
-313.815 -3210.41 1441.64
-313.809 -3210.06 1442.03
-313.757 -3209.65 1442.43
-309.434 -3215.4 1430.41
-309.671 -3215.22 1430.92
-302.776 -3208.47 1434.43
-303.031 -3208.73 1434.26
-302.676 -3208.15 1434.5
-302.891 -3209.01 1434.48
-302.674 -3208.87 1434.66
-302.642 -3209.02 1434.9
-302.695 -3208.51 1434.79
-302.657 -3208.54 1434.67
-302.993 -3209.2 1436.36
-302.93 -3209.61 1436.37
-310.365 -3214.09 1433.79
-310.004 -3214.25 1433.19
-309.869 -3214.4 1432.65
-310.706 -3214.34 1433.7
-309.8 -3214.82 1431.67
-304.567 -3213.06 1430.58
-304.76 -3212.6 1430.39
-304.903 -3212.18 1430.12
-304.661 -3212.15 1429.99
-304.52 -3212.28 1430.12
-304.402 -3213.08 1430.59
-304.532 -3213.33 1430.55
-308.369 -3221.65 1421.79
-308.361 -3220.94 1422.41
-308.5 -3220.46 1422.67
-308.834 -3219.78 1423.48
-308.315 -3222.3 1420.96
-308.191 -3222.82 1420.59
-307.753 -3224.2 1419.56
-307.473 -3226.05 1419.64
-307.319 -3227.36 1419.22
-307.627 -3225.82 1420.63
-306.751 -3227.68 1416.56
-306.791 -3228.59 1415.68
-307.573 -3230.65 1416.63
-307.585 -3230.51 1416.72
-307.061 -3230.12 1415.91
-307.665 -3231 1416.66
-307.855 -3231.12 1416.8
-306.437 -3228.71 1414.45
-305.702 -3228.21 1413.27
-305.544 -3227.97 1412.88
-305.621 -3227.44 1412.81
-305.486 -3227.1 1411.6
-305.184 -3226.92 1410.34
-305.074 -3226.99 1409.96
-305.033 -3227.11 1409.62
-304.862 -3226.68 1409.29
-304.701 -3226.34 1409.1
-304.042 -3226.54 1408.13
-304.703 -3226.57 1409.02
-303.385 -3227.29 1407.75
-303.453 -3228.39 1408.16
-304.279 -3228.4 1409.25
-302.538 -3230.98 1407.65
-301.101 -3231.91 1405.32
-308.849 -3217.36 1426.06
-308.481 -3216.53 1427.39
-308.595 -3216.13 1428.14
-308.84 -3215.71 1429.16
-309.046 -3215.5 1429.78
-309.327 -3218.53 1425.01
-309.472 -3218.94 1424.98
-309.418 -3219.1 1424.71
-309.324 -3219.33 1424.32
-305.261 -3241.21 1440.83
-305.47 -3240.73 1440.8
-306.326 -3238.17 1441.23
-307.239 -3236.04 1442.24
-307.488 -3235.71 1442.37
-302.157 -3247.24 1435.99
-304.255 -3242.2 1440.28
-305.094 -3241.48 1440.75
-304.542 -3241.42 1439.78
-301.877 -3247.85 1435.6
-300.955 -3247.7 1431.25
-300.349 -3248.66 1430.58
-299.362 -3249.79 1429.59
-297.827 -3252.42 1427.62
-298.172 -3251.59 1426.47
-298.457 -3250.62 1428.15
-298.322 -3250.88 1427.84
-298.675 -3250.33 1428.42
-299.471 -3249.44 1429.36
-292.875 -3257.89 1415.23
-294.702 -3256.15 1416.86
-295.935 -3254.46 1416.69
-295.973 -3254.42 1417.83
-296.863 -3253 1417.64
-295.871 -3254.15 1419.86
-295.504 -3254.91 1418.95
-296.671 -3253.02 1419.14
-296.854 -3252.86 1420.34
-297.43 -3252.53 1422.05
-297.974 -3252.15 1422.99
-297.98 -3251.81 1421.09
-298.144 -3251.47 1420.86
-298.613 -3250.81 1424.69
-298.913 -3250.47 1422.77
-299.049 -3250.16 1422.13
-305.382 -3240.55 1440.46
-305.35 -3240.99 1440.5
-301.74 -3246.31 1431.09
-301.281 -3246.98 1431.33
-302.262 -3245.6 1430.67
-302.528 -3245 1430.49
-302.695 -3244.16 1431.33
-303.337 -3242.49 1432.11
-303.981 -3241.94 1431.32
-304.115 -3242.62 1429.88
-303.621 -3242.23 1424.97
-304.304 -3242.79 1427.1
-304.072 -3242.26 1426.2
-304.154 -3243.31 1427.89
-304.084 -3243.25 1427.46
-304.263 -3243.05 1427.06
-304.023 -3243.53 1428.54
-304.061 -3243.34 1428.82
-303.932 -3243.65 1428.12
-306.438 -3236.58 1426.5
-306.556 -3236.28 1426.37
-306.652 -3236.16 1426.03
-306.726 -3235.53 1424.95
-306.843 -3235.22 1423.5
-307.08 -3235.36 1422.22
-307.36 -3234.76 1420.65
-307.288 -3235.62 1421.4
-307.749 -3233.38 1419.72
-308.09 -3232.68 1419.35
-308.074 -3231.35 1419.67
-308.139 -3232.23 1419
-307.961 -3228.47 1421.24
-307.835 -3226.45 1422.06
-308.167 -3232.59 1419.07
-307.707 -3225.13 1421.92
-307.754 -3224.65 1421.71
-308.292 -3221.75 1422.88
-308.228 -3222.64 1422.1
-308.32 -3221.4 1422.93
-307.782 -3221.81 1423.62
-307.525 -3221.84 1423.98
-307.136 -3222.1 1424.28
-307.969 -3221.78 1423.35
-308.171 -3221.65 1423.24
-304.758 -3238.19 1427.33
-305.633 -3237.33 1427.32
-304.71 -3238.67 1425.71
-306.268 -3236.87 1426.6
-306.409 -3236.76 1426.3
-304.5 -3239.17 1423.13
-303.793 -3241.03 1421.82
-303.349 -3242.4 1422.52
-303.348 -3242.75 1424.72
-303.047 -3243.65 1423.94
-303.176 -3243.24 1424.87
-303.314 -3242.98 1424.93
-302.942 -3243.81 1422.73
-304.31 -3239.81 1421.45
-304.585 -3239.22 1421.54
-305.682 -3219.47 1427.16
-305.727 -3218.85 1427.63
-305.945 -3219.22 1427.15
-307.217 -3221.06 1425.21
-307.089 -3221.36 1425.1
-306.352 -3220.22 1426.19
-307.063 -3221.63 1424.91
-307.343 -3221.79 1424.3
-306.645 -3217.3 1428.91
-306.012 -3218.28 1428.02
-306.056 -3218.79 1427.45
-304.363 -3213.47 1436.49
-305.101 -3213.96 1435.67
-305.336 -3214.64 1434.12
-306.851 -3216.34 1430.2
-307.354 -3216.83 1429.14
-302.858 -3211.79 1437.51
-302.933 -3210.98 1437.28
-302.964 -3210.15 1436.86
-303.058 -3209.86 1436.97
-303.055 -3210.13 1437.13
-302.984 -3209.58 1436.57
-303.08 -3209.24 1436.65
-302.961 -3212.41 1437.79
-303.001 -3212.45 1437.8
-302.919 -3212.37 1437.78
-302.876 -3212.34 1437.76
-302.851 -3212.13 1437.7
-303.998 -3212.4 1437.89
-303.167 -3212.52 1437.91
-303.989 -3212.29 1438.02
-304.013 -3212.32 1437.98
-303.04 -3212.45 1437.92
-303.099 -3212.49 1437.95
-303.723 -3213 1437.25
-306.009 -3213.11 1436.82
-303.343 -3209.49 1437.72
-303.307 -3209.29 1437.36
-303.103 -3208.87 1436.48
-303.255 -3209.15 1436.98
-303.076 -3209.49 1436.8
-303.366 -3209.81 1437.96
-301.684 -3204.57 1442.94
-301.697 -3204.36 1443.05
-301.688 -3204.33 1442.98
-301.7 -3204.12 1443.08
-301.722 -3203.88 1443.26
-301.746 -3203.49 1443.4
-301.725 -3203.72 1443.24
-301.741 -3203.36 1443.07
-301.731 -3203.55 1443.04
-301.747 -3203.18 1443.11
-301.949 -3201.99 1443.27
-301.937 -3201.55 1443.1
-301.898 -3202.5 1442.87
-301.866 -3202.25 1442.56
-301.892 -3202.07 1443.34
-301.779 -3202.76 1443.26
-301.827 -3202.39 1442.91
-301.84 -3202.36 1442.59
-301.81 -3202.46 1443.21
-301.791 -3202.56 1443.3
-301.829 -3202.44 1443.45
-301.835 -3202.51 1442.95
-301.814 -3202.5 1443.64
-301.854 -3202.56 1442.69
-301.761 -3202.98 1443.16
-301.754 -3203.3 1443.35
-303.808 -3210.61 1439.61
-308.82 -3210.62 1438.74
-304.284 -3210.92 1439.27
-303.73 -3210.78 1439.49
-303.598 -3210.83 1439.51
-303.455 -3210.86 1439.56
-301.692 -3204.38 1442.93
-301.71 -3203.94 1442.96
-301.683 -3204.36 1442.85
-301.691 -3204.16 1442.87
-301.712 -3203.77 1442.94
-303.379 -3210.84 1439.42
-303.391 -3210.52 1438.93
-303.411 -3210.31 1438.49
-303.382 -3210.13 1438.14
-310.689 -3207.95 1442.05
-313.567 -3209.25 1442.4
-313.127 -3208.77 1442.35
-312.58 -3208.17 1442.34
-314.075 -3209.83 1442.43
-313.841 -3211.83 1440.07
-313.705 -3212.26 1439.38
-313.317 -3212.78 1438.31
-314.23 -3211.87 1440.35
-312.285 -3213.72 1435.97
-312.758 -3213.59 1436.57
-311.642 -3214.41 1434.33
-311.014 -3214.58 1433.59
-314.682 -3211.58 1441.04
-314.321 -3211.05 1441.34
-314.642 -3212 1440.52
-314.415 -3210.79 1441.7
-314.352 -3210.39 1442.1
-309.105 -3215.59 1429.75
-309.519 -3215.51 1430.35
-309.854 -3215.4 1430.87
-310.253 -3214.45 1433.13
-310.125 -3215.02 1431.77
-310.275 -3215.02 1431.97
-309.973 -3215 1431.59
-310.507 -3214.66 1433.05
-304.699 -3212.8 1430.33
-304.875 -3212.32 1430.03
-304.701 -3212.3 1429.93
-304.581 -3212.4 1430.04
-304.488 -3212.58 1430.23
-304.38 -3212.97 1430.54
-304.506 -3213.83 1430.67
-304.591 -3213.24 1430.37
-308.423 -3221.71 1421.93
-308.381 -3221.05 1422.5
-308.511 -3220.69 1422.61
-308.588 -3220.43 1422.89
-308.92 -3219.9 1423.54
-308.299 -3222.62 1421.04
-307.939 -3223.93 1420.44
-307.577 -3225.52 1420.07
-307.774 -3227.61 1420.63
-307.748 -3228.41 1420.12
-307.324 -3228.19 1419.05
-306.995 -3228.1 1417.96
-307.693 -3225.22 1420.84
-307.699 -3225.43 1421.47
-307.855 -3227.48 1421.04
-306.85 -3228.43 1416.55
-307.537 -3230.31 1416.8
-307.943 -3231.02 1416.73
-308.034 -3230.88 1416.64
-307.014 -3230.2 1415.76
-307.529 -3231.09 1416.69
-307.886 -3231.49 1417.2
-307.969 -3231.48 1417.17
-308.066 -3231.47 1417.17
-306.32 -3229.07 1414.3
-306.206 -3229.34 1414.19
-305.458 -3228.91 1413.1
-305.327 -3228.56 1412.65
-305.398 -3228.05 1412.52
-305.439 -3227.45 1411.65
-305.234 -3227.29 1410.48
-305.07 -3227.37 1410.15
-304.933 -3227.49 1409.74
-304.871 -3227.01 1409.31
-304.166 -3226.75 1408.14
-304.811 -3226.82 1409
-303.614 -3227.53 1408.23
-304.253 -3227.84 1409.08
-304.336 -3229.08 1409.76
-304.837 -3227.35 1409.37
-304.937 -3227.87 1409.96
-303.688 -3231.99 1410.36
-303.263 -3232.32 1409.72
-302.738 -3233.29 1409.42
-300.931 -3236.05 1408.35
-301.233 -3233.67 1407.02
-300.358 -3235.61 1406.64
-308.987 -3217.56 1426.08
-308.485 -3216.67 1427.41
-308.691 -3216.11 1428.43
-308.565 -3216.56 1427.74
-308.896 -3215.82 1429.16
-309.431 -3218.7 1425.12
-309.569 -3219.1 1425.13
-309.511 -3219.29 1424.86
-309.408 -3219.36 1424.51
-309.346 -3219.53 1424.22
-300.791 -3247.68 1430.26
-300.481 -3248.29 1430.27
-298.577 -3250.37 1427.57
-298.807 -3250.01 1427.98
-298.798 -3250.05 1428.21
-299.579 -3249.15 1429.03
-294.532 -3256.05 1416.23
-293.824 -3255.68 1413.8
-295.736 -3254.49 1416.28
-296.166 -3253.89 1416.32
-297.038 -3252.52 1417.42
-296.079 -3254.01 1418.45
-297.421 -3252.09 1419.05
-298.857 -3250.09 1420.91
-299.383 -3249.33 1425.16
-300.368 -3247.74 1423.64
-300.575 -3247.3 1422.58
-301.145 -3247.13 1430.39
-302.982 -3244.94 1429.15
-303.225 -3244.66 1429.19
-303.368 -3244.29 1429.33
-302.904 -3243.83 1431.07
-303.481 -3243.23 1430.45
-303.925 -3243.5 1428.87
-304.048 -3242.57 1426.22
-303.565 -3242.63 1425.17
-303.932 -3243.5 1427.67
-304.092 -3243.33 1427.13
-303.825 -3243.05 1426.26
-303.951 -3242.82 1426.24
-303.871 -3243.8 1428.63
-303.817 -3243.9 1428.49
-303.778 -3243.99 1428.12
-303.839 -3243.74 1427.89
-306.564 -3236.49 1426.19
-306.627 -3235.88 1425.04
-306.723 -3235.48 1423.81
-307.026 -3235.75 1422.25
-307.311 -3235.82 1421.13
-307.352 -3235.04 1420.41
-307.793 -3233.55 1419.57
-308.202 -3232.87 1419.19
-308.068 -3231.25 1419.39
-308.179 -3232.17 1418.65
-308.212 -3232.49 1418.75
-307.807 -3226.55 1421.7
-307.705 -3225.58 1421.77
-308.241 -3232.81 1418.86
-307.752 -3224.97 1421.49
-308.059 -3223.68 1421.42
-308.244 -3221.39 1423.18
-308.384 -3222.07 1422.12
-308.39 -3221.28 1422.75
-308.422 -3221.33 1422.6
-308.301 -3221.12 1423.25
-308.364 -3221.1 1423.03
-307.762 -3221.53 1423.99
-307.894 -3221.47 1423.8
-307.607 -3221.54 1424.21
-308.023 -3221.38 1423.62
-308.148 -3221.25 1423.47
-305.434 -3237.6 1426.96
-305.463 -3237.76 1426.04
-306.262 -3237.09 1426.4
-304.82 -3238.64 1423.62
-304.807 -3238.64 1424.43
-306.374 -3236.9 1426.12
-306.494 -3236.57 1425.98
-304.661 -3239.06 1421.86
-303.211 -3242.65 1422.18
-303.739 -3240.96 1421.39
-302.87 -3244.03 1423.84
-303.141 -3243.42 1425.04
-303.431 -3243.02 1425.25
-303.455 -3242.84 1425.08
-302.703 -3244.19 1422.42
-302.85 -3243.9 1422.35
-304.35 -3239.61 1421.02
-304.647 -3239.19 1421.19
-304.976 -3238.83 1421.62
-304.923 -3238.87 1421.34
-306.579 -3219.94 1426.17
-306.865 -3219.66 1426.32
-307.574 -3221.05 1424.95
-307.358 -3221.32 1424.82
-307.463 -3220.73 1425.32
-307.324 -3221.54 1424.62
-307.625 -3221.37 1424.49
-306.766 -3218.14 1427.81
-307.446 -3217.78 1427.86
-307.489 -3217.22 1428.45
-308.201 -3216.66 1428.86
-306.991 -3218.9 1426.9
-305.538 -3213.65 1436.12
-305.788 -3214.66 1434
-306.171 -3214.06 1435.4
-307.676 -3216.1 1430.26
-308.391 -3216.45 1429.36
-309.135 -3216.6 1429.06
-309.097 -3216.61 1428.99
-302.924 -3211.35 1437.49
-303.041 -3210.46 1437.3
-303.262 -3209.52 1437.19
-303.262 -3209.9 1437.39
-302.955 -3212.38 1437.9
-303 -3212.42 1437.92
-302.912 -3212.34 1437.9
-302.869 -3212.29 1437.83
-302.916 -3211.71 1437.69
-303.473 -3212.41 1438
-304.091 -3212.19 1438.12
-304.339 -3211.55 1438.75
-304.276 -3211.24 1438.99
-303.057 -3212.42 1438.04
-303.143 -3212.45 1438.02
-303.477 -3212.37 1438.04
-308.62 -3213.7 1435.88
-309.869 -3213.33 1436.43
-303.319 -3209.64 1437.54
-303.334 -3209.95 1437.74
-301.673 -3204.58 1442.84
-301.662 -3204.58 1442.76
-301.674 -3204.36 1442.87
-301.705 -3203.95 1443.11
-301.685 -3204.18 1442.95
-301.714 -3203.63 1442.96
-301.728 -3203.42 1443.01
-301.696 -3203.86 1442.87
-301.91 -3202.02 1442.6
-301.884 -3202.17 1442.55
-303.924 -3210.86 1439.37
-309.893 -3210.82 1438.59
-303.964 -3211.14 1439.16
-303.715 -3210.96 1439.38
-303.564 -3210.97 1439.43
-303.449 -3211.01 1439.43
-301.694 -3204 1442.85
-301.669 -3204.39 1442.75
-301.677 -3204.22 1442.77
-303.429 -3210.79 1439.1
-303.437 -3210.61 1438.71
-303.4 -3210.54 1438.38
-303.364 -3210.44 1438.09
-303.338 -3210.24 1437.84
-310.91 -3208.07 1441.87
-312.293 -3208.11 1442.19
-314.675 -3210.42 1442.28
-314.374 -3210.03 1442.26
-313.939 -3209.55 1442.21
-313.277 -3208.96 1442.1
-314.268 -3212.36 1439.72
-313.873 -3212.84 1438.68
-313.367 -3213.52 1437.2
-311.917 -3214.71 1434.1
-312.329 -3214.76 1434.38
-312.868 -3214.23 1435.66
-311.332 -3214.81 1433.5
-310.771 -3214.9 1432.92
-315.102 -3212.1 1440.79
-314.974 -3211.48 1441.39
-314.786 -3212.58 1439.86
-314.926 -3211.02 1441.86
-309.112 -3215.7 1429.62
-309.557 -3215.61 1430.25
-310.005 -3215.53 1430.85
-310.457 -3215.24 1431.82
-310.266 -3215.53 1431.15
-310.628 -3215.31 1431.93
-304.729 -3212.79 1430.18
-304.836 -3212.49 1429.94
-304.671 -3212.49 1429.9
-304.563 -3212.67 1430.11
-304.457 -3213.34 1430.51
-304.593 -3213.62 1430.42
-304.682 -3213.01 1430.12
-308.422 -3221.92 1421.99
-308.417 -3221.17 1422.59
-308.331 -3222.57 1421.29
-308.539 -3220.87 1422.75
-308.561 -3220.73 1422.72
-308.654 -3220.54 1423
-309.013 -3220.04 1423.61
-307.994 -3223.94 1420.97
-307.812 -3229.53 1419.7
-307.983 -3231.05 1419.15
-307.36 -3228.92 1418.71
-307.054 -3228.32 1418.15
-307.738 -3224.89 1421.13
-307.243 -3229.29 1417.75
-307.384 -3230.02 1417.24
-307.935 -3231.04 1417.4
-308.2 -3230.73 1416.43
-308.062 -3231.13 1416.83
-308.161 -3231.03 1416.76
-307.018 -3230.42 1415.79
-307.676 -3231.5 1417.21
-307.785 -3231.49 1417.2
-307.938 -3231.84 1417.63
-308.034 -3231.96 1417.66
-308.103 -3231.84 1417.55
-308.156 -3231.47 1417.15
-308.183 -3231.92 1417.57
-308.252 -3231.8 1417.46
-306.029 -3229.59 1414.04
-306.91 -3230.38 1415.55
-305.381 -3229.62 1413.14
-305.171 -3229.46 1412.7
-304.573 -3229.98 1411.69
-305.213 -3228.67 1412.22
-305.362 -3227.84 1411.53
-305.208 -3227.59 1410.58
-305.042 -3227.69 1410.21
-304.321 -3226.93 1408.09
-304.875 -3227.02 1408.91
-304.331 -3227.42 1408.83
-304.578 -3229.1 1410.56
-305.032 -3228.01 1410.27
-304.02 -3231.98 1411.38
-303.597 -3233.42 1410.8
-303.547 -3233.31 1410.5
-302.795 -3235.35 1410.95
-301.744 -3236.4 1409.95
-300.93 -3238.91 1410.43
-299.987 -3240.13 1409.95
-300.115 -3237.45 1407.72
-299.227 -3238.98 1406.89
-309.145 -3217.78 1426.08
-308.602 -3216.9 1427.36
-308.739 -3216.21 1428.46
-308.622 -3216.65 1427.9
-308.616 -3216.97 1427.47
-308.925 -3215.95 1429.1
-309.494 -3218.78 1425.24
-309.605 -3219.25 1425.27
-309.551 -3218.94 1425.3
-309.579 -3219.45 1424.97
-309.456 -3219.49 1424.51
-309.496 -3219.55 1424.59
-309.4 -3219.65 1424.25
-299.74 -3248.86 1428.71
-299.545 -3249 1426.56
-294.815 -3255.37 1415.63
-295.391 -3252.76 1413.19
-295.137 -3254.74 1415.25
-294.398 -3252.93 1410.51
-296.002 -3254.05 1415.96
-296.513 -3252.63 1415.79
-297.306 -3251.3 1416.31
-298.035 -3250.34 1417.81
-300.006 -3247.53 1420.67
-300.706 -3247.09 1425.22
-300.992 -3246.39 1423.92
-300.997 -3246.46 1422.96
-301.012 -3246.25 1422.44
-300.822 -3246.42 1422.24
-302.076 -3246 1429.12
-300.228 -3248.22 1427.54
-303.887 -3243.58 1427.29
-303.689 -3243.35 1426.29
-303.092 -3244.84 1428.03
-303.086 -3244.66 1427.65
-303.762 -3243.82 1427.49
-306.509 -3236.15 1425.08
-306.614 -3235.77 1423.81
-306.905 -3236.04 1422.37
-307.173 -3236.06 1421.26
-307.269 -3235.93 1421.32
-307.225 -3235.91 1420.91
-307.322 -3235.21 1420.19
-307.813 -3233.69 1419.43
-308.232 -3232.98 1419.07
-308.114 -3232.03 1418.4
-308.224 -3232.42 1418.53
-308.128 -3232.2 1418.32
-308.248 -3232.73 1418.66
-308.204 -3232.94 1418.93
-308.297 -3221.05 1423.57
-308.439 -3221.05 1422.86
-308.532 -3220.9 1423.36
-308.466 -3220.93 1423.53
-308.537 -3220.88 1423.17
-308.037 -3221.28 1424.15
-308.058 -3221.26 1424.02
-308.08 -3221.21 1423.9
-307.928 -3221.26 1424.35
-308.168 -3221.14 1423.74
-305.658 -3237.57 1425.17
-306.264 -3237.01 1425.94
-306.137 -3237.11 1425.82
-305.197 -3238.16 1422.77
-306.39 -3236.75 1425.77
-306.427 -3236.36 1425.03
-303.111 -3242.78 1421.85
-303.901 -3240.34 1420.83
-302.951 -3243.85 1425.2
-302.733 -3244.3 1424.1
-302.545 -3244.52 1422.57
-302.641 -3244.46 1422.95
-303.215 -3243.41 1425.39
-302.447 -3244.46 1422.1
-302.659 -3244.07 1422.03
-304.357 -3239.5 1420.7
-304.719 -3239.1 1420.81
-304.858 -3238.8 1421.1
-305.196 -3238.5 1421.21
-305.133 -3238.41 1421.57
-305.09 -3238.5 1421
-307.76 -3219.38 1426.23
-307.685 -3221.17 1424.7
-307.995 -3219.62 1425.95
-308.214 -3220.42 1425.14
-308.376 -3220.51 1424.94
-308.447 -3220.6 1424.77
-307.677 -3217.67 1427.86
-308.088 -3216.73 1428.76
-307.75 -3217.13 1428.4
-309.097 -3216.61 1428.92
-309.043 -3216.63 1428.87
-306.511 -3214.8 1433.49
-308.535 -3216.08 1430.11
-308.459 -3214.14 1435.22
-309.633 -3216.87 1429.46
-309.642 -3216.87 1429.44
-309.611 -3216.82 1429.44
-309.459 -3216.81 1429.24
-303.034 -3210.75 1437.46
-303.256 -3210.27 1437.59
-302.953 -3212.35 1438.01
-302.993 -3212.38 1438.01
-302.9 -3212.16 1437.91
-302.919 -3212.3 1438.03
-303.039 -3211.01 1437.63
-303.025 -3211.34 1437.79
-304.08 -3212.14 1438.17
-304.317 -3211.76 1438.55
-304.173 -3211.58 1438.77
-303.064 -3212.38 1438.12
-303.557 -3212.07 1438.37
-303.711 -3212.07 1438.33
-303.9 -3212.09 1438.26
-310.166 -3214.1 1435.54
-311.13 -3213.78 1435.78
-310.77 -3212.27 1437.36
-301.652 -3204.58 1442.67
-301.66 -3204.36 1442.69
-301.678 -3204.1 1442.77
-310.504 -3209.48 1440.14
-303.963 -3211.4 1438.98
-303.719 -3211.18 1439.23
-303.565 -3211.16 1439.3
-303.471 -3211.03 1439.21
-303.451 -3210.91 1438.86
-303.403 -3210.84 1438.49
-303.355 -3210.75 1438.13
-303.272 -3210.64 1437.83
-311.586 -3208.62 1441.42
-315.277 -3211.02 1442.11
-315.2 -3210.82 1442.1
-314.465 -3210.11 1442.02
-313.124 -3209.28 1441.66
-314.298 -3213.12 1438.62
-313.755 -3213.79 1437.11
-313.197 -3214.53 1435.47
-311.859 -3215.12 1433.47
-312.545 -3215.18 1433.91
-311.262 -3215.03 1433.14
-310.95 -3215.49 1432.06
-310.808 -3215.53 1431.77
-315.523 -3212.18 1441.03
-315.236 -3212.81 1439.9
-315.433 -3211.61 1441.61
-314.704 -3213.46 1438.43
-309.161 -3215.79 1429.58
-309.645 -3215.7 1430.23
-309.981 -3215.7 1430.6
-301.671 -3207.07 1440.57
-301.657 -3205.63 1439.89
-310.329 -3215.71 1430.98
-310.568 -3215.75 1431.18
-304.782 -3212.69 1429.85
-304.636 -3212.76 1429.99
-304.481 -3213.18 1430.36
-304.565 -3214.06 1430.54
-304.668 -3213.37 1430.17
-308.491 -3220.99 1422.77
-308.545 -3220.85 1422.96
-308.706 -3220.65 1423.09
-309.071 -3220.15 1423.67
-307.907 -3230.94 1418.63
-308.081 -3231.78 1418.14
-307.448 -3229.86 1417.86
-308.168 -3231.64 1417.69
-308.162 -3231.15 1416.9
-308.257 -3231.54 1417.54
-308.276 -3230.92 1416.65
-308.484 -3230.69 1416.19
-308.252 -3231.46 1417.13
-308.292 -3231.15 1416.85
-307.525 -3231.51 1417.14
-307.874 -3232 1417.7
-307.982 -3232.12 1417.78
-307.927 -3232.11 1417.76
-308.042 -3232.2 1417.93
-308.059 -3232.13 1417.76
-308.106 -3232.05 1417.72
-308.146 -3231.84 1417.7
-308.23 -3231.78 1417.58
-308.314 -3231.72 1417.45
-305.937 -3229.91 1414.07
-306.78 -3230.39 1415.31
-306.767 -3230.18 1415
-306.906 -3230.94 1416.08
-305.364 -3230.12 1413.41
-304.932 -3231.37 1413.57
-304.595 -3232.39 1413.55
-304.987 -3228.64 1411.17
-305.229 -3228.22 1411.34
-305.167 -3227.89 1410.56
-303.983 -3233.15 1412.09
-303.52 -3235.18 1412.85
-302.728 -3236.35 1411.69
-302.029 -3238.08 1411.6
-301.384 -3239.29 1411.76
-300.003 -3242.69 1412.29
-301.724 -3239.43 1412.7
-299.168 -3242.71 1410.43
-298.65 -3242.05 1408.7
-298.251 -3242.47 1408.06
-297.995 -3242.36 1406.95
-309.285 -3217.98 1426.11
-308.788 -3216.31 1428.5
-308.757 -3216.65 1428.12
-308.473 -3216.95 1427.77
-308.902 -3217.22 1427.42
-309.361 -3218.08 1426.2
-308.964 -3216.06 1429.08
-309.541 -3218.99 1425.37
-309.582 -3219.24 1425.33
-309.562 -3219.54 1425
-309.519 -3219.44 1425.21
-309.516 -3219.68 1424.49
-309.532 -3219.63 1424.69
-309.442 -3219.76 1424.27
-300.888 -3247.35 1426.56
-300.231 -3247.98 1425.62
-295.89 -3253.18 1414.91
-295.674 -3251.28 1411.67
-297.194 -3250.05 1414.11
-295.425 -3254.15 1415.03
-295.663 -3249.54 1409.85
-298.675 -3248.7 1417.55
-299.138 -3247.41 1415.8
-300.671 -3246.04 1420.8
-300.373 -3246.04 1419.5
-299.918 -3246.91 1418.06
-300.598 -3245.63 1419.88
-300.739 -3245.12 1419.54
-301.329 -3246.47 1426.09
-301.279 -3246.13 1425.06
-301.183 -3246.14 1423.84
-301.185 -3246.12 1422.78
-301.751 -3245.38 1422.38
-300.899 -3246.07 1421.68
-303.504 -3243.66 1426.4
-302.917 -3244.45 1426.73
-306.462 -3236.04 1423.91
-306.458 -3236.18 1423.56
-306.803 -3236.29 1422.39
-307.044 -3236.34 1421.26
-307.055 -3236.27 1420.88
-307.158 -3236.02 1420.56
-307.302 -3235.28 1419.9
-307.793 -3233.74 1419.27
-308.064 -3231.98 1418.04
-308.229 -3232.49 1418.35
-308.138 -3232.33 1418.2
-308.22 -3232.74 1418.56
-308.121 -3232.97 1418.79
-307.77 -3233.73 1419.11
-308.768 -3220.62 1424.13
-308.884 -3220.58 1424.03
-309.011 -3220.49 1423.95
-309.074 -3220.4 1423.87
-308.741 -3220.72 1423.26
-308.539 -3220.66 1424.59
-308.597 -3220.66 1424.47
-308.653 -3220.65 1424.36
-308.699 -3220.65 1424.24
-306.157 -3236.89 1424.84
-305.862 -3237.17 1423.89
-305.979 -3237.54 1421.98
-305.814 -3237.74 1421.48
-306.301 -3237.1 1422.28
-306.04 -3236.98 1423.39
-306.276 -3236.44 1423.86
-303.007 -3242.89 1421.64
-303.807 -3240.21 1420.43
-303.13 -3242.11 1421.2
-304.19 -3239.73 1420.58
-302.962 -3243.78 1425.56
-302.734 -3244.28 1425.28
-302.532 -3244.57 1424.14
-302.48 -3244.71 1422.96
-301.72 -3245.3 1422.04
-302.481 -3244.21 1421.77
-301.731 -3245.15 1421.68
-304.535 -3239.16 1420.59
-304.277 -3239.47 1420.43
-304.747 -3238.87 1420.87
-304.951 -3238.55 1420.82
-305.681 -3237.92 1420.67
-305.719 -3237.9 1421.08
-305.593 -3237.89 1420.38
-308.319 -3218.9 1426.42
-308.673 -3219.79 1425.51
-308.785 -3219.78 1425.44
-308.835 -3219.94 1425.2
-307.896 -3217.62 1427.81
-308.09 -3216.78 1428.67
-309.009 -3216.65 1428.82
-307.85 -3217.13 1428.34
-309.379 -3216.73 1429.18
-307.52 -3214.71 1433.37
-308.982 -3215.97 1430.31
-310.155 -3216.63 1430.16
-308.624 -3214.51 1433.53
-309.963 -3214.3 1434.9
-310.266 -3216.69 1430.22
-310.182 -3216.67 1430.14
-309.831 -3216.64 1429.8
-309.66 -3216.59 1429.64
-302.958 -3212.32 1438.12
-302.989 -3212.35 1438.12
-303.005 -3211.66 1437.94
-302.997 -3211.96 1438.1
-303.238 -3211.12 1438.04
-304.144 -3211.77 1438.58
-303.947 -3211.63 1438.76
-303.272 -3211.97 1438.41
-303.434 -3211.99 1438.47
-303.466 -3211.61 1438.82
-303.703 -3211.62 1438.82
-311.273 -3214.39 1435.29
-311.654 -3212.33 1437.44
-312.497 -3214.06 1436.05
-303.739 -3211.44 1439
-303.498 -3211.25 1439.12
-303.427 -3211.14 1438.75
-303.37 -3211.08 1438.34
-311.917 -3208.9 1441.21
-315.82 -3211.65 1441.87
-316.193 -3211.84 1441.93
-315.524 -3211.21 1441.86
-314.259 -3210.41 1441.55
-313.033 -3209.72 1441.18
-312.272 -3209.39 1440.91
-314.16 -3214.05 1437.04
-313.604 -3214.74 1435.5
-312.979 -3215.42 1433.91
-311.196 -3215.25 1432.78
-311.776 -3215.35 1433.08
-312.343 -3215.48 1433.33
-311.145 -3215.7 1431.92
-310.625 -3215.9 1431.05
-310.788 -3215.96 1431.17
-315.933 -3212.26 1441.28
-315.731 -3213 1440.03
-315.16 -3213.69 1438.46
-314.601 -3214.33 1436.98
-309.207 -3215.89 1429.55
-309.519 -3215.85 1429.92
-309.83 -3215.86 1430.25
-301.696 -3207.29 1440.93
-301.678 -3206.49 1440.36
-301.663 -3205.8 1440.16
-301.672 -3205.46 1439.93
-310.036 -3215.9 1430.43
-310.269 -3215.93 1430.65
-304.754 -3212.92 1429.84
-304.596 -3213.04 1430.08
-304.56 -3213.9 1430.41
-304.679 -3213.63 1430.19
-309.108 -3220.24 1423.74
-308.241 -3231.36 1417.08
-308.31 -3231.11 1416.69
-308.336 -3231.48 1417.36
-308.428 -3231.12 1416.8
-308.431 -3230.9 1416.58
-308.68 -3230.69 1416.07
-308.345 -3231.45 1417.11
-308.395 -3231.62 1417.34
-308.447 -3231.43 1417.09
-307.878 -3232.2 1417.72
-307.84 -3232.17 1417.68
-307.369 -3231.64 1416.99
-308.005 -3232.41 1417.91
-308.068 -3232.37 1417.99
-306.666 -3230.6 1415.34
-305.96 -3230.36 1414.26
-305.143 -3231.78 1414.3
-304.677 -3234.51 1415.5
-304.472 -3234.53 1415.09
-304.21 -3235.42 1415.21
-303.022 -3237.01 1413.41
-300.135 -3243.31 1413.49
-299.235 -3245.79 1413.9
-298.206 -3245.4 1410.98
-301.659 -3240.25 1413.94
-297.105 -3245.92 1409.13
-297.106 -3245.33 1408.26
-308.849 -3216.38 1428.59
-308.742 -3216.81 1428.12
-308.533 -3217.11 1427.83
-308.991 -3217.39 1427.42
-309.352 -3218.2 1426.18
-309.04 -3216.13 1429.15
-309.535 -3219.1 1425.42
-309.51 -3219.74 1424.66
-309.497 -3219.63 1424.93
-309.415 -3219.55 1425.16
-309.468 -3219.34 1425.34
-309.471 -3219.82 1424.44
-309.421 -3219.9 1424.27
-296.709 -3249 1411.67
-299.284 -3247.65 1417.15
-299.994 -3246.55 1416.82
-300.093 -3246.21 1416.53
-300.993 -3245.47 1420.67
-300.924 -3245.02 1419.91
-300.231 -3246.26 1418.41
-300.457 -3245.68 1418.22
-300.667 -3245.13 1419.18
-300.233 -3246.18 1417.12
-300.931 -3243.85 1418.95
-301.044 -3243.69 1419.17
-302.442 -3244.67 1425.68
-301.747 -3245.44 1425.17
-301.887 -3245.31 1423.96
-301.777 -3245.43 1422.79
-306.276 -3236.56 1423.53
-306.669 -3236.5 1422.33
-306.939 -3236.63 1421.09
-307.011 -3236.71 1420.61
-307.028 -3236.36 1420.33
-307.129 -3236.03 1420.24
-307.258 -3235.27 1419.65
-308.167 -3232.55 1418.2
-308.081 -3232.89 1418.49
-307.725 -3233.74 1418.92
-307.482 -3234.52 1419.15
-309.185 -3220.05 1424.67
-309.256 -3220.02 1424.57
-309.308 -3220.04 1424.45
-309.383 -3219.94 1424.42
-309.128 -3220.32 1423.81
-308.933 -3219.97 1425.08
-309.027 -3220.02 1424.93
-309.114 -3220.05 1424.79
-306.133 -3236.83 1423.65
-306.64 -3237.24 1421.13
-306.33 -3237.62 1420.91
-306.524 -3236.77 1422.28
-306.844 -3236.88 1421.23
-302.904 -3243.02 1421.48
-302.649 -3243.79 1421.62
-303.29 -3239.93 1419.27
-304.165 -3239.4 1420.15
-303.702 -3239.05 1419.29
-302.744 -3243.08 1421.26
-302.211 -3242.24 1419.96
-301.829 -3244.87 1421.36
-301.922 -3244.55 1421.09
-304.512 -3238.99 1420.37
-304.332 -3239.16 1420.19
-304.699 -3238.86 1420.68
-305.502 -3237.92 1420.18
-304.897 -3238.57 1420.64
-306.266 -3237.7 1420.48
-306.238 -3237.62 1420.03
-306.164 -3237.34 1419.84
-308.477 -3218.78 1426.44
-308.634 -3218.76 1426.38
-308.927 -3219.67 1425.45
-308.755 -3218.62 1426.44
-308.886 -3219.56 1425.59
-308.007 -3217.56 1427.81
-308.244 -3216.78 1428.61
-307.917 -3217.12 1428.3
-308.974 -3216.66 1428.77
-309.304 -3216.66 1429.13
-309.579 -3216.5 1429.6
-308.888 -3215.19 1431.82
-309.248 -3215.87 1430.47
-310.446 -3216.19 1430.78
-310.824 -3216.01 1431.22
-310.915 -3216.09 1431.25
-309.373 -3214.6 1433.05
-310.247 -3215.12 1432.75
-310.902 -3214.46 1434.7
-310.768 -3216.4 1430.9
-310.941 -3216.38 1431.08
-310.513 -3216.49 1430.58
-310.395 -3216.42 1430.5
-310.203 -3216.37 1430.33
-303.01 -3212.16 1438.24
-303.127 -3212.08 1438.33
-303.221 -3211.49 1438.23
-303.346 -3211.4 1438.4
-303.406 -3211.36 1438.64
-303.491 -3211.44 1438.98
-312.305 -3215.07 1434.63
-313.118 -3214.86 1435.57
-312.489 -3212.43 1437.62
-313.396 -3212.56 1438.02
-314.741 -3213.9 1437.5
-316.303 -3212.48 1441.29
-316.828 -3212.69 1441.31
-316.345 -3212.47 1440.91
-314.886 -3211.65 1440.57
-312.768 -3210.09 1440.5
-314.066 -3211.39 1439.97
-314.018 -3214.97 1435.49
-313.375 -3215.63 1433.91
-312.649 -3215.73 1433.21
-311.359 -3215.61 1432.34
-311.901 -3215.61 1432.81
-311.021 -3216 1431.38
-309.912 -3216.12 1430.16
-310.142 -3216.17 1430.37
-315.594 -3213.87 1438.56
-315.957 -3214.02 1438.63
-314.999 -3214.65 1436.82
-314.416 -3215.26 1435.38
-309.227 -3216.05 1429.47
-309.283 -3216.14 1429.48
-301.719 -3206.27 1440.66
-301.665 -3206.37 1441.3
-301.713 -3206.23 1441.09
-301.689 -3207.03 1440.89
-301.686 -3205.57 1440.14
-301.688 -3206.58 1440.51
-309.468 -3216.15 1429.68
-304.779 -3213.11 1429.75
-304.609 -3213.29 1429.99
-304.718 -3213.71 1430.1
-304.604 -3214.09 1430.34
-308.361 -3231.32 1416.93
-308.382 -3231.36 1417
-308.504 -3231.08 1416.53
-308.434 -3231.43 1417.15
-308.546 -3231.36 1417
-308.578 -3231.01 1416.65
-308.743 -3230.72 1416.15
-307.992 -3232.51 1417.94
-307.823 -3232.5 1417.75
-307.303 -3231.85 1416.96
-306.555 -3230.69 1415.32
-306.638 -3231.24 1415.89
-305.857 -3231.43 1415
-304.989 -3234.64 1416.16
-304.715 -3235.07 1416.06
-304.361 -3235.47 1415.71
-304.399 -3235.62 1416.07
-303.524 -3236.98 1415.98
-303.619 -3237.1 1416.62
-302.942 -3238.01 1415.28
-300.68 -3242.35 1414.24
-300.221 -3243.76 1414.7
-300.126 -3245.08 1415.51
-299.875 -3245.51 1415.3
-301.617 -3240.65 1415.51
-308.85 -3216.61 1428.46
-308.728 -3216.81 1428.22
-309.027 -3216.3 1429
-308.444 -3217.15 1427.94
-308.794 -3217.59 1427.36
-308.96 -3217.55 1427.31
-309.31 -3218.3 1426.13
-309.492 -3219.12 1425.47
-309.392 -3219.84 1424.64
-309.407 -3219.75 1424.86
-309.388 -3219.43 1425.33
-309.328 -3219.68 1425.08
-309.33 -3219.5 1425.32
-309.419 -3219.22 1425.48
-300.276 -3245.9 1416.62
-301.258 -3244.71 1420.26
-301.221 -3243.51 1419.42
-300.593 -3245.24 1418.01
-300.682 -3244.91 1418.78
-300.372 -3245.77 1416.91
-300.482 -3245.47 1417.01
-300.84 -3243.98 1418.63
-301.082 -3242.47 1418.04
-301 -3242.54 1417.57
-301.184 -3242.46 1418.53
-306.82 -3237.08 1420.83
-306.859 -3236.94 1420.53
-306.938 -3236.62 1420.13
-307.054 -3236.17 1419.99
-308.009 -3232.82 1418.24
-307.4 -3234.66 1418.98
-306.958 -3236.37 1419.73
-309.303 -3219.88 1424.79
-309.224 -3219.85 1424.96
-309.017 -3219.76 1425.28
-309.125 -3219.81 1425.11
-306.564 -3237.37 1420.74
-302.009 -3244.2 1420.93
-302.5 -3241.63 1419.7
-302.656 -3240.33 1418.22
-302.87 -3239.35 1417.76
-303.228 -3238.53 1417.87
-303.666 -3237.19 1417
-303.84 -3238.06 1418.38
-302.084 -3243.06 1420.38
-301.665 -3242.11 1418.98
-301.596 -3242.27 1419.05
-301.437 -3242.41 1418.94
-301.443 -3243.44 1419.72
-304.377 -3238.87 1420.01
-304.609 -3238.77 1420.35
-304.826 -3238.66 1420.49
-305.416 -3238.07 1420.03
-306 -3237.49 1419.62
-306.582 -3237.28 1420.39
-306.492 -3237.24 1420.04
-306.406 -3237.14 1419.78
-306.228 -3237.31 1419.5
-308.089 -3217.49 1427.84
-309.031 -3219.37 1425.66
-309.046 -3219.41 1425.62
-309.127 -3219.36 1425.61
-308.887 -3218.57 1426.4
-308.178 -3217.45 1427.83
-308.029 -3217.02 1428.34
-308.813 -3216.69 1428.63
-308.389 -3216.83 1428.47
-309 -3216.67 1428.73
-309.242 -3216.57 1429.11
-309.514 -3216.42 1429.58
-310.196 -3216.25 1430.38
-309.782 -3215.74 1430.9
-310.838 -3215.75 1431.53
-311.095 -3215.66 1431.96
-311.275 -3215.68 1432.2
-311.286 -3215.88 1431.84
-311.538 -3215.76 1432.39
-311.695 -3215.19 1433.73
-311.758 -3215.46 1433.15
-311.488 -3215.91 1432.04
-311.177 -3216.25 1431.39
-311.616 -3216 1432.05
-310.944 -3216.22 1431.17
-310.771 -3216.16 1431.02
-314.291 -3215.73 1434.85
-315.045 -3215.69 1435.51
-316.361 -3214.87 1437.38
-313.344 -3211.52 1439.13
-313.305 -3210.71 1440.1
-316.382 -3213.31 1440.1
-318.285 -3215.55 1437.28
-316.666 -3214.25 1438.87
-317.35 -3213.72 1439.44
-318.556 -3216.03 1436.62
-313.801 -3215.87 1433.9
-313.187 -3215.96 1433.29
-312.099 -3215.84 1432.65
-312.669 -3215.98 1432.87
-311.445 -3215.91 1431.96
-309.299 -3216.33 1429.37
-309.472 -3216.33 1429.58
-315.459 -3214.87 1436.88
-315.648 -3215.25 1436.44
-316.081 -3214.86 1437.44
-314.283 -3216.04 1434.05
-315.061 -3215.3 1435.86
-314.048 -3216.17 1433.65
-309.131 -3216.38 1429.09
-301.685 -3205.52 1440.42
-301.626 -3205.55 1441.44
-301.682 -3206.79 1441.11
-301.659 -3205.38 1440.85
-301.702 -3206.41 1440.62
-301.699 -3205.46 1440.26
-304.797 -3213.26 1429.67
-304.629 -3213.56 1429.91
-304.759 -3213.78 1429.99
-304.649 -3214.31 1430.28
-308.492 -3231.3 1416.84
-308.533 -3231.35 1416.93
-308.651 -3231.07 1416.44
-308.711 -3231.09 1416.68
-308.657 -3231.4 1417.04
-308.617 -3231.37 1416.91
-308.834 -3230.74 1416.17
-307.841 -3232.93 1418.09
-307.644 -3232.93 1417.83
-307.18 -3232.04 1416.91
-305.879 -3232.57 1415.87
-305.921 -3234.87 1417.23
-304.834 -3235.35 1416.46
-304.433 -3235.91 1416.44
-302.808 -3239.26 1417.21
-302.663 -3239.41 1416.61
-301.039 -3241.81 1415.58
-300.752 -3242.63 1415.93
-300.692 -3243.09 1416.49
-300.267 -3244 1415.34
-300.352 -3244.63 1416.06
-300.43 -3245.46 1416.69
-301.86 -3240.44 1416.42
-301.16 -3241.74 1417.14
-301.049 -3242.06 1417.14
-308.957 -3216.53 1428.7
-308.583 -3216.85 1428.37
-308.428 -3216.98 1428.19
-308.559 -3217.5 1427.56
-309.267 -3218.37 1426.12
-309.21 -3218.42 1426.2
-309.234 -3219.62 1425.27
-309.33 -3219.3 1425.51
-300.682 -3244.26 1417.53
-300.828 -3243.83 1418.54
-301.282 -3241.98 1417.79
-301.376 -3242.08 1418.36
-306.775 -3236.91 1420.23
-306.834 -3236.66 1419.81
-307.346 -3234.63 1418.74
-306.856 -3236.44 1419.44
-309.134 -3219.59 1425.38
-302.16 -3241.35 1418.73
-301.913 -3241.06 1417.87
-301.81 -3240.85 1417.21
-303.973 -3237.84 1418.31
-301.541 -3242.03 1418.68
-304.517 -3238.63 1420
-304.068 -3238.17 1418.82
-304.756 -3238.52 1420.23
-305.349 -3238.23 1419.88
-305.911 -3237.68 1419.43
-306.656 -3236.9 1419.88
-306.518 -3236.94 1419.59
-306.336 -3237.11 1419.36
-306.154 -3237.43 1419.3
-309.26 -3219.24 1425.61
-309.06 -3218.5 1426.33
-308.374 -3217.55 1427.63
-308.1 -3216.97 1428.33
-308.907 -3216.66 1428.62
-309.132 -3216.54 1428.96
-312.148 -3215.72 1433.11
-312.569 -3215.88 1433.08
-312.072 -3215.88 1432.68
-312.708 -3215.96 1432.99
-313.955 -3215.89 1434.31
-313.374 -3215.95 1433.67
-312.367 -3216 1432.67
-311.633 -3216.03 1432.01
-312.071 -3216.04 1432.34
-312.638 -3216.1 1432.68
-316.832 -3216.53 1435.36
-315.677 -3216.22 1435.19
-316.841 -3216.43 1435.74
-317.195 -3215.93 1436.62
-316.116 -3216.31 1435.32
-318.423 -3216.67 1436.06
-317.473 -3216.78 1435.41
-313.374 -3216.18 1433.12
-314.978 -3216.22 1434.4
-315.495 -3216.35 1434.64
-315.228 -3216.4 1434.32
-315.853 -3216.38 1434.93
-314.725 -3216.26 1434.1
-313.69 -3216.13 1433.49
-313.101 -3216.1 1433.04
-301.695 -3205.39 1440.65
-301.712 -3205.35 1440.37
-301.613 -3205.13 1441.59
-301.64 -3206.13 1441.52
-301.656 -3205.2 1441.12
-301.704 -3206.5 1441
-304.704 -3213.67 1429.7
-304.821 -3213.35 1429.58
-304.771 -3213.84 1429.88
-304.647 -3214.05 1429.97
-304.755 -3214.19 1430.05
-304.695 -3214.59 1430.25
-308.612 -3231.28 1416.76
-308.725 -3231.09 1416.42
-308.671 -3231.25 1416.67
-308.991 -3230.76 1416.06
-308.902 -3231.06 1416.61
-308.811 -3230.87 1416.44
-308.848 -3231.24 1416.86
-308.827 -3231.43 1417.22
-308.607 -3231.45 1417.03
-308.64 -3231.33 1416.81
-308.613 -3231.41 1416.93
-307.14 -3234.85 1418.58
-307.566 -3232.88 1417.73
-306.987 -3234.37 1417.97
-306.863 -3235.25 1418.51
-307.29 -3233.14 1417.55
-306.605 -3232.9 1416.78
-306.463 -3236.04 1418.58
-305.665 -3235.79 1417.57
-304.606 -3236.05 1416.82
-308.227 -3217.14 1428.08
-309.149 -3218.46 1426.27
-308.544 -3217.62 1427.47
-306.728 -3236.72 1419.63
-306.676 -3236.48 1419.16
-306.655 -3236.71 1419.41
-304.471 -3236.77 1417.47
-304.462 -3238.55 1419.66
-304.198 -3237.79 1418.44
-305.288 -3238.25 1419.7
-304.739 -3238.37 1419.89
-305.877 -3237.86 1419.27
-306.481 -3236.84 1419.27
-306.317 -3237.11 1419.18
-306.177 -3237.49 1419.2
-313.825 -3216.12 1433.7
-314.695 -3216.23 1434.35
-314.675 -3216.29 1434.17
-318.102 -3216.84 1436.06
-318.178 -3217 1435.59
-301.724 -3205.35 1440.55
-301.689 -3205.19 1441.01
-301.628 -3205.1 1441.59
-301.672 -3206.29 1441.41
-304.819 -3213.59 1429.55
-304.699 -3214.11 1429.75
-304.755 -3214.29 1429.98
-304.725 -3214.75 1430.16
-308.796 -3231.1 1416.42
-308.654 -3231.32 1416.75
-309.035 -3230.76 1416.17
-309.047 -3231.01 1416.53
-309.101 -3231.15 1416.83
-309.065 -3231.27 1417.07
-309.041 -3231.44 1417.39
-308.703 -3231.5 1417.13
-308.65 -3231.48 1417.05
-308.613 -3231.43 1416.93
-306.47 -3236.48 1418.92
-306.613 -3236.33 1419
-306.28 -3236.54 1418.73
-305.534 -3236.39 1417.89
-306.443 -3236.73 1419.08
-305.486 -3236.89 1418.28
-304.477 -3238.32 1419.32
-305.154 -3237.29 1418.5
-305.224 -3238.21 1419.45
-305.844 -3238 1419.13
-305.199 -3238.07 1419.15
-306.099 -3237.58 1419.09
-306.291 -3236.85 1418.96
-306.182 -3237.16 1418.99
-301.721 -3205.58 1440.91
-301.632 -3204.98 1441.62
-301.697 -3205.02 1441.21
-301.632 -3205.63 1441.79
-304.757 -3214.14 1429.52
-304.839 -3213.66 1429.48
-304.754 -3214.36 1429.9
-304.744 -3214.78 1430.01
-308.843 -3231.12 1416.46
-308.65 -3231.35 1416.77
-309.15 -3230.76 1416.15
-309.179 -3230.94 1416.43
-309.31 -3231.03 1416.71
-309.306 -3231.24 1417.21
-309.35 -3231.14 1416.99
-309.327 -3231.42 1417.6
-308.742 -3231.58 1417.24
-308.666 -3231.5 1417.03
-308.79 -3231.51 1417.11
-308.616 -3231.44 1416.92
-306.098 -3236.82 1418.74
-305.949 -3237.16 1418.88
-305.106 -3237.77 1418.97
-306.042 -3237.65 1418.94
-301.74 -3205.3 1440.89
-301.654 -3205.88 1441.73
-301.637 -3204.82 1441.62
-301.707 -3204.87 1441.24
-304.846 -3214.13 1429.28
-304.764 -3214.82 1429.86
-304.851 -3213.68 1429.43
-304.753 -3214.44 1429.83
-308.879 -3231.15 1416.51
-308.637 -3231.41 1416.83
-309.269 -3230.78 1416.18
-309.387 -3230.9 1416.46
-309.565 -3231.05 1416.96
-309.547 -3230.95 1416.7
-309.51 -3231.26 1417.42
-309.605 -3231.15 1417.24
-309.584 -3231.41 1417.78
-308.828 -3231.65 1417.44
-308.82 -3231.63 1417.28
-308.616 -3231.49 1416.96
-308.738 -3231.52 1417.05
-308.856 -3231.53 1417.12
-301.748 -3205.19 1441.01
-301.654 -3205.61 1441.86
-301.621 -3205.18 1441.99
-301.644 -3204.65 1441.56
-301.658 -3204.68 1441.58
-301.747 -3205.05 1441.15
-304.893 -3214.25 1429.14
-304.783 -3214.87 1429.71
-304.862 -3213.8 1429.38
-304.749 -3214.62 1429.79
-308.909 -3231.19 1416.58
-308.62 -3231.47 1416.9
-309.433 -3230.79 1416.23
-309.584 -3230.87 1416.49
-309.8 -3231.05 1417.14
-309.717 -3230.96 1416.84
-309.727 -3231.23 1417.52
-309.919 -3231.15 1417.47
-309.878 -3231.4 1418
-309.93 -3231.25 1417.74
-308.915 -3231.7 1417.55
-309.24 -3231.65 1417.76
-308.922 -3231.61 1417.23
-308.831 -3231.77 1417.48
-308.679 -3231.52 1417
-308.874 -3231.54 1417.1
-301.64 -3205.2 1442.06
-301.725 -3204.66 1441.14
-301.663 -3204.48 1441.45
-301.747 -3204.91 1441.25
-304.935 -3214.31 1429.02
-304.808 -3214.95 1429.56
-304.863 -3213.95 1429.34
-304.745 -3214.77 1429.75
-308.859 -3231.29 1416.71
-308.929 -3231.28 1416.72
-309.647 -3230.97 1416.65
-309.42 -3231 1416.54
-309.896 -3231.13 1417.28
-309.779 -3231.05 1416.98
-310.119 -3231.25 1417.86
-310.003 -3231.24 1417.59
-310.109 -3231.4 1418.18
-309.4 -3231.67 1417.9
-308.902 -3231.86 1417.65
-308.998 -3231.58 1417.17
-308.934 -3231.71 1417.37
-308.69 -3231.54 1416.99
-308.841 -3231.55 1417.07
-301.703 -3204.81 1441.64
-301.673 -3204.44 1441.45
-304.86 -3214.86 1429.29
-304.948 -3213.75 1429.11
-304.971 -3214.13 1428.96
-304.774 -3214.56 1429.55
-308.767 -3231.46 1416.9
-309.688 -3231.07 1416.81
-309.438 -3231.09 1416.7
-309.938 -3231.24 1417.4
-309.833 -3231.15 1417.13
-310.05 -3231.49 1418.18
-310.138 -3231.33 1417.9
-310.058 -3231.35 1417.71
-309.355 -3231.77 1417.95
-308.954 -3231.95 1417.77
-308.958 -3231.82 1417.51
-309.039 -3231.66 1417.28
-308.991 -3231.58 1417.12
-308.825 -3231.56 1417.04
-301.668 -3204.75 1442.1
-301.632 -3204.69 1442.17
-301.761 -3204.29 1441.21
-301.682 -3204.29 1441.34
-304.882 -3214.85 1429.18
-304.968 -3213.9 1429.02
-304.779 -3214.74 1429.49
-308.837 -3231.49 1416.96
-309.762 -3231.18 1417.03
-309.602 -3231.15 1416.88
-309.128 -3231.4 1416.96
-309.97 -3231.36 1417.5
-309.867 -3231.27 1417.26
-309.852 -3231.62 1418.1
-309.726 -3231.74 1418.07
-310.077 -3231.44 1417.77
-308.972 -3232.03 1417.86
-309 -3231.91 1417.62
-309.068 -3231.76 1417.42
-309.117 -3231.63 1417.22
-309.03 -3231.59 1417.12
-301.656 -3204.53 1442.25
-301.649 -3204.48 1441.94
-301.764 -3204 1441.28
-301.693 -3204.17 1441.26
-304.92 -3214.9 1429.03
-304.985 -3214.02 1428.95
-304.814 -3215.04 1429.34
-309.681 -3231.26 1417.12
-309.268 -3231.43 1417.05
-309.922 -3231.44 1417.55
-309.789 -3231.36 1417.34
-309.464 -3231.92 1418.04
-310.038 -3231.51 1417.75
-309.071 -3231.93 1417.63
-308.992 -3232.07 1417.83
-309.15 -3231.77 1417.41
-309.18 -3231.64 1417.22
-301.672 -3204.26 1442.04
-301.785 -3203.4 1441.62
-301.757 -3204.05 1440.85
-301.715 -3203.97 1441.29
-305.046 -3214.69 1428.69
-305.005 -3214.06 1428.88
-304.853 -3215.13 1429.21
-309.385 -3231.49 1417.17
-309.377 -3231.76 1417.53
-309.312 -3231.92 1417.76
-309.401 -3231.63 1417.33
-309.22 -3232.08 1417.99
-301.789 -3203.12 1441.6
-305.05 -3214.47 1428.72
-304.89 -3215.21 1429.13
-305.077 -3214.48 1428.66
-304.977 -3215.33 1428.94
-305.086 -3214.42 1428.62
-305.04 -3215.52 1428.81
-304.948 -3215.03 1428.94
-305.229 -3215.13 1428.38
-305.108 -3214.43 1428.55
-305.11 -3215.61 1428.66
-305.027 -3215.08 1428.74
-305.269 -3215.01 1428.29
-305.15 -3214.44 1428.45
-305.165 -3215.65 1428.53
-305.203 -3214.78 1428.36
-305.515 -3216.22 1427.77
-305.621 -3215.05 1427.52
-305.408 -3216.53 1427.88
-305.84 -3216.36 1427.08
-305.849 -3215.6 1427.1
-305.697 -3215.16 1427.35
-306.043 -3216.44 1426.59
-305.912 -3215.8 1426.87
-307.22 -3250.33 1428.01
-309.045 -3248.48 1427.43
-306.163 -3249.42 1428.32
-307.897 -3249.95 1427.83
-306.575 -3249.75 1428.15
-306.366 -3248.57 1428.15
-309.681 -3248.06 1427.43
-309.172 -3247.55 1427.45
-308.587 -3248.51 1427.98
-307.23 -3248.05 1427.99
-306.767 -3248.29 1428.03
-306.878 -3247.72 1427.94
-309.649 -3245.08 1428.04
-309.143 -3245.04 1428.07
-308.766 -3247.08 1427.62
-310.685 -3244.89 1427.93
-309.101 -3247.35 1428.12
-307.466 -3244.7 1428.18
-306.664 -3245.62 1428.22
-307.068 -3245.26 1428.17
-306.332 -3246.29 1428.21
-305.912 -3246.86 1428.26
-306.872 -3246.84 1427.98
-307.667 -3247.3 1427.61
-307.48 -3243.17 1429.26
-306.641 -3243.41 1429.79
-307.366 -3243.57 1429.39
-308.406 -3244.82 1428.41
-306.733 -3243.61 1429.64
-307.794 -3246.88 1427.76
-311.493 -3244.13 1428.22
-309.592 -3242.74 1427.81
-309.89 -3246.09 1428.28
-307.861 -3243.83 1428.18
-306.893 -3244.22 1428.57
-307.291 -3243.5 1428.61
-307.812 -3242.81 1428.53
-306.387 -3244.95 1428.62
-306.069 -3245.68 1428.49
-305.689 -3246.33 1428.37
-306.113 -3246.8 1428.07
-306.17 -3244.54 1429.1
-306.145 -3244.34 1429.19
-306.733 -3246.73 1427.92
-307.502 -3242.88 1429.09
-306.388 -3243.46 1429.69
-306.405 -3243.58 1429.67
-306.535 -3243.81 1429.5
-307.795 -3245.28 1428.33
-306.677 -3243.9 1429.44
-306.757 -3244.01 1429.35
-312.327 -3243.4 1428.6
-309.859 -3242.56 1427.87
-309.512 -3241.94 1427.81
-309.237 -3241.96 1427.76
-309.408 -3243.67 1428.2
-308.287 -3243.18 1428.13
-307.092 -3243.21 1428.87
-306.682 -3244.05 1428.86
-307.546 -3242.88 1428.73
-307.545 -3241.89 1428.48
-308.176 -3241.97 1428.47
-306.267 -3244.23 1429.2
-306.18 -3244.44 1429.14
-305.623 -3246.14 1428.43
-306.141 -3244.38 1429.18
-305.936 -3246.68 1428.05
-305.889 -3246.68 1428.14
-306.642 -3244.12 1429.27
-306.668 -3244.19 1429.24
-306.121 -3246.53 1427.96
-306.695 -3246.61 1427.87
-306.973 -3246.68 1427.75
-306.763 -3242.93 1429.57
-306.451 -3243.3 1429.61
-308.322 -3242.23 1428.27
-306.699 -3242.99 1429.14
-306.513 -3243.45 1429.25
-306.33 -3243.87 1429.31
-307.603 -3245.07 1428.46
-307.381 -3246.73 1427.67
-312.884 -3242.47 1428.89
-309.873 -3242.02 1427.9
-309.501 -3241.29 1427.83
-309.173 -3241.28 1427.79
-308.859 -3241.28 1427.85
-308.548 -3241.8 1427.98
-309.729 -3242.74 1428.2
-308.246 -3241.12 1428.17
-307.175 -3242.32 1428.67
-307.577 -3241.16 1428.19
-307.249 -3241.89 1428.58
-307.467 -3241.48 1428.47
-305.493 -3245.35 1428.72
-306.143 -3244.45 1429.16
-305.532 -3246.46 1428.28
-305.924 -3246.56 1428.19
-305.815 -3246.53 1428.22
-306.611 -3244.28 1429.21
-306.064 -3246.54 1428.06
-306.092 -3246.48 1428.14
-306.616 -3246.47 1427.8
-306.335 -3246.35 1427.89
-306.246 -3246.39 1428
-307.272 -3246.65 1427.62
-306.888 -3246.53 1427.67
-306.801 -3242.75 1429.55
-306.886 -3242.52 1429.4
-306.702 -3242.87 1429.45
-307.804 -3241.98 1428.64
-306.961 -3242.53 1429.04
-307.386 -3245.08 1428.58
-307.215 -3246.46 1427.91
-313.961 -3241.63 1429.23
-309.972 -3241.53 1427.97
-309.581 -3240.82 1427.9
-309.146 -3240.85 1427.98
-308.829 -3241 1428.03
-308.346 -3241.28 1428.22
-308.554 -3241.44 1427.95
-310.09 -3241.86 1428.2
-308.491 -3240.48 1427.91
-307.9 -3240.53 1427.99
-307.735 -3240.97 1428.32
-307.222 -3242.06 1428.93
-307.451 -3241.63 1428.84
-305.394 -3245.19 1428.76
-306.113 -3244.55 1429.12
-305.347 -3245.91 1428.46
-306.59 -3244.35 1429.19
-305.424 -3246.24 1428.31
-305.778 -3246.39 1428.26
-306.096 -3246.31 1428.2
-305.93 -3246.38 1428.22
-306.331 -3246.29 1428.05
-306.23 -3246.32 1428.15
-306.604 -3246.33 1427.73
-306.528 -3246.19 1427.82
-306.438 -3246.23 1427.94
-307.176 -3246.57 1427.55
-307.098 -3246.46 1427.81
-306.82 -3246.39 1427.59
-307.222 -3242.07 1429.22
-307.088 -3245.86 1428.31
-307.133 -3245.01 1428.77
-306.947 -3246.24 1428.06
