-286.826 -3255.6 861.574
-286.214 -3256.51 861.104
-286.223 -3256.27 860.83
-286.148 -3256.84 861.751
-286.189 -3256.7 861.372
-286.677 -3250.26 854.981
-285.77 -3258.15 852.005
-285.325 -3261.18 857.289
-285.59 -3262.08 854.586
-285.6 -3262.57 853.647
-285.704 -3262.39 853.005
-285.772 -3260.43 852.073
-284.534 -3263.43 863.406
-284.39 -3263.82 863.907
-284.687 -3266.26 863.002
-284.671 -3266.89 862.803
-284.578 -3266.95 863.166
-284.715 -3264.87 861.363
-284.754 -3266.41 862.087
-284.689 -3266.93 862.307
-284.62 -3267.27 862.591
-284.603 -3263.59 860.177
-284.654 -3263.1 859.533
-284.845 -3262.43 859.103
-285.091 -3261.75 858.084
-285.592 -3257.44 860.823
-286.557 -3255.08 847.704
-286.622 -3256.27 846.627
-286.468 -3256.91 845.157
-286.55 -3255.15 843.218
-286.096 -3258.13 849.995
-286.336 -3257.31 841.113
-286.218 -3257.89 840.428
-286.053 -3258.61 839.913
-285.724 -3258.52 839.052
-285.065 -3259.98 838.192
-283.422 -3260.72 834.773
-275.666 -3283.38 861.896
-277.093 -3279.65 861.917
-275.922 -3282.75 861.753
-277.568 -3278.64 861.283
-277.952 -3277.8 861.328
-278.383 -3277.21 861.351
-278.46 -3277.02 861.991
-278.867 -3276.4 862.403
-278.948 -3276.05 862.871
-279.133 -3274.82 864.013
-279.092 -3275.44 863.29
-271.297 -3291.72 861.664
-271.6 -3291.41 861.606
-271.645 -3291.55 861.236
-272.164 -3290.82 860.802
-273.229 -3289.5 860.072
-274.339 -3287.07 860.446
-273.85 -3288.55 860.121
-273.804 -3289.06 859.648
-275.064 -3285.86 860.104
-275.309 -3285.54 859.879
-275.355 -3284.91 860.407
-268.482 -3292.11 863.662
-269.873 -3291.88 862.842
-267.889 -3293.24 862.342
-270.802 -3292.07 861.887
-271.039 -3292.07 861.634
-281.194 -3270.94 864.58
-281.705 -3271.06 862.97
-280.546 -3272.21 863.514
-281.571 -3271.6 862.528
-281.608 -3271.32 862.761
-279.953 -3273.24 863.839
-282.484 -3269.29 865.369
-282.205 -3269.73 865.043
-281.354 -3270.09 865.818
-283.262 -3269.1 864.416
-283.456 -3268.93 864.199
-284.004 -3268.14 863.932
-284.171 -3267.59 863.926
-283.8 -3268.62 863.865
-284.085 -3267.21 864.296
-284.3 -3266.75 864.005
-284.568 -3266.4 863.41
-285.702 -3257.35 864.438
-285.267 -3257.94 862.832
-285.463 -3257.67 861.326
-286.505 -3256.4 863.478
-286.106 -3256.98 862.199
-285.167 -3261.53 856.897
-285.342 -3261.64 855.916
-285.424 -3262.41 854.976
-285.408 -3262.91 854.296
-285.473 -3263 853.91
-285.578 -3263.18 853.3
-285.741 -3262.85 852.422
-285.814 -3261.1 851.642
-284.505 -3267.5 863.023
-284.406 -3267.42 863.42
-284.382 -3267.01 863.71
-284.691 -3266.66 861.933
-284.641 -3265.31 861.1
-284.541 -3267.57 862.21
-284.57 -3267.29 861.965
-284.384 -3267.92 862.636
-284.432 -3264.16 859.838
-284.485 -3263.69 859.592
-284.514 -3263.46 859.173
-284.672 -3262.86 858.943
-284.87 -3262.3 858.287
-285.033 -3261.88 857.523
-286.575 -3258.13 847.462
-286.604 -3257.92 846.628
-286.396 -3258.87 844.699
-286.323 -3258.35 842.601
-286.357 -3256.31 841.465
-286.222 -3259.27 849.291
-286.279 -3260.53 842.296
-286.213 -3261.39 842.149
-286.072 -3262.63 842.359
-285.901 -3261.26 840.522
-285.478 -3262.75 840.329
-284.319 -3263.43 838.32
-282.462 -3262.24 833.58
-275.552 -3284.32 860.434
-276.658 -3280.73 861.571
-275.898 -3282.82 861.385
-277.11 -3279.45 860.955
-277.689 -3278.31 860.485
-278.065 -3277.54 860.325
-278.528 -3276.99 859.978
-278.776 -3276.71 860.895
-278.852 -3276.66 861.486
-278.934 -3276.42 861.995
-279.296 -3275.99 862.553
-280.254 -3275.43 861.866
-279.249 -3276.14 862.301
-280.27 -3275.47 861.651
-279.29 -3275.61 862.848
-279.371 -3274.68 863.701
-279.485 -3275.15 863.104
-271.036 -3292.36 861.103
-271.316 -3292.11 861.111
-271.544 -3292.01 860.769
-272.113 -3291.17 860.226
-273.124 -3289.82 859.865
-273.841 -3289.33 859.165
-274.32 -3287.82 859.92
-275.064 -3286.37 859.709
-274.841 -3286.94 859.699
-274.433 -3288.21 859.456
-274.307 -3288.59 859.319
-274.3 -3288.91 858.988
-275.283 -3286.06 859.551
-275.43 -3285.12 859.915
-275.45 -3285.82 859.361
-269.478 -3292.38 862.503
-270.56 -3292.54 861.438
-269.172 -3292.97 861.797
-269.079 -3293.71 860.635
-270.797 -3292.51 861.176
-281.932 -3270.8 863.051
-282.056 -3270.38 864.015
-282.81 -3269.97 863.254
-282.596 -3270.68 862.065
-282.427 -3271.12 861.804
-280.545 -3272.39 863.362
-281.404 -3271.85 862.492
-282.365 -3271.5 861.561
-282.177 -3271.56 861.745
-282.079 -3271.77 861.664
-280.164 -3273.22 863.544
-279.526 -3274.23 863.849
-283.139 -3269.29 864.299
-283.46 -3269.14 863.83
-283.751 -3268.89 863.519
-284.25 -3267.92 863.485
-284.086 -3268.32 863.514
-283.949 -3268.7 863.21
-285.846 -3257.25 863.342
-284.491 -3262.84 857.02
-284.488 -3262.93 856.701
-284.528 -3263.09 856.305
-284.635 -3263.26 855.875
-284.694 -3263.52 855.465
-285.176 -3263.32 854.541
-285.292 -3263.52 854.201
-285.44 -3263.56 853.773
-285.612 -3263.81 853.169
-285.845 -3263.38 852.224
-286.18 -3260.42 849.738
-284.256 -3268.13 863.077
-284.579 -3266.96 861.681
-284.51 -3265.65 860.846
-283.919 -3268.86 861.52
-283.974 -3268.64 861.325
-284.047 -3268.23 861.041
-284.023 -3268.43 861.177
-283.801 -3269.19 861.951
-283.85 -3269.06 861.732
-283.942 -3265.16 859.182
-284.019 -3264.48 858.81
-284.169 -3263.8 858.382
-284.276 -3263.36 857.984
-284.403 -3263.03 857.472
-286.644 -3259.63 847.521
-286.755 -3259.78 846.782
-286.718 -3259.73 846.137
-286.486 -3260.21 844.78
-286.333 -3261.71 843.848
-286.337 -3262.82 844.057
-286.2 -3263.81 844.04
-285.842 -3264.01 842.555
-285.034 -3265.25 840.872
-284.267 -3266.42 839.752
-283.206 -3266.11 837.704
-282.87 -3269.25 838.866
-282.096 -3265.8 835.755
-275.649 -3283.86 860.479
-275.501 -3284.65 860.038
-276.258 -3281.62 861.121
-275.895 -3282.87 861.008
-276.661 -3280.41 860.685
-277.168 -3278.99 860.145
-277.413 -3278.37 859.355
-277.604 -3277.99 858.45
-278.571 -3276.92 857.221
-279.179 -3276.27 859.987
-279.194 -3276.3 860.933
-279.285 -3276.2 861.53
-280.283 -3275.47 861.363
-280.254 -3275.26 862.059
-281.417 -3274.76 861.401
-281.463 -3274.72 861.129
-281.486 -3274.73 860.882
-280.244 -3275.1 862.257
-279.637 -3274.59 863.427
-280.326 -3274.7 862.636
-280.277 -3274.93 862.435
-270.653 -3293.02 860.602
-270.897 -3292.98 860.285
-271.194 -3292.6 860.479
-271.269 -3292.62 860.129
-271.952 -3291.54 859.804
-271.294 -3292.69 859.626
-272.614 -3290.58 859.568
-272.967 -3290.11 859.521
-273.443 -3289.72 859.226
-274.159 -3289.29 858.71
-273.769 -3289.58 858.821
-275.599 -3287.88 858.424
-275.594 -3288.19 858.283
-275.809 -3287.74 858.269
-275.958 -3287.63 858.16
-275.471 -3288.29 858.312
-275.507 -3288.56 858.091
-275.573 -3288.77 857.882
-274.579 -3289.02 858.598
-275.648 -3288.9 857.688
-275.462 -3286.34 859.152
-275.536 -3285.5 859.355
-275.541 -3285.04 859.498
-275.684 -3286.08 858.853
-275.61 -3286.27 858.946
-270.3 -3293.04 860.9
-268.12 -3294.85 859.005
-270.011 -3293.63 860.108
-269.644 -3294.25 858.902
-270.467 -3293.01 860.83
-283.11 -3269.84 862.887
-282.718 -3270.86 861.639
-282.578 -3271.25 861.377
-281.304 -3272.13 862.422
-282.265 -3271.9 861.341
-282.457 -3271.66 861.174
-282.006 -3272.08 861.507
-280.817 -3272.89 862.793
-279.716 -3274.14 863.605
-283.326 -3269.72 862.569
-284.093 -3268.54 862.98
-283.514 -3269.57 862.274
-283.81 -3264.23 856.909
-283.876 -3264.06 857.129
-283.834 -3264.43 856.518
-283.827 -3264.31 856.699
-284.557 -3263.99 855.386
-283.762 -3265.77 856.074
-283.928 -3264.49 856.242
-285.054 -3263.71 854.623
-285.086 -3264.07 854.426
-285.251 -3264.03 854.136
-285.514 -3264.15 853.593
-286.612 -3264.61 851.059
-285.689 -3264.16 853.068
-286.115 -3263.45 851.513
-286.235 -3260.96 849.809
-286.589 -3260.39 848.087
-284.066 -3267.78 860.798
-283.983 -3266.72 860.085
-282.904 -3271.46 860.002
-283.31 -3270.29 860.722
-283.026 -3271.02 859.845
-283.096 -3270.66 859.596
-282.952 -3270.25 858.619
-283.347 -3267.97 859.031
-283.668 -3269.41 862.014
-283.171 -3270.42 861.219
-283.119 -3270.67 860.811
-283.499 -3265.93 858.414
-283.503 -3265.61 858.118
-283.661 -3264.82 857.987
-283.74 -3264.49 857.69
-283.804 -3264.26 857.43
-286.77 -3260.65 847.496
-286.853 -3260.7 847.025
-287.254 -3262.32 846.993
-287.218 -3262.09 847.34
-287.221 -3262.38 846.558
-287.081 -3262.46 846.009
-286.982 -3262.77 845.65
-286.937 -3263.29 845.581
-286.861 -3263.96 845.424
-286.719 -3264.73 845.351
-286.06 -3264.76 844.137
-285.248 -3265.66 842.199
-285.792 -3265.04 843.625
-283.375 -3269.14 839.903
-282.954 -3269.61 839.311
-281.819 -3268.98 837.127
-282.071 -3272.29 839.059
-281.911 -3272.16 838.709
-280.324 -3269.49 835.221
-275.582 -3284.37 859.881
-275.651 -3283.57 860.284
-276.03 -3282.07 860.735
-275.771 -3282.93 860.501
-276.222 -3281.09 860.287
-276.709 -3279.81 859.953
-276.909 -3279.09 859.214
-276.981 -3278.74 858.459
-277.219 -3278.3 857.667
-277.485 -3277.98 856.414
-280.495 -3275.26 859.042
-279.949 -3275.46 857.478
-279.413 -3276.03 855.551
-278.239 -3277.37 854.515
-278.84 -3276.68 854.32
-280.274 -3275.56 860.555
-280.266 -3275.51 859.8
-280.284 -3275.54 860.994
-281.311 -3274.9 860.883
-281.384 -3274.61 861.519
-281.572 -3274.54 861.131
-281.629 -3274.55 860.876
-281.71 -3274.52 860.636
-281.599 -3274.63 860.517
-281.427 -3274.79 860.635
-281.306 -3274.42 861.66
-280.353 -3274.43 862.772
-281.303 -3274.23 861.744
-270.283 -3293.52 860.09
-270.429 -3293.63 859.617
-270.921 -3293.14 859.834
-270.538 -3293.67 859.05
-270.892 -3293.25 859.279
-271.41 -3292.45 858.456
-270.787 -3293.45 857.744
-272.297 -3290.87 859.248
-270.642 -3293.72 857.727
-270.503 -3294 857.23
-272.527 -3290.72 859.034
-272.85 -3290.38 859.144
-273.276 -3289.94 858.934
-274.123 -3289.43 858.424
-274.507 -3289.22 858.305
-273.862 -3289.61 858.495
-276.695 -3288.89 856.832
-276.57 -3288.94 856.823
-276.759 -3289.04 856.616
-276.822 -3288.91 856.593
-276.074 -3287.63 857.958
-276.809 -3288.69 856.651
-276.675 -3289.11 856.546
-276.676 -3289.22 856.387
-275.636 -3289.08 857.361
-275.698 -3288.97 857.512
-276.487 -3289.22 856.491
-276.195 -3287.57 857.717
-275.654 -3285.59 858.984
-275.583 -3284.73 859.368
-275.65 -3285.24 858.921
-275.816 -3286.17 858.513
-276.305 -3287.52 857.457
-276.348 -3287.42 857.276
-267.666 -3295.33 857.926
-267.614 -3295.6 856.889
-269.255 -3294.78 857.985
-269.928 -3294.26 858.566
-282.771 -3271.05 861.161
-282.944 -3270.65 861.472
-282.636 -3271.45 860.949
-281.989 -3272.88 861.26
-282.165 -3272.79 861
-282.311 -3272.64 860.776
-281.806 -3272.99 861.511
-280.915 -3273.33 862.528
-280.528 -3274.03 862.752
-283.668 -3264.62 857.164
-283.661 -3264.79 856.87
-283.554 -3266.31 856.329
-283.431 -3266.52 856.652
-283.914 -3265.6 855.874
-284.328 -3265.14 855.353
-283.94 -3266.86 855.314
-283.671 -3267.38 855.505
-285.324 -3265.36 853.952
-285.571 -3265.19 853.558
-285.822 -3265.09 853.163
-285.981 -3264.92 852.742
-287.037 -3264.91 850.205
-286.785 -3263.7 850.296
-287.409 -3263.85 849.274
-287.596 -3264.24 848.979
-286.798 -3262.67 849.763
-286.886 -3262.26 849.247
-287.027 -3262.1 848.603
-287.097 -3262.02 848.158
-282.786 -3271.83 860.155
-282.536 -3272.58 859.339
-282.335 -3273.25 859.674
-282.313 -3273.34 860.04
-282.628 -3272.21 859.083
-282.513 -3271.56 858.033
-283.157 -3267.94 858.206
-282.594 -3270.28 857.166
-282.269 -3271.37 856.98
-283.001 -3270.77 861.06
-282.862 -3271.09 860.754
-282.627 -3272.24 860.391
-283.127 -3267.74 857.831
-283.524 -3265.32 857.734
-283.608 -3264.85 857.37
-287.155 -3261.95 847.717
-287.719 -3263.93 847.665
-287.723 -3264.12 847.444
-287.692 -3263.7 847.89
-287.648 -3264.27 847.284
-287.469 -3264.28 846.845
-287.437 -3264.78 846.739
-286.538 -3265.5 845.339
-287.316 -3265.22 846.592
-285.701 -3265.54 843.857
-284.899 -3266.6 842.219
-285.153 -3266.55 843.48
-283.339 -3269.55 840.316
-282.543 -3270.81 839.514
-282.196 -3272.37 839.379
-281.563 -3272.24 838.221
-280.933 -3272.3 837.477
-279.732 -3271.21 835.672
-281.715 -3274.21 839.239
-281.907 -3274.36 839.677
-275.562 -3284.08 859.686
-275.558 -3283.37 859.915
-275.787 -3282.55 860.29
-275.856 -3281.96 860.135
-275.566 -3282.85 859.905
-275.903 -3281.33 859.79
-276.18 -3280.56 859.574
-276.381 -3279.82 859.123
-276.515 -3279.3 858.454
-276.545 -3278.96 857.819
-276.864 -3278.53 857.165
-277.12 -3278.22 856.24
-277.784 -3277.73 854.801
-280.92 -3274.88 858.663
-281.25 -3274.9 860.222
-281.375 -3274.72 859.773
-280.312 -3275.08 856.901
-280.191 -3275.01 855.417
-280.448 -3274.44 854.488
-278.644 -3277.09 853.401
-278.46 -3277.45 853.048
-278.117 -3277.68 853.202
-280.174 -3274.89 853.897
-278.952 -3276.72 853.36
-281.222 -3274.99 860.677
-281.559 -3274.36 861.293
-281.747 -3274.44 860.986
-281.864 -3274.36 860.748
-281.953 -3274.32 860.655
-281.889 -3274.32 860.479
-281.661 -3274.56 860.268
-281.403 -3274.8 860.445
-281.532 -3274.19 861.431
-281.48 -3274.29 861.455
-281.271 -3274.06 861.855
-281.548 -3274.03 861.512
-270 -3294.39 857.901
-270.457 -3294.35 855.746
-270.219 -3294.57 855.66
-270.56 -3293.73 858.406
-271.659 -3291.86 857.822
-270.94 -3293.24 856.4
-270.706 -3293.7 856.09
-271.36 -3292.38 856.883
-272.046 -3291.14 857.73
-270.517 -3294.02 856.139
-272.167 -3290.97 857.472
-270.661 -3294.33 854.655
-270.775 -3294.16 854.775
-272.89 -3290.36 858.588
-272.328 -3290.78 857.265
-273.378 -3289.99 858.528
-274.457 -3289.39 857.984
-274.062 -3289.57 858.091
-275.59 -3289.2 857.178
-273.66 -3289.85 857.899
-276.908 -3289.11 856.391
-276.904 -3289.23 856.3
-276.97 -3289.23 856.182
-276.935 -3288.83 856.18
-277.01 -3289.04 856.032
-276.84 -3288.56 856.46
-276.854 -3289.32 856.126
-276.759 -3289.37 856.069
-276.634 -3289.38 856.167
-276.457 -3289.34 856.364
-275.827 -3285.89 858.496
-275.645 -3284.91 858.828
-275.525 -3284.42 859.21
-275.797 -3285.54 858.456
-276.396 -3287.35 857.053
-276.889 -3288.48 856.187
-276.921 -3288.37 856.029
-269.033 -3295.14 856.914
-267.499 -3295.81 855.798
-268.73 -3295.42 855.791
-269.527 -3294.8 857.305
-282.475 -3272.46 860.557
-281.598 -3273.8 861.542
-281.779 -3273.89 861.265
-281.968 -3273.91 860.981
-282.077 -3273.73 860.788
-281.354 -3273.83 861.847
-283.502 -3265.37 857.396
-283.55 -3265.23 857.142
-283.298 -3266.88 856.958
-283.046 -3269.21 855.499
-283.561 -3267.9 855.4
-283.161 -3268.38 856.228
-284.94 -3265.91 854.339
-284.911 -3266.41 854.149
-284.004 -3267.32 854.871
-283.782 -3267.97 854.688
-286.139 -3265.9 852.642
-286.041 -3266.1 852.73
-286.36 -3265.74 852.221
-286.457 -3265.62 851.917
-287.083 -3265.17 850.227
-287.676 -3264.63 848.824
-287.501 -3263.59 848.849
-287.655 -3263.95 848.563
-287.545 -3263.41 848.484
-287.635 -3263.56 848.186
-282.196 -3273.48 860.367
-282.326 -3273.19 859.424
-282.389 -3272.84 859.118
-282.181 -3273.59 859.548
-282.101 -3273.82 860.037
-282.084 -3273.95 860.441
-282.151 -3272.52 857.898
-282.719 -3269.66 857.045
-282.211 -3271.32 856.545
-281.942 -3272.19 856.671
-282.157 -3273.51 860.623
-283.178 -3267.36 857.588
-287.76 -3264.33 847.963
-287.718 -3264.07 848.197
-287.738 -3264.4 847.683
-287.708 -3264.71 847.556
-287.627 -3264.72 847.24
-287.566 -3265.08 847.162
-286.22 -3266.13 845.176
-287.212 -3265.66 846.58
-287.432 -3265.44 846.974
-284.621 -3267.43 843.19
-284.107 -3268.24 841.552
-285.834 -3266.99 845.215
-284.695 -3267.65 843.707
-282.941 -3270.69 840.791
-282.695 -3270.92 840.076
-282.29 -3272.56 839.779
-282.038 -3274.31 839.985
-281.416 -3274.29 838.895
-280.394 -3273.09 837.264
-277.963 -3274.16 835.583
-281.651 -3274.8 839.597
-281.315 -3274.98 839.256
-281.794 -3274.89 839.94
-275.477 -3283.83 859.435
-275.418 -3283.27 859.46
-275.523 -3282.41 859.72
-275.517 -3281.85 859.436
-275.377 -3282.73 859.41
-275.707 -3281.1 859.211
-275.887 -3280.44 858.899
-276.077 -3279.85 858.429
-276.11 -3279.38 857.783
-276.21 -3279 857.196
-276.451 -3278.68 856.68
-276.71 -3278.42 855.746
-277.413 -3277.99 854.939
-277.688 -3277.88 853.623
-281.149 -3274.56 858.413
-281.551 -3274.53 859.643
-281.503 -3274.69 860.135
-280.637 -3274.62 856.732
-281.024 -3274.03 856.446
-281.175 -3273.47 855.575
-281.617 -3272.68 855.034
-281.56 -3272.73 855.377
-278.985 -3277.04 852.627
-278.89 -3277.24 852.221
-278.514 -3277.47 852.288
-277.965 -3277.8 852.655
-278.285 -3277.68 852.16
-279.636 -3275.8 852.97
-280.994 -3273.81 853.704
-281.745 -3272.55 854.63
-281.776 -3274.21 861.167
-281.955 -3274.25 860.89
-282.055 -3274.09 860.761
-282.112 -3273.86 860.659
-281.91 -3274.24 860.161
-281.694 -3274.48 859.964
-269.986 -3294.81 855.143
-270.808 -3294.5 852.966
-271.159 -3294.11 853.365
-271.08 -3294.21 852.7
-271.792 -3291.41 856.176
-270.984 -3293.23 855.878
-271.377 -3292.33 855.955
-270.918 -3293.97 854.804
-271.159 -3293.66 854.721
-271.681 -3291.55 855.783
-271.944 -3291.18 855.797
-272.017 -3291.06 855.656
-271.271 -3293.87 853.401
-272.571 -3290.55 857.061
-272.051 -3290.99 855.344
-272.115 -3290.88 855.441
-272.798 -3290.41 857.031
-274.455 -3289.51 857.739
-275.529 -3289.37 857.041
-273.923 -3289.75 857.706
-276.347 -3289.45 856.253
-273.055 -3290.41 855.821
-273.664 -3289.95 857.396
-277.055 -3289.21 855.937
-276.977 -3289.29 855.907
-277.063 -3289.25 855.819
-276.995 -3288.72 855.965
-277.296 -3288.93 854.708
-277.316 -3289.05 854.63
-277.002 -3289.32 855.706
-276.858 -3289.38 855.747
-276.588 -3289.45 856.018
-276.324 -3287.05 857.054
-275.723 -3285.07 858.426
-275.518 -3284.5 858.754
-275.374 -3283.91 859.052
-275.932 -3285.98 857.857
-277.231 -3288.21 854.237
-277.26 -3288.43 854.413
-277.264 -3288.63 854.693
-267.202 -3295.98 854.837
-269.678 -3294.98 854.88
-269.181 -3295.26 854.771
-268.557 -3295.56 854.571
-283.214 -3267.18 857.279
-283.132 -3268.51 856.603
-282.642 -3270.16 855.755
-283.165 -3269.69 854.497
-282.392 -3271.07 855.489
-282.434 -3271.16 855.266
-283.483 -3268.48 854.944
-282.64 -3269.96 856.225
-285.015 -3266.61 853.834
-286.078 -3266.27 852.527
-285.148 -3266.76 853.522
-284.196 -3267.48 854.367
-283.854 -3268.82 853.41
-284.031 -3268.15 853.764
-286.47 -3265.96 852.038
-286.373 -3266.09 852.188
-286.953 -3265.56 850.665
-287.588 -3265.04 848.946
-287.757 -3264.42 848.507
-287.751 -3264.88 848.51
-282.231 -3273.32 859.196
-282.026 -3273.94 859.777
-282.06 -3273.74 859.431
-281.869 -3273.16 857.847
-281.648 -3272.79 856.585
-282.308 -3270.95 856.291
-283.016 -3268.78 856.946
-282.35 -3270.84 856.518
-281.903 -3272.14 856.228
-287.793 -3264.64 848.219
-287.761 -3264.71 847.892
-287.729 -3265.02 847.898
-287.661 -3265.06 847.511
-287.571 -3265.46 847.562
-287.129 -3266.04 846.745
-287.338 -3265.8 847.247
-283.926 -3269.34 844.484
-283.76 -3269.03 843.368
-283.934 -3268.67 841.594
-285.289 -3267.87 845.199
-286.779 -3266.63 846.654
-282.802 -3270.92 842.103
-282.766 -3271.17 840.92
-282.58 -3271.57 840.777
-282.645 -3271.28 840.468
-282.319 -3272.74 840.075
-282.077 -3274.36 840.261
-281.893 -3274.84 840.205
-280.932 -3274.91 838.767
-279.725 -3273.87 837.048
-279.02 -3275.76 837.77
-275.928 -3278.07 836.263
-277.071 -3278.92 838.032
-281.464 -3275.51 840.023
-281.345 -3275.44 839.71
-280.17 -3276.75 839.595
-281.462 -3275.69 840.375
-273.664 -3280.99 835.869
-275.249 -3283.27 859.048
-275.271 -3282.3 859.222
-275.228 -3281.5 858.716
-275.035 -3282.06 858.779
-275.019 -3282.87 858.761
-275.011 -3282.53 858.83
-275.386 -3280.73 858.42
-275.443 -3280.24 858.03
-275.665 -3279.78 857.712
-275.687 -3279.43 857.214
-275.633 -3279.16 856.64
-275.6 -3279.03 856.219
-275.862 -3278.78 855.821
-276.073 -3278.51 854.876
-277.116 -3278.13 854.447
-277.468 -3278 853.251
-281.348 -3274.19 858.106
-281.718 -3274.27 859.489
-281.359 -3273.31 856.126
-281.55 -3273.78 857.936
-281.354 -3273.51 856.67
-281.632 -3272.67 856.04
-281.941 -3272.09 855.66
-282.037 -3272.03 855.172
-281.932 -3271.98 856.01
-279.22 -3276.96 852.022
-279.705 -3275.86 852.458
-278.933 -3277.35 851.712
-279.217 -3277.1 851.591
-278.835 -3277.57 851.436
-277.833 -3277.97 852.158
-278.198 -3277.92 851.592
-278.636 -3277.76 851.332
-280.584 -3274.53 852.599
-281.268 -3273.6 853.28
-281.633 -3272.82 854.297
-282.131 -3272.09 854.843
-282.061 -3272.32 854.43
-281.858 -3274.18 859.745
-270.347 -3294.77 852.996
-270.921 -3294.35 851.662
-271.363 -3293.85 850.853
-271.181 -3294.09 852.291
-271.829 -3293.29 849.761
-271.868 -3291.28 855.292
-271.279 -3293.44 854.748
-271.412 -3293.14 854.691
-271.476 -3292.27 855.559
-271.998 -3291.65 854.118
-271.817 -3291.44 855.072
-271.476 -3293.68 853.339
-271.646 -3293.45 853.518
-271.966 -3291.13 855.237
-272.345 -3291.04 853.751
-271.554 -3293.73 851.833
-272.624 -3290.85 853.802
-272.475 -3290.93 853.753
-272.891 -3290.73 853.696
-275.383 -3289.52 856.899
-274.205 -3289.71 857.369
-276.087 -3289.56 856.173
-276.488 -3289.52 855.871
-273.348 -3290.28 855.619
-273.628 -3290.46 852.773
-273.341 -3290.65 852.238
-273.922 -3289.87 856.948
-277.344 -3289.14 854.508
-277.289 -3289.28 854.652
-277.242 -3289.32 854.716
-277.367 -3289.22 854.378
-277.362 -3288.78 854.37
-277.747 -3288.73 853.118
-277.699 -3288.89 853.136
-277.685 -3289.03 853.04
-277.278 -3289.38 854.271
-276.757 -3289.45 855.63
-277.159 -3289.41 854.679
-276.936 -3287.73 854.946
-275.781 -3285.42 857.979
-275.603 -3284.79 858.264
-275.341 -3284.22 858.611
-275.188 -3283.68 858.698
-275.944 -3286.16 857.173
-276.942 -3287.61 854.747
-277.677 -3288.38 853.057
-277.617 -3288.17 852.976
-277.727 -3288.58 853.139
-267.1 -3295.92 853.096
-268.85 -3295.47 853.226
-270.068 -3294.92 853.05
-269.521 -3295.23 853.091
-282.214 -3271.5 855.425
-282.166 -3271.49 855.773
-283.207 -3270.84 854.07
-282.636 -3271.12 854.945
-283.473 -3270.34 853.625
-283.692 -3270.18 853.036
-283.82 -3269.15 852.981
-282.456 -3271.5 854.885
-282.254 -3271.66 855.104
-286.225 -3266.38 852.308
-286.429 -3266.24 852.035
-285.288 -3266.9 853.194
-284.343 -3267.72 853.635
-284.064 -3268.4 852.692
-283.946 -3269 852.456
-284.21 -3268.25 852.982
-287.072 -3265.69 850.292
-286.6 -3266.21 851.64
-287.537 -3265.27 848.819
-287.737 -3265.07 848.298
-282.03 -3273.62 859.084
-281.858 -3274 859.329
-282.034 -3271.78 856.091
-287.642 -3265.28 847.877
-287.601 -3265.34 848.318
-287.286 -3265.84 847.758
-287.502 -3265.57 848.058
-287.085 -3266.28 847.133
-285.167 -3268.46 845.91
-283.867 -3270.21 846.027
-283.369 -3270.47 844.934
-284.083 -3269.9 846.269
-283.534 -3269.33 843.042
-282.76 -3271.06 843.769
-283.482 -3269.49 842.249
-286.753 -3266.79 847.089
-282.525 -3271.6 842.181
-282.626 -3271.53 841.113
-282.88 -3270.72 843.366
-282.336 -3271.86 843.392
-281.65 -3273.76 843.419
-281.627 -3273.79 843.196
-282.313 -3273.13 840.912
-282.349 -3272.82 840.351
-282.366 -3272.93 840.587
-282.115 -3274.31 840.478
-282.023 -3274.59 840.429
-281.875 -3274.95 840.445
-281.644 -3275.41 840.419
-279.825 -3276.66 839.148
-274.095 -3280.98 836.477
-275.516 -3281.05 837.86
-278.069 -3279.64 839.495
-280.289 -3277.27 840.352
-280.336 -3277.39 840.663
-280.196 -3277.1 840.003
-278.308 -3279.85 839.946
-281.337 -3276.07 840.721
-280.244 -3277.65 841.023
-272.179 -3285.15 837.85
-274.906 -3283.17 858.483
-274.611 -3282.18 858.196
-274.766 -3281.01 857.881
-274.595 -3281.63 857.99
-274.528 -3282.77 858.025
-274.531 -3282.48 858.097
-274.856 -3280.46 857.542
-274.949 -3280.03 857.238
-274.98 -3279.75 856.902
-274.955 -3279.51 856.522
-274.99 -3279.28 856.101
-275.005 -3279.01 855.443
-275.072 -3279.14 855.845
-275.075 -3278.81 854.919
-275.286 -3278.64 854.284
-275.849 -3278.46 853.83
-276.669 -3278.25 853.816
-276.953 -3278.18 853.018
-277.415 -3278.08 852.423
-279.513 -3276.78 851.564
-279.938 -3275.76 852.01
-280.627 -3274.56 852.31
-279.144 -3277.4 851.178
-279.421 -3277.12 851.195
-278.945 -3277.77 850.86
-277.956 -3278.1 851.303
-277.346 -3278.25 851.545
-278.606 -3277.96 850.875
-278.355 -3277.98 851.097
-280.889 -3274.33 852.162
-281.875 -3273.35 852.626
-282.382 -3272.67 853.401
-281.9 -3272.68 854.069
-282.311 -3271.88 854.713
-282.782 -3272.06 853.849
-282.633 -3272.37 853.621
-270.285 -3294.72 851.867
-271.226 -3293.73 849.26
-271.794 -3293.22 848.541
-272.196 -3292.78 848.111
-272.312 -3292.65 849.443
-272.322 -3292.64 848.842
-272.522 -3292.32 847.715
-272.264 -3291.18 853.676
-272.173 -3291.28 853.951
-272.025 -3292.41 852.936
-272.09 -3292.56 852.161
-271.705 -3292.49 854.369
-272.109 -3291.45 854.062
-272.376 -3291.54 852.492
-272.179 -3292.68 851.331
-272.832 -3291 851.653
-273.217 -3290.76 850.279
-272.878 -3291.68 849.167
-273.201 -3290.73 850.938
-273.273 -3290.71 851.472
-275.217 -3289.61 856.72
-275.894 -3289.67 856.004
-274.94 -3289.69 856.472
-276.366 -3289.58 855.777
-276.788 -3289.49 855.296
-273.741 -3290.15 855.597
-273.974 -3290.27 853.295
-274.155 -3290.25 852.389
-273.797 -3290.37 851.74
-273.605 -3290.47 851.382
-274.784 -3289.83 855.969
-277.657 -3289.18 853.018
-277.61 -3289.28 853.11
-277.539 -3289.34 853.21
-277.821 -3288.62 852.75
-277.802 -3288.79 852.829
-277.778 -3288.92 852.695
-277.73 -3289.06 852.629
-277.446 -3289.43 853.122
-277.54 -3289.37 852.866
-277.172 -3289.47 854.28
-277.602 -3287.95 852.851
-275.581 -3285.3 857.601
-275.319 -3284.52 858.03
-275.119 -3283.99 858.309
-274.799 -3283.45 858.14
-275.685 -3285.8 856.739
-276.378 -3286.94 855.891
-277.094 -3287.68 854.076
-277.726 -3288.32 852.682
-277.766 -3288.48 852.789
-277.683 -3288.15 852.584
-267.531 -3295.7 851.142
-269.069 -3295.35 852.217
-267.872 -3295.42 850.061
-268.353 -3294.82 848.232
-267.861 -3294.51 846.313
-269.705 -3295.06 851.937
-269.216 -3295.33 852.333
-283.115 -3271.24 854.087
-283.678 -3271.28 853.05
-283.579 -3271.49 853.184
-283.022 -3271.58 853.985
-283.837 -3270.16 852.56
-283.803 -3271.07 852.71
-283.748 -3271.25 852.836
-283.872 -3269.28 852.574
-282.893 -3271.86 853.88
-286.265 -3266.48 852.135
-286.406 -3266.41 851.897
-286.542 -3266.38 851.432
-286.966 -3266.07 850.151
-285.448 -3267 852.748
-284.575 -3267.74 852.954
-284.128 -3269.06 851.589
-284.33 -3268.49 851.711
-284.214 -3268.78 851.61
-284.034 -3269.31 851.653
-284.591 -3268.1 852.138
-287.232 -3265.72 849.61
-287.435 -3265.58 848.792
-287.433 -3265.77 848.484
-287.358 -3265.98 848.179
-287.027 -3266.39 847.629
-285.296 -3268.49 846.505
-283.886 -3270.29 846.411
-283.711 -3270.55 846.216
-283.124 -3271.11 845.136
-284.28 -3269.66 846.659
-283.96 -3270.16 846.78
-281.782 -3273.69 843.906
-281.751 -3273.56 843.666
-286.663 -3266.97 847.467
-281.915 -3273.16 842.444
-281.203 -3275.13 843.697
-281.024 -3275.48 843.562
-281.124 -3275.29 843.339
-282.231 -3273.29 841.174
-282.122 -3274.29 840.687
-282.022 -3274.6 840.805
-282.002 -3274.62 840.998
-282.002 -3274.69 840.617
-281.73 -3275.29 840.734
-281.577 -3275.65 840.742
-272.736 -3284.88 838.272
-276.033 -3283.35 840.064
-274.342 -3284 839.055
-276.131 -3283.95 840.643
-278.391 -3280.1 840.308
-278.417 -3280.28 840.666
-278.403 -3280.46 841.004
-276.202 -3284.35 841.108
-281.281 -3276.28 841.064
-280.043 -3278 841.336
-272.166 -3286.79 839.228
-271.399 -3287.16 838.67
-274.416 -3283.01 857.765
-272.611 -3280.99 855.582
-272.54 -3281.12 855.516
-272.624 -3280.66 855.523
-272.584 -3280.47 855.382
-273.026 -3280.41 855.766
-272.47 -3280.77 855.384
-272.601 -3281.47 855.561
-272.568 -3281.62 855.487
-272.463 -3281.23 855.424
-272.775 -3280.14 855.346
-273.175 -3279.8 855.394
-273.061 -3280 855.494
-273.223 -3279.62 855.224
-273.267 -3279.3 854.808
-273.272 -3279.45 855.046
-273.25 -3279.14 854.496
-273.233 -3278.99 854.159
-273.363 -3278.85 853.866
-273.56 -3278.73 853.574
-273.796 -3278.6 853.139
-274.146 -3278.52 852.814
-276.184 -3278.36 853.246
-276.361 -3278.31 852.702
-276.895 -3278.27 852.174
-279.696 -3276.78 851.233
-280.113 -3275.72 851.668
-280.558 -3274.74 852.025
-280.829 -3274.63 851.75
-279.226 -3277.63 850.72
-279.493 -3277.43 850.678
-279.728 -3277.06 850.845
-279.539 -3278.22 849.598
-279.873 -3278 849.65
-277.883 -3278.26 850.756
-278.272 -3278.15 850.729
-276.733 -3278.38 851.442
-277.347 -3278.37 850.842
-279.08 -3278.38 849.56
-281.671 -3273.88 851.668
-282.739 -3272.82 852.212
-282.45 -3273.29 851.474
-282.98 -3272.38 852.924
-283.17 -3272.19 852.915
-283.295 -3271.98 853.016
-270.603 -3294.19 849.76
-271.293 -3293.36 847.606
-271.843 -3292.96 847.49
-272.396 -3292.46 847.317
-272.27 -3292.45 846.907
-273.284 -3291.09 848.001
-272.825 -3291.83 847.484
-272.739 -3291.87 846.963
-272.813 -3291.3 850.649
-273.644 -3290.32 849.569
-273.433 -3290.71 849.098
-273.672 -3290.37 849.074
-273.694 -3290.32 850.216
-273.872 -3290.21 850.473
-276.464 -3289.6 855.441
-276.005 -3289.7 855.646
-276.868 -3289.55 854.178
-277.206 -3289.53 853.403
-274.939 -3289.89 854.925
-274.383 -3290.17 852.646
-275.278 -3289.92 853.368
-274.245 -3290.16 851.743
-274.567 -3290.04 851.941
-273.897 -3290.26 850.988
-274.075 -3290.18 851.139
-276.24 -3289.66 854.987
-277.676 -3289.2 852.606
-277.622 -3289.3 852.67
-277.876 -3288.73 852.572
-277.786 -3288.42 852.521
-277.856 -3288.57 852.461
-277.874 -3288.82 852.434
-277.812 -3288.93 852.389
-277.745 -3289.05 852.351
-277.547 -3289.39 852.537
-277.417 -3289.47 852.902
-277.643 -3289.3 852.428
-277.682 -3287.66 852.873
-277.802 -3287.7 852.554
-277.716 -3287.96 852.512
-275.188 -3284.87 857.374
-274.858 -3284.21 857.568
-274.708 -3283.7 857.822
-274.292 -3283.23 857.451
-276.309 -3286.84 855.477
-275.308 -3285.4 856.295
-275.934 -3286.31 855.373
-277.045 -3287.57 853.931
-277.731 -3288.23 852.439
-277.719 -3288.05 852.344
-269.126 -3295.16 851.096
-269.199 -3294.16 847.017
-269.966 -3294.52 849.767
-270.61 -3293.7 847.546
-268.372 -3294.1 845.879
-283.671 -3271.61 852.874
-283.442 -3271.75 853.109
-283.883 -3270.4 852.017
-283.978 -3271.1 852.373
-283.916 -3269.57 851.927
-283.777 -3271.54 852.633
-283.805 -3271.55 852.301
-286.176 -3266.64 851.984
-286.365 -3266.55 851.528
-286.931 -3266.26 849.68
-287.312 -3265.94 848.979
-285.637 -3267.18 852.322
-285.61 -3267.33 851.926
-284.143 -3269.33 850.765
-284.281 -3269.09 850.686
-284.389 -3268.91 850.531
-284.527 -3268.69 850.316
-284.034 -3269.47 850.963
-284.811 -3268.29 850.51
-287.214 -3266.19 848.625
-287.121 -3266.38 848.148
-286.842 -3266.73 847.853
-285.387 -3268.46 847.053
-283.714 -3270.69 846.66
-283.839 -3270.45 846.896
-283.579 -3271.01 846.465
-282.487 -3272.59 844.809
-283.504 -3271.05 846.158
-284.212 -3269.72 847.006
-284.512 -3269.37 847.26
-283.972 -3269.98 848.459
-284.122 -3269.67 848.329
-281.39 -3275.08 844.168
-281.246 -3275.16 843.922
-281.295 -3275.11 843.977
-286.519 -3267.19 848.009
-281.772 -3273.56 842.453
-281.009 -3275.6 843.144
-280.97 -3275.69 843.942
-280.817 -3275.99 843.761
-280.765 -3276.1 843.433
-280.528 -3276.57 843.776
-281.914 -3273.85 841.773
-281.929 -3274.75 841.211
-281.795 -3275.14 840.932
-281.686 -3275.44 841.371
-281.632 -3275.74 841.273
-281.485 -3276.03 841.206
-273.861 -3285.96 840.154
-275.111 -3285.77 841.088
-275.317 -3286.18 841.788
-276.339 -3284.4 841.428
-276.538 -3284.2 841.659
-278.087 -3281.12 841.374
-276.489 -3284.47 842.032
-275.39 -3286.47 842.332
-280.986 -3276.75 841.463
-279.973 -3278.11 841.726
-279.004 -3279.47 841.656
-273.554 -3286.86 840.706
-271.613 -3287.8 839.704
-270.579 -3288.77 839.485
-272.474 -3281.73 855.325
-272.619 -3281.98 855.427
-270.877 -3280.27 853.513
-271.041 -3280.17 853.661
-270.955 -3280.48 853.651
-271.042 -3279.99 853.599
-271.187 -3279.87 853.677
-270.916 -3280.65 853.538
-270.836 -3280.8 853.36
-271.275 -3279.66 853.605
-271.034 -3279.71 853.382
-271.192 -3279.5 853.38
-271.423 -3279.35 853.4
-271.504 -3279.21 853.277
-271.716 -3279.12 853.337
-271.621 -3279.05 853.086
-271.921 -3278.93 853.046
-271.944 -3278.83 852.781
-272.093 -3278.73 852.538
-272.221 -3278.66 852.261
-274.544 -3278.46 852.528
-272.658 -3278.58 852.085
-274.744 -3278.44 852.111
-274.815 -3278.47 851.63
-280.044 -3276.68 850.79
-280.227 -3275.78 851.383
-280.381 -3275.78 851.121
-281.492 -3274.33 851.242
-280.142 -3277.76 849.695
-280.439 -3277.36 849.847
-280.737 -3277 849.862
-280.224 -3278.47 848.599
-279.873 -3278.64 848.601
-280.576 -3278.17 848.827
-277.823 -3278.57 849.83
-278.341 -3279.07 848.632
-274.895 -3278.57 850.892
-275.159 -3278.7 850.247
-278.626 -3279.51 847.589
-282.198 -3273.71 851.222
-282.55 -3273.43 851.122
-283.012 -3272.63 852.047
-282.689 -3273.14 851.226
-283.33 -3272.09 852.676
-283.166 -3272.47 851.917
-283.5 -3271.87 852.785
-271.576 -3292.9 846.809
-270.804 -3293.37 846.788
-271.99 -3292.55 846.714
-272.57 -3291.97 846.571
-272.432 -3291.97 846.11
-274.38 -3289.07 846.406
-274.04 -3289.81 848.369
-274.085 -3289.46 845.651
-273.206 -3290.77 845.733
-273.442 -3290.57 846.026
-273.982 -3290.01 849.365
-274.089 -3289.88 848.898
-274.149 -3289.9 849.795
-274.374 -3289.85 850.159
-274.271 -3289.99 850.506
-276.54 -3289.6 854.837
-276.851 -3289.6 853.453
-277.064 -3289.62 852.848
-277.153 -3289.59 853.081
-277.24 -3289.54 852.769
-276.472 -3289.65 853.631
-275.751 -3289.74 852.608
-275.703 -3289.75 852.211
-276.533 -3289.73 852.833
-274.476 -3290 851.308
-275.562 -3289.77 851.826
-274.398 -3289.95 850.813
-277.686 -3289.18 852.374
-277.94 -3288.68 852.284
-277.765 -3288.26 852.276
-277.824 -3288.41 852.297
-277.888 -3288.52 852.167
-277.947 -3288.8 852.172
-277.833 -3288.92 852.074
-277.767 -3289.07 852.111
-277.583 -3289.31 852.201
-277.355 -3289.43 852.206
-277.284 -3289.5 852.498
-277.634 -3289.19 852.185
-277.756 -3287.43 852.799
-277.886 -3287.48 852.447
-277.787 -3287.73 852.23
-277.745 -3287.9 852.283
-274.821 -3284.62 856.858
-274.325 -3283.67 857.093
-274.388 -3284.18 856.491
-272.763 -3282.5 855.258
-272.412 -3282.04 855.022
-276.89 -3287.32 853.93
-274.682 -3284.84 855.69
-275.54 -3285.84 855.111
-276.695 -3286.88 853.784
-277.725 -3288.08 852.181
-277.774 -3287.92 852.116
-269.514 -3293.72 846.208
-269.539 -3292.29 843.57
-268.957 -3293.12 844.54
-283.645 -3271.77 852.623
-283.834 -3271.15 851.895
-283.686 -3271.01 850.396
-283.93 -3269.71 851.351
-283.525 -3271.91 851.148
-283.661 -3271.77 852.332
-283.463 -3272.03 851.339
-286.255 -3266.77 850.974
-286.686 -3266.53 849.877
-286.99 -3266.46 848.796
-285.563 -3267.72 850.065
-286.358 -3267.07 849.578
-283.802 -3270.38 848.273
-284.326 -3269.33 848.548
-284.582 -3269 848.662
-283.761 -3270.48 849.245
-285.51 -3268.17 848.665
-286.824 -3266.77 848.35
-285.518 -3268.29 847.802
-283.634 -3270.99 847.142
-283.532 -3271.48 846.626
-283.438 -3271.55 846.277
-283.572 -3271.44 847.007
-282.301 -3273.2 844.816
-281.578 -3274.98 844.502
-281.278 -3275.67 844.554
-281.026 -3275.82 844.215
-286.498 -3267.19 848.567
-281.357 -3275.45 842.183
-281.124 -3276.11 842.405
-280.594 -3276.53 843.334
-280.542 -3276.66 844.215
-280.322 -3277.02 844.147
-280.164 -3277.34 843.735
-279.878 -3277.85 844.07
-281.387 -3276.15 841.721
-281.179 -3276.5 841.655
-274.837 -3286.74 841.89
-274.439 -3287.76 842.809
-274.189 -3288.48 843.528
-275.5 -3286.56 842.717
-275.515 -3286.77 843.229
-278.165 -3280.92 841.863
-276.983 -3283.34 842.117
-276.436 -3284.68 842.369
-275.388 -3287.11 843.842
-274.415 -3288.48 843.972
-279.43 -3278.73 842.717
-272.581 -3288.71 841.953
-270.73 -3290.37 842.055
-270.583 -3289.71 840.938
-270.902 -3281.02 853.319
-270.68 -3280.2 853.24
-270.732 -3280.07 853.243
-270.766 -3279.93 853.208
-270.642 -3280.36 853.209
-270.839 -3279.79 853.212
-270.618 -3280.6 853.126
-270.595 -3280.84 853.04
-270.967 -3279.55 853.169
-270.764 -3279.61 852.959
-271.021 -3279.4 853.088
-271.039 -3279.28 852.908
-271.219 -3279.15 852.874
-271.361 -3278.95 852.6
-271.142 -3279.06 852.581
-271.718 -3278.8 852.32
-272.017 -3278.67 852
-272.892 -3278.56 851.892
-272.269 -3278.63 851.755
-272.474 -3278.62 851.534
-272.759 -3278.62 851.194
-281.155 -3276.26 849.986
-281.647 -3275.63 849.978
-281.436 -3274.7 850.883
-282.166 -3274.36 850.429
-282.204 -3274.06 850.697
-282.385 -3273.75 850.895
-281.066 -3277.63 848.976
-281.523 -3277.24 848.906
-281.76 -3276.89 848.997
-280.209 -3278.61 848.333
-280.499 -3278.31 848.568
-280.892 -3277.9 848.798
-278.616 -3279.68 847.202
-275.473 -3278.89 849.581
-275.788 -3279.15 848.929
-277.724 -3279.43 848.077
-277.247 -3280.45 846.57
-277.665 -3280.22 846.783
-272.588 -3278.71 850.815
-272.697 -3278.83 850.325
-277.411 -3280.63 846.186
-282.809 -3273.18 850.892
-282.665 -3273.56 850.719
-283.496 -3271.94 852.444
-283.294 -3272.32 851.726
-282.96 -3273.03 850.763
-271.353 -3292.83 846.286
-272.052 -3292.2 846.059
-271.633 -3292.52 846.271
-270.863 -3292.96 845.952
-272.98 -3290.86 845.366
-272.681 -3290.95 844.921
-272.094 -3291.85 845.46
-274.611 -3288.89 847.643
-274.914 -3288.3 847.163
-275.165 -3287.69 845.539
-274.567 -3289.26 848.572
-274.56 -3288.47 844.464
-274.579 -3289.49 849.217
-274.574 -3289.62 849.756
-274.759 -3289.7 850.484
-274.84 -3289.6 850.244
-276.851 -3289.68 852.901
-276.837 -3289.7 852.582
-277.058 -3289.59 852.513
-276.875 -3289.67 852.455
-276.56 -3289.7 852.426
-274.81 -3289.77 850.999
-275.515 -3289.7 851.485
-276.366 -3289.64 851.97
-276.569 -3289.69 852.264
-274.971 -3289.61 850.652
-277.935 -3288.68 852.05
-277.714 -3288.14 851.954
-277.811 -3288.34 852.082
-277.821 -3288.47 851.926
-277.908 -3288.82 851.946
-277.879 -3288.96 851.933
-277.765 -3289.07 851.866
-277.609 -3289.19 851.98
-277.444 -3289.31 852.001
-277.075 -3289.54 852.179
-277.201 -3289.42 851.985
-276.901 -3289.63 852.267
-277.804 -3287.22 852.69
-277.853 -3287.27 852.401
-277.843 -3287.5 852.148
-277.812 -3287.69 852.02
-277.781 -3287.82 852.131
-272.72 -3282.72 854.897
-272.727 -3282.94 854.557
-273.028 -3283.36 854.333
-271.007 -3281.26 853.224
-274.979 -3285.27 854.98
-273.173 -3283.67 853.743
-276.405 -3286.44 853.592
-277.674 -3287.05 852.61
-277.776 -3288.02 852.014
-277.807 -3287.81 851.946
-277.801 -3287.95 851.835
-269.726 -3293.14 845.236
-270.048 -3291.64 842.977
-270.85 -3291.92 844.185
-270.453 -3292.47 844.647
-283.536 -3271.68 850.895
-283.439 -3272.96 848.35
-283.374 -3273.25 848.761
-283.369 -3272.2 849.992
-283.599 -3271.32 847.675
-283.249 -3272.68 850.327
-283.282 -3272.56 849.966
-283.407 -3272.13 851.544
-283.209 -3272.7 850.581
-286.751 -3266.77 848.963
-283.312 -3273.12 846.855
-283.408 -3272.97 847.169
-283.104 -3273.3 846.392
-283.467 -3272.85 847.501
-282.644 -3273.86 845.736
-282.261 -3274.84 845.523
-282.069 -3275.43 845.627
-281.971 -3275.86 845.754
-280.699 -3276.53 844.513
-280.934 -3276.32 844.792
-280.81 -3276.76 842.506
-280.504 -3277.32 842.523
-280.054 -3277.69 844.778
-279.672 -3278.31 844.522
-279.064 -3279.1 843.942
-272.594 -3290.41 844.082
-278.407 -3280.22 842.397
-277.392 -3282.32 842.4
-277.888 -3281.04 843.221
-276.646 -3283.99 842.511
-275.575 -3286.84 844.663
-275.846 -3286.19 844.019
-278.216 -3280.33 844.323
-271.306 -3291.19 843.646
-270.622 -3281.07 852.94
-270.516 -3280.01 852.871
-270.456 -3280.13 852.834
-270.572 -3279.88 852.889
-270.629 -3279.74 852.885
-270.433 -3280.33 852.819
-270.411 -3280.58 852.758
-270.409 -3280.81 852.713
-270.801 -3279.45 852.852
-270.613 -3279.49 852.617
-270.528 -3279.58 852.613
-270.83 -3279.37 852.77
-270.945 -3279.2 852.595
-270.76 -3279.32 852.516
-271.323 -3278.92 852.266
-271.02 -3279.05 852.24
-271.603 -3278.8 851.954
-271.795 -3278.72 851.663
-271.887 -3278.71 851.422
-272.009 -3278.72 851.163
-282.328 -3275.33 849.528
-281.99 -3276.64 848.996
-282.507 -3274.06 850.34
-281.444 -3277.43 848.78
-281.861 -3277.16 848.603
-281.854 -3277.07 848.745
-280.472 -3278.45 848.256
-279.295 -3279.37 847.259
-279.049 -3279.47 847.286
-280.964 -3277.96 848.606
-281.489 -3277.51 848.614
-277.748 -3280.55 845.965
-277.336 -3280.97 845.597
-273.148 -3278.98 849.727
-275.515 -3279.5 848.365
-276.682 -3280.41 846.848
-276.782 -3280.93 846.089
-271.944 -3278.83 850.806
-272.156 -3278.96 850.283
-276.879 -3281.16 845.709
-282.811 -3273.37 850.53
-282.678 -3273.78 850.261
-283.132 -3272.8 850.755
-282.961 -3273.23 850.324
-271.658 -3292.39 845.738
-271.869 -3291.86 845.105
-274.873 -3288.75 848.166
-275.075 -3288.2 847.626
-275.202 -3287.84 847.057
-275.037 -3289.08 849.075
-274.953 -3288.93 848.695
-275.003 -3289.29 849.545
-275.054 -3289.43 850.047
-275.143 -3289.48 850.483
-275.327 -3289.37 850.348
-276.652 -3289.67 852.166
-275.725 -3289.56 851.273
-276.423 -3289.62 851.848
-275.93 -3289.49 851.137
-277.881 -3288.57 851.865
-277.909 -3288.71 851.867
-277.792 -3288.1 851.778
-277.802 -3288.25 851.864
-277.821 -3288.36 851.881
-277.864 -3288.45 851.677
-277.837 -3288.77 851.732
-277.819 -3288.87 851.756
-277.766 -3288.96 851.728
-277.623 -3289.1 851.675
-277.654 -3289 851.591
-277.52 -3289.2 851.784
-277.347 -3289.28 851.777
-276.721 -3289.63 852.019
-276.949 -3289.51 851.933
-277.102 -3289.37 851.738
-277.696 -3287.17 852.279
-277.792 -3287.64 851.824
-277.757 -3287.3 851.932
-277.83 -3287.74 851.717
-271.028 -3281.46 853.033
-271.198 -3281.75 852.782
-270.618 -3281.23 852.683
-273.376 -3283.99 853.153
-275.722 -3285.87 852.832
-271.679 -3282.38 852.316
-277.515 -3286.91 852.547
-277.828 -3287.88 851.631
-277.82 -3288.03 851.537
-283.488 -3272.73 847.881
-283.284 -3274.49 847.847
-283.235 -3274.78 848.033
-283.298 -3273.5 848.943
-283.179 -3274.92 848.22
-283.188 -3272.99 849.961
-283.208 -3273.81 849.067
-283.099 -3273.02 850.283
-283.187 -3274.68 847.329
-283.073 -3274.83 847.018
-283.262 -3274.6 847.602
-282.848 -3275.13 846.683
-282.688 -3275.62 846.712
-282.55 -3276.09 846.829
-281.787 -3276.29 845.863
-282.407 -3276.59 846.95
-280.311 -3277.51 845.179
-281.428 -3276.84 845.969
-279.912 -3278.31 845.511
-279.583 -3278.64 845.11
-278.928 -3279.43 844.733
-278.444 -3280.05 844.889
-277.048 -3282.8 842.827
-277.734 -3281.09 844.019
-277.357 -3281.95 843.375
-276.552 -3284.03 842.777
-276.042 -3285.59 843.58
-275.36 -3287.49 846.568
-275.531 -3287.07 845.878
-277.992 -3280.61 844.771
-270.394 -3280.97 852.521
-270.383 -3279.82 852.515
-270.333 -3279.94 852.493
-270.282 -3280.07 852.476
-270.452 -3279.71 852.588
-270.27 -3280.28 852.457
-270.28 -3280.49 852.417
-270.294 -3280.7 852.385
-270.654 -3279.41 852.526
-270.515 -3279.45 852.248
-270.475 -3279.51 852.337
-270.431 -3279.57 852.392
-270.843 -3279.18 852.224
-270.674 -3279.3 852.169
-270.591 -3279.38 852.238
-271.197 -3278.94 851.943
-270.932 -3279.08 851.918
-271.437 -3278.86 851.656
-271.543 -3278.81 851.359
-271.669 -3278.8 851.134
-282.574 -3275.04 849.435
-282.268 -3276.44 848.797
-282.029 -3276.82 848.811
-281.957 -3277.19 848.385
-282.078 -3276.88 848.678
-282.214 -3276.67 848.657
-279.561 -3279.23 847.225
-281.037 -3278.06 848.266
-280.648 -3278.33 848.098
-278.031 -3280.37 845.99
-281.572 -3277.54 848.43
-277.377 -3281.04 845.437
-277.634 -3280.85 845.354
-276.968 -3281.35 845.341
-273.047 -3279.11 849.488
-274.91 -3279.72 848.166
-274.649 -3279.99 847.912
-276.134 -3280.83 846.531
-276.297 -3281.28 845.967
-271.643 -3278.99 850.534
-271.522 -3278.9 850.886
-272.087 -3279.1 849.971
-276.336 -3281.46 845.652
-282.858 -3273.56 850.097
-282.784 -3274.73 849.336
-283.067 -3273.35 849.899
-275.132 -3288.54 848.363
-275.245 -3288.86 849.069
-275.243 -3287.96 847.733
-275.252 -3288.28 848.245
-275.358 -3287.66 847.408
-275.413 -3289.05 849.671
-275.37 -3289.17 849.859
-275.561 -3289.22 850.228
-276.089 -3289.39 851.003
-276.277 -3289.25 850.894
-276.57 -3289.56 851.736
-277.881 -3288.58 851.693
-277.849 -3288.66 851.682
-277.82 -3288.19 851.652
-277.844 -3288.32 851.657
-277.865 -3288.34 851.412
-277.854 -3288.4 851.384
-277.854 -3288.49 851.48
-277.73 -3288.78 851.573
-277.774 -3288.62 851.509
-277.675 -3288.89 851.562
-277.534 -3289.02 851.425
-277.474 -3289.13 851.51
-277.578 -3288.9 851.408
-277.261 -3289.23 851.542
-276.759 -3289.44 851.6
-276.919 -3289.3 851.428
-277.518 -3286.86 852.351
-277.717 -3286.71 851.957
-277.55 -3287.66 851.651
-277.642 -3287.8 851.548
-277.785 -3287.86 851.441
-270.644 -3281.37 852.398
-270.983 -3281.63 852.282
-270.395 -3281.09 852.225
-273.249 -3284.05 851.385
-277.021 -3286.68 852.387
-274.848 -3285.42 851.611
-271.52 -3282.29 851.865
-277.838 -3287.96 851.32
-277.851 -3288.08 851.235
-277.843 -3288.15 851.424
-283.188 -3275.03 847.709
-283.095 -3275.35 847.791
-283.066 -3275.21 848.329
-282.986 -3275.67 847.932
-283.109 -3274.16 849.111
-282.989 -3275.38 847.193
-283.069 -3275.33 847.46
-282.902 -3275.32 846.941
-282.749 -3275.77 846.958
-282.636 -3276.19 847.123
-282.485 -3276.59 847.207
-282.22 -3276.98 847.113
-281.07 -3277.33 846.128
-280.979 -3277.68 846.454
-280.88 -3277.99 846.72
-279.579 -3278.92 845.698
-278.989 -3279.52 845.466
-278.245 -3280.28 845.282
-278.829 -3279.74 845.733
-276.858 -3282.85 843.228
-276.652 -3283.62 842.969
-277.522 -3281.19 844.562
-277.307 -3281.61 844.121
-276.975 -3282.26 843.81
-276.251 -3284.8 843.266
-275.845 -3285.82 844.254
-275.45 -3287.35 847.041
-275.621 -3286.81 845.765
-275.509 -3287.12 846.909
-277.764 -3280.77 845.088
-270.283 -3280.8 852.174
-270.382 -3279.63 852.322
-270.332 -3279.73 852.26
-270.28 -3279.89 852.265
-270.217 -3280.08 852.241
-270.203 -3280.29 852.204
-270.224 -3280.52 852.17
-270.482 -3279.41 851.99
-270.449 -3279.46 852.082
-270.418 -3279.52 852.191
-270.738 -3279.21 851.886
-270.541 -3279.35 851.929
-271.072 -3279.01 851.664
-270.826 -3279.15 851.681
-271.198 -3278.96 851.381
-271.297 -3278.94 851.074
-282.488 -3276.2 848.634
-282.04 -3277.22 848.156
-282.281 -3276.84 848.35
-282.48 -3276.47 848.424
-279.738 -3279.12 847.126
-278.257 -3280.25 845.86
-281.092 -3278.12 847.938
-281.702 -3277.6 848.113
-277.169 -3281.39 845.037
-277.277 -3281.39 844.811
-276.85 -3281.71 844.933
-276.43 -3281.79 845.227
-272.854 -3279.26 849.337
-274.379 -3280.17 847.815
-272.999 -3279.49 848.994
-275.852 -3281.02 846.466
-275.682 -3281.35 846.197
-276.043 -3281.71 845.635
-271.336 -3279.06 850.73
-271.573 -3279.17 850.282
-271.997 -3279.24 849.809
-282.972 -3274.49 849.177
-282.73 -3275.82 848.598
-275.404 -3288.54 848.841
-275.457 -3288.75 849.252
-275.562 -3288.9 849.775
-275.4 -3287.74 848.04
-275.468 -3288.1 848.454
-275.55 -3288.42 848.909
-275.479 -3287.48 847.677
-275.699 -3289.08 850.157
-275.711 -3288.98 850.079
-276.468 -3289.1 850.788
-277.815 -3288.53 851.472
-277.857 -3288.26 851.465
-277.854 -3288.2 851.253
-277.832 -3288.28 851.184
-277.799 -3288.35 851.17
-277.778 -3288.41 851.232
-277.7 -3288.66 851.416
-277.638 -3288.77 851.402
-277.704 -3288.52 851.287
-277.741 -3288.47 851.263
-277.496 -3288.88 851.251
-277.432 -3289.02 851.278
-277.188 -3289.15 851.314
-277.561 -3288.75 851.247
-276.85 -3286.83 851.711
-276.993 -3287.01 851.403
-276.927 -3287.61 851.064
-276.947 -3287.51 851.173
-277.518 -3287.92 851.34
-277.556 -3287.97 851.226
-270.517 -3281.25 852.018
-270.765 -3281.5 851.806
-270.391 -3281 851.984
-273.176 -3284 850.871
-274.719 -3285.64 849.756
-274.598 -3285.45 850.495
-275.617 -3286.03 851.315
-271.378 -3282.17 851.506
-277.58 -3288.01 851.137
-277.696 -3288.1 851.115
-282.932 -3275.82 847.561
-282.822 -3276.14 847.77
-282.924 -3275.49 848.475
-282.843 -3275.98 848.125
-282.702 -3276.35 847.986
-282.812 -3275.92 847.227
-282.795 -3276.09 847.443
-282.61 -3276.42 847.394
-282.378 -3276.87 847.407
-282.068 -3277.19 847.244
-280.739 -3278.24 846.896
-281.956 -3277.45 847.467
-280.605 -3278.45 846.992
-280.257 -3278.71 847.013
-278.6 -3279.97 845.863
-279.929 -3278.96 847.045
-276.652 -3282.8 843.666
-276.566 -3283.4 843.343
-276.28 -3284.3 843.53
-276.923 -3281.9 844.468
-276.624 -3282.39 844.211
-275.892 -3285.34 844.238
-275.652 -3286.28 845.253
-275.528 -3287.21 847.633
-275.596 -3286.86 846.7
-275.544 -3286.99 847.373
-270.228 -3280.63 851.944
-270.311 -3280.84 851.873
-270.369 -3279.54 852.106
-270.321 -3279.61 852.022
-270.274 -3279.77 852.039
-270.219 -3279.96 852.044
-270.166 -3280.17 851.988
-270.186 -3280.38 851.949
-270.463 -3279.41 851.765
-270.421 -3279.46 851.833
-270.396 -3279.49 851.961
-270.577 -3279.3 851.754
-270.904 -3279.12 851.447
-270.634 -3279.25 851.594
-271.001 -3279.1 851.149
-271.113 -3279.17 850.82
-282.072 -3277.2 847.955
-282.397 -3276.82 848.114
-282.577 -3276.5 848.197
-282.718 -3276.13 848.326
-281.409 -3277.95 847.789
-281.808 -3277.53 847.92
-276.444 -3282.14 844.748
-275.97 -3282 845.408
-276.074 -3282.21 845.059
-272.514 -3279.37 849.332
-272.854 -3279.63 848.887
-274.2 -3280.41 847.666
-274.032 -3280.61 847.56
-275.548 -3281.74 845.945
-271.271 -3279.24 850.497
-271.537 -3279.35 850.06
-271.918 -3279.42 849.655
-275.654 -3288.63 849.441
-275.619 -3288.73 849.783
-275.842 -3288.86 850.057
-275.556 -3287.51 848.381
