-198.24 -3052.75 1299.24
-193.477 -3050.76 1297.46
-200.507 -3052.87 1296.64
-197.813 -3051.48 1295.72
-193.858 -3049.83 1294.29
-208.558 -3056.82 1296.67
-204.54 -3054.6 1296.53
-207.838 -3056.01 1295.53
-201.882 -3052.99 1295.35
-199.457 -3051.51 1294.3
-196.1 -3050.23 1293.82
-192.597 -3048.9 1292.56
-194.273 -3049.24 1292.66
-189.359 -3048.24 1291.58
-212.849 -3057.43 1292.52
-214.198 -3058.1 1291.98
-211.25 -3057.46 1294.6
-205.865 -3054.37 1294.29
-210.444 -3056.59 1293.51
-203.408 -3053.01 1294.18
-201.258 -3051.15 1292.7
-198.326 -3049.52 1291.54
-196.35 -3048.65 1291.12
-193.254 -3048.67 1291.54
-191.105 -3048.25 1290.82
-195.719 -3048.28 1290.66
-188.707 -3047.23 1287.92
-212.249 -3056.57 1291.18
-213.424 -3057.27 1290.91
-209.906 -3055.63 1292.19
-205.935 -3053.78 1293.09
-204.249 -3051.23 1290.86
-205.238 -3051.66 1290.77
-204.353 -3050.37 1289.52
-203.336 -3049.69 1288.87
-198.002 -3048.25 1289.54
-200.511 -3048.89 1288.96
-196.641 -3047.35 1288.94
-195.175 -3047.89 1290
-194.31 -3047.46 1289.1
-191.545 -3047.77 1289.38
-195.749 -3046.74 1287.97
-190.095 -3046.99 1287.1
-187.472 -3046.73 1285.95
-189.842 -3046.57 1285.59
-211.489 -3055.07 1289.58
-212.242 -3055.47 1289.22
-210.544 -3054.78 1290.16
-213.975 -3056.9 1288.85
-214.817 -3057.29 1287.77
-207.978 -3054.09 1291.6
-206.309 -3050.67 1288.69
-206.589 -3052.22 1290.33
-205.873 -3050.24 1288.35
-203.315 -3049.12 1287.67
-198.157 -3047.82 1288.5
-200.464 -3048.09 1287.41
-195.624 -3046.31 1287.02
-196.286 -3046.65 1287.42
-194.854 -3046.19 1286.85
-193.299 -3046.97 1287.97
-194.42 -3045.92 1286.18
-192.599 -3046.61 1287.02
-195.01 -3045.83 1286.05
-192.539 -3046.27 1286.16
-188.422 -3046.38 1284.15
-192.518 -3046.1 1285.57
-190.731 -3046.32 1284.92
-214.539 -3056.94 1286.97
-208.489 -3051.97 1288.06
-207.653 -3051.57 1288.49
-210.845 -3053.8 1288.14
-208.311 -3051.45 1287.1
-207.606 -3051.96 1289.13
-211.035 -3053.91 1287.7
-211.29 -3054.09 1287.41
-206.58 -3050.47 1288.04
-206.038 -3050.01 1287.68
-204.521 -3049.49 1287.42
-202.616 -3048.54 1286.78
-201.645 -3048.03 1286.81
-199.111 -3047.96 1287.63
-197.626 -3047.3 1287.58
-200.412 -3047.86 1286.98
-195.344 -3045.68 1285.5
-195.697 -3045.75 1285.28
-194.645 -3045.74 1285.8
-194.258 -3045.69 1285.47
-194.898 -3045.56 1285.29
-195.275 -3045.53 1284.98
-191.048 -3046.22 1284.31
-189.445 -3046.27 1283.51
-186.394 -3046.48 1282.65
-192.558 -3046.03 1285.08
-194.289 -3045.57 1284.91
-192.875 -3045.9 1284.65
-186.855 -3046.4 1281.24
-214.055 -3056.51 1286.49
-211.903 -3054.69 1287.04
-207.033 -3050.59 1287.46
-208.532 -3051.25 1285.97
-208.049 -3050.44 1284.96
-207.278 -3050.26 1285.94
-209.594 -3052.57 1286.36
-208.812 -3051.42 1285.56
-210.25 -3053.18 1286.19
-206.549 -3050.21 1287.35
-206.085 -3049.85 1287.07
-205.742 -3049.79 1287.43
-204.728 -3049.37 1286.84
-202.789 -3048.43 1286.23
-201.812 -3047.95 1286.34
-201.465 -3047.8 1286.29
-198.784 -3047.68 1287.14
-196.861 -3046.62 1286.29
-200.224 -3047.71 1286.59
-195.72 -3045.58 1284.52
-196.018 -3045.71 1284.43
-194.69 -3045.54 1284.99
-195.131 -3045.48 1284.58
-195.526 -3045.48 1284.21
-191.24 -3046.26 1283.7
-192.948 -3045.89 1284.12
-189.488 -3046.23 1282.99
-194.836 -3045.46 1284.4
-194.491 -3045.48 1284.35
-187.405 -3046.44 1280.3
-185.861 -3046.62 1277.5
-213.398 -3056.23 1285.3
-212.479 -3055.49 1285.78
-211.874 -3054.95 1285.7
-211.133 -3054.24 1285.48
-212.374 -3055.65 1284.35
-212.452 -3055.74 1283.92
-215.206 -3056.83 1279.94
-215.408 -3056.99 1279.11
-215.435 -3057.11 1278.05
-213.726 -3056.33 1282.51
-214.74 -3056.47 1280.5
-208.553 -3050.62 1284.28
-208.143 -3050.27 1284.03
-207.768 -3050.13 1284.42
-206.844 -3049.94 1285.58
-209.906 -3052.8 1285.78
-209.129 -3051.68 1285.23
-208.783 -3050.83 1284.2
-210.797 -3053.97 1285.1
-205.184 -3049.37 1285.9
-205.778 -3049.64 1286.73
-202.969 -3048.38 1285.61
-201.773 -3047.8 1285.78
-201.212 -3047.65 1285.88
-198.702 -3047.52 1286.5
-198.352 -3047.25 1285.02
-197.958 -3047.05 1284.6
-197.089 -3046.49 1284.52
-196.335 -3045.87 1284.3
-199.99 -3047.56 1285.97
-196.11 -3045.62 1283.7
-195.869 -3045.52 1283.68
-196.335 -3045.72 1283.61
-195.268 -3045.43 1283.84
-195.591 -3045.42 1283.41
-191.695 -3046.35 1282.91
-193.125 -3045.9 1283.49
-190.926 -3046.37 1283.15
-194.584 -3045.48 1283.74
-189.524 -3046.27 1282.36
-194.97 -3045.42 1283.7
-190.372 -3046.92 1278.44
-187.668 -3046.87 1276.55
-211.889 -3055.24 1284.3
-211.428 -3054.72 1284.15
-212.272 -3055.49 1283.27
-211.91 -3055.24 1283.72
-213.979 -3055.5 1278.7
-213.642 -3055.21 1279.2
-214.671 -3056.53 1276.61
-213.897 -3055.42 1278.03
-213.107 -3055.84 1272.75
-213.68 -3055.69 1276.2
-214.087 -3055.95 1280.76
-213.14 -3055.56 1281.67
-212.129 -3054.85 1281.83
-212.524 -3054.55 1280.14
-208.733 -3050.64 1283.57
-208.45 -3050.36 1283.54
-208.026 -3050.13 1283.52
-207.305 -3049.88 1284.3
-207.586 -3049.94 1283.67
-210.441 -3053.47 1284.67
-209.386 -3051.85 1284.84
-209.017 -3051.02 1283.92
-211.427 -3054.69 1283.73
-205.665 -3049.39 1284.62
-203.03 -3048.36 1284.95
-201.766 -3047.72 1285.13
-201.293 -3047.61 1285.3
-198.871 -3047.32 1284.51
-199.15 -3047.1 1282.84
-198.552 -3046.9 1282.78
-197.34 -3046.27 1282.93
-200.039 -3047.47 1284.97
-196.329 -3045.62 1282.91
-197.564 -3046.31 1282.48
-195.977 -3045.49 1282.88
-195.287 -3045.45 1283.07
-195.709 -3045.5 1282.67
-193.371 -3045.96 1282.81
-192.001 -3046.75 1280.92
-192.389 -3046.61 1281.28
-194.792 -3045.54 1282.97
-190.993 -3046.62 1281.8
-195.001 -3045.46 1283.18
-189.924 -3046.55 1280.99
-192.432 -3047.07 1278.75
-192.436 -3047.25 1276.88
-188.884 -3047.4 1274.93
-211.622 -3054.5 1282.03
-211.199 -3054.17 1282.42
-213.442 -3055 1278.48
-212.008 -3054.01 1279.25
-212.195 -3054.2 1279.69
-213.127 -3054.8 1277.98
-212.938 -3055.06 1276.37
-210.615 -3053.99 1274.55
-212.787 -3054.81 1280.34
-211.066 -3053.55 1280.67
-209.016 -3050.97 1283.36
-208.723 -3050.61 1283.14
-208.255 -3050.31 1283.01
-207.822 -3050.08 1282.91
-206.956 -3049.68 1283.51
-207.251 -3049.86 1282.68
-209.97 -3052.63 1283.96
-210.845 -3053.83 1282.89
-209.205 -3051.2 1283.7
-205.248 -3049.21 1283.56
-202.739 -3048.27 1284.16
-200.547 -3047.47 1284.03
-200.535 -3047.44 1283.23
-196.639 -3045.78 1282.24
-197.949 -3046.47 1282
-196.399 -3045.73 1282.1
-195.152 -3045.51 1282.7
-195.651 -3045.62 1282.17
-196.152 -3045.74 1281.83
-194.885 -3045.65 1282.28
-193.596 -3046.16 1281.71
-193.756 -3046.88 1279.24
-193.87 -3047.08 1278.29
-194.364 -3046.26 1280.79
-194.033 -3047.45 1276.75
-190.988 -3047.83 1274.16
-210.471 -3053.06 1281.35
-211.733 -3053.81 1278.93
-210.34 -3052.82 1279.98
-210.872 -3053.32 1280.18
-211.202 -3053.58 1280.25
-211.429 -3053.66 1278.53
-211.255 -3053.95 1276.92
-208.633 -3052.7 1274.95
-208.052 -3052.52 1273.37
-210.298 -3052.78 1280.78
-209.427 -3051.63 1282.83
-209.277 -3051.38 1282.54
-209.133 -3051.28 1282.18
-208.984 -3051.24 1281.83
-207.754 -3050.35 1281.66
-208.912 -3051.31 1281.24
-206.612 -3049.91 1279.64
-206.128 -3049.44 1282.14
-205.874 -3049.48 1279.69
-206.048 -3049.66 1278.5
-209.648 -3052.07 1283.13
-210.126 -3052.77 1282.21
-204.541 -3048.98 1282.01
-203.685 -3048.73 1283.22
-201.706 -3047.94 1282.73
-198.335 -3046.66 1281.52
-197.058 -3046.12 1281.37
-196.652 -3046 1281.33
-195.292 -3045.72 1281.87
-195.643 -3045.85 1281.43
-195.998 -3045.93 1281.19
-196.406 -3046.05 1280.98
-194.375 -3046.98 1278.67
-194.838 -3046.4 1280.19
-194.827 -3047.17 1278.13
-195.838 -3046.77 1279.27
-195.7 -3047.94 1276.16
-192.917 -3048.21 1273.93
-209.867 -3052.34 1281.59
-210.24 -3052.82 1279.33
-209.939 -3052.37 1280.72
-209.517 -3052.73 1277.73
-208.556 -3051.63 1279.13
-207.529 -3051.36 1276.63
-207.117 -3051.17 1275.4
-206.869 -3051.07 1275.02
-206.66 -3051.05 1274.65
-207.288 -3052.28 1272.61
-206.632 -3050.19 1277.98
-206.255 -3050.01 1276.67
-205.552 -3049.42 1278.62
-205.733 -3049.65 1276.91
-206.027 -3049.96 1276.29
-204.306 -3049.04 1280.3
-202.171 -3048.27 1281.86
-199.349 -3047.19 1281.19
-197.322 -3046.44 1280.61
-196.872 -3046.3 1280.61
-195.389 -3046.55 1279.73
-196.371 -3046.9 1279.23
-196.818 -3047.9 1277.48
-198.423 -3048.6 1276.15
-200.653 -3049.4 1274.81
-198.561 -3049.05 1274.39
-194.886 -3048.92 1273.25
-195.317 -3049.76 1271.69
-206.814 -3052.27 1271.79
-206.329 -3050.96 1274.33
-205.033 -3049.53 1276.85
-205.48 -3049.58 1276.92
-205.752 -3049.9 1276
-205.488 -3049.76 1276.21
-204.437 -3049.22 1279.06
-202.187 -3048.84 1279.9
-201.122 -3048.57 1279.82
-199.515 -3047.51 1280.51
-197.2 -3047.14 1279.2
-198.339 -3047.44 1279.52
-198.826 -3048.26 1278.31
-200.541 -3048.98 1276.87
-202.031 -3049.54 1275.59
-203.771 -3049.91 1275.17
-203.266 -3050.45 1273.72
-198.195 -3049.71 1272.96
-199.177 -3050.51 1271.77
-204.038 -3051.58 1271.55
-206.084 -3052.16 1271.24
-205.99 -3050.98 1273.93
-205.6 -3050.89 1273.82
-204.92 -3049.59 1276.39
-204.618 -3049.44 1277.03
-205.1 -3049.84 1275.74
-203.541 -3049.31 1278.07
-202.431 -3049.18 1278.34
-203.562 -3049.52 1276.43
-203.547 -3049.69 1275.78
-205.13 -3050.86 1273.68
