-294.822 -3270.86 1528.35
-294.671 -3271.19 1529.02
-295.066 -3270.09 1526.4
-296.239 -3265.87 1521.33
-294.155 -3271.24 1530.94
-294.251 -3273.56 1529.04
-294.325 -3273.35 1528.32
-294.172 -3271.93 1530.29
-294.133 -3273.7 1529.67
-294.216 -3273.81 1527.69
-294.495 -3272.07 1525.34
-295.267 -3269.61 1521.67
-294.614 -3271.41 1523.59
-296.895 -3263.81 1515.19
-296.722 -3264.27 1514.57
-298.255 -3260.98 1513.49
-299.327 -3258.94 1512.33
-299.353 -3258.69 1511.16
-299.283 -3258.39 1509.72
-295.912 -3267.2 1521.6
-295.893 -3267.43 1520.06
-295.981 -3266.71 1519.11
-295.798 -3266.94 1517.71
-292.575 -3274.64 1533.64
-291.699 -3276.89 1534.28
-293.885 -3275.47 1529.19
-293.822 -3275.55 1529.82
-293.872 -3273.69 1530.59
-292.948 -3273.9 1532.87
-293.861 -3275.65 1528.69
-294.066 -3274.38 1527.35
-294.143 -3273.05 1525.37
-294.169 -3272.64 1524.4
-294.733 -3271.19 1522.07
-294.699 -3272.06 1520.49
-295.476 -3269.05 1520.5
-295.031 -3270.18 1520.59
-294.166 -3272.51 1523.59
-294.143 -3272.62 1522.94
-294.422 -3272.03 1522.43
-296.935 -3264.24 1516.64
-295.401 -3267.71 1515.82
-297.226 -3263.69 1512.81
-295.538 -3267.35 1514.81
-296.415 -3265.65 1512.57
-297.631 -3263.33 1510.88
-297.841 -3262.76 1510.29
-297.817 -3262.67 1509.2
-297.781 -3262.44 1508.22
-298.132 -3260.67 1507.36
-295.797 -3267.75 1519.33
-295.304 -3268.74 1518.89
-294.85 -3269.27 1517.29
-290.404 -3280.44 1533.6
-292.328 -3275.84 1533.43
-291.896 -3276.73 1533.73
-293.67 -3276.13 1529.6
-293.322 -3274.58 1531.8
-293.82 -3275.17 1530.37
-292.952 -3275.68 1532.17
-293.592 -3276.3 1528.42
-293.752 -3275.9 1528
-293.921 -3274.58 1526.9
-293.922 -3273.7 1525.63
-293.348 -3274.12 1524.08
-294.566 -3272.43 1520.87
-294.919 -3270.4 1520.03
-294.751 -3271.67 1519.76
-293.355 -3273.97 1523.58
-294.151 -3272.85 1522.35
-294.174 -3271.59 1515.75
-294.712 -3270.27 1514.26
-295.977 -3267.26 1512.5
-296.334 -3267.28 1510.1
-296.473 -3267.15 1509.16
-296.367 -3267.63 1508.47
-296.32 -3267.49 1507.68
-297.11 -3263.82 1506.97
-297.565 -3260.67 1505.32
-289.231 -3282.56 1534.34
-290.295 -3281.46 1532.23
-291.041 -3279.77 1532.43
-292.722 -3276.4 1532.18
-292.384 -3277.36 1531.99
-293.672 -3275.98 1530.18
-293.417 -3276.64 1529.81
-293.388 -3276.35 1530.79
-293.568 -3275.85 1530.8
-293.301 -3276.87 1529.38
-293.503 -3276.38 1527.76
-293.648 -3275.95 1527.36
-293.77 -3274.79 1526.47
-293.399 -3274.23 1524.58
-292.837 -3275.11 1524.19
-292.701 -3275.09 1523.52
-294.609 -3273.07 1519.81
-294.919 -3269.84 1518.98
-294.397 -3270.81 1516.64
-294.633 -3271.41 1518.88
-294.663 -3272.78 1519.29
-293.454 -3273.83 1522.73
-292.94 -3274.74 1522.26
-294.306 -3273.19 1521.01
-293.617 -3273.47 1516.48
-292.781 -3276.13 1517.09
-293.194 -3274.83 1515.21
-293.738 -3273.85 1513.65
-294.476 -3272.42 1511.53
-295.328 -3270.14 1510.57
-294.869 -3272.15 1509.32
-294.866 -3272.31 1508.6
-296.273 -3267.16 1507.23
-295.76 -3269.01 1506.75
-294.976 -3271.87 1507.81
-296.371 -3265.61 1506.44
-296.259 -3263.91 1504.22
-288.583 -3284.78 1531.62
-290.969 -3280.79 1530.56
-292.477 -3277.88 1531.08
-292.663 -3277.87 1530.11
-292.695 -3277.8 1529.28
-293.215 -3276.95 1528.21
-293.076 -3276.73 1526.69
-292.851 -3277.18 1526.94
-293.279 -3275.4 1525.67
-292.796 -3275.84 1524.93
-292.773 -3274.88 1523.03
-294.356 -3273.62 1519
-294.165 -3271.98 1516.96
-294.491 -3271.93 1518.35
-294.311 -3272.67 1518.01
-293.64 -3274.22 1521.02
-292.895 -3275.21 1521.46
-294.45 -3273.7 1519.82
-293.813 -3273.06 1516.85
-293.386 -3274.48 1517.13
-292.998 -3275.62 1517.68
-292.748 -3276.06 1519.24
-292.715 -3276.14 1520.14
-292.491 -3277.15 1518.58
-292.115 -3278.19 1516.88
-292.266 -3277.97 1517.51
-292.274 -3277.75 1516.27
-292.523 -3277.06 1515.36
-293.268 -3275.61 1513.25
-293.854 -3274.94 1509.8
-293.968 -3274.97 1508.37
-295.997 -3267.14 1506.2
-295.209 -3270.24 1506.46
-294.597 -3269.37 1503.97
-294.146 -3273.69 1507.07
-293.77 -3275.04 1507.42
-288.401 -3285.59 1529.04
-289.96 -3282.85 1528.64
-291.729 -3279.54 1529.96
-291.865 -3279.13 1529.49
-291.967 -3278.54 1527.63
-292.483 -3277.89 1527.9
-292.378 -3277.64 1526.04
-292.625 -3276.92 1525.6
-292.582 -3276.18 1524.58
-293.922 -3273.72 1517.83
-293.816 -3274.44 1518.34
-294.101 -3273.19 1517.82
-292.9 -3275.67 1520.19
-293.248 -3275.11 1520.22
-293.702 -3274.61 1519.89
-292.973 -3275.71 1518.73
-292.582 -3276.98 1519.74
-291.956 -3278.68 1517.22
-291.428 -3279.29 1516.18
-292.17 -3278.61 1517.91
-291.611 -3278.82 1515.38
-291.589 -3279.09 1513.47
-292.845 -3276.69 1513.15
-293.212 -3276.36 1509.76
-293.053 -3276.71 1508.78
-292.975 -3276.81 1508.24
-293.889 -3273.25 1505.89
-293.476 -3275.22 1506.81
-292.761 -3276.87 1507.34
-287.208 -3287.76 1526.62
-289.158 -3284.38 1527.43
-290.073 -3282.76 1527.11
-290.362 -3282.2 1527.35
-290.897 -3281.17 1528.57
-291.261 -3280 1528.22
-291.57 -3279.31 1528.31
-292.441 -3276.58 1523.95
-292.534 -3275.6 1523.46
-293.681 -3274.77 1519.07
-293.117 -3275.47 1519.71
-292.692 -3276.65 1520.88
-292.631 -3275.83 1521.74
-292.618 -3277.14 1520.33
-292.472 -3277.79 1519.21
-292.369 -3278.01 1518.37
-291.931 -3279.12 1517.53
-290.696 -3280.9 1516.2
-291.063 -3280.32 1516.54
-290.082 -3282.24 1515.67
-290.181 -3281.97 1514.83
-292.146 -3279.11 1518.28
-290.517 -3281.13 1514.07
-290.533 -3281.28 1511.68
-291.818 -3278.96 1510.33
-291.521 -3279.47 1509.08
-291.27 -3279.82 1508.51
-291.485 -3279.27 1507.71
-292.999 -3274.41 1504.95
-292.324 -3276.45 1505.7
-292.521 -3277.16 1506.97
-286.085 -3289.98 1524.26
-287.109 -3288.34 1524.95
-288.851 -3285.19 1526.6
-290.639 -3281.41 1526.41
-290.89 -3280.72 1527.26
-291.863 -3278.5 1526.46
-292.361 -3277.5 1525.17
-292.558 -3276.76 1522.62
-292.783 -3278.27 1520.91
-292.747 -3278.61 1520.41
-292.635 -3276.86 1521.99
-292.636 -3279.1 1519.87
-292.479 -3279.75 1519.5
-291.878 -3279.84 1517.89
-291.551 -3279.83 1517.14
-289.606 -3283.7 1516.46
-290.471 -3281.86 1516.65
-289.562 -3283.56 1514.55
-292.389 -3280.79 1519.5
-289.957 -3282.27 1510.97
-289.379 -3282.89 1509.67
-289.988 -3281.4 1507.76
-292.046 -3275.6 1504.07
-290.963 -3279.14 1506.12
-291.155 -3277.67 1504.6
-289.782 -3280.69 1505.81
-287.129 -3289.05 1523.18
-286.946 -3289.37 1522.79
-285.945 -3290.27 1523.48
-288.02 -3287.5 1523.84
-290.082 -3284.58 1524.99
-289.529 -3285.21 1524.92
-289.514 -3284.14 1526.65
-289.757 -3283.4 1527
-291.075 -3280.28 1525.55
-291.088 -3280.08 1526.06
-291.299 -3279.5 1526.97
-291.685 -3278.94 1525.78
-292.138 -3278.18 1525.22
-292.247 -3278.01 1524.75
-292.345 -3277.53 1524.51
-292.77 -3277.77 1521.84
-292.9 -3279.05 1521.63
-292.908 -3279.6 1521.11
-292.788 -3280.16 1520.7
-292.761 -3278.08 1522.33
-292.595 -3281.19 1520.38
-292.052 -3281.43 1518.93
-291.54 -3280.47 1517.52
-290.94 -3281.07 1516.88
-289.907 -3283.14 1516.64
-288.34 -3286.28 1517.29
-288.32 -3285.41 1513.39
-287.677 -3286.3 1512.27
-287.079 -3286.05 1509.35
-288.149 -3283.79 1507.49
-291.263 -3276.32 1502.15
-290.464 -3278.96 1504.49
-290.721 -3277.51 1502.38
-289.023 -3281.06 1504.72
-289.772 -3279.26 1503.03
-285.021 -3290.92 1521.82
-285.568 -3290.57 1523.14
-287.878 -3288.48 1522.2
-288.322 -3287.6 1522.6
-287.585 -3288.94 1521.84
-286.615 -3289.73 1522.32
-289.003 -3286.4 1523.27
-291.326 -3284.33 1522.62
-290.479 -3284.24 1524.69
-290.895 -3283.59 1524.47
-290.203 -3282.88 1526.4
-291.102 -3280.52 1525.04
-291.554 -3279.53 1525.02
-292.499 -3277.63 1523.51
-292.827 -3280.59 1521.35
-292.396 -3282.48 1519.86
-291.828 -3281.77 1518.61
-290.748 -3281.9 1517.17
-290.366 -3283.16 1517.58
-290.454 -3282.39 1516.99
-289.905 -3283.83 1517.4
-289.071 -3285.02 1517.72
-288.128 -3286.88 1518.71
-288.334 -3287.13 1519.8
-288.884 -3286.23 1519.99
-287.586 -3287.66 1517.52
-287.814 -3286.68 1515.24
-287.29 -3287.23 1514.32
-286.608 -3288.29 1513.99
-285.197 -3290.53 1520.73
-285.19 -3290.19 1518.74
-285.467 -3290.56 1522.35
-287.264 -3289.21 1521.36
-289.765 -3285.5 1523.67
-290.186 -3285.3 1522.76
-291.689 -3283.92 1522.37
-291.992 -3283.8 1521.72
-290.681 -3281.71 1525.64
-290.75 -3282.99 1525
-292.048 -3278.93 1524.47
-292.352 -3278.42 1524.14
-292.687 -3278.79 1522.91
-292.89 -3279.71 1522.02
-292.755 -3281.1 1520.96
-292.566 -3282.07 1520.25
-291.374 -3282.46 1518.36
-290.306 -3283.56 1517.95
-290.034 -3283.99 1518.08
-289.335 -3285.17 1519.02
-289.246 -3285.98 1520.52
-288.126 -3288.07 1520.58
-286.863 -3288.45 1516.51
-285.617 -3289.63 1513.32
-292.277 -3283.01 1520.09
-285.438 -3290.18 1520.05
-286.124 -3289.32 1518.6
-284.797 -3290.56 1517.12
-286.001 -3289.61 1519.69
-286.226 -3289.92 1521.61
-288.303 -3287.65 1522.04
-289.003 -3286.56 1522.66
-288.103 -3288.35 1521.43
-289.342 -3286.15 1522.09
-292.274 -3283.34 1521.55
-291.321 -3283.19 1523.67
-292.172 -3282.63 1522.19
-290.98 -3282.03 1524.65
-291.151 -3280.84 1524.57
-291.724 -3281.71 1523.26
-291.575 -3279.82 1524.58
-292.253 -3279.71 1523.41
-292.474 -3280.85 1522.38
-292.603 -3281.4 1521.79
-292.785 -3282.15 1520.9
-292.927 -3282.76 1520.78
-291.197 -3283.16 1518.7
-290.889 -3283.81 1519.18
-289.795 -3284.71 1519.11
-289.898 -3285.32 1520.63
-289.469 -3285.82 1521.02
-287.91 -3287.85 1519.62
-287.553 -3287.88 1518.64
-288.518 -3287.35 1520.71
-287.226 -3288.25 1518.34
-286.913 -3288.58 1517.5
-285.828 -3289.55 1514.57
-292.598 -3282.68 1520.37
-285.644 -3289.76 1517.2
-286.817 -3288.75 1518.64
-286.138 -3289.32 1516.45
-286.507 -3289.47 1520.4
-288.617 -3287.39 1521.47
-287.841 -3288.59 1520.89
-287.128 -3288.93 1519.91
-289.432 -3285.98 1521.5
-290.451 -3285.09 1522.35
-289.83 -3285.6 1521.43
-290.669 -3284.88 1521.53
-292.108 -3283.64 1521.15
-292.312 -3281.67 1522.23
-291.713 -3280.37 1523.88
-291.953 -3283.25 1519.66
-290.675 -3284.25 1519.69
-291.706 -3283.66 1520.09
-290.814 -3284.45 1520.35
-290.956 -3284.5 1520.84
-287.506 -3288.44 1519.66
-292.815 -3283.21 1521.32
-293.083 -3282.5 1521.2
-292.406 -3283.15 1520.59
-293.322 -3283.22 1521.39
-293.022 -3283.65 1521.73
-294.279 -3283.44 1521.93
-292.897 -3284.24 1522.06
-295.039 -3283.17 1521.95
-293.746 -3283.32 1521.73
-293.823 -3283.92 1522.11
-293.584 -3282.65 1521.22
-295.235 -3284.9 1522.49
-296.922 -3282.96 1522.28
-295.648 -3283.66 1522.33
-296.315 -3282.77 1522.06
-292.833 -3284.84 1522.38
-294.449 -3285.69 1522.51
-293.953 -3286.3 1522.58
-294.653 -3284.68 1522.46
-295.313 -3284.37 1522.3
-293.238 -3285.29 1522.45
-292.691 -3285.37 1522.54
-293.048 -3286.15 1522.66
-292.518 -3286.43 1522.93
-296.438 -3283.25 1522.26
-294.067 -3282.99 1521.51
-294.028 -3282.16 1521.31
-293.975 -3281.61 1521.18
-293.712 -3285.63 1522.38
-292.396 -3285.94 1522.81
-292.74 -3286.98 1522.9
-292.25 -3287.22 1523.1
-294.638 -3284.1 1522.36
-293.919 -3284.36 1522.39
-294.524 -3281.93 1521.41
-293.688 -3284.93 1522.46
-291.784 -3286.85 1523.19
-294.078 -3281.04 1521.12
-295.307 -3281.87 1521.61
-296.986 -3282.4 1522.17
-294.873 -3283.64 1522.2
-294.893 -3281.23 1521.34
-294.61 -3280.2 1521.02
-295.636 -3283.17 1522.1
-294.458 -3282.51 1521.42
-296.13 -3281.43 1521.75
-294.808 -3279.74 1520.99
-295.818 -3280.46 1521.41
-296.298 -3281.9 1521.89
-295.548 -3282.68 1521.84
-295.316 -3278.69 1520.82
-295.239 -3277.75 1520.6
-296.802 -3281.88 1522.01
-295.106 -3279.31 1520.9
-295.738 -3279.33 1521.08
-294.856 -3278.13 1520.58
-295.699 -3280.98 1521.52
-295.977 -3278.1 1520.99
-296.387 -3280.26 1521.49
-297.153 -3280.3 1521.74
-296.801 -3279.69 1521.59
-294.531 -3282.92 1521.72
-294.934 -3282.46 1521.62
-296.278 -3280.78 1521.53
-296.48 -3276.28 1520.92
-295.909 -3276.22 1520.79
-295.543 -3276.71 1520.68
-295.189 -3277.09 1520.53
-297.261 -3281.31 1522
-296.031 -3278.92 1521
-298.012 -3278.12 1522.2
-297.805 -3275.6 1521.13
-298.551 -3275.67 1521.51
-295.782 -3276.05 1520.3
-297.851 -3279.61 1522.16
-298.497 -3276.3 1522.02
-295.66 -3276.57 1520.21
-298.168 -3279.1 1521.99
-298.84 -3275.13 1521.53
-296.207 -3277.77 1520.67
-296.95 -3279.24 1521.32
-297.335 -3279.63 1521.9
-297.97 -3275.14 1520.95
-299.221 -3273.95 1521.2
-296.279 -3275.79 1520.72
-298.561 -3277.02 1522.06
-299.228 -3274.81 1521.86
-299.749 -3273.24 1521.47
-296.867 -3278.6 1521.09
-297.164 -3278.53 1521.64
-296.565 -3275.41 1520.49
-298.623 -3277.66 1521.81
-296.931 -3277.59 1521.14
-297.237 -3276.6 1521.09
-297.038 -3278.11 1521.37
-297.566 -3278.03 1521.79
-297.653 -3274.77 1520.5
-298.493 -3273.67 1520.34
-296.966 -3274.46 1520.48
-299.729 -3274.58 1521.63
-296.662 -3277.26 1520.64
-296.761 -3276.79 1520.78
-297.059 -3277.03 1521.43
-297.906 -3276.75 1521.66
-296.943 -3274.97 1520.25
-299.058 -3276.19 1521.66
-300.155 -3272.13 1521.45
-299.779 -3271.48 1521.5
-299.469 -3272.15 1521.19
-296.37 -3275.92 1520.2
-296.816 -3275.53 1520.92
-297.283 -3276.53 1521.6
-298.145 -3276.3 1521.62
-297.47 -3274.27 1520.54
-296.439 -3275.17 1520.06
-297.028 -3275.74 1521.38
-297.585 -3275.9 1521.56
-298.794 -3272.19 1521.11
-299.805 -3274.02 1521.69
-298.123 -3274.97 1521.48
-297.308 -3273.88 1520.87
-297.63 -3273.4 1521
-296.869 -3274.23 1520.96
-297.001 -3275.17 1521.33
-300.375 -3271.57 1521.54
-300.156 -3270.77 1521.61
-299.297 -3270.94 1521.57
-297.679 -3274.61 1521.43
-298.285 -3274.27 1521.41
-298.753 -3273.53 1521.35
-300.229 -3272.61 1521.57
-297.238 -3273.28 1521.29
-297.715 -3273.98 1521.36
-299.358 -3270.39 1521.65
-298.212 -3273.12 1521.29
-299.465 -3273.01 1521.11
-300.756 -3271.07 1521.34
-300.673 -3270.54 1521.39
-299.312 -3271.64 1521.18
-297.621 -3272.27 1521.39
-298.856 -3270.29 1521.62
-299.954 -3270.3 1521.66
-297.742 -3271.54 1521.49
-298.598 -3271.63 1521.3
-300.135 -3271.01 1521.14
-299.751 -3269.83 1521.71
-298.642 -3271.04 1521.48
-300.777 -3269.93 1521.27
-297.862 -3270.8 1521.61
-300.323 -3269.86 1521.49
-299.091 -3269.75 1521.73
-298.366 -3270.18 1521.63
-299.691 -3269.28 1521.76
-300.145 -3269.27 1521.25
-300.598 -3269.47 1521.17
-299.174 -3268.99 1521.74
-297.952 -3269.9 1521.74
-298.557 -3269.63 1521.78
-298.53 -3269.12 1521.72
-301.202 -3269.63 1521.22
-299.727 -3268.85 1521.33
-300.369 -3269.09 1521.7
-299.49 -3268.52 1521.66
-298.857 -3268.32 1521.62
-299.277 -3268.04 1521.45
-300.703 -3268.96 1521.16
-301.172 -3269.17 1521.44
-300.885 -3268.73 1521.67
-299.332 -3267.55 1521.62
-301.498 -3269.03 1521.06
-300.176 -3268.62 1521.26
-299.774 -3268.17 1521.36
-301.45 -3268.18 1521.63
-300.843 -3268.44 1521.18
-300.244 -3268.1 1521.61
-299.747 -3267.1 1521.67
-299.918 -3267.65 1521.64
-301.608 -3267.66 1521.64
-301.381 -3268.69 1521.48
-301.9 -3267.26 1521.56
-300.867 -3267.74 1521.64
-300.294 -3267.32 1521.54
-301.754 -3268.45 1521.16
-301.251 -3267.87 1521.23
-300.979 -3267.02 1521.68
-302.102 -3266.71 1521.61
-301.924 -3267.48 1521.08
-301.347 -3266.88 1521.19
-302.065 -3266.73 1521.09
-301.286 -3266.32 1521.6
