-113.78 -3362.01 1228.75
-113.762 -3362.06 1226.14
-115.273 -3362.56 1225.73
-114.965 -3362.5 1224.91
-120.693 -3362.37 1235.3
-124.894 -3362.94 1234.81
-113.281 -3361.83 1224.89
-115.182 -3362.43 1222.2
-115.19 -3362.47 1227.93
-116.111 -3362.6 1221.85
-116.825 -3362.83 1223.99
-115.605 -3362.54 1222.1
-120.002 -3362.42 1234.8
-125.547 -3363.26 1233.97
-126.414 -3363.16 1234.47
-127.633 -3363.63 1233.25
-112.582 -3361.11 1222.83
-114.142 -3361.67 1220.94
-113.998 -3361.58 1220.19
-113.672 -3361.71 1223.03
-114.835 -3362.3 1222.42
-115.395 -3362.25 1219.58
-116.05 -3362.3 1231.32
-120.27 -3362.51 1234.4
-117.027 -3362.82 1225.18
-117.546 -3362.77 1221.99
-115.85 -3362.43 1217.58
-115.439 -3362.34 1217.78
-119.107 -3363.27 1223.71
-125.306 -3363.29 1233.62
-127.857 -3363.76 1232.63
-128.277 -3363.49 1233.67
-129.286 -3363.76 1232.7
-129.112 -3363.86 1232.25
-115.984 -3362.42 1229.21
-118.069 -3362.28 1233.29
-121.657 -3362.7 1234.09
-125.53 -3363.37 1233.21
-117.977 -3362.9 1224.98
-119.513 -3363.19 1223.98
-120.052 -3363.02 1222.02
-119.206 -3362.61 1219.31
-116.484 -3362.42 1216.1
-120.861 -3363.05 1223.16
-121.331 -3362.99 1221.99
-128.203 -3363.85 1231.92
-129.474 -3363.96 1231.55
-131.756 -3363.82 1231.35
-131.819 -3363.71 1231.85
-131.379 -3363.86 1231.12
-134.208 -3363.41 1231.65
-135.487 -3363.43 1230.48
-116.163 -3362.44 1229.11
-116.856 -3362.59 1226.48
-117.054 -3362.23 1232.16
-118.426 -3362.25 1232.95
-120.287 -3362.5 1233.88
-122.13 -3362.75 1233.77
-125.376 -3363.35 1232.98
-125.348 -3363.34 1232.66
-127.605 -3363.79 1231.57
-118.616 -3362.94 1224.97
-119.747 -3363.14 1224.32
-120.86 -3363.07 1223.67
-122.103 -3362.85 1219.4
-117.772 -3362.41 1218.03
-120.614 -3362.64 1218.01
-118.961 -3362.32 1217.21
-117.326 -3362.34 1216.4
-118.068 -3362.49 1213.88
-120.02 -3362.73 1214
-118.386 -3362.37 1215.8
-123.816 -3362.89 1222.89
-124.143 -3362.85 1221.16
-128.884 -3363.96 1231.13
-130.207 -3363.94 1230.8
-138.312 -3362.9 1230.45
-138.87 -3363.15 1228.44
-142.98 -3362.32 1229.24
-132.781 -3363.84 1229.71
-134.315 -3363.71 1229.83
-133.915 -3363.8 1229.45
-136.866 -3363.67 1227.78
-146.381 -3362.02 1227.31
-144.354 -3362.42 1228.16
-116.598 -3362.35 1229.09
-116.613 -3362.3 1230.95
-116.892 -3362.42 1227.54
-117.615 -3362.45 1226.78
-118.676 -3362.83 1225.45
-117.166 -3362.2 1231.8
-117.854 -3362.17 1232.28
-119.862 -3362.39 1233.46
-119.018 -3362.21 1232.75
-121.208 -3362.56 1233.76
-122.701 -3362.82 1233.48
-126.287 -3363.4 1231.05
-127.564 -3363.58 1229.9
-128.323 -3363.71 1229.55
-120.088 -3363.11 1224.56
-121.291 -3362.99 1223.85
-122.521 -3362.94 1218.28
-124.569 -3362.89 1219.22
-120.316 -3362.44 1216.25
-121.527 -3362.74 1217.08
-116.582 -3362.21 1213.29
-118.547 -3362.5 1213.18
-121.543 -3362.98 1213.71
-119.895 -3362.57 1214.98
-121.582 -3362.7 1215.09
-122.365 -3362.94 1214.52
-122.588 -3363.02 1214.72
-123.715 -3362.8 1223.43
-125.54 -3362.79 1222.33
-124.459 -3362.68 1223.65
-130.198 -3363.88 1230.12
-133.033 -3363.82 1228.76
-138.035 -3363.6 1227.07
-140.517 -3362.88 1228.39
-135.463 -3363.82 1227
-136.005 -3363.78 1227.49
-137.221 -3363.78 1226.75
-146.993 -3362.26 1225.18
-145.119 -3362.66 1226.03
-150.403 -3361.46 1224.66
-142.884 -3362.73 1228.13
-143.433 -3362.9 1227.44
-144.113 -3362.83 1227.13
-117.871 -3361.97 1229.45
-117.914 -3361.93 1230.26
-118.108 -3361.98 1228.61
-118.537 -3361.96 1228.15
-118.967 -3362.04 1227.66
-118.992 -3362.73 1225.82
-119.93 -3363.06 1224.9
-118.023 -3361.91 1230.78
-118.524 -3361.88 1231.2
-119.161 -3361.87 1231.51
-119.955 -3362.29 1233.09
-120.906 -3362.41 1233.39
-119.749 -3361.89 1231.83
-121.878 -3362.58 1233.35
-123.669 -3362.93 1233.01
-125.719 -3363.26 1231.33
-126.527 -3363.19 1229.49
-126.464 -3363.16 1228.82
-125.723 -3363.02 1226.59
-126.059 -3363.06 1226.34
-126.173 -3363.03 1225.73
-129.623 -3363.69 1229.01
-127.053 -3363.12 1225.83
-121.554 -3362.91 1224.2
-120.178 -3363.02 1224.94
-122.946 -3362.92 1223.45
-123.204 -3363.21 1216.98
-124.617 -3363.35 1217.05
-124.837 -3363.47 1216.43
-125.305 -3363.13 1217.97
-127.123 -3362.87 1222.29
-127.307 -3362.95 1221.26
-126.305 -3362.89 1219.14
-122.608 -3362.98 1216.06
-119.562 -3362.51 1212.33
-121.692 -3362.8 1212.72
-122.181 -3362.94 1213.18
-123.904 -3363.18 1214.35
-123.208 -3363.26 1215.46
-123.436 -3362.31 1225.06
-123.134 -3362.34 1224.9
-126.453 -3362.86 1223.89
-125.054 -3362.76 1224.11
-124.483 -3362.68 1224.38
-123.616 -3362.25 1225.39
-133.218 -3363.77 1227.59
-135.037 -3363.77 1226.45
-137.707 -3363.81 1226.3
-138.514 -3363.67 1226.73
-138.628 -3363.48 1227.28
-140.415 -3363.07 1227.94
-136.269 -3363.84 1226.31
-135.39 -3363.78 1225.83
-136.684 -3363.86 1226.03
-144.93 -3363.69 1221.26
-148.501 -3362.22 1222.24
-143.83 -3363.45 1224.41
-143.3 -3363.33 1226.23
-150.442 -3361.64 1222.63
-142.208 -3363.19 1227.39
-142.974 -3363.37 1226.49
-142.615 -3363.34 1226.87
-119.311 -3361.65 1229.32
-119.612 -3361.62 1229.74
-119.642 -3361.67 1230.27
-119.761 -3361.56 1228.93
-119.959 -3361.65 1228.43
-120.084 -3362.28 1226.64
-121.276 -3361.83 1227.41
-120.064 -3361.55 1230.49
-120.459 -3361.54 1230.87
-120.187 -3361.98 1232.25
-120.81 -3361.99 1232.29
-121.349 -3362.05 1232.32
-120.691 -3361.65 1231.14
-121.915 -3362.13 1232.17
-123.308 -3362.78 1232.75
-124.183 -3362.56 1231.11
-125.231 -3362.8 1230.4
-125.372 -3362.7 1229.7
-125.277 -3362.61 1229.23
-125.178 -3362.54 1228.77
-125.29 -3362.89 1226.63
-125.041 -3362.74 1224.66
-124.591 -3362.68 1224.89
-129.189 -3363.17 1226.31
-130.88 -3363.25 1226.61
-132.814 -3363.71 1227.18
-128.902 -3362.98 1225.26
-129.052 -3362.93 1224.68
-121.687 -3362.68 1224.84
-122.63 -3362.39 1224.9
-125.099 -3363.58 1215.69
-126.403 -3363.25 1217.65
-126.176 -3363.66 1215.31
-126.584 -3363.66 1215.97
-129.735 -3362.93 1223.9
-129.385 -3362.92 1224.19
-127.301 -3362.98 1220.46
-128.975 -3363.11 1222.52
-130.124 -3362.98 1223.68
-124.104 -3363.45 1215.66
-121.482 -3362.65 1212.3
-123.249 -3362.76 1212.18
-123.947 -3362.89 1212.23
-125.054 -3363.33 1213.97
-122.095 -3361.76 1227.83
-121.081 -3361.68 1228.16
-123.799 -3362.2 1225.8
-123.003 -3361.84 1227.65
-134.125 -3363.71 1226.32
-134.53 -3363.67 1225.91
-137.453 -3363.96 1225.62
-136.286 -3363.91 1225.39
-138.583 -3363.78 1226.38
-139.35 -3363.5 1227.1
-141.11 -3363.2 1227.6
-135.672 -3363.83 1225.49
-134.819 -3363.75 1225.43
-134.553 -3363.65 1225.6
-142.787 -3364.19 1222.29
-144.006 -3364.29 1219.82
-142.479 -3364.43 1221.37
-145.771 -3364.01 1218.63
-145.164 -3364.31 1218.27
-146.404 -3363.54 1219.55
-148.289 -3362.46 1220.93
-148.497 -3362.58 1219.79
-152.519 -3361.12 1219.01
-142.511 -3364.12 1225.08
-142.579 -3364.19 1224.43
-142.071 -3364.49 1223.63
-142.213 -3364.11 1225.42
-141.668 -3364.01 1226.19
-141.353 -3364.03 1226.28
-142.039 -3364.11 1225.7
-141.903 -3364.04 1226
-155.763 -3360.19 1216.41
-120.236 -3361.55 1230.04
-120.247 -3361.55 1229.16
-120.842 -3361.8 1227.4
-120.643 -3361.51 1230.44
-120.981 -3361.56 1230.67
-121.301 -3361.65 1231.06
-121.876 -3361.71 1230.91
-122.827 -3362.31 1231.78
-122.745 -3361.92 1230.71
-123.793 -3362.06 1230.01
-123.965 -3362.04 1229.55
-123.922 -3361.99 1229.09
-124.682 -3362.53 1227.21
-123.903 -3361.99 1228.59
-123.925 -3362.19 1226.49
-130.766 -3362.94 1225.25
-132.383 -3363.39 1226.22
-131.388 -3363.01 1225.38
-133.726 -3363.61 1226.05
-132.819 -3363.31 1225.68
-131.024 -3362.88 1224.83
-126.843 -3363.34 1217.48
-126.634 -3363.7 1215.27
-125.699 -3363.41 1213.57
-127.016 -3363.69 1215.89
-131.484 -3362.92 1224.45
-127.566 -3363.1 1220.21
-129.011 -3363.22 1221.92
-130.536 -3363.04 1223.55
-130.654 -3363.12 1223.25
-131.753 -3362.98 1224.13
-131.997 -3362.98 1224.33
-122.431 -3362.29 1211.15
-123.08 -3362.33 1210.85
-123.737 -3362.38 1210.18
-124.695 -3363.07 1211.78
-121.657 -3361.69 1228.89
-123.329 -3361.91 1228
-122.313 -3361.72 1229.25
-134.056 -3363.6 1225.73
-137.174 -3364.08 1225.18
-135.767 -3363.96 1224.94
-135.231 -3363.86 1225.16
-138.729 -3363.9 1226.14
-139.31 -3363.76 1226.55
-140.338 -3363.38 1227.32
-140.964 -3364.05 1226.31
-134.914 -3363.81 1225.28
-134.323 -3363.59 1225.35
-134.582 -3363.66 1225.2
-133.286 -3363.3 1225.1
-142.049 -3364.46 1222.04
-142.739 -3364.5 1220.37
-144.327 -3364.44 1218.59
-142.298 -3364.5 1221.2
-141.803 -3364.58 1221.36
-146.523 -3364.43 1217.24
-146.986 -3364.17 1217.58
-146.936 -3363.54 1218.94
-145.004 -3364.5 1217.62
-146.124 -3364.59 1216.99
-148.668 -3362.68 1219.06
-152.26 -3361.34 1218.15
-151.439 -3361.84 1217.64
-155.118 -3360.58 1214.93
-141.592 -3364.88 1224.4
-141.512 -3364.86 1224.73
-141.557 -3364.65 1223.21
-141.253 -3365 1224.08
-140.819 -3365.12 1223.57
-141.356 -3364.86 1224.95
-141.135 -3364.88 1225.04
-141 -3364.81 1225.16
-140.79 -3364.85 1225.14
-156.893 -3359.93 1212.15
-157.803 -3359.62 1212.16
-120.813 -3361.54 1229.9
-121.263 -3361.53 1230.19
-121.513 -3361.58 1230.56
-122.237 -3361.7 1230.36
-122.847 -3361.85 1230.27
-123.236 -3361.89 1229.6
-123.386 -3361.91 1228.85
-131.514 -3362.95 1225
-131.989 -3362.97 1225.16
-133.052 -3363.28 1225.31
-131.663 -3362.92 1224.73
-127.124 -3363.45 1217.13
-127.893 -3363.2 1220.02
-126.602 -3363.72 1213.73
-127.07 -3363.83 1215.38
-125.415 -3363.24 1211.51
-127.231 -3363.78 1216.08
-131.999 -3362.96 1224.59
-129.759 -3363.35 1222.02
-128.947 -3363.39 1221.09
-132.108 -3363.03 1224.1
-131.073 -3363.22 1223.13
-132.249 -3363.1 1223.88
-132.531 -3363.09 1224.26
-132.446 -3363.05 1224.51
-124.665 -3362.68 1209.98
-122.091 -3361.67 1230
-137.723 -3364.14 1225.16
-135.65 -3364.08 1224.53
-135.117 -3363.96 1224.65
-135.096 -3363.88 1224.96
-134.803 -3363.74 1225.06
-139.207 -3364.03 1226.05
-139.836 -3363.78 1226.57
-140.591 -3364.12 1226.21
-140.6 -3364.8 1225.24
-133.482 -3363.35 1224.89
-133.62 -3363.4 1224.67
-132.19 -3362.98 1224.85
-141.32 -3364.7 1221.77
-141.327 -3364.63 1219.87
-141.906 -3364.56 1219.21
-143.578 -3364.52 1218.73
-144.518 -3364.57 1217.5
-140.538 -3364.83 1220.42
-147.522 -3364.67 1216.19
-147.244 -3364.78 1216.02
-147.403 -3364 1217.67
-147.955 -3364.43 1216.44
-148.652 -3362.85 1218.65
-147.913 -3363.77 1217.74
-145.339 -3364.8 1216.49
-145.733 -3364.71 1216.74
-146.465 -3364.85 1216.14
-150.901 -3362.18 1217.42
-152.961 -3361.51 1215.03
-151.578 -3361.99 1216.77
-153.178 -3361.82 1212.7
-156.542 -3360.09 1210.8
-154.966 -3360.94 1211.55
-141.208 -3365.04 1224.39
-141.082 -3365.02 1224.64
-140.274 -3365.28 1222.7
-140.804 -3364.89 1222.77
-140.579 -3365.29 1223.75
-139.268 -3365.5 1222.14
-141.035 -3364.85 1225.01
-140.432 -3365.06 1224.83
-140.718 -3365.01 1224.86
-157.5 -3359.74 1208.95
-159.351 -3359.17 1209.68
-127.948 -3363.55 1218.42
-128.049 -3363.31 1219.58
-126.151 -3363.54 1211.44
-127.662 -3364.28 1212.7
-127.377 -3364.07 1215.19
-127.406 -3363.99 1215.86
-125.721 -3363.21 1210.32
-129.71 -3363.58 1221.48
-131.25 -3363.37 1222.85
-129.295 -3363.7 1220.63
-132.588 -3363.15 1224.05
-132.372 -3363.21 1223.65
-132.7 -3363.21 1223.88
-125.588 -3362.87 1208.9
-137.655 -3364.47 1224.47
-135.192 -3364.13 1224.24
-134.74 -3363.91 1224.45
-134.802 -3363.81 1224.75
-134.721 -3364.03 1224.19
-133.684 -3363.46 1224.42
-140.044 -3364.39 1225.78
-139.412 -3364.49 1225.3
-140.362 -3364.83 1225.22
-140.248 -3365.01 1224.91
-139.795 -3365.13 1221.1
-140.108 -3364.78 1219.12
-141.062 -3364.6 1218.18
-140.709 -3364.68 1218.75
-142.527 -3364.56 1218.11
-141.759 -3364.54 1217.52
-143.09 -3364.66 1217.01
-144.28 -3364.91 1215.67
-139.477 -3364.98 1219.47
-147.722 -3364.7 1215.85
-147.973 -3364.53 1216.12
-146.793 -3364.89 1215.77
-147.371 -3364.85 1215.51
-148.596 -3364.1 1216.53
-148.531 -3364.28 1216.18
-148.767 -3363.42 1217.57
-149.602 -3363.12 1217.17
-146.056 -3364.99 1215.77
-150.016 -3363.12 1216.64
-150.447 -3362.97 1216.28
-152.005 -3362 1215.2
-150.629 -3362.94 1215.84
-151.197 -3362.78 1213.74
-150.955 -3362.94 1213.42
-151.942 -3362.51 1212.16
-154.941 -3361.02 1209.48
-156.253 -3360.38 1206.24
-156.897 -3359.99 1207.39
-140.729 -3365.23 1224.13
-140.706 -3365.2 1224.4
-139.267 -3365.55 1221.8
-139.075 -3365.54 1222.73
-139.171 -3365.52 1222.42
-138.347 -3365.65 1221.48
-138.191 -3365.69 1221.07
-138.661 -3365.55 1221.15
-140.481 -3365.17 1224.59
-139.106 -3365.43 1223.52
-139.194 -3365.31 1223.85
-157.718 -3359.72 1204.89
-128.227 -3363.73 1218.37
-126.92 -3363.95 1210.74
-126.417 -3363.49 1209.97
-127.809 -3364.52 1210.37
-128.752 -3364.9 1210.93
-130.734 -3365.61 1211.59
-129.24 -3365.08 1212.18
-128.24 -3364.57 1213.44
-127.717 -3364.41 1214.95
-127.675 -3364.28 1215.54
-127.722 -3364.17 1216.09
-130.113 -3363.86 1221.22
-131.345 -3363.56 1222.55
-132.709 -3363.33 1223.64
-132.683 -3363.44 1223.39
-129.688 -3363.97 1220.67
-129.415 -3364.07 1219.89
-133.675 -3363.56 1224.12
-126.248 -3363.16 1208.76
-126.212 -3362.83 1207.84
-135.403 -3364.35 1224.01
-135.956 -3364.43 1224.04
-137.016 -3364.75 1223.81
-138.974 -3364.98 1224.05
-137.961 -3365.16 1223.41
-139.921 -3364.86 1224.95
-134.768 -3364.18 1223.94
-133.632 -3363.67 1223.85
-133.694 -3363.82 1223.64
-139.112 -3365.15 1224.01
-138.655 -3365.42 1220.3
-139.235 -3365.09 1218.99
-140.228 -3364.82 1218.47
-141.519 -3364.67 1216.96
-140.91 -3364.91 1217.04
-142.294 -3364.69 1216.37
-143.432 -3364.99 1214.93
-145.176 -3365.11 1214.91
-144.529 -3365.18 1214.01
-148.016 -3364.6 1215.63
-148.408 -3364.45 1215.88
-146.663 -3364.99 1215.4
-145.478 -3365.14 1214.65
-147.764 -3364.75 1215.35
-147.208 -3364.9 1215.17
-148.975 -3364.02 1216.15
-149.114 -3364.08 1215.78
-150.661 -3363 1215.16
-149.4 -3363.96 1215.58
-150.218 -3363.39 1214.8
-149.931 -3363.6 1214.63
-150.529 -3363.18 1213.51
-150.565 -3363.12 1212.99
-151.177 -3362.86 1210.84
-153.68 -3361.69 1209.24
-155.963 -3360.59 1204.98
-139.271 -3365.51 1223.16
-139.218 -3365.48 1223.35
-138.018 -3365.71 1222.11
-138.148 -3365.7 1221.78
-137.086 -3366.21 1221.18
-137.931 -3365.76 1221.93
-137.793 -3365.79 1222.11
-138.2 -3365.69 1221.66
-137.108 -3366.19 1220.89
-137.133 -3366.21 1220.67
-137.703 -3365.88 1219.69
-137.7 -3365.78 1222.44
-137.982 -3365.62 1222.75
-137.754 -3365.78 1222.31
-138.067 -3365.69 1222.55
-137.855 -3365.43 1223.02
-156.9 -3360.11 1203.11
-158.803 -3359.31 1202.13
-128.365 -3363.92 1217.99
-127.046 -3363.98 1209.7
-127.567 -3364.23 1209.79
-126.717 -3363.54 1209.12
-128.254 -3364.72 1210.12
-127.967 -3364.62 1209.72
-129.131 -3365.1 1210.4
-130.561 -3365.57 1211.2
-131.372 -3365.86 1211.88
-132.752 -3366.45 1211.22
-133.142 -3366.51 1211.8
-129.722 -3365.31 1212.43
-129.119 -3365.09 1213.14
-128.237 -3364.66 1214.23
-128.957 -3365.45 1215.52
-127.989 -3364.53 1215.47
-127.988 -3364.44 1215.88
-128.064 -3364.26 1216.31
-130.365 -3364.29 1220.72
-131.805 -3363.76 1222.4
-130.013 -3364.39 1220.4
-130.01 -3364.52 1219.91
-129.609 -3364.44 1219.42
-126.548 -3363.17 1208.38
-126.527 -3362.92 1207.56
-126.644 -3362.47 1206.41
-126.868 -3362.69 1206.41
-127.644 -3362.55 1205.14
-135.848 -3364.67 1223.83
-135.256 -3364.46 1223.85
-134.893 -3364.31 1223.77
-135.814 -3365.7 1222.64
-137.49 -3365.29 1223.08
-136.156 -3365.86 1222.44
-133.797 -3364.03 1223.39
-139.343 -3365.08 1218.57
-138.839 -3365.28 1218.72
-139.781 -3365.03 1218.03
-142.231 -3364.74 1215.92
-140.259 -3365.01 1217.24
-141.207 -3364.95 1216.18
-141.946 -3364.84 1215.72
-143.202 -3365.08 1214.64
-144.15 -3365.26 1213.69
-144.511 -3365.27 1213.47
-148.177 -3364.57 1215.28
-148.651 -3364.41 1215.5
-145.687 -3365.14 1214.46
-146.164 -3365.05 1214.41
-144.964 -3365.22 1213.6
-147.709 -3364.79 1215.02
-146.384 -3365.03 1214.07
-149.37 -3363.99 1215.41
-148.85 -3364.29 1215.27
-148.938 -3364.25 1215.04
-149.563 -3363.8 1214.48
-149.982 -3363.41 1213.5
-148.354 -3363.94 1212.44
-149.263 -3363.49 1211.88
-150.192 -3363.17 1211.27
-151.768 -3362.56 1209.23
-149.383 -3363.48 1210.28
-148.911 -3364.04 1208.24
-148.864 -3364.03 1208.62
-154.234 -3361.37 1206.74
-136.813 -3366.33 1221.29
-135.811 -3366.79 1220.17
-136.652 -3366.35 1221.49
-136.244 -3366.53 1219.53
-135.877 -3366.72 1219.24
-137.618 -3365.81 1218.79
-136.271 -3366.29 1218.81
-136.527 -3366.34 1221.67
-136.449 -3366.28 1221.86
-137.544 -3365.7 1222.61
-154.364 -3361.25 1205.34
-156.301 -3360.17 1201.34
-157.959 -3359.3 1199.25
-128.656 -3364.15 1217.97
-127.427 -3364.05 1209.18
-127.042 -3363.82 1208.94
-128.146 -3365.04 1208.67
-126.941 -3363.56 1208.37
-128.932 -3365.37 1209.26
-128.574 -3365.19 1209.05
-128.249 -3365.06 1208.81
-129.406 -3365.56 1209.5
-130.209 -3365.84 1209.67
-131.276 -3365.93 1210.81
-130.801 -3365.71 1212.33
-132.824 -3366.41 1212.22
-132.035 -3366.19 1212.36
-131.644 -3366.51 1209.4
-132.314 -3366.67 1209.57
-134.369 -3366.83 1212.54
-133.501 -3366.87 1210.21
-129.871 -3365.48 1212.79
-129.865 -3365.88 1214.2
-129.47 -3365.68 1214.68
-129.137 -3365.52 1215.17
-128.876 -3365.38 1215.84
-129.824 -3366.23 1216.32
-130.152 -3366.46 1216.04
-130.084 -3366.43 1215.62
-128.872 -3365.4 1216.22
-129.002 -3365.38 1216.56
-129.142 -3365.25 1217.02
-130.463 -3364.67 1220.13
-131.825 -3364.11 1221.88
-132.912 -3364.29 1222.28
-130.367 -3365.45 1218.83
-131.365 -3365.74 1219.37
-129.911 -3365.29 1218.48
-130.916 -3361.23 1200.59
-128.301 -3362.7 1204.56
-126.852 -3363.43 1207.82
-126.874 -3363.13 1207.09
-127.395 -3363 1206.02
-127.674 -3362.78 1205.41
-128.25 -3363.04 1204.92
-129.643 -3362.06 1202.74
-135.422 -3364.72 1223.66
-135.44 -3365.63 1222.66
-135.082 -3364.57 1223.55
-134.666 -3364.44 1223.45
-134.618 -3364.3 1223.63
-135.06 -3366.76 1221.28
-135.012 -3366.56 1221.49
-136.332 -3366.04 1222.22
-135.441 -3366.7 1221.38
-138.859 -3365.3 1218.24
-139.479 -3365.3 1217.27
-141.047 -3365.08 1215.95
-141.893 -3365 1215.25
-142.941 -3365.18 1214.39
-144.034 -3365.38 1213.33
-144.908 -3365.29 1213.16
-144.504 -3365.39 1213.07
-147.938 -3364.66 1214.87
-148.354 -3364.52 1215.01
-145.433 -3365.14 1213.29
-146.773 -3364.93 1213.95
-145.897 -3365.03 1212.96
-148.646 -3364.36 1214.76
-149.154 -3363.94 1214.14
-148.246 -3364.19 1213.44
-147.018 -3364.45 1211.82
-147.278 -3364.71 1213.77
-146.179 -3364.92 1212.76
-148.501 -3363.75 1211.16
-149.125 -3363.91 1207.99
-151.37 -3362.66 1208.39
-152.72 -3362.01 1208.02
-147.94 -3364.3 1209.35
-148.023 -3363.92 1211.07
-146.675 -3364.6 1211.46
-147.213 -3364.86 1208.38
-148.008 -3364.51 1207.46
-147.101 -3364.91 1208.17
-135.71 -3366.86 1220.61
-135.567 -3366.93 1220.15
-135.332 -3366.98 1219.81
-135.5 -3366.9 1218.96
-135.552 -3366.88 1220.72
-136.023 -3366.59 1218.32
-135.82 -3366.97 1217.74
-136.475 -3366.41 1218.13
-137.742 -3365.9 1218.11
-135.471 -3366.85 1220.94
-136.33 -3366.18 1222.04
-135.613 -3366.7 1221.3
-152.581 -3361.77 1206.41
-152.669 -3361.6 1204.93
-153.829 -3361.04 1202.18
-155.394 -3360.22 1199.83
-154.686 -3359.87 1196.23
-129.422 -3365.1 1217.88
-127.866 -3364.77 1208.27
-127.948 -3364.92 1208.49
-127.797 -3364.67 1208.02
-128.577 -3365.53 1207.94
-128.902 -3365.7 1208.26
-128.883 -3365.75 1208.02
-127.754 -3364.58 1207.7
-129.253 -3365.84 1208.48
-129.629 -3365.95 1208.65
-131.191 -3366.32 1209.48
-130.071 -3366.2 1208.57
-131.319 -3366.43 1213.66
-130.752 -3366.24 1213.72
-132.842 -3366.51 1212.71
-133.841 -3366.78 1213.14
-131.827 -3366.6 1213.69
-130.345 -3366.41 1208.21
-130.856 -3366.54 1207.97
-135.309 -3367.13 1212.01
-133.129 -3367 1214.81
-132.094 -3366.73 1208.49
-130.328 -3366.06 1213.81
-130.349 -3366.56 1215.39
-130.551 -3366.61 1215.09
-130.199 -3366.5 1216.56
-129.813 -3366.16 1216.75
-130.447 -3366.64 1215.91
-130.468 -3366.71 1216.54
-129.875 -3366.08 1217.15
-130.062 -3366.02 1217.59
-131.975 -3364.96 1220.74
-134.291 -3365.53 1222.28
-130.805 -3366.35 1218
-130.408 -3366.14 1217.91
-132.488 -3366.43 1219.56
-132.907 -3366 1220.46
-133.738 -3366.52 1221.03
-131.338 -3361.23 1200.16
-131.466 -3361.42 1200.64
-131.172 -3361.44 1201.15
-134.082 -3361.19 1195.83
-135.634 -3360.93 1193.32
-132.311 -3361.41 1199.22
-133.003 -3361.38 1197.42
-133.427 -3361.67 1198.23
-131.066 -3361.66 1201.68
-130.846 -3361.51 1201.45
-128.719 -3363.03 1204.54
-127.683 -3364.45 1207.44
-127.706 -3364.3 1207.16
-127.835 -3364.1 1206.77
-128.171 -3364.05 1206.27
-128.063 -3363.12 1205.37
-128.962 -3363.35 1204.72
-128.552 -3363.37 1205.11
-129.894 -3362.34 1203.11
-129.203 -3362.8 1204.15
-132.344 -3362.65 1202.23
-135.069 -3365.59 1222.61
-134.838 -3366.41 1221.65
-134.662 -3365.56 1222.44
-134.588 -3366.96 1221.03
-134.389 -3366.86 1221.04
-134.421 -3366.65 1221.23
-135.049 -3366.89 1221.05
-138.426 -3366.02 1216.81
-139.936 -3365.78 1215.37
-140.467 -3365.81 1214.68
-141.571 -3365.18 1215.13
-142.595 -3365.32 1214.19
-143.714 -3365.49 1213.26
-144.764 -3365.4 1212.67
-144.971 -3365.34 1212.65
-145.395 -3365.18 1212.73
-144.208 -3365.52 1212.77
-148.142 -3364.57 1214.68
-145.683 -3365.09 1212.39
-149.27 -3363.77 1207.7
-150.934 -3362.77 1207.77
-150.774 -3362.39 1206.25
-152.034 -3362.01 1206.97
-147.559 -3364.36 1209.58
-147.073 -3364.38 1210.56
-146.541 -3365.1 1209
-146.469 -3365.06 1209.2
-146.378 -3364.8 1211.15
-145.746 -3365.1 1211.74
-145.584 -3365.13 1212.05
-146.161 -3365.28 1208.96
-146.284 -3365.2 1209.14
-147.822 -3364.58 1207.33
-146.938 -3364.95 1208.01
-148.206 -3364.38 1207.25
-145.977 -3365.35 1208.74
-135.297 -3367.03 1220.3
-134.926 -3367.12 1219.96
-134.952 -3367.12 1219.51
-135.061 -3367.02 1218.65
-135.645 -3367.06 1217.1
-135.016 -3367.03 1220.55
-136.202 -3366.63 1217.96
-136.059 -3366.79 1217.86
-137.107 -3367.02 1214.86
-137.29 -3366.87 1215.52
-137.885 -3366.52 1216.17
-137.611 -3366.7 1215.85
-135.151 -3366.91 1220.92
-151.058 -3362.06 1204.18
-150.423 -3362.31 1205.1
-151.107 -3361.77 1201.66
-153.008 -3360.76 1199.29
-152.514 -3360.31 1195.45
-154.012 -3359.59 1193.01
-128.463 -3365.47 1207.76
-128.372 -3365.37 1207.55
-128.856 -3365.76 1207.81
-129.198 -3365.94 1208.13
-129.245 -3366 1207.8
-128.363 -3365.23 1207.27
-129.563 -3366.04 1208.35
-129.922 -3366.22 1208.29
-130.823 -3366.73 1215.19
-131.16 -3366.82 1215.09
-132.405 -3366.75 1213.88
-132.88 -3366.9 1214.32
-131.504 -3366.92 1215.06
-130.189 -3366.41 1207.88
-129.921 -3366.3 1208.06
-131.072 -3366.58 1207.63
-130.547 -3366.51 1207.61
-137.862 -3367.38 1211.61
-133.355 -3367.06 1215.52
-137.904 -3367.38 1210.7
-133.097 -3366.87 1208.85
-131.846 -3367.06 1216.35
-131.619 -3366.97 1215.38
-130.626 -3366.7 1215.65
-130.234 -3366.5 1217.05
-130.77 -3366.86 1216.23
-130.674 -3366.76 1217.08
-130.81 -3366.88 1216.75
-130.293 -3366.33 1217.42
-133.199 -3365.54 1221.31
-133.831 -3365.2 1222.22
-134.061 -3366.58 1221.19
-133.865 -3366.64 1220.99
-130.982 -3366.68 1217.65
-130.624 -3366.44 1217.63
-132.325 -3366.59 1219.17
-133.936 -3366.77 1220.81
-132.807 -3361.73 1199.75
-132.969 -3361.99 1200.49
-132.833 -3362.18 1201.07
-136.89 -3360.59 1190.7
-137.623 -3361.55 1194.39
-136.242 -3361.3 1194.75
-135.546 -3361.78 1196.79
-133.647 -3361.47 1197.23
-134.745 -3362.13 1198.55
-134.466 -3362.44 1200
-132.489 -3362.35 1201.67
-129.473 -3363.21 1204.44
-128.502 -3365.16 1207.01
-128.617 -3365.13 1206.81
-128.583 -3364.26 1206.04
-128.84 -3365.25 1206.66
-129.305 -3364.48 1205.61
-129.691 -3364.43 1205.36
-128.961 -3364.48 1205.87
-131.293 -3362.93 1203.19
-130.711 -3363.15 1203.73
-133.358 -3363.49 1202.62
-133.861 -3363.37 1202.37
-133.867 -3362.95 1201.63
-134.392 -3366.45 1221.48
-134.246 -3367.1 1220.74
-134.579 -3367.1 1220.73
-134.193 -3367.26 1220.52
-134.214 -3366.86 1220.88
-134.086 -3367.03 1220.55
-134.145 -3366.71 1221.04
-139.265 -3366.41 1214.27
-140.764 -3365.88 1214.25
-139.568 -3366.47 1213.9
-142.188 -3365.58 1213.93
-143.586 -3365.61 1213.04
-143.058 -3365.75 1213.13
-144.268 -3365.62 1212.44
-144.731 -3365.54 1212.17
-145.203 -3365.3 1212.25
-143.791 -3365.69 1212.65
-149.326 -3363.63 1207.31
-150.108 -3362.69 1206.23
-149.144 -3362.87 1205.27
-149.204 -3362.75 1204.77
-146.713 -3364.75 1209.65
-145.634 -3365.39 1210.39
-145.11 -3365.85 1209.91
-145.256 -3365.34 1211.94
-144.594 -3365.98 1211
-144.899 -3366.01 1209.7
-144.734 -3366.1 1209.5
-146.811 -3364.97 1207.87
-147.782 -3364.57 1207.22
-148.138 -3364.4 1207.2
-145.814 -3365.41 1208.51
-144.62 -3366.16 1209.29
-134.622 -3367.22 1220.19
-134.635 -3367.25 1219.53
-134.64 -3367.13 1218.24
-135.199 -3367.07 1217.18
-136.871 -3367.17 1213.9
-134.413 -3367.26 1220.39
-137.835 -3367.06 1213.29
-138.278 -3366.89 1213.59
-138.754 -3366.68 1213.92
-149.585 -3362.52 1203.45
-151.29 -3361.91 1202.79
-149.33 -3362.38 1201.73
-150.075 -3361.73 1199.98
-150.753 -3360.78 1196.92
-150.654 -3360.56 1194.64
-150.237 -3360.46 1192.63
-151.719 -3359.83 1191.5
-128.735 -3365.69 1207.61
-128.65 -3365.61 1207.43
-129.136 -3365.95 1207.51
-129.574 -3366.16 1208.05
-129.787 -3366.28 1207.8
-129.591 -3366.2 1207.58
-128.639 -3365.46 1207.21
-130.938 -3366.84 1215.74
-131.302 -3366.96 1215.59
-130.124 -3366.41 1207.55
-130.63 -3366.5 1207.43
-131.349 -3366.6 1207.56
-134.595 -3367.09 1216.22
-138.756 -3367.43 1211.5
-140.301 -3367.62 1210.7
-140.455 -3367.62 1210.79
-133.447 -3367.08 1218.03
-138.155 -3367.38 1210.36
-133.409 -3366.88 1208.67
-131.449 -3367.04 1216.01
-131.826 -3367.08 1216.85
-133.264 -3367.12 1218.21
-130.72 -3366.71 1217.34
-131.103 -3366.97 1216.11
-131.063 -3366.96 1216.65
-131.033 -3366.8 1217.52
-131.18 -3366.93 1217.21
-132.506 -3366.77 1219.11
-132.589 -3366.91 1219.01
-133.937 -3366.9 1220.57
-134.65 -3362.72 1200.65
-138.456 -3360.24 1189.1
-138.392 -3361.86 1195.31
-136.117 -3362.45 1198.67
-135.454 -3362.87 1200.55
-130.214 -3364.31 1204.99
-128.663 -3365.38 1207.02
-128.857 -3365.45 1206.87
-129.178 -3365.41 1206.51
-129.292 -3365.69 1206.74
-129.527 -3365.54 1206.39
-129.893 -3365.35 1206.04
-133.253 -3363.78 1203.24
-131.566 -3364.63 1204.75
-131.094 -3364.4 1204.7
-134.512 -3363.1 1201.51
-135.558 -3363.79 1202.74
-134.005 -3363.93 1203.26
-134.04 -3367.14 1220.29
-134.078 -3367.24 1220.07
-134.141 -3367.32 1220.06
-132.545 -3367 1218.74
-139.231 -3366.72 1213.47
-139.752 -3366.62 1213.43
-140.871 -3366.71 1212.87
-141.785 -3366.3 1213.04
-142.674 -3366.4 1212.32
-143.613 -3366.32 1211.59
-143.274 -3366.36 1211.88
-144.188 -3366.13 1211.3
-149.093 -3363.61 1206.87
-149.13 -3363.05 1205.8
-148.628 -3363.09 1205.42
-148.543 -3363.02 1205.09
-148.652 -3362.89 1204.71
-148.794 -3362.81 1204.32
-143.722 -3366.68 1210.44
-143.474 -3366.87 1210.3
-143.376 -3366.85 1210.71
-143.296 -3366.96 1210.16
-143.295 -3366.95 1209.9
-146.731 -3364.95 1207.72
-144.323 -3366.22 1208.98
-144.404 -3366.25 1209.16
-148.116 -3364.37 1207.1
-147.863 -3364.46 1207.01
-134.345 -3367.33 1219.84
-137.867 -3367.23 1212.37
-138.502 -3366.99 1212.94
-138.25 -3367.17 1212.53
-138.851 -3366.9 1213.2
-149.015 -3362.66 1203.2
-148.773 -3362.41 1201.18
-149.29 -3361.6 1198.77
-148.937 -3360.93 1196.39
-149.154 -3360.78 1195.68
-148.535 -3360.78 1194.1
-148.223 -3360.76 1192.72
-149.927 -3359.8 1189.93
-147.495 -3360.67 1191.76
-128.98 -3365.83 1207.43
-128.948 -3365.78 1207.33
-129.359 -3366.05 1207.41
-129.784 -3366.26 1207.39
-129.019 -3365.73 1207.15
-130.237 -3366.38 1207.31
-130.943 -3366.51 1207.35
-130.584 -3366.42 1207.19
-131.684 -3366.61 1207.49
-139.213 -3367.43 1211.53
-140.378 -3367.6 1211.06
-140.922 -3367.6 1210.57
-140.431 -3367.58 1210.39
-141.199 -3367.59 1210.74
-141.017 -3367.59 1210.93
-138.477 -3367.36 1210.14
-134.316 -3366.9 1208.75
-131.326 -3367.03 1216.52
-133.202 -3367.15 1218.51
-131.512 -3367.02 1217.06
-132.899 -3367.1 1218.5
-132.604 -3367.05 1218.52
-140.201 -3361.37 1193.07
-143.658 -3359.97 1188.24
-138.747 -3362.26 1197.39
-137.013 -3362.6 1199.23
-136.521 -3362.96 1200.51
-135.964 -3363.25 1201.53
-130.279 -3365.34 1205.86
-129.32 -3365.83 1206.95
-129.588 -3365.89 1206.79
-129.617 -3365.78 1206.57
-129.98 -3365.67 1206.27
-132.333 -3365.08 1205.04
-131.851 -3364.97 1205.02
-130.408 -3365.68 1206.12
-134.846 -3364.38 1203.88
-136.81 -3364.13 1203.01
-132.846 -3365.25 1205.21
-140.237 -3367.13 1212.4
-140.5 -3366.98 1212.58
-141.855 -3366.94 1212.08
-141.301 -3367.22 1211.96
-142.139 -3366.98 1211.82
-142.913 -3366.95 1211.08
-142.38 -3367.06 1211.47
-148.872 -3363.63 1206.63
-148.575 -3363.71 1206.42
-148.302 -3363.85 1206.37
-148.388 -3363.23 1205.46
-148.423 -3362.96 1204.82
-148.4 -3363.08 1205.19
-148.445 -3362.88 1204.36
-142.836 -3367.16 1210.52
-142.918 -3367.04 1210.83
-142.614 -3367.22 1210.4
-142.395 -3367.23 1210.07
-142.86 -3367.07 1209.81
-146.662 -3364.92 1207.57
-144.16 -3366.24 1208.87
-142.57 -3367.11 1209.66
-147.707 -3364.48 1206.92
-139.497 -3367.29 1212.13
-139.805 -3367.22 1212.28
-139.37 -3367.37 1211.85
-148.49 -3362.75 1203.08
-148.274 -3362.45 1201.03
-148.478 -3361.62 1198.31
-146.878 -3360.96 1196.41
-147.007 -3360.77 1195.7
-146.902 -3360.86 1196.07
-147.066 -3360.77 1195.42
-146.635 -3360.81 1194.56
-144.725 -3360.99 1192.84
-144.386 -3360.98 1192.24
-146.956 -3360.04 1189.28
-143.815 -3360.84 1191.32
-129.359 -3366.01 1207.29
-129.742 -3366.16 1207.21
-129.487 -3365.99 1207.09
-130.195 -3366.29 1207.05
-131.136 -3366.51 1207.19
-130.739 -3366.42 1207.03
-131.871 -3366.59 1207.35
-134.02 -3366.76 1208.23
-140.373 -3367.56 1211.32
-140.942 -3367.57 1211.13
-141.108 -3367.52 1210.16
-141.505 -3367.49 1210.34
-138.78 -3367.31 1209.89
-140.621 -3367.49 1209.98
-141.587 -3367.5 1210.88
-141.815 -3367.45 1210.43
-141.604 -3367.47 1211.1
-140.874 -3361.6 1194.27
-140.004 -3362.34 1198.08
-138.865 -3362.66 1199.71
-137.493 -3363.03 1200.53
-129.896 -3365.96 1206.63
-129.817 -3366.06 1206.91
-130.261 -3366.03 1206.55
-131.321 -3366.1 1206.42
-130.787 -3365.95 1206.31
-135.089 -3364.86 1204.73
-133.182 -3365.47 1205.49
-136.607 -3364.81 1204.56
-137.838 -3363.85 1202.31
-141.359 -3367.35 1211.69
-141.084 -3367.46 1211.53
-141.723 -3367.13 1211.85
-141.945 -3367.19 1211.56
-142.237 -3367.23 1211.2
-148.077 -3363.97 1206.38
-148.169 -3363.3 1205.49
-148.005 -3363.04 1205.07
-147.912 -3362.95 1204.74
-147.893 -3363.14 1205.26
-147.959 -3362.9 1204.36
-142.01 -3367.44 1210.67
-142.125 -3367.35 1210.92
-141.914 -3367.33 1209.87
-143.981 -3366.27 1208.8
-146.461 -3364.94 1207.48
-142.093 -3367.19 1209.6
-141.617 -3367.31 1209.76
-146.769 -3364.78 1207.19
-140.671 -3367.54 1211.36
-148.132 -3362.79 1203.1
-147.753 -3362.79 1203.12
-146.718 -3362.11 1199.58
-146.349 -3361.91 1198.67
-146.695 -3361.35 1197.33
-144.951 -3361.32 1196.97
-145.292 -3360.78 1195.78
-145.196 -3360.88 1196.04
-145.368 -3360.76 1195.55
-145.309 -3360.73 1195.22
-144.462 -3360.91 1194.08
-142.754 -3361.15 1193.23
-143.823 -3360.96 1194.26
-141.813 -3361.38 1193.88
-130.288 -3366.2 1206.8
-131.302 -3366.46 1206.99
-130.84 -3366.29 1206.76
-132.067 -3366.5 1207.09
-134.03 -3366.55 1207.71
-138.793 -3367.19 1209.52
-141.322 -3367.49 1211.34
-140.713 -3367.26 1209.49
-141.227 -3367.29 1209.64
-141.751 -3367.37 1211.33
-141.885 -3361.82 1196.48
-141.582 -3362.22 1198.49
-140.566 -3362.65 1200.26
-138.488 -3363.03 1200.65
-139.935 -3362.9 1200.94
-131.72 -3366.28 1206.68
-136.283 -3365.32 1206
-135.098 -3365.82 1206.61
-133.714 -3365.59 1205.73
-132.459 -3366.27 1206.66
-137.383 -3364.89 1204.81
-138.681 -3363.65 1202.18
-147.874 -3363.95 1206.27
-147.838 -3363.34 1205.5
-147.595 -3363.24 1205.34
-146.58 -3362.99 1204.8
-146.35 -3362.83 1204.33
-146.247 -3362.69 1203.77
-146.614 -3363.11 1205.08
-147.57 -3362.91 1204.31
-143.828 -3366.24 1208.7
-141.801 -3367.09 1209.38
-146.546 -3364.75 1207.09
-143.552 -3366.24 1208.6
-147.144 -3362.47 1201.44
-146.049 -3362.55 1203.17
-144.98 -3362.04 1200.27
-144.179 -3361.94 1198.57
-143.827 -3361.88 1198.12
-143.903 -3361.77 1197.78
-143.849 -3361.35 1196.54
-144.529 -3360.88 1195.72
-144.594 -3360.83 1195.51
-144.914 -3360.77 1195.35
-143.327 -3361.07 1194.61
-142.965 -3361.21 1195.1
-134.46 -3366.44 1207.56
-138.774 -3367.02 1209.13
-141.332 -3367.04 1209.21
-139.25 -3366.88 1208.89
-143.083 -3361.35 1195.96
-142.657 -3362.29 1200.63
-143.424 -3362.08 1200.14
-142.373 -3362.52 1201.42
-142.192 -3362.74 1202.14
-141.857 -3362.94 1202.48
-139.676 -3363.2 1201.72
-139.072 -3365 1206.26
-137.248 -3366.11 1207.56
-139.219 -3365.15 1206.64
-138.721 -3364.26 1203.5
-139.085 -3364.56 1204.86
-139.45 -3364.75 1205.8
-141.823 -3363.38 1203.44
-147.563 -3364.01 1206.27
-147.555 -3363.49 1205.65
-146.612 -3363.29 1205.37
-145.302 -3363.02 1204.59
-144.435 -3362.68 1203.57
-144.473 -3362.35 1202.66
-144.597 -3362.21 1202.15
-145.564 -3363.2 1205.11
-146.005 -3364.79 1207.1
-143.124 -3366.29 1208.56
-146.361 -3362.39 1201.86
-145.465 -3362.08 1200.62
-144.949 -3362.2 1201.97
-144.367 -3362.13 1201.61
-144.01 -3362.03 1199.9
-144.699 -3362.15 1201.81
-139.938 -3366.71 1208.7
-141.586 -3366.92 1209.06
-143.87 -3362.27 1202.01
-143.84 -3362.43 1202.64
-143.321 -3363.43 1204.55
-143.675 -3363.67 1205.25
-139.68 -3365.31 1207.05
-144.303 -3363.73 1205.61
-140.909 -3364.09 1204.43
-146.407 -3364.38 1206.6
-146.585 -3363.42 1205.55
-142.643 -3366.24 1208.42
-139.596 -3365.8 1207.66
-141.708 -3365.82 1207.91
-140.785 -3366.75 1208.79
-142.216 -3364.76 1206.8
-144.545 -3363.86 1205.89
-145.646 -3364.02 1206.14
