-35.6237 -3329.88 1260.64
-36.2754 -3330.37 1260.25
-28.8887 -3326 1264.02
-29.5304 -3325.83 1263.14
-30.1794 -3326.64 1263.69
-37.9659 -3331.78 1259.35
-42.2213 -3336.21 1256.81
-39.2646 -3332.88 1258.74
-40.8686 -3334.57 1257.48
-41.8455 -3335.66 1256.51
-45.9542 -3340.47 1258.55
-46.1652 -3340.7 1258.72
-46.1681 -3340.75 1258.92
-45.9465 -3340.51 1258.33
-46.1033 -3340.74 1259.15
-43.3252 -3337.71 1255.97
-44.2657 -3339.3 1256.09
-44.6194 -3339.4 1256.9
-45.6176 -3340.37 1257.73
-45.1794 -3340.27 1256.91
-44.3998 -3339.69 1255.63
-46.0089 -3340.62 1258.15
-45.8369 -3340.54 1257.91
-49.4383 -3345.96 1266.13
-49.6027 -3346.09 1265.88
-50.1585 -3346.71 1266.86
-47.9547 -3344.83 1263.06
-47.485 -3344.68 1262.02
-48.8214 -3345.33 1264.25
-47.2677 -3344.58 1261.76
-48.9591 -3345.41 1264.62
-50.6468 -3347.03 1267.09
-51.3179 -3347.36 1267.54
-52.5153 -3348 1267.85
-45.8966 -3342.77 1261.63
-45.7097 -3342.26 1261.48
-45.6197 -3341.23 1260.7
-46.0408 -3340.85 1259.54
-46.0955 -3343.15 1261.49
-46.2971 -3343.52 1261.42
-46.7342 -3344.12 1261.65
-46.9434 -3344.32 1261.74
-46.4751 -3343.8 1261.52
-53.3156 -3348.43 1267.87
-35.1882 -3328.21 1252.84
-35.2592 -3328.33 1251.7
-35.6472 -3329.1 1250.14
-35.4327 -3328.65 1249.12
-35.6235 -3329.05 1249.64
-35.6399 -3328.74 1248.27
-37.2781 -3327.83 1243.22
-35.8542 -3327.52 1245.51
-36.0392 -3329.06 1247.58
-34.695 -3327.84 1256.43
-35.113 -3328.13 1255.57
-36.5035 -3329.26 1254.59
-34.1752 -3327.72 1257.57
-32.8902 -3327.73 1259.53
-35.6299 -3328.74 1257.8
-36.6622 -3329.53 1257.46
-37.0659 -3329.7 1256.74
-31.2853 -3327.06 1262.28
-30.7087 -3326.52 1262.68
-30.6807 -3326.1 1261.91
-29.582 -3325.34 1261.94
-30.3647 -3326.41 1262.98
-29.46 -3325.45 1262.4
-53.8026 -3348.68 1267.87
-54.6845 -3348.95 1267.79
-54.2896 -3348.88 1267.76
-55.1331 -3349.03 1267.63
-55.5332 -3349.04 1267.65
-56.0158 -3349.02 1267.58
-56.5696 -3348.96 1267.5
-56.8056 -3348.9 1267.64
-56.9621 -3348.94 1267.32
-57.1263 -3348.91 1267.13
-56.6634 -3349 1266.87
-56.7676 -3348.98 1266.97
-56.8753 -3348.96 1267.07
-56.386 -3349.01 1266.8
-58.3866 -3347.85 1264.36
-57.3706 -3348.55 1265.93
-58.264 -3348.14 1265.12
-58.1384 -3347.95 1264.7
-58.081 -3348.09 1265.04
-56.1927 -3348.98 1266.67
-58.5863 -3347.49 1261.26
-58.6745 -3347.32 1260.7
-58.4682 -3347.65 1262.65
-58.2548 -3347.74 1263.98
-59.2483 -3346.98 1259.69
-57.8162 -3346.48 1258.84
-57.0269 -3346.01 1258.1
-57.4169 -3345.11 1255.18
-55.3284 -3341.6 1245.99
-55.7996 -3343.75 1252.53
-55.2389 -3342.51 1249.19
-55.5452 -3343.04 1250.92
-55.9406 -3343.25 1251.07
-55.6999 -3344.63 1255.29
-34.1387 -3328.37 1259.22
-35.3985 -3329.15 1259.14
-36.1752 -3329.74 1258.95
-37.6839 -3330.97 1258.39
-30.0326 -3326.31 1263.17
-38.9458 -3332.04 1257.88
-42.9055 -3337.13 1255.82
-39.6502 -3332.74 1257.44
-40.6978 -3333.82 1256.41
-42.0624 -3335.51 1254.94
-46.1527 -3340.73 1258.5
-46.4362 -3341.07 1258.83
-46.4066 -3341.03 1258.62
-46.2928 -3340.99 1259.07
-46.4309 -3341.13 1258.97
-46.1792 -3340.78 1258.32
-46.2198 -3340.96 1259.26
-44.1896 -3339.32 1255.31
-45.0725 -3340.79 1255.79
-45.1219 -3340.75 1256.02
-45.3786 -3340.56 1256.83
-45.7497 -3340.58 1257.58
-45.2149 -3340.79 1256.06
-45.0265 -3340.84 1255.49
-45.9872 -3340.72 1257.87
-46.1963 -3340.81 1258.12
-49.781 -3346.2 1265.67
-50.4484 -3346.9 1266.71
-48.1532 -3344.96 1262.96
-47.5637 -3344.74 1261.78
-49.1002 -3345.47 1264.31
-47.1747 -3344.49 1261.49
-47.4767 -3344.69 1261.53
-51.3317 -3347.39 1267.13
-52.4616 -3348.05 1267.54
-53.3087 -3348.49 1267.65
-45.9295 -3342.77 1261.26
-45.8721 -3341.71 1260.46
-46.2054 -3341.17 1259.54
-46.1371 -3343.19 1261.27
-46.3422 -3343.47 1261.12
-46.46 -3343.72 1261.26
-46.6087 -3343.96 1261.43
-46.9556 -3344.29 1261.35
-35.759 -3328.82 1252.5
-37.1121 -3329.79 1253.58
-36.8121 -3330.89 1249.78
-35.9094 -3329.15 1251.52
-37.6548 -3332.3 1249.06
-37.4864 -3332.06 1248.85
-37.5044 -3332.01 1248.64
-37.6493 -3332.12 1248.36
-38.1661 -3329.47 1244.39
-40.8295 -3331.32 1242.62
-36.6241 -3329.88 1247.42
-37.3181 -3330.69 1247.16
-37.7079 -3330.17 1255.89
-38.7091 -3331.04 1254.41
-38.0695 -3330.66 1256.91
-38.567 -3331.02 1256.27
-53.847 -3348.76 1267.68
-54.8371 -3349.03 1267.52
-54.394 -3348.93 1267.56
-55.3833 -3349.08 1267.42
-55.895 -3349.06 1267.41
-56.467 -3349.01 1267.3
-56.1086 -3349.04 1267.03
-56.2623 -3349.04 1267.17
-55.7815 -3349.06 1266.94
-57.9212 -3347.75 1264.32
-57.1198 -3348.51 1265.81
-55.9903 -3348.91 1266.52
-57.8106 -3347.99 1264.86
-56.8512 -3348.48 1265.71
-55.6515 -3349.02 1266.75
-57.4435 -3347.15 1260.79
-57.5503 -3346.99 1260.29
-57.458 -3347.38 1263.51
-57.528 -3347.32 1262.27
-56.989 -3347.01 1260.69
-56.6112 -3347.11 1263.47
-56.7451 -3346.73 1260.03
-56.2712 -3345.73 1257.9
-53.0975 -3340.98 1247.15
-50.4381 -3339.63 1246.34
-52.4942 -3340.24 1245.56
-52.356 -3339 1243.21
-53.8618 -3343.43 1253.9
-54.3139 -3343.21 1252.81
-54.4493 -3342.13 1250.38
-54.2962 -3341.93 1249.62
-53.3926 -3341.29 1248.78
-54.177 -3342.31 1251.29
-54.3776 -3342.27 1250.88
-55.2558 -3344.84 1256.62
-55.7195 -3345.54 1257.93
-54.2274 -3343.88 1255.02
-39.1261 -3331.64 1256.46
-43.9103 -3338.77 1254.89
-39.9715 -3332.52 1255.84
-41.5439 -3334.47 1254.29
-43.1822 -3336.44 1252.43
-43.7901 -3338.42 1254.34
-43.9024 -3337.34 1251.69
-46.344 -3340.97 1258.45
-46.7366 -3341.34 1258.7
-46.7036 -3341.37 1258.84
-46.6643 -3341.22 1258.52
-46.529 -3341.14 1258.42
-46.42 -3341.21 1259.2
-46.5675 -3341.3 1259.03
-46.3742 -3340.97 1258.28
-44.855 -3340.63 1254.95
-45.0423 -3340.95 1255.19
-45.1657 -3340.88 1255.75
-45.1028 -3340.91 1255.5
-45.5165 -3340.78 1256.78
-45.328 -3340.89 1256.11
-45.8432 -3340.71 1257.52
-45.2683 -3340.94 1255.83
-46.1662 -3340.89 1257.86
-45.9845 -3340.84 1257.59
-46.3866 -3340.99 1258.09
-49.9867 -3346.31 1265.58
-51.1452 -3347.26 1266.71
-47.7877 -3344.85 1261.84
-48.3568 -3345.06 1262.83
-48.9469 -3345.33 1263.9
-47.7143 -3344.81 1261.49
-49.48 -3345.66 1264.42
-47.4 -3344.62 1261.32
-47.7229 -3344.79 1261.29
-52.5707 -3348.14 1267.26
-53.3482 -3348.56 1267.47
-46.145 -3343.06 1261.04
-46.0523 -3341.96 1260.31
-46.2553 -3342.21 1260.15
-46.4523 -3341.48 1259.36
-46.5612 -3343.65 1261
-46.3922 -3343.33 1260.87
-46.652 -3343.94 1261.2
-47.1833 -3344.46 1261.18
-46.9112 -3344.17 1261.1
-42.5918 -3331.9 1240.8
-36.3363 -3329.5 1252.08
-37.3214 -3330.05 1252.99
-39.0819 -3331.45 1253.75
-37.5168 -3331.91 1249.67
-38.4437 -3333.42 1249.16
-36.5158 -3330.06 1251.03
-38.369 -3333.38 1248.89
-38.2596 -3333.18 1248.75
-38.25 -3333.17 1248.57
-38.1331 -3332.82 1248.3
-39.6884 -3331.81 1245.22
-38.2367 -3331.55 1246.82
-42.1306 -3332.74 1243.01
-40.2993 -3332.53 1245.45
-38.5486 -3333.32 1248.23
-38.8368 -3331.21 1255.4
-39.6109 -3332 1254.53
-39.7055 -3332.14 1255.42
-53.9659 -3348.82 1267.49
-54.9496 -3349.07 1267.3
-54.5341 -3348.99 1267.35
-55.7678 -3349.08 1267.25
-55.3292 -3349.06 1267.17
-55.6523 -3349.06 1267.09
-55.3445 -3349.02 1266.91
-57.4187 -3347.76 1264.51
-56.8941 -3347.34 1263.97
-55.7203 -3348.88 1266.43
-55.4796 -3348.97 1266.62
-56.5079 -3348.43 1265.61
-56.8948 -3347.71 1264.56
-55.3951 -3348.83 1266.33
-55.2484 -3348.97 1266.7
-56.3082 -3346.89 1262.83
-55.5673 -3346.61 1262.69
-56.5478 -3346.92 1261.75
-56.6003 -3346.8 1260.44
-55.0738 -3346.72 1263.2
-54.8484 -3346.46 1262.68
-56.183 -3346.44 1259.65
-51.5153 -3340.28 1247.83
-50.509 -3339.71 1246.69
-48.9444 -3338.88 1246.1
-50.2447 -3339.76 1248.34
-48.4415 -3338.97 1247.36
-51.5952 -3339.34 1244.46
-50.289 -3338.41 1243.73
-49.1128 -3336.8 1242.2
-51.9111 -3342.72 1254.54
-51.352 -3342.24 1253.88
-53.7966 -3342.52 1252.15
-52.922 -3342.02 1252.12
-53.3215 -3341.44 1250.64
-53.3731 -3341.33 1250.17
-52.6638 -3340.96 1249.77
-53.3108 -3341.47 1250.95
-55.2546 -3345.36 1258.05
-54.6709 -3344.5 1256.8
-55.6791 -3346.08 1259.31
-53.8351 -3343.88 1256.8
-53.3689 -3343.5 1256.11
-52.5868 -3343.11 1256.1
-44.9543 -3340.79 1254.61
-41.457 -3334.34 1253.89
-42.5792 -3335.73 1252.68
-43.1054 -3336.31 1251.54
-43.6288 -3336.64 1250.5
-44.3549 -3339.02 1253.42
-45.1247 -3340.99 1254.36
-44.9469 -3339.75 1252.85
-44.6663 -3337.77 1249.89
-46.9943 -3341.24 1258.21
-46.9982 -3341.45 1258.52
-46.8916 -3341.54 1258.81
-46.7758 -3341.24 1258.16
-46.6052 -3341.16 1258.22
-46.7316 -3341.48 1259.03
-45.1208 -3341.07 1254.77
-45.1887 -3341.21 1254.87
-45.1493 -3341.09 1255.18
-45.3003 -3341.13 1255.62
-45.2097 -3341.04 1255.43
-45.4424 -3341.15 1256.17
-45.6657 -3341.05 1256.75
-45.4014 -3341.26 1255.87
-46.3588 -3341.06 1257.85
-46.1561 -3340.99 1257.61
-45.8117 -3341.32 1256.76
-46.5744 -3341.14 1258.05
-50.2237 -3346.44 1265.53
-51.551 -3347.47 1266.56
-52.6755 -3348.19 1267.04
-47.929 -3344.91 1261.71
-48.5679 -3345.13 1262.69
-49.1653 -3345.4 1263.86
-47.9316 -3344.88 1261.4
-49.6688 -3345.69 1264.26
-50.4896 -3346.51 1265.36
-47.5391 -3344.78 1261.23
-47.7838 -3344.74 1261.05
-47.9867 -3344.86 1261.18
-53.4748 -3348.62 1267.27
-46.4832 -3342.52 1260.08
-46.7177 -3341.73 1259.19
-46.6277 -3343.52 1260.75
-46.7583 -3343.86 1260.94
-47.3087 -3344.48 1260.98
-47.0309 -3344.14 1260.88
-43.8178 -3332.88 1240.84
-37.5333 -3330.38 1252.39
-36.7135 -3330.09 1251.45
-38.8231 -3331.26 1253.23
-40.4726 -3333.19 1253.34
-40.8025 -3333.55 1253.71
-37.8414 -3332.26 1249.8
-38.5934 -3333.48 1249.53
-38.812 -3333.91 1249
-38.7871 -3333.88 1249.27
-37.1472 -3330.94 1250.51
-38.7306 -3333.79 1248.71
-38.9316 -3334.04 1248.87
-38.7277 -3333.72 1248.5
-38.6459 -3333.48 1248.32
-39.3782 -3332.87 1246.85
-38.854 -3332.36 1246.87
-38.7295 -3333.35 1247.98
-43.0093 -3334.1 1244.44
-40.7757 -3333.02 1245.68
-44.4882 -3334.02 1242.21
-39.6653 -3333.22 1247
-38.9709 -3333.63 1248.03
-54.0748 -3348.87 1267.3
-54.9605 -3349.02 1267.07
-54.485 -3348.95 1267.13
-54.8972 -3348.96 1266.87
-56.1056 -3347.14 1263.84
-55.2464 -3348.9 1266.51
-56.1554 -3348.35 1265.52
-55.0981 -3348.64 1266.05
-54.9724 -3348.76 1266.28
-55.7453 -3347.16 1263.96
-55.7836 -3348.13 1265.25
-54.827 -3348.9 1266.67
-55.6104 -3346.56 1262.29
-54.9738 -3346.32 1262.29
-56.0883 -3346.71 1261.4
-56.101 -3346.52 1260.1
-54.7488 -3346.8 1263.51
-54.3778 -3346.43 1262.98
-53.6709 -3345.66 1262.21
-53.8108 -3345.49 1261.73
-50.6598 -3339.89 1248.21
-48.1514 -3338.53 1246.17
-47.7381 -3338.89 1247.68
-50.0286 -3339.74 1248.63
-52.5028 -3341.02 1250.27
-52.0006 -3340.93 1250.37
-48.4248 -3339.17 1247.96
-49.1368 -3337.78 1243.72
-47.2432 -3338.07 1246.21
-47.0726 -3336.44 1243.56
-51.8711 -3342.77 1256.07
-50.5282 -3342.02 1254.43
-51.0966 -3341.8 1252.77
-50.4153 -3341.63 1253.38
-52.1668 -3341.7 1251.82
-54.7793 -3345.06 1258.03
-55.1622 -3345.77 1259.32
-53.8404 -3344.02 1257.41
-55.5743 -3346.17 1259.78
-52.9542 -3343.49 1257.93
-52.7724 -3343.31 1257.59
-52.4228 -3343.17 1257.55
-42.1213 -3335.28 1252.87
-42.2931 -3335.56 1252.14
-42.6675 -3335.96 1251.47
-43.09 -3336.05 1250.63
-43.9912 -3336.28 1248.7
-45.643 -3341.56 1254.05
-45.263 -3340.16 1252.71
-45.7657 -3341.49 1253.54
-45.0806 -3337.69 1248.7
-45.5194 -3340.32 1252.26
-47.0992 -3341.29 1258
-47.3607 -3341.41 1258.06
-47.2859 -3341.44 1258.24
-47.1509 -3341.63 1258.61
-47.212 -3341.57 1258.46
-47.0205 -3341.71 1258.85
-46.8809 -3341.23 1258
-45.6641 -3341.75 1254.47
-45.3059 -3341.4 1254.86
-45.2628 -3341.27 1255.14
-45.4281 -3341.41 1255.63
-45.3412 -3341.31 1255.37
-45.5435 -3341.46 1256.14
-45.5248 -3341.59 1255.85
-46.5572 -3341.19 1257.84
-46.36 -3341.13 1257.63
-46.162 -3341.09 1257.39
-45.935 -3341.65 1256.66
-45.7712 -3341.95 1256.23
-45.6387 -3341.77 1256.07
-46.8017 -3341.2 1257.91
-52.1963 -3347.81 1266.49
-53.1278 -3348.41 1266.92
-48.0676 -3344.96 1261.65
-48.8135 -3345.19 1262.55
-49.3525 -3345.44 1263.77
-48.1295 -3344.93 1261.32
-49.7247 -3345.63 1264.01
-51.0135 -3346.76 1265.35
-50.0987 -3345.86 1264.31
-47.5481 -3344.54 1260.88
-48.0329 -3344.74 1260.92
-47.7703 -3344.57 1260.81
-48.2352 -3344.84 1261.02
-53.7825 -3348.74 1267.11
-46.7114 -3342.83 1260.06
-46.775 -3342.04 1259.28
-46.7487 -3343.53 1260.58
-47.0368 -3341.96 1258.99
-46.8771 -3343.79 1260.7
-47.3085 -3344.35 1260.77
-47.1334 -3344.04 1260.64
-37.7562 -3330.86 1251.67
-38.7425 -3331.27 1252.8
-40.2529 -3333.08 1252.92
-41.4648 -3334.79 1252.32
-38.1042 -3332.39 1250.12
-38.6685 -3333.36 1249.91
-38.9038 -3333.88 1249.65
-38.847 -3333.66 1249.85
-38.9613 -3334.05 1249.15
-38.9413 -3334 1249.5
-38.1865 -3331.43 1251.43
-38.9698 -3334.04 1248.69
-39.0808 -3334.16 1248.93
-38.8688 -3333.75 1248.26
-38.9884 -3333.99 1248.49
-39.0375 -3333.57 1247.89
-42.9164 -3334.75 1246.83
-41.8461 -3333.68 1245.62
-41.3232 -3333.43 1245.67
-44.6228 -3335.91 1246.12
-46.218 -3336.98 1245.45
-40.8517 -3333.32 1246.13
-39.9304 -3333.45 1247.08
-39.2287 -3333.77 1247.97
-39.1695 -3333.9 1248.16
-54.3368 -3348.86 1266.93
-54.7152 -3348.85 1266.53
-54.7181 -3348.39 1265.78
-54.5452 -3348.53 1266.06
-54.2834 -3348.62 1266.32
-55.1124 -3347.72 1264.82
-54.1339 -3347.4 1264.58
-54.3167 -3348.78 1266.66
-55.2314 -3346.32 1262.01
-53.4969 -3344.9 1260.76
-54.738 -3345.97 1261.69
-55.6727 -3346.43 1260.99
-54.2711 -3346.65 1263.41
-53.4789 -3345.9 1262.73
-52.8357 -3345.03 1261.75
-52.4949 -3344.07 1260.02
-52.5246 -3343.77 1259.19
-46.8934 -3339.49 1249.11
-47.36 -3339.82 1249.29
-47.0351 -3339.68 1249.24
-49.769 -3339.72 1248.84
-50.9879 -3341.03 1251.14
-48.3667 -3339.36 1248.37
-49.8104 -3340.25 1249.92
-46.6483 -3339.42 1249.13
-46.3242 -3339.18 1249.07
-52.0645 -3343.04 1257.48
-50.5039 -3342.38 1256.09
-49.7305 -3341.74 1254.47
-50.2384 -3341.44 1252.8
-54.4073 -3345.34 1259.83
-53.8768 -3344.54 1258.64
-55.0001 -3345.89 1260.49
-53.2775 -3344.18 1259.15
-52.6062 -3343.42 1258.29
-53.2589 -3344.37 1259.72
-52.2952 -3343.24 1258.12
-41.7749 -3335.22 1252.02
-42.1772 -3335.5 1251.51
-41.9413 -3335.37 1251.65
-42.6132 -3335.69 1250.93
-43.1854 -3335.62 1249.06
-45.5488 -3337.15 1247.02
-45.9581 -3342.05 1253.91
-45.9672 -3342.72 1254.68
-45.979 -3342.68 1254.68
-45.7804 -3342.16 1254.54
-46.0607 -3341.6 1253.13
-45.703 -3340.12 1251.66
-47.1448 -3341.28 1257.84
-47.4324 -3341.4 1257.87
-47.8372 -3341.61 1257.84
-47.7054 -3341.64 1258.11
-47.4442 -3341.72 1258.5
-47.3204 -3341.83 1258.73
-47.075 -3341.25 1257.75
-45.802 -3342.06 1254.61
-45.9877 -3342.61 1254.64
-45.3871 -3341.52 1255.08
-45.5453 -3341.68 1255.6
-45.4695 -3341.6 1255.36
-45.6372 -3341.85 1255.81
-46.5457 -3341.26 1257.63
-46.8208 -3341.25 1257.71
-46.3428 -3341.23 1257.37
-46.0443 -3341.75 1256.64
-45.856 -3342.15 1256.14
-45.7442 -3342.06 1255.99
-53.1265 -3348.33 1266.65
-53.7359 -3348.66 1266.85
-48.2498 -3345.01 1261.58
-49.1083 -3345.25 1262.44
-49.5501 -3345.47 1263.62
-48.3016 -3344.95 1261.25
-49.9648 -3345.66 1263.88
-51.4535 -3346.93 1265.26
-53.0231 -3348.2 1266.37
-50.5291 -3345.87 1264.05
-47.6396 -3344.44 1260.68
-47.468 -3344.39 1260.7
-48.1893 -3344.68 1260.73
-47.949 -3344.54 1260.64
-48.5097 -3344.94 1261.2
-48.4641 -3344.78 1260.88
-46.9474 -3343.05 1259.97
-47.0692 -3342.22 1259.13
-46.9737 -3343.73 1260.51
-47.3451 -3342.08 1258.89
-47.3531 -3344.18 1260.53
-47.1876 -3343.92 1260.43
-38.8248 -3331.47 1252.46
-39.9613 -3332.93 1252.48
-40.9015 -3334.45 1251.87
-41.0965 -3334.69 1251.76
-41.3335 -3334.93 1251.56
-38.8028 -3332.6 1250.97
-39.5443 -3333.49 1251.08
-39.6951 -3333.8 1250.88
-39.7695 -3334.07 1250.69
-39.1394 -3334.04 1249.83
-39.0357 -3334.09 1249.43
-39.1311 -3334.18 1249.28
-39.1858 -3334.15 1249.74
-39.5275 -3332.54 1252.21
-39.1834 -3334.2 1248.74
-39.2395 -3334.26 1248.95
-39.1726 -3334.13 1248.51
-42.457 -3334.82 1248.35
-42.4865 -3335.55 1250.29
-41.7438 -3333.89 1246.52
-41.2101 -3333.6 1246.28
-45.9548 -3338.76 1248.88
-40.172 -3333.64 1247.15
-41.0684 -3333.61 1246.65
-39.4224 -3333.88 1247.95
-39.2887 -3333.99 1248.17
-39.2516 -3334.13 1248.35
-54.1141 -3348.16 1265.65
-53.8184 -3348.21 1265.88
-53.6366 -3348.3 1266.14
-53.7704 -3348.55 1266.54
-52.9908 -3346.57 1263.88
-54.8983 -3345.97 1261.51
-54.3294 -3345.5 1260.97
-52.0728 -3345.65 1263.05
-52.3648 -3344.62 1261.19
-51.9236 -3343.7 1259.6
-51.9381 -3343.38 1258.9
-52.183 -3343.38 1258.71
-46.3039 -3340.64 1251.64
-46.4557 -3340.86 1252
-46.77 -3340.43 1250.62
-47.6629 -3339.89 1249.33
-47.1791 -3340.64 1250.71
-46.6749 -3340.95 1252.02
-47.9992 -3340.05 1249.58
-49.5119 -3340.23 1249.91
-49.8322 -3341.21 1252.08
-45.9351 -3340.56 1251.99
-46.1201 -3340.78 1252.07
-51.9 -3343.1 1258.06
-50.9779 -3342.67 1257.05
-49.5396 -3342.28 1256.64
-48.304 -3341.72 1257.31
-48.1013 -3341.64 1257.14
-48.8329 -3341.9 1255.7
-49.1952 -3341.64 1254.55
-49.7672 -3341.54 1253.65
-49.6721 -3341.33 1252.89
-41.5402 -3335.1 1251.28
-41.715 -3335.2 1251.06
-42.0772 -3335.36 1250.9
-42.2237 -3335.46 1250.63
-46.0538 -3342.59 1254.44
-45.8959 -3342.92 1254.94
-45.827 -3342.95 1254.68
-45.6996 -3343.08 1254.82
-45.8839 -3342.81 1254.52
-45.7073 -3341.71 1254.36
-46.1668 -3341.68 1253.22
-47.4301 -3341.39 1257.68
-48.4866 -3342.01 1257.67
-49.0439 -3342.13 1257.22
-47.888 -3341.95 1258.33
-48.4184 -3342.12 1257.95
-47.6163 -3341.98 1258.67
-47.3231 -3341.32 1257.56
-47.0652 -3341.29 1257.52
-45.8324 -3342.11 1254.63
-45.9656 -3342.68 1254.41
-45.4884 -3341.69 1255.07
-45.5821 -3341.83 1255.26
-45.6533 -3341.93 1255.57
-45.7436 -3342.08 1255.76
-46.5046 -3341.37 1257.33
-46.7697 -3341.31 1257.52
-46.1494 -3341.83 1256.59
-45.9209 -3342.23 1256.04
-45.8168 -3342.19 1255.88
-48.4979 -3345.01 1261.49
-49.3814 -3345.27 1262.31
-49.7999 -3345.49 1263.42
-50.0858 -3345.61 1263.59
-50.5337 -3345.66 1263.62
-52.168 -3347.07 1265.03
-51.1233 -3346.05 1264.05
-47.6722 -3344.31 1260.48
-47.5121 -3344.23 1260.48
-47.8689 -3344.4 1260.48
-48.3438 -3344.59 1260.55
-48.1229 -3344.46 1260.44
-48.7464 -3344.96 1261.25
-48.7125 -3344.82 1260.96
-48.5963 -3344.68 1260.69
-47.1896 -3343.14 1259.81
-47.3907 -3342.44 1259.03
-47.6691 -3342.39 1258.83
-47.589 -3343.37 1259.63
-47.4585 -3343.22 1259.66
-40.707 -3334.52 1251.34
-40.8646 -3334.64 1251.12
-39.8418 -3334.21 1250.57
-39.9445 -3334.34 1250.46
-39.2333 -3334.22 1249.63
-39.3937 -3334.31 1249.53
-39.3063 -3334.28 1249.21
-40.0555 -3334.47 1250.27
-39.4309 -3334.36 1248.94
-39.3922 -3334.31 1248.72
-39.3826 -3334.26 1248.53
-42.0692 -3334.97 1249.52
-42.0947 -3334.5 1247.99
-42.1026 -3335.34 1250.16
-41.5482 -3333.93 1247.03
-40.4371 -3333.87 1247.32
-39.6872 -3334.01 1247.89
-39.5057 -3334.05 1248.07
-39.4573 -3334.2 1248.32
-52.4186 -3347.12 1264.94
-51.8067 -3345.13 1262.29
-51.1135 -3345.74 1263.55
-51.7924 -3343.92 1260.06
-50.9426 -3343.26 1258.89
-51.0211 -3343.1 1258.36
-50.9917 -3342.88 1257.76
-46.2622 -3341.47 1253.13
-46.3387 -3341.53 1253.27
-46.7822 -3341.13 1252.39
-47.4332 -3340.86 1251.17
-47.6371 -3340.74 1250.97
-46.3967 -3341.51 1253.32
-48.6014 -3340.39 1250.26
-48.6753 -3340.93 1251.46
-48.1094 -3341.29 1252.63
-46.2225 -3341.71 1253.35
-49.9683 -3342.51 1257.08
-48.1444 -3341.63 1256.58
-47.6264 -3341.46 1257.37
-48.5565 -3341.63 1255.62
-48.7361 -3341.54 1254.81
-49.0807 -3341.36 1253.34
-41.0555 -3334.79 1250.89
-41.0473 -3334.93 1250.64
-41.5947 -3335.13 1250.72
-41.8264 -3335.14 1250.47
-45.9153 -3342.89 1254.82
-45.8197 -3342.99 1254.98
-45.6831 -3343.08 1254.54
-45.618 -3343.14 1254.66
-45.7737 -3342.93 1254.41
-45.4648 -3343.27 1254.73
-45.5371 -3343.22 1254.89
-45.8246 -3342.79 1254.24
-46.1224 -3342.58 1253.95
-46.0982 -3342.75 1254.32
-49.5654 -3342.46 1257.31
-49.2078 -3342.35 1257.7
-47.9435 -3342.28 1258.54
-48.3425 -3342.38 1258.27
-48.8612 -3342.31 1258.04
-47.3448 -3341.35 1257.24
-47.041 -3341.32 1257.3
-45.812 -3342.03 1254.69
-46.0353 -3342.52 1254.32
-45.9245 -3342.62 1254.18
-45.6545 -3341.88 1255.16
-45.9132 -3342.1 1254.58
-45.727 -3342.04 1255.47
-45.8008 -3342.17 1255.59
-46.2663 -3341.91 1256.53
-46.7737 -3341.37 1257.26
-45.8648 -3342.25 1255.74
-45.9374 -3342.32 1255.85
-49.6449 -3345.24 1262.17
-50.2957 -3345.52 1263.25
-50.8742 -3345.53 1263.23
-48.0912 -3343.71 1259.62
-47.9039 -3343.65 1259.64
-47.7662 -3343.5 1259.61
-48.292 -3343.7 1259.54
-48.3391 -3344.43 1260.31
-48.5569 -3344.53 1260.45
-48.9794 -3344.93 1261.2
-48.8506 -3344.76 1260.84
-48.7849 -3344.61 1260.58
-47.9831 -3342.65 1258.73
-40.1742 -3334.57 1250.08
-39.5582 -3334.4 1249.28
-40.2888 -3334.61 1249.89
-39.6154 -3334.45 1248.86
-39.6009 -3334.39 1248.66
-39.6156 -3334.32 1248.44
-41.773 -3334.76 1249.16
-41.6093 -3334.83 1249.68
-41.7435 -3335 1250.06
-41.7427 -3334.46 1248.04
-40.64 -3334.13 1247.71
-40.756 -3334.39 1248.2
-39.7587 -3334.2 1248.12
-51.1714 -3344.08 1260.45
-49.8958 -3342.98 1258.34
-50.0632 -3342.78 1258.01
-50.0109 -3342.63 1257.6
-46.2924 -3341.74 1253.6
-46.2889 -3341.77 1253.53
-47.1432 -3341.26 1252.53
-46.5447 -3341.45 1253.32
-46.3106 -3341.76 1253.59
-46.4645 -3341.59 1253.48
-47.8142 -3341.38 1253.17
-46.7363 -3341.49 1253.43
-46.9067 -3341.55 1253.59
-47.7549 -3341.47 1256.98
-47.9075 -3341.44 1256.39
-48.2729 -3341.44 1255.63
-48.3903 -3341.41 1254.91
-48.5683 -3341.45 1253.97
-41.2826 -3334.94 1250.31
-45.8771 -3343.04 1254.86
-45.8002 -3343.07 1255.02
-45.7622 -3343.04 1255.06
-45.6226 -3343.11 1254.37
-45.4341 -3343.29 1254.42
-45.4272 -3343.3 1254.56
-45.6894 -3342.97 1254.19
-45.1821 -3343.45 1254.6
-45.2181 -3343.42 1254.76
-45.2502 -3343.4 1254.92
-45.5124 -3343.24 1255.03
-45.8248 -3342.7 1254.03
-45.7276 -3342.84 1254.02
-46.0296 -3342.8 1253.72
-44.8962 -3340.34 1255.1
-46.0383 -3342.87 1253.98
-46.0158 -3342.89 1254.58
-46.0728 -3342.83 1254.17
-49.4381 -3342.58 1257.8
-48.317 -3342.74 1258.58
-48.5998 -3342.64 1258.44
-48.894 -3342.6 1258.31
-47.5386 -3341.42 1256.9
-47.151 -3341.34 1257.03
-46.0336 -3342.45 1254.13
-45.9234 -3342.53 1253.96
-45.7573 -3342.01 1255.23
-45.8971 -3342.02 1254.64
-46.1189 -3342.29 1254.04
-45.8476 -3342.19 1255.44
-46.397 -3342 1256.36
-46.0481 -3342.32 1255.96
-46.7838 -3341.52 1256.89
-45.9167 -3342.32 1255.61
-45.9803 -3342.4 1255.64
-49.905 -3345.14 1261.97
-50.6606 -3345.47 1263.07
-50.9702 -3345.21 1262.45
-48.4733 -3343.73 1259.5
-48.9495 -3342.86 1258.47
-48.7896 -3343.68 1259.42
-49.163 -3343.67 1259.39
-49.1611 -3344.85 1261.12
-49.1321 -3344.72 1260.86
-49.4294 -3343.88 1259.73
-39.7799 -3334.53 1249.09
-40.3743 -3334.64 1249.68
-39.8267 -3334.53 1248.82
-39.8209 -3334.46 1248.61
-39.838 -3334.38 1248.39
-40.7399 -3334.63 1249.03
-40.7997 -3334.58 1248.66
-41.3506 -3334.85 1249.91
-40.6174 -3334.69 1249.19
-50.8393 -3343.87 1260.02
-49.8784 -3343.16 1258.75
-49.4396 -3342.78 1258.08
-49.4863 -3342.94 1258.4
-46.9869 -3341.84 1254.31
-46.6061 -3341.67 1253.63
-47.7761 -3341.51 1254.13
-47.1147 -3341.61 1253.86
-46.7928 -3341.71 1253.86
-47.8525 -3341.37 1256.06
-47.6029 -3341.45 1256.5
-48.0819 -3341.35 1255.46
-47.6633 -3341.52 1254.78
-45.7988 -3343.16 1254.9
-45.7558 -3343.16 1255.01
-45.7174 -3343.09 1255.14
-45.7025 -3343.16 1255.14
-45.5384 -3343.18 1254.22
-45.3595 -3343.34 1254.26
-45.1046 -3343.49 1254.28
-45.1475 -3343.47 1254.44
-45.5738 -3343.08 1254.06
-45.6301 -3342.96 1253.97
-44.7146 -3343.49 1254.48
-44.6992 -3343.47 1254.63
-44.7907 -3343.44 1254.82
-45.3031 -3343.37 1255.08
-44.7944 -3343.42 1254.99
-45.6402 -3343.15 1255.21
-45.7456 -3342.74 1253.84
-45.8345 -3342.62 1253.86
-45.6566 -3342.86 1253.81
-45.949 -3342.94 1253.46
-46.127 -3342.18 1253.56
-45.954 -3343.05 1253.72
-45.9972 -3342.98 1253.94
-46.0642 -3342.87 1254.25
-45.9423 -3343.02 1254.66
-47.3464 -3341.39 1256.76
-47.0126 -3341.51 1256.67
-46.0071 -3342.4 1253.92
-45.9254 -3342.41 1253.68
-45.8283 -3342.07 1255.15
-46.0506 -3342.02 1254.41
-46.2024 -3342.09 1253.77
-46.1127 -3342.17 1253.76
-45.9152 -3342.25 1255.33
-46.4939 -3342.1 1256.19
-46.1055 -3342.4 1255.84
-46.043 -3342.47 1255.55
-46.0352 -3342.32 1255.35
-50.079 -3344.93 1261.57
-50.1373 -3344.58 1260.91
-49.8254 -3344.1 1260.11
-40.4691 -3334.71 1249.38
-46.5999 -3341.78 1254.32
-46.2011 -3341.94 1254.26
-46.3823 -3341.82 1254.92
-47.0118 -3341.69 1254.39
-46.7802 -3341.76 1254.91
-47.7758 -3341.34 1255.86
-47.4912 -3341.44 1256.18
-47.2769 -3341.46 1256.49
-47.4692 -3341.57 1255.29
-46.9691 -3341.79 1255.04
-45.7243 -3343.27 1254.94
-45.6806 -3343.25 1255.07
-45.592 -3343.2 1255.29
-45.6195 -3343.25 1255.23
-45.4427 -3343.26 1254.07
-45.297 -3343.39 1254.1
-45.0297 -3343.52 1254.11
-44.5694 -3343.54 1254.13
-44.6489 -3343.52 1254.31
-45.5069 -3343.11 1253.91
-45.5677 -3342.98 1253.79
-44.2626 -3343.51 1254.39
-44.1655 -3343.49 1254.55
-44.3687 -3343.47 1254.72
-44.335 -3343.45 1254.88
-45.2602 -3343.37 1255.21
-44.2438 -3343.43 1255.03
-44.7493 -3343.4 1255.14
-45.8174 -3342.55 1253.64
-45.7203 -3342.67 1253.6
-45.6209 -3342.8 1253.56
-45.8204 -3343.27 1253.3
-45.9375 -3342.92 1253.23
-46.0845 -3342.19 1253.38
-45.8809 -3343.2 1253.53
-45.912 -3343.15 1253.72
-45.9932 -3343.02 1254.02
-46.0462 -3342.93 1254.35
-45.8777 -3343.13 1254.69
-46.0062 -3342.31 1253.71
-46.0758 -3342.24 1253.81
-46.0124 -3342.33 1253.82
-46.0549 -3342.13 1253.56
-45.9512 -3342.08 1255.11
-46.1529 -3342.07 1255.14
-46.1487 -3342.51 1255.65
-46.5347 -3342.24 1255.97
-46.2593 -3342.31 1255.36
-46.4332 -3341.98 1255.11
-46.5955 -3342.05 1255.2
-47.2496 -3341.7 1255.6
-46.6516 -3342.27 1255.76
-46.762 -3342.06 1255.31
-45.6685 -3343.36 1254.95
-45.6198 -3343.36 1255.08
-45.5974 -3343.32 1255.19
-45.5279 -3343.26 1255.36
-45.5306 -3343.33 1255.34
-45.2749 -3343.41 1253.94
-45.4016 -3343.24 1253.86
-45.0213 -3343.54 1253.95
-44.4631 -3343.57 1253.96
-44.0127 -3343.57 1254.04
-44.1891 -3343.54 1254.2
-45.4805 -3343.08 1253.74
-45.5149 -3342.93 1253.52
-43.7644 -3343.52 1254.4
-43.8544 -3343.54 1254.25
-43.6048 -3343.51 1254.52
-43.9287 -3343.48 1254.69
-43.8389 -3343.46 1254.85
-45.0433 -3343.37 1255.32
-43.6892 -3343.44 1254.99
-43.9864 -3343.41 1255.16
-44.4887 -3343.39 1255.24
-45.9795 -3342.22 1253.52
-45.8937 -3342.32 1253.49
-45.8135 -3342.42 1253.45
-45.6926 -3343.38 1253.24
-45.68 -3343.39 1253.34
-45.7487 -3343.35 1253.43
-46.0731 -3342.67 1253.16
-45.8828 -3343.19 1253.82
-45.7564 -3343.35 1253.57
-45.9678 -3343.07 1254.08
-46.0079 -3343 1254.4
-45.8538 -3343.18 1254.66
-45.9173 -3342.49 1253.88
-46.4562 -3342.31 1255.51
-45.6784 -3343.39 1254.86
-45.5572 -3343.47 1255.06
-45.5192 -3343.4 1255.26
-45.5312 -3343.44 1255.16
-45.469 -3343.3 1255.44
-45.4461 -3343.38 1255.46
-45.4303 -3343.43 1255.37
-45.2822 -3343.38 1253.79
-45.0204 -3343.56 1253.77
-45.3995 -3343.18 1253.69
-45.3114 -3343.28 1253.64
-44.6208 -3343.59 1253.82
-44.1931 -3343.6 1253.79
-43.9725 -3343.58 1253.93
-43.6104 -3343.56 1254.15
-43.6278 -3343.57 1254.09
-45.3973 -3343.08 1253.48
-45.6101 -3342.7 1253.4
-45.712 -3342.56 1253.42
-43.4486 -3343.54 1254.28
-43.2406 -3343.53 1254.4
-43.1078 -3343.52 1254.52
-43.442 -3343.49 1254.66
-43.3184 -3343.47 1254.8
-44.8188 -3343.36 1255.42
-45.3754 -3343.34 1255.53
-43.1763 -3343.46 1254.94
-43.446 -3343.43 1255.12
-43.8516 -3343.4 1255.3
-44.3282 -3343.38 1255.37
-45.8802 -3342.49 1253.8
-45.8447 -3342.48 1253.68
-45.8866 -3342.25 1253.38
-45.8175 -3343.43 1253.13
-45.5153 -3343.46 1253.37
-45.4814 -3343.45 1253.3
-45.5383 -3343.47 1253.45
-45.5556 -3343.48 1253.54
-46.1339 -3342.55 1253.11
-45.7979 -3343.28 1253.85
-45.6528 -3343.44 1253.6
-45.9041 -3343.14 1254.14
-45.8888 -3343.14 1254.5
-45.8794 -3343.16 1254.26
-45.6937 -3343.37 1254.73
-45.5467 -3343.52 1254.96
-45.4394 -3343.52 1255.17
-45.4495 -3343.56 1255.07
-45.416 -3343.49 1255.28
-45.3362 -3343.46 1255.47
-45.3474 -3343.4 1255.58
-45.2941 -3343.53 1255.39
-45.1975 -3343.44 1253.64
-44.9169 -3343.6 1253.6
-44.4842 -3343.61 1253.67
-45.2889 -3343.22 1253.44
-44.206 -3343.61 1253.7
-43.967 -3343.59 1253.83
-43.8623 -3343.58 1253.92
-43.5913 -3343.57 1254.05
-43.2938 -3343.55 1254.25
-43.2532 -3343.54 1254.31
-43.2916 -3343.55 1254.2
-45.5153 -3342.82 1253.36
-45.7707 -3342.41 1253.34
-43.0001 -3343.53 1254.45
-42.8775 -3343.52 1254.54
-42.9479 -3343.5 1254.64
-42.7284 -3343.5 1254.65
-42.8151 -3343.49 1254.76
-44.98 -3343.33 1255.64
-45.2742 -3343.34 1255.63
-42.898 -3343.45 1255.06
-42.7041 -3343.47 1254.89
-43.3765 -3343.41 1255.26
-43.763 -3343.38 1255.46
-44.3017 -3343.36 1255.53
-45.8139 -3342.53 1253.72
-46.009 -3342.01 1253.31
-45.5221 -3343.49 1253.21
-45.9953 -3343.48 1253.02
-45.3556 -3343.54 1253.46
-45.308 -3343.53 1253.37
-45.3797 -3343.55 1253.56
-45.4789 -3343.54 1253.67
-45.3775 -3343.58 1253.63
-46.3952 -3343.28 1252.88
-45.8632 -3342.37 1253.21
-45.8625 -3342.22 1253.29
-45.7529 -3343.32 1253.98
-45.6403 -3343.46 1253.73
-45.8186 -3343.22 1254.29
-45.7923 -3343.25 1254.5
-45.7045 -3343.37 1254.05
-45.4884 -3343.57 1254.93
-45.6021 -3343.47 1254.74
-45.3273 -3343.56 1255.27
-45.3495 -3343.6 1255.16
-45.3701 -3343.64 1255.04
-45.2435 -3343.47 1255.61
-45.1813 -3343.54 1255.56
-45.2822 -3343.39 1255.73
-45.1053 -3343.62 1255.53
-45.1884 -3343.62 1255.38
-45.0888 -3343.54 1253.53
-45.1858 -3343.35 1253.4
-45.0849 -3343.53 1253.34
-44.6926 -3343.63 1253.45
-44.4751 -3343.62 1253.57
-45.4326 -3342.92 1253.32
-44.186 -3343.61 1253.65
-43.9237 -3343.6 1253.79
-43.6623 -3343.58 1253.92
-43.601 -3343.58 1254
-43.2908 -3343.56 1254.14
-42.973 -3343.54 1254.35
-42.9586 -3343.53 1254.41
-42.9934 -3343.54 1254.29
-45.627 -3342.61 1253.32
-45.7225 -3342.44 1253.29
-42.6803 -3343.51 1254.56
-42.5536 -3343.5 1254.67
-42.5575 -3343.49 1254.77
-42.3959 -3343.49 1254.79
-42.4244 -3343.48 1254.88
-45.2803 -3343.32 1255.85
-42.3951 -3343.47 1254.97
-42.4194 -3343.45 1255.11
-42.9035 -3343.42 1255.22
-43.2591 -3343.39 1255.4
-44.233 -3343.32 1255.75
-45.006 -3343.3 1255.88
-45.255 -3343.55 1253.29
-45.5848 -3343.28 1253.16
-45.7766 -3343.1 1253.12
-46.1543 -3343.35 1252.95
-45.1884 -3343.61 1253.47
-45.2388 -3343.61 1253.53
-45.1187 -3343.62 1253.41
-45.2654 -3343.63 1253.58
-45.4865 -3343.56 1253.73
-45.3695 -3343.63 1253.68
-45.2864 -3343.65 1253.62
-45.5869 -3343.51 1253.81
-45.7442 -3343.3 1254.36
-45.6567 -3343.42 1254.11
-45.6241 -3343.44 1254.62
-45.542 -3343.57 1253.85
-45.4347 -3343.61 1254.87
-45.2421 -3343.64 1255.25
-45.2681 -3343.68 1255.13
-45.284 -3343.72 1255.02
-45.1603 -3343.49 1255.71
-45.049 -3343.59 1255.68
-45.1933 -3343.42 1255.82
-44.9434 -3343.68 1255.67
-45.0002 -3343.7 1255.52
-45.083 -3343.71 1255.38
-45.3545 -3343.38 1253.22
-44.936 -3343.64 1253.32
-45.0655 -3343.62 1253.34
-44.791 -3343.61 1253.25
-44.4379 -3343.63 1253.52
-44.1673 -3343.61 1253.58
-43.9005 -3343.6 1253.74
-43.6429 -3343.59 1253.88
-43.3912 -3343.58 1254.01
-43.3077 -3343.57 1254.09
-42.9896 -3343.55 1254.23
-42.6408 -3343.53 1254.47
-42.6773 -3343.52 1254.5
-42.7314 -3343.54 1254.37
-42.4147 -3343.51 1254.63
-42.3373 -3343.5 1254.72
-42.1993 -3343.48 1254.83
-42.2059 -3343.47 1254.93
-42.0688 -3343.47 1254.94
-42.125 -3343.46 1255.02
-45.2065 -3343.36 1255.95
-42.0972 -3343.45 1255.09
-41.9811 -3343.44 1255.19
-42.3048 -3343.43 1255.26
-42.7482 -3343.41 1255.34
-43.2998 -3343.37 1255.58
-44.9978 -3343.26 1256.12
-45.218 -3343.31 1256.07
-45.1266 -3343.67 1253.47
-45.0418 -3343.69 1253.42
-45.1486 -3343.69 1253.51
-44.9765 -3343.69 1253.37
-45.1822 -3343.7 1253.56
-45.4485 -3343.61 1253.74
-45.3327 -3343.69 1253.69
-45.2383 -3343.71 1253.62
-45.6565 -3343.4 1254.44
-45.6024 -3343.48 1254.15
-45.5058 -3343.61 1253.88
-45.4922 -3343.56 1254.69
-45.4077 -3343.67 1253.75
-45.3319 -3343.7 1254.89
-45.1516 -3343.72 1255.23
-45.1814 -3343.76 1255.11
-45.1914 -3343.8 1255
-45.078 -3343.52 1255.79
-44.9499 -3343.62 1255.79
-45.1042 -3343.45 1255.92
-44.8422 -3343.76 1255.66
-44.8181 -3343.73 1255.78
-44.8649 -3343.8 1255.55
-44.9624 -3343.79 1255.4
-44.8779 -3343.7 1253.34
-44.6809 -3343.52 1253.16
-44.7746 -3343.71 1253.26
-43.882 -3343.56 1253.58
-44.1781 -3343.39 1253.03
-44.63 -3343.39 1253.05
-43.5972 -3343.59 1253.84
-43.3217 -3343.58 1253.99
-43.0652 -3343.56 1254.14
-42.7734 -3343.55 1254.28
-42.3856 -3343.52 1254.53
-42.3035 -3343.51 1254.63
-42.5396 -3343.53 1254.42
-42.0946 -3343.49 1254.77
-42.0024 -3343.48 1254.86
-41.8487 -3343.47 1254.98
-41.8611 -3343.46 1255.08
-41.7683 -3343.46 1255.07
-41.828 -3343.45 1255.15
-45.0999 -3343.39 1256.06
-41.8092 -3343.44 1255.22
-41.6662 -3343.43 1255.34
-41.9449 -3343.43 1255.32
-42.5538 -3343.4 1255.47
-44.034 -3343.29 1255.94
-44.8898 -3343.18 1256.33
-45.0109 -3343.27 1256.25
-45.0275 -3343.74 1253.47
-44.8625 -3343.77 1253.49
-44.872 -3343.74 1253.44
-45.0412 -3343.77 1253.51
-44.8087 -3343.74 1253.4
-45.1229 -3343.76 1253.55
-45.2836 -3343.76 1253.7
-45.2301 -3343.76 1253.65
-45.1211 -3343.8 1253.59
-45.5583 -3343.51 1254.33
-45.5699 -3343.51 1254.21
-45.5129 -3343.54 1254.56
-45.4784 -3343.63 1253.96
-45.3865 -3343.72 1253.77
-45.3439 -3343.68 1254.77
-45.0386 -3343.8 1255.26
-45.0618 -3343.84 1255.15
-45.0708 -3343.87 1255.05
-45.1846 -3343.82 1254.89
-45.0046 -3343.54 1255.89
-44.8809 -3343.57 1255.97
-44.8297 -3343.65 1255.89
-44.9846 -3343.48 1256.02
-44.6966 -3343.82 1255.76
-44.6439 -3343.68 1255.94
-44.7043 -3343.87 1255.63
-44.8014 -3343.87 1255.48
-44.8979 -3343.88 1255.32
-44.6892 -3343.69 1253.1
-44.7216 -3343.77 1253.4
-44.6656 -3343.74 1253.23
-43.5989 -3343.5 1253.53
-44.0054 -3343.31 1252.93
-44.7267 -3343.16 1252.91
-44.6935 -3343.52 1252.97
-43.3045 -3343.58 1253.93
-43.0235 -3343.57 1254.1
-42.6811 -3343.55 1254.27
-42.4391 -3343.53 1254.41
-42.1892 -3343.52 1254.57
-42.0719 -3343.5 1254.68
-41.9377 -3343.49 1254.78
-41.7478 -3343.48 1254.92
-41.6906 -3343.47 1255
-41.5048 -3343.45 1255.15
-41.5128 -3343.45 1255.2
-41.549 -3343.44 1255.23
-41.5639 -3343.44 1255.28
-44.8931 -3343.36 1256.2
-41.5832 -3343.44 1255.32
-41.6413 -3343.43 1255.39
-41.6442 -3343.45 1255.33
-41.7326 -3343.42 1255.46
-42.3567 -3343.38 1255.58
-43.4041 -3343.29 1255.91
-44.2577 -3343.15 1256.33
-44.7989 -3343.14 1256.5
-44.7446 -3343.24 1256.41
-44.8224 -3343.81 1253.56
-44.7171 -3343.82 1253.55
-44.7616 -3343.78 1253.48
-44.9405 -3343.83 1253.6
-44.8348 -3343.83 1253.6
-45.2762 -3343.8 1253.73
-45.168 -3343.84 1253.67
-45.134 -3343.82 1253.63
-44.9403 -3343.86 1253.66
-45.4591 -3343.6 1254.43
-45.4227 -3343.68 1254.16
-45.4627 -3343.64 1254.07
-45.3413 -3343.69 1254.66
-45.3707 -3343.76 1253.82
-44.9142 -3343.92 1255.19
-45.0129 -3343.93 1255
-45.1424 -3343.86 1254.78
-44.7616 -3343.44 1256.17
-44.6726 -3343.55 1256.08
-44.5176 -3343.76 1255.85
-44.5056 -3343.83 1255.73
-44.4746 -3343.54 1256.1
-44.4271 -3343.64 1255.98
-44.597 -3343.9 1255.57
-44.7407 -3343.92 1255.4
-44.5805 -3343.71 1253.02
-44.6222 -3343.8 1253.36
-44.6702 -3343.82 1253.49
-44.5613 -3343.76 1253.17
-43.3431 -3343.41 1253.39
-43.8148 -3343.25 1252.85
-44.6681 -3343.02 1252.8
-44.6408 -3343.46 1252.88
-43.0481 -3343.56 1253.99
-42.7969 -3343.56 1254.17
-42.4891 -3343.55 1254.3
-42.3185 -3343.53 1254.41
-42.1206 -3343.52 1254.54
-41.8505 -3343.5 1254.68
-41.8724 -3343.5 1254.72
-41.6904 -3343.49 1254.84
-41.621 -3343.48 1254.93
-41.3897 -3343.47 1255.05
-41.4384 -3343.46 1255.08
-41.4429 -3343.46 1255.13
-41.5135 -3343.48 1255.14
-41.5527 -3343.47 1255.19
-41.6046 -3343.47 1255.22
-41.6349 -3343.47 1255.27
-44.6442 -3343.32 1256.35
-41.7478 -3343.48 1255.35
-41.7755 -3343.48 1255.44
-41.7287 -3343.49 1255.27
-42.6563 -3343.26 1255.98
-42.9009 -3343.29 1256.42
-41.8997 -3343.46 1255.58
-43.6096 -3343.14 1256.35
-44.4704 -3343.06 1256.65
-44.5813 -3343.12 1256.6
-44.5033 -3343.22 1256.48
-44.6784 -3343.86 1253.62
-44.6194 -3343.86 1253.57
-44.7396 -3343.9 1253.72
-44.6976 -3343.88 1253.68
-45.2708 -3343.85 1253.76
-45.1641 -3343.88 1253.72
-44.9821 -3343.91 1253.75
-44.9589 -3343.89 1253.71
-44.7407 -3343.93 1253.78
-45.3128 -3343.75 1254.3
-45.2612 -3343.77 1254.54
-45.2641 -3343.85 1254.05
-45.28 -3343.86 1253.86
-45.3623 -3343.77 1253.92
-44.8438 -3343.95 1255.11
-44.7456 -3343.94 1255.28
-44.9333 -3343.96 1254.92
-45.0446 -3343.93 1254.66
-44.5509 -3343.44 1256.23
-44.3091 -3343.69 1255.9
-44.3361 -3343.79 1255.75
-44.3374 -3343.43 1256.22
-44.2601 -3343.55 1256.07
-44.5745 -3343.93 1255.45
-44.3701 -3343.86 1255.61
-44.4604 -3343.77 1253.07
-44.4841 -3343.7 1252.9
-44.5794 -3343.85 1253.48
-44.5162 -3343.81 1253.28
-43.5876 -3343.21 1252.75
-43.4524 -3343.14 1252.71
-43.0381 -3343.37 1253.42
-44.0893 -3343.01 1252.67
-44.6777 -3342.83 1252.69
-44.5948 -3343.41 1252.81
-44.6422 -3343.16 1252.73
-42.7367 -3343.54 1254.09
-42.3798 -3343.54 1254.28
-42.1396 -3343.53 1254.45
-41.8832 -3343.51 1254.6
-41.5669 -3343.49 1254.77
-41.5635 -3343.49 1254.83
-41.3698 -3343.47 1254.96
-41.3616 -3343.47 1255.01
-41.4066 -3343.5 1254.99
-41.4718 -3343.51 1255
-41.4527 -3343.49 1255.06
-41.5026 -3343.49 1255.09
-41.5987 -3343.52 1255.06
-41.6166 -3343.51 1255.11
-41.6493 -3343.5 1255.16
-41.7366 -3343.52 1255.14
-41.7136 -3343.5 1255.2
-44.4348 -3343.33 1256.34
-41.8871 -3343.54 1255.35
-42.0321 -3343.55 1255.54
-42.5728 -3343.55 1255.91
-42.5054 -3343.5 1255.96
-41.8242 -3343.53 1255.23
-44.0056 -3343.02 1256.89
-43.9873 -3343.23 1257.16
-44.314 -3343.09 1256.96
-44.291 -3343.23 1256.73
-44.3687 -3343.16 1256.63
-44.3087 -3343.19 1256.55
-44.3 -3343.23 1256.45
-44.594 -3343.91 1253.67
-44.524 -3343.89 1253.56
-44.543 -3343.91 1253.62
-44.5821 -3343.96 1253.8
-44.603 -3343.92 1253.73
-45.1487 -3343.92 1253.77
-44.9639 -3343.95 1253.82
-44.776 -3343.98 1253.86
-44.7404 -3343.96 1253.83
-44.5524 -3343.99 1253.87
-45.1582 -3343.88 1254.42
-45.1279 -3343.93 1254.17
-45.0853 -3343.96 1253.98
-45.1189 -3343.96 1253.85
-44.6726 -3343.97 1255.19
-44.7654 -3343.98 1255.04
-44.5743 -3343.95 1255.34
-44.8468 -3343.98 1254.84
-44.8898 -3343.97 1254.61
-44.1557 -3343.72 1255.8
-44.1319 -3343.63 1255.94
-44.204 -3343.32 1256.34
-44.124 -3343.42 1256.21
-44.0733 -3343.52 1256.08
-44.3291 -3343.89 1255.48
-44.173 -3343.81 1255.65
-44.3841 -3343.73 1252.87
-44.4152 -3343.83 1253.22
-44.3579 -3343.8 1253.04
-44.4668 -3343.54 1252.75
-44.4738 -3343.87 1253.42
-43.2772 -3343.07 1252.6
-44.0262 -3342.88 1252.58
-42.8652 -3343.22 1253.08
-42.6217 -3343.41 1253.74
-44.6208 -3342.69 1252.59
-44.611 -3343.04 1252.64
-44.4787 -3343.36 1252.67
-42.0685 -3343.53 1254.42
-42.2852 -3343.39 1253.85
-41.8143 -3343.52 1254.57
-41.5371 -3343.5 1254.72
-41.2582 -3343.49 1254.87
-41.2868 -3343.48 1254.91
-41.3011 -3343.48 1254.95
-41.3755 -3343.5 1254.95
-41.4967 -3343.53 1254.93
-41.5613 -3343.54 1254.95
-41.5668 -3343.52 1255.01
-41.677 -3343.55 1254.99
-41.7036 -3343.54 1255.03
-41.7173 -3343.53 1255.09
-41.8102 -3343.55 1255.07
-41.8332 -3343.54 1255.15
-42.0453 -3343.61 1255.39
-42.2278 -3343.61 1255.6
-43.6043 -3343.61 1256.43
-43.6041 -3343.52 1256.52
-43.8567 -3343.37 1256.88
-41.9727 -3343.59 1255.27
-44.0523 -3343.41 1256.57
-43.9499 -3343.46 1256.49
-44.0511 -3343.34 1256.45
-43.968 -3343.37 1256.37
-44.5194 -3343.96 1253.75
-44.4919 -3343.95 1253.69
-44.4519 -3343.94 1253.63
-44.4295 -3343.92 1253.54
-44.4837 -3344 1253.82
-44.922 -3343.99 1253.89
-44.7389 -3344.02 1253.93
-44.5662 -3344.04 1253.96
-44.5308 -3344.02 1253.93
-44.4485 -3344.04 1253.9
-45.0211 -3343.96 1254.34
-44.8855 -3343.98 1254.26
-44.9193 -3343.99 1254.1
-44.867 -3344.03 1253.98
-44.4574 -3343.96 1255.29
-44.5961 -3344 1255.12
-44.7052 -3344.01 1254.94
-44.7056 -3344.01 1254.75
-44.8006 -3343.98 1254.49
-43.9695 -3343.62 1255.9
-43.9878 -3343.71 1255.76
-43.9274 -3343.52 1256.05
-43.9223 -3343.39 1256.3
-43.9019 -3343.42 1256.2
-44.0404 -3343.81 1255.61
-44.1633 -3343.88 1255.45
-44.2896 -3343.77 1252.87
-44.3189 -3343.68 1252.69
-44.3674 -3343.89 1253.36
-44.3077 -3343.86 1253.18
-44.2462 -3343.83 1253.01
-43.6312 -3343.05 1252.47
-44.1813 -3342.85 1252.51
-43.1624 -3343.07 1252.43
-42.5647 -3343.2 1253.16
-44.4121 -3343.35 1252.59
-41.9725 -3343.45 1254.2
-41.7481 -3343.52 1254.54
-42.3065 -3343.14 1253.1
-42.0175 -3343.24 1253.54
-41.4913 -3343.5 1254.69
-41.2263 -3343.49 1254.83
-41.2711 -3343.52 1254.82
-41.316 -3343.52 1254.86
-41.3655 -3343.52 1254.89
-41.459 -3343.54 1254.88
-41.631 -3343.57 1254.88
-41.5649 -3343.56 1254.86
-41.6549 -3343.56 1254.94
-41.7958 -3343.58 1254.96
-41.7598 -3343.58 1254.92
-41.809 -3343.57 1255.01
-41.9117 -3343.6 1255.01
-41.9148 -3343.58 1255.09
-42.0198 -3343.62 1255.21
-42.1441 -3343.66 1255.35
-42.323 -3343.7 1255.53
-42.3777 -3343.67 1255.63
-43.4984 -3343.67 1256.33
-43.767 -3343.58 1256.37
-43.5222 -3343.7 1256.29
-43.7127 -3343.61 1256.27
-44.4254 -3344 1253.77
-44.3976 -3343.99 1253.7
-44.3535 -3343.98 1253.63
-44.3306 -3343.94 1253.49
-44.39 -3344.04 1253.85
-44.6756 -3344.06 1254.01
-44.4938 -3344.08 1254.03
-44.4193 -3344.07 1253.98
-44.3568 -3344.08 1253.92
-44.6582 -3344.03 1254.42
-44.6906 -3344.04 1254.26
-44.6988 -3344.07 1254.12
-44.5679 -3344.11 1254.1
-44.2874 -3343.94 1255.29
-44.5716 -3344.03 1254.97
-44.442 -3344 1255.13
-44.5278 -3344.05 1254.86
-44.6203 -3344.03 1254.62
-43.7811 -3343.55 1255.99
-43.7944 -3343.62 1255.86
-43.8499 -3343.71 1255.71
-43.7214 -3343.54 1256.09
-43.7215 -3343.55 1256.17
-43.6644 -3343.65 1256.18
-43.8811 -3343.8 1255.57
-44.0076 -3343.87 1255.41
-44.176 -3343.8 1252.82
-44.2196 -3343.74 1252.71
-44.2193 -3343.63 1252.55
-44.2556 -3343.92 1253.31
-44.1991 -3343.89 1253.14
-44.1327 -3343.85 1252.94
-42.5915 -3343.03 1252.62
-43.6151 -3343.44 1252.43
-41.7083 -3343.36 1254.07
-41.4625 -3343.51 1254.64
-42.6137 -3343.1 1252.7
-42.2616 -3343.2 1253.18
-41.9346 -3343.3 1253.64
-41.1935 -3343.5 1254.79
-41.2239 -3343.52 1254.79
-41.3139 -3343.55 1254.75
-41.3727 -3343.55 1254.79
-41.431 -3343.55 1254.82
-41.5171 -3343.57 1254.81
-41.7433 -3343.61 1254.82
-41.7368 -3343.59 1254.87
-41.6645 -3343.6 1254.81
-41.6253 -3343.6 1254.78
-41.8834 -3343.62 1254.89
-41.9112 -3343.61 1254.94
-41.8356 -3343.62 1254.86
-42.042 -3343.65 1255.01
-42.0824 -3343.66 1255.13
-42.1856 -3343.69 1255.27
-42.3068 -3343.73 1255.41
-42.497 -3343.76 1255.58
-43.4028 -3343.75 1256.17
-43.4203 -3343.8 1256.11
-43.3243 -3343.84 1255.99
-44.335 -3344.04 1253.78
-44.3066 -3344.02 1253.71
-44.2556 -3344.02 1253.64
-44.2369 -3343.97 1253.47
-44.2999 -3344.07 1253.85
-44.4277 -3344.12 1254.1
-44.3649 -3344.11 1254.05
-44.3132 -3344.11 1253.99
-44.2631 -3344.11 1253.93
-44.4203 -3344.11 1254.64
-44.4045 -3344.13 1254.48
-44.4925 -3344.12 1254.29
-44.3957 -3344.17 1254.23
-44.3441 -3344.17 1254.17
-44.1703 -3343.94 1255.23
-44.3606 -3344.02 1255.06
-44.4151 -3344.09 1254.81
-44.3063 -3344.04 1254.99
-43.5406 -3343.74 1255.94
-43.6159 -3343.71 1255.87
-43.6643 -3343.74 1255.73
-43.5321 -3343.83 1255.74
-43.6721 -3343.79 1255.62
-43.5477 -3343.75 1256.02
-43.3197 -3343.88 1255.93
-43.7394 -3343.82 1255.5
-43.8998 -3343.88 1255.35
-44.0542 -3343.8 1252.73
-44.1153 -3343.76 1252.62
-44.146 -3343.95 1253.29
-44.097 -3343.91 1253.09
-43.9875 -3343.84 1252.86
-43.5628 -3343.51 1252.54
-41.4007 -3343.43 1254.41
-41.6334 -3343.38 1254.07
-41.1669 -3343.5 1254.73
-42.711 -3343.19 1252.73
-42.3881 -3343.25 1253.14
-42.0764 -3343.35 1253.58
-41.7378 -3343.44 1254.05
-41.2267 -3343.53 1254.72
-41.3345 -3343.56 1254.67
-41.4047 -3343.57 1254.72
-41.4757 -3343.58 1254.74
-41.5554 -3343.59 1254.75
-41.8528 -3343.65 1254.75
-41.8417 -3343.63 1254.81
-41.755 -3343.63 1254.76
-41.7514 -3343.64 1254.71
-41.6657 -3343.62 1254.72
-42.0461 -3343.66 1254.91
-41.9292 -3343.65 1254.81
-41.9785 -3343.65 1254.84
-42.1965 -3343.72 1255.03
-42.2199 -3343.72 1255.14
-42.2906 -3343.74 1255.26
-42.4156 -3343.78 1255.39
-42.5333 -3343.81 1255.53
-42.6302 -3343.87 1255.5
-44.2454 -3344.07 1253.77
-44.1838 -3344.06 1253.7
-44.1544 -3344.02 1253.51
-44.2138 -3344.1 1253.85
-44.3039 -3344.16 1254.11
-44.256 -3344.16 1254.06
-44.2101 -3344.15 1254
-44.1685 -3344.15 1253.93
-44.321 -3344.11 1254.76
-44.306 -3344.14 1254.62
-44.2954 -3344.18 1254.41
-44.246 -3344.16 1254.53
-44.2618 -3344.2 1254.29
-44.2547 -3344.19 1254.19
-44.0987 -3343.96 1255.17
-44.2763 -3344.07 1254.92
-44.0758 -3344 1255.1
-43.3967 -3343.91 1255.77
-43.2899 -3343.96 1255.8
-43.4769 -3343.95 1255.57
-43.3599 -3344.01 1255.62
-43.5842 -3343.93 1255.49
-43.0854 -3343.94 1255.73
-43.7071 -3343.9 1255.41
-43.8732 -3343.92 1255.28
-43.6603 -3343.64 1252.67
-44.0589 -3344.01 1253.37
-44.0242 -3343.96 1253.18
-43.9315 -3343.88 1253
-43.6651 -3343.72 1252.8
-41.3712 -3343.5 1254.49
-42.8186 -3343.3 1252.79
-42.4393 -3343.34 1253.21
-42.0892 -3343.44 1253.7
-41.7705 -3343.52 1254.13
-41.4723 -3343.54 1254.46
-41.4324 -3343.59 1254.64
-41.5826 -3343.57 1254.42
-41.4946 -3343.6 1254.67
-41.5672 -3343.61 1254.68
-41.6517 -3343.63 1254.67
-41.9624 -3343.69 1254.69
-41.9527 -3343.67 1254.74
-41.8597 -3343.67 1254.7
-41.8571 -3343.68 1254.65
-41.7665 -3343.66 1254.65
-42.1174 -3343.7 1254.84
-42.2545 -3343.75 1254.98
-42.0303 -3343.68 1254.76
-42.3708 -3343.79 1255.13
-42.3966 -3343.79 1255.24
-42.5136 -3343.83 1255.36
-42.6919 -3343.9 1255.45
-44.1568 -3344.11 1253.8
-44.0884 -3344.11 1253.73
-44.0755 -3344.06 1253.56
-44.1178 -3344.15 1253.88
-44.2014 -3344.19 1254.14
-44.1569 -3344.19 1254.08
-44.1113 -3344.19 1254.01
-44.0532 -3344.19 1253.96
-44.2386 -3344.1 1254.86
-44.2206 -3344.14 1254.7
-44.1936 -3344.18 1254.41
-44.1567 -3344.16 1254.59
-44.185 -3344.19 1254.28
-44.0571 -3344.04 1255.03
-43.8601 -3343.97 1255.2
-43.2065 -3344.08 1255.61
-43.1149 -3344.04 1255.63
-42.868 -3343.97 1255.51
-43.3266 -3344.09 1255.51
-43.4691 -3344.05 1255.45
-43.5892 -3344.01 1255.38
-43.7147 -3343.98 1255.3
-43.9343 -3344.04 1253.43
-43.8639 -3343.96 1253.26
-43.7523 -3343.86 1253.1
-43.6467 -3343.77 1252.94
-43.0297 -3343.47 1252.88
-42.5915 -3343.4 1253.15
-42.2719 -3343.47 1253.57
-41.8905 -3343.56 1254.09
-41.5535 -3343.62 1254.57
-41.6895 -3343.6 1254.37
-41.5895 -3343.64 1254.6
-41.6598 -3343.65 1254.61
-41.7454 -3343.67 1254.61
-42.0589 -3343.73 1254.62
-42.0666 -3343.71 1254.68
-41.9659 -3343.7 1254.63
-41.8638 -3343.7 1254.58
-41.9496 -3343.71 1254.59
-42.1736 -3343.74 1254.77
-42.305 -3343.78 1254.9
-42.4232 -3343.82 1255.04
-42.5656 -3343.86 1255.29
-42.5189 -3343.85 1255.17
-42.7476 -3343.93 1255.38
-44.0719 -3344.14 1253.82
-43.9986 -3344.15 1253.77
-43.9649 -3344.1 1253.61
-44.0205 -3344.18 1253.89
-44.1206 -3344.19 1254.23
-44.0805 -3344.19 1254.15
-44.0334 -3344.19 1254.1
-43.974 -3344.18 1254.08
-43.9491 -3344.18 1253.97
-44.1597 -3344.12 1254.84
-44.1183 -3344.15 1254.73
-44.1203 -3344.18 1254.37
-44.1176 -3344.17 1254.49
-44.0653 -3344.16 1254.62
-43.844 -3344.03 1255.12
-43.9926 -3344.06 1254.99
-43.7217 -3344.06 1255.19
-43.0981 -3344.08 1255.48
-42.9276 -3344.01 1255.45
-43.3047 -3344.1 1255.39
-43.454 -3344.11 1255.32
-43.5949 -3344.09 1255.26
-43.7131 -3344 1253.51
-43.6417 -3343.92 1253.33
-43.5331 -3343.82 1253.16
-43.4008 -3343.7 1252.98
-42.7695 -3343.49 1253.13
-42.4782 -3343.51 1253.44
-42.1398 -3343.57 1253.85
-41.9374 -3343.6 1254.12
-41.7939 -3343.63 1254.34
-41.7236 -3343.66 1254.48
-41.7431 -3343.68 1254.55
-41.8217 -3343.7 1254.55
-42.0565 -3343.74 1254.55
-42.1393 -3343.76 1254.55
-42.1679 -3343.76 1254.61
-42.222 -3343.77 1254.71
-41.9134 -3343.73 1254.51
-41.9824 -3343.74 1254.53
-42.387 -3343.83 1254.84
-42.498 -3343.86 1254.99
-42.6089 -3343.9 1255.13
-42.7055 -3343.92 1255.27
-43.9315 -3344.18 1253.84
-43.7606 -3344.09 1253.69
-44.0562 -3344.18 1254.37
-44.03 -3344.18 1254.28
-43.978 -3344.18 1254.22
-43.8044 -3344.13 1254.12
-43.719 -3344.11 1253.96
-43.6899 -3344.1 1253.82
-44.034 -3344.12 1254.88
-44.0247 -3344.15 1254.76
-44.0431 -3344.17 1254.51
-43.9821 -3344.15 1254.67
-43.7101 -3344.12 1255.07
-43.847 -3344.11 1255
-43.5514 -3344.11 1255.14
-43.0535 -3344.06 1255.36
-42.8931 -3344 1255.35
-43.1891 -3344.08 1255.26
-43.3553 -3344.09 1255.18
-43.4094 -3343.87 1253.4
-43.4891 -3343.95 1253.56
-43.3191 -3343.78 1253.23
-43.1668 -3343.66 1253.06
-42.7426 -3343.61 1253.33
-42.4993 -3343.6 1253.56
-42.2404 -3343.61 1253.82
-42.0537 -3343.63 1254.07
-42.0267 -3343.66 1254.16
-41.8799 -3343.69 1254.38
-41.8864 -3343.72 1254.44
-42.0896 -3343.77 1254.48
-42.185 -3343.79 1254.48
-42.2668 -3343.8 1254.56
-42.3527 -3343.83 1254.7
-41.9853 -3343.75 1254.42
-42.0188 -3343.76 1254.47
-42.6042 -3343.91 1254.97
-42.5319 -3343.89 1254.85
-42.7093 -3343.95 1255.1
-42.7933 -3343.97 1255.23
-43.4523 -3343.98 1253.67
-43.9697 -3344.16 1254.44
-43.9027 -3344.15 1254.32
-43.4558 -3344.01 1253.93
-43.5879 -3344.05 1254.12
-43.4068 -3343.99 1253.78
-43.9318 -3344.13 1254.87
-43.785 -3344.1 1254.73
-43.949 -3344.15 1254.56
