-278.959 -3103.37 1124.93
-278.198 -3103.28 1125.19
-279.005 -3105.55 1123.07
-280.121 -3109.79 1121.41
-280.292 -3111.25 1119.9
-276.169 -3102.31 1117.69
-276.149 -3103.15 1117.28
-275.886 -3103.73 1116.58
-275.8 -3099.23 1117.98
-275.737 -3099.27 1117.84
-275.989 -3100.59 1116.83
-275.76 -3099.54 1117.13
-275.751 -3098.97 1118.27
-275.769 -3098.97 1118.21
-275.717 -3098.85 1118.32
-275.735 -3098.84 1118.27
-275.702 -3099.01 1118.46
-275.7 -3098.76 1118.35
-275.774 -3098.94 1118.14
-275.805 -3099.07 1118.08
-275.781 -3098.92 1118.06
-275.81 -3099.06 1118.02
-275.694 -3099.02 1118.52
-273.919 -3099.72 1118.24
-273.567 -3099.68 1118.03
-274.109 -3099.6 1118.28
-274.264 -3099.59 1118.44
-273.407 -3099.64 1117.81
-273.048 -3099.75 1117.78
-274.569 -3099.56 1118.56
-272.935 -3099.78 1117.4
-275.223 -3099.55 1118.97
-275.505 -3099.37 1118.82
-275.45 -3099.35 1118.86
-275.553 -3099.04 1118.64
-275.616 -3098.95 1118.58
-275.679 -3098.98 1118.56
-274.866 -3099.47 1118.63
-275.023 -3099.47 1118.78
-275.176 -3099.45 1118.91
-272.706 -3100.21 1117.27
-272.816 -3100.43 1117.43
-272.945 -3100.66 1117.57
-272.881 -3100.03 1117.09
-273.158 -3099.85 1116.97
-273.226 -3099.74 1117.06
-273.574 -3101.71 1117.93
-273.28 -3101.33 1117.89
-273.192 -3101.1 1117.82
-273.136 -3101.07 1117.74
-273.068 -3100.88 1117.69
-274.503 -3102.68 1117.87
-274.008 -3103.61 1116.32
-273.72 -3104.02 1115.46
-274.114 -3102.14 1118.02
-274.072 -3104.38 1115.43
-274.641 -3104.26 1114.17
-274.535 -3103.96 1114.1
-274.436 -3104.04 1114.45
-274.317 -3103.79 1114.38
-274.253 -3103.96 1114.82
-274.134 -3103.88 1115
-274.911 -3105.25 1114.38
-274.82 -3105.06 1114.5
-274.737 -3104.68 1114.35
-278.517 -3118.74 1105.21
-273.329 -3106.62 1108.82
-272.528 -3106.23 1108.11
-271.049 -3104.33 1108.82
-270.986 -3104.19 1109.09
-271.22 -3104.53 1108.66
-273.601 -3106.23 1109.59
-272.659 -3105.9 1108.82
-271.321 -3104.77 1108.49
-271.413 -3104.75 1108.18
-270.989 -3104.07 1109.61
-270.881 -3104.01 1109.23
-270.832 -3103.87 1110.43
-270.763 -3103.8 1110.79
-270.631 -3103.65 1110.89
-270.824 -3103.81 1109.97
-275.14 -3103.78 1114.19
-275.731 -3105.32 1115.78
-275.305 -3103.92 1114.71
-275.085 -3103.63 1113.81
-275.639 -3103.96 1115.59
-281.129 -3115.1 1118.39
-280.862 -3118.04 1115.99
-281.262 -3121.06 1115.29
-281.203 -3122.1 1114.24
-279.217 -3117.86 1110.48
-280.129 -3120.67 1109.27
-279.686 -3120.36 1107.62
-281.682 -3123.76 1114.22
-279.998 -3119.95 1112.21
-275.047 -3105.47 1114.11
-274.937 -3105.5 1114.2
-275.01 -3105.24 1114.13
-275.089 -3104.73 1113.78
-275.064 -3103.67 1113.58
-270.187 -3102.95 1110.98
-270.389 -3103.3 1110.81
-269.413 -3101.79 1110.49
-269.631 -3102.07 1110.62
-269.911 -3102.35 1110.7
-269.983 -3102.68 1110.82
-269.445 -3101.72 1110.31
-269.397 -3101.66 1110.08
-269.453 -3101.64 1109.92
-269.401 -3101.68 1109.7
-269.848 -3101.98 1109.04
-270.072 -3102.24 1108.8
-269.91 -3102.8 1108.37
-270.168 -3102.53 1108.64
-269.983 -3103.23 1108.22
-269.983 -3101.81 1109.35
-269.801 -3101.68 1109.75
-270.064 -3101.72 1109.6
-270.818 -3103.6 1108.19
-271.143 -3103.88 1108.3
-271.64 -3103.96 1108.71
-272.026 -3104.36 1108.66
-271.568 -3104.57 1108.57
-294.612 -3200.02 1132.18
-294.793 -3198.45 1132.61
-294.8 -3197.88 1133.14
-292.424 -3215.89 1132.37
-293.031 -3212.18 1131.67
-293.399 -3208.15 1131.16
-293.969 -3203.25 1131.03
-293.524 -3205.88 1130.73
-294.002 -3203.34 1131.34
-290.891 -3156.63 1119.75
-291.054 -3157.43 1118.88
-289.994 -3153.4 1116.79
-288.673 -3148.7 1114.53
-288.158 -3145.56 1115.18
-289.268 -3152.38 1113.94
-286.942 -3142.63 1112.69
-286.378 -3139.19 1113.23
-285.23 -3136.29 1111.21
-283.083 -3129.24 1109
-282.402 -3126.67 1109.1
-281.425 -3123.89 1112.85
-281.809 -3125 1111.29
-281.48 -3124.24 1109.69
-281.66 -3122.17 1115.98
-281.893 -3120.39 1117.95
-282.394 -3116.78 1122.19
-282.09 -3116.87 1120.52
-282.474 -3117.07 1122.91
-295.582 -3165.6 1131.17
-296.889 -3167.54 1131.74
-297.187 -3168 1132.11
-295.693 -3166.06 1130.89
-294.357 -3165.27 1129.1
-295.697 -3166.35 1130.62
-294.303 -3166.26 1128.2
-294.379 -3168.14 1127.1
-293.977 -3166.21 1126.93
-294.294 -3168.54 1126.43
-293.907 -3166.17 1125.59
-293.719 -3165.41 1124.22
-292.884 -3163.58 1122.37
-292.104 -3160.69 1121.89
-293.991 -3184.22 1128.43
-294.242 -3181.14 1127.71
-294.628 -3179.11 1128.9
-295.243 -3176.71 1131.02
-296.478 -3173.48 1131.49
-295.254 -3176.87 1130.1
-294.449 -3196.34 1132.23
-293.956 -3193.17 1129.67
-293.845 -3190.02 1128.41
-294.006 -3195.17 1130.52
-293.895 -3193.46 1129.17
-293.859 -3185.27 1127.91
-297.246 -3169.35 1133.39
-297.189 -3170.13 1133.16
-297.292 -3169.84 1132.95
-296.971 -3172.03 1131.83
-297.088 -3170.96 1132.55
-297.481 -3168.78 1133.03
-297.478 -3169.08 1132.86
-297.351 -3169.26 1132.91
-297.424 -3168.38 1132.82
-297.519 -3168.71 1132.82
-297.435 -3168.46 1132.49
-297.264 -3168.1 1132.33
-281.124 -3108.99 1132.25
-281.917 -3110 1131.98
-281.474 -3109.33 1132.04
-281.344 -3109.22 1132.29
-283.723 -3114.86 1131.81
-283.569 -3114.19 1131.97
-283.664 -3115.27 1131.48
-283.475 -3113.56 1131.99
-283.766 -3116.04 1131.47
-283.668 -3115.66 1131.32
-283.441 -3115.08 1131.01
-282.587 -3113.96 1130.04
-283.204 -3114.33 1130.9
-281.534 -3112.54 1128.96
-280.765 -3110.66 1128.67
-282.238 -3116.12 1121.96
-281.772 -3114.46 1122.82
-283.338 -3112.84 1132.21
-282.892 -3111.85 1132.08
-281.989 -3110.12 1131.75
-281.589 -3109.41 1131.78
-281.646 -3109.74 1131.02
-281.749 -3110.11 1130.8
-282.058 -3110.68 1130.79
-281.218 -3110.12 1129.81
-282.297 -3110.71 1131.62
-282.234 -3110.6 1131.46
-282.125 -3110.44 1131.26
-281.05 -3112.85 1121.42
-278.954 -3103.46 1125.18
-278.555 -3103.19 1125.26
-278.648 -3103.61 1124.76
-278.936 -3103.25 1124.73
-278.173 -3103.41 1125.18
-278.494 -3103.24 1125.2
-281.117 -3113.85 1119.7
-275.909 -3101.7 1116.24
-275.337 -3102.12 1114.66
-275.289 -3102.58 1114.53
-275.768 -3099.08 1117.88
-275.728 -3099.16 1117.78
-275.653 -3101.57 1115.58
-275.648 -3099.88 1116.56
-275.508 -3101.35 1115.26
-275.747 -3098.79 1118.19
-275.746 -3098.79 1118.13
-275.71 -3098.69 1118.28
-275.715 -3098.68 1118.22
-275.688 -3098.8 1118.42
-275.682 -3098.6 1118.35
-275.692 -3098.59 1118.29
-275.753 -3098.77 1118.06
-275.763 -3098.77 1117.97
-275.786 -3098.9 1117.98
-275.785 -3098.96 1117.92
-275.662 -3098.69 1118.43
-273.995 -3099.51 1117.95
-273.752 -3099.55 1117.85
-274.229 -3099.46 1118.03
-274.405 -3099.48 1118.24
-274.569 -3099.49 1118.41
-273.588 -3099.53 1117.64
-273.235 -3099.65 1117.59
-275.025 -3099.1 1118.61
-273.52 -3099.57 1116.94
-273.533 -3099.55 1117.18
-275.385 -3099.3 1118.89
-275.474 -3099.04 1118.67
-275.419 -3099.14 1118.74
-275.52 -3098.63 1118.52
-275.567 -3098.62 1118.48
-275.623 -3098.58 1118.42
-275.161 -3099.02 1118.76
-275.223 -3099.03 1118.77
-275.296 -3099.21 1118.85
-272.708 -3100.34 1117.06
-272.862 -3100.45 1117.46
-272.992 -3100.63 1117.63
-272.947 -3100.08 1116.79
-273.309 -3099.84 1116.61
-273.487 -3099.69 1116.7
-273.582 -3101.61 1118.01
-274.145 -3102.09 1118.08
-273.311 -3101.27 1117.96
-273.214 -3101 1117.89
-273.114 -3100.86 1117.78
-274.795 -3102.7 1118.16
-274.249 -3103.69 1116.49
-273.937 -3104.22 1115.45
-274.06 -3104.05 1115.5
-274.727 -3103.86 1113.5
-274.597 -3103.69 1113.51
-274.458 -3103.59 1113.59
-274.364 -3103.63 1113.9
-274.219 -3103.53 1113.98
-274.138 -3103.63 1114.42
-273.993 -3103.62 1114.72
-273.959 -3103.76 1115.17
-275.005 -3104.68 1113.62
-274.916 -3104.59 1113.78
-274.828 -3104.23 1113.65
-272.639 -3105.88 1108.38
-273.378 -3106.28 1109.03
-270.98 -3104.16 1108.78
-271.434 -3104.48 1108.84
-270.849 -3103.97 1108.86
-271.559 -3104.74 1108.63
-271.898 -3104.8 1108.84
-273.563 -3105.88 1109.51
-272.977 -3105.75 1109.05
-270.74 -3103.79 1109.36
-270.69 -3103.65 1109.67
-270.658 -3103.76 1108.99
-270.51 -3103.35 1110.58
-270.612 -3103.47 1110.23
-270.432 -3103.29 1110.67
-270.568 -3103.27 1109.98
-275.066 -3102.39 1113.6
-275.018 -3102.3 1113.27
-275.147 -3102.73 1114.05
-275.008 -3102.52 1113.15
-281.681 -3116.26 1119.19
-281.378 -3118.33 1117.05
-281.661 -3119.45 1117.35
-280.124 -3120.39 1110.95
-281.283 -3124.19 1108.48
-275.068 -3104.86 1113.69
-275.051 -3103.68 1113.41
-275.032 -3103.74 1113.26
-275.013 -3103.06 1113.14
-275.015 -3102.85 1113.17
-270.166 -3102.99 1110.79
-270.214 -3102.74 1110.69
-270.224 -3102.92 1110.6
-269.761 -3101.79 1110.57
-270.019 -3102.06 1110.66
-270.27 -3102.22 1110.81
-270.18 -3102.51 1110.84
-270.23 -3102.62 1110.82
-269.748 -3101.62 1110.25
-269.792 -3101.66 1110.45
-269.848 -3101.58 1110.16
-269.874 -3101.58 1110.01
-270.244 -3102.07 1109.09
-271.59 -3102.02 1109.55
-271.604 -3101.9 1109.68
-271.801 -3102.45 1109.34
-271.684 -3102.31 1109.38
-271.626 -3102.16 1109.45
-271.897 -3102.62 1109.35
-271.966 -3102.77 1109.31
-270.48 -3101.73 1109.58
-270.424 -3101.87 1109.36
-270.216 -3101.59 1109.92
-270.551 -3101.61 1109.85
-272.528 -3102.67 1109.58
-271.737 -3103.52 1108.84
-272.662 -3102.81 1109.58
-272.027 -3103.67 1108.89
-272.285 -3104.01 1108.82
-272.048 -3104.81 1108.53
-272.558 -3104.64 1108.67
-272.65 -3104.21 1108.92
-294.542 -3199.56 1131.7
-294.691 -3198.22 1132.08
-294.778 -3197.95 1132.6
-292.254 -3215.93 1131.09
-292.415 -3213.04 1128.58
-292.923 -3211.44 1130.5
-292.959 -3209.18 1129.69
-293.814 -3203.52 1130.56
-294.139 -3201.82 1130.81
-291.567 -3159.55 1119.56
-290.453 -3157.02 1115.84
-289.003 -3153.07 1112.02
-287.134 -3145.49 1111.41
-285.924 -3140.03 1110.78
-282.34 -3128.27 1107.04
-281.701 -3125.99 1107.27
-281.906 -3115.62 1120.91
-297.094 -3168.01 1131.82
-297.318 -3168.48 1131.96
-297.413 -3168.61 1132.16
-296.956 -3168.04 1131.43
-295.726 -3166.9 1130.19
-294.685 -3167.1 1128.42
-294.617 -3168.71 1127.43
-294.599 -3170.79 1126.32
-294.802 -3170.75 1126.95
-294.12 -3168.04 1125.04
-294.17 -3169.27 1124.65
-293.644 -3166.09 1123.51
-292.649 -3163.76 1121.31
-291.923 -3162.28 1119.94
-294.114 -3181.49 1126.97
-294.74 -3178.3 1128.28
-295.376 -3176.35 1129.69
-296.46 -3173.59 1131.16
-297.085 -3171.94 1131.54
-296.469 -3173.58 1130.9
-294.405 -3196.78 1131.58
-293.617 -3190.88 1127.43
-293.462 -3186.31 1126.11
-293.535 -3196.33 1128.61
-294.253 -3197.23 1130.92
-293.528 -3193.32 1127.71
-297.444 -3169.69 1132.63
-297.261 -3170.59 1132.38
-297.534 -3169.05 1132.62
-297.5 -3169.55 1132.45
-297.525 -3168.7 1132.58
-297.554 -3169.06 1132.38
-297.501 -3168.92 1132.2
-283.561 -3114.48 1131.58
-283.448 -3113.76 1131.79
-283.29 -3113.01 1131.94
-283.576 -3114.95 1131.33
-283.065 -3112.2 1132.03
-283.355 -3114.26 1131.28
-281.966 -3112.12 1129.89
-282.831 -3112.87 1130.93
-283.081 -3113.13 1131.22
-281.471 -3110.77 1129.82
-282.424 -3111.1 1131.26
-282.45 -3111.54 1130.98
-282.816 -3112.12 1131.36
-282.907 -3111.9 1131.76
-278.452 -3103.33 1125.13
-275.117 -3101.68 1113.62
-275.108 -3102.04 1113.67
-275.214 -3101.64 1114.11
-275.732 -3098.94 1117.77
-275.524 -3100.08 1116.08
-275.151 -3101.32 1113.94
-275.718 -3098.64 1118.15
-275.727 -3098.62 1118.07
-275.7 -3098.58 1118.23
-275.713 -3098.56 1118.17
-275.689 -3098.53 1118.34
-275.709 -3098.52 1118.26
-275.737 -3098.62 1117.99
-275.766 -3098.73 1117.89
-275.774 -3098.81 1117.95
-275.747 -3098.63 1117.93
-275.774 -3098.86 1117.88
-274 -3099.39 1117.68
-274.814 -3099.05 1117.81
-273.839 -3099.37 1117.5
-274.907 -3099.06 1118.08
-275.235 -3098.44 1118.46
-275.102 -3098.87 1118.53
-273.863 -3099.22 1117.21
-273.626 -3099.46 1117.33
-275.084 -3098.63 1118.88
-275.324 -3097.91 1118.67
-273.855 -3099.31 1116.78
-273.851 -3099.45 1116.53
-273.934 -3099.15 1116.93
-275.349 -3099.08 1118.74
-275.401 -3098.81 1118.63
-275.432 -3098.78 1118.58
-275.495 -3098.52 1118.57
-275.547 -3098.4 1118.46
-275.61 -3098.35 1118.36
-275.65 -3098.42 1118.36
-275.689 -3098.48 1118.35
-275.219 -3098.31 1118.83
-275.328 -3098.49 1118.74
-275.29 -3098.9 1118.7
-275.376 -3098.5 1118.69
-272.694 -3100.42 1116.65
-272.8 -3100.53 1117.1
-273.014 -3100.89 1117.73
-272.885 -3100.71 1117.24
-273.049 -3100.13 1116.46
-273.423 -3099.86 1116.27
-273.645 -3099.65 1116.37
-274.168 -3102.05 1118.13
-273.936 -3101.81 1118.13
-273.574 -3101.5 1118.09
-275.16 -3102.85 1118.45
-273.369 -3101.27 1118.05
-273.292 -3101.08 1117.99
-273.23 -3100.95 1117.88
-274.505 -3103.81 1116.68
-274.451 -3103.91 1116.43
-274.773 -3103.65 1113.01
-274.619 -3103.54 1113.06
-274.465 -3103.43 1113.13
-274.309 -3103.4 1113.42
-274.161 -3103.3 1113.51
-274.071 -3103.38 1113.92
-273.975 -3103.43 1114.27
-273.821 -3103.38 1114.48
-273.834 -3103.54 1114.88
-273.801 -3103.65 1115.25
-274.956 -3103.72 1112.85
-275.013 -3103.79 1113.11
-274.907 -3103.83 1113.01
-272.805 -3105.6 1108.66
-271.752 -3104.47 1109.13
-272.399 -3104.84 1109.33
-272.181 -3104.84 1109.09
-271.155 -3103.96 1109.06
-271.753 -3104.33 1109.25
-272.781 -3105.12 1108.97
-272.746 -3105.19 1108.74
-273.505 -3105.64 1109.39
-273.714 -3105.75 1109.78
-270.81 -3103.55 1109.49
-270.657 -3103.39 1109.7
-270.741 -3103.61 1109.12
-270.399 -3102.95 1110.43
-270.517 -3103.1 1110.28
-270.382 -3102.8 1110.52
-271.414 -3103.48 1110.45
-271.217 -3103.25 1110.52
-275.004 -3101.88 1113.19
-274.95 -3102.14 1112.98
-274.98 -3102.59 1112.99
-274.985 -3103.01 1112.96
-270.585 -3102.41 1110.82
-270.524 -3102.58 1110.68
-270.153 -3101.73 1110.63
-270.337 -3101.94 1110.75
-270.52 -3101.84 1110.95
-270.463 -3102.08 1111
-270.465 -3102.21 1111.05
-270.374 -3102.4 1110.96
-270.701 -3102.24 1110.96
-270.241 -3101.53 1110.39
-270.118 -3101.57 1110.47
-270.526 -3101.48 1110.43
-270.241 -3101.52 1110.24
-270.39 -3101.49 1110.19
-271.66 -3101.76 1109.82
-273.1 -3101.61 1110.58
-273.477 -3101.37 1111.09
-273.386 -3101.29 1111.17
-273.628 -3101.57 1110.97
-273.831 -3101.65 1111.1
-273.932 -3101.78 1111.12
-271.837 -3101.39 1110.35
-271.741 -3101.5 1110.13
-271.614 -3101.65 1109.91
-270.717 -3101.47 1110.16
-271.924 -3101.3 1110.53
-272.386 -3101.15 1111.06
-272.866 -3102.93 1109.65
-273.989 -3101.94 1111.08
-273.055 -3103.08 1109.74
-273.136 -3103.31 1109.69
-272.869 -3104.66 1108.95
-272.941 -3104.26 1109.15
-273.275 -3103.49 1109.72
-293.766 -3200.34 1129.52
-294.578 -3198.51 1131.63
-294.022 -3198.35 1130.07
-292.585 -3209.02 1127.95
-293.524 -3203.02 1129.54
-291.343 -3160.37 1117.88
-297.22 -3168.48 1131.64
-297.365 -3168.85 1131.74
-297.441 -3168.96 1131.93
-297.034 -3168.4 1131.25
-295.712 -3167.52 1129.73
-294.929 -3168.75 1127.97
-295.894 -3168.53 1129.48
-295.043 -3170.32 1127.57
-294.93 -3172.11 1126.9
-293.96 -3173.03 1123.96
-294.026 -3169.68 1123.92
-295.111 -3171.42 1127.42
-293.642 -3166.78 1123
-292.673 -3164.84 1120.78
-292.086 -3165.06 1119.01
-291.609 -3163.86 1116.86
-293.868 -3181.44 1125.82
-294.833 -3177.05 1127.75
-295.45 -3175.68 1129.33
-296.402 -3173.7 1130.57
-296.399 -3173.55 1130.31
-297.146 -3171.8 1131.34
-297.339 -3170.43 1132.15
-297.041 -3172.21 1131.08
-293.072 -3191.96 1125.64
-292.977 -3187.4 1123.22
-293.1 -3181.75 1123.24
-292.861 -3182.43 1122.09
-293.17 -3195.47 1126.94
-297.523 -3169.49 1132.21
-297.417 -3170.24 1131.99
-297.497 -3169.33 1131.98
-283.243 -3113.46 1131.42
-283.062 -3112.49 1131.67
-274.984 -3101.58 1113.15
-274.997 -3101.64 1113.16
-275.071 -3101.5 1113.47
-275.723 -3098.81 1117.73
-275.614 -3099.1 1117.07
-275.354 -3100.65 1115.07
-275.089 -3101.23 1113.75
-275.02 -3101.37 1113.33
-275.731 -3098.55 1118.09
-275.72 -3098.52 1117.98
-275.721 -3098.52 1118.2
-275.743 -3098.49 1118.13
-275.71 -3098.48 1118.29
-275.736 -3098.46 1118.2
-275.76 -3098.55 1117.93
-275.75 -3098.64 1117.89
-275.762 -3098.59 1117.85
-275.722 -3098.67 1117.72
-274.806 -3099.02 1117.62
-275.399 -3098.54 1118.03
-275.583 -3098.12 1118.4
-275.506 -3098.18 1118.44
-274.831 -3098.95 1117.34
-275.385 -3098.55 1118.55
-275.483 -3097.92 1118.55
-275.544 -3097.94 1118.43
-275.524 -3098 1118.39
-275.439 -3097.86 1118.53
-274.982 -3098.85 1117.22
-275.043 -3098.04 1118.96
-275.435 -3097.94 1118.48
-275.346 -3097.88 1118.61
-274.232 -3099.13 1116.42
-274.314 -3099.04 1116.67
-274.219 -3099.25 1116.17
-275.145 -3098.78 1117.13
-275.337 -3098.86 1118.65
-275.414 -3098.52 1118.64
-275.452 -3098.5 1118.63
-275.499 -3098.42 1118.54
-275.579 -3098.28 1118.36
-275.64 -3098.3 1118.34
-275.674 -3098.37 1118.35
-275.709 -3098.42 1118.33
-275.415 -3098.21 1118.56
-275.427 -3098.33 1118.59
-275.474 -3098.31 1118.52
-272.695 -3100.62 1116.6
-272.856 -3100.4 1116.24
-273.113 -3100.91 1117.53
-272.975 -3100.81 1117.23
-272.795 -3100.77 1116.7
-273.859 -3099.57 1116.09
-273.318 -3100.06 1116.02
-274.294 -3102.1 1118.2
-274.244 -3101.99 1118.25
-273.909 -3101.7 1118.2
-273.532 -3101.37 1118.15
-275.17 -3102.7 1118.59
-275.224 -3103.25 1118.18
-273.356 -3101.12 1118.08
-273.31 -3101.31 1117.59
-273.174 -3101.25 1117.24
-273.921 -3103.66 1115.95
-274.806 -3103.63 1112.76
-274.667 -3103.52 1112.8
-274.519 -3103.41 1112.84
-274.314 -3103.26 1113.02
-274.375 -3103.3 1112.87
-274.173 -3103.15 1113.06
-274.031 -3103.04 1113.09
-273.994 -3103.14 1113.46
-273.91 -3103.2 1113.82
-273.815 -3103.23 1114.1
-273.653 -3103.11 1114.18
-273.683 -3103.34 1114.71
-273.642 -3103.48 1115.17
-273.704 -3103.43 1115.82
-274.911 -3103.67 1112.67
-274.812 -3103.1 1112.31
-274.818 -3103.28 1112.33
-274.911 -3103.19 1112.68
-272.672 -3104.83 1109.6
-273.231 -3105.16 1109.53
-272.996 -3105.13 1109.22
-271.577 -3103.97 1109.52
-272.244 -3104.32 1109.75
-272.59 -3104.64 1109.71
-273.323 -3105.15 1109.3
-273.643 -3105.52 1109.64
-273.807 -3105.67 1109.94
-271.864 -3103.74 1110.49
-272.259 -3104.06 1110.38
-272.421 -3103.97 1110.59
-271.027 -3103 1110.59
-271.018 -3102.79 1110.71
-271.895 -3103.53 1110.63
-271.74 -3103.3 1110.71
-274.841 -3101.95 1112.76
-274.608 -3102.16 1112.03
-274.607 -3102.34 1112.02
-274.926 -3102.44 1112.87
-274.847 -3102.65 1112.6
-274.878 -3102.91 1112.65
-271.289 -3102.45 1111.04
-271.153 -3102.61 1110.88
-270.402 -3101.57 1110.65
-270.454 -3101.68 1110.8
-270.766 -3101.59 1111.09
-270.68 -3101.8 1111.15
-270.845 -3101.91 1111.23
-270.83 -3102.07 1111.11
-271.44 -3102.31 1111.19
-270.564 -3101.49 1110.62
-270.7 -3101.46 1110.58
-270.689 -3101.44 1110.4
-270.885 -3101.42 1110.56
-270.917 -3101.41 1110.36
-273.275 -3101.22 1111.22
-273.893 -3101.35 1111.36
-274.22 -3101.04 1111.96
-274.093 -3100.98 1112
-273.979 -3100.77 1112.1
-274.427 -3101.28 1111.95
-274.562 -3101.48 1111.98
-274.57 -3101.35 1112.04
-274.578 -3101.61 1111.99
-273.325 -3101.13 1111.42
-273.798 -3100.82 1112.21
-272.889 -3101.03 1111.59
-272.05 -3101.22 1110.85
-273.809 -3100.8 1112.41
-274.12 -3102.03 1111.16
-274.626 -3101.72 1112.09
-274.517 -3102.03 1111.8
-274.57 -3101.88 1111.94
-273.295 -3104.65 1109.43
-273.202 -3104.26 1109.44
-273.99 -3102.96 1110.75
-273.074 -3103.98 1109.38
-297.185 -3169.02 1131.27
-297.382 -3169.48 1131.6
-297.278 -3169.38 1131.36
-296.922 -3168.94 1130.82
-295.922 -3169.65 1129.07
-295.993 -3170.62 1128.88
-295.181 -3172.21 1127.5
-295.216 -3173.12 1127.61
-294.679 -3174.04 1126.07
-293.172 -3174.84 1121.38
-292.77 -3173.25 1120.3
-293.367 -3170.59 1122.18
-292.575 -3170.54 1120.07
-293.029 -3167.97 1121.21
-292.922 -3165.96 1121.12
-296.004 -3171.44 1128.8
-292.236 -3166.74 1119.33
-291.83 -3166.3 1117.16
-292.153 -3169.27 1118.59
-293.566 -3179.58 1124.17
-294.786 -3175.7 1126.89
-295.437 -3174.89 1128.84
-296.331 -3173.45 1130.01
-297.051 -3172.1 1130.84
-297.244 -3171.3 1131.22
-292.983 -3195.61 1125.23
-292.904 -3190.92 1123.68
-292.739 -3177.74 1120.48
-293.031 -3176.81 1121.54
-297.425 -3170.04 1131.8
-297.327 -3170.11 1131.4
-274.952 -3101.45 1113.07
-274.833 -3101.65 1112.73
-274.846 -3101.78 1112.76
-275.564 -3099.03 1116.97
-275.392 -3099.92 1115.86
-275.221 -3100.56 1114.87
-275.114 -3100.98 1114.05
-275.01 -3101.11 1113.47
-274.982 -3101.24 1113.24
-274.897 -3101.3 1112.92
-275.759 -3098.49 1118.05
-275.785 -3098.45 1117.97
-275.786 -3098.48 1117.92
-275.763 -3098.43 1118.12
-275.781 -3098.42 1118.04
-275.727 -3098.43 1118.26
-275.756 -3098.39 1118.17
-275.779 -3098.53 1117.87
-275.789 -3098.52 1117.79
-275.742 -3098.59 1117.72
-275.487 -3098.9 1116.96
-275.448 -3098.44 1117.91
-275.674 -3098.06 1118.35
-275.689 -3098.05 1118.33
-275.632 -3098.04 1118.34
-275.498 -3098.39 1117.77
-275.601 -3098.07 1118.33
-275.549 -3098.09 1118.33
-275.655 -3098.23 1117.84
-275.494 -3098.19 1118.42
-274.695 -3098.93 1116.42
-275.264 -3098.71 1117.05
-274.703 -3098.95 1116.11
-274.529 -3099.29 1115.72
-275.683 -3098.23 1117.71
-275.515 -3098.32 1118.46
-275.55 -3098.2 1118.36
-275.618 -3098.23 1118.34
-275.692 -3098.3 1118.35
-275.723 -3098.35 1118.32
-275.741 -3098.36 1118.24
-272.643 -3100.72 1116.16
-272.943 -3100.45 1115.91
-273.03 -3101.56 1116.47
-272.953 -3101.39 1116.28
-272.839 -3101.27 1116.08
-272.709 -3101.1 1115.9
-273.825 -3099.79 1115.7
-273.381 -3100.21 1115.58
-275.219 -3102.65 1118.69
-274.312 -3101.94 1118.35
-273.897 -3101.6 1118.28
-273.475 -3101.39 1117.97
-275.102 -3102.71 1118.6
-273.338 -3102.51 1115.95
-273.441 -3102.16 1116.8
-273.2 -3102.24 1115.88
-274.236 -3102.52 1117.74
-274.735 -3103.61 1112.68
-274.577 -3103.48 1112.72
-274.422 -3103.36 1112.75
-274.214 -3103.18 1112.88
-274.277 -3103.26 1112.78
-274.073 -3103.08 1112.91
-273.867 -3102.9 1113.09
-273.926 -3102.96 1112.96
-273.823 -3102.98 1113.43
-273.72 -3103.02 1113.78
-273.547 -3102.84 1113.71
-273.472 -3102.92 1114.1
-273.55 -3103.13 1114.47
-273.515 -3103.25 1114.86
-273.586 -3103.14 1115.85
-273.485 -3103.25 1115.32
-273.613 -3102.31 1117.1
-274.868 -3103.67 1112.58
-274.757 -3102.74 1112.19
-274.714 -3102.74 1112.03
-274.692 -3102.85 1111.96
-274.752 -3103.17 1112.16
-273.639 -3105.21 1110.05
-273.416 -3105.15 1109.73
-273.912 -3105.56 1110.13
-272.923 -3104.36 1110.56
-273.159 -3104.72 1110.19
-273.407 -3104.61 1110.61
-273.763 -3105.15 1110.23
-273.569 -3105.11 1109.66
-273.767 -3105.49 1109.86
-272.415 -3103.79 1110.7
-273.035 -3104.22 1110.69
-273.015 -3104.06 1110.79
-271.615 -3103.08 1110.79
-271.618 -3102.88 1110.92
-272.415 -3103.59 1110.82
-272.323 -3103.38 1110.91
-274.3 -3102.73 1111.19
-271.784 -3102.57 1111.2
-271.802 -3102.73 1111.09
-270.792 -3101.49 1110.84
-270.779 -3101.56 1110.97
-271.067 -3101.54 1111.26
-270.974 -3101.58 1111.29
-270.917 -3101.69 1111.34
-271.376 -3102.13 1111.29
-271.201 -3101.91 1111.36
-271.654 -3102.38 1111.29
-270.984 -3101.45 1110.85
-270.996 -3101.42 1110.73
-271.194 -3101.37 1110.56
-271.498 -3101.31 1110.79
-271.186 -3101.37 1110.74
-272.281 -3101.16 1111.12
-273.902 -3100.74 1112.18
-274.452 -3100.96 1112.11
-274.329 -3100.45 1112.24
-274.176 -3100.35 1112.28
-274.425 -3100.74 1112.62
-274.746 -3101.14 1112.48
-274.764 -3101.44 1112.54
-274.783 -3101.27 1112.6
-274.826 -3101.5 1112.72
-274.389 -3100.74 1112.71
-274.332 -3100.71 1112.78
-273.513 -3100.87 1112.37
-274.093 -3100.74 1112.83
-274.261 -3100.69 1112.83
-273.562 -3104.18 1109.84
-273.519 -3104.66 1109.74
-273.697 -3104.34 1109.96
-274.036 -3103.22 1110.58
-297.042 -3169.93 1130.64
-296.836 -3169.62 1130.38
-297.089 -3170.42 1130.66
-296.841 -3170.68 1130.1
-296.076 -3172.05 1128.92
-296.121 -3172.57 1129.08
-295.314 -3174.06 1128.14
-293.864 -3176.15 1124.05
-292.489 -3175.41 1118.9
-296.902 -3171.22 1130.15
-296.24 -3173.28 1129.67
-297.026 -3172.04 1130.58
-297.182 -3171.26 1130.93
-297.108 -3171.17 1130.63
-275.092 -3099.6 1116.03
-274.983 -3099.85 1115.67
-275.085 -3100.85 1114.03
-275.064 -3100.37 1114.77
-274.897 -3101.13 1112.96
-274.981 -3100.91 1113.49
-275.807 -3098.38 1117.98
-275.813 -3098.41 1117.9
-275.802 -3098.47 1117.84
-275.786 -3098.36 1118.08
-275.77 -3098.33 1118.16
-275.816 -3098.44 1117.78
-275.775 -3098.49 1117.7
-275.729 -3098.55 1117.63
-275.42 -3098.68 1117.08
-274.768 -3099.21 1116.28
-275.71 -3098.06 1118.27
-275.775 -3098.02 1118.31
-275.753 -3098.07 1118.33
-275.747 -3098.14 1118.33
-275.683 -3098.12 1118.33
-275.754 -3098.02 1118.19
-275.634 -3098.14 1118.33
-275.601 -3098.16 1118.33
-275.808 -3097.89 1118.12
-275.798 -3097.88 1118.24
-275.398 -3098.57 1116.97
-275.737 -3098.16 1117.65
-274.977 -3098.88 1116.05
-274.411 -3099.7 1114.82
-275.822 -3097.83 1118.02
-275.675 -3098.22 1118.34
-275.738 -3098.27 1118.31
-275.752 -3098.3 1118.24
-272.649 -3100.89 1115.69
-272.961 -3100.63 1115.41
-273.312 -3102.8 1115.38
-273.137 -3102.41 1115.34
-272.972 -3102.03 1115.34
-272.781 -3101.55 1115.38
-273.676 -3100.15 1115.08
-273.042 -3100.67 1115.02
-275.259 -3102.6 1118.78
-275.055 -3102.47 1118.77
-274.281 -3101.83 1118.42
-273.839 -3101.48 1118.36
-274.288 -3101.9 1118.48
-273.461 -3102.86 1115.84
-274.605 -3103.53 1112.61
-274.75 -3103.65 1112.56
-274.45 -3103.41 1112.65
-274.268 -3103.28 1112.67
-274.123 -3103.15 1112.77
-273.972 -3103.03 1112.82
-273.706 -3102.77 1113.1
-273.733 -3102.82 1112.98
-273.832 -3102.91 1112.88
-273.663 -3102.83 1113.41
-273.542 -3102.66 1113.21
-273.412 -3102.6 1113.37
-273.374 -3102.72 1113.77
-273.285 -3102.76 1114.1
-273.391 -3103 1114.49
-273.348 -3103.11 1114.93
-274.837 -3103.62 1112.44
-274.649 -3102.45 1111.84
-274.406 -3102.88 1111.17
-274.514 -3103.09 1111.3
-274.297 -3103.31 1110.85
-274.601 -3103.15 1111.62
-274.73 -3103.3 1112.1
-273.791 -3105.33 1109.95
-273.829 -3105 1110.13
-273.459 -3104.46 1110.74
-273.894 -3105.06 1110.47
-273.84 -3104.85 1110.66
-273.697 -3104.66 1110.73
-274.022 -3104.96 1110.42
-273.681 -3104.86 1109.94
-272.91 -3103.86 1110.87
-273.368 -3104.3 1110.81
-273.196 -3104.1 1110.88
-272.191 -3103.17 1110.98
-272.145 -3102.99 1111.08
-272.788 -3103.67 1110.95
-272.616 -3103.47 1111
-271.934 -3102.67 1111.25
-272.051 -3102.83 1111.17
-271.18 -3101.45 1111.09
-271.129 -3101.5 1111.19
-271.328 -3101.45 1111.41
-271.152 -3101.55 1111.41
-271.031 -3101.65 1111.42
-271.442 -3102.13 1111.36
-271.249 -3101.91 1111.44
-271.643 -3102.32 1111.37
-271.846 -3102.54 1111.33
-271.211 -3101.41 1110.92
-271.252 -3101.43 1111.06
-271.353 -3101.36 1110.92
-272.267 -3101.15 1111.21
-272.344 -3101.13 1111.35
-271.987 -3101.22 1111.12
-271.499 -3101.31 1110.88
-273.472 -3100.87 1112.47
-273.587 -3100.82 1112.61
-274.696 -3100.96 1112.49
-274.661 -3100.73 1112.62
-274.643 -3100.73 1112.67
-274.632 -3100.52 1112.76
-274.852 -3101.04 1112.81
-274.59 -3100.42 1112.84
-274.544 -3100.33 1112.91
-274.104 -3100.64 1112.94
-274.415 -3100.38 1112.97
-273.85 -3104.53 1110.15
-274.061 -3104.08 1110.44
-296.951 -3171.55 1130.26
-296.135 -3173.01 1129.3
-296.948 -3171.98 1130.32
-274.677 -3099.59 1115.88
-274.701 -3099.56 1115.62
-274.965 -3099.75 1115.57
-275.012 -3100.75 1113.9
-274.91 -3100.22 1114.63
-274.92 -3100.78 1113.39
-275.834 -3098.33 1117.91
-275.815 -3098.31 1118
-275.844 -3098.35 1117.83
-275.824 -3098.41 1117.83
-275.798 -3098.29 1118.07
-275.781 -3098.26 1118.16
-275.834 -3098.38 1117.75
-275.776 -3098.45 1117.64
-275.721 -3098.51 1117.55
-275.378 -3098.56 1117.21
-274.747 -3098.73 1116.72
-274.199 -3099.11 1116.17
-274.27 -3099.36 1115.82
-274.478 -3099.5 1115.77
-275.788 -3097.98 1118.28
-275.789 -3098.05 1118.26
-275.778 -3098.11 1118.26
-275.722 -3098.2 1118.34
-275.76 -3098.19 1118.28
-275.813 -3097.77 1118.16
-275.87 -3097.86 1118.24
-275.431 -3098.55 1116.77
-275.785 -3098.11 1117.53
-275.805 -3098.06 1117.68
-275.837 -3097.83 1117.87
-275.446 -3098.46 1116.58
-275.077 -3098.56 1114.77
-275.193 -3098.54 1114.3
-274.813 -3099.37 1114.41
-274.126 -3100.17 1114.05
-273.574 -3100.58 1113.93
-273.339 -3100.79 1113.53
-275.83 -3097.65 1118.08
-275.767 -3098.23 1118.23
-272.622 -3101.04 1115.39
-273.186 -3102.86 1114.89
-273.034 -3102.58 1114.81
-272.884 -3102.14 1114.9
-272.73 -3101.59 1115.11
-273.395 -3100.52 1114.54
-272.607 -3101.11 1115.12
-272.894 -3100.87 1114.71
-275.254 -3102.52 1118.84
-274.799 -3102.2 1118.73
-274.433 -3101.86 1118.53
-274.018 -3101.53 1118.48
-274.656 -3103.6 1112.49
-274.504 -3103.48 1112.53
-274.8 -3103.69 1112.42
-274.362 -3103.37 1112.58
-274.228 -3103.28 1112.56
-274.112 -3103.18 1112.64
-273.977 -3103.06 1112.71
-273.815 -3102.93 1112.77
-273.57 -3102.68 1113.04
-273.685 -3102.82 1112.86
-273.562 -3102.71 1112.93
-273.416 -3102.56 1113.11
-273.282 -3102.44 1113.19
-273.244 -3102.51 1113.53
-273.151 -3102.56 1113.89
-273.088 -3102.67 1114.33
-273.234 -3102.87 1114.49
-274.35 -3103.6 1110.97
-274.513 -3103.45 1111.34
-274.606 -3103.44 1111.66
-274.762 -3103.58 1112.22
-274.02 -3104.66 1110.4
-273.613 -3104.54 1110.8
-274.159 -3105.05 1110.7
-274.025 -3104.93 1110.72
-273.87 -3104.78 1110.77
-274.15 -3104.73 1110.65
-273.016 -3103.89 1110.94
-273.436 -3104.33 1110.87
-273.265 -3104.12 1110.94
-272.427 -3103.25 1111.06
-272.294 -3103.08 1111.14
-272.857 -3103.69 1111.01
-272.644 -3103.45 1111.07
-272.095 -3102.79 1111.29
-272.218 -3102.96 1111.21
-271.335 -3101.45 1111.27
-271.528 -3101.37 1111.52
-271.162 -3101.6 1111.52
-271.079 -3101.67 1111.49
-271.489 -3102.12 1111.45
-271.256 -3101.86 1111.52
-271.767 -3102.4 1111.43
-271.979 -3102.63 1111.38
-271.392 -3101.38 1111.07
-271.455 -3101.4 1111.24
-271.759 -3101.27 1111.07
-271.552 -3101.32 1111.07
-272.972 -3101.05 1112.04
-272.608 -3101.07 1111.72
-272.929 -3101.07 1112.18
-272.441 -3101.11 1111.61
-273.538 -3100.82 1112.72
-274.298 -3100.3 1113.08
-274.063 -3100.46 1113.07
-274.826 -3100.83 1112.88
-274.679 -3100.65 1112.8
-274.635 -3100.59 1112.67
-274.539 -3100.43 1112.7
-274.512 -3100.34 1112.78
-274.472 -3100.23 1112.85
-274.489 -3100.18 1112.95
-274.459 -3100.16 1113.04
-274.077 -3104.37 1110.5
-274.366 -3099.21 1115.57
-274.6 -3099.37 1115.52
-274.905 -3100.68 1113.65
-274.754 -3100.03 1114.53
-274.806 -3100.7 1113.16
-275.861 -3098.28 1117.84
-275.841 -3098.27 1117.93
-275.828 -3098.24 1117.99
-275.858 -3098.29 1117.76
-275.808 -3098.23 1118.08
-275.793 -3098.2 1118.15
-275.826 -3098.34 1117.66
-275.777 -3098.41 1117.59
-275.718 -3098.46 1117.48
-275.317 -3098.48 1117.34
-274.643 -3098.54 1117.03
-274.278 -3098.67 1116.63
-273.769 -3098.71 1116.41
-273.68 -3098.98 1116
-274.012 -3099.16 1115.84
-275.805 -3098 1118.22
-275.806 -3098.07 1118.18
-275.786 -3098.15 1118.2
-275.81 -3097.82 1118.12
-275.794 -3097.96 1118.17
-275.852 -3097.81 1117.72
-275.847 -3097.58 1117.97
-275.595 -3098.08 1115.63
-275.864 -3097.88 1117.53
-274.87 -3099.34 1114.23
-275.18 -3098.65 1114.06
-275.895 -3097.85 1113.88
-274.653 -3099.7 1114.02
-273.584 -3100.65 1113.57
-273.353 -3100.74 1113.81
-272.777 -3101.1 1113.29
-272.463 -3101.28 1112.94
-272.576 -3101.22 1112.91
-275.844 -3097.57 1118
-275.826 -3097.7 1118.05
-272.922 -3102.52 1114.36
-272.777 -3102.32 1114.26
-272.715 -3101.94 1114.64
-272.57 -3101.57 1114.65
-273.092 -3100.91 1113.94
-272.498 -3101.2 1114.76
-272.796 -3101.11 1114.04
-275.308 -3102.49 1118.91
-274.866 -3102.17 1118.81
-274.631 -3101.91 1118.66
-274.163 -3101.54 1118.59
-274.697 -3103.66 1112.38
-274.541 -3103.54 1112.42
-274.377 -3103.41 1112.47
-274.067 -3103.18 1112.52
-274.193 -3103.29 1112.44
-273.949 -3103.08 1112.57
-273.842 -3102.99 1112.65
-273.702 -3102.9 1112.63
-273.607 -3102.8 1112.73
-273.414 -3102.59 1112.99
-273.49 -3102.7 1112.8
-273.362 -3102.59 1112.87
-273.267 -3102.47 1113.06
-273.144 -3102.34 1113.25
-273.126 -3102.35 1113.13
-273.058 -3102.33 1113.49
-272.991 -3102.43 1113.91
-274.235 -3104.07 1110.83
-274.489 -3103.71 1111.36
-274.621 -3103.63 1111.75
-274.735 -3103.68 1112.2
-274.179 -3104.46 1110.73
-273.639 -3104.48 1110.9
-273.786 -3104.6 1110.88
-274.227 -3105.02 1110.87
-274.153 -3104.76 1110.94
-274.019 -3104.7 1110.93
-273.925 -3104.52 1111.03
-274.26 -3104.59 1110.9
-273.093 -3103.92 1110.99
-273.464 -3104.3 1110.94
-273.286 -3104.09 1111.02
-272.515 -3103.29 1111.14
-272.461 -3103.19 1111.2
-272.792 -3103.57 1111.1
-273.025 -3103.81 1111.06
-272.231 -3102.88 1111.35
-272.345 -3103.04 1111.27
-271.531 -3101.42 1111.42
-271.329 -3101.55 1111.55
-271.166 -3101.69 1111.59
-271.47 -3102.05 1111.53
-271.695 -3102.28 1111.5
-271.353 -3101.89 1111.6
-271.937 -3102.52 1111.48
-272.113 -3102.72 1111.42
-271.615 -3101.34 1111.24
-271.69 -3101.36 1111.41
-272.365 -3101.14 1111.63
-271.873 -3101.25 1111.19
-271.769 -3101.29 1111.24
-273.447 -3100.85 1112.74
-272.811 -3101.1 1112.19
-273.06 -3101.02 1112.45
-273.112 -3101 1112.6
-272.641 -3101.14 1112.07
-274.413 -3100 1113.1
-274.256 -3100.17 1113.13
-273.967 -3100.46 1113.11
-274.695 -3100.6 1112.97
-274.488 -3100.37 1112.9
-274.538 -3100.41 1112.88
-274.443 -3100.32 1112.68
-274.426 -3100.24 1112.75
-274.403 -3100.11 1112.88
-274.413 -3100.04 1113
-274.379 -3099.05 1115.39
-274.118 -3099.05 1115.63
-274.133 -3098.89 1115.45
-274.804 -3100.59 1113.48
-274.649 -3100 1114.29
-275.863 -3098.22 1117.87
-275.876 -3098.22 1117.8
-275.853 -3098.18 1117.93
-275.836 -3098.17 1118
-275.874 -3098.23 1117.7
-275.817 -3098.16 1118.08
-275.812 -3098.12 1118.13
-275.8 -3098.3 1117.54
-275.759 -3098.38 1117.5
-275.706 -3098.43 1117.39
-275.272 -3098.41 1117.45
-274.464 -3098.43 1117.23
-274.077 -3098.54 1116.82
-273.294 -3098.71 1116.17
-273.481 -3098.56 1116.58
-273.44 -3098.66 1115.94
-273.889 -3098.96 1115.75
-275.805 -3098.02 1118.16
-275.819 -3098.06 1118.1
-275.819 -3097.78 1118.03
-275.802 -3097.91 1118.1
-275.803 -3098.01 1118.1
-275.863 -3097.56 1117.83
-275.862 -3097.43 1117.94
-275.791 -3097.77 1115.77
-276.323 -3097.25 1114.22
-275.896 -3097.79 1117.4
-275.874 -3097.63 1117.64
-275.092 -3099.12 1113.98
-275.413 -3098.23 1113.85
-276.175 -3097.58 1113.92
-274.222 -3100.24 1113.9
-274.42 -3100.08 1113.8
-274.753 -3099.63 1113.88
-273.542 -3100.7 1113.43
-272.663 -3101.19 1112.86
-272.457 -3101.31 1113.23
-272.253 -3101.39 1112.89
-272.182 -3101.45 1112.96
-272.259 -3101.37 1112.58
-272.175 -3101.42 1112.63
-272.343 -3101.33 1112.53
-275.855 -3097.5 1117.91
-275.837 -3097.64 1117.97
-272.84 -3102.28 1113.85
-272.621 -3102.09 1114.1
-272.69 -3102.1 1113.74
-272.495 -3101.86 1114.05
-272.316 -3101.48 1114.28
-272.253 -3101.46 1113.22
-272.499 -3101.32 1114.02
-275.42 -3102.51 1119.02
-274.992 -3102.19 1118.92
-275.335 -3102.38 1119.04
-274.509 -3101.61 1118.82
-274.315 -3101.55 1118.71
-274.612 -3103.62 1112.32
-274.439 -3103.49 1112.34
-274.301 -3103.39 1112.37
-274.049 -3103.25 1112.31
-273.912 -3103.14 1112.36
-274.174 -3103.36 1112.23
-273.777 -3103.02 1112.45
-273.646 -3102.99 1112.33
-273.553 -3102.88 1112.46
-273.442 -3102.77 1112.55
-273.227 -3102.49 1112.92
-273.328 -3102.66 1112.63
-273.192 -3102.57 1112.66
-273.09 -3102.37 1112.98
-272.989 -3102.23 1113.22
-272.96 -3102.26 1113.05
-272.909 -3102.19 1113.46
-274.28 -3104.21 1110.96
-274.42 -3104.1 1111.28
-274.531 -3103.85 1111.53
-274.61 -3103.86 1111.78
-274.682 -3103.85 1112.04
-274.625 -3103.68 1112.18
-274.329 -3104.35 1111.07
-273.635 -3104.29 1111.06
-273.793 -3104.31 1111.13
-274.269 -3105.28 1111.04
-274.308 -3104.76 1111.09
-274.091 -3104.47 1111.16
-274.239 -3104.56 1111.16
-273.948 -3104.29 1111.24
-274.331 -3104.7 1111.11
-273.499 -3104.16 1111.11
-273.181 -3103.93 1111.1
-273.377 -3104 1111.17
-272.701 -3103.44 1111.17
-272.605 -3103.3 1111.25
-272.945 -3103.69 1111.14
-272.365 -3102.97 1111.4
-272.486 -3103.14 1111.33
-271.536 -3101.46 1111.52
-271.383 -3101.56 1111.62
-271.221 -3101.69 1111.65
-271.577 -3102.11 1111.59
-271.819 -3102.35 1111.56
-271.438 -3101.92 1111.68
-272.063 -3102.59 1111.55
-272.215 -3102.78 1111.48
-271.847 -3101.3 1111.4
-271.734 -3101.38 1111.51
-272.2 -3101.19 1111.53
-272.517 -3101.18 1112.04
-272.365 -3101.21 1111.89
-272.028 -3101.24 1111.44
-273.62 -3100.74 1112.97
-273.028 -3101.03 1112.65
-272.749 -3101.14 1112.38
-273.633 -3100.69 1113.06
-274.426 -3099.92 1113.21
-274.416 -3099.91 1113.04
-274.447 -3099.89 1113.13
-274.195 -3100.16 1113.2
-274.061 -3100.29 1113.24
-274.677 -3100.49 1113.21
-274.535 -3100.11 1113.64
-274.478 -3100.16 1113.29
-274.355 -3100.2 1112.67
-274.318 -3099.94 1113.2
-274.352 -3100.11 1112.78
-274.36 -3099.98 1112.92
-273.755 -3098.7 1115.6
-273.596 -3098.44 1115.44
-274.049 -3098.68 1115.21
-274.634 -3100.17 1113.88
-275.859 -3098.17 1117.87
-275.861 -3098.17 1117.81
-275.868 -3098.17 1117.74
-275.84 -3098.12 1117.98
-275.844 -3098.12 1117.92
-275.832 -3098.11 1118.04
-275.808 -3098.16 1117.57
-275.745 -3098.33 1117.38
-275.606 -3098.4 1117.29
-274.923 -3098.26 1117.79
-274.371 -3098.33 1117.47
-273.882 -3098.46 1116.97
-272.941 -3098.56 1115.99
-272.853 -3098.65 1116.16
-273.315 -3098.51 1116.77
-272.941 -3098.69 1116.33
-273.161 -3098.47 1115.73
-275.821 -3098.06 1118.04
-275.83 -3097.72 1117.94
-275.813 -3097.85 1118
-275.799 -3097.97 1118.06
-275.809 -3098.03 1118.03
-275.879 -3097.36 1117.81
-275.875 -3097.35 1117.85
-275.965 -3097.46 1115.69
-276.538 -3097.08 1113.84
-276.577 -3096.96 1114.11
-275.895 -3097.56 1117.53
-275.966 -3097.52 1117.33
-275.18 -3098.86 1113.78
-275.011 -3099.32 1113.81
-275.239 -3098.47 1113.64
-275.888 -3097.9 1113.71
-276.339 -3097.38 1113.7
-274.68 -3099.8 1113.69
-273.651 -3100.63 1113.4
-274.478 -3100.02 1113.64
-272.71 -3101.17 1112.77
-272.438 -3101.28 1112.48
-272.099 -3101.52 1113.01
-272.081 -3101.48 1112.7
-272.008 -3101.55 1112.81
-272.076 -3101.47 1112.33
-272.162 -3101.41 1112.27
-272.008 -3101.51 1112.42
-272.256 -3101.36 1112.23
-275.868 -3097.41 1117.83
-275.849 -3097.58 1117.88
-272.738 -3102.03 1113.4
-272.545 -3101.9 1113.53
-272.388 -3101.78 1113.74
-272.269 -3101.65 1113.54
-272.145 -3101.59 1113.94
-272.118 -3101.56 1113.23
-272.017 -3101.59 1113.06
-275.256 -3102.23 1119.04
-274.603 -3101.56 1118.93
-274.495 -3103.58 1112.21
-274.326 -3103.48 1112.19
-274.044 -3103.39 1112.08
-273.918 -3103.25 1112.14
-273.778 -3103.11 1112.22
-274.191 -3103.54 1112.03
-273.632 -3103.11 1112.1
-273.498 -3102.95 1112.2
-273.376 -3102.82 1112.32
-273.233 -3102.69 1112.41
-273.052 -3102.46 1112.7
-273.067 -3102.57 1112.45
-272.918 -3102.35 1112.77
-272.828 -3102.15 1113.11
-272.844 -3102.11 1113.27
-272.783 -3102.23 1112.85
-274.519 -3104.24 1111.59
-274.391 -3104.65 1111.28
-274.444 -3104.75 1111.47
-274.606 -3104.53 1111.92
-274.604 -3104.08 1111.88
-274.5 -3103.81 1111.97
-273.684 -3104.08 1111.28
-273.845 -3104.03 1111.41
-274.32 -3105.46 1111.24
-274.348 -3105.02 1111.22
-274.392 -3104.56 1111.32
-274.249 -3104.35 1111.35
-274.115 -3104.23 1111.38
-273.993 -3104.09 1111.44
-273.554 -3103.91 1111.35
-273.079 -3103.77 1111.19
-273.265 -3103.8 1111.28
-273.432 -3103.74 1111.43
-272.851 -3103.55 1111.22
-272.748 -3103.4 1111.3
-272.485 -3103.05 1111.45
-272.629 -3103.24 1111.38
-271.575 -3101.48 1111.6
-271.428 -3101.58 1111.7
-271.272 -3101.69 1111.71
-271.671 -3102.16 1111.65
-271.93 -3102.42 1111.62
-271.337 -3101.74 1111.77
-271.561 -3101.99 1111.75
-272.173 -3102.66 1111.61
-272.329 -3102.85 1111.53
-271.925 -3101.31 1111.5
-271.772 -3101.4 1111.58
-272.22 -3101.24 1111.77
-272.518 -3101.22 1112.25
-272.343 -3101.27 1112.06
-272.09 -3101.28 1111.66
-272.932 -3101.07 1112.7
-273.684 -3100.63 1113.17
-273.661 -3100.64 1113.24
-272.668 -3101.18 1112.45
-274.579 -3099.8 1113.18
-274.486 -3099.9 1113.31
-274.444 -3099.88 1112.93
-274.555 -3099.81 1113.07
-274.396 -3100.01 1113.41
-273.585 -3098.47 1114.83
-273.751 -3098.45 1115.06
-273.346 -3098.41 1114.67
-274.181 -3099.78 1113.09
-274.274 -3100.07 1112.69
-273.292 -3098.31 1114.51
-273.905 -3099.07 1113.8
-274.297 -3099.99 1112.79
-274.383 -3099.91 1112.86
-272.98 -3098.33 1115.48
-275.809 -3098.14 1117.86
-275.839 -3098.14 1117.79
-275.86 -3098.1 1117.62
-275.826 -3098.07 1117.98
-275.829 -3098.08 1117.91
-275.817 -3098.17 1117.44
-275.871 -3098.11 1117.56
-275.633 -3098.29 1117.35
-274.794 -3098.15 1118.01
-274.16 -3098.22 1117.69
-273.869 -3098.37 1117.22
-272.494 -3098.5 1115.91
-272.391 -3098.59 1116.07
-272.463 -3098.69 1116.21
-273.629 -3098.32 1117.29
-272.78 -3098.77 1116.61
-272.862 -3098.76 1116.5
-272.505 -3098.77 1116.33
-272.595 -3098.4 1115.73
-275.837 -3097.69 1117.87
-275.819 -3097.83 1117.93
-275.802 -3097.96 1118
-275.812 -3098.03 1117.97
-275.896 -3097.33 1117.67
-275.893 -3097.21 1117.79
-275.799 -3097.39 1117.7
-276.066 -3097.26 1115.64
-276.683 -3096.96 1113.49
-276.737 -3096.79 1113.74
-276.648 -3096.74 1114.27
-276.748 -3096.67 1113.95
-275.951 -3097.33 1117.47
-276.118 -3097.11 1115.89
-276.037 -3097.21 1117.3
-275.057 -3099.3 1113.65
-275.17 -3098.87 1113.59
-275.528 -3098.09 1113.55
-275.238 -3098.35 1113.44
-276.042 -3097.78 1113.51
-276.411 -3097.35 1113.43
-274.722 -3099.79 1113.54
-273.668 -3100.63 1113.33
-272.81 -3101.13 1112.73
-274.385 -3100.07 1113.6
-274.588 -3099.89 1113.49
-272.555 -3101.23 1112.47
-272.396 -3101.29 1112.28
-271.912 -3101.63 1112.88
-271.926 -3101.56 1112.55
-271.833 -3101.64 1112.64
-271.87 -3101.55 1112.09
-271.954 -3101.48 1112.03
-272.045 -3101.4 1111.94
-271.86 -3101.58 1112.29
-272.19 -3101.32 1111.96
-275.866 -3097.34 1117.75
-275.865 -3097.46 1117.79
-275.854 -3097.57 1117.8
-272.695 -3102.04 1113.19
-272.596 -3101.93 1113.3
-272.383 -3101.76 1113.39
-272.451 -3101.85 1113.25
-272.012 -3101.72 1113.64
-272.234 -3101.74 1113.21
-272.076 -3101.61 1113.31
-271.978 -3101.65 1113.2
-271.921 -3101.67 1113.08
-271.838 -3101.69 1112.94
-274.827 -3101.82 1118.92
-275.303 -3102.02 1119.22
-275.503 -3102.38 1119.21
-274.715 -3101.53 1119.03
-274.357 -3103.66 1112.01
-273.896 -3103.5 1111.9
-274.04 -3103.63 1111.87
-273.77 -3103.3 1112
-274.191 -3103.76 1111.83
-273.616 -3103.37 1111.85
-273.482 -3103.18 1111.94
-273.345 -3102.98 1112.04
-273.23 -3102.82 1112.14
-273.092 -3102.69 1112.2
-272.904 -3102.45 1112.49
-272.944 -3102.58 1112.23
-272.762 -3102.32 1112.58
-272.647 -3102.11 1112.93
-272.62 -3102.2 1112.65
-274.523 -3105.15 1111.8
-274.369 -3105.57 1111.41
-274.413 -3105.69 1111.58
-274.537 -3104.68 1111.74
-274.449 -3104.04 1111.73
-274.539 -3104.22 1111.69
-274.33 -3103.89 1111.8
-273.721 -3103.83 1111.52
-273.876 -3103.76 1111.67
-274.014 -3103.86 1111.65
-274.411 -3105.04 1111.42
-274.478 -3104.51 1111.52
-274.39 -3104.27 1111.5
-274.273 -3104.11 1111.57
-274.149 -3103.99 1111.62
-273.591 -3103.65 1111.6
-272.98 -3103.58 1111.31
-273.146 -3103.6 1111.4
-273.315 -3103.54 1111.54
-273.466 -3103.46 1111.69
-272.867 -3103.4 1111.41
-272.588 -3103.07 1111.54
-272.738 -3103.23 1111.48
-271.622 -3101.5 1111.68
-271.457 -3101.61 1111.77
-271.791 -3102.24 1111.7
-272.034 -3102.47 1111.7
-271.392 -3101.76 1111.84
-271.603 -3101.98 1111.82
-271.816 -3102.22 1111.77
-272.304 -3102.72 1111.68
-272.437 -3102.89 1111.61
-271.926 -3101.38 1111.63
-271.816 -3101.42 1111.66
-274.32 -3100.1 1113.5
-274.661 -3099.77 1113.28
-274.705 -3099.72 1113.16
-274.525 -3099.77 1112.87
-274.604 -3099.77 1112.99
-274.699 -3099.7 1113.05
-274.571 -3099.87 1113.41
-272.742 -3098.25 1115.37
-271.119 -3097.9 1115.08
-271.037 -3097.75 1114.8
-274.043 -3099.64 1112.96
-272.083 -3097.97 1114.34
-274.269 -3099.87 1112.66
-274.465 -3099.8 1112.81
-271.173 -3098.21 1115.52
-275.833 -3098.08 1117.85
-275.838 -3098.08 1117.75
-275.847 -3098.06 1117.62
-275.789 -3098.08 1117.52
-275.867 -3098.07 1117.47
-275.806 -3098.04 1117.9
-275.773 -3098.13 1117.4
-274.797 -3098.08 1118.14
-273.902 -3098.12 1117.92
-273.48 -3098.34 1117.4
-271.203 -3098.52 1115.95
-271.203 -3098.39 1115.76
-271.315 -3098.6 1116.17
-271.493 -3098.7 1116.34
-272.082 -3098.75 1116.84
-271.654 -3098.74 1116.53
-271.846 -3098.8 1116.67
-275.838 -3097.71 1117.82
-275.821 -3097.85 1117.87
-275.799 -3097.97 1117.94
-275.92 -3097.13 1117.66
-275.888 -3097.11 1117.73
-275.837 -3097.19 1117.77
-276.809 -3096.59 1113.56
-276.719 -3096.86 1113.29
-276.826 -3096.43 1113.79
-276.782 -3096.46 1114.08
-276.664 -3096.5 1114.46
-276.242 -3096.9 1115.81
-276.002 -3097.08 1117.48
-276.259 -3096.76 1116.05
-276.117 -3096.99 1117.26
-275.048 -3099.37 1113.53
-275.125 -3099.07 1113.38
-275.118 -3098.7 1113.31
-275.653 -3097.98 1113.41
-275.202 -3098.25 1113.28
-275.343 -3098.12 1113.32
-276.098 -3097.67 1113.35
-276.458 -3097.22 1113.24
-275.006 -3099.49 1113.39
-274.79 -3099.72 1113.42
-274.757 -3099.72 1113.35
-271.766 -3101.71 1112.78
-271.758 -3101.65 1112.37
-271.669 -3101.72 1112.44
-271.709 -3101.72 1112.6
-271.712 -3101.55 1111.84
-271.673 -3101.61 1111.95
-271.841 -3101.46 1111.77
-271.703 -3101.65 1112.1
-275.824 -3097.43 1117.78
-275.768 -3097.26 1117.83
-275.845 -3097.54 1117.78
-272.512 -3101.98 1113.04
-272.32 -3101.85 1113.05
-271.999 -3101.7 1113.38
-272.104 -3101.65 1113.26
-272.136 -3101.77 1112.98
-272.021 -3101.67 1113.14
-271.869 -3101.79 1113.31
-271.832 -3101.74 1113.1
-271.77 -3101.75 1112.97
-271.685 -3101.78 1112.81
-275.081 -3101.81 1119.17
-275.541 -3101.97 1119.5
-273.743 -3103.56 1111.76
-273.333 -3103.26 1111.8
-273.178 -3103.1 1111.85
-273.067 -3102.94 1111.92
-272.933 -3102.81 1111.97
-272.803 -3102.48 1112.25
-272.686 -3102.37 1112.34
-272.785 -3102.68 1111.99
-272.547 -3102.26 1112.4
-272.492 -3102.08 1112.74
-272.42 -3102.15 1112.48
-274.463 -3105.15 1111.61
-273.038 -3103.31 1111.58
-273.191 -3103.36 1111.63
-272.924 -3103.12 1111.69
-272.62 -3102.82 1111.78
-272.773 -3102.97 1111.73
-271.637 -3101.54 1111.77
-271.46 -3101.66 1111.87
-272.004 -3102.38 1111.79
-272.201 -3102.57 1111.76
-271.536 -3101.87 1111.9
-271.779 -3102.12 1111.86
-272.356 -3102.46 1111.95
-272.482 -3102.64 1111.86
-274.83 -3099.64 1113.23
-274.825 -3099.6 1113.12
-274.579 -3099.45 1112.81
-274.659 -3099.53 1112.92
-274.805 -3099.39 1113.02
-274.724 -3099.55 1112.99
-271.111 -3098.09 1115.36
-269.866 -3097.54 1114.74
-268.454 -3096.82 1113.65
-267.991 -3096.52 1113.17
-267.822 -3096.35 1112.85
-273.844 -3099.15 1113.04
-272.186 -3097.91 1114.13
-267.766 -3096.22 1112.58
-274.475 -3099.21 1112.76
-274.443 -3099.49 1112.7
-269.806 -3097.89 1115.22
-269.466 -3097.52 1114.71
-275.819 -3098.04 1117.84
-275.743 -3098.12 1117.77
-275.691 -3098.04 1117.74
-275.516 -3098.17 1117.65
-275.214 -3098.03 1118.07
-275.807 -3097.98 1117.88
-274.708 -3097.98 1118.36
-273.837 -3098.05 1118.18
-272.614 -3098.58 1117.29
-272.33 -3098.65 1117.09
-269.739 -3098.3 1115.89
-269.709 -3098.12 1115.49
-270.047 -3098.13 1116.41
-270.441 -3098.09 1116.82
-270.939 -3097.64 1117.73
-270.834 -3098.01 1117.24
-275.799 -3097.66 1117.8
-275.829 -3097.77 1117.79
-275.819 -3097.88 1117.83
-275.947 -3096.95 1117.66
-275.791 -3097.03 1117.81
-275.732 -3097.12 1117.86
-276.834 -3096.47 1113.39
-276.883 -3096.26 1113.57
-276.713 -3096.79 1113.12
-276.767 -3096.4 1113.27
-276.869 -3096.24 1113.92
-276.904 -3096.16 1113.7
-276.803 -3096.24 1114.22
-276.634 -3096.39 1114.71
-276.092 -3096.89 1117.42
-276.264 -3096.61 1116.33
-276.201 -3096.78 1117.24
-275.052 -3099.34 1113.26
-275.072 -3099.03 1113.2
-275.117 -3098.59 1113.18
-275.735 -3097.86 1113.25
-275.187 -3098.16 1113.14
-275.421 -3097.99 1113.19
-276.141 -3097.54 1113.23
-276.375 -3097.21 1113.1
-274.95 -3099.56 1113.29
-271.618 -3101.79 1112.62
-271.607 -3101.75 1112.11
-271.619 -3101.76 1112.25
-271.549 -3101.84 1112.48
-271.513 -3101.66 1111.92
-271.55 -3101.75 1112.03
-271.528 -3101.8 1111.98
-275.696 -3097.3 1117.89
-275.73 -3097.45 1117.86
-275.643 -3097.13 1117.93
-275.718 -3097.57 1117.87
-272.376 -3101.97 1112.86
-272.208 -3101.89 1112.79
-272.031 -3101.8 1112.73
-271.969 -3101.68 1112.97
-271.838 -3101.8 1113.19
-271.711 -3101.91 1113.27
-271.684 -3101.81 1112.99
-271.636 -3101.82 1112.88
-271.557 -3101.85 1112.71
-275.05 -3101.66 1119.22
-275.44 -3101.89 1119.47
-272.646 -3102.52 1112.06
-272.514 -3102.35 1112.15
-272.348 -3102.21 1112.21
-272.308 -3102.02 1112.62
-272.234 -3102.07 1112.37
-271.993 -3102.27 1111.9
-272.191 -3102.35 1111.95
-271.76 -3102.05 1111.94
-274.925 -3099.47 1113.17
-274.939 -3099.21 1113.09
-274.536 -3099.08 1112.71
-274.67 -3099.13 1112.8
-274.754 -3099.21 1112.91
-274.888 -3098.99 1112.97
-268.009 -3096.74 1113.59
-266.308 -3095.94 1112.3
-266.046 -3095.77 1111.82
-266.019 -3095.65 1111.53
-272.123 -3097.74 1113.64
-273.947 -3098.8 1112.93
-271.805 -3097.66 1113.91
-267.569 -3096.02 1112.17
-266.143 -3095.53 1111.25
-274.367 -3099.02 1112.66
-269.249 -3097.61 1114.89
-268.036 -3096.66 1114.21
-267.677 -3096.65 1113.59
-275.806 -3097.95 1117.82
-275.552 -3097.94 1118.01
-274.965 -3097.82 1118.53
-273.949 -3097.85 1118.51
-274.519 -3097.86 1118.67
-273.243 -3098.14 1118
-272.996 -3098.54 1117.52
-272.141 -3098.16 1117.66
-271.198 -3097.49 1118.1
-269.349 -3098.02 1115.66
-269.319 -3097.89 1115.3
-269.642 -3097.88 1116.17
-270.006 -3097.71 1116.74
-270.282 -3097.47 1117.26
-270.32 -3097.09 1117.65
-275.727 -3097.67 1117.86
