-289.731 -3148.48 1303.67
-288.296 -3145.24 1301.63
-291.103 -3151.45 1304.19
-293.925 -3157.77 1304.82
-293.305 -3155.96 1304.27
-293.186 -3154.83 1302.85
-291.242 -3150.81 1301.54
-290.971 -3150.1 1300.31
-289.124 -3146.71 1299.88
-288.014 -3144.88 1297.54
-293.255 -3154.19 1301.06
-293.59 -3160.44 1307.4
-294.61 -3159.56 1304.8
-295.625 -3160.82 1303.55
-294.885 -3157.84 1302.22
-294.711 -3156.36 1300.32
-293.167 -3153.64 1299.56
-291.012 -3150.11 1299.12
-293.077 -3153.34 1298.13
-289.164 -3147.26 1297.71
-288.713 -3146.66 1294.63
-287.013 -3143.19 1291.17
-294.63 -3155.69 1298.14
-294.342 -3165.28 1308.68
-294.637 -3161.72 1306.09
-296.671 -3165.09 1304.51
-296.705 -3164.62 1304.11
-295.739 -3160.78 1303.1
-296.997 -3165.11 1303.75
-294.984 -3157.2 1300.72
-295.015 -3156.36 1297.77
-285.61 -3140.44 1287.79
-284.274 -3137.42 1283.27
-294.543 -3155.22 1295.07
-291.354 -3151.03 1296.23
-290.324 -3149.23 1297.52
-292.564 -3152.58 1294.22
-289.815 -3148.78 1295.62
-289.59 -3148.09 1292.13
-288.317 -3145.52 1287.93
-294.896 -3155.75 1294.02
-295.37 -3169.59 1308.44
-296.132 -3172.4 1307.63
-296.094 -3166.96 1306.29
-295.975 -3165.19 1305.76
-297.704 -3168.5 1304.16
-297.553 -3167.51 1304.07
-297.868 -3167.96 1303.6
-295.289 -3158.52 1301.48
-296.993 -3164.87 1303.41
-298.04 -3168.26 1303.25
-295.265 -3156.96 1297.56
-295.31 -3156.59 1295.29
-285.705 -3140.22 1284.92
-287.21 -3142.87 1284.48
-285.514 -3139.32 1281.98
-285.361 -3138.78 1280.89
-284.061 -3136.65 1280.38
-283.64 -3136.44 1277.58
-294.074 -3154.14 1291.27
-293.641 -3153.46 1291.41
-290.687 -3149.69 1291.31
-292.329 -3151.88 1291.33
-289.881 -3148.38 1287.8
-290.44 -3149.35 1286.35
-288.71 -3145.68 1284.21
-294.937 -3155.85 1292.06
-294.215 -3154.28 1290.14
-297.043 -3177.2 1306.09
-296.643 -3171.26 1306.19
-296.931 -3168.86 1305.45
-297.583 -3175.41 1304.79
-298.265 -3170.51 1303.72
-298.413 -3169.95 1303.31
-298.461 -3170.72 1303.38
-298.569 -3170.13 1303
-295.995 -3161.43 1302.78
-295.304 -3157.95 1299.84
-297.074 -3165.06 1303.03
-298.144 -3168.43 1302.92
-298.641 -3170.15 1302.75
-295.557 -3157.37 1295.07
-295.16 -3156.43 1292.08
-288.839 -3145.38 1282.36
-287.34 -3142.34 1280.41
-285.457 -3138.89 1280.21
-285.247 -3138.74 1279.23
-284.701 -3139.11 1274.96
-293.567 -3153.06 1289.56
-292.148 -3151.19 1289.64
-290.584 -3149.38 1288.29
-292.316 -3152.57 1286.14
-292.386 -3152.7 1285.59
-290.488 -3149.31 1285.95
-292.036 -3151.97 1285.29
-290.14 -3148.12 1284.53
-290.101 -3147.53 1283.13
-294.619 -3155.11 1289.5
-293.997 -3153.89 1289.25
-298.417 -3177.67 1302.97
-297.492 -3170.75 1304.82
-297.821 -3172.32 1304.39
-298.335 -3172.54 1303.49
-298.598 -3170.9 1303.06
-298.513 -3172.66 1303.08
-298.683 -3170.8 1302.7
-295.86 -3160.83 1302.22
-295.364 -3158.63 1300.64
-295.534 -3157.76 1296.92
-297.276 -3165.76 1302.65
-298.37 -3169.09 1302.52
-298.663 -3170.13 1302.51
-298.774 -3170.74 1302.34
-295.902 -3159.07 1293.44
-295.36 -3157.05 1291.98
-294.951 -3155.97 1289.63
-290.393 -3147.91 1282.44
-289.265 -3146.15 1281.98
-288.579 -3145.17 1279.11
-286.892 -3141.45 1278.93
-285.746 -3140.1 1277.21
-286.176 -3141.78 1273.91
-285.445 -3141.83 1270.52
-285.217 -3141.8 1268.89
-293.64 -3153.19 1289.13
-292.398 -3151.5 1289.24
-292.295 -3151.49 1288.76
-291.993 -3151.9 1286.95
-293.22 -3153.84 1285.99
-293.151 -3153.87 1285.33
-292.976 -3153.54 1284.68
-292.713 -3152.97 1284.44
-291.382 -3150.17 1284.44
-292.087 -3151.36 1283.92
-292.457 -3151.79 1283.08
-291.335 -3149.48 1282.99
-291.886 -3150.19 1281.96
-294.579 -3155.28 1288.78
-294.232 -3154.47 1288.76
-293.829 -3153.66 1288.71
-298.49 -3181.24 1302.44
-298.842 -3175.7 1302.04
-298.725 -3172.37 1302.44
-298.634 -3172.54 1302.74
-298.787 -3172.23 1302.2
-296.166 -3162.1 1302.37
-295.508 -3159.65 1301.22
-295.356 -3158.98 1300.52
-295.496 -3158.07 1297.93
-295.94 -3159.35 1293.98
-298.178 -3168.74 1302.06
-298.561 -3169.8 1302.13
-297.189 -3165.58 1302.48
-296.547 -3163.58 1302.38
-298.736 -3170.45 1302.11
-298.826 -3172.07 1301.74
-298.827 -3172.21 1301.94
-296.578 -3162.39 1291.65
-296.564 -3162.33 1291.43
-295.658 -3158.46 1291.79
-295.074 -3156.33 1289.59
-294.825 -3156.02 1288.72
-290.492 -3148.03 1281.97
-291.963 -3150.2 1281.33
-289.569 -3147.23 1280.61
-289.234 -3146.59 1280.34
-289.311 -3146.92 1277.85
-288.002 -3144.3 1276.23
-289.072 -3146.35 1276.65
-286.791 -3143.57 1272
-285.869 -3143.31 1268.49
-293.385 -3152.84 1288.83
-292.587 -3152.27 1287.85
-293.31 -3153.44 1287.4
-293.696 -3154.03 1287.41
-293.471 -3154.37 1285.95
-293.424 -3154.46 1285.16
-293.131 -3153.84 1284.27
-292.868 -3153.18 1284.01
-292.035 -3150.53 1282.46
-292.629 -3152.18 1282.87
-292.336 -3150.86 1281.74
-292.481 -3151.21 1281.62
-292.331 -3150.81 1281.25
-294.21 -3155.29 1287.26
-293.984 -3154.71 1287.4
-299.032 -3182.82 1300.62
-299.211 -3179.36 1300.61
-298.978 -3175.66 1301.6
-299.061 -3175.48 1301.25
-299.11 -3175.43 1300.96
-296.071 -3162.03 1301.94
-295.743 -3160.55 1301.76
-295.412 -3159.75 1300.75
-295.644 -3160.42 1301.33
-295.334 -3159.57 1300.31
-295.345 -3159.02 1299.89
-295.378 -3158.44 1299.33
-295.597 -3158.63 1296.88
-295.948 -3159.72 1294.32
-296.533 -3162.39 1292.08
-297.222 -3165.88 1302.19
-298.41 -3169.66 1301.73
-298.676 -3170.64 1301.65
-298.747 -3170.79 1301.81
-296.464 -3163.49 1302.16
-298.791 -3172 1301.52
-299.192 -3175.79 1300.5
-299.144 -3175.52 1300.3
-296.915 -3163.96 1290.98
-296.88 -3163.68 1290.57
-296.568 -3162.34 1291.1
-296.384 -3161.88 1290.93
-295.467 -3158.08 1290.7
-294.977 -3156.43 1288.97
-294.387 -3155.81 1287.33
-290.758 -3148.48 1281.47
-291.802 -3149.95 1281.06
-291.92 -3150.26 1280.72
-292.289 -3150.83 1280.73
-290.596 -3148.72 1280.19
-289.581 -3147.63 1279.18
-290.521 -3149.11 1278.43
-290.023 -3148.27 1277.67
-290.341 -3148.74 1276.56
-289.976 -3148.28 1275.62
-288.356 -3145.72 1274.14
-287.805 -3146.01 1271.08
-286.679 -3145.39 1268.14
-286.386 -3145.78 1266.33
-293.703 -3154.96 1285.9
-293.477 -3154.7 1284.54
-293.054 -3153.73 1283.49
-292.961 -3153.37 1283.65
-292.741 -3152.45 1282.53
-292.568 -3151.5 1281.54
-292.516 -3151.26 1281.04
-293.875 -3155.31 1285.75
-299.207 -3183.21 1299.76
-299.425 -3180.01 1299.67
-299.514 -3179.32 1299.29
-299.625 -3180.13 1298.36
-296.053 -3162.41 1301.68
-295.718 -3161.03 1301.32
-295.432 -3160.16 1300.72
-295.154 -3160.09 1299.46
-295.17 -3160.54 1299.79
-295.168 -3159.86 1298.97
-295.357 -3158.75 1298.91
-295.468 -3158.72 1297.76
-295.721 -3159.42 1295.79
-295.971 -3160.56 1294.23
-296.47 -3162.47 1292.46
-296.888 -3163.93 1291.44
-297.173 -3166.04 1301.86
-297.599 -3168.52 1300.77
-298.645 -3172.01 1300.76
-298.74 -3171.99 1301.23
-298.675 -3171.87 1301.02
-296.429 -3163.7 1301.96
-298.877 -3173.69 1300.72
-299.635 -3179.73 1298.09
-299.355 -3177.17 1299.27
-296.921 -3164.22 1291.02
-296.913 -3164.14 1290.48
-296.919 -3164.24 1290.65
-296.784 -3163.38 1290.27
-296.878 -3163.96 1290.19
-296.269 -3161.78 1290.62
-296.659 -3163.3 1289.87
-295.649 -3159.9 1290.7
-295.35 -3157.79 1290.09
-295.015 -3156.82 1288.81
-294.498 -3156.33 1287.36
-293.98 -3155.72 1285.83
-291.96 -3150.75 1279.56
-291.657 -3150.27 1279.56
-292.506 -3151.34 1280.66
-292.152 -3151.1 1279.53
-291.475 -3150.55 1278.21
-291.351 -3150.49 1276.85
-289.979 -3148.9 1274.3
-289.762 -3150.36 1270.8
-288.151 -3148.41 1268.42
-287.337 -3148.57 1265.57
-287.252 -3149.71 1263.67
-293.286 -3154.54 1283.45
-293.033 -3153.79 1283.03
-292.826 -3152.63 1282.22
-292.653 -3151.67 1281.16
-299.385 -3183.47 1298.74
-299.639 -3181.96 1298.28
-299.692 -3182.29 1297.37
-299.739 -3181.78 1297.03
-295.714 -3162.89 1300.8
-295.482 -3162.05 1300.47
-295.284 -3161.1 1300.12
-295.03 -3161.62 1298.91
-294.999 -3161.34 1298.66
-295.07 -3162.01 1299.31
-295.206 -3159.72 1298.33
-295.018 -3160.96 1298.23
-295.286 -3159.9 1297.34
-295.423 -3160.52 1296.21
-295.553 -3161.28 1295.48
-295.656 -3161.98 1295.07
-296.322 -3163.07 1293.16
-296.513 -3164.18 1292.73
-296.874 -3164.24 1291.43
-296.44 -3165.35 1300.75
-297.627 -3169.11 1300.51
-298.498 -3171.94 1300.49
-296.738 -3167.93 1299.24
-297.068 -3169.86 1299.04
-297.269 -3170.31 1299.19
-296.181 -3165.73 1299.74
-298.811 -3173.57 1300.4
-299.258 -3177.69 1298.34
-299.057 -3176.6 1298.7
-295.978 -3163.89 1300.93
-299.238 -3176.67 1299.26
-299.629 -3180.59 1297.13
-299.514 -3182.81 1294.95
-299.535 -3180.32 1296.83
-296.92 -3164.48 1290.77
-296.871 -3164.6 1291.2
-296.924 -3164.49 1290.33
-296.91 -3164.46 1290.03
-296.753 -3163.97 1289.68
-296.858 -3164.32 1289.8
-296.088 -3161.71 1290.04
-296.244 -3164.64 1287.89
-296.46 -3163.45 1289.12
-295.469 -3159.25 1290.44
-294.642 -3160.03 1287.62
-294.855 -3160.7 1287.75
-295.233 -3157.89 1289.57
-294.979 -3156.97 1288.54
-294.604 -3156.89 1287.52
-294.092 -3156.44 1286.2
-293.731 -3156.37 1284.51
-293.234 -3155.5 1282.51
-292.639 -3151.81 1280.64
-292.246 -3151.43 1279.44
-291.528 -3150.86 1276.83
-291.113 -3150.4 1275.44
-290.587 -3150.25 1273.93
-290.243 -3151.67 1270.46
-290.816 -3150.88 1273.79
-289.106 -3151.11 1267.47
-290.218 -3152.82 1268.45
-287.826 -3150.35 1264.78
-287.862 -3151.97 1263.56
-292.889 -3153.09 1281.66
-292.879 -3152.86 1281.95
-292.742 -3152.06 1281.06
-299.401 -3184.25 1298.11
-299.282 -3185.07 1296.91
-299.513 -3183.4 1296.21
-299.578 -3183.11 1295.7
-299.555 -3183.05 1295.15
-295.311 -3163.15 1299.78
-295.528 -3163.91 1299.89
-295.188 -3162.61 1299.57
-295.037 -3162.13 1298.43
-295.066 -3162.49 1298.92
-295.032 -3161.71 1298.08
-295.151 -3162.77 1299.28
-295.049 -3160.92 1297.76
-295.059 -3161.63 1297.54
-295.123 -3161.23 1297.07
-295.154 -3161.94 1296.82
-295.666 -3163.06 1295.35
-295.232 -3162.38 1296.56
-296.198 -3164.57 1294.03
-296.589 -3164.56 1292.43
-296.341 -3165.26 1293.26
-296.301 -3165.21 1293.86
-296.635 -3165.01 1292.1
-297.815 -3171.7 1299.5
-298.758 -3175.17 1299.08
-296.86 -3169.07 1298.7
-296.861 -3169.01 1298.99
-297.009 -3170.26 1298.65
-296.587 -3167.51 1298.86
-296.056 -3165.69 1299.38
-296.909 -3172.8 1297.3
-297.011 -3173.59 1297.2
-295.401 -3163.84 1299.53
-298.994 -3180.99 1294.51
-299.216 -3182.07 1294.18
-298.908 -3179.89 1295.46
-299.036 -3177.49 1297.94
-298.75 -3177.26 1297.65
-299.4 -3182.85 1294.33
-299.263 -3184.63 1292.84
-299.271 -3182.74 1293.92
-296.902 -3164.95 1290.91
-296.921 -3164.75 1290.49
-296.605 -3165.46 1291.77
-296.643 -3165.95 1289.4
-296.497 -3166.36 1288.61
-296.515 -3165.72 1288.41
-296.46 -3165.32 1288.25
-296.364 -3165.04 1288.06
-295.961 -3161.96 1289.29
-296.004 -3164.17 1287.59
-295.909 -3165.75 1286.37
-295.765 -3165.12 1286.53
-294.679 -3159.27 1288.05
-294.048 -3159.85 1285.9
-293.955 -3160.65 1285.15
-294.159 -3161.37 1285.4
-295.405 -3162.69 1287.36
-294.937 -3163.37 1285.85
-295.105 -3158.17 1289.12
-294.536 -3158.08 1287.46
-294.025 -3157.96 1285.98
-293.781 -3158.01 1284.75
-293.593 -3158.53 1283.66
-293.518 -3158.74 1283.09
-293.291 -3156.99 1281.53
-293.243 -3156.82 1281.97
-292.957 -3155.86 1280.73
-292.753 -3154.71 1280.76
-292.851 -3153.34 1281.29
-292.388 -3155.03 1278.9
-292.313 -3151.71 1279.34
-292.401 -3151.98 1279.4
-292.738 -3152.29 1280.62
-291.557 -3151.09 1276.46
-290.994 -3151.52 1273.69
-290.477 -3152.21 1270.71
-290.508 -3153.33 1268.94
-289.262 -3152.15 1266.74
-290.574 -3154.94 1267.92
-290.321 -3154.83 1267.3
-288.16 -3152.06 1264.4
-288.73 -3154.87 1263.73
-292.762 -3152.63 1280.5
-298.717 -3188.48 1296.38
-298.889 -3187.23 1294.93
-299.346 -3185.26 1294.04
-299.281 -3186.36 1293.02
-299.338 -3185.11 1293.39
-295.242 -3163.24 1299.4
-295.075 -3162.74 1298.4
-295.059 -3162.39 1297.79
-295.178 -3163.24 1298.91
-295.132 -3162.56 1297.16
-295.677 -3163.73 1295.78
-295.205 -3163.22 1297.23
-296.133 -3164.75 1294.67
-296.208 -3164.98 1294.29
-296.319 -3165.63 1293.46
-296.31 -3165.77 1292.83
-296.311 -3165.62 1294.03
-296.271 -3165.1 1294.44
-297.74 -3174.19 1298.12
-296.894 -3175.1 1296.29
-296.923 -3170.12 1298.14
-296.975 -3170.2 1298.45
-296.824 -3168.99 1298.34
-296.725 -3168 1298.32
-296.658 -3172.7 1296.51
-296.733 -3172.98 1296.73
-296.504 -3167.12 1298.53
-295.948 -3165.56 1299.04
-295.318 -3163.81 1299.18
-296.647 -3174.92 1295.78
-296.796 -3175.26 1295.98
-298.603 -3182.13 1292.44
-298.236 -3180.15 1293.33
-297.902 -3178.05 1295.44
-297.626 -3178 1294.83
-297.942 -3176.61 1296.89
-298.074 -3177.63 1296.18
-297.824 -3175.12 1297.71
-299.119 -3183.91 1292.39
-299.367 -3185.57 1292.07
-299.301 -3185.19 1291.78
-299.187 -3184.63 1291.79
-296.576 -3165.81 1291.08
-296.644 -3165.84 1290.28
-296.663 -3165.84 1289.8
-296.342 -3166.6 1291.2
-296.363 -3167.37 1289.53
-296.307 -3167.7 1289.1
-296.091 -3168.08 1287.21
-296.043 -3166.81 1286.59
-296.053 -3166.31 1286.62
-295.915 -3166.29 1285.9
-295.677 -3165.72 1285.55
-295.667 -3165.34 1285.97
-293.84 -3159.59 1285.04
-294.048 -3161.54 1284.76
-293.825 -3160.65 1284.4
-294.923 -3163.75 1285.32
-293.545 -3159.07 1282.74
-293.795 -3160.76 1283.73
-293.579 -3159.19 1282.3
-293.525 -3157.8 1280.73
-293.295 -3157.01 1280.55
-292.953 -3156.22 1279.85
-292.409 -3155.35 1278.65
-292.24 -3154.54 1278.62
-292.214 -3154.05 1278.72
-292.738 -3153.53 1280.68
-291.588 -3154.6 1275.54
-291.704 -3151.57 1276.5
-292.399 -3152.13 1279.22
-291.761 -3151.97 1276.34
-291.119 -3152.17 1273.58
-290.637 -3152.98 1270.63
-290.736 -3154.99 1268.66
-289.217 -3153.56 1265.68
-290.899 -3156.21 1268.46
-291.021 -3156.86 1268.04
-290.965 -3157.51 1267.1
-290.041 -3156.97 1265.37
-289.478 -3157.95 1263.38
-292.384 -3152.55 1279.08
-292.357 -3152.29 1278.98
-298.543 -3189.81 1293.08
-298.915 -3188.28 1292.64
-299.383 -3186.1 1292.08
-299.369 -3187.44 1290.68
-299.662 -3187.35 1289.19
-295.108 -3163.12 1297.88
-295.174 -3163.38 1298.4
-295.227 -3163.56 1298.93
-295.722 -3164.3 1296.31
-295.272 -3163.69 1297.49
-296.149 -3165.01 1295.27
-296.303 -3167.12 1291.95
-296.305 -3166.8 1291.75
-296.363 -3165.88 1294.59
-296.323 -3165.98 1293.93
-296.61 -3166.93 1296.53
-297.082 -3175.84 1296.15
-296.979 -3176 1295.77
-296.854 -3170.32 1297.67
-296.569 -3172.59 1296.02
-296.936 -3168.76 1297.27
-296.935 -3169.62 1297.95
-296.856 -3168.19 1297.31
-296.501 -3167.04 1298.04
-296.448 -3174.42 1295.48
-296.313 -3173.97 1295.03
-295.926 -3165.61 1298.46
-295.33 -3164.03 1298.68
-296.619 -3175.41 1295.36
-296.811 -3175.94 1295.44
-298.451 -3181.95 1291.99
-297.283 -3177.56 1294.12
-297.363 -3177.64 1294.49
-299.649 -3186.15 1289.18
-299.713 -3186.67 1289.11
-299.506 -3185.56 1289.39
-298.723 -3183.35 1291.03
-299.299 -3184.89 1289.65
-296.283 -3168.12 1289.1
-296.325 -3168.55 1289.17
-296.14 -3169.54 1287.4
-295.957 -3169.71 1286
-295.966 -3168.23 1286.14
-295.962 -3167.02 1285.86
-295.963 -3166.63 1286.13
-295.881 -3166.51 1285.33
-295.691 -3165.97 1284.9
-295.005 -3164.24 1284.84
-294.05 -3161.76 1284.27
-293.907 -3161.28 1283.44
-293.686 -3159.39 1281.7
-293.934 -3159.33 1280
-293.775 -3158.67 1279.54
-293.388 -3157.6 1279.33
-292.57 -3156.36 1277.58
-291.92 -3155.37 1276.15
-291.671 -3154.73 1275.7
-291.591 -3154.23 1275.86
-292.3 -3153.31 1278.94
-291.699 -3153.22 1276.08
-291.039 -3153.78 1272.88
-291.247 -3155.35 1272.33
-290.934 -3154.29 1271.24
-291.801 -3152.3 1276.4
-291.282 -3152.49 1273.93
-290.995 -3155.86 1269.59
-291.211 -3156.7 1269.32
-291.357 -3157.66 1268.24
-292.049 -3159.14 1268.1
-291.769 -3159.58 1267.06
-291.371 -3161.03 1265.43
-290.335 -3160.93 1263.61
-290.199 -3161.64 1262.66
-298.399 -3191.76 1289.47
-299.412 -3188.63 1289.03
-299.557 -3187.9 1289.2
-299.719 -3187.02 1289.03
-299.849 -3187.99 1287.94
-299.92 -3187.78 1287.4
-299.843 -3188.2 1286.95
-295.307 -3163.98 1297.91
-295.406 -3164.33 1298.16
-295.844 -3165.01 1297.02
-296.454 -3166.38 1296.59
-296.411 -3167.83 1293.49
-296.425 -3168.89 1291.56
-296.667 -3167.16 1295.3
-296.613 -3166.8 1295.59
-296.9 -3169.57 1296.76
-296.606 -3171.44 1295.54
-296.945 -3169.24 1297.14
-296.855 -3167.69 1296.18
-296.964 -3168.42 1296.02
-295.922 -3165.55 1297.81
-296.427 -3174.7 1295.06
-296.311 -3174.26 1294.71
-296.281 -3173.65 1294.62
-296.317 -3173.52 1294.82
-296.572 -3175.52 1295
-298 -3180.31 1291.89
-297.239 -3177.48 1293.7
-299.833 -3186.71 1287.03
-299.939 -3187.42 1287.25
-299.684 -3185.99 1287.3
-298.947 -3183.81 1289.19
-298.465 -3182.46 1289.59
-298.215 -3181.38 1290.12
-296.671 -3170.28 1289.44
-296.456 -3170.99 1287.7
-296.082 -3171.73 1285.3
-296.364 -3175.34 1284.75
-296.216 -3172.39 1285.63
-295.94 -3168.7 1285.55
-295.947 -3167.1 1285.13
-295.878 -3166.68 1284.73
-294.918 -3164.13 1284.33
-295.73 -3166.16 1284.27
-294.849 -3163.98 1283.82
-293.918 -3161.19 1282.73
-293.866 -3159.98 1281.17
-294.114 -3159.88 1279.65
-294.008 -3160.51 1281.09
-294.594 -3160.67 1278.83
-294.403 -3160.2 1278.39
-294.104 -3159.63 1277.81
-293.137 -3158.12 1276.32
-291.675 -3156.39 1272.74
-291.424 -3155.86 1272.43
-291.311 -3153.17 1274.02
-291.469 -3157.3 1269.53
-292.188 -3158.81 1268.94
-293.074 -3160.58 1268.98
-293.078 -3160.16 1269.47
-292.934 -3160.94 1268.35
-292.374 -3162.25 1266.51
-291.693 -3163.65 1264.47
-291.237 -3164.05 1263.09
-299.06 -3190.54 1287.59
-299.708 -3188.89 1286.97
-299.921 -3188.03 1286.16
-299.639 -3189.51 1285.87
-299.862 -3188.58 1285.88
-296.64 -3167.85 1294.65
-296.607 -3170.47 1293.56
-296.619 -3170.06 1294.26
-296.784 -3168.87 1295.04
-296.657 -3171.01 1292.68
-296.818 -3171.57 1291.39
-296.688 -3170.25 1290.63
-296.448 -3172.32 1294.53
-296.453 -3175.08 1294.73
-296.379 -3174.5 1294.3
-296.294 -3173.71 1294.28
-296.46 -3172.43 1293.88
-297.048 -3176.93 1293.64
-297.74 -3179.03 1291.8
-299.925 -3187.5 1286.3
-299.642 -3187.21 1284.48
-299.581 -3186.65 1284.77
-299.407 -3185.91 1285.06
-299.006 -3183.96 1287.58
-298.512 -3182.5 1288.26
-298.125 -3180.29 1289.7
-298.163 -3180.36 1288.55
-298.295 -3181.77 1287.93
-297.074 -3173.63 1289.72
-296.943 -3173.36 1288.8
-296.583 -3174.9 1286.05
-296.067 -3171.66 1284.71
-296.306 -3175.21 1284.29
-296.583 -3177.42 1284.81
-296.554 -3177.56 1283.99
-295.948 -3168.7 1284.91
-296.008 -3167.19 1284.29
-296.049 -3167.7 1284.26
-295.944 -3166.7 1283.89
-295.793 -3166.28 1283.63
-294.729 -3163.55 1283.24
-293.998 -3161.34 1282.45
-294.193 -3160.94 1280.88
-295.085 -3162.05 1279.74
-295.005 -3161.67 1279.25
-296.05 -3164.18 1279.62
-295.63 -3163.08 1278.64
-294.132 -3160.22 1276.18
-293.123 -3159.4 1271.99
-292.468 -3158.14 1271.88
-292.247 -3158.45 1270.02
-293.022 -3159.65 1270.06
-293.355 -3160.96 1269.42
-293.372 -3160.86 1269.7
-293.36 -3160.46 1270.29
-293.241 -3161.28 1268.93
-292.678 -3162.09 1267.26
-292.639 -3163.63 1266.34
-292.778 -3166.91 1264.21
-292.332 -3169.07 1261.3
-298.625 -3192.43 1286.24
-298.568 -3192.8 1284.66
-297.989 -3194.52 1282.37
-299.193 -3191.17 1285.71
-299.884 -3187.99 1285.67
-299.512 -3189.29 1284.31
-299.59 -3188.45 1284.17
-299.311 -3190.39 1284.17
-298.993 -3191.74 1284.19
-296.522 -3172.83 1293.24
-296.658 -3173.24 1292.66
-297.246 -3175.75 1291.43
-297.202 -3174.85 1290.51
-296.856 -3176.15 1293.62
-296.864 -3175.52 1293.12
-297.642 -3178.04 1290.67
-299.637 -3187.72 1284.33
-299.266 -3187.45 1281.08
-299.181 -3186.67 1280.37
-299.013 -3185.94 1280.49
-298.537 -3184.36 1283.81
-298.692 -3184.06 1285.62
-298.874 -3185.27 1281.59
-298.339 -3182.24 1287.24
-297.671 -3177.61 1289.58
-297.991 -3178.92 1288.95
-298.101 -3180.17 1288
-297.642 -3177.45 1289.12
-297.573 -3177.31 1288.58
-298.07 -3180.45 1287.43
-297.285 -3176.12 1290.04
-297.189 -3175.68 1288.92
-296.97 -3175.69 1287.46
-296.775 -3176.64 1285.98
-296.12 -3171.53 1284.05
-296.287 -3174.84 1283.98
-295.932 -3170.04 1284.18
-296.465 -3177.06 1283.58
-296.962 -3179.42 1284.68
-296.918 -3179.47 1284.22
-296.9 -3179.41 1283.25
-297.126 -3180.57 1283.64
-296.007 -3168.74 1284.02
-296.046 -3166.86 1283.34
-296.104 -3167.29 1283.43
-296.255 -3168.46 1282.44
-296.394 -3167.3 1282.03
-295.941 -3166.51 1283.25
-295.811 -3166.11 1283.12
-294.959 -3163.94 1282.94
-294.902 -3162.38 1280.87
-295.976 -3164.28 1280.45
-296.031 -3164.25 1280.07
-296.289 -3164.94 1280.16
-296.414 -3165.25 1280.09
-296.285 -3164.78 1279.6
-296.256 -3164.71 1279.07
-295.498 -3162.9 1278.1
-294.207 -3160.59 1275.92
-293.398 -3160.09 1272.14
-293.697 -3160.42 1274.09
-293.543 -3161.59 1269.56
-293.6 -3161.25 1270.05
-293.537 -3160.8 1270.36
-292.961 -3162.15 1267.93
-293.268 -3162.51 1268.66
-292.922 -3163.53 1267.33
-292.993 -3164.94 1266.3
-293.859 -3167.07 1267.15
-294.666 -3170.29 1265.74
-294.06 -3171.14 1263.85
-294.315 -3174.63 1262
-297.561 -3195.81 1279.55
-296.913 -3198.06 1277.39
-298.723 -3192.36 1281.57
-299.214 -3189.24 1281.67
-299.353 -3188.02 1282.44
-298.869 -3190.92 1279.17
-299.182 -3188.17 1278.43
-299.088 -3186.8 1276.51
-298.542 -3184.76 1278.63
-298.99 -3186.01 1276.21
-298.314 -3183.78 1280.67
-298.307 -3184 1282.81
-297.448 -3181.86 1283.89
-298.041 -3182.51 1285.6
-298.018 -3183.18 1282.27
-297.77 -3181.58 1285.65
-297.476 -3177.25 1287.95
-297.959 -3180.35 1286.99
-297.393 -3177.33 1287.42
-297.382 -3178.8 1286.37
-297.006 -3179.19 1285.09
-296.311 -3174.81 1283.63
-296.231 -3171.1 1283.28
-296.249 -3169.4 1282.3
-296.581 -3177.55 1283.03
-297.319 -3181.25 1284.37
-297.379 -3181.67 1283.26
-297.28 -3181.21 1282.81
-297.055 -3179.98 1282.55
-296.365 -3166.78 1281.91
-296.293 -3166.45 1281.87
-296.575 -3167.76 1280.62
-296.653 -3166.79 1280.67
-296.457 -3168.92 1281.01
-296.633 -3166.5 1280.7
-296.185 -3166 1281.8
-295.942 -3165.35 1281.78
-296.273 -3165.09 1280.48
-296.472 -3165.67 1280.54
-296.647 -3166.15 1280.13
-296.579 -3165.81 1279.62
-296.414 -3165.16 1279.39
-296.482 -3165.51 1279.08
-296.299 -3164.96 1278.86
-295.77 -3163.86 1278.07
-294.453 -3161.21 1276.06
-293.545 -3160.56 1272.04
-294.214 -3162.5 1274.47
-294.071 -3163.21 1273.01
-293.855 -3161.64 1273.33
-293.721 -3161.96 1270.09
-293.523 -3162.93 1269.41
-293.68 -3161.22 1270.66
-293.787 -3161.77 1270.61
-293.307 -3163.95 1268.5
-293.477 -3165.04 1268.1
-294.34 -3165.66 1271.05
-294.641 -3168.74 1267.66
-295.56 -3170.66 1267.95
-296.702 -3173.65 1267.45
-296.262 -3175.02 1265.71
-295.404 -3177.48 1262.82
-298.076 -3193.84 1278.02
-297.174 -3196.86 1274.73
-299.095 -3189.03 1277.77
-298.372 -3192.1 1276.67
-299.024 -3189.46 1276.61
-299.057 -3186.67 1275.4
-299.057 -3187.25 1275.45
-298.699 -3182.92 1273.13
-298.375 -3183.94 1278.12
-298.078 -3182.95 1280.54
-298.578 -3183.56 1275.45
-298.505 -3181.81 1273.66
-297.796 -3182.47 1281.89
-296.366 -3174.59 1283.36
-296.599 -3177.25 1282.63
-296.478 -3174.89 1282.95
-296.346 -3171.45 1283.05
-296.457 -3169.91 1281.66
-296.468 -3169.35 1281.17
-297.469 -3180.83 1281.29
-297.772 -3181.8 1281.38
-296.596 -3166.16 1280.56
-296.619 -3167.7 1280.02
-296.518 -3168.86 1280.27
-296.687 -3166.79 1279.94
-296.682 -3166.5 1280.14
-296.521 -3169.25 1280.61
-296.701 -3166.43 1279.69
-296.596 -3165.88 1279.31
-296.681 -3166.35 1279.45
-296.551 -3166.25 1278.92
-296.449 -3165.67 1278.79
-295.955 -3164.59 1278.06
-294.565 -3161.63 1276.04
-293.76 -3161.31 1272.05
-294.795 -3163.14 1275.89
-295.368 -3165.52 1276.06
-294.223 -3164.67 1272.14
-295.496 -3165.54 1276.48
-293.997 -3163.96 1271.6
-293.814 -3164.6 1270.14
-293.887 -3162.14 1272.07
-293.904 -3163.02 1270.87
-293.753 -3163.07 1270.19
-293.784 -3164.1 1270.29
-293.938 -3162.75 1271.6
-294.726 -3166.55 1271
-295.302 -3165.76 1275.45
-295.139 -3166.01 1273.62
-295.425 -3166.15 1275.26
-295.12 -3167.94 1270.02
-295.933 -3170.46 1268.94
-296.538 -3172.47 1268.25
-295.613 -3168.87 1270.04
-297.737 -3175.2 1268.5
-297.458 -3175.25 1267.68
-297.651 -3173.88 1269.4
-297.22 -3172.95 1269.16
-296.757 -3176.84 1265.75
-297.185 -3177.89 1266.18
-295.811 -3180.72 1262.57
-297.474 -3195.3 1274.69
-296.965 -3197.7 1270.96
-297.181 -3195.76 1272.32
-299.011 -3187.45 1275.16
-297.689 -3192.99 1274.89
-298.19 -3191.11 1275.18
-298.912 -3187.9 1275.01
-298.778 -3183.72 1273.12
-298.81 -3184.46 1273.07
-298.337 -3180.84 1273.4
-298.505 -3182.38 1271.7
-298.203 -3182.54 1277.82
-298.02 -3182.2 1280.02
-298.027 -3182.37 1279.5
-297.275 -3179.52 1281.25
-297.425 -3180.41 1281.17
-296.561 -3174.95 1282.69
-297.227 -3178.89 1281.21
-296.548 -3172.64 1282.95
-296.577 -3170.98 1282.2
-296.798 -3172.18 1282.33
-296.65 -3170.43 1281.47
-296.576 -3169.83 1281.08
-296.579 -3169.68 1280.64
-297.89 -3181.68 1279.76
-296.382 -3168.6 1278.8
-296.581 -3167.78 1279.37
-296.696 -3166.95 1279.4
-296.558 -3169.35 1280.24
-296.384 -3168.84 1278.67
-296.7 -3166.72 1279.45
-296.66 -3166.5 1279.2
-296.37 -3166.75 1278.08
-296.471 -3167.15 1278.36
-296.66 -3166.77 1279.1
-296.216 -3166.17 1277.9
-295.697 -3165 1277.27
-295.941 -3166.71 1276.74
-296.09 -3166.93 1277.1
-295.346 -3166.99 1272.18
-296.012 -3167.04 1276.5
-295.709 -3166.95 1273.54
-295.822 -3166.96 1274.55
-295.78 -3166.87 1275.52
-296.065 -3167.35 1276.18
-295.848 -3168.3 1271.32
-296.896 -3170.2 1270.66
-296.96 -3170.79 1270.11
-297.214 -3171.6 1269.82
-298.036 -3175.59 1269.01
-298.011 -3174.2 1269.91
-297.827 -3176.49 1267.85
-298.152 -3173.1 1270.49
-297.888 -3172.8 1270.17
-297.502 -3172.21 1269.87
-297.999 -3177.57 1268.12
-297.017 -3180.71 1265.37
-297.265 -3183.52 1265.61
-296.227 -3184.12 1262.68
-297.381 -3194.01 1273
-297.527 -3193.49 1274.2
-296.716 -3198.89 1267.72
-297.428 -3194.55 1270.2
-297.273 -3196.18 1268.78
-297.521 -3192.14 1272.06
-298.652 -3184.95 1272.64
-297.677 -3190.87 1273.21
-298.45 -3187.98 1273.72
-297.935 -3189.32 1273.05
-298.548 -3185.97 1272.72
-298.282 -3182.62 1269.88
-298.548 -3180.41 1270.93
-298.542 -3181.28 1270.59
-298.441 -3179.04 1272.08
-298.346 -3178.78 1273.16
-298.307 -3179.71 1274.41
-298.265 -3181.85 1277.01
-298.443 -3182.43 1271.36
-298.08 -3181.52 1279.06
-297.827 -3181.2 1279.83
-297.958 -3180.34 1279.99
-296.662 -3175.13 1282.4
-297.394 -3178.63 1280.83
-296.766 -3173.14 1282.53
-296.978 -3172.87 1282.23
-297.155 -3172.34 1281.73
-297.049 -3171.72 1281.53
-297.525 -3173.01 1281.45
-297.422 -3173.08 1281.66
-297.142 -3171.57 1281.03
-296.791 -3170.49 1280.76
-296.606 -3169.81 1280.38
-296.293 -3167.73 1277.72
-296.539 -3167.47 1278.71
-296.571 -3169.94 1279.29
-296.487 -3169.47 1279.28
-296.337 -3168.92 1277.64
-296.221 -3168.07 1277.14
-296.231 -3167.86 1277.32
-296.239 -3167.53 1277.33
-296.155 -3167.28 1276.93
-297.298 -3169.61 1272.65
-297.182 -3169.64 1272.18
-296.149 -3167.47 1276.64
-297.405 -3169.58 1273.15
-297.481 -3169.61 1273.54
-296.241 -3167.63 1274.82
-296.063 -3167.4 1275.52
-296.19 -3167.75 1275.85
-296.176 -3167.83 1276.38
-297.038 -3169.86 1271.42
-297.993 -3171.09 1271.44
-297.918 -3170.79 1271.74
-297.929 -3171.31 1270.99
-298.105 -3171.98 1270.78
-298.126 -3171.62 1271.03
-298.184 -3174.56 1270.31
-298.457 -3173.37 1271.07
-298.284 -3176.33 1269.57
-298.341 -3173.35 1270.77
-298.319 -3172.16 1271
-298.564 -3172.43 1271.31
-298.269 -3179.81 1268.58
-297.185 -3186.46 1265.24
-296.088 -3186.24 1261.37
-297.639 -3190.55 1272.37
-296.753 -3198.39 1267.2
-297.532 -3193.96 1268.01
-297.729 -3191.85 1270.47
-297.704 -3192.93 1268.65
-297.932 -3191.84 1268.88
-297.843 -3190.32 1269.63
-297.876 -3187.86 1270.24
-298.027 -3187.17 1271.92
-297.959 -3187.06 1271.44
-298.061 -3186.37 1269.54
-298.102 -3184.66 1269.18
-297.947 -3185.4 1267.9
-298.271 -3181.45 1268.6
-298.612 -3179.62 1269.92
-298.525 -3177.26 1271.27
-298.734 -3178.87 1270.47
-298.535 -3177.02 1270.64
-298.385 -3176.29 1272.17
-298.315 -3179.21 1274.3
-298.45 -3176.01 1273.4
-298.396 -3180.59 1276.18
-298.286 -3181.23 1276.88
-298.298 -3181.11 1278.11
-298.096 -3180.95 1278.94
-298.161 -3180.51 1279.39
-298.198 -3179.78 1279.46
-298.126 -3179.4 1279.7
-296.807 -3175.34 1282.07
-297.515 -3178.32 1280.56
-296.777 -3173.68 1282.34
-297.01 -3173.47 1282
-297.353 -3173.35 1281.74
-298.507 -3173.77 1280.35
-297.531 -3172.71 1281.27
-297.557 -3172.56 1281.03
-298.455 -3173.92 1280.58
-298.483 -3173.82 1280.47
-298.371 -3174.02 1280.73
-297.062 -3171.26 1280.51
-297.408 -3172.06 1280.56
-297.588 -3172.47 1280.79
-296.793 -3170.76 1279.28
-296.693 -3170.37 1279.31
-296.363 -3168.99 1277.35
-296.176 -3167.93 1276.79
-296.183 -3167.71 1276.96
-298.239 -3171.23 1271.94
-298.269 -3171.09 1272.35
-298.362 -3171.06 1272.67
-297.617 -3169.82 1273.88
-298.252 -3170.76 1273.13
-296.329 -3167.82 1275.29
-296.354 -3168.17 1276.1
-296.452 -3168.18 1275.68
-296.438 -3169.18 1277.07
-298.338 -3171.68 1271.46
-298.449 -3172.05 1271.38
-298.539 -3173.69 1271.2
-298.384 -3174.9 1270.79
-298.76 -3172.63 1271.7
-298.475 -3177 1270.07
-298.671 -3172.16 1271.77
-298.714 -3172.43 1271.59
-297.682 -3189.62 1267.13
-297.195 -3190.76 1265.68
-296.464 -3189.6 1263.05
-296.215 -3198.16 1264.46
-296.754 -3197.1 1266.29
-297.165 -3196.58 1267.5
-297.538 -3193.32 1267.43
-297.886 -3190.26 1268.52
-297.814 -3190.14 1267.9
-297.926 -3191.77 1268.47
-298.458 -3175.09 1271.03
-298.482 -3175.19 1271.33
-298.614 -3174.59 1272.64
-298.375 -3179.09 1274.63
-298.433 -3177.73 1273.96
-298.445 -3180.09 1275.83
-298.434 -3176.35 1273.65
-298.533 -3174.59 1273.7
-298.56 -3175.2 1273.92
-298.56 -3174.74 1274.19
-298.339 -3180.78 1277
-298.471 -3180.18 1276.39
-298.316 -3180.81 1277.76
-298.331 -3180.62 1278.34
-298.313 -3180.25 1278.72
-298.277 -3179.88 1279.04
-298.221 -3179.34 1279.27
-298.131 -3178.93 1279.56
-297.043 -3175.75 1281.66
-297.652 -3178.12 1280.35
-296.992 -3173.98 1282.04
-298.174 -3174.4 1280.98
-298.198 -3174.23 1280.96
-298.269 -3174.14 1280.89
-298.523 -3173.68 1280.16
-299.382 -3174.74 1279.27
-299.635 -3175.16 1279.23
-299.31 -3174.72 1279.62
-298.478 -3173.6 1280
-299.337 -3174.82 1279.67
-299.291 -3174.88 1279.79
-296.933 -3171.25 1279.2
-297.571 -3172.3 1280.49
-297.638 -3172.48 1280.6
-297.179 -3171.66 1279.34
-298.437 -3173.51 1279.83
-296.592 -3170.28 1277.76
-296.75 -3170.75 1277.89
-298.454 -3171.62 1272.03
-298.592 -3171.67 1272.38
-298.427 -3171.07 1273.2
-298.61 -3171.46 1272.75
-297.642 -3169.88 1274.23
-296.6 -3168.34 1275.22
-296.552 -3169.36 1276.71
-296.8 -3168.84 1275.37
-296.678 -3169.51 1276.36
-298.59 -3171.91 1271.95
-298.657 -3173.84 1271.5
-298.846 -3172.81 1272.01
-298.827 -3172.33 1272.15
-298.757 -3172.06 1272.34
-297.088 -3193.85 1266.01
-296.44 -3193.48 1263.61
-298.694 -3174.02 1271.81
-298.707 -3174.18 1272.1
-298.521 -3174.22 1273.89
-298.746 -3173.71 1273.24
-298.852 -3172.95 1272.85
-298.87 -3173.09 1272.54
-298.94 -3172.89 1273.06
-298.475 -3177.83 1274.3
-298.443 -3178.99 1274.85
-298.522 -3179.7 1275.91
-298.5 -3176.32 1273.95
-298.497 -3174.36 1274.39
-298.612 -3175.38 1274.22
-298.725 -3175.22 1274.66
-298.612 -3174.93 1274.55
-298.515 -3174.44 1274.68
-298.515 -3180.14 1276.92
-298.448 -3180.29 1277.58
-298.511 -3179.81 1276.5
-298.399 -3180.3 1278.03
-298.384 -3179.99 1278.32
-298.334 -3179.66 1278.66
-298.309 -3179.43 1278.9
-298.211 -3178.79 1279.27
-298.307 -3179 1278.93
-298.152 -3178.49 1279.58
-297.542 -3176.98 1280.76
-297.619 -3177.89 1280.42
-297.325 -3174.6 1281.7
-298.314 -3174.67 1280.86
-299.483 -3175.43 1279.67
-299.432 -3175.54 1279.75
-299.449 -3174.84 1279.04
-299.709 -3175.57 1278.8
-299.739 -3175.58 1279.2
-299.906 -3176.21 1278.48
-299.484 -3174.87 1278.81
-299.657 -3175.57 1279.38
-296.987 -3171.36 1277.96
-298.443 -3173.46 1279.62
-297.4 -3172.09 1279.62
-297.81 -3172.62 1280.21
-297.295 -3171.98 1278.18
-299.447 -3174.76 1278.64
-296.738 -3170.59 1277.39
-298.795 -3171.9 1272.63
-298.607 -3171.37 1273.39
-298.411 -3171.05 1273.79
-298.771 -3171.65 1273.02
-297.698 -3170.1 1274.54
-296.925 -3170.09 1276.17
-297.688 -3170.36 1274.86
-297.043 -3171.12 1277.04
-298.88 -3172.92 1272.34
-298.917 -3172.6 1272.55
-298.912 -3172.27 1272.57
-298.436 -3173.91 1274.44
-298.481 -3173.78 1274.17
-298.652 -3173.4 1273.64
-298.954 -3172.86 1273.35
-298.824 -3172.68 1272.78
-298.937 -3172.57 1272.97
-298.98 -3172.43 1273.23
-298.573 -3177.29 1274.34
-298.595 -3178.09 1274.64
-298.57 -3178.72 1275.01
-298.641 -3179.23 1275.65
-298.607 -3179.53 1276.16
-298.639 -3176.22 1274.3
-298.719 -3175.64 1274.53
-298.434 -3173.94 1274.68
-298.869 -3175.33 1275.08
-298.703 -3174.91 1274.95
-298.588 -3174.59 1274.86
-298.448 -3174.02 1274.91
-298.538 -3174.27 1274.99
-298.636 -3179.78 1277.33
-298.608 -3179.71 1276.94
-298.487 -3179.73 1277.86
-298.632 -3179.54 1276.63
-298.453 -3179.51 1278.26
-298.395 -3179.24 1278.59
-298.483 -3178.74 1279.02
-298.337 -3178.46 1279.37
-298.528 -3178.88 1278.72
-297.593 -3176.88 1280.71
-298.399 -3178.15 1279.46
-298.418 -3175.01 1280.73
-298.42 -3175.28 1280.65
-299.439 -3175.74 1279.69
-299.835 -3176.24 1278.88
-299.839 -3176.28 1278.99
-299.797 -3176.28 1279.12
-299.713 -3175.72 1278.35
-299.993 -3176.28 1278.06
-299.986 -3176.39 1278.51
-299.987 -3176.43 1278.57
-300.221 -3176.56 1278.11
-299.696 -3175.47 1278.22
-297.053 -3171.35 1277.5
-297.647 -3172.35 1277
-298.28 -3173.47 1278.67
-299.306 -3174.51 1278.53
-299.522 -3174.94 1278.38
-297.767 -3172.73 1280.08
-297.474 -3172.85 1279.76
-297.567 -3172.5 1278.95
-297.853 -3172.75 1277.55
-298.91 -3172.05 1272.88
-298.778 -3171.66 1273.48
-298.61 -3171.48 1273.83
-298.388 -3171.19 1274.04
-298.864 -3171.86 1273.2
-297.634 -3171 1275.49
-297.449 -3171.73 1276.44
-298.418 -3171.41 1274.23
-297.526 -3172.09 1276.71
-298.917 -3172.39 1272.81
-298.415 -3173.39 1274.42
-298.381 -3173.5 1274.69
-298.627 -3173.07 1274.05
-298.909 -3172.44 1273.63
-298.939 -3172.18 1273.07
-298.92 -3172.12 1273.41
-298.738 -3176.77 1274.51
-298.753 -3177.49 1274.7
-298.747 -3178.01 1274.93
-298.768 -3178.42 1275.25
-298.796 -3178.93 1275.7
-298.734 -3179.22 1275.96
-298.738 -3179.35 1276.33
-298.837 -3176.03 1274.79
-298.898 -3175.7 1274.97
-298.367 -3173.66 1274.98
-298.807 -3174.85 1275.3
-299.362 -3175.81 1275.85
-299.397 -3175.61 1276.05
-298.641 -3174.47 1275.14
-298.39 -3173.7 1275.27
-298.474 -3173.94 1275.11
-298.586 -3174.16 1275.22
-298.524 -3174.08 1275.1
-298.845 -3179.51 1277.16
-298.733 -3179.52 1277.57
-298.849 -3179.42 1276.89
-298.704 -3179.44 1277.8
-299.36 -3178.66 1276.81
-298.667 -3179.26 1278.1
-298.604 -3178.98 1278.42
-298.617 -3178.48 1279.11
-298.816 -3178.63 1278.75
-298.811 -3178.69 1278.52
-297.403 -3176.38 1281.05
-297.932 -3177.49 1280.13
-298.393 -3177.95 1279.5
-298.422 -3175.47 1280.58
-298.626 -3178.06 1279.25
-299.673 -3176.3 1279.27
-299.557 -3176.31 1279.33
-300.078 -3176.73 1278.51
-300.127 -3176.68 1278.45
-300 -3176.77 1278.62
-299.879 -3176.76 1278.81
-299.809 -3175.97 1277.87
-300.148 -3176.32 1277.7
-300.244 -3176.56 1277.85
-300.222 -3176.71 1278.2
-300.191 -3176.84 1278.2
-300.29 -3176.79 1277.91
-299.715 -3175.35 1277.99
-299.714 -3175.66 1277.77
-298.157 -3173.07 1276.38
-298.082 -3172.91 1276.01
-299.241 -3174.61 1278.23
-298.795 -3173.98 1277.76
-297.865 -3173.04 1279.26
-298.448 -3173.52 1276.81
-299.555 -3175.07 1277.92
-298.874 -3171.93 1273.58
-298.734 -3171.78 1273.97
-297.903 -3172.48 1275.67
-298.163 -3171.99 1274.94
-297.9 -3172.62 1276.01
-298.616 -3172.8 1274.35
-298.369 -3173.21 1274.71
-298.295 -3173.34 1275
-298.877 -3172.23 1273.81
-299.317 -3176.82 1275.51
-299.322 -3177.11 1275.53
-299.331 -3177.42 1275.59
-299.332 -3177.73 1275.7
-299.334 -3178.05 1275.89
-299.314 -3178.31 1276.15
-299.31 -3178.49 1276.36
-299.341 -3178.59 1276.58
-299.295 -3176.45 1275.53
-299.289 -3176.06 1275.63
-298.301 -3173.4 1275.32
-298.751 -3174.47 1275.45
-299.389 -3175.38 1276.25
-299.903 -3176.26 1276.75
-299.85 -3176.39 1276.54
-299.866 -3176.01 1276.85
-298.51 -3173.88 1275.34
-298.4 -3173.6 1275.53
-298.269 -3173.33 1275.66
-298.663 -3174.15 1275.53
-298.959 -3179.31 1277.37
-299.436 -3178.58 1277.3
-298.912 -3179.24 1277.58
-299.41 -3178.6 1277.03
-298.874 -3179.14 1277.81
-299.908 -3177.9 1276.89
-299.901 -3177.97 1277.22
-299.997 -3177.87 1277.12
-298.845 -3178.91 1278.15
-298.823 -3178.34 1278.93
-299.377 -3178.07 1278.36
-299.295 -3177.94 1278.57
-299.392 -3178.21 1278.15
-297.54 -3176.34 1280.9
-298.431 -3175.59 1280.52
-298.131 -3177.48 1279.89
-298.601 -3177.82 1279.29
-299.499 -3176.61 1279.16
-299.075 -3177.5 1279.05
-299.177 -3177.75 1278.82
-299.862 -3177.01 1278.68
-299.724 -3176.95 1278.89
-300.13 -3176.95 1278.25
-300.068 -3177.02 1278.33
-299.989 -3177.02 1278.48
-299.957 -3176.02 1277.57
-300.136 -3176.35 1277.45
-300.314 -3176.77 1277.67
-300.308 -3176.86 1277.91
-300.223 -3177.04 1277.99
-300.322 -3176.99 1277.69
-299.728 -3175.42 1277.62
-299.724 -3175.68 1277.53
-298.505 -3173.63 1276.2
-298.255 -3173.28 1275.93
-298.238 -3173.05 1275.55
-299.004 -3174.29 1277.12
-298.921 -3174.11 1277.4
-299.172 -3174.59 1276.83
-298.847 -3172.09 1273.97
-298.357 -3172.32 1274.66
-298.217 -3172.99 1275.19
-298.547 -3172.59 1274.6
-298.275 -3173.12 1274.88
-299.873 -3176.91 1276.41
-299.838 -3176.6 1276.41
-299.919 -3177.2 1276.45
-299.918 -3177.42 1276.47
-299.87 -3177.6 1276.45
-299.883 -3177.72 1276.56
-299.92 -3177.8 1276.72
-299.378 -3175.2 1276.45
-299.759 -3175.8 1277.01
-299.995 -3176.67 1276.78
-300.04 -3176.54 1276.98
-300.016 -3176.28 1277.06
-299.928 -3176.03 1277.13
-298.547 -3173.8 1275.72
-299.282 -3174.88 1276.65
-299.404 -3178.53 1277.53
-299.916 -3177.95 1277.5
-299.993 -3177.88 1277.4
-299.382 -3178.5 1277.73
-299.381 -3178.38 1277.93
-300.037 -3177.7 1276.96
-300.088 -3177.74 1277.31
-300.122 -3177.62 1277.17
-299.835 -3177.73 1278.15
-299.76 -3177.52 1278.33
-299.586 -3177.46 1278.56
-299.879 -3177.82 1277.98
-297.68 -3176.28 1280.77
-298.316 -3177.39 1279.71
-298.459 -3175.71 1280.44
-299.365 -3176.7 1279.15
-299.008 -3177.14 1279.26
-299.536 -3177.23 1278.83
-299.907 -3177.24 1278.42
-299.728 -3177.25 1278.61
-300.151 -3177.12 1278.09
-300.03 -3177.25 1278.27
-300.1 -3177.22 1278.13
-299.815 -3175.84 1277.34
-300.054 -3176.17 1277.37
-300.156 -3176.52 1277.33
-300.24 -3176.71 1277.48
-300.3 -3176.99 1277.53
-300.274 -3177.17 1277.73
-300.217 -3177.21 1277.89
-300.27 -3177.25 1277.73
-300.278 -3177.14 1277.55
-299.706 -3175.61 1277.24
-300.018 -3177.09 1276.68
-299.98 -3176.86 1276.67
-300.04 -3177.3 1276.68
-299.998 -3177.49 1276.67
-300.03 -3177.57 1276.79
-300.075 -3176.94 1276.88
-300.128 -3176.8 1277.1
-299.945 -3177.92 1277.66
-300.069 -3177.74 1277.57
-300.136 -3177.6 1277.45
-299.926 -3177.87 1277.83
-300.138 -3177.46 1277.01
-300.201 -3177.46 1277.32
-300.21 -3177.37 1277.21
-299.974 -3177.71 1278.2
-299.943 -3177.48 1278.28
-300.028 -3177.74 1278.02
-298.297 -3176.37 1280.19
-298.432 -3177.19 1279.69
-298.503 -3175.81 1280.34
-300.152 -3177.35 1277.97
-300.063 -3177.51 1278.13
-300.284 -3176.93 1277.48
-300.253 -3177.13 1277.37
-300.264 -3177.26 1277.58
-300.205 -3177.41 1277.79
-300.239 -3177.38 1277.63
-300.25 -3177.26 1277.4
-300.1 -3177.15 1276.86
-300.119 -3177.35 1276.86
-300.178 -3177.08 1277.12
-300.061 -3177.73 1277.76
-300.152 -3177.56 1277.63
-300.229 -3177.39 1277.47
-300.207 -3177.27 1277.17
-300.117 -3177.59 1277.89
-300.174 -3177.25 1277.04
