-26.2902 -3056.14 406.996
-22.546 -3059.77 406.126
-24.1663 -3057.96 404.864
-7.06574 -3082.01 402.826
-26.7791 -3054.87 403.734
-20.6997 -3061.47 403.895
-24.2429 -3057.14 402.467
-26.9474 -3054.16 400.89
-29.1089 -3052.22 399.289
-18.0332 -3064.39 403.47
-16.5603 -3066.86 405.611
-9.63155 -3076.97 404.622
-8.63134 -3078.66 403.161
-6.30242 -3081.77 399.158
-5.57807 -3083.34 399.253
-23.8568 -3056.68 399.67
-21.8017 -3059.46 401.649
-19.0967 -3062.04 401.022
-19.7348 -3060.19 397.573
-26.623 -3054.11 398.173
-23.8385 -3056.52 398.323
-28.729 -3052.26 394.972
-17.6214 -3064.19 401.697
-15.6197 -3067.48 403.316
-14.4172 -3069.51 404.934
2.45477 -3097.01 391.923
3.26902 -3098.02 389.157
5.5319 -3101.59 386.841
12.2685 -3113.26 377.357
11.2721 -3110.96 379.356
7.59781 -3105.3 386.106
7.52512 -3104.6 384.871
10.2684 -3108.89 381.659
-10.7134 -3075.19 404.778
-9.5162 -3075.51 401.966
-8.92129 -3076.48 401.621
-7.73613 -3078.77 400.421
-7.13597 -3078.57 398.436
-5.55894 -3081.71 396.669
-4.57448 -3083.99 396.783
-12.3309 -3072.54 404.724
-20.9728 -3059.04 397.143
-17.6394 -3062.27 397.196
-16.067 -3064.55 398.98
-19.5807 -3059.77 394.679
-17.877 -3061.2 394.404
-27.322 -3053.54 395.964
-24.9007 -3055.67 396.261
-22.9769 -3057.43 395.54
-26.5877 -3054.35 392.685
-15.7453 -3066.05 400.942
-13.7543 -3068.15 400.21
-13.5608 -3070.06 402.882
-0.707076 -3091.81 392.68
0.769777 -3094.21 391.123
2.94232 -3097.21 388.158
4.91807 -3100.09 385.937
12.513 -3113.69 375.699
11.7732 -3110.15 375.732
11.473 -3109.4 377.387
10.8301 -3109.54 379.76
5.72737 -3100 383.01
8.69057 -3105.75 382.88
7.42243 -3102.5 381.736
9.5575 -3107.39 382.257
10.3235 -3107.17 380.365
10.5672 -3107.64 379.875
-10.5398 -3073.65 401.708
-10.235 -3072.72 399.324
-8.56378 -3075.68 399.375
-7.30514 -3077.76 397.665
-5.61188 -3081.17 394.287
-4.30006 -3084.22 394.236
-21.9496 -3058.17 394.736
-15.5839 -3063.77 394.328
-15.1033 -3065.16 396.898
-13.2389 -3067.43 396.95
-22.2266 -3057.72 393.141
-19.506 -3058.97 391.734
-17.4968 -3060.49 391.523
-15.3826 -3062.34 391.197
-25.4513 -3055.33 392.123
-28.3053 -3052.84 388.479
-11.5982 -3070.29 399.088
-12.1909 -3070.76 400.85
-1.40651 -3090.5 392.202
-2.58028 -3088.04 392.835
-0.794326 -3091.33 391.213
1.28508 -3094.46 389.15
3.14925 -3096.65 386.322
12.1826 -3111.1 373.135
11.0941 -3106.92 377.218
11.5106 -3107.94 374.107
11.0209 -3108.41 378.554
10.9467 -3106.87 378.179
4.67956 -3096.87 381.944
6.51932 -3098.96 378.7
7.42211 -3100.82 378.594
9.29751 -3104.89 380.404
9.67951 -3105.93 380.756
9.35043 -3104.23 379.345
9.14479 -3103.58 378.732
10.0445 -3106.62 380.654
10.6996 -3106.25 378.549
10.4366 -3105.92 379.13
-11.9055 -3069.23 397.066
-10.6024 -3071.54 397.215
-8.9955 -3074.35 397.162
-7.60916 -3077 395.88
-7.20763 -3077.53 393.289
-5.24826 -3081.49 391.279
-3.04829 -3086.75 391.918
-24.6016 -3055.9 391.644
-13.8317 -3064.38 391.998
-12.8521 -3065.73 392.577
-13.0156 -3066.87 394.484
-12.1187 -3068.05 394.502
-20.9828 -3057.94 391.319
-24.5554 -3055.53 389.395
-21.2973 -3057.36 389.635
-19.3032 -3058.34 389.253
-17.3972 -3059.77 388.967
-15.7625 -3061.02 388.602
-13.545 -3063.53 389.782
-12.045 -3065.31 390.461
-26.5075 -3054.21 387.51
-27.0825 -3053.68 382.348
-3.07421 -3086.12 390.731
-0.800845 -3090.36 389.717
1.21941 -3093.27 387.482
2.26813 -3094.16 385.563
11.9185 -3108.99 371.107
12.3797 -3112.26 371.907
12.4488 -3113.89 369.718
10.9233 -3106.11 376.863
10.8138 -3106.1 377.742
11.1833 -3106.79 374.397
11.5971 -3107.65 371.172
4.03913 -3095.25 381.95
6.44939 -3097.62 377.181
7.37585 -3099.64 376.495
8.17871 -3101.21 376.012
9.15948 -3103.16 377.475
10.2209 -3105.18 378.848
10.2691 -3104.81 377.898
10.4854 -3105.53 378.421
-11.0396 -3070.25 395.237
-9.09737 -3073.67 394.353
-7.25832 -3076.24 390.381
-6.3303 -3077.65 389.008
-4.92968 -3081.13 389.441
-12.1881 -3066.52 392.566
-11.8588 -3065.7 390.886
-11.5583 -3067.35 392.34
-11.1449 -3069.35 393.992
-24.682 -3055.24 387.123
-20.8393 -3057.39 388.425
-18.7114 -3058.55 387.461
-17.3806 -3059.48 387.438
-16.0076 -3060.37 386.725
-13.8064 -3062.97 388.62
-15.218 -3061.04 386.449
-11.8364 -3065.26 389.881
-11.2346 -3066.47 390.637
-11.1342 -3066.28 390.096
-24.5088 -3055.3 383.305
-28.2377 -3052.72 379.356
-26.095 -3054.23 376.666
-24.9764 -3054.99 378.9
-3.08908 -3085.08 389.049
-0.989444 -3088.57 387.665
0.201302 -3089.73 386.013
2.51526 -3093.6 384.416
12.092 -3113.86 365.229
11.4711 -3108.11 368.969
12.0014 -3110.56 369.24
10.7165 -3105.41 376.541
10.6137 -3105.38 377.454
10.9205 -3106.07 373.574
10.777 -3105.81 369.72
11.0931 -3106.93 368.777
3.63303 -3093.29 381.829
4.58238 -3092.75 378.75
5.68774 -3095.48 377.439
6.58643 -3096.44 375.308
7.07097 -3098.23 375.226
7.71859 -3099.8 374.598
9.46093 -3103.32 376.49
9.60512 -3103.47 375.586
8.52338 -3101.47 373.495
10.4489 -3104.91 377.019
-9.93644 -3071.51 393.837
-8.72489 -3073.4 391.945
-7.96036 -3073.5 387.612
-7.4726 -3074.13 386.286
-6.29635 -3076.45 386.507
-5.16954 -3079.06 387.38
-4.03846 -3082 387.75
-10.7583 -3068.34 391.89
-10.1823 -3069.17 391.533
-20.677 -3057.44 386.958
-17.5463 -3059.21 385.166
-16.5295 -3059.87 385.535
-15.639 -3060.54 385.316
-14.428 -3061.79 385.887
-12.8274 -3063.98 388.622
-14.8688 -3061.19 384.824
-11.2172 -3066.1 389.564
-10.4118 -3067.56 390.194
-10.5438 -3067.57 390.7
-10.2726 -3067.58 389.511
-19.8834 -3057.98 384.064
-21.6749 -3057.06 379.836
-29.1105 -3051.69 375.577
-27.2211 -3053.26 374.817
-23.8701 -3055.79 375.216
-26.36 -3053.82 373.134
-2.25307 -3085.35 387.208
-0.682366 -3087.76 386.249
1.66202 -3090.51 383.828
3.01411 -3091.47 382.053
11.3732 -3109.73 365.863
10.9562 -3108.88 364.145
10.0332 -3105.27 364.646
10.1317 -3104.47 374.576
10.0068 -3104.24 370.809
8.98518 -3102.11 367.841
9.64361 -3103.84 365.826
4.12736 -3090.38 378.67
5.48587 -3092.94 376.184
6.28803 -3094.85 375.024
4.91231 -3090.74 376.823
6.74178 -3095.57 373.826
7.06794 -3097.14 373.553
7.56273 -3098.83 372.552
8.16956 -3100.39 371.08
-9.71457 -3069.97 391.138
-9.2637 -3070.59 390.221
-8.98765 -3070.77 389.088
-8.86613 -3070.8 387.876
-8.38773 -3072.29 385.527
-7.15855 -3074.21 384.747
-6.14955 -3075.97 384.965
-5.7229 -3076.84 385.109
-5.40758 -3077.85 386.107
-4.67788 -3079.33 386.343
-3.96386 -3081.21 386.722
-28.8447 -3051.81 371.02
-9.73347 -3068.64 389.766
-18.6538 -3058.78 382.452
-16.3587 -3060.03 384.197
-15.1896 -3060.91 384.198
-14.2274 -3061.88 384.311
-13.7952 -3062.61 385.945
-12.3059 -3064.64 388.492
-14.5792 -3061.56 383.497
-10.4179 -3067.2 388.976
-9.61653 -3068.66 388.988
-9.6659 -3068.48 388.191
-20.7939 -3057.89 377.276
-18.1645 -3059.22 381.286
-23.8695 -3056.12 371.288
-21.0447 -3058.22 373.091
-26.6008 -3053.83 370.45
-2.12299 -3084.63 386.377
-0.186312 -3085.65 384.421
0.637657 -3087.11 383.853
1.54604 -3087.37 382.453
3.51882 -3089.24 379.221
1.61148 -3086.66 381.976
10.6362 -3110.44 360.7
9.88754 -3106.68 362.142
8.35132 -3100.73 362.96
8.05781 -3100.63 361.295
8.30429 -3100.39 365.074
4.66815 -3089.66 376.898
5.99844 -3092.97 375.055
6.51088 -3094.19 374.001
6.10927 -3089.66 374.489
6.27956 -3090.46 374.441
6.882 -3095.17 372.768
7.08464 -3096.15 371.972
7.35909 -3097.43 371.275
7.78322 -3098.93 368.489
-8.9289 -3070.6 386.729
-9.16772 -3070.01 386.01
-7.96518 -3072.77 383.531
-7.03142 -3074.72 382.355
-6.02526 -3076.11 384.163
-5.68216 -3076.71 384.34
-5.29854 -3077.45 385.012
-4.81434 -3078.39 385.481
-4.3922 -3079.22 385.593
-3.92871 -3080.03 385.723
-3.15807 -3082.1 386.184
-25.6822 -3054.79 367.39
-15.8099 -3060.55 383.071
-13.697 -3062.52 384.141
-13.8237 -3062.33 383.484
-13.2656 -3063.38 385.432
-12.0462 -3065.07 388.01
-13.9487 -3062.31 382.842
-15.0047 -3061.31 382.734
-9.97432 -3068.03 387.729
-19.0428 -3059.28 377.802
-17.4238 -3059.81 380.91
-22.0721 -3058.11 367.39
-20.56 -3059.39 369.459
-18.6918 -3060.6 371.691
-18.1727 -3060.38 375.449
-1.25953 -3083.82 384.869
-0.455903 -3083.08 383.531
0.322792 -3084.24 383.031
1.77797 -3086.45 381.323
3.15586 -3087.94 378.665
4.23031 -3088.61 376.972
0.209121 -3083.33 382.507
9.05932 -3107.12 357.46
8.16247 -3102.88 359.036
7.35474 -3097.4 363.542
6.77684 -3096.06 360.717
7.14006 -3100.59 357.576
6.64586 -3097.47 357.149
5.7247 -3088.84 374.764
6.60716 -3091.15 373.977
7.10343 -3091.36 372.962
6.56879 -3093.41 373.699
6.84264 -3094.1 372.785
6.85039 -3088.31 372.707
7.55987 -3089.37 371.965
7.69764 -3090.01 371.902
7.05034 -3095.36 371.378
7.00359 -3094.57 371.782
7.20342 -3096.64 369.19
7.11676 -3096.04 369.905
7.37067 -3097.43 367.912
-9.45692 -3069.66 385.059
-9.02837 -3071.39 381.461
-6.4321 -3075.7 382.752
-9.25559 -3071.42 379.328
-7.35424 -3074.25 380.735
-5.6605 -3076.56 383.724
-6.11885 -3076.05 382.594
-5.30964 -3077.16 384.406
-4.83462 -3077.87 384.871
-4.54564 -3078.33 384.671
-4.38686 -3078.63 385.077
-3.10589 -3079.64 384.427
-2.75534 -3080.55 384.712
-2.18037 -3081.83 384.907
-21.36 -3058.81 364.419
-16.8106 -3060.41 380.542
-13.3916 -3062.89 383.479
-13.5645 -3062.8 383.043
-12.6803 -3064.33 384.807
-11.5562 -3065.85 387.438
-14.5494 -3061.88 382.192
-13.9336 -3062.62 381.899
-13.5613 -3063 382.235
-16.1609 -3061.14 380.135
-10.6798 -3067.35 386.142
-17.6831 -3060.55 377.869
-19.582 -3060.44 368.002
-16.665 -3063.04 369.728
-16.2211 -3062.98 371.42
-16.6728 -3061.95 374.984
-16.6514 -3061.89 376.925
-1.23765 -3081.83 383.805
-0.800279 -3081.83 383.133
1.67334 -3085.83 380.814
2.17444 -3086.17 378.592
2.34358 -3085.92 377.769
3.39708 -3087.22 377.236
4.78763 -3086.89 375.017
5.42324 -3087.81 374.672
-0.224462 -3082.13 382.112
-0.995776 -3081 382.669
6.9589 -3095.91 364.597
6.55466 -3094.4 362.895
5.91773 -3092.8 360.251
6.03347 -3095.21 356.787
6.41965 -3098.71 355.173
5.9351 -3100.6 352.787
6.02553 -3096.45 354.16
8.05751 -3090.42 371.162
7.32132 -3091.77 372.285
6.92874 -3093.5 372.498
7.10487 -3093.88 371.576
6.40882 -3087.1 373.016
7.03157 -3087.84 371.985
7.7304 -3089.05 371.341
8.15954 -3089.86 371.04
7.10305 -3095.2 370.188
7.10014 -3094.57 370.641
6.96798 -3095.59 365.767
7.06246 -3095.54 368.154
-10.591 -3068.29 383.369
-11.0709 -3068.63 379.119
-11.7416 -3067.71 380.089
-7.11598 -3074.52 380.328
-9.88049 -3070.64 377.242
-5.39392 -3076.91 383.763
-5.76083 -3076.41 382.278
-6.28039 -3075.93 380.898
-4.83074 -3077.54 384.538
-5.10138 -3077.31 384.115
-4.59275 -3078 384.319
-3.56217 -3078.41 383.899
-3.50615 -3078.8 384.045
-3.29988 -3079.14 384.247
-2.21264 -3079.51 383.237
-1.71029 -3080.78 383.691
-1.72427 -3080.28 383.308
-19.7738 -3060.39 359.8
-19.627 -3060.36 365.537
-13.0091 -3063.55 383.101
-13.2799 -3063.28 382.643
-12.3816 -3064.82 384.063
-11.7369 -3066.12 384.243
-15.4199 -3061.96 379.915
-14.3157 -3063.47 379.623
-14.9543 -3062.69 379.5
-13.8077 -3064.08 379.928
-13.2885 -3063.54 381.961
-16.5589 -3061.75 377.771
-16.9873 -3062.79 368.956
-14.185 -3065.5 370.408
-15.0104 -3064.26 371.626
-14.9734 -3064.15 374.522
-14.7504 -3064.42 376.731
-15.571 -3063.12 377.219
1.26747 -3084.82 380.616
1.24043 -3084.32 378.288
1.34261 -3083.96 377.166
1.05557 -3083.71 377.421
2.48996 -3085.58 377.112
1.76659 -3084.2 376.739
3.88271 -3086.05 375.695
5.89476 -3086.46 373.382
-0.58984 -3081.2 381.745
-1.24636 -3080.38 382.506
-1.7034 -3079.89 382.898
6.69938 -3094.03 363.944
6.13469 -3092.46 362.005
5.53057 -3091.26 359.925
5.63017 -3094.46 356.082
5.75822 -3095.82 353.801
6.01914 -3097.01 353.582
5.96658 -3098.64 353.224
4.77633 -3099.67 349.836
5.48279 -3098.14 351.97
5.73651 -3096.59 352.979
8.36778 -3090.25 370.618
8.18335 -3090.86 370.781
7.52927 -3092.08 371.579
7.68021 -3092.35 370.957
7.7769 -3092.61 370.377
6.4197 -3086.52 372.796
6.54724 -3086.84 372.348
7.11843 -3087.57 371.405
8.01349 -3089.03 370.705
8.334 -3089.56 370.651
8.43368 -3089.77 370.395
7.16289 -3094.58 369.418
7.09417 -3094.88 368.196
7.72736 -3092.9 369.907
6.95336 -3094.73 365.815
-11.9063 -3066.45 382.367
-12.2988 -3065.03 383.332
-12.7475 -3066.31 379.871
-12.3548 -3067.32 377.031
-14.2667 -3064.77 377.749
-6.86995 -3074.76 379.83
-8.53741 -3072.35 377.832
-12.6292 -3067.09 374.28
-10.5655 -3069.62 374.996
-5.08841 -3077.21 383.459
-5.39285 -3076.79 382.147
-5.73848 -3076.33 380.57
-6.13421 -3075.98 380.343
-4.71997 -3077.79 384.159
-4.87485 -3077.57 383.816
-3.59481 -3078.11 383.732
-2.54973 -3078.77 382.976
-2.30275 -3079.16 383.009
-18.4906 -3061.96 353.748
-17.6799 -3062.38 356.854
-18.991 -3060.94 361.203
-19.0477 -3060.71 363.583
-19.0116 -3060.85 365.903
-17.9542 -3061.81 367.846
-13.0393 -3063.82 382.205
-13.2047 -3064.76 380.574
-14.7263 -3064.94 369.149
-11.7779 -3067.94 371.922
0.813025 -3083.78 380.238
0.3582 -3082.62 379.574
0.50147 -3082.7 377.443
0.518884 -3082.44 376.533
1.17676 -3083.01 376.148
3.46449 -3085.25 375.658
3.0815 -3084.55 375.419
2.93961 -3084.1 374.998
5.31074 -3085.81 373.614
-0.969938 -3080.42 381.647
-1.39638 -3079.96 382.354
-1.82736 -3079.46 382.57
4.11911 -3098.67 348.943
6.87208 -3093.55 364.811
6.5576 -3092.46 363.499
6.13801 -3091.21 362.672
5.96244 -3090.38 362.684
5.1019 -3089.35 360.537
4.90296 -3090.82 358.023
4.73373 -3092.46 356.264
5.32767 -3094.4 354.822
5.50411 -3095.99 352.833
5.54602 -3095.39 353.562
4.96389 -3097.45 351.118
8.46022 -3090.48 370.245
8.42987 -3090.08 370.105
8.33111 -3091.1 370.262
8.45393 -3090.89 369.848
6.286 -3086.27 372.351
6.74329 -3086.52 371.913
6.84545 -3086.81 371.197
7.56523 -3088.07 370.508
8.31001 -3089 370.06
8.52708 -3089.37 370.188
8.44735 -3089.63 369.825
7.69137 -3092.99 369.249
7.25675 -3094.14 367.96
7.1139 -3094.06 366.397
8.35574 -3091.28 369.536
-12.4608 -3065 382.518
-12.7545 -3065.09 381.437
-7.39724 -3073.59 378.489
-6.43836 -3075.07 379.144
-9.93602 -3070.22 374.304
-8.18561 -3072.52 376.675
-3.97868 -3077.79 382.826
-4.01988 -3077.67 382.364
-4.1854 -3077.55 381.347
-4.13556 -3077.52 379.72
-4.65617 -3077.1 379.575
-4.78139 -3076.84 378.982
-3.66868 -3077.89 383.541
-3.84637 -3077.87 383.189
-2.82867 -3078.4 382.927
-2.23734 -3078.97 382.528
-17.0596 -3063.75 349.781
-16.4593 -3063.68 352.89
-15.6516 -3063.69 357.353
-17.9642 -3061.7 361.283
-16.7997 -3061.91 363.852
-17.2712 -3061.61 364.43
-17.2979 -3061.59 365.038
-17.0564 -3061.77 365.579
-17.9009 -3061.65 366.981
-16.8326 -3062.84 368.175
-14.4464 -3065.09 368.489
-11.5917 -3067.81 369.407
-9.13825 -3070.27 370.625
-0.0819653 -3081.88 379.295
-0.804606 -3080.85 377.193
-1.34628 -3079.58 375.355
0.251076 -3081.27 374.707
2.35102 -3082.95 373.975
2.68272 -3083.6 374.614
5.25457 -3085.47 373.206
-0.790456 -3080.7 379.831
-1.40422 -3079.65 381.904
-1.75992 -3079.27 382.195
4.48893 -3096.62 350.735
2.788 -3096.09 348.399
0.956921 -3092.18 347.764
7.64609 -3091.77 366.598
7.52829 -3091.42 366.13
7.68435 -3092.19 367.051
7.37249 -3091.01 365.71
7.30722 -3090.55 365.612
7.14369 -3090.14 365.435
6.94842 -3089.72 365.318
5.71317 -3089.63 362.74
5.04147 -3088.62 362.067
3.78135 -3086.1 359.374
3.4709 -3085.46 358.54
3.5475 -3086.11 358.191
3.26157 -3086.35 357.377
3.67231 -3089.94 356.039
2.91623 -3091.47 353.123
4.77055 -3093.83 354.119
5.2606 -3095.44 352.795
8.44317 -3090.46 369.909
8.45064 -3090.01 369.613
8.47996 -3090.73 369.274
8.48445 -3090.31 369.373
6.16895 -3086 371.679
6.72845 -3086.2 370.972
6.9236 -3086.49 370.491
7.52562 -3087.84 370.021
8.06952 -3088.9 369.592
8.51352 -3089.32 369.649
8.45419 -3089.67 369.355
8.32333 -3091.33 369.081
7.83594 -3092.58 368.5
7.79846 -3092.34 367.764
-5.88865 -3074.44 376.386
-4.97883 -3075.87 377.487
-8.64953 -3071.42 373.657
-6.68161 -3073.46 375.038
-2.93817 -3078.22 382.748
-2.69581 -3078.42 382.217
-2.50536 -3078.5 381.89
-2.84846 -3078.49 380.652
-2.77741 -3078.63 378.843
-2.8432 -3078.44 377.696
-3.66443 -3077.55 377.648
-3.89769 -3077.26 377.628
-2.32222 -3078.83 382.307
-16.0912 -3065.65 345.265
-15.1862 -3065.74 348.228
-14.806 -3065.22 351.143
-14.7409 -3064.72 353.888
-12.7819 -3065.13 357.827
-15.7107 -3062.96 361.866
-11.9864 -3065.8 355.722
-14.0878 -3063.75 362.607
-15.2387 -3062.64 364.4
-15.0594 -3062.79 364.711
-16.5734 -3062.12 366.009
-15.4554 -3062.58 365.181
-17.2096 -3062.32 367.473
-16.0154 -3063.46 367.995
-14.1105 -3065.24 367.889
-11.5252 -3067.49 367.63
-9.85409 -3068.93 367.765
-5.97794 -3073.63 373.225
-5.96454 -3073.5 371.946
-8.70566 -3070.06 367.255
-6.60491 -3072.43 367.116
-1.81645 -3079.59 377.972
-3.56136 -3076.84 375.726
-3.11506 -3076.74 373.83
-0.583162 -3079.71 372.886
0.280043 -3080.76 373.336
2.55833 -3082.81 373.181
5.07353 -3085.07 372.762
-1.28085 -3080.03 379.851
-1.5112 -3079.5 381.563
-1.93577 -3078.94 382
3.64652 -3094.8 350.755
-0.916025 -3090.74 344.188
1.03396 -3089 350.945
-1.74553 -3087.32 345.859
8.35152 -3090.39 368.357
8.41551 -3090.77 368.747
8.1988 -3090.05 367.953
8.00836 -3089.62 367.662
7.7721 -3089.24 367.425
6.81562 -3089.12 365.586
5.44229 -3088.82 363.027
4.60598 -3087.28 363.074
4.38962 -3087.34 361.795
3.61457 -3085.57 359.861
1.5943 -3081.93 357.117
1.56682 -3081.54 357.851
1.60093 -3082.32 356.476
1.52957 -3082.88 355.741
1.87516 -3086 354.695
3.84181 -3093.54 352.454
8.47995 -3089.95 369.086
8.48473 -3090.31 368.896
6.24863 -3085.71 370.636
5.46977 -3085.15 371.533
6.62423 -3085.94 370.259
7.12041 -3086.36 370.001
7.51443 -3087.65 369.592
7.95143 -3088.69 369.007
8.32039 -3089.3 369.19
8.40792 -3089.63 368.855
-4.47157 -3075.31 374.965
-4.41638 -3075.1 373.942
-2.32899 -3078.67 382.118
-1.95791 -3079.02 381.691
-2.21396 -3079.01 380.28
-1.72684 -3079.47 380.057
-14.3094 -3067.9 344.462
-13.5313 -3067.73 347.199
-13.5672 -3066.8 349.549
-13.4805 -3065.76 352.777
-12.8893 -3066.62 351.323
-11.8729 -3065.43 359.568
-9.29093 -3067.04 356.411
-11.2891 -3066.43 354.651
-8.45914 -3067.76 355.358
-13.8751 -3063.81 363.202
-11.8944 -3065.37 361.413
-13.7266 -3063.91 363.693
-13.569 -3064.07 364.102
-14.7932 -3063.03 365.149
-16.3125 -3062.5 366.55
-15.3345 -3062.8 365.605
-15.7713 -3063.05 366.868
-15.0545 -3063.58 366.766
-13.4316 -3065.05 366.164
-11.2695 -3066.89 365.591
-9.76174 -3068.08 365.429
-9.27458 -3068.41 365.059
-5.05684 -3074.4 371.69
-7.3133 -3071.47 365.344
-8.74162 -3069.01 364.862
-7.59313 -3070.98 364.806
-5.95046 -3072.96 365.015
-3.40548 -3076.25 367.588
-3.99204 -3075.74 368.823
-3.06017 -3076.68 372.961
-1.12551 -3079.06 370.848
0.636632 -3080.93 372.267
2.8342 -3082.86 372.433
-3.57725 -3087.12 341.653
-0.510051 -3085.26 349.852
-2.38518 -3083.89 347.076
-4.34163 -3084 343.395
8.45166 -3089.97 368.662
8.30554 -3089.74 368.384
8.18693 -3089.42 368.312
7.66581 -3088.61 367.696
7.96877 -3089.03 368.034
6.49431 -3088.44 365.657
5.13621 -3087.8 363.775
4.47485 -3086.52 364.304
3.72139 -3085.58 363.991
3.84291 -3086.02 363.057
3.67853 -3085.82 362.182
3.35446 -3084.94 360.291
1.01567 -3080.34 358.389
-0.467841 -3077.62 355.614
-0.510683 -3077.89 354.948
-0.59858 -3077.09 356.052
-0.619655 -3078.24 354.136
-0.556633 -3080.28 352.89
5.59064 -3084.98 370.505
6.31572 -3085.42 370.016
6.7776 -3085.8 369.797
7.01505 -3086.28 369.662
7.36538 -3087.38 369.227
7.86236 -3088.48 368.413
8.18351 -3089.14 368.637
-14.3498 -3069.28 340.859
-13.0378 -3070.61 342.303
-12.4148 -3069.68 345.625
-11.9713 -3068.84 348.21
-11.9462 -3067.88 350.027
-10.6383 -3067.11 353.618
-9.61075 -3068.12 352.674
-9.70829 -3066.67 358.031
-7.70589 -3068.09 356.355
-7.26082 -3068.54 355.471
-7.20151 -3069.05 354.103
-5.94686 -3069.8 354.639
-11.3514 -3065.75 362.334
-8.96039 -3067.18 358.52
-13.4095 -3064.28 364.507
-11.3547 -3065.84 363.121
-14.7066 -3063.24 365.503
-13.3038 -3064.51 364.884
-11.3761 -3066.02 363.801
-9.6888 -3067.25 363.434
-8.30845 -3068.41 361.531
-8.62603 -3067.87 361.066
-3.62178 -3076.1 371.039
-6.5615 -3071.99 363.125
-7.47933 -3069.96 362.044
-5.48577 -3072.82 362.253
-4.86194 -3073.65 363.804
-4.06059 -3074.74 365.412
-2.8631 -3076.22 365.581
0.0664215 -3080.21 366.635
-0.664469 -3078.58 363.903
0.522037 -3080.91 367.682
0.694219 -3081.13 369.176
1.26888 -3081.53 370.888
3.56393 -3083.29 371.136
-6.70765 -3081.97 340.375
-1.88309 -3079.09 350.849
-3.29224 -3079.56 348.177
-5.02629 -3081.17 344.524
-6.77444 -3080.11 342.24
7.37353 -3087.51 368.651
7.28013 -3087.8 367.875
6.16345 -3087.54 366.091
5.66748 -3086.65 366.418
4.0333 -3085.5 365.247
3.22124 -3084.48 365.382
2.37703 -3083.5 365.11
2.17197 -3083.06 366.067
2.38905 -3083.59 364.252
1.99825 -3082.89 363.912
2.69401 -3083.63 360.738
0.479911 -3079.24 359.043
-0.711323 -3076.74 356.476
-1.52201 -3074.97 354.677
-1.53076 -3075.39 354.013
-1.63652 -3074.52 355.215
-1.63916 -3076.15 353.103
5.63872 -3084.84 369.888
6.28933 -3085.31 369.63
6.72839 -3085.96 369.594
6.86065 -3086.28 369.25
-11.2841 -3072.4 343.185
-10.8049 -3074.49 341.122
-10.7181 -3071.38 345.949
-10.2586 -3070.42 348.133
-9.27368 -3069.14 351.222
-5.946 -3070.43 353.217
-6.10476 -3069.33 356.332
-5.34929 -3070.04 355.507
-4.81139 -3071.03 353.947
-4.20235 -3071.28 354.691
-9.32113 -3067.2 361.257
-7.50284 -3068.26 357.75
-7.25315 -3068.96 359.011
-6.52338 -3070.65 360.317
-6.11769 -3069.4 357.285
-5.50132 -3070.05 357.431
-4.91108 -3072.98 360.856
-3.80217 -3074.35 362.527
-3.82436 -3074.18 360.937
-2.74392 -3075.66 362.512
1.36457 -3081.81 366.08
0.997959 -3081.2 365.295
0.512665 -3079.94 363.348
-1.01465 -3077.54 361.151
-0.112469 -3078.41 360.25
1.57805 -3082.03 366.775
1.59688 -3082.06 367.902
1.87447 -3082.42 367.244
3.49783 -3083.19 370.37
1.81347 -3082.12 368.831
5.03008 -3084.3 369.481
-8.24571 -3078.6 341.023
-2.34948 -3075.91 351.924
-3.33502 -3075.77 350.495
-5.23489 -3078.16 346.212
-7.03733 -3078.24 343.551
6.80762 -3086.63 368.591
6.16194 -3085.78 368.478
5.10772 -3085.69 366.886
4.40231 -3084.64 367.379
2.94426 -3083.69 366.56
2.3538 -3083.01 366.811
0.95174 -3080.5 362.927
1.57592 -3081.56 361.873
0.278735 -3078.9 359.786
-0.456934 -3077.67 357.975
-0.876296 -3076.35 356.691
-1.84278 -3074.11 355.772
-1.924 -3074.3 354.24
-2.111 -3073.73 354.793
-2.03801 -3074.86 353.338
-2.21565 -3073.48 355.378
5.8002 -3084.88 369.414
6.40952 -3085.59 369.295
6.44906 -3085.83 368.998
-9.7123 -3073.49 344.482
-9.19606 -3075.71 342.776
-8.78634 -3072.96 346.622
-7.56898 -3070.58 350.989
-6.96852 -3071.95 349.833
-4.74786 -3071.82 352.55
-4.02208 -3072 353.434
-4.42268 -3070.79 356.305
-4.2183 -3071 355.719
-3.64339 -3071.75 354.962
-3.57103 -3072.08 354.223
-4.96288 -3070.72 357.677
-5.14498 -3072.08 359.681
-3.74763 -3071.45 356.53
-3.46442 -3071.88 356.954
-3.09585 -3074.61 359.544
-2.7199 -3075.26 359.825
-1.7623 -3076.49 359.827
-0.853838 -3077.22 358.572
2.13297 -3082.53 367.586
3.28202 -3083.03 369.674
4.47304 -3083.75 369.263
3.27514 -3082.97 369.09
2.25109 -3082.53 368.144
4.89377 -3084.09 369.026
-2.68226 -3074.49 352.444
-3.54159 -3074.13 351.434
-4.98321 -3075.85 348.279
-7.68975 -3075.69 345.1
5.55002 -3084.89 368.772
3.77748 -3083.81 367.667
2.62523 -3083.09 367.158
-1.11311 -3075.98 357.057
-1.62645 -3074.51 356.071
-2.29962 -3073.45 356.279
-2.75505 -3072.7 355.877
-2.32829 -3073.88 353.808
-2.44991 -3073.42 354.277
-2.87853 -3072.72 354.612
-2.80091 -3072.68 355.106
5.77732 -3084.92 369.173
-6.29775 -3073.17 349.223
-5.64732 -3074.39 348.723
-4.26798 -3073.07 351.562
-3.62836 -3072.87 352.68
-3.01552 -3072.97 353.685
-3.32693 -3071.9 355.675
-3.37428 -3071.84 356.229
-4.78577 -3071.3 358.22
-3.6244 -3072.02 357.548
-4.02626 -3072.48 358.561
-3.18269 -3073.38 358.287
-3.10576 -3072.22 356.528
-3.23993 -3072.34 357.262
-2.84999 -3072.71 356.791
-2.19288 -3074.63 357.913
-1.44067 -3076.48 358.775
-1.53622 -3075.38 357.377
2.51086 -3082.77 367.608
4.26405 -3083.48 368.926
3.44028 -3083.02 368.595
3.44762 -3083.14 368.22
4.45887 -3083.6 368.6
4.93046 -3084.05 368.748
-2.89826 -3073.66 352.928
3.50862 -3083.34 367.934
