-185.74 -3352.24 1190.83
-183.486 -3353.09 1190.18
-187.071 -3352.31 1209.46
-187.242 -3352.08 1210.02
-190.479 -3351 1209.52
-192.732 -3350.15 1210.02
-190.003 -3351.64 1207.71
-193.187 -3350.54 1207.46
-187.09 -3353.17 1208.12
-189.62 -3351.98 1208.04
-184.592 -3354.05 1196.85
-185.3 -3354.31 1197.49
-186.743 -3354.08 1197.7
-189.972 -3353.23 1196.56
-188.938 -3351.12 1193.38
-189.716 -3350.73 1193.34
-186.856 -3351.97 1192.98
-184.928 -3353.4 1195.83
-188.654 -3351.36 1193.89
-188.094 -3352.04 1213.65
-187.838 -3352.1 1214.12
-187.957 -3352.11 1212.63
-191.545 -3350.14 1214.14
-193.998 -3350.3 1208.43
-196.932 -3351.54 1194.58
-207.72 -3346.84 1207.7
-205.883 -3347.96 1202.71
-206.365 -3347.54 1201.41
-204.469 -3348.42 1197.47
-208.489 -3346.05 1210.24
-208.641 -3344.59 1216.51
-208.78 -3345.02 1215.48
-209.154 -3343.17 1214.39
-209.065 -3343.42 1214.83
-208.279 -3342.74 1208.07
-207.623 -3342.91 1205.75
-205.239 -3343.79 1200.9
-211.069 -3341.1 1201.17
-207.83 -3342.23 1199.56
-210.236 -3341.35 1198.6
-209.779 -3341.62 1198.73
-203.281 -3344.36 1195.91
-204.172 -3343.89 1195.92
-203.726 -3344.11 1195.78
-205.896 -3342.97 1198.67
-204.65 -3343.67 1196.01
-112.445 -3357.38 1269.43
-114.078 -3357.34 1269.28
-114.441 -3357.32 1268.88
-112.58 -3357.64 1271.69
-113.451 -3357.44 1269.22
-114.831 -3356.98 1269.23
-110.896 -3357.26 1262.29
-112.757 -3356.61 1262.77
-110.862 -3357.4 1263.85
-113.803 -3357.09 1270.99
-115.95 -3357.16 1269.35
-236.79 -3069.64 1124.46
-233.746 -3067.89 1120.6
-234.508 -3068.48 1121.73
-235.656 -3069.05 1123.15
-231.919 -3066.76 1120.26
-229.844 -3065.4 1113.97
-232.16 -3068.26 1104.91
-266.677 -3095.82 1284.97
-270.289 -3095.11 1285.16
-266.107 -3093.26 1285.15
-236.077 -3069.34 1125.99
-236.011 -3069.39 1124.99
-235.198 -3068.68 1129.44
-234.896 -3068.36 1130.13
-234.184 -3067.85 1130.98
-233.263 -3066.88 1132.2
-230.242 -3068.31 1129.59
-229.274 -3068.23 1128.87
-228.886 -3068.06 1128.54
-228.609 -3067.56 1128.76
-228.256 -3067.55 1127.97
-226.847 -3064.89 1127.1
-227.906 -3067.14 1127.26
-227.062 -3065.2 1126.28
-226.337 -3063.39 1125.26
-226.923 -3064.07 1124.47
-226.945 -3063.74 1123.58
-227.302 -3063.76 1122.54
-229.697 -3065.26 1120.74
-110.871 -3357.63 1252.71
-111.273 -3357.57 1253.04
-116.541 -3355.37 1170.47
-120.407 -3356.42 1173.96
-118.645 -3355.61 1170.59
-121.713 -3356.88 1175.82
-114.093 -3354.37 1164.07
-117.028 -3355.06 1168.41
-115.566 -3354.38 1163.47
-122.286 -3357.18 1176.77
-120.799 -3356.87 1176.04
-122.701 -3357.97 1178.75
-123.499 -3358.28 1179.35
-125.415 -3358.15 1178.45
-124.817 -3357.57 1177.27
-122.851 -3356.59 1171.89
-132.862 -3356.77 1169.23
-127.349 -3356.45 1168.28
-124.201 -3356.31 1168.72
-136.401 -3356.8 1168.45
-140.822 -3356.95 1167.44
-150.666 -3358.1 1169.81
-144.104 -3357.1 1165.88
-146.788 -3357.49 1166.02
-150.297 -3357.71 1167.01
-147.808 -3358.53 1175.92
-148.246 -3358.45 1174.82
-150.207 -3358.41 1172.24
-147.983 -3358.17 1177.67
-148.525 -3357.97 1178.45
-150.653 -3357.64 1177.14
-152.432 -3357.22 1174.22
-188.199 -3350.95 1185.73
-188.164 -3351.18 1188.62
-188.227 -3351.4 1190.6
-187.636 -3351.69 1191.89
-154.471 -3356.74 1171.19
-186.695 -3352.52 1209.2
-186.352 -3353.03 1208.53
-187.559 -3352.11 1209.58
-191.924 -3350.86 1208
-192.563 -3350.64 1207.64
-188.493 -3352.48 1208.56
-186.612 -3353.37 1208.24
-186.367 -3353.48 1196.39
-186.587 -3353.81 1196.99
-188.665 -3353.48 1196.86
-190.888 -3352.84 1195.8
-193.585 -3352.36 1195.13
-195.153 -3352.07 1194.58
-195.64 -3351.99 1194.73
-190.868 -3350.07 1192.87
-188.516 -3351.71 1194.49
-191.854 -3349.74 1192.73
-187.968 -3352.29 1215.45
-187.921 -3352.1 1213.13
-193.922 -3350.22 1209.39
-193.75 -3350.44 1207.42
-202.742 -3349.36 1196.34
-196.216 -3351.72 1194.35
-206.167 -3347.76 1204.16
-207.869 -3346.52 1208.63
-207.152 -3346.82 1201.37
-206.67 -3347.23 1201.1
-207.586 -3346.39 1201.2
-205.55 -3347.63 1197.31
-204.765 -3348.16 1196.9
-205.312 -3347.6 1196.72
-209.102 -3345.25 1213.28
-209.009 -3345.66 1212
-208.821 -3345.92 1211.16
-208.924 -3344.24 1215.5
-209.026 -3344.87 1214.47
-209.18 -3343.2 1213.86
-209.358 -3342.66 1213.75
-209.131 -3344.2 1214.02
-207.518 -3343.33 1206.16
-206.603 -3343.71 1204.05
-204.186 -3343.94 1198.87
-203.489 -3344.25 1196.68
-209.407 -3342.39 1212.54
-209.141 -3342.8 1211.76
-207.803 -3342.31 1197.84
-207.822 -3342.46 1195.23
-208.7 -3342.05 1194.95
-204.638 -3343.9 1193.77
-202.705 -3344.74 1193.31
-205.725 -3343.3 1195.52
-202.175 -3345.04 1194.11
-113.893 -3356.95 1269.88
-112.626 -3357.55 1272.35
-112.909 -3357.25 1270.32
-112.616 -3356.8 1262.31
-111.73 -3356.9 1260.38
-110.611 -3357.4 1262.96
-115.908 -3357.08 1270.17
-116.304 -3357.2 1269.75
-114.794 -3356.97 1270.21
-233.506 -3067.87 1121.2
-234.537 -3068.63 1122.64
-235.501 -3069.09 1123.98
-231.033 -3066.33 1120.83
-232.386 -3067.28 1121.17
-271.247 -3095 1285.16
-267.442 -3092.96 1285.14
-267.112 -3092.47 1285.12
-265.795 -3092.57 1285.08
-235.942 -3068.93 1128.66
-235.596 -3069.27 1125.32
-234.722 -3068.49 1129.58
-233.751 -3067.96 1130.71
-233.559 -3067.51 1131.35
-231.496 -3067.65 1130.87
-230.051 -3068.62 1129.01
-228.832 -3068.31 1127.94
-228.304 -3067.85 1127.36
-228.091 -3067.49 1126.95
-227.295 -3065.52 1125.86
-227.594 -3065.93 1125.52
-227.878 -3066.07 1125.05
-227.552 -3064.4 1123.75
-227.838 -3064.52 1122.97
-228.927 -3064.89 1121.57
-120.981 -3356.25 1171.1
-119.379 -3355.43 1167.97
-120.007 -3355.82 1169.42
-112.866 -3353.86 1159.82
-111.678 -3353.15 1155.67
-114.308 -3353.57 1157.94
-114.136 -3353.95 1160.3
-116.146 -3354.69 1166.05
-118.397 -3355.24 1166.94
-116.444 -3354.5 1162.73
-115.354 -3353.95 1160.49
-123.488 -3357.72 1178.02
-121.696 -3355.93 1167.85
-130.015 -3356.21 1166.72
-132.363 -3356.13 1166.13
-125.15 -3355.63 1163.76
-127.94 -3355.75 1163.9
-120.814 -3355.47 1165.46
-135.284 -3356.42 1167.35
-138.665 -3356.66 1167.23
-141.404 -3356.64 1165.64
-151.744 -3358.16 1170.42
-152.698 -3357.66 1166.9
-143.212 -3356.48 1163.45
-145.822 -3356.84 1161.79
-144.283 -3356.5 1161.5
-149.785 -3357.18 1162.66
-147.949 -3356.75 1159.84
-151.367 -3357.36 1164.96
-148.478 -3358.3 1176.41
-148.837 -3358.58 1175.02
-148.313 -3358.52 1174.03
-148.72 -3358.42 1173.15
-149.457 -3358.24 1176.08
-151.203 -3357.4 1175.36
-151.085 -3357.41 1174.49
-190.684 -3349.85 1185.12
-190.736 -3350.13 1188.86
-189.468 -3350.78 1189.68
-188.671 -3351.23 1190.35
-189.234 -3351.18 1191.12
-153.843 -3357.01 1171.87
-186.683 -3353.08 1210.89
-186.837 -3352.99 1212.19
-188.097 -3351.71 1210.12
-187.907 -3352.24 1209.94
-189.948 -3351.3 1209.35
-192.945 -3350.46 1209.69
-192.343 -3350.3 1209.44
-190.203 -3351.5 1208.19
-187.743 -3353.06 1208.59
-189.505 -3352.12 1208.57
-190.299 -3351.86 1208.65
-188.597 -3352.15 1195.05
-188.704 -3353.15 1196.41
-189.193 -3353.27 1196.49
-192.627 -3352.42 1195.09
-194.072 -3352.13 1194.45
-187.683 -3352.73 1215.36
-188.115 -3352.04 1211.95
-193.904 -3350.11 1209.96
-193.447 -3350.35 1209.84
-199.782 -3350.42 1195.38
-197.293 -3351.09 1194.1
-203.577 -3348.86 1196.9
-207.338 -3346.94 1206.74
-208.096 -3345.9 1201.37
-205.321 -3348.23 1200.52
-207.969 -3345.99 1200.88
-206.367 -3346.74 1197.07
-205.94 -3347.03 1196.76
-209.307 -3345.16 1212.71
-209.195 -3343.3 1213.33
-209.209 -3343.02 1212.83
-209.151 -3344.12 1213.32
-207.283 -3343.68 1205.78
-208.778 -3342.86 1210.43
-208.075 -3343.33 1208.14
-204.703 -3343.67 1191.91
-207.697 -3342.28 1192.41
-201.613 -3345.31 1193.34
-201.601 -3345.28 1192.48
-201.351 -3345.03 1190.73
-201.631 -3345.43 1193.83
-201.116 -3345.6 1193.31
-114.437 -3356.98 1269.66
-112.707 -3357.67 1271
-111.476 -3356.98 1259.78
-114.352 -3357.14 1272.33
-232.903 -3067.84 1121.84
-233.734 -3068.17 1121.95
-231.516 -3066.78 1121.22
-230.258 -3065.99 1121.45
-232.142 -3067.4 1121.77
-271.79 -3095.59 1285.15
-270.135 -3094.19 1285.19
-235.639 -3069.14 1126.62
-235.142 -3068.87 1128.26
-235.313 -3069.19 1125.84
-235.026 -3069.02 1125.03
-234.465 -3068.69 1129.08
-234.199 -3068.44 1129.61
-234.396 -3068.19 1130.36
-232.247 -3068.14 1130.45
-232.556 -3068.39 1130.11
-232.734 -3068.65 1129.72
-230.777 -3068.64 1129.5
-230.732 -3069.01 1128.88
-229.906 -3068.86 1128.47
-229.482 -3068.7 1128.24
-228.929 -3068.51 1127.49
-228.615 -3068.25 1126.97
-228.546 -3067.97 1126.17
-228.205 -3067.46 1126.08
-228.208 -3066.35 1124.65
-228.505 -3067.69 1125.69
-228.333 -3065.14 1123.13
-229.151 -3065.32 1121.99
-112.23 -3357.72 1251.78
-120.986 -3355.96 1168.46
-114.674 -3353.46 1155.27
-113.593 -3353.2 1152.87
-116.761 -3353.7 1156.49
-117.129 -3354.85 1165.03
-118.468 -3355.18 1164.92
-117.735 -3354.73 1161.52
-116.31 -3354.1 1160.56
-117.822 -3353.98 1157.63
-130.65 -3355.41 1163.12
-128.514 -3355.33 1161.71
-133.473 -3355.75 1165.06
-122.589 -3355.52 1164.15
-122.978 -3355.36 1161.74
-126.321 -3355.12 1159.94
-121.761 -3355.39 1162.46
-120.318 -3355.25 1162.33
-137.065 -3356.3 1166.83
-135.489 -3355.94 1166.12
-139.584 -3356.49 1166.27
-140.853 -3356.41 1165.34
-153.08 -3357.41 1164.31
-143.43 -3356.33 1161.84
-142.715 -3356.19 1162.73
-145.441 -3356.16 1156.19
-142.458 -3355.78 1157.85
-142.44 -3355.89 1159.84
-151.435 -3356.73 1158.34
-152.32 -3357.25 1162.32
-152.37 -3357.3 1163.93
-148.103 -3356.32 1155.81
-149.359 -3358.58 1174.89
-149.231 -3358.44 1173.07
-150.533 -3357.65 1176.08
-150.616 -3357.53 1175.33
-192.462 -3348.9 1185.81
-192.323 -3349.13 1188.17
-192.454 -3349.21 1189.46
-190.885 -3350.16 1189.63
-190.57 -3350.4 1190.1
-189.531 -3350.91 1190.32
-189.81 -3351.05 1191.15
-189.204 -3351.03 1192.13
-153.543 -3357.04 1172.31
-153.801 -3356.88 1171.09
-154.874 -3356.5 1170.67
-186.674 -3352.95 1209.69
-187.113 -3352.78 1211.29
-186.867 -3353.06 1213.34
-188.255 -3351.95 1209.52
-187.6 -3352.49 1213.25
-188.593 -3351.68 1209.81
-189.13 -3351.63 1209.53
-191.83 -3350.64 1208.73
-187.376 -3353.39 1208.72
-188.223 -3353.12 1208.85
-189.084 -3352.54 1208.94
-189.895 -3352.24 1209.02
-190.998 -3351.98 1209.45
-190.667 -3351.12 1208.61
-189.221 -3351.81 1194.88
-189.741 -3353.02 1196.1
-190.361 -3352.85 1195.41
-192.27 -3352.17 1194.44
-192.968 -3351.82 1193.59
-194.742 -3351.86 1194.14
-193.229 -3348.88 1191.36
-188.396 -3352.02 1214.64
-188.015 -3352.43 1214.76
-188.134 -3352.09 1210.84
-188.088 -3352.09 1211.43
-188.536 -3352.04 1213.9
-193.311 -3350.73 1209.3
-199.465 -3350.2 1194.7
-195.559 -3351.7 1194.02
-200.182 -3349.76 1194.77
-202.223 -3349.57 1196.14
-193.989 -3351.52 1193.43
-206.469 -3347.38 1203.81
-208.347 -3345.6 1201.77
-204.081 -3348.87 1198.83
-208.394 -3345.52 1200.8
-206.004 -3347.29 1197.56
-206.937 -3346.22 1197.33
-206.722 -3346.28 1196.88
-207.489 -3345.38 1197.27
-206.208 -3346.64 1196.47
-209.379 -3345.23 1212.19
-208.686 -3345.58 1210.21
-209.121 -3345.46 1211.4
-208.098 -3346.05 1208.6
-209.176 -3343.35 1212.27
-207.77 -3343.44 1207.02
-206.758 -3344.14 1204.67
-202.067 -3345.3 1194.83
-209.089 -3343.36 1211.52
-201.528 -3344.51 1187.59
-203.377 -3343.92 1188.54
-200.533 -3345.86 1192.7
-198.444 -3346.44 1190.81
-197.806 -3346.51 1189.9
-200.164 -3345.33 1188.61
-197.211 -3346.6 1188.84
-113.425 -3357.09 1270.17
-110.405 -3357.6 1262.06
-110.125 -3357.9 1261.76
-114.185 -3357.1 1272.9
-233.045 -3068.1 1122.37
-232.488 -3067.87 1122.3
-233.721 -3068.4 1122.67
-234.367 -3068.75 1123.42
-234.271 -3068.87 1124.08
-230.93 -3066.57 1121.63
-232.055 -3067.61 1122.24
-231.616 -3067.17 1121.9
-270.785 -3095.28 1285.13
-272.363 -3096.12 1285.12
-270.47 -3094.58 1285.15
-234.858 -3068.91 1127.12
-234.99 -3069.07 1126.21
-234.605 -3068.81 1127.95
-234.637 -3068.89 1128.59
-234.911 -3069.03 1125.55
-233.188 -3069.16 1128.43
-231.24 -3068.98 1129.18
-231.8 -3069.31 1128.62
-230.696 -3069.22 1128.38
-229.46 -3068.87 1127.74
-228.857 -3068.22 1125.85
-228.577 -3066.6 1124.29
-228.853 -3067.92 1125.33
-229.178 -3065.7 1122.5
-228.983 -3066.75 1123.9
-230.023 -3066.26 1122.16
-114.949 -3353.27 1153.11
-116.967 -3353.42 1153.45
-114.858 -3353 1150.31
-118.656 -3353.69 1153.87
-118.645 -3355 1162.42
-117.859 -3354.47 1160.07
-120.271 -3355.18 1160.8
-119.464 -3354.68 1159.18
-117.361 -3354.04 1158.8
-121.063 -3354.4 1156.38
-130.241 -3355.04 1161.68
-132.632 -3355.32 1163.41
-128.764 -3354.97 1159.55
-129.976 -3354.91 1160.44
-134.952 -3355.6 1165.22
-121.411 -3355.34 1160.77
-122.785 -3355.13 1159.75
-126.594 -3354.9 1157.06
-123.416 -3354.68 1156.7
-128.438 -3354.97 1157.45
-138.187 -3356.16 1166.12
-136.692 -3355.85 1165.91
-135.862 -3355.6 1165.38
-139.809 -3356.23 1165.59
-140.803 -3356.17 1164.84
-142.181 -3356.36 1163.97
-151.301 -3358.52 1172.33
-152.287 -3358.18 1170.46
-153.202 -3357.66 1167.04
-152.84 -3357.38 1162.86
-153.377 -3357.34 1162.69
-142.682 -3356.01 1160.57
-142.089 -3355.58 1152.63
-145.277 -3355.7 1151.22
-141.268 -3355.74 1159.16
-140.474 -3355.53 1157.67
-139.766 -3355.52 1159.05
-140.601 -3355.32 1156.21
-141.008 -3355.49 1154.78
-140.621 -3355.62 1159.61
-151.261 -3356.94 1160.34
-152.982 -3356.78 1158.57
-152.181 -3356.85 1159.13
-150.358 -3356.33 1154.84
-153.238 -3356.7 1157.42
-153.976 -3356.91 1158.35
-148.521 -3356 1152.09
-149.966 -3358.47 1174.58
-149.486 -3358.58 1174.23
-148.866 -3358.53 1174.18
-148.916 -3358.3 1173.7
-150.349 -3358.48 1172.87
-149.997 -3358.07 1175.56
-153.394 -3357.06 1172.92
-195.591 -3347.15 1186
-195.118 -3347.51 1188.38
-192.774 -3349.09 1190.01
-195.11 -3347.78 1189.87
-190.822 -3350.51 1190.58
-190.259 -3350.81 1190.73
-189.43 -3350.81 1192.53
-188.696 -3351.26 1192.18
-190.187 -3350.37 1192.39
-186.409 -3353.48 1209.17
-186.592 -3353.41 1211.9
-187.184 -3352.8 1211.81
-186.746 -3353.31 1213.84
-187.763 -3352.43 1212.03
-187.022 -3352.85 1215.43
-188.926 -3351.83 1210.17
-189.673 -3351.3 1209.81
-190.958 -3350.8 1209.24
-190.081 -3350.82 1210.08
-192.561 -3350.79 1209.59
-192.998 -3350.49 1207.96
-190.086 -3352.54 1209.4
-191.183 -3352.08 1210.01
-189.203 -3352.78 1196.03
-190.928 -3352.51 1194.6
-190.217 -3353.07 1195.85
-190.838 -3351.97 1193.28
-191.17 -3351.55 1192.69
-191.811 -3351.41 1192.62
-193.977 -3348.75 1191.43
-193.672 -3348.94 1191.87
-192.404 -3349.32 1191.64
-192.344 -3349.4 1192.19
-188.932 -3351.99 1214.33
-188.628 -3352.01 1211.72
-193.443 -3350.58 1208.8
-193.21 -3350.91 1208.39
-197.737 -3350.58 1193.85
-201.957 -3349.36 1195.62
-199.67 -3349.64 1194.34
-202.426 -3349.15 1195.83
-204.224 -3348.5 1197.01
-192.29 -3351.16 1192.42
-207.211 -3346.72 1205.88
-207.182 -3346.76 1200.73
-208.029 -3345.87 1200.38
-204.851 -3348.26 1197.91
-205.62 -3347.11 1196.33
-207.68 -3345.49 1197.85
-204.86 -3347.82 1196.51
-209.213 -3344.11 1212.57
-209.03 -3345.21 1210.85
-207.597 -3344.02 1206.72
-207.033 -3344.35 1205.32
-206.167 -3344.1 1203.42
-204.859 -3344.42 1200.83
-203.942 -3344.51 1199.08
-203.166 -3344.61 1197.02
-201.123 -3345.79 1193.85
-208.397 -3343.65 1209.33
-209.221 -3344.21 1211.69
-199.52 -3345.37 1186.27
-199.477 -3346.37 1192.15
-197.813 -3346.79 1191.04
-194.424 -3348.28 1190.54
-197.361 -3346.48 1187.46
-198.212 -3346.15 1186.71
-200.534 -3346.07 1193.32
-113.518 -3357.45 1270.73
-113.008 -3357.26 1271.03
-110.563 -3357.44 1261.08
-110.591 -3357.47 1260.56
-110.808 -3357.41 1258.58
-112.406 -3356.7 1260.37
-233.012 -3068.31 1122.93
-233.331 -3068.56 1123.33
-233.595 -3068.73 1123.73
-234.494 -3068.95 1124.85
-230.878 -3066.83 1122.08
-231.065 -3068.15 1123.43
-234.534 -3068.89 1126.54
-233.347 -3069.36 1127.15
-230.129 -3069.22 1128.2
-229.782 -3069.15 1127.43
-228.948 -3068.61 1126.7
-229.092 -3068.61 1126.15
-229.216 -3068.11 1125
-229.447 -3067.12 1123.69
-229.858 -3067.39 1123.58
-111.711 -3357.58 1252.63
-118.752 -3353.26 1150.37
-118.293 -3352.93 1146.61
-121.049 -3353.99 1153.7
-122.058 -3353.65 1150.35
-120.698 -3354.82 1158.97
-121.795 -3354.98 1159.16
-123.613 -3354.35 1153.77
-130.908 -3354.77 1160.81
-131.46 -3354.82 1161.74
-133.609 -3355.31 1163.71
-132.283 -3354.76 1162
-129.908 -3354.9 1158.04
-130.386 -3354.81 1159.13
-131.061 -3354.69 1159.95
-126.702 -3354.65 1154.23
-129.037 -3354.81 1154.72
-128.543 -3355.05 1155.99
-131.091 -3354.77 1154.37
-132.42 -3354.81 1154.88
-137.023 -3355.73 1165.42
-136.437 -3355.54 1165.23
-135.849 -3355.34 1164.86
-139.089 -3356.12 1165.47
-140.033 -3355.97 1164.99
-140.817 -3355.94 1164.28
-153.731 -3357.39 1164.57
-154.138 -3357.09 1162.02
-142.891 -3356.12 1161.7
-142.22 -3356.05 1162.93
-142.45 -3355.96 1162.19
-136.52 -3354.97 1152.53
-136.865 -3354.93 1150.16
-143.149 -3355.26 1148.05
-145.91 -3355.33 1147.16
-139.326 -3355.36 1159.64
-140.007 -3355.28 1155.12
-139.947 -3355.13 1156.3
-136.977 -3354.95 1153.71
-142.037 -3355.76 1160.35
-151.803 -3356.87 1161.32
-154.07 -3356.96 1159.4
-149.072 -3355.87 1151.22
-151.666 -3356.28 1154.97
-153.77 -3356.68 1157.32
-149.043 -3358.12 1174.43
-150.608 -3358.41 1173.43
-150.068 -3357.71 1174.59
-149.497 -3358.12 1173.65
-152.826 -3357.19 1173.34
-191.158 -3350.14 1190.25
-191.828 -3349.7 1189.97
-191.098 -3350.64 1190.99
-190.471 -3351.08 1191.28
-190.253 -3351.57 1192.25
-190.774 -3351.35 1191.85
-189.884 -3351.38 1191.69
-190.636 -3350.64 1192.6
-190.957 -3350.83 1193.09
-189.917 -3350.96 1192.44
-155.532 -3356.57 1168.63
-155.734 -3356.53 1167.51
-156.725 -3355.52 1164.12
-156.145 -3354.84 1158.68
-153.273 -3356.97 1170.91
-153.508 -3356.81 1170.49
-188.799 -3351.92 1210.7
-188.985 -3351.89 1211.25
-189.962 -3351.27 1210.58
-189.397 -3351.61 1210.85
-187.813 -3353.51 1208.99
-188.369 -3353.58 1209.21
-189.977 -3353.29 1209.88
-191.142 -3352.53 1210.38
-190.492 -3352.87 1209.95
-190.719 -3351.54 1208.93
-191.732 -3351.12 1210.11
-192.03 -3350 1193.16
-189.636 -3351.52 1194.64
-189.856 -3352.36 1195.55
-191.226 -3351.3 1192.06
-197.347 -3347.05 1191.22
-195.448 -3348.14 1191.51
-194.746 -3348.42 1191.46
-193.084 -3349.06 1191.82
-192.86 -3349.59 1191.96
-192.032 -3349.91 1192.26
-194.432 -3348.77 1191.99
-187.988 -3352.94 1214.93
-187.35 -3353.22 1215.14
-188.484 -3352.02 1212.62
-192.036 -3351.46 1209.65
-197.177 -3350.67 1193.62
-196.469 -3351.37 1193.94
-191.367 -3350.89 1191.6
-206.754 -3346.9 1204.15
-206.242 -3347.68 1202.1
-204.454 -3348.74 1199.17
-205.729 -3347.88 1200.43
-207.153 -3346.25 1198.02
-207.248 -3345.34 1196.83
-208.09 -3345.05 1198.53
-205.873 -3346.59 1196.09
-208.498 -3345.15 1209.33
-208.135 -3345.67 1208.17
-207.2 -3345.29 1205.61
-206.172 -3344.63 1203.5
-201.928 -3346.02 1194.88
-201.615 -3345.68 1194.33
-208.496 -3344.39 1209.57
-200.044 -3346.22 1192.79
-199.025 -3346.68 1192.28
-197.94 -3346.93 1191.6
-113.432 -3357.47 1271.29
-115.652 -3357.08 1270.63
-113.009 -3356.78 1262
-110.698 -3357.55 1259.98
-111.708 -3357.23 1262.29
-110.264 -3357.84 1261.21
-114.501 -3357.05 1273.29
-115.107 -3356.99 1270.6
-231.98 -3068.78 1123.83
-231.54 -3068.46 1123.54
-232.343 -3069.08 1124.35
-232.837 -3069.29 1125.06
-230.294 -3067.72 1123.53
-230.571 -3068.93 1124.64
-229.934 -3068.48 1124.66
-273.07 -3096.58 1285.15
-273.223 -3097.06 1285.15
-233.332 -3069.33 1126.3
-232.047 -3069.57 1127.84
-231.32 -3069.54 1127.95
-230.492 -3069.38 1127.85
-230.665 -3069.52 1127.32
-229.393 -3068.97 1126.89
-229.443 -3068.51 1125.3
-112.283 -3357.59 1252.35
-110.812 -3357.53 1253.3
-121.654 -3353.19 1146.69
-121.974 -3353.04 1144.44
-124.653 -3353.66 1148.25
-131.619 -3354.63 1161.14
-131.716 -3354.54 1160.5
-132.423 -3354.46 1161.44
-132.785 -3354.54 1161.93
-131.725 -3354.79 1156.99
-133.068 -3354.77 1155.57
-131.339 -3354.63 1158.39
-131.364 -3354.56 1159.17
-132 -3354.39 1159.82
-135.101 -3355.29 1164.66
-129.593 -3354.42 1150.55
-133.177 -3354.68 1151.68
-134.84 -3354.64 1154.44
-137.699 -3355.7 1165.14
-137.026 -3355.39 1165
-136.534 -3355.21 1164.86
-139.165 -3355.77 1165
-139.711 -3355.65 1164.74
-140.287 -3355.81 1164.46
-140.666 -3355.59 1163.84
-141.557 -3356.03 1163.73
-153.711 -3357.94 1169.17
-153.582 -3357.92 1168.66
-153.96 -3357.56 1167.25
-154.217 -3357.06 1161.27
-142.017 -3355.78 1161.87
-142.338 -3355.83 1161.04
-141.706 -3355.72 1162.71
-132.551 -3354.35 1147.37
-136.405 -3354.55 1144.92
-138.852 -3354.74 1144.8
-142.936 -3354.99 1145.35
-146.98 -3355.23 1146.82
-143.254 -3354.84 1144.6
-139.739 -3355.37 1158.06
-139.085 -3355.22 1159.11
-139.073 -3355.11 1154.89
-137.777 -3354.99 1154.28
-136.067 -3354.68 1154.83
-151.792 -3357.01 1160.57
-153.309 -3356.82 1159.46
-154.109 -3356.99 1160.34
-151.021 -3356.08 1153.3
-149.543 -3355.57 1150.13
-152.973 -3356.34 1156.3
-153.611 -3357.2 1161.69
-152.407 -3357.06 1161.56
-149.461 -3358.01 1174.73
-150.495 -3358.12 1175.25
-152.285 -3357.28 1173.64
-192.58 -3349.31 1190.44
-191.953 -3349.55 1191.59
-191.633 -3350.77 1193.34
-191.402 -3350.48 1192.75
-155.201 -3356.87 1169.31
-154.462 -3357.49 1168.48
-154.67 -3357.21 1166.57
-155.778 -3356.22 1165.22
-155.882 -3356.03 1162.25
-156.996 -3355.23 1160.28
-156.605 -3355.11 1158.72
-155.522 -3354.74 1157.9
-154.97 -3354.84 1158.92
-154.53 -3355 1159.11
-153.143 -3354.74 1151.29
-154.478 -3356.54 1170.34
-152.723 -3354.31 1148.66
-153.207 -3354.38 1150.24
-186.781 -3353.72 1208.59
-186.274 -3353.87 1209.9
-186.535 -3353.46 1211.28
-187 -3353.12 1214.69
-189.081 -3351.94 1212.55
-189.169 -3351.85 1211.78
-190.31 -3351.09 1211.87
-190.856 -3351.06 1210.27
-190.467 -3351.08 1210.74
-190.283 -3351.11 1211.24
-192.371 -3350.56 1208.44
-191.888 -3351.24 1208.9
-192.158 -3351.02 1209.28
-192.75 -3351.08 1208.63
-187.189 -3353.94 1208.85
-189.586 -3353.01 1209.48
-189.001 -3353.3 1209.29
-187.981 -3354.04 1209.24
-190.246 -3353.79 1210.31
-191.577 -3351.7 1210.1
-190.818 -3353.17 1210.4
-191.395 -3351.64 1209.32
-183.848 -3354.59 1208.22
-190.487 -3352.3 1194
-190.199 -3351.6 1194.71
-192.732 -3351.95 1194.65
-192.182 -3351.63 1194.33
-196.678 -3347.6 1191.55
-193.371 -3349.51 1192.76
-188.632 -3352.47 1214.24
-188.545 -3353.39 1214.31
-188.24 -3352.95 1214.49
-188.782 -3352.02 1213.31
-191.503 -3350.45 1213.65
-193.181 -3350.9 1209.78
-192.625 -3351.09 1208.09
-192.292 -3350.94 1210.12
-196.309 -3351.06 1193.54
-198.572 -3349.61 1193.63
-197.629 -3350 1193.39
-194.805 -3351.34 1193.32
-192.875 -3350.85 1192.2
-200.305 -3349.26 1194.44
-202.256 -3348.84 1195.41
-203.25 -3348.93 1196.52
-207.459 -3346.24 1206.3
-206.288 -3347.55 1202.75
-208.769 -3345.1 1202.15
-205.051 -3348.25 1199.57
-204.193 -3348.66 1198.32
-208.598 -3345.27 1201.34
-208.366 -3345.42 1200.29
-209.019 -3344.58 1201.92
-207.442 -3346.45 1200.19
-206.62 -3346.01 1196.35
-207.518 -3345.91 1198.31
-207.298 -3345.91 1205.71
-206.756 -3345.27 1204.56
-206.55 -3346.86 1203.63
-206.505 -3345.87 1203.74
-203.123 -3345.06 1197.35
-202.209 -3345.53 1195.38
-201.646 -3346.37 1194.52
-201.248 -3346.48 1194.21
-113.071 -3357.38 1272.15
-112.182 -3356.76 1260.85
-112.01 -3356.8 1259.92
-111.169 -3357.23 1258.22
-113.343 -3357.27 1272.87
-230.214 -3068.93 1125
-273.707 -3096.9 1285.15
-274.092 -3097.38 1285.12
-232.199 -3069.65 1126.85
-231.622 -3069.7 1127.3
-229.817 -3069.19 1126.51
-230.079 -3069.22 1125.91
-230.31 -3069.38 1126.57
-124.531 -3353.24 1144.67
-122.807 -3352.89 1141.59
-127.283 -3353.77 1147.19
-126.954 -3353.34 1144.56
-132.321 -3354.3 1160.4
-133.649 -3354.8 1162.69
-134.833 -3354.97 1163.86
-133.252 -3354.27 1161.76
-133.145 -3354.67 1156.46
-134.699 -3354.64 1155.49
-132.348 -3354.5 1157.68
-132.145 -3354.53 1158.55
-132.213 -3354.32 1159.07
-132.689 -3354.09 1159.95
-135.866 -3354.7 1164.2
-135.396 -3354.67 1163.95
-137.435 -3355.14 1164.76
-136.428 -3354.83 1164.49
-138.393 -3355.74 1165.23
-140.643 -3355.11 1163.44
-141.298 -3355.61 1163.13
-152.166 -3358.33 1171.52
-153.043 -3357.95 1170.18
-151.48 -3358.54 1172.97
-154.492 -3357.47 1169.02
-154.302 -3357.17 1163.64
-154.747 -3356.85 1160.01
-141.854 -3355.64 1161.32
-141.557 -3355.35 1162
-130.131 -3353.87 1145.32
-133.08 -3353.87 1142.52
-135.552 -3354.21 1142.47
-139.589 -3354.62 1143.45
-136.712 -3354.22 1141.7
-147.056 -3354.79 1145.28
-145.163 -3355.05 1145.27
-148.794 -3355.28 1147.57
-141.949 -3354.22 1142.07
-145.387 -3354.16 1142.92
-144.39 -3354.61 1143.92
-139.617 -3355.09 1155.89
-138.125 -3354.92 1154.72
-137.09 -3354.82 1154.59
-136.415 -3354.67 1155.2
-140.337 -3355.52 1160.14
-141.169 -3355.46 1160.32
-141.787 -3355.62 1160.81
-139.383 -3355.29 1160.34
-138.937 -3355.4 1160.59
-152.056 -3356.98 1159.65
-153.791 -3356.24 1160.02
-154.066 -3355.61 1159.59
-151.49 -3355.88 1153.02
-153.065 -3356.22 1154.98
-149.58 -3355.29 1148.25
-150.238 -3355.52 1150.15
-150.623 -3355.56 1151.31
-153.506 -3356.24 1155.98
-154.115 -3356.52 1156.76
-154.792 -3356.71 1157.66
-152.99 -3357.17 1161.77
-152.355 -3356.82 1160.94
-150.371 -3358.18 1174.63
-150.275 -3358.51 1174.14
-150.171 -3357.69 1174.07
-151.911 -3357.27 1174.02
-152.379 -3357.28 1173.06
-192.745 -3349.14 1191.26
-191.748 -3350.15 1190.74
-192.644 -3349.66 1190.93
-190.119 -3351.89 1192.83
-190.674 -3350.08 1192.13
-154.114 -3357.73 1169.5
-155.51 -3356.52 1170.01
-155.199 -3356.69 1160.95
-155.962 -3356.03 1159.6
-156.099 -3355.75 1158.5
-156.211 -3355.35 1156.93
-154.256 -3355.05 1159.68
-153.606 -3355.67 1160.81
-154.797 -3355.12 1158.4
-155.05 -3355.05 1157.95
-156.008 -3355.86 1157.11
-155.933 -3355.56 1156.21
-154.526 -3355.54 1154.33
-155.181 -3354.62 1152.77
-153.623 -3355.2 1152.49
-151.459 -3354.88 1149.55
-152.765 -3355.24 1152.01
-152.014 -3355.6 1152.57
-153.262 -3357.12 1171.73
-150.502 -3354.91 1147.82
-186.257 -3353.81 1208.67
-186.122 -3354.09 1209.26
-186.4 -3353.68 1210.63
-189.264 -3351.91 1213.07
-189.569 -3351.52 1211.37
-190.324 -3351.08 1212.39
-192.189 -3350.9 1211
-191.395 -3350.97 1210.47
-191.047 -3351.06 1210.98
-192.233 -3351.09 1208.44
-189.498 -3353.8 1209.83
-188.386 -3354.18 1209.53
-188.208 -3355.75 1210.13
-190.232 -3354.58 1210.76
-189.463 -3354.39 1210.16
-191.491 -3352 1210.53
-191.152 -3352.93 1210.7
-191.012 -3353.53 1210.9
-190.602 -3354.05 1210.74
-183.767 -3355.04 1208.5
-191.936 -3350.32 1193.57
-190.294 -3352.73 1194.88
-192.499 -3350.49 1193.16
-190.893 -3351.49 1193.46
-193.159 -3349.3 1192.34
-194.95 -3348.64 1191.96
-189.399 -3354.16 1213.67
-189.175 -3355.15 1213.74
-187.745 -3353.47 1214.81
-192.197 -3351.48 1210.31
-192.651 -3351.21 1209.87
-195.167 -3350.91 1193.06
-196.787 -3350.42 1193.3
-198.474 -3348.61 1193.03
-197.587 -3349.02 1192.84
-195.67 -3350.43 1192.9
-193.908 -3350.86 1192.57
-193.408 -3350.83 1192.35
-192.081 -3350.65 1191.7
-193.313 -3350.4 1191.88
-201.809 -3349.03 1195.25
-199.627 -3348.23 1193.51
-206.408 -3347.2 1203.16
-204.466 -3348.31 1198.73
-208.702 -3344.92 1200.87
-206.975 -3345.36 1196.37
-207.574 -3344.85 1196.66
-208.275 -3345.25 1199.52
-207.87 -3345.51 1198.73
-206.107 -3346.11 1195.9
-204.905 -3347.47 1196.1
-206.496 -3346.59 1203.08
-206.299 -3345.85 1203.14
-205.751 -3344.91 1202.95
-204.784 -3344.9 1200.68
-203.197 -3345.73 1197.38
-202.494 -3345.93 1195.88
-202.182 -3346.08 1195.31
-200.077 -3346.69 1193.18
-199.795 -3347.24 1193.24
-199.355 -3346.91 1192.83
-197.433 -3347.5 1191.84
-110.199 -3357.91 1260.69
-114.065 -3357.05 1273.57
-115.14 -3357.04 1271.46
-231.168 -3069.23 1124.76
-231.506 -3069.44 1125.14
-230.512 -3069.26 1125.31
-231.785 -3069.61 1125.73
-231.711 -3069.71 1126.56
-230.933 -3069.61 1126.78
-110.984 -3357.36 1253.76
-127.332 -3353.19 1141.65
-130.415 -3353.48 1141.67
-132.764 -3354.11 1160.7
-132.896 -3354.12 1161.21
-133.813 -3354.29 1162.22
-134.605 -3354.55 1163.16
-132.952 -3354.31 1157.8
-132.568 -3354.27 1158.63
-132.757 -3354.16 1159.1
-134.399 -3352.98 1160.08
-136.279 -3353.59 1163.42
-137.136 -3353.67 1163.81
-137.863 -3353.68 1163.84
-138.317 -3354.01 1164.01
-138.909 -3354.23 1164
-139.868 -3355.2 1164.1
-139.832 -3354 1163.35
-151.906 -3358.53 1172.51
-155.33 -3356.64 1159.26
-155.211 -3356.69 1158.57
-154.668 -3356.78 1158.33
-141.055 -3355.16 1162.93
-140.22 -3353.93 1162.81
-141.119 -3354.96 1162.24
-131.277 -3353.39 1138.84
-133.199 -3353.64 1139.35
-136.46 -3353.71 1139.11
-138.378 -3354.22 1141.6
-149.619 -3354.71 1146.38
-139.856 -3353.94 1140.27
-137.881 -3355.5 1160.45
-139.235 -3354.95 1156.52
-139.018 -3354.96 1155.39
-137.826 -3354.73 1155.15
-138.316 -3354.58 1155.73
-139.474 -3355.04 1156.98
-136.874 -3354.55 1155.45
-135.141 -3354.65 1155.83
-139.784 -3355.41 1160.88
-137.958 -3355.55 1161.39
-136.917 -3355.58 1161.66
-153.134 -3356.41 1159.19
-154.243 -3355.48 1159.08
-153.763 -3356.77 1159.83
-155.264 -3354.83 1158.5
-153.865 -3357.09 1160.81
-151.007 -3358.49 1173.87
-152.902 -3357.15 1172.54
-189.509 -3351.96 1192.85
-191.283 -3349.81 1192.25
-153.629 -3357.81 1170.23
-155.483 -3356.42 1157.78
-155.975 -3354.96 1157.68
-154.351 -3354.95 1158.61
-154.291 -3354.86 1157.77
-154.821 -3355.02 1157.42
-153.997 -3355.31 1160.36
-153.082 -3356.06 1161.04
-155.137 -3356.43 1157.05
-153.987 -3356.25 1155.68
-185.841 -3354.28 1208.89
-186.472 -3354.32 1208.94
-186.329 -3353.86 1211.61
-186.665 -3353.46 1214.37
-189.447 -3351.88 1213.57
-189.659 -3351.62 1212.24
-189.257 -3352.37 1213.98
-191.948 -3351 1210.55
-191.624 -3350.95 1211.1
-190.874 -3351.09 1211.55
-192.792 -3350.45 1209.21
-192.89 -3350.41 1208.45
-186.979 -3354.42 1209.09
-187.669 -3354.49 1209.38
-188.955 -3354.44 1209.93
-187.582 -3356.51 1210.25
-190.028 -3356.55 1211.31
-188.977 -3356.2 1210.65
-186.191 -3354.75 1209.1
-190.455 -3354.98 1211.11
-184.557 -3354.28 1208.19
-192.989 -3350.01 1193.33
-189.944 -3352.2 1193.41
-191.192 -3351.1 1194.17
-190.019 -3352.54 1194.41
-190.649 -3351.92 1194.82
-190.332 -3351.68 1193.3
-195.358 -3348.84 1192.21
-196.837 -3347.92 1191.92
-188.302 -3353.83 1214.46
-190.237 -3352.71 1213.18
-188.627 -3354.93 1214.08
-192.659 -3351.14 1210.54
-192.996 -3350.58 1210.21
-198.835 -3347.42 1192.65
-198.198 -3347.26 1192.17
-197.281 -3348.16 1192.28
-196.922 -3349.52 1192.87
-196.786 -3348.89 1192.52
-195.46 -3349.62 1192.55
-194.545 -3349.81 1192.17
-194.24 -3350.23 1192.21
-193.771 -3350.39 1192.11
-193.064 -3349.88 1191.44
-200.5 -3347.95 1193.9
-200.905 -3347.6 1194.03
-206.325 -3346.99 1202.69
-208.716 -3345.26 1202.67
-204.659 -3347.92 1199
-208.968 -3344.82 1202.55
-207.427 -3346.4 1199.64
-207.45 -3346.22 1199.05
-208.684 -3344.57 1199.6
-208.413 -3344.48 1198.42
-208.164 -3344.5 1197.46
-207.279 -3346.29 1198.58
-205.78 -3345.34 1202.42
-204.884 -3345.48 1200.66
-202.443 -3346.39 1195.62
-202.259 -3346.65 1195.23
-201.9 -3346.81 1194.88
-200.79 -3346.74 1193.79
-201.646 -3347.25 1194.61
-113.874 -3357.14 1272.04
-112.167 -3357.11 1262.1
-115.009 -3357.11 1273.2
-230.799 -3069.52 1126
-112.182 -3357.48 1252.93
-112.842 -3357.52 1252.51
-134.486 -3353.04 1160.99
-134.779 -3353.04 1161.57
-136.075 -3352.09 1161.45
-135.998 -3352.43 1162.02
-135.204 -3353.36 1162.52
-135.6 -3353.39 1162.93
-133.736 -3354.51 1156.7
-135.293 -3354.29 1156.49
-133.483 -3354.09 1157.85
-134.419 -3353.02 1159.53
-135.681 -3352.08 1160.4
-136.148 -3351.81 1159.87
-135.555 -3352.21 1159.63
-136.388 -3352.65 1162.67
-139.132 -3353.07 1163.13
-141.35 -3355.07 1161.54
-139.505 -3352.87 1162.57
-140.4 -3353.86 1162.29
-140.297 -3353.53 1161.71
-137.162 -3355.27 1158.46
-136.926 -3355.48 1160.9
-137.723 -3354.32 1155.92
-138.316 -3354.29 1156.22
-136.443 -3354.32 1156.09
-137.209 -3354.16 1156
-139.052 -3355.45 1161.25
-141.083 -3355.09 1160.97
-152.793 -3356.71 1159.48
-152.263 -3356.95 1160.39
-154.274 -3355.77 1160.41
-153.375 -3357.01 1160.96
-154.295 -3355.84 1160.98
-150.879 -3358.45 1174.49
-152.97 -3357.98 1170.76
-153.86 -3355.23 1157.07
-153.04 -3356.76 1169.83
-153.213 -3356.37 1168.71
-185.878 -3354.22 1209.73
-186.056 -3354.14 1210.36
-186.604 -3353.52 1213.05
-186.475 -3353.68 1212.49
-189.8 -3352.28 1213.66
-190.134 -3351.82 1213.22
-190.918 -3351.78 1212.79
-190.438 -3351.23 1212.93
-192.825 -3350.71 1211.06
-193.257 -3350.63 1210.71
-192.064 -3351.14 1211.67
-191.673 -3351.61 1212.04
-190.901 -3351.09 1212.3
-187.106 -3355.29 1209.59
-186.452 -3356.31 1209.85
-189.239 -3357.25 1211.15
-188.705 -3357.3 1210.93
-187.884 -3357.3 1210.7
-189.897 -3357.47 1211.51
-186.453 -3355.41 1209.45
-191.259 -3353.25 1211.25
-192.649 -3350.62 1193.87
-189.285 -3352.18 1193.43
-190.944 -3351.71 1194.43
-192.777 -3351.59 1194
-193.177 -3351.61 1194.49
-191.836 -3351.04 1193.83
-193.256 -3350.37 1192.94
-193.141 -3349.93 1192.38
-193.85 -3349.12 1192.4
-194.813 -3349.14 1192.28
-189.849 -3354.83 1213.24
-189.651 -3357.11 1213.44
-188.975 -3357.24 1213.78
-188.823 -3356.13 1213.87
-191.372 -3350.89 1213.45
-191.8 -3351.88 1211.1
-191.364 -3352.57 1211.08
-194.164 -3349.67 1191.78
-193.401 -3349.53 1191.58
-203.059 -3348.67 1196.08
-207.411 -3346.55 1201.93
-208.883 -3344.52 1200.57
-206.874 -3346.97 1200.35
-206.968 -3346.75 1199.38
-206.587 -3345.49 1195.92
-207.926 -3344.54 1196.88
-206.154 -3346.29 1202.55
-206.042 -3345.79 1202.68
-205.506 -3345.47 1201.84
-204.89 -3346.27 1200.22
-204.477 -3346.68 1199.22
-202.712 -3346.31 1196.16
-202.731 -3347.12 1195.68
-202.69 -3347.93 1195.48
-202.962 -3348.31 1195.74
-114.467 -3357.06 1271.28
-113.571 -3357.52 1272.18
-112.791 -3357.43 1272.81
-116.142 -3357.22 1271.46
-115.637 -3357.12 1271.44
-113.019 -3356.73 1261.45
-111.14 -3357.32 1257.65
-111.262 -3357.09 1259.33
-111.496 -3356.97 1260.86
-114.722 -3357.15 1272.75
-110.778 -3357.37 1254.27
-110.527 -3357.65 1255.12
-111.758 -3357.45 1253.35
-112.434 -3357.33 1253.53
-135.95 -3351.96 1160.85
-136.522 -3352 1161.71
-134.856 -3354.02 1156.99
-134.219 -3354.02 1157.46
-135.939 -3353.99 1156.51
-134.659 -3353.21 1158.35
-137.034 -3352.61 1162.91
-138.068 -3352.6 1163.03
-138.568 -3352.83 1163.16
-139.658 -3352.78 1162.04
-139.247 -3352.31 1161.79
-139.44 -3352.68 1161.33
-136.798 -3355.34 1158.93
-138.8 -3354.44 1156.54
-136.662 -3353.03 1157.36
-137.307 -3353.11 1157.25
-138.413 -3355.51 1161.81
-139.663 -3355.45 1161.51
-135.14 -3356.06 1161.32
-135.687 -3355.93 1160.28
-134.793 -3356.16 1161.77
-153.455 -3356.75 1160.47
-154.635 -3355.46 1160.79
-155.009 -3355.01 1159.67
-154.539 -3355.38 1160.19
-155.106 -3355.01 1160.7
-150.618 -3357.95 1173.72
-191.364 -3349.8 1191.68
-152.905 -3358.09 1171.28
-153.816 -3355.23 1158.7
-153.628 -3355.84 1158.87
-152.633 -3356.52 1160.55
-153.434 -3355.49 1157.92
-154.49 -3354.91 1156.86
-153.416 -3355.65 1157.18
-154.018 -3355.47 1157.86
-153.678 -3355.65 1161.32
-154.062 -3355.39 1161
-152.621 -3356.68 1160.03
-185.336 -3354.55 1209.63
-186.109 -3354.1 1211.04
-186.354 -3353.84 1213.4
-186.779 -3353.33 1215.23
-187.206 -3353.79 1215.05
-187.819 -3353.98 1214.67
-191.509 -3351.26 1212.62
-191.06 -3351.12 1212.96
-192.103 -3351.54 1211.34
-190.896 -3352.89 1212.39
-191.309 -3351.9 1212.28
-190.539 -3354.6 1212.42
-192.495 -3351.04 1211.41
-185.374 -3355.99 1209.45
-185.738 -3356.45 1209.8
-186.939 -3356.42 1210.03
-189.058 -3357.85 1211.25
-188.332 -3357.72 1211
-190.325 -3357.85 1211.7
-185.672 -3355.04 1209.14
-190.81 -3354.34 1211.27
-190.529 -3355.46 1211.35
-192.487 -3351.19 1194.08
-191.664 -3351.26 1194.34
-193.071 -3350.73 1193.45
-194.048 -3349.64 1192.77
-193.633 -3349.87 1193.05
-188.12 -3355.04 1214.33
-188.032 -3355.66 1214.3
-190.589 -3353.15 1212.72
-188.275 -3356.94 1214.13
-187.999 -3356.25 1214.27
-187.539 -3355.94 1214.45
-191.306 -3352.8 1211.53
-208.064 -3346.11 1202.69
-205.044 -3347.72 1199.58
-205.743 -3347.38 1200.39
-205.011 -3348.32 1198.48
-205.701 -3346.05 1201.94
-205.558 -3346.69 1200.73
-204.706 -3347.17 1199.4
-204.519 -3347.42 1198.94
-203.653 -3346.6 1197.82
-203.592 -3348.39 1196.62
-114.679 -3357.13 1271.76
-113.997 -3357.49 1272.53
-113.026 -3357.36 1273.26
-110.431 -3357.76 1258.98
-111.631 -3357.17 1261.44
-112.147 -3357.04 1261.41
-112.686 -3357.43 1253
-136.696 -3352.29 1162.36
-135.612 -3353.08 1157.73
-136.112 -3353.01 1157.52
-135.124 -3353.2 1157.97
-138.731 -3352.4 1162.68
-152.075 -3358.44 1173.02
-140.948 -3354.42 1161.55
-139.074 -3352.38 1160.92
-138.978 -3352.13 1161.35
-140.034 -3353.54 1161.24
-138.604 -3355.17 1158.82
-139.161 -3355.18 1158.15
-136.125 -3355.73 1159.2
-138.191 -3353.87 1156.68
-137.086 -3352.08 1158.36
-137.748 -3352.93 1157.6
-137.442 -3352.01 1158.71
-138.935 -3354.53 1157.2
-138.55 -3354.07 1156.98
-135.969 -3352.25 1158.73
-140.599 -3354.53 1161.04
-140.66 -3355.35 1160.55
-140.244 -3355.46 1161.43
-139.074 -3355.48 1161.78
-137.095 -3355.6 1162.15
-135.396 -3356.03 1160.82
-135.681 -3355.93 1159.54
-132.942 -3357.42 1160.83
-134.945 -3356.3 1160.74
-155.134 -3354.91 1160.15
-152.85 -3356.97 1161.2
-151.375 -3358.3 1174.46
-150.867 -3357.54 1173.88
-151.257 -3357.49 1173.33
-153.135 -3355.95 1160.26
-153.515 -3356.24 1159.5
-155.299 -3354.8 1156.8
-154.275 -3354.94 1156.4
-153.314 -3355.86 1156.29
-152.718 -3357.15 1170.94
-152.978 -3356.64 1169.33
-153.561 -3356.29 1168.12
-154.328 -3356.38 1169.74
-154.854 -3357.04 1170.13
-154.952 -3356.56 1169.86
-185.05 -3354.86 1210.09
-185.355 -3354.49 1209.04
-184.178 -3355.3 1209.55
-184.73 -3354.93 1209.37
-184.188 -3355.41 1210.15
-185.526 -3354.44 1210.94
-185.448 -3354.47 1210.2
-185.215 -3354.74 1210.6
-186.134 -3354.07 1212.49
-185.886 -3354.22 1211.51
-186.34 -3353.85 1213.99
-191.972 -3350.9 1212.19
-191.327 -3352.3 1211.98
-191.096 -3353.1 1211.89
-190.707 -3353.86 1212.38
-190.042 -3356.14 1213
-192.349 -3350.73 1211.83
-184.495 -3355.96 1209.23
-185.083 -3356.38 1209.62
-186.63 -3357.12 1210.3
-185.737 -3356.97 1210.1
-185.203 -3355.25 1209.02
-184.481 -3355.46 1208.92
-190.935 -3353.85 1211.82
-184.891 -3354.42 1208.55
-183.668 -3355.46 1208.85
-184.439 -3354.69 1208.5
-193.142 -3351.18 1194.16
-194.272 -3350.19 1192.98
-186.93 -3355.76 1214.73
-190.058 -3357.36 1213.12
-189.851 -3357.89 1213.34
-187.332 -3356.65 1214.46
-186.813 -3356.3 1214.67
-187.869 -3357.49 1214.13
-204.106 -3348.24 1196.58
-203.382 -3347.99 1196.24
-208.4 -3345.74 1202.54
-204.125 -3348.17 1198.1
-204.318 -3347.74 1198.59
-209.239 -3344.38 1202.59
-209.213 -3343.96 1201.11
-206.376 -3347.19 1199.38
-206.544 -3347.16 1199.91
-208.568 -3345.46 1203.13
-208.555 -3344.07 1197.82
-205.326 -3346.9 1195.86
-205.558 -3346.4 1195.68
-206.588 -3346.88 1198.12
-206.109 -3346.86 1202.12
-202.999 -3347 1196.22
-110.767 -3357.52 1257.21
-111.157 -3357.3 1256.94
-112.386 -3356.73 1261.82
-111.05 -3357.19 1260.29
-112.481 -3356.95 1254.95
-111.582 -3357.21 1254.06
-136.587 -3351.76 1161.21
-136.317 -3351.7 1160.6
-136.776 -3351.57 1160.35
-136.798 -3351.7 1159.75
-137.672 -3352.2 1162.57
-138.237 -3352.27 1162.68
-138.758 -3352.05 1161.82
-138.733 -3352.37 1160.47
-138.469 -3352.9 1159.21
-135.663 -3355.92 1158.9
-137.937 -3352.13 1159.35
-139.133 -3355.05 1157.5
-137.979 -3352.8 1158.19
-136.36 -3351.85 1159.25
-136.645 -3351.97 1158.76
-140.102 -3354.6 1160.75
-138.215 -3355.54 1162.34
-137.662 -3355.57 1162.38
-133.15 -3357.53 1160.17
-134.75 -3356.48 1160.07
-135.249 -3356.17 1159.97
-133.074 -3357.06 1161.39
-129.497 -3359.78 1159.39
-155.448 -3354.77 1159.32
-153.692 -3356.51 1161
-154.789 -3355.4 1161.39
-155.805 -3354.78 1159.7
-151.491 -3358.38 1173.6
-191.923 -3349.46 1191.09
-153.742 -3355.38 1156.38
-154.955 -3355.54 1154.78
-153.863 -3356.39 1169.43
-183.627 -3355.68 1209.81
-185.636 -3354.38 1211.92
-185.268 -3354.8 1212.19
-186.015 -3354.16 1213.05
-185.703 -3354.35 1212.49
-187.602 -3354.89 1214.6
-186.472 -3353.71 1215.05
-190.456 -3356.22 1212.47
-184.462 -3356.9 1209.85
-183.955 -3356.38 1209.39
-184.851 -3357.24 1210.16
-189.58 -3358.16 1211.49
-188.831 -3358.36 1211.42
-187.869 -3358.14 1211.18
-189.806 -3358.57 1211.7
-186.592 -3357.72 1210.77
-184.909 -3354.89 1208.75
-190.596 -3356.66 1211.78
-190.726 -3358.2 1212.02
-190.416 -3358.05 1213.02
-186.234 -3356.51 1214.82
-185.96 -3355.91 1215.01
-204.434 -3347.29 1195.61
-206.525 -3347.23 1202.07
-207.257 -3345.74 1201.68
-208.963 -3343.64 1198.49
-205.673 -3347.62 1197.97
-208.79 -3343.59 1197.78
-206.493 -3346.46 1201.89
-205.743 -3346.55 1201.28
-206.788 -3346.43 1200.72
-203.317 -3346.92 1196.95
-115.018 -3357.14 1272.19
-113.716 -3357.17 1273.19
-112.96 -3356.71 1260.86
-110.247 -3357.85 1259.99
-110.402 -3357.84 1259.48
-110.361 -3357.78 1258.25
-114.531 -3357.04 1273.83
-112.995 -3357.09 1254.48
-110.859 -3357.37 1254.82
-137.073 -3351.76 1161.58
-137.21 -3352.11 1162.3
-137.748 -3351.94 1162.14
-138.51 -3352.03 1162.3
-138.337 -3352.28 1159.91
-138.458 -3353.58 1158.27
-136.664 -3355.42 1158.36
-134.288 -3356.76 1159.33
-134.749 -3356.38 1158.94
-137.061 -3351.69 1159.2
-138.455 -3353.82 1157.51
-138.796 -3354.81 1157.99
-139.944 -3354.06 1160.92
-140.085 -3355.1 1160.56
-138.949 -3355.53 1162.4
-137.865 -3355.57 1162.88
-137.289 -3355.59 1163
-132.815 -3357.84 1159.68
-130.07 -3359.1 1159.86
-154.627 -3355.75 1161.95
-151.692 -3357.38 1172.85
-154.762 -3354.87 1156.2
-153.56 -3355.55 1155.9
-154.051 -3355.17 1154.41
-154.01 -3357.56 1170.95
-184.617 -3355.2 1210.43
-184.242 -3355.48 1210.72
-183.674 -3355.77 1210.43
-184.815 -3355.24 1211.4
-185.168 -3354.84 1211.28
-185.34 -3354.76 1212.79
-185.862 -3354.28 1213.94
-185.959 -3354.22 1214.84
-186.287 -3353.9 1214.5
-186.384 -3355.64 1214.96
-186.147 -3355.22 1215.15
-187.045 -3354.31 1215.01
-186.671 -3354.89 1215.03
-192.379 -3350.58 1212.51
-191.929 -3350.81 1212.7
-190.705 -3355.06 1211.72
-190.4 -3357.27 1212.74
-183.944 -3356.97 1209.8
-184.178 -3357.4 1210.22
-186.749 -3358.11 1211.09
-185.239 -3357.66 1210.69
-190.79 -3357.69 1212.11
-183.321 -3355.75 1209.29
-193.446 -3351 1193.8
-193.792 -3350.47 1193.12
-185.495 -3355.79 1215.2
-189.262 -3357.98 1213.56
-188.762 -3357.86 1213.73
-187.968 -3358.08 1213.82
-186.566 -3357.06 1214.59
-185.675 -3356.59 1214.94
-187.268 -3357.61 1214.17
-203.505 -3347.2 1195.78
-203.145 -3347.69 1195.84
-207.85 -3345.25 1201.56
-206.844 -3346.97 1202.43
-209.025 -3344.02 1200.44
-207.413 -3345.83 1199.39
-206.912 -3346.67 1198.58
-209.023 -3343.98 1199.7
-205.893 -3347.57 1198.42
-207.733 -3344.43 1196.24
-207.228 -3344.89 1196.07
-206.468 -3346.36 1201.35
-208.886 -3344.65 1201.31
-207.514 -3345.91 1200.27
-115.529 -3357.17 1272.03
-111.018 -3357.21 1259.78
-110.562 -3357.7 1256.78
-111.58 -3357.05 1257.98
-111.501 -3357.13 1257.31
-112.549 -3356.74 1261.2
-113.724 -3357.03 1273.96
-115.333 -3357.17 1272.78
-113.056 -3357.32 1253.57
-112.276 -3357.08 1254.44
-110.233 -3357.95 1255.76
-137.207 -3351.62 1161.11
-137.506 -3351.69 1159.56
-152.371 -3358.27 1172.57
-137.952 -3351.89 1159.86
-138.442 -3351.88 1160.8
-138.218 -3351.78 1161.31
-139.292 -3353.39 1160.16
-138.635 -3354.03 1158.07
-132.747 -3357.8 1159.17
-132.22 -3358.09 1158.88
-130.734 -3358.94 1158.46
-130.065 -3359.48 1158.42
-136.71 -3355.62 1162.54
-139.387 -3353.91 1160.32
-139.359 -3354.67 1160.33
-130.358 -3358.74 1160.19
-130.799 -3359.28 1159.06
-128.165 -3362.2 1158.24
-152.431 -3356.41 1161.89
-153.105 -3356.02 1161.59
-154.004 -3355.05 1155.89
-154.44 -3355.17 1155.05
-153.868 -3355.53 1161.78
-154.816 -3355 1155.68
-152.553 -3356.77 1169.1
-153.419 -3357.84 1171.05
-153.467 -3356.69 1169.52
-183.77 -3355.87 1211.25
-184.355 -3355.59 1211.67
-184.81 -3355.37 1212.81
-184.93 -3355.17 1211.92
-185.446 -3354.68 1213.34
-185.485 -3354.7 1214.22
-185.602 -3354.64 1215.14
-192.167 -3350.48 1213.01
-192.645 -3350.3 1212.95
-183.43 -3357.48 1210.2
-190.019 -3358.96 1211.99
-187.512 -3358.6 1211.59
-185.524 -3358.07 1211.13
-184.706 -3357.85 1210.86
-188.13 -3358.71 1211.72
-190.553 -3358.78 1212.1
-183.481 -3356.26 1209.21
-194.083 -3350.78 1193.55
-187.308 -3358.25 1213.78
-186.295 -3358.01 1214.14
-191.911 -3350.17 1213.5
-203.459 -3346.87 1195.19
-203.877 -3347.98 1196.15
-203.672 -3347.68 1195.55
-203.925 -3347.21 1195.37
-205.344 -3347.96 1198.21
-208.444 -3344.47 1199.15
-208.754 -3345.14 1203.5
-208.946 -3344.88 1203.99
-206.343 -3345.24 1195.34
-208.68 -3343.59 1197.25
-208.077 -3344.81 1197.85
-205.711 -3345.9 1195.42
-206.954 -3345.89 1201.29
-207.565 -3345.52 1200.87
-204.038 -3347.31 1198.28
-203.738 -3347.19 1197.72
-203.684 -3347.61 1197.42
-116.042 -3357.19 1271.95
-111.723 -3356.98 1258.69
-115.029 -3357.19 1273.81
-113.547 -3357.43 1253.34
-113.614 -3357.31 1253.83
-137.677 -3351.66 1161.64
-137.509 -3351.54 1160.41
-138.587 -3353.6 1158.9
-129.19 -3360.51 1158.79
-128.709 -3360.87 1158.4
-128.385 -3361.16 1158.65
-128.568 -3360.38 1158.01
-128.224 -3360.8 1158.01
-138.685 -3354.05 1159.11
-131.156 -3357.79 1161.05
-128.21 -3361.67 1158.4
-128.232 -3360.78 1158.94
-153.441 -3356.62 1161.5
-152.651 -3356.34 1161.41
-151.675 -3357.79 1173.8
-152.765 -3357.25 1171.9
-153.815 -3355.16 1155.31
-154.294 -3356.19 1168.68
-154.404 -3357.35 1170.12
-154.554 -3357.25 1171.21
-153.688 -3357.72 1171.48
-183.16 -3355.66 1208.77
-183.12 -3355.97 1209.93
-184.473 -3355.74 1212.96
-184.527 -3355.61 1212.38
-184.974 -3355.22 1213.28
-186.366 -3354.41 1215.25
-185.24 -3355.03 1214.77
-185.111 -3355.1 1213.83
-184.759 -3355.51 1213.88
-185.061 -3356.07 1215.23
-185.303 -3354.5 1215.61
-185.227 -3353.97 1215.78
-190.701 -3358.02 1212.61
-183.26 -3356.87 1209.62
-189.618 -3359.29 1212.19
-189.31 -3358.96 1211.81
-190.821 -3358.49 1212.47
-190.391 -3359.88 1212.9
-186.995 -3358.56 1211.58
-184.73 -3358.11 1211.38
-184.031 -3357.95 1211.03
-187.651 -3358.94 1212.03
-183.579 -3357.8 1210.75
-186.742 -3358.25 1213.82
-186.172 -3357.42 1214.45
-185.51 -3357.57 1214.36
-203.911 -3346.87 1195.77
-204.821 -3346.88 1195.48
-205.031 -3346.3 1195.28
-204.876 -3347.76 1198.24
-206.282 -3347.23 1198.35
-209.844 -3343.62 1203.04
-209.703 -3344.34 1204.04
-206.866 -3344.99 1195.71
-207.269 -3345.83 1197.37
-208.193 -3344.94 1200.78
-209.504 -3343.6 1201.39
-209.222 -3344.06 1201.64
-209.343 -3343.66 1200.69
-204.204 -3347.46 1197.41
-204.969 -3346.7 1196.8
-204.529 -3347.07 1197.09
-203.452 -3347.39 1196.77
-203.57 -3347.46 1196.28
-112.724 -3356.69 1259.96
-111.225 -3357.14 1258.81
-114.117 -3356.99 1274.29
-113.533 -3357.17 1254.36
-111.89 -3357.04 1254.82
-110.251 -3357.96 1256.27
-152.525 -3358.11 1173.11
-138.772 -3354.58 1158.83
-137.729 -3355.2 1158.52
-134.412 -3356.3 1158.14
-134.141 -3356.62 1158.45
-138.463 -3355.07 1158.32
-138.818 -3354.78 1159.86
-137.792 -3355.59 1161.87
-136.701 -3355.61 1163.11
-127.626 -3361.49 1158.53
-154.069 -3355.69 1162.24
-151.695 -3358.3 1174.06
-151.829 -3357.9 1174.33
-151.754 -3357.41 1173.37
-152.281 -3357.27 1172.55
-152.289 -3357.35 1172.05
-183.314 -3356.08 1211.05
-182.88 -3356.23 1210.68
-182.648 -3356.2 1209.87
-183.802 -3356 1212.07
-183.902 -3356.16 1213.21
-183.846 -3356.08 1212.63
-184.48 -3355.8 1213.54
-185.236 -3355.32 1215.45
-184.952 -3355.38 1215.01
-184.987 -3355.29 1214.37
-184.278 -3355.04 1215.78
-182.953 -3357.3 1209.9
-191.12 -3360.32 1213.12
-188.639 -3358.81 1211.7
-185.606 -3358.38 1211.7
-183.026 -3357.74 1210.75
-181.895 -3357.45 1210.52
-182.424 -3357.42 1210.42
-191.256 -3359.09 1212.64
-190.468 -3358.6 1212.82
-182.605 -3355.77 1208.77
-182.707 -3356.05 1209.22
-185.092 -3357.02 1214.74
-189.625 -3358.56 1213.39
-188.738 -3358.53 1213.61
-185.8 -3357.98 1213.94
-203.907 -3346.44 1195.06
-202.88 -3346.92 1194.65
-206.502 -3347 1198.78
-209.546 -3343.85 1202.45
-209.206 -3344.52 1203.61
-209.543 -3344.01 1202.93
-209.857 -3343.97 1203.58
-208.136 -3345.97 1203.21
-208.452 -3345.58 1203.65
-209.057 -3344.71 1203.05
-208.596 -3343.4 1196.74
-208.18 -3344.01 1196.63
-206.526 -3346.81 1197.61
-205.549 -3345.56 1195.07
-208.376 -3344.54 1201.09
-205.984 -3346.7 1197.53
-205.028 -3346.27 1196.2
-205.597 -3346.19 1196.53
-206.129 -3346.09 1196.86
-205.305 -3345.88 1195.84
-204.492 -3346.63 1196.27
-204.092 -3346.96 1196.37
-204.278 -3346.52 1195.79
-204.325 -3346.28 1195.34
-110.772 -3357.47 1259.3
-111.563 -3357.09 1256.7
-111.145 -3357.32 1256.4
-111.725 -3357.26 1259.2
-112.862 -3356.84 1255.35
-112.327 -3357.01 1255.55
-152.038 -3358.32 1173.53
-130.998 -3358.32 1158.15
-129.396 -3359.56 1158.2
-131.866 -3357.08 1161.82
-130.68 -3358.18 1160.7
-138.532 -3355.39 1160.23
-138.289 -3355.48 1160.94
-137.454 -3355.67 1161.51
-136.187 -3355.62 1163
-129.133 -3359.09 1159.98
-128.413 -3360.04 1159.34
-127.726 -3360.98 1158.89
-153.618 -3356.35 1161.95
-152.9 -3356.58 1161.82
-151.845 -3357.35 1169.9
-152.698 -3356.74 1168.5
-153.276 -3356.36 1166.31
-154.836 -3356.08 1168.66
-155.133 -3355.97 1168.25
-154.752 -3356.03 1167.85
