-3278.54 91.1835 1988.99 
-3278.67 90.2794 1989.77 
-3278.91 90.2721 1990.01 
-3279.67 91.0828 1990.07 
-3279.44 90.2595 1990.46 
-3279.2 90.1577 1990.35 
-3278.21 88.0277 1999.39 
-3278.02 87.6584 2000.41 
-3277.51 89.1293 1996.69 
-3277.91 88.8083 1997.58 
-3278.29 88.5054 1998.45 
-3278.53 88.2394 1999.3 
-3276.33 91.2873 1991.33 
-3276.1 90.5763 1993.1 
-3276.97 91.4716 1990.48 
-3277.2 91.2086 1990.16 
-3277.41 91.0181 1989.69 
-3277.62 89.4355 1996.25 
-3277.03 89.6494 1995.26 
-3276.5 90.1174 1994.07 
-3274.78 85.0035 2001.75 
-3277.02 86.9516 2001.08 
-3277.61 87.2027 2001.46 
-3271.28 82.5957 2004.05 
-3272.09 83.4129 2003.37 
-3272.94 83.8664 2002.53 
-3287.58 101.519 1984.9 
-3290.27 102.145 1985.74 
-3291.37 102.571 1985.99 
-3291.77 101.174 1987.44 
-3291.76 101.427 1987.15 
-3292.17 102.124 1987 
-3292.18 102.687 1986.61 
-3284.83 94.9808 1989.73 
-3282.76 92.8061 1991.68 
-3280.45 91.6877 1990.27 
-3289.83 99.1545 1988.33 
-3291.91 100.96 1987.9 
-3285.45 103.431 1983.26 
-3271.91 83.2302 2004.39 
-3293.84 96.8763 2027.17 
-3293.33 96.553 2026.88 
-3292.9 96.4824 2027.03 
-3296.09 98.6112 2027.61 
-3298.34 102.837 2030.25 
-3296.92 98.8638 2027.26 
-3295.71 97.6023 2026.66 
-3294.49 97.1209 2027.13 
-3286.24 86.6883 2002.43 
-3286.01 86.0334 2002.57 
-3285.86 85.782 2002.85 
-3289.62 90.9597 2007.73 
-3290.08 91.8745 2010.57 
-3286.93 88.2733 2003.75 
-3290.08 92.4227 2012.29 
-3289.69 94.6511 2019.65 
-3289.41 94.7155 2020.4 
-3289.5 94.5519 2020.05 
-3289.35 94.775 2020.87 
-3290.66 94.6814 2019.27 
-3290.1 94.7259 2019.61 
-3290.07 94.6842 2019.68 
-3290.56 94.7967 2019.58 
-3291.09 94.6736 2019.09 
-3291.26 94.5707 2018.56 
-3292.42 95.9535 2016.82 
-3292.21 95.4462 2017.65 
-3291.88 94.8566 2018.43 
-3292.76 96.3131 2016.28 
-3292.31 96.0178 2015.99 
-3291.67 95.5101 2015.96 
-3291.14 94.7851 2015.72 
-3290.79 93.3334 2014.69 
-3289.24 94.8662 2021.71 
-3289.36 94.767 2021.36 
-3275.3 85.5706 2005.08 
-3278.36 87.1596 2004.71 
-3279.32 87.6332 2004.51 
-3280.58 87.9225 2005.66 
-3282.47 88.0266 2006.09 
-3284.33 87.7226 2004.7 
-3284.78 87.7531 2002.82 
-3284.29 87.8588 2003.21 
-3285.13 87.0448 2002.74 
-3285.71 85.5438 2003.05 
-3285.5 85.7413 2003 
-3285.28 86.3339 2002.6 
-3275.4 85.6001 2003.95 
-3272.96 84.1059 2003.99 
-3289.28 95.0931 2023.07 
-3289.47 95.3769 2023.66 
-3290.15 96.0824 2025.21 
-3289.16 94.95 2022.64 
-3291.25 96.0452 2025.92 
-3289.27 94.8487 2022.26 
-3292.42 96.0234 2026.45 
-3291.8 95.9074 2026.19 
-3278.16 90.369 1989.22 
-3278.4 90.4071 1989.39 
-3277.5 90.6929 1989.14 
-3277.77 90.5512 1988.83 
-3278.55 88.8105 1991.26 
-3278.81 88.4353 1991.8 
-3279.18 87.9444 1992.46 
-3279.72 87.2507 1993.39 
-3280.13 90.1086 1991.12 
-3279.91 89.2172 1991.71 
-3280.16 86.9127 1993.92 
-3280.55 86.7184 1994.31 
-3278.64 88.0095 2000.31 
-3278.7 87.6691 2001.82 
-3278.32 87.3164 2002.64 
-3278.08 89.0938 1997.2 
-3278.48 88.7732 1998.14 
-3278.84 88.4626 1999.15 
-3279.1 88.2683 2000.28 
-3276.66 91.4063 1991.23 
-3276.42 90.9935 1992.36 
-3276.79 91.2161 1990.74 
-3276.92 91.053 1990.37 
-3276.96 90.755 1989.88 
-3277.11 90.5333 1989.38 
-3277.61 89.705 1995.76 
-3278.25 89.3494 1996.83 
-3277.36 89.9033 1995.07 
-3276.94 90.098 1994.31 
-3276.72 90.9281 1992.74 
-3275.12 85.3302 2002.75 
-3277.58 86.9321 2002.96 
-3287.62 102.499 1984.49 
-3291.05 102.978 1985.67 
-3290.3 103.127 1985.34 
-3292.04 103.659 1986.05 
-3292.53 103.561 1986.48 
-3292.69 101.687 1988.04 
-3292.57 101.903 1987.59 
-3292.95 103.4 1986.93 
-3292.94 102.819 1987.26 
-3287.16 95.8362 1990.98 
-3286.11 93.3756 1993.85 
-3280.6 90.7854 1991.04 
-3281.6 91.9595 1991.83 
-3285.78 92.4047 1994.9 
-3291.14 100.116 1988.46 
-3288.76 96.9458 1991.13 
-3292.3 100.956 1988.6 
-3293.23 101.913 1988.75 
-3287.95 103.626 1984.28 
-3294.21 96.5774 2026.28 
-3293.65 96.3067 2026.13 
-3292.97 96.1016 2026.21 
-3298.07 99.6496 2026.95 
-3300.11 102.801 2027.6 
-3299.96 104.91 2031.05 
-3296.87 98.0337 2026.16 
-3301.23 106.953 2032.6 
-3296.11 97.2819 2025.67 
-3294.96 96.9344 2026.33 
-3286.07 85.8038 2002.07 
-3285.75 84.9912 2002.33 
-3285.66 84.8324 2002.82 
-3285.55 84.4078 2002.75 
-3285.61 84.7241 2003.13 
-3287.59 88.6969 2003.68 
-3289.84 91.0926 2007.23 
-3290.61 92.0994 2009.91 
-3290.78 92.7729 2012.53 
-3290.88 92.6257 2011.21 
-3289.64 94.3715 2019.86 
-3289.46 94.6293 2020.99 
-3289.5 94.5202 2020.59 
-3289.57 94.3132 2020.33 
-3291.12 94.8167 2019.5 
-3289.92 94.277 2019.87 
-3290.36 94.6211 2019.73 
-3290.81 94.8505 2019.62 
-3291.57 94.7787 2019.3 
-3293.24 96.6097 2016.47 
-3292.85 96.0684 2017.23 
-3292.53 95.3724 2018.23 
-3292.92 95.8733 2017.75 
-3292.02 94.784 2019.18 
-3292.45 95.0036 2018.88 
-3292.87 96.369 2015.75 
-3293.18 96.4852 2015.9 
-3292.38 96.1384 2015.48 
-3292.73 96.1992 2015.24 
-3291.86 95.6105 2015.32 
-3291.35 93.7884 2015.24 
-3289.39 94.7494 2021.89 
-3289.47 94.5918 2021.56 
-3279.67 87.9153 2002.81 
-3280.49 88.0503 2003.26 
-3283.26 87.8969 2004.79 
-3280.75 88.1887 2002.59 
-3283.68 87.9076 2003.37 
-3284.93 87.8107 2002.38 
-3284.27 88.1384 2002.52 
-3284.93 87.0071 2001.98 
-3285.62 85.0119 2003.23 
-3285.19 85.458 2002.83 
-3284.7 86.0065 2002.28 
-3290.56 94.5283 2024.09 
-3290.33 94.2564 2023.53 
-3290.6 95.2775 2024.55 
-3291.31 94.9946 2025.09 
-3290.06 94.2561 2023.04 
-3291.65 94.9595 2025.31 
-3290.04 94.1992 2022.63 
-3292 95.1829 2025.5 
-3292.56 95.5877 2025.71 
-3302.06 112.108 1998.81 
-3302.43 110.834 2001 
-3302.98 112.774 1998.95 
-3301.23 109.782 2001.15 
-3301.52 112.12 1998.02 
-3301.11 110.537 1999.51 
-3296.99 106.708 1990.61 
-3299.44 111.025 1992.18 
-3296.61 106.906 1989.89 
-3296.14 108.956 1988.02 
-3294.87 104.89 1988.19 
-3295.32 104.945 1988.88 
-3295.4 107.694 1987.74 
-3293.93 104.407 1987.2 
-3293.85 103.785 1987.45 
-3294.69 107.079 1987.26 
-3278.32 89.0616 1990.83 
-3278.09 89.166 1990.57 
-3277.96 89.9849 1989.51 
-3277.09 90.2992 1988.87 
-3277.58 90.3276 1988.88 
-3278.85 86.3994 1994.31 
-3279.52 85.5378 1995.34 
-3279.96 85.3763 1995.57 
-3280.66 84.5154 1996.6 
-3281.31 84.102 1997.11 
-3280.37 88.9061 1992.54 
-3280.94 89.7564 1992.44 
-3280.94 86.847 1994.44 
-3281.9 83.9917 1997.41 
-3282.02 84.6448 1996.76 
-3278.67 89.0277 1997.78 
-3279.06 88.7094 1998.84 
-3279.37 88.5417 1999.88 
-3276.49 90.9521 1991.13 
-3276.86 91.3328 1991.56 
-3276.43 90.7756 1990.55 
-3276.64 90.7032 1990.18 
-3276.55 90.347 1989.77 
-3276.75 90.2669 1989.42 
-3277.85 89.9892 1995.44 
-3278.13 89.6872 1996.22 
-3278.99 89.2002 1997.66 
-3278.71 89.4765 1996.76 
-3277.8 90.1801 1994.77 
-3277.38 90.2084 1994.39 
-3277.15 90.9416 1992.91 
-3277.18 91.3056 1991.79 
-3291.26 103.292 1985.72 
-3291.65 103.853 1985.76 
-3290.82 103.808 1985.42 
-3292.42 104.582 1986.08 
-3292.96 104.551 1986.48 
-3293.32 104.345 1986.81 
-3294.3 107.144 1986.84 
-3293.5 102.532 1988.36 
-3293.38 102.825 1987.84 
-3294.24 103.699 1988.14 
-3288.52 94.4354 1994.84 
-3288.19 93.4267 1995.86 
-3283.18 91.4435 1993.62 
-3287.28 92.0844 1996.56 
-3290.42 98.2424 1991.07 
-3293.28 101.651 1989.53 
-3291.61 99.4461 1990.94 
-3294.06 102.767 1989.07 
-3294.22 102.504 1990.11 
-3288.99 105.013 1984.4 
-3290.89 105.836 1985.07 
-3288.76 106.99 1983.88 
-3293.81 106.74 1986.48 
-3293.04 106.506 1986.02 
-3292.34 108.313 1985.3 
-3293.52 109.455 1985.69 
-3293.95 96.0017 2025.29 
-3294.59 96.3518 2025.53 
-3293.25 95.802 2025.48 
-3301.42 104.542 2028.05 
-3300.49 101.713 2025.83 
-3298.16 98.7825 2025.61 
-3297.27 97.6713 2025.06 
-3302.67 106.432 2029.04 
-3296.5 97.0199 2024.8 
-3295.29 96.6643 2025.51 
-3286.01 85.564 2001.81 
-3285.5 84.1272 2002.19 
-3285.55 84.3494 2002.35 
-3285.46 83.9869 2002.73 
-3285.45 83.9913 2003.16 
-3285.48 84.2161 2003.26 
-3285.43 83.8395 2003 
-3285.52 84.4627 2003.37 
-3288.22 89.176 2003.54 
-3290.62 91.7677 2007.35 
-3291.11 92.3067 2009.41 
-3291.46 92.9003 2011.2 
-3291.24 92.8932 2012.45 
-3289.64 94.0813 2020.15 
-3289.53 94.4011 2021.28 
-3289.56 94.3053 2020.89 
-3289.62 94.1107 2020.71 
-3291.28 94.9218 2019.56 
-3289.82 93.8812 2020.08 
-3290.28 94.2641 2019.9 
-3290.74 94.5791 2019.77 
-3291.83 94.9048 2019.45 
-3293.65 96.7656 2015.97 
-3293.78 96.937 2016.6 
-3293.28 96.4918 2017.05 
-3292.9 95.6142 2018.31 
-3293.21 96.1916 2017.62 
-3292.38 94.9254 2019.36 
-3292.71 95.1539 2019.01 
-3293.05 96.3154 2015.38 
-3293.54 96.5819 2015.41 
-3292.54 96.0349 2015.02 
-3292.3 95.7753 2014.98 
-3292.88 96.0498 2014.9 
-3292.6 95.4417 2014.68 
-3291.82 93.4481 2014.38 
-3290.15 94.0143 2022.27 
-3290.16 93.8737 2021.92 
-3280.63 88.3697 2001.68 
-3281.48 88.315 2002.02 
-3283.48 88.1811 2002.72 
-3284.62 88.2785 2002.04 
-3284.8 87.7644 2001.58 
-3283.88 88.4209 2002.12 
-3283.75 87.046 2001.22 
-3284.21 86.4779 2001.78 
-3285.49 84.7142 2003.42 
-3285.07 85.1393 2003.03 
-3284.57 85.761 2002.42 
-3291.27 94.0607 2024.35 
-3291.2 93.5485 2023.61 
-3291.25 93.4028 2023.22 
-3291.57 94.2338 2024.43 
-3291.33 93.2123 2022.91 
-3292.08 94.6777 2024.81 
-3292.66 95.1174 2025.13 
-3297.35 106.617 1991.39 
-3299.55 110.294 1993.27 
-3300.39 106.805 2005.01 
-3300 107.257 2003.16 
-3300.71 109.689 1999.55 
-3299.5 105.407 2006.04 
-3301.37 107.035 2005.8 
-3304.33 111.601 2001.98 
-3300.49 109.881 1997.79 
-3300.77 110.648 1998.1 
-3299.85 108.099 2000.92 
-3298.86 104.98 2005.6 
-3299.31 108.504 1995.15 
-3299.72 109.924 1994.49 
-3297.68 106.488 1992.25 
-3296.09 104.903 1990.31 
-3295.66 104.833 1989.63 
-3294.58 103.581 1988.9 
-3278.2 87.2722 1993.36 
-3277.82 89.1531 1990.44 
-3277.85 88.477 1991.77 
-3276.72 90.0781 1988.9 
-3277.31 89.5951 1989.6 
-3277.56 89.3517 1990.08 
-3279.06 85.1538 1995.75 
-3279.33 83.9909 1997.13 
-3280.48 83.1765 1997.9 
-3281.4 82.841 1998.3 
-3282.01 83.0182 1998.46 
-3281.43 86.8298 1994.76 
-3280.89 88.7572 1993.37 
-3281.37 89.0625 1993.67 
-3283.43 91.0532 1994.34 
-3282.58 84.8004 1996.95 
-3282.59 83.0502 1998.75 
-3282.66 83.8541 1997.96 
-3279.31 88.9184 1998.67 
-3279.68 88.7584 1999.74 
-3276.57 90.6556 1991.7 
-3276.19 90.2817 1991.27 
-3276.22 90.4555 1990.8 
-3276.02 90.1405 1990.34 
-3276.28 90.3891 1990.15 
-3276.17 90.0416 1989.78 
-3276.37 89.9336 1989.38 
-3278.4 89.9021 1995.96 
-3278.27 90.2383 1995.25 
-3279.53 89.1436 1998.41 
-3279.27 89.4122 1997.31 
-3278.98 89.7094 1996.43 
-3277.54 90.76 1993.5 
-3277.97 90.609 1994.08 
-3278.27 90.5153 1994.66 
-3277.68 91.1962 1992.26 
-3277.4 91.2113 1991.99 
-3291.73 104.579 1985.63 
-3290.06 96.409 1994.13 
-3289.49 93.2358 1997.48 
-3288.76 92.5685 1997.48 
-3287.22 91.0239 1997.7 
-3286.58 91.1065 1997.09 
-3292.32 99.9234 1991.54 
-3293.26 100.619 1992.12 
-3295.05 103.602 1989.93 
-3294.08 101.308 1992.85 
-3295.25 103.441 1990.97 
-3292.07 106.145 1985.58 
-3293.39 95.3947 2024.93 
-3294.38 95.8549 2024.7 
-3293.7 95.2741 2024.4 
-3294.97 96.0477 2024.61 
-3302.82 104.859 2026.18 
-3299.36 99.5682 2024.59 
-3301.88 102.8 2024.79 
-3298.14 97.9561 2024.25 
-3297.36 97.1376 2024.07 
-3304.31 109.118 2029.57 
-3305.44 108.128 2025.59 
-3296.48 96.498 2023.94 
-3295.68 96.4686 2024.76 
-3285.89 85.1653 2001.63 
-3285.42 83.7358 2002.19 
-3285.36 83.5175 2002.52 
-3285.42 83.76 2002.6 
-3285.34 83.4485 2002.92 
-3285.31 83.3416 2003.15 
-3285.34 83.5243 2003.22 
-3285.28 83.3607 2003.35 
-3285.34 83.6778 2003.4 
-3285.38 83.9363 2003.48 
-3285.41 84.1473 2003.58 
-3287.44 88.361 2002.47 
-3291.12 92.0275 2004.7 
-3291.79 92.693 2006.1 
-3291.73 92.764 2008.3 
-3291.73 92.7941 2009.66 
-3291.99 93.0875 2010.87 
-3292.05 93.6446 2013.51 
-3289.69 93.8894 2020.53 
-3290.24 93.6981 2021.54 
-3290.21 93.573 2021.18 
-3291.57 94.9859 2019.58 
-3291.13 94.6781 2019.74 
-3290.23 93.9398 2020.05 
-3290.41 93.2967 2020.48 
-3290.27 93.4017 2020.76 
-3290.69 94.2085 2019.94 
-3292.13 95.0161 2019.48 
-3294.17 97.0773 2016.12 
-3294.05 96.9079 2015.51 
-3293.69 96.7869 2017.11 
-3294.22 97.1985 2016.75 
-3293.02 95.6001 2018.61 
-3293.26 96.0725 2018.02 
-3293.67 96.6345 2017.49 
-3292.61 95.1516 2019.34 
-3292.81 95.3109 2019.06 
-3293.33 96.3832 2014.77 
-3294.4 97.2249 2014.41 
-3294.09 96.8746 2014.29 
-3293.05 95.9204 2014.06 
-3292.75 94.4891 2012.34 
-3292.41 93.9427 2012.98 
-3291.38 93.0624 2022.59 
-3291.38 93.0803 2022.23 
-3281.05 88.5761 2001.05 
-3281.85 88.7671 2000.88 
-3281.13 88.7376 2000.64 
-3284.16 88.5601 2001.68 
-3284.61 88.4263 2001.25 
-3283.37 87.7285 2000.57 
-3282.13 88.8955 2000.62 
-3284.05 86.2469 2001.91 
-3283.45 86.971 2001.19 
-3285.4 84.4173 2003.62 
-3285.01 84.7351 2003.32 
-3284.57 85.3809 2002.71 
-3291.58 93.6835 2023.76 
-3291.59 93.1882 2023.42 
-3291.58 92.9109 2023.11 
-3292.16 94.2139 2024.18 
-3292.77 94.713 2024.54 
-3305.61 112.942 2000.9 
-3305.54 114.118 1999.33 
-3308.14 114.705 2003.62 
-3308.51 114.169 2004.58 
-3306.6 109.853 2007.58 
-3302.99 107.85 2006.23 
-3296.52 105.061 1991.13 
-3299.78 104.819 2007.7 
-3298.58 103.747 2007.4 
-3298.63 103.23 2008.88 
-3300.95 105.438 2007.6 
-3298.98 107.524 1996.16 
-3299.11 107.099 2000.81 
-3298.22 104.075 2005.84 
-3297.66 102.71 2007.84 
-3297.25 105.444 1992.98 
-3277.73 87.7359 1992.9 
-3278.51 85.9206 1994.83 
-3277.56 88.4837 1991.76 
-3276.39 89.9226 1988.79 
-3277.09 89.6369 1989.33 
-3277.14 88.4605 1991.63 
-3277.33 88.3155 1992.06 
-3278.74 82.8634 1998.37 
-3278.56 84.8804 1996.07 
-3278.17 83.6129 1997.55 
-3280.13 82.149 1999.05 
-3281.22 81.8543 1999.22 
-3281.88 82.0612 1999.23 
-3282.38 82.1663 1999.47 
-3281.89 87.059 1994.89 
-3282.69 85.4777 1996.51 
-3283.53 90.7489 1994.99 
-3283.33 90.132 1995.22 
-3282.55 87.5166 1995.25 
-3283.27 85.1724 1997.16 
-3283.21 84.2657 1997.92 
-3283.08 83.237 1998.93 
-3282.79 82.2936 1999.75 
-3279.89 88.9499 1999.42 
-3276.27 90.1236 1991.79 
-3276.69 90.2473 1992.22 
-3275.95 89.7552 1991.37 
-3275.95 89.8945 1990.84 
-3275.82 89.762 1989.88 
-3275.75 89.5755 1990.39 
-3275.99 89.6522 1989.4 
-3278.69 90.1125 1995.64 
-3278.56 90.3145 1995.16 
-3278.59 90.4718 1994.8 
-3279.77 89.3626 1998.08 
-3280.05 89.1337 1999.02 
-3279.55 89.6278 1996.95 
-3279.27 89.94 1996.11 
-3278.01 90.2524 1993.94 
-3278.13 90.8578 1993.27 
-3277.99 91.1583 1992.79 
-3278.52 90.6629 1994.34 
-3278.21 91.5162 1991.88 
-3277.92 91.033 1992.89 
-3277.32 90.4529 1992.83 
-3276.83 90.0272 1992.59 
-3290.23 93.8732 1997.61 
-3287.69 90.3954 1998.93 
-3287.48 90.6557 1998.49 
-3286.6 90.2853 1997.73 
-3286.84 89.9668 1998.27 
-3286.05 90.4864 1997.21 
-3291.95 96.6016 1996.49 
-3294.57 101.59 1993.77 
-3293.14 97.3814 1997.49 
-3296.03 104.092 1991.78 
-3293.22 94.7716 2024.45 
-3294.59 95.4761 2024.08 
-3294.18 94.8249 2024.2 
-3293.31 94.3839 2023.98 
-3295.49 96.0031 2024.1 
-3295.21 95.4747 2023.56 
-3305.18 106.232 2023.29 
-3301.13 101.122 2023.53 
-3299.29 98.7738 2023.46 
-3304.76 104.928 2021.66 
-3298.48 97.6576 2023.39 
-3297.43 96.7713 2023.4 
-3308.04 109.957 2023.95 
-3306.77 111.12 2027.7 
-3307.92 108.506 2022.2 
-3296.04 95.9326 2023.43 
-3285.97 85.3011 2001.34 
-3285.46 83.9368 2001.89 
-3285.16 82.8672 2002.45 
-3284.97 82.444 2002.84 
-3284.78 82.0219 2003.18 
-3285.28 83.1681 2002.89 
-3285.21 82.9048 2003.19 
-3285.22 83.0399 2003.3 
-3285.1 82.7353 2003.5 
-3285.2 83.1257 2003.53 
-3285.24 83.3856 2003.61 
-3285.27 83.5844 2003.72 
-3285.36 83.9628 2003.77 
-3288 88.9881 2002.44 
-3292.34 93.1181 2004.28 
-3292.74 93.5229 2006.46 
-3292.55 93.581 2008.73 
-3292.26 93.2282 2009.84 
-3291.45 93.037 2022.07 
-3291.47 92.9871 2021.76 
-3291.42 92.9453 2021.39 
-3291.77 94.9542 2019.63 
-3291.36 94.5651 2019.8 
-3290.91 94.0761 2019.95 
-3290.81 93.3249 2020.34 
-3291.94 93.0236 2021.02 
-3291.69 92.9281 2021.3 
-3292.24 95.1044 2019.55 
-3294.79 97.4591 2016.43 
-3294.81 97.6491 2015.31 
-3294.89 98.175 2014.14 
-3294.3 97.216 2017.14 
-3293.19 95.8162 2018.57 
-3293.57 96.3692 2017.95 
-3294.31 97.0675 2017.56 
-3292.91 95.2879 2019.61 
-3293.48 95.6536 2019.46 
-3294.01 96.9271 2013.3 
-3293.35 96.459 2013.31 
-3295.34 99.3137 2012.22 
-3294.6 98.0335 2012.8 
-3293.15 95.0884 2011.58 
-3291.56 92.9408 2022.71 
-3291.63 92.947 2022.51 
-3280.38 89.1729 1999.07 
-3282.37 89.0005 2000.26 
-3283.55 88.9983 2000.22 
-3283.2 88.5491 1999.92 
-3282.92 87.745 2000.46 
-3280.71 89.2675 1998.95 
-3284.25 85.4627 2002.55 
-3283.81 86.2047 2001.87 
-3283.11 86.4242 2001.34 
-3282.8 86.9649 2000.85 
-3285.25 84.0933 2003.83 
-3284.7 84.6602 2003.28 
-3292.17 93.6205 2023.68 
-3291.9 92.9699 2023.25 
-3292.68 93.8457 2023.72 
-3306.58 116.399 1998.25 
-3306.58 114.41 1999.7 
-3306.64 115.127 1998.95 
-3306.07 115.353 1998.4 
-3308.1 115.125 2003 
-3306.67 113.678 2000.78 
-3310.16 116.279 2005.34 
-3310.23 117.009 2004.68 
-3307.94 111.164 2007.19 
-3308.61 113.704 2005.19 
-3309.6 115.185 2005.57 
-3308.33 109.104 2010.36 
-3305.31 108.485 2007.91 
-3307.14 107.97 2010.5 
-3303.83 106.815 2008.75 
-3299.37 103.109 2010.92 
-3298.18 102.087 2011.32 
-3297.11 101.668 2010.05 
-3296.69 100.663 2011.92 
-3296 99.0406 2014.59 
-3301.09 104.773 2009.11 
-3298.01 105.174 1998.5 
-3296.71 103.658 1995.59 
-3297.86 103.519 2005.11 
-3296.66 101.485 2008.57 
-3295.71 102.605 1994.63 
-3277.96 86.5722 1994.2 
-3278.21 85.1275 1995.71 
-3276.28 89.195 1989.81 
-3276.52 89.5019 1989.26 
-3276.8 89.8934 1988.64 
-3276.97 88.6313 1991.1 
-3276.86 88.2368 1992.08 
-3277.02 87.9276 1992.75 
-3277.45 87.1605 1993.63 
-3278.26 81.6477 1999.76 
-3279.64 81.3956 1999.97 
-3277.72 83.8756 1997.25 
-3280.72 81.1418 2000.06 
-3281.77 81.1579 2000.01 
-3282.15 81.2894 2000.24 
-3282.51 81.4656 2000.43 
-3283.09 85.907 1996.51 
-3283.63 88.5776 1995.97 
-3284.7 88.4843 1996.83 
-3283.51 86.3877 1996.52 
-3283.77 84.6868 1997.9 
-3283.98 85.5036 1997.43 
-3283.6 85.8144 1997.03 
-3283.53 83.6805 1998.79 
-3283.19 82.57 1999.84 
-3282.85 81.5266 2000.73 
-3276.03 89.6323 1991.9 
-3276.29 89.5686 1992.31 
-3275.72 89.2439 1991.5 
-3275.72 89.3663 1990.94 
-3276.09 89.0065 1990.29 
-3275.97 88.8834 1990.67 
-3275.83 88.7461 1991.06 
-3279.01 90.217 1995.49 
-3278.81 90.3957 1995.02 
-3278.84 90.657 1994.42 
-3280.03 89.5646 1997.64 
-3280.18 89.3378 1998.48 
-3279.88 89.8497 1996.66 
-3279.65 90.086 1995.93 
-3276.87 88.1891 1994.34 
-3275.51 86.3296 1994.28 
-3275.72 87.0891 1993.87 
-3278.53 90.5652 1993.95 
-3278.52 91.4967 1992.1 
-3277.33 89.9824 1993.28 
-3276.33 88.7488 1993.11 
-3275.94 88.458 1992.85 
-3289.48 91.6523 1999.52 
-3287.33 89.6477 1999.24 
-3287.1 89.5191 1999.15 
-3286.93 89.5994 1998.83 
-3285.49 88.073 1997.75 
-3285.17 88.3203 1997.32 
-3285.69 87.7813 1998.17 
-3291.71 94.0399 1999.67 
-3293.77 97.6704 1998.46 
-3292.69 94.9261 2000.3 
-3294.56 95.0031 2023.59 
-3293.45 94.1925 2023.55 
-3293.98 94.5145 2023.52 
-3292.78 93.6883 2023.34 
-3295.7 95.6986 2022.95 
-3294.8 95.1329 2023.08 
-3308.25 107.534 2019.99 
-3300.32 99.5168 2022.64 
-3302.61 102.587 2021.76 
-3305.46 105.127 2020.17 
-3308.59 107.61 2019.14 
-3299.73 98.6563 2022.5 
-3298.52 97.2142 2022.81 
-3297.08 96.3481 2022.95 
-3309.88 111.365 2022.23 
-3309.04 112.501 2024.44 
-3310.08 110.578 2020.97 
-3309 109.352 2021.12 
-3285.92 85.1278 2001.09 
-3285.5 84.0905 2001.57 
-3285.23 83.1034 2002.12 
-3283.96 80.5886 2003.59 
-3284.31 81.2573 2003.15 
-3283.67 79.9356 2004.06 
-3284.61 81.6226 2003.5 
-3283.65 79.7825 2004.31 
-3284.46 81.3071 2003.74 
-3285.07 82.5608 2003.39 
-3284.89 82.3625 2003.77 
-3284.61 81.7202 2003.9 
-3284.77 81.9888 2003.68 
-3285 82.6706 2003.81 
-3285.09 82.9907 2003.85 
-3285.16 83.2996 2003.93 
-3285.21 83.5437 2004.02 
-3289.86 90.9437 2003.03 
-3286.82 87.5289 2001.3 
-3292.1 93.0463 2003.32 
-3292.89 93.6439 2004.65 
-3293.36 94.1808 2005.97 
-3293.2 94.1827 2007.97 
-3293.47 95.3675 2010.63 
-3291.62 92.9861 2022.11 
-3291.64 92.9538 2021.72 
-3291.82 94.6319 2019.68 
-3291.26 94.0587 2019.74 
-3291.02 93.2463 2020.11 
-3291.32 93.2147 2019.89 
-3292.4 93.2476 2021.01 
-3292.33 93.2494 2020.69 
-3292.25 93.2129 2021.46 
-3292.12 93.1898 2021.82 
-3292.71 94.5624 2019.76 
-3294.9 97.5822 2017.07 
-3294.21 96.1314 2019.3 
-3295.07 96.7313 2019 
-3296.21 97.6498 2018.37 
-3293.43 94.7195 2020.65 
-3293.39 94.3492 2020.63 
-3293.7 94.881 2020.85 
-3294.37 95.5176 2020.5 
-3294.16 97.6911 2012.11 
-3293.62 96.8195 2012.14 
-3295.3 99.631 2010.32 
-3292.15 93.1978 2023.1 
-3292.15 93.276 2022.71 
-3280.55 89.3885 1998.47 
-3281.38 89.2328 1999.3 
-3282.8 89.1472 1999.31 
-3282.17 87.9671 1999.88 
-3281.72 88.2032 1999.42 
-3282.42 87.4213 2000.35 
-3280.9 89.4279 1998.51 
-3283.79 84.2138 2003.01 
-3283.37 84.3826 2002.61 
-3283.43 85.9151 2001.85 
-3282.01 83.7787 2001.83 
-3282.16 85.4399 2001.03 
-3281.62 85.5696 2000.53 
-3285.09 83.903 2003.95 
-3284.17 83.9338 2003.44 
-3307.25 116.335 1998.79 
-3307.08 116.836 1998.58 
-3307.3 114.277 2000.19 
-3307.33 114.94 1999.45 
-3307.35 115.569 1998.81 
-3307.26 113.918 2000.67 
-3307.12 114.207 2001.08 
-3308.08 115.298 2002.65 
-3310.3 117.384 2004.33 
-3310.34 114.905 2006.82 
-3310.82 115.408 2006.88 
-3310.65 117.042 2005.2 
-3310.65 117.409 2004.79 
-3309.43 113.176 2007.03 
-3310.37 112.273 2008.76 
-3310.87 112.352 2009.4 
-3309.5 109.566 2011.26 
-3307.62 107.755 2011.34 
-3308.63 108.078 2012.06 
-3303.76 105.989 2010.15 
-3306.62 106.736 2011.84 
-3300.74 103.034 2013.49 
-3298.69 100.33 2016.29 
-3296.09 98.552 2016.35 
-3303.58 105.282 2011.49 
-3297.27 102.827 2001.74 
-3294.99 98.6914 2000.07 
-3295.2 98.2923 2001.82 
-3294.35 98.0111 1999.36 
-3296.84 101.712 2006.48 
-3277.88 86.0213 1994.73 
-3277.28 84.0537 1997.05 
-3277.88 85.123 1995.68 
-3276.71 88.4594 1991.52 
-3276.77 87.7722 1993.04 
-3276.61 88.0948 1992.44 
-3277.24 86.8899 1993.91 
-3279.99 80.9121 2000.52 
-3278.84 80.9538 2000.62 
-3276.6 82.3446 1998.92 
-3280.97 80.7358 2000.62 
-3281.49 80.837 2000.35 
-3282.04 80.717 2000.72 
-3282.41 80.9141 2000.91 
-3282.76 80.9533 2001.23 
-3284.02 86.3067 1997.04 
-3283.9 83.9778 1998.76 
-3284.23 84.9732 1998.05 
-3284.35 86.0456 1997.48 
-3283.67 82.9014 1999.84 
-3283.21 81.8504 2000.73 
-3283.1 81.2229 2001.33 
-3275.74 89.0732 1992.01 
-3275.68 88.3894 1992.57 
-3275.57 88.474 1991.9 
-3275.69 88.6074 1991.49 
-3276.46 88.2937 1991.97 
-3276.23 88.2126 1992.21 
-3276 88.1184 1992.45 
-3279.3 90.2889 1995.39 
-3279.06 90.5207 1994.79 
-3278.85 90.6109 1993.96 
-3279.15 90.7145 1994.36 
-3280.48 89.4981 1998 
-3280.32 89.7078 1997.19 
-3280.15 89.9905 1996.32 
-3279.76 90.2578 1995.58 
-3277.68 88.9444 1994.36 
-3276.29 87.0241 1994.7 
-3275.49 85.7641 1994.71 
-3275.65 86.1457 1994.39 
-3275.58 86.5464 1993.98 
-3275.4 86.8463 1993.61 
-3275.56 87.2022 1993.34 
-3275.58 87.5427 1993.01 
-3289.6 91.3244 2000.2 
-3287.52 89.4742 1999.63 
-3286.18 86.9828 1999.28 
-3286.11 87.1734 1999.06 
-3285.99 87.307 1998.83 
-3285.8 87.4146 1998.5 
-3284.62 85.8419 1997.85 
-3284.92 85.7545 1998.2 
-3292.1 93.9113 2000.75 
-3292.87 94.8857 2001.12 
-3294.15 94.7234 2023.08 
-3292.78 93.7175 2022.92 
-3293.46 94.1316 2023.11 
-3293.67 94.3529 2022.91 
-3294.93 95.2532 2022.74 
-3295.52 95.7197 2022.41 
-3296.95 96.3189 2022.42 
-3294.25 94.832 2022.65 
-3309.41 108.983 2019.5 
-3302.65 102.205 2021.37 
-3305.89 105.367 2019.29 
-3308.2 106.919 2018.63 
-3309.12 108.058 2018.62 
-3299.79 98.7387 2022.12 
-3302.43 101.706 2021.11 
-3298.11 96.8018 2022.44 
-3299.3 98.1912 2021.87 
-3307.84 116.536 2030.47 
-3309.59 115.598 2025.44 
-3310.8 112.368 2021.18 
-3310.97 111.313 2020.22 
-3310.12 109.892 2019.68 
-3310.81 110.448 2019.36 
-3285.42 83.7146 2001.43 
-3285.3 83.3589 2001.76 
-3284.58 81.7155 2002.75 
-3283.61 79.9586 2003.8 
-3283.51 79.7194 2004 
-3283.86 80.5276 2003.38 
-3283.5 79.5583 2004.28 
-3283.58 79.5293 2004.62 
-3283.47 79.3985 2004.53 
-3284.29 80.9763 2003.97 
-3283.61 79.5215 2004.76 
-3284.42 81.4041 2004.17 
-3284.45 81.5091 2004.3 
-3284.14 80.6596 2004.27 
-3284.04 80.4204 2004.69 
-3284.63 81.9679 2004.2 
-3284.83 82.478 2004.15 
-3284.88 82.6867 2004.28 
-3285.05 83.1597 2004.31 
-3284.93 82.8456 2004.29 
-3290.04 91.2541 2002.19 
-3287.17 88.0736 2001.26 
-3292.1 93.3642 2002.4 
-3292.71 93.6869 2003.52 
-3293.3 94.2759 2004.58 
-3293.85 94.9828 2005.72 
-3293.75 94.7313 2007.02 
-3293.8 95.6832 2009.78 
-3292.13 93.267 2022.26 
-3291.41 93.7472 2019.42 
-3291.87 94.0616 2019.31 
-3291.51 93.1285 2019.64 
-3292.58 93.4118 2020.55 
-3292.58 93.4345 2020.29 
-3292.81 93.5082 2021.54 
-3293.08 93.618 2021.34 
-3293.02 93.5547 2020.94 
-3292.78 93.5686 2022.02 
-3292.84 93.6823 2022.49 
-3292.67 93.8142 2019.42 
-3293.24 93.6695 2020.68 
-3292.85 93.3668 2020.14 
-3295.61 96.0515 2020.44 
-3297.19 97.5915 2019.44 
-3298.77 98.7271 2018.82 
-3301.05 101.293 2017.6 
-3299.41 99.6794 2017.91 
-3293.7 94.2052 2021.28 
-3293.78 94.4718 2021.48 
-3293.56 93.8791 2021.13 
-3293.92 94.7383 2021.44 
-3294.36 95.1297 2021.11 
-3295.38 95.7128 2021.03 
-3295.27 99.2947 2009.2 
-3294.04 97.375 2011.07 
-3280.85 89.5193 1997.99 
-3281.49 89.3458 1999.04 
-3281.18 89.4623 1998.52 
-3281.62 88.969 1998.98 
-3281.15 85.9861 1999.96 
-3280.56 86.2088 1999.36 
-3281.15 89.5418 1998.07 
-3283.11 81.3452 2004.88 
-3282.92 81.4483 2004.6 
-3282.52 83.5595 2002.38 
-3282.49 81.3545 2004.35 
-3281.4 83.9466 2001.19 
-3281.99 81.4113 2003.91 
-3281.48 82.184 2002.78 
-3280.77 83.9987 2000.66 
-3284.87 83.2637 2004.34 
-3284.49 83.5389 2003.92 
-3283.2 81.2314 2005.1 
-3316.16 129.975 1998.39 
-3315.72 130.224 1997.98 
-3315.52 129.802 1997.74 
-3317.98 127.543 2000.33 
-3317.77 127.488 1999.88 
-3317.51 127.341 1999.53 
-3315.32 129.101 1997.56 
-3311.88 119.144 1997.98 
-3310.96 118.55 1997.96 
-3307.91 116.738 1998.83 
-3310.7 117.766 1998.4 
-3308.05 115.307 1999.33 
-3307.92 115.711 1999.2 
-3307.67 116.042 1998.96 
-3308.37 116.478 1998.95 
-3307.97 114.698 1999.98 
-3307.82 114.297 2000.43 
-3307.67 114.099 2000.8 
-3307.36 114.453 2000.94 
-3308.1 115.504 2002.45 
-3308.14 115.692 2002.17 
-3309.98 117.338 2003.78 
-3310.77 117.727 2004.6 
-3310.58 117.773 2004.28 
-3311.5 114.019 2008.75 
-3311.99 114.426 2008.75 
-3311.13 115.856 2006.81 
-3312.25 114.955 2008.49 
-3311.52 116.295 2006.8 
-3311.06 117.627 2005.11 
-3312.38 114.381 2008.91 
-3311.64 112.871 2009.75 
-3311.87 112.83 2010.21 
-3309.76 109.253 2012.04 
-3307.37 106.823 2012.63 
-3308 106.921 2013.37 
-3309.11 108.182 2012.87 
-3306.54 106.497 2012.41 
-3304.04 104.837 2013.1 
-3302.51 103.197 2015.91 
-3295.55 98.7896 2003.98 
-3293.96 95.801 2002.87 
-3293.49 95.5751 2001.68 
-3293.87 95.2913 2004.09 
-3294.88 97.5992 2005.68 
-3277.53 86.0097 1994.72 
-3276.53 83.889 1997.14 
-3275.92 82.6696 1998.54 
-3277.54 84.9598 1995.85 
-3276.68 87.4946 1993.33 
-3276.51 87.7885 1993.02 
-3276.34 87.9191 1992.81 
-3276.89 86.9322 1993.85 
-3280.05 80.6631 2000.93 
-3278.37 80.8646 2000.79 
-3276.37 81.5177 1999.84 
-3280.89 80.497 2001.05 
-3281.43 80.3207 2001.26 
-3281.66 80.5274 2000.86 
-3282 80.2174 2001.36 
-3282.35 80.4618 2001.3 
-3282.71 80.4652 2001.67 
-3283 80.8046 2001.67 
-3284.19 83.8268 1999.16 
-3284.57 84.7699 1998.59 
-3283.46 81.7537 2001.09 
-3283.99 82.7751 2000.27 
-3283.28 81.1852 2001.62 
-3275.46 88.3392 1992.25 
-3275.59 87.9001 1992.67 
-3275.79 87.9848 1992.64 
-3276.14 87.8733 1992.84 
-3275.95 87.7635 1992.9 
-3279.4 90.4634 1995 
-3279.17 90.6223 1993.99 
-3278.14 89.2253 1994.3 
-3279.43 90.6872 1994.48 
-3280.7 89.5745 1997.6 
-3280.59 89.7747 1996.92 
-3280.15 90.2165 1995.73 
-3280.53 89.9911 1996.26 
-3279.74 90.4755 1995.05 
-3276.56 87.1014 1994.89 
-3275.46 85.3656 1995.1 
-3277.28 87.9278 1994.69 
-3275.78 85.1782 1995.32 
-3275.74 85.7285 1994.81 
-3275.91 85.989 1994.6 
-3275.83 86.4722 1994.12 
-3275.7 86.8737 1993.7 
-3275.74 87.2577 1993.33 
-3275.75 87.6494 1992.95 
-3289.76 91.197 2000.78 
-3286.33 86.9095 1999.66 
-3286.39 86.7693 2000.03 
-3285.05 84.7155 1999.27 
-3285.14 84.5873 1999.6 
-3285.03 85.1517 1998.76 
-3292.24 93.6983 2001.55 
-3292.74 94.2388 2002.33 
-3293.79 94.5158 2022.66 
-3293.47 94.0533 2022.62 
-3293.66 94.247 2022.4 
-3294.49 95.0208 2022.35 
-3296.17 96.0886 2021.87 
-3294.9 95.3925 2022.02 
-3298 96.9376 2021.77 
-3297.04 96.3707 2022.03 
-3293.75 94.4695 2022.24 
-3309.82 109.152 2018.64 
-3310.47 109.783 2018.45 
-3306.05 105.185 2018.87 
-3308.44 106.981 2018.17 
-3309.17 107.676 2017.83 
-3309.75 108.728 2017.96 
-3302.28 101.286 2020.59 
-3306.1 104.911 2018.43 
-3302.15 101.045 2020.08 
-3299.29 98.4066 2021.05 
-3315.73 123.498 2013.71 
-3310.94 115.539 2022.81 
-3311.02 120.79 2026.06 
-3311.77 118.13 2022.44 
-3311.86 112.941 2019.06 
-3311.93 112.22 2018.01 
-3311.58 111.217 2017.66 
-3285.67 84.3402 2001.06 
-3284.32 81.3588 2002.57 
-3284.54 81.6713 2002.61 
-3283.86 80.624 2003.14 
-3283.61 80.1532 2003.42 
-3283.5 79.8614 2003.66 
-3283.38 79.6339 2003.8 
-3283.38 79.4736 2004.11 
-3283.38 79.3419 2004.38 
-3283.41 79.2225 2004.71 
-3283.41 79.0861 2004.97 
-3283.66 79.5701 2004.88 
-3283.42 78.7518 2005.31 
-3283.97 80.2009 2005.14 
-3283.9 80.0048 2005.54 
-3284.29 81.0792 2004.87 
-3283.6 79.3123 2005.32 
-3283.56 79.087 2005.69 
-3284.46 81.5426 2004.75 
-3284.51 81.6923 2004.89 
-3284.38 81.3187 2005.41 
-3284.63 82.0384 2004.99 
-3284.82 82.6209 2004.98 
-3284.73 82.3024 2004.99 
-3287.19 88.2342 2000.9 
-3289.91 91.218 2001.38 
-3293.19 94.496 2003.27 
-3294.51 96.9523 2007.49 
-3294.13 96.1935 2008.65 
-3291.71 93.0709 2019.35 
-3292.15 93.1167 2019.34 
-3293.37 93.9081 2022.13 
-3293.61 94.0783 2021.95 
-3293.62 94.0122 2021.54 
-3296.87 96.7042 2020.54 
-3298.28 98.0359 2019.58 
-3301.43 101.044 2018.29 
-3303.39 103.413 2016.4 
-3293.71 94.3151 2021.78 
-3293.85 94.6155 2021.99 
-3294.14 94.8547 2021.83 
-3294.82 95.4762 2021.54 
-3296.29 96.1826 2021.37 
-3281.19 89.6267 1997.63 
-3280.97 89.6309 1997.45 
-3281.29 89.2938 1998.49 
-3281.26 89.369 1998.05 
-3280.57 87.575 1998.77 
-3280.17 84.0903 2000.12 
-3279.79 86.3703 1998.65 
-3279.57 84.1429 1999.68 
-3281.27 89.4442 1997.62 
-3281.3 78.8538 2006.06 
-3281.21 78.9416 2005.86 
-3281.12 79.0111 2005.68 
-3282.29 82.0697 2003.5 
-3281.03 79.0952 2005.48 
-3280.94 82.5497 2002.01 
-3280.88 79.1218 2005.31 
-3281.41 80.8427 2004.03 
-3280.84 81.3652 2003.09 
-3280.35 82.3159 2001.8 
-3283.38 81.2617 2005.26 
-3283.76 81.3445 2005.67 
-3281.4 78.7808 2006.26 
-3318.48 125.637 2007.11 
-3319.09 125.576 2003.66 
-3319.11 125.572 2003.25 
-3319.08 125.537 2002.81 
-3319.01 125.342 2002.29 
-3315.94 129.485 1997.99 
-3315.71 129.19 1997.99 
-3316.34 129.258 1998.18 
-3317.26 126.636 1998.85 
-3316.56 129.561 1998.65 
-3317.37 127.013 1999.16 
-3318.74 125.227 2001.19 
-3318.87 125.339 2001.7 
-3318.65 125.205 2000.7 
-3318.62 125.224 2000.24 
-3318.57 125.397 1999.73 
-3318.47 124.845 1999.77 
-3318.38 124.479 1999.64 
-3314.75 128.275 1997.21 
-3315.9 128.401 1998.03 
-3312.49 119.785 1997.87 
-3312.89 120.353 1997.72 
-3310.46 120.621 1997.08 
-3314.46 119.301 1998.65 
-3314.21 119.602 1998.42 
-3314.02 118.953 1998.72 
-3313.19 118.599 1998.6 
-3310.86 118.135 1998.15 
-3311.04 117.516 1998.54 
-3313.46 118.185 1998.86 
-3313.52 118.395 1998.82 
-3308.88 115.61 1999.4 
-3308.67 115.138 1999.78 
-3309.37 116.102 1999.09 
-3308.79 116.241 1999.05 
-3311.15 117.21 1998.72 
-3311.32 116.945 1998.88 
-3308.39 114.744 2000.16 
-3308.18 114.379 2000.56 
-3308.2 114.383 2000.92 
-3307.71 114.711 2001.01 
-3308.14 115.859 2001.87 
-3309.82 117.401 2003.35 
-3310.61 118.025 2004.04 
-3311.16 117.951 2004.87 
-3311.03 118.116 2004.51 
-3312.78 115.045 2008.6 
-3312.95 115.483 2008.36 
-3312.66 115.578 2008.21 
-3311.81 116.727 2006.72 
-3311.43 117.973 2005.24 
-3312.6 114.313 2009.07 
-3313.19 114.693 2009.02 
-3313.24 115.082 2008.73 
-3312.3 113.097 2010.48 
-3313.7 114.888 2009.28 
-3310.2 109.555 2012.54 
-3307.42 106.458 2013.49 
-3308.37 107.099 2013.85 
-3307.64 106.332 2014.32 
-3309.65 108.476 2013.38 
-3306.83 106.12 2013.5 
-3304.54 104.824 2014.24 
-3305.1 104.856 2015.16 
-3277.03 86.3408 1994.38 
-3277.45 85.3929 1995.29 
-3275.25 83.2455 1997.38 
-3276.61 84.2724 1996.61 
-3275.26 81.9185 1999.35 
-3276.46 87.473 1993.31 
-3276.27 87.5675 1993.17 
-3276.44 87.0833 1993.67 
-3279.28 80.5297 2001.28 
-3276.37 81.1785 2000.32 
-3280.41 80.3711 2001.36 
-3281.04 80.1525 2001.63 
-3281.55 79.9806 2001.84 
-3282.02 79.913 2001.88 
-3282.44 80.0298 2001.83 
-3282.66 80.0308 2002.11 
-3282.89 80.3966 2002.01 
-3283.13 80.7109 2001.98 
-3284.57 83.7749 1999.59 
-3283.74 81.8042 2001.28 
-3284.23 82.606 2000.69 
-3283.37 81.0291 2001.94 
-3283.74 81.5356 2001.65 
-3276.09 87.5362 1993.16 
-3275.9 87.4183 1993.22 
-3279.45 90.5827 1994.04 
-3278.23 88.9391 1994.42 
-3277.25 87.5 1994.84 
-3279.8 90.6771 1994.59 
-3280.94 89.7551 1996.93 
-3280.1 90.4369 1995.22 
-3280.53 90.2268 1995.67 
-3280.87 89.9803 1996.24 
-3275.73 85.6255 1995.28 
-3276.35 86.2737 1995.2 
-3275.44 84.7796 1995.63 
-3276.1 84.9955 1995.56 
-3275.04 84.4523 1995.79 
-3275.29 84.4242 1995.9 
-3276.13 86.1785 1994.45 
-3276.36 85.36 1995.2 
-3276.03 86.7021 1993.95 
-3275.91 87.0233 1993.61 
-3286.48 86.7721 2000.37 
-3284.89 83.3336 2000.6 
-3284.81 82.4153 2001.55 
-3284.72 83.4736 2000.16 
-3297.58 96.7464 2021.48 
-3298.82 98.0001 2020.56 
-3310.6 109.625 2017.47 
-3311.38 110.637 2017.11 
-3308.49 106.954 2017.72 
-3308.98 107.302 2016.99 
-3309.8 108.356 2016.94 
-3310.34 109.194 2017.09 
-3306.09 104.699 2017.83 
-3308.19 106.614 2016.89 
-3302.06 100.915 2019.43 
-3306.08 104.631 2017.12 
-3316.68 126.383 2014.68 
-3316.55 125.487 2013.7 
-3317.04 125.719 2012.08 
-3315.86 121.457 2011.39 
-3312.63 114.589 2018.5 
-3312.7 118.343 2020.03 
-3314.11 117.442 2014.27 
-3313.97 120.859 2016.52 
-3316.34 119.716 2008.8 
-3314.09 116.41 2013.8 
-3318.2 121.858 2006.37 
-3317.55 123.579 2009.03 
-3312.81 113.74 2017.05 
-3312.97 113.524 2016.21 
-3312.69 112.783 2016.01 
-3285.76 84.751 2000.68 
-3284.55 81.7612 2002.15 
-3283.7 80.5739 2002.95 
-3283.88 80.9953 2002.55 
-3283.52 80.2411 2003.14 
-3283.44 79.9798 2003.36 
-3283.32 79.736 2003.52 
-3283.21 79.496 2003.68 
-3283.24 79.3623 2003.95 
-3283.26 79.2179 2004.28 
-3283.31 79.1552 2004.57 
-3283.3 79.0088 2004.83 
-3283.32 78.6316 2005.19 
-3283.41 78.1667 2005.69 
-3283.48 78.1501 2006.04 
-3283.84 79.7811 2005.98 
-3283.5 78.0005 2006.33 
-3284.19 80.7741 2005.4 
-3284.17 80.7186 2005.72 
-3284.1 80.5113 2006.19 
-3284.3 81.0933 2005.93 
-3284.48 81.6148 2005.79 
-3284.4 81.6647 2006.05 
-3297.86 97.2041 2020.66 
-3299.1 98.4584 2019.77 
-3301.7 100.686 2018.99 
-3304.02 103.289 2016.98 
-3305.58 104.795 2015.61 
-3281.32 89.5452 1997.17 
-3281.24 89.7211 1997.15 
-3280.14 87.9549 1998.23 
-3279.92 88.2228 1997.75 
-3279.65 82.3123 2001.27 
-3279.48 87.1126 1998.07 
-3279.02 84.2523 1999.09 
-3278.63 84.3709 1998.81 
-3278.92 82.4108 2000.62 
-3280.04 88.415 1997.32 
-3281.25 78.2972 2006.21 
-3281.15 78.375 2006.01 
-3281.07 78.4462 2005.82 
-3280.94 78.52 2005.65 
-3280.87 78.5937 2005.44 
-3280.67 79.1808 2005.05 
-3280.69 78.6702 2005.3 
-3280.02 81.3034 2002.53 
-3280.6 80.5775 2003.67 
-3281.65 78.7276 2006.56 
-3282.37 79.0874 2007.01 
-3281.42 78.066 2006.46 
-3319.01 125.127 2003.93 
-3319.02 123.717 2004.27 
-3318.95 124.61 2004.23 
-3318.28 125.004 2007.54 
-3318.87 123.068 2004.57 
-3318.95 125.073 2003.5 
-3319.05 124.677 2002.83 
-3319.1 124.495 2002.27 
-3319.08 124.432 2001.77 
-3316.31 128.688 1998.09 
-3317.08 126.292 1998.6 
-3318.24 124.307 1999.42 
-3318 124.253 1999.18 
-3318.95 124.329 2001.22 
-3318.88 124 2000.72 
-3318.54 124.689 2000.25 
-3318.52 124.032 1999.72 
-3314.57 127.31 1997.09 
-3315.17 127.476 1997.46 
-3314.16 127.825 1996.84 
-3315.51 128.144 1997.77 
-3316.54 125.849 1998.04 
-3316.31 125.697 1997.87 
-3314.73 120.118 1998.26 
-3314.47 120.937 1997.8 
-3314.87 119.866 1998.43 
-3315.1 119.418 1998.86 
-3313.95 118.64 1998.91 
-3314.96 119.02 1999.1 
-3313.53 117.94 1998.98 
-3314.07 118.085 1999.18 
-3314.18 118.298 1999.19 
-3314.46 118.536 1999.23 
-3309.34 115.548 1999.5 
-3309.72 115.965 1999.23 
-3309.02 115.159 1999.97 
-3309.44 115.409 1999.69 
-3311.48 116.737 1999.07 
-3313.77 117.736 1999.17 
-3313.55 117.437 1999.26 
-3308.71 114.803 2000.3 
-3308.78 114.679 2000.6 
-3308.81 114.518 2000.8 
-3308.46 114.716 2001.05 
-3308.02 114.96 2001.09 
-3308.18 116.021 2001.65 
-3309.71 117.485 2002.97 
-3310.61 118.213 2003.76 
-3310.89 118.385 2004.3 
-3311.36 118.185 2004.93 
-3311.26 118.346 2004.63 
-3313.44 115.421 2008.34 
-3313.18 115.569 2008.09 
-3312.7 115.825 2007.92 
-3312.98 115.674 2007.92 
-3312.02 117.053 2006.64 
-3311.61 118.152 2005.35 
-3313.92 115.145 2008.78 
-3313.76 115.251 2008.51 
-3312.66 113.232 2010.8 
-3314.06 115.093 2009.49 
-3314.05 115.279 2008.79 
-3310.63 109.809 2013.15 
-3307.3 106.046 2014.3 
-3308.98 107.584 2014.04 
-3307.87 106.368 2014.88 
-3307.34 105.809 2015.02 
-3310.06 108.724 2014.05 
-3276.84 86.1211 1994.56 
-3277.16 85.071 1995.63 
-3274.3 82.2814 1998.64 
-3273.89 82.9406 1996.63 
-3274.8 83.5588 1996.42 
-3273.87 83.1252 1996.3 
-3276.13 84.1521 1996.57 
-3276.13 87.2008 1993.49 
-3276.28 86.8111 1993.9 
-3277.97 80.6323 2001.18 
-3280.01 80.2136 2001.71 
-3274.15 81.6475 1999.43 
-3280.7 80.0041 2001.95 
-3281.29 79.7844 2002.23 
-3281.92 79.6906 2002.3 
-3282.41 79.7094 2002.24 
-3282.64 79.7642 2002.41 
-3282.84 80.043 2002.35 
-3283.08 80.3544 2002.33 
-3283.33 80.7137 2002.26 
-3284.29 82.1511 2001.31 
-3283.72 81.2641 2002.02 
-3280.07 90.762 1994.46 
-3279.81 90.706 1994.01 
-3279.08 89.4266 1994.39 
-3278.43 88.8039 1994.5 
-3277.56 87.5775 1994.88 
-3276.83 86.3653 1995.39 
-3280.31 90.5188 1995.03 
-3281.25 89.8329 1996.64 
-3281.07 90.0736 1995.96 
-3280.74 90.3383 1995.4 
-3274.99 84.6599 1995.73 
-3276.21 85.5485 1995.66 
-3274.6 84.674 1995.61 
-3275.98 84.5065 1996.09 
-3275.06 84.2365 1995.97 
-3275.05 84.1344 1996.05 
-3274.12 84.6177 1995.59 
-3274.28 84.2236 1995.77 
-3276.44 86.1774 1994.48 
-3276.66 85.2538 1995.35 
-3284.37 81.9183 2001.69 
-3284.09 81.4308 2002.13 
-3311.56 110.878 2015.67 
-3312.08 111.708 2015.64 
-3312.88 112.916 2014.9 
-3308.6 106.954 2016.01 
-3309.49 107.964 2015.8 
-3310.98 110.027 2015.7 
-3310.33 109.076 2015.73 
-3307.75 106.113 2015.87 
-3305.93 104.552 2016.51 
-3313.18 114.838 2016.98 
-3313.25 115.809 2017.5 
-3313.36 118.626 2018 
-3313.88 117.902 2015.46 
-3314.18 115.947 2013.08 
-3315.24 117.88 2010.39 
-3316.34 119.225 2008.26 
-3318.15 121.269 2005.73 
-3317.81 120.377 2005.57 
-3317.96 124.25 2008.14 
-3318.75 123.045 2005.98 
-3318.6 122.439 2005.26 
-3314.04 115.322 2013.07 
-3283.49 80.4834 2002.78 
-3283.53 80.7997 2002.44 
-3283.32 80.1688 2002.93 
-3283.31 79.9896 2003.14 
-3283.19 79.7386 2003.31 
-3283.07 79.4865 2003.46 
-3283.02 79.2501 2003.72 
-3283.1 79.141 2004.02 
-3283.13 79.0128 2004.32 
-3283.19 78.9542 2004.6 
-3283.21 78.6892 2004.96 
-3283.22 78.1634 2005.34 
-3283.31 78.0942 2005.55 
-3283.33 77.63 2005.9 
-3283.39 77.3664 2006.19 
-3283.78 79.4944 2006.41 
-3283.5 77.5801 2006.63 
-3283.38 76.9389 2006.46 
-3283.73 79.1611 2006.8 
-3283.73 79.219 2007.14 
-3283.76 79.1948 2007.29 
-3284.14 80.6798 2006.66 
-3284.21 80.9326 2006.8 
-3283.1 79.4913 2007.44 
-3305.81 104.677 2016.01 
-3281.35 89.6423 1996.7 
-3280.18 88.5998 1996.86 
-3278.88 87.3221 1997.4 
-3278.89 86.5468 1997.83 
-3279.22 80 2003.49 
-3278.49 80.4623 2002.78 
-3278.05 84.3499 1998.27 
-3278.11 80.9805 2001.89 
-3277.65 81.5634 2000.98 
-3277.99 82.8057 1999.54 
-3279.2 87.7639 1996.98 
-3281.68 78.0399 2006.24 
-3281.47 78.3341 2005.94 
-3281.4 78.4283 2005.68 
-3281.22 78.5121 2005.5 
-3281.14 78.6056 2005.24 
-3280.89 78.6899 2005.1 
-3280.4 79.2461 2004.75 
-3280.61 78.7604 2005.04 
-3279.97 79.3371 2004.42 
-3281.68 77.8126 2006.76 
-3282.27 77.9068 2007.12 
-3281.94 77.6184 2006.6 
-3319.13 124.206 2003.38 
-3319.39 123.422 2003.42 
-3319.37 122.796 2003.78 
-3318.94 122.35 2004.24 
-3319.43 123.625 2002.35 
-3319.38 123.602 2001.95 
-3319.2 123.563 2001.71 
-3319.03 123.659 2001.51 
-3316.72 125.962 1998.18 
-3316.88 126.021 1998.33 
-3316.04 128.729 1998.03 
-3318.17 123.907 1999.29 
-3317.74 124.382 1998.9 
-3317.86 123.777 1999.01 
-3318.92 123.568 2001.03 
-3318.69 123.984 2000.11 
-3318.81 123.557 2000.55 
-3318.65 123.475 1999.72 
-3318.37 123.749 1999.41 
-3315.95 125.532 1997.63 
-3315.48 125.399 1997.39 
-3317.6 124.115 1998.77 
-3317.38 124.018 1998.54 
-3316.82 123.873 1998.08 
-3317.17 123.797 1998.32 
-3313.11 123.54 1996.78 
-3314.14 122.629 1997.15 
-3313.56 123.996 1996.84 
-3314.88 122.588 1997.34 
-3314.44 121.518 1997.56 
-3312.74 122.205 1997.04 
-3315 120.495 1998.07 
-3315 121.055 1997.83 
-3315.35 120.215 1998.41 
-3315.77 119.382 1999.22 
-3315.71 119.898 1998.82 
-3315.27 118.885 1999.37 
-3314.41 117.922 1999.42 
-3314.61 118.192 1999.49 
-3314.94 118.469 1999.54 
-3309.99 115.786 1999.41 
-3311.63 116.526 1999.28 
-3309.27 115.116 2000.2 
-3309.72 115.366 1999.89 
-3310.19 115.587 1999.61 
-3313.56 117.2 1999.48 
-3314.26 117.564 1999.56 
-3314.57 117.762 1999.62 
-3309.44 115.046 2000.42 
-3308.9 114.729 2001.06 
-3308.65 115.461 2001.23 
-3308.3 115.335 2001.21 
-3309.39 114.839 2000.73 
-3308.31 116.238 2001.54 
-3309.78 117.68 2002.8 
-3310.66 118.451 2003.52 
-3311.01 118.602 2003.98 
-3311.25 118.531 2004.46 
-3311.52 118.362 2005.02 
-3311.51 118.56 2004.83 
-3313.85 115.199 2008.08 
-3313.46 115.405 2007.96 
-3313.26 115.512 2007.7 
-3312.96 115.678 2007.59 
-3312.67 115.854 2007.61 
-3312.2 117.194 2006.67 
-3311.77 118.287 2005.47 
-3314 115.219 2008.37 
-3313.12 113.624 2010.93 
-3314.21 115.416 2009.42 
-3314.07 115.482 2008.68 
-3314.03 115.435 2008.29 
-3311.07 110.389 2013.57 
-3309.38 107.879 2014.72 
-3308.47 106.881 2015.03 
-3310.25 108.989 2014.91 
-3276.95 85.3706 1995.25 
-3276.39 84.465 1996.29 
-3272.91 82.5411 1996.61 
-3273.27 83.061 1996.08 
-3274.75 83.7079 1996.26 
-3274.23 83.4317 1996.22 
-3273.03 82.8398 1996.11 
-3278.72 80.2667 2001.75 
-3274.14 81.4764 1999.87 
-3280.2 79.9291 2002.17 
-3272.95 82.1801 1997.82 
-3280.76 79.7201 2002.44 
-3281.31 79.6193 2002.54 
-3281.88 79.5675 2002.55 
-3282.45 79.5423 2002.55 
-3282.76 79.7346 2002.64 
-3282.97 79.9908 2002.62 
-3283.25 80.3297 2002.61 
-3280.22 90.7002 1994.19 
-3280.48 90.6404 1994.74 
-3279.78 89.7172 1994.7 
-3278.98 88.7384 1994.95 
-3278.18 87.8717 1995.1 
-3277.75 86.9978 1995.58 
-3277.17 86.2236 1996.02 
-3281.33 89.7646 1996.19 
-3281.01 90.0289 1995.56 
-3280.69 90.3587 1994.94 
-3274.58 84.8623 1995.32 
-3274.99 84.3571 1996.48 
-3273.2 83.6685 1996.5 
-3274.07 84.8189 1995.2 
-3275.74 84.2381 1996.29 
-3274.2 83.7916 1995.94 
-3275 84.0038 1996.13 
-3274.15 83.966 1995.84 
-3273.58 84.5508 1995.6 
-3273.45 85.0266 1995.06 
-3273.76 84.1613 1995.79 
-3312.78 112.676 2014.24 
-3312.43 112.184 2014.11 
-3314.12 115.385 2012.62 
-3314.06 115.124 2012.4 
-3311.93 111.522 2014.02 
-3311.37 110.761 2014.04 
-3316.51 119.03 2007.41 
-3315.16 117.462 2010.23 
-3318.49 121.821 2004.71 
-3318.11 121.046 2005.05 
-3317.93 120.538 2004.67 
-3283.11 79.9967 2002.83 
-3283.1 79.8226 2003.05 
-3282.96 79.5681 2003.19 
-3282.87 79.2986 2003.41 
-3282.78 79.0548 2003.61 
-3282.9 78.9924 2003.89 
-3282.99 78.8722 2004.21 
-3283.02 78.7206 2004.55 
-3283.1 78.6266 2004.81 
-3283.12 78.183 2005.16 
-3283.2 77.6145 2005.69 
-3283.26 77.1417 2006.13 
-3283.48 76.9564 2006.93 
-3283.26 76.6664 2006.7 
-3283.04 77.1633 2006.33 
-3283.5 77.2688 2007.25 
-3283.74 79.3458 2007.67 
-3283.28 77.8932 2007.58 
-3283.1 77.1712 2007.2 
-3283.72 79.4547 2007.87 
-3283.59 79.6173 2008.02 
-3282.96 78.3124 2007.6 
-3280.22 88.7024 1996.4 
-3279.18 87.8207 1996.52 
-3278.22 86.9346 1996.93 
-3277.57 84.6267 1997.7 
-3277.9 86.1457 1997.17 
-3279.67 79.1698 2004.43 
-3279.07 79.2823 2004.2 
-3276.38 80.0771 2003.24 
-3276.98 81.9366 2000.33 
-3275.12 80.5006 2002.63 
-3278.13 86.9562 1996.46 
-3282.17 77.6546 2006.32 
-3281.93 78.0503 2005.98 
-3281.73 78.3687 2005.65 
-3281.69 78.465 2005.37 
-3281.46 78.5394 2005.26 
-3281.44 78.6237 2004.99 
-3281.17 78.6935 2004.92 
-3280.85 78.7832 2004.82 
-3280.46 78.8614 2004.81 
-3282.59 77.4787 2007.09 
-3282.38 77.2468 2006.71 
-3319.5 123.048 2002.47 
-3319.29 122.505 2002.88 
-3318.93 122.043 2003.44 
-3318.53 121.57 2003.94 
-3319.31 122.835 2001.81 
-3319.1 122.823 2001.63 
-3318.97 122.904 2001.35 
-3318.1 123.546 1999.16 
-3317.57 123.55 1998.72 
-3317.84 123.32 1998.91 
-3318.87 122.702 2000.82 
-3318.74 123.012 2000.19 
-3318.59 123.236 1999.6 
-3318.53 123.252 1999.86 
-3316.48 123.758 1997.9 
-3316.12 123.546 1997.73 
-3317.25 123.458 1998.43 
-3316.97 123.293 1998.18 
-3315.15 122.904 1997.37 
-3315.62 122.592 1997.57 
-3315.72 123.11 1997.57 
-3314.68 122.121 1997.43 
-3314.01 122.066 1997.3 
-3315.46 122.215 1997.61 
-3315.22 121.57 1997.73 
-3315.58 120.893 1998.14 
-3315.9 120.693 1998.41 
-3316.08 119.201 1999.53 
-3316.45 119.817 1999.28 
-3316.19 120.239 1998.85 
-3315.71 118.806 1999.67 
-3314.89 117.936 1999.77 
-3314.98 118.133 1999.77 
-3315.32 118.373 1999.83 
-3315.91 118.636 1999.93 
-3311.8 116.318 1999.5 
-3313.61 116.979 1999.72 
-3309.98 115.326 2000.07 
-3310.43 115.507 1999.8 
-3311.94 116.113 1999.71 
-3314.15 117.297 1999.85 
-3314.57 117.536 1999.97 
-3315.02 117.762 2000.06 
-3309.94 115.137 2000.51 
-3310.18 115.282 2000.25 
-3308.93 115.871 2001.14 
-3308.6 116.638 2001.45 
-3308.88 117.113 2001.27 
-3309.17 115.257 2001.19 
-3309.41 114.732 2001 
-3309.91 115.039 2000.72 
-3310.75 118.633 2003.39 
-3309.84 117.848 2002.65 
-3311.01 118.903 2003.61 
-3311.47 118.79 2004.54 
-3311.22 118.767 2004.14 
-3311.74 118.5 2005.26 
-3311.75 118.711 2005.08 
-3313.72 115.252 2007.71 
-3313.94 115.238 2007.61 
-3314.01 115.347 2007.87 
-3313.54 115.349 2007.42 
-3313.22 115.529 2007.34 
-3312.96 115.713 2007.28 
-3312.81 116.035 2007.48 
-3312.39 117.343 2006.73 
-3311.99 118.309 2005.7 
-3313.28 113.723 2011.26 
-3314.29 115.413 2009.97 
-3314.18 115.648 2009.12 
-3314.06 115.66 2008.53 
-3314.12 115.72 2008.04 
-3314.02 115.537 2007.84 
-3313.43 113.772 2011.62 
-3272.37 82.548 1996.21 
-3272.64 82.9305 1996.07 
-3272.48 82.7748 1996.09 
-3273.42 83.2542 1996.03 
-3272.73 83.2098 1996.01 
-3274.23 83.6548 1996.03 
-3273.45 83.4407 1995.96 
-3278.7 80.0854 2002.06 
-3274.11 81.3718 2000.2 
-3273.03 81.9343 1999.11 
-3272.86 82.1938 1998.02 
-3273.1 81.935 1998.98 
-3280.22 79.6929 2002.59 
-3272.58 82.4493 1996.86 
-3280.87 79.5579 2002.74 
-3281.58 79.476 2002.78 
-3282.23 79.408 2002.8 
-3282.66 79.4765 2002.84 
-3282.89 79.7019 2002.9 
-3279.8 89.0891 1995.34 
-3278.86 88.0095 1995.57 
-3278.32 87.186 1996.04 
-3277.4 86.3241 1996.54 
-3276.28 84.5561 1996.9 
-3280.14 88.8406 1995.9 
-3273.02 82.9693 1998.14 
-3271.52 82.6118 1997.82 
-3269.35 81.4657 1998.89 
-3272.3 83.2785 1996.64 
-3273.68 85.0763 1994.85 
-3272.71 83.6984 1995.83 
-3273.46 83.6836 1995.9 
-3273.57 83.9064 1995.84 
-3273.04 84.4738 1995.62 
-3272.93 84.9682 1995.06 
-3273.21 85.1744 1994.63 
-3272.76 85.264 1994.67 
-3273.18 84.1084 1995.8 
-3313.95 114.722 2012.32 
-3313.84 114.363 2012.15 
-3314.79 116.677 2010.57 
-3315.03 117.209 2009.72 
-3313.6 113.949 2012.03 
-3316.59 118.926 2006.7 
-3318.26 121.204 2004.37 
-3318.18 120.772 2003.96 
-3317.95 120.11 2004.17 
-3282.76 79.3967 2003.11 
-3282.62 79.1346 2003.34 
-3282.58 78.869 2003.81 
-3282.29 79.0203 2003.54 
-3282.8 78.7615 2004.08 
-3282.71 78.603 2004.32 
-3282.92 78.5754 2004.5 
-3283 78.2338 2004.9 
-3283.05 77.8161 2005.33 
-3282.91 77.3981 2005.96 
-3282.99 77.5604 2005.66 
-3283.18 76.6045 2006.94 
-3282.81 76.923 2006.75 
-3282.39 77.3745 2006.15 
-3282.59 77.2893 2006.44 
-3279.31 88.014 1996.08 
-3276.63 84.0609 1997.74 
-3276.81 82.6369 1999.2 
-3280.43 78.9406 2004.58 
-3278.7 79.4368 2003.9 
-3280.34 79.0305 2004.35 
-3274.7 81.6202 2000.86 
-3273.21 80.9491 2002.05 
-3278.3 79.5951 2003.6 
-3275.16 80.2922 2002.72 
-3282.16 78.0547 2005.74 
-3282.03 78.3302 2005.38 
-3282.01 78.4995 2005.05 
-3281.74 78.5567 2005.02 
-3281.68 78.651 2004.74 
-3281.31 78.7355 2004.69 
-3280.85 78.8587 2004.58 
-3319.18 122.314 2001.97 
