-3325.6 500.627 3886.82 
-3325.67 500.87 3887.01 
-3325.8 501.091 3887.17 
-3326.2 501.191 3887.74 
-3327.78 500.943 3888.35 
-3329.43 500.793 3889.38 
-3330.01 500.584 3889.14 
-3327.89 500.897 3890.25 
-3326.84 501.018 3890.39 
-3329.19 505.876 3881.46 
-3329.06 505.39 3881.49 
-3328.74 503.773 3882.13 
-3328.72 500.729 3883.77 
-3328.07 499.465 3884.39 
-3326.1 498.085 3886.86 
-3325.21 497.411 3887.43 
-3319.81 496.334 3885.99 
-3323.01 496.982 3887.85 
-3321.76 497.025 3887.33 
-3319.9 496.662 3886.69 
-3320.68 496.834 3886.99 
-3319.53 496.823 3886.75 
-3319.56 496.712 3886.61 
-3323.31 497.272 3888.44 
-3319.5 496.712 3886.58 
-3319.44 496.71 3886.55 
-3395.61 468.608 3817.36 
-3395.45 468.145 3817.57 
-3395.39 467.163 3817.95 
-3395.35 467.17 3817.89 
-3395.3 466.796 3817.98 
-3395.25 466.418 3818.06 
-3395.14 466.12 3818.04 
-3395.07 465.817 3818.06 
-3395.2 465.838 3818.23 
-3395.02 468.59 3821.01 
-3395.22 467.994 3820.96 
-3396.01 465.935 3820.33 
-3395.9 465.972 3819.87 
-3395.88 466.518 3820.28 
-3395.69 467.172 3820.21 
-3395.43 467.695 3820.56 
-3395.5 465.362 3819.09 
-3395.31 465.346 3818.58 
-3395.39 465.382 3818.74 
-3395.63 465.259 3819.56 
-3395.71 465.528 3819.6 
-3395.67 465.904 3819.23 
-3395.78 466.128 3819.38 
-3395.13 464.817 3818.55 
-3395.19 465.013 3818.56 
-3395.14 465.485 3818.3 
-3395.24 465.529 3818.42 
-3394.92 469.292 3820.65 
-3395.05 469.168 3820.32 
-3395.16 469.068 3820.02 
-3395.29 468.943 3819.69 
-3395.52 469.324 3818.97 
-3395.65 469.176 3818.65 
-3395.85 469.289 3818.13 
-3396.15 469.412 3817.3 
-3396.03 469.223 3817.66 
-3396.04 469.166 3817.39 
-3395.96 469.053 3817.41 
-3395.87 468.892 3817.44 
-3395.76 468.678 3817.53 
-3395.6 468.228 3817.74 
-3395.56 468.195 3817.68 
-3395.51 468.173 3817.63 
-3388.43 452.343 3810.55 
-3388.9 451.44 3812.16 
-3388.68 451.718 3811.13 
-3388.78 451.521 3811.47 
-3388.57 451.913 3810.76 
-3388.47 452.113 3810.44 
-3388.29 452.668 3810.11 
-3388.2 452.151 3803.83 
-3388.22 451.924 3803.81 
-3388.12 452.629 3803.99 
-3388.18 452.353 3803.82 
-3388.3 451.609 3803.51 
-3388.42 450.314 3804.35 
-3388.49 450.045 3804.25 
-3388.54 449.965 3804.39 
-3388.58 449.92 3804.55 
-3388.36 451.185 3803.41 
-3388.38 450.977 3803.41 
-3388.3 451.03 3803.81 
-3388.37 451.317 3803.28 
-3388.21 451.029 3804.27 
-3388.27 450.794 3804.11 
-3388.31 450.563 3803.99 
-3388.37 450.415 3804.17 
-3388.67 449.62 3804.44 
-3388.73 449.546 3804.58 
-3388.77 449.477 3804.72 
-3388.81 449.4 3804.86 
-3388.86 449.321 3805 
-3388.89 449.256 3805.13 
-3388.96 449.196 3805.27 
-3388.97 449.123 3805.37 
-3389.02 449.053 3805.51 
-3389.06 449.044 3805.99 
-3389.07 448.981 3805.65 
-3389.1 448.902 3805.78 
-3387.96 452.942 3808.12 
-3387.95 452.929 3807.97 
-3387.99 452.777 3807.9 
-3387.98 452.768 3807.75 
-3387.97 452.728 3807.56 
-3387.93 452.785 3807.38 
-3387.88 452.961 3807.27 
-3387.79 452.807 3806.75 
-3387.71 452.884 3806.49 
-3387.61 452.66 3805.88 
-3387.54 452.846 3804.6 
-3387.46 452.777 3804.9 
-3387.46 453.114 3804.84 
-3387.57 452.941 3804.53 
-3387.48 452.68 3805.11 
-3388.08 453.936 3804.41 
-3388.1 453.766 3804.27 
-3388.13 453.577 3804.09 
-3388.09 453.531 3804.2 
-3388.14 453.375 3803.96 
-3388.05 453.315 3804.25 
-3387.84 454.384 3805.3 
-3388.01 454.266 3804.76 
-3388.06 454.092 3804.51 
-3387.74 453.618 3804.58 
-3387.73 453.796 3804.71 
-3387.77 453.974 3804.77 
-3387.81 454.188 3804.94 
-3387.83 453.24 3804.21 
-3387.82 453.435 3804.34 
-3387.99 453.194 3804.41 
-3388.03 453.016 3804.27 
-3388.11 452.79 3803.96 
-3389.15 448.832 3805.92 
-3389.29 448.636 3806.71 
-3389.27 448.623 3806.32 
-3389.31 448.554 3806.45 
-3389.27 448.984 3806.06 
-3389.33 448.898 3806.24 
-3389.4 448.842 3806.43 
-3389.39 448.364 3806.9 
-3389.41 448.325 3807.16 
-3389.37 448.463 3807.31 
-3389.35 448.584 3807.66 
-3389.35 448.649 3808.08 
-3389.34 448.732 3808.51 
-3389.25 448.989 3808.37 
-3389.21 449.113 3808.29 
-3389.3 448.809 3808.23 
-3389.14 449.347 3808.26 
-3389.18 449.193 3808.04 
-3389.11 449.444 3808.08 
-3389.07 449.532 3807.81 
-3389.01 449.76 3808.07 
-3389.03 449.647 3807.61 
-3389.01 449.848 3808.72 
-3388.95 450.069 3809.5 
-3388.87 450.385 3810.39 
-3388.89 450.527 3810.96 
-3388.88 450.254 3809.6 
-3388.9 450.783 3811.3 
-3388.88 451.108 3811.51 
-3388.88 451.348 3811.8 
-3388.23 452.567 3809.63 
-3321.82 479.269 3820.46 
-3321.86 479.34 3820.35 
-3321.99 480.463 3821.33 
-3322 480.558 3821.22 
-3322.45 497.385 3880.66 
-3322.09 497.39 3880.79 
-3322.92 497.606 3881.09 
-3323.39 497.791 3881.42 
-3323.78 498.003 3881.86 
-3324.2 498.028 3881.78 
-3342.22 471.41 3831.16 
-3342.13 471.123 3830.56 
-3341.75 470.95 3830.16 
-3341.84 470.945 3830.21 
-3342.07 471.023 3830.44 
-3342.54 471.11 3831 
-3343.68 471.508 3832.55 
-3343.38 471.606 3832.57 
-3342.96 471.692 3832.49 
-3342.43 471.663 3832.05 
-3342.89 471.535 3832.05 
-3343.12 471.564 3832.28 
-3344.42 481.327 3866.8 
-3344.99 481.538 3866.14 
-3346.38 482.095 3865.7 
-3347.46 482.38 3865.23 
-3346.96 482.323 3868.13 
-3346.33 481.309 3868.75 
-3348.82 483.771 3868.3 
-3349.12 483.884 3867.49 
-3349.21 483.983 3867.83 
-3347.45 482.347 3868.68 
-3348.42 483.386 3868.72 
-3349.24 484.043 3869.08 
-3349.54 484.163 3868.19 
-3368.22 479.557 3870.65 
-3367.16 479.978 3869.12 
-3366.22 480.177 3868.87 
-3370.11 480.408 3870.12 
-3368.94 480.316 3871.05 
-3354.6 484.605 3883.12 
-3354.4 484.412 3882.85 
-3353.93 484.326 3882.47 
-3353.8 484.18 3882.72 
-3354.01 484.162 3883.73 
-3354.78 484.555 3885.29 
-3355 485.785 3885.85 
-3356.58 493.684 3893.69 
-3357.05 495.687 3895.3 
-3355.6 490.792 3891.18 
-3354.82 486.363 3885.45 
-3354.97 486.747 3885.98 
-3354.91 486.517 3885.49 
-3354.81 486.338 3885.3 
-3355.1 486.949 3886.42 
-3354.79 488.891 3888.71 
-3355.23 487.195 3886.9 
-3354.75 489.93 3889.89 
-3355.99 490.901 3891.49 
-3357.73 497.647 3897.11 
-3345.71 481.652 3867.26 
-3345.83 481.623 3866.63 
-3346.97 482.105 3866 
-3349.86 484.201 3867.21 
-3351.03 490.353 3874.57 
-3350.83 490.66 3874.32 
-3351.72 489.425 3875.47 
-3351.48 489.75 3875.16 
-3351.24 490.082 3874.85 
-3352.99 486.998 3876.89 
-3353.17 486.783 3877.76 
-3352.79 487.575 3876.71 
-3352.58 488.083 3876.52 
-3352.16 488.779 3876.02 
-3351.94 489.114 3875.75 
-3352.41 488.508 3876.38 
-3350.61 490.889 3874.01 
-3350.45 491.032 3873.76 
-3353.79 487.63 3875.83 
-3353.72 487.521 3876.12 
-3353.64 487.43 3876.34 
-3353.53 487.194 3876.45 
-3353.3 486.816 3876.82 
-3353.43 487.086 3876.69 
-3353.93 488.264 3874.74 
-3354 488.318 3875.05 
-3353.94 488.097 3875.39 
-3353.89 487.908 3875.75 
-3353.26 486.821 3877.23 
-3353.69 488.47 3874.01 
-3352.57 487.453 3872.48 
-3353.95 488.534 3874.44 
-3350.76 485.188 3870.36 
-3350.18 491.492 3872.53 
-3350.25 491.42 3871.87 
-3350.29 491.432 3871.2 
-3350.17 491.423 3873.21 
-3350.25 491.414 3873.54 
-3350.32 491.48 3870.48 
-3350.36 491.539 3869.71 
-3350.49 491.177 3869.42 
-3350.56 491.079 3868.76 
-3350.72 491.333 3866.3 
-3350.67 491.157 3867.13 
-3350.78 491.49 3865.47 
-3350.83 491.688 3864.57 
-3350.94 491.477 3864.45 
-3351.04 491.394 3863.82 
-3350.5 491.386 3868.24 
-3350.56 491.348 3867.49 
-3351.73 490.319 3864.95 
-3351.7 490.049 3865.02 
-3351.79 489.686 3865.29 
-3351.78 489.195 3865.47 
-3351.75 488.619 3865.66 
-3351.62 488.207 3865.64 
-3350.5 487.278 3865.53 
-3351.59 487.731 3865.84 
-3351.28 487.513 3865.82 
-3351.02 487.408 3865.74 
-3350.75 487.253 3865.7 
-3349.7 484.359 3866.01 
-3351.19 491.433 3863.81 
-3351.35 491.204 3864.1 
-3351.51 490.97 3864.42 
-3351.66 490.692 3864.7 
-3319.37 496.717 3886.53 
-3318.35 497.008 3886 
-3318 497.121 3885.73 
-3317.71 497.214 3885.5 
-3317.52 497.196 3884.52 
-3317.7 497.039 3883.82 
-3317.47 497.084 3882.91 
-3318.56 496.962 3886.23 
-3318.93 497.177 3886.83 
-3318.64 497.121 3886.53 
-3319.07 497.174 3886.92 
-3317.4 497.169 3882.9 
-3317.39 497.294 3882.53 
-3317.72 497.455 3882.8 
-3318.1 497.615 3883.11 
-3318.59 497.761 3883.33 
-3319.27 497.692 3882.84 
-3319.79 497.605 3882.37 
-3320.36 497.711 3882.44 
-3320.84 497.612 3881.95 
-3321.83 497.56 3881.38 
-3321.43 497.726 3882.03 
-3350.4 485.582 3866.45 
-3350.51 487.047 3865.73 
-3356.97 492.601 3893.22 
-3356.52 490.701 3891.69 
-3355.4 490.262 3890.67 
-3354.92 488.851 3888.76 
-3355.06 486.831 3885.76 
-3354.91 486.503 3885.28 
-3354.79 486.279 3885 
-3354.5 485.297 3883.37 
-3354.33 485.932 3884.04 
-3354.37 485.675 3884.3 
-3354.62 485.947 3884.69 
-3371.99 480.898 3869.12 
-3371.7 480.864 3869.41 
-3371.31 480.946 3869.87 
-3367.62 479.48 3867.68 
-3373.89 476.408 3862.81 
-3372.11 476.295 3860.3 
-3371.27 476.903 3862.4 
-3370.47 477.681 3865.75 
-3369.9 478.231 3867.09 
-3370.36 478.639 3867.62 
-3370.99 479.171 3867.98 
-3370.08 479.414 3868.42 
-3370.39 479.982 3868.96 
-3384.58 475.604 3852.98 
-3391.9 477.891 3853.29 
-3389.44 477.202 3853.74 
-3388.7 477.228 3854.7 
-3386.39 476.691 3855.25 
-3382.6 474.752 3850.24 
-3379.66 476.091 3854.11 
-3386.93 474.056 3847.28 
-3384.48 475.32 3849.23 
-3381.26 473.763 3847.97 
-3375.88 476.241 3858.51 
-3394.81 478.915 3854.27 
-3392.89 478.388 3854.2 
-3391.79 478.618 3855.67 
-3389.45 478.454 3856.92 
-3384 476.41 3856.21 
-3380.91 474.952 3853.24 
-3377.78 475.342 3855.5 
-3377.77 476.867 3859.91 
-3373.32 479.27 3866.96 
-3372.09 480.002 3868.23 
-3373.9 478.034 3864.4 
-3375.06 477.252 3861.69 
-3388.15 452.583 3809.13 
-3388.12 452.588 3808.88 
-3388.11 452.588 3808.71 
-3388.04 452.82 3808.59 
-3388.03 452.805 3808.41 
-3388.02 452.758 3808.24 
-3324.86 498.765 3888.75 
-3323.34 498.517 3889.84 
-3323.72 498.29 3889.77 
-3326.72 499.257 3886.39 
-3322.5 498.91 3889.83 
-3322.89 498.675 3889.75 
-3321.82 499.974 3890.31 
-3321.53 499.782 3890.26 
-3322.22 500.34 3890.19 
-3321.91 500.289 3890.17 
-3321.78 500.072 3890.14 
-3322.06 498.976 3889.58 
-3321.78 499.297 3889.88 
-3321.47 499.573 3890.05 
-3322.62 500.518 3890.25 
-3325.81 501.158 3890.44 
-3324.92 501.04 3890.47 
-3324.22 501.14 3890.56 
-3323.85 501.036 3890.45 
-3323.54 500.871 3890.41 
-3323.23 500.836 3890.36 
-3322.89 500.816 3890.37 
-3324.05 498.224 3882.39 
-3324.47 498.407 3882.75 
-3324.75 498.602 3883.2 
-3324.95 498.84 3883.81 
-3324.93 499.116 3884.62 
-3324.81 499.365 3885.4 
-3324.91 499.638 3886.07 
-3324.52 499.974 3886.46 
-3324.06 500.35 3886.84 
-3324.1 500.648 3887.08 
-3323.94 500.935 3887.34 
-3324.72 500.911 3887.19 
-3324.85 501.159 3887.37 
-3325.15 501.344 3887.77 
-3327.12 501.061 3888.82 
-3328.68 501.293 3889.82 
-3329.14 501.028 3889.62 
-3327.81 501.279 3890.36 
-3326.8 501.374 3890.48 
-3328.4 500.172 3884.04 
-3326.22 498.574 3886.86 
-3323.91 497.93 3889.13 
-3323.84 497.562 3888.78 
-3323.05 497.57 3888.14 
-3322.5 497.336 3887.63 
-3320.82 497.237 3887.3 
-3321.6 497.414 3887.52 
-3320.01 497.097 3887.11 
-3319.58 497.116 3887.06 
-3319.3 497.33 3887.19 
-3319.28 497.184 3887.03 
-3319.23 497.165 3886.99 
-3323.3 497.849 3888.74 
-3319.18 497.173 3886.97 
-3319.14 497.137 3886.92 
-3395.44 467.527 3817.86 
-3395.44 467.012 3818.07 
-3395.4 466.479 3818.24 
-3395.35 466.556 3818.13 
-3395.3 466.036 3818.28 
-3395.19 468.374 3820.63 
-3395.97 466.28 3819.87 
-3395.84 466.366 3819.43 
-3395.92 466.751 3819.83 
-3395.71 467.447 3819.79 
-3395.52 467.743 3820.14 
-3395.32 468.294 3820.25 
-3395.43 465.859 3818.56 
-3395.57 465.67 3819.08 
-3395.36 465.9 3818.41 
-3395.53 466.068 3818.69 
-3395.64 466.278 3818.88 
-3395.73 466.435 3819.03 
-3395.41 468.834 3819.36 
-3395.49 468.12 3819.84 
-3395.55 468.708 3819.02 
-3395.81 469.025 3818.22 
-3396.05 469.088 3817.5 
-3395.99 468.942 3817.76 
-3395.91 468.831 3817.6 
-3395.83 468.73 3817.59 
-3395.66 468.246 3817.8 
-3395.59 467.609 3818.02 
-3395.54 467.533 3817.99 
-3395.49 467.425 3817.96 
-3388.35 452.357 3810.07 
-3388.7 451.569 3810.95 
-3388.58 451.786 3810.54 
-3388.82 451.329 3811.33 
-3388.46 451.999 3810.12 
-3388.38 452.206 3809.96 
-3388.32 452.01 3803.28 
-3388.32 451.823 3803.36 
-3388.25 452.337 3803.49 
-3388.21 452.581 3803.59 
-3388.37 451.541 3803.21 
-3388.44 450.133 3804.08 
-3388.61 449.76 3804.18 
-3388.55 449.828 3804.04 
-3388.65 449.692 3804.31 
-3388.36 451.067 3803.35 
-3388.38 450.76 3803.42 
-3388.35 450.854 3803.44 
-3388.37 450.717 3803.57 
-3388.35 451.332 3803.29 
-3388.4 450.45 3803.53 
-3388.38 450.305 3803.78 
-3388.4 450.201 3803.95 
-3388.78 449.703 3804.55 
-3388.87 449.677 3804.75 
-3388.9 449.554 3804.9 
-3388.97 449.483 3805.09 
-3389.01 449.384 3805.23 
-3389.1 449.4 3805.45 
-3389.09 449.236 3805.51 
-3389.17 449.196 3805.72 
-3389.21 449.06 3805.87 
-3388.02 452.704 3808.08 
-3388.04 452.579 3807.91 
-3388.02 452.593 3807.73 
-3388.03 452.5 3807.58 
-3387.95 452.538 3807.24 
-3387.86 452.688 3806.98 
-3387.77 452.497 3806.46 
-3387.68 452.551 3806.14 
-3387.57 452.561 3805.53 
-3387.84 452.742 3803.97 
-3388.03 452.916 3803.7 
-3387.77 452.643 3804.13 
-3387.92 453.074 3803.97 
-3387.51 452.583 3804.95 
-3387.69 452.595 3804.3 
-3388.13 453.923 3804.08 
-3388.14 453.756 3803.97 
-3388.17 453.58 3803.83 
-3388.19 453.398 3803.7 
-3388.21 453.224 3803.57 
-3388.18 453.18 3803.76 
-3388.1 453.141 3804.03 
-3387.9 454.472 3805.13 
-3388.06 454.365 3804.63 
-3388.09 454.09 3804.23 
-3387.89 454.295 3804.78 
-3388.1 452.977 3803.96 
-3388.19 452.815 3803.61 
-3389.35 448.472 3806.59 
-3389.4 448.704 3806.51 
-3389.45 448.658 3806.69 
-3389.35 449.187 3806.14 
-3389.41 449.114 3806.32 
-3389.48 449.046 3806.5 
-3389.55 449.032 3806.7 
-3389.5 448.855 3806.7 
-3389.38 448.371 3806.78 
-3389.35 448.509 3806.88 
-3389.33 448.6 3807.25 
-3389.31 448.733 3807.75 
-3389.22 449.022 3807.85 
-3389.27 448.893 3807.98 
-3389.15 449.27 3807.76 
-3389.18 449.116 3807.57 
-3389.11 449.377 3807.63 
-3389.1 449.398 3807.3 
-3389.07 449.535 3807.39 
-3389 449.79 3807.48 
-3388.97 449.876 3807.92 
-3389.07 449.723 3807.38 
-3388.95 449.998 3808.7 
-3388.89 450.162 3808.81 
-3388.84 450.69 3810.73 
-3388.8 450.542 3810.17 
-3388.82 450.411 3809.54 
-3388.83 450.31 3808.72 
-3388.84 450.965 3811.08 
-3388.79 451.169 3810.9 
-3388.26 452.393 3809.54 
-3321.99 480.49 3821 
-3321.88 479.31 3820.17 
-3322.46 497.612 3881.27 
-3322.82 497.812 3881.7 
-3323.26 497.983 3882.02 
-3323.44 498.206 3882.59 
-3342.41 471.356 3831.21 
-3342.33 471.109 3830.7 
-3341.72 470.851 3830.06 
-3342.04 470.94 3830.37 
-3342.36 471.041 3830.68 
-3341.88 470.841 3830.21 
-3343.78 471.359 3832.3 
-3343.7 471.413 3832.29 
-3342.72 471.489 3831.82 
-3343.14 471.337 3831.73 
-3343.35 471.398 3832.03 
-3345.52 481.579 3865.64 
-3346.07 481.642 3865.18 
-3347.26 482.072 3864.84 
-3347.07 482.007 3865.43 
-3349.9 484.298 3867.66 
-3349.92 484.426 3868.36 
-3350.26 484.558 3868.9 
-3350.55 485.495 3866.72 
-3350.72 485.401 3867.02 
-3350.9 485.325 3867.35 
-3367.08 479.775 3868.15 
-3370.21 480.25 3869.45 
-3354.37 484.769 3883.07 
-3354.19 484.502 3882.81 
-3353.72 484.349 3882.67 
-3353.84 484.505 3882.59 
-3353.82 484.309 3883.59 
-3354.25 485.01 3884.9 
-3354.59 485.973 3885.38 
-3354.69 486.124 3885.27 
-3354.72 486.17 3885.18 
-3354.97 486.622 3885.53 
-3354.85 486.393 3885.25 
-3354.69 486.094 3885.01 
-3354.75 486.198 3885 
-3346.03 481.573 3866.09 
-3351.06 490.58 3874.71 
-3350.83 490.929 3874.42 
-3350.63 491.098 3874.12 
-3351.79 489.605 3875.67 
-3351.55 489.878 3875.35 
-3351.31 490.205 3875.03 
-3353 487.199 3876.95 
-3353.2 486.878 3877.69 
-3353.22 486.97 3877.6 
-3353 487.484 3877.06 
-3352.78 487.86 3876.8 
-3352.61 488.342 3876.68 
-3352.01 489.255 3875.94 
-3352.22 488.915 3876.19 
-3352.38 488.818 3876.46 
-3350.41 491.366 3873.82 
-3353.83 487.77 3876.06 
-3353.76 487.692 3876.28 
-3353.67 487.569 3876.49 
-3353.55 487.34 3876.6 
-3353.36 487.008 3876.9 
-3353.49 487.29 3876.83 
-3354.07 488.55 3874.72 
-3354.11 488.617 3874.99 
-3354.05 488.398 3875.33 
-3353.99 488.192 3875.65 
-3353.93 488.011 3876.01 
-3353.29 486.955 3877.19 
-3353.73 488.599 3873.87 
-3351.25 485.699 3870.48 
-3352.52 487.527 3872.1 
-3354.11 488.803 3874.42 
-3350.13 491.845 3871.65 
-3350.04 491.831 3873.11 
-3350.07 491.9 3872.35 
-3350.18 491.855 3870.86 
-3350.18 491.733 3873.54 
-3350.22 491.885 3870.06 
-3350.41 491.544 3868.89 
-3350.28 491.902 3869.21 
-3350.6 491.545 3866.54 
-3350.66 491.742 3865.57 
-3350.73 491.925 3864.61 
-3350.87 492.098 3863.79 
-3350.93 491.896 3863.74 
-3351.02 491.686 3863.67 
-3350.33 491.9 3868.34 
-3350.43 491.718 3867.74 
-3350.48 491.712 3867 
-3351.84 490.522 3865.03 
-3351.99 490.101 3865.37 
-3351.88 489.95 3865.3 
-3351.94 489.547 3865.55 
-3351.89 489.031 3865.68 
-3351.9 488.555 3865.87 
-3351.76 488.079 3865.87 
-3351.68 487.496 3866.08 
-3351.43 487.414 3865.99 
-3351.18 487.131 3866.07 
-3350.93 487.098 3865.94 
-3350.76 486.717 3866.16 
-3351.28 491.713 3864.1 
-3351.52 491.434 3864.5 
-3351.73 491.053 3864.88 
-3318.1 497.164 3886.07 
-3317.85 497.229 3885.85 
-3317.54 497.33 3885.62 
-3317.29 497.366 3885.09 
-3317.3 497.293 3883.88 
-3318.23 497.244 3886.36 
-3318.74 497.546 3887.14 
-3318.42 497.495 3886.83 
-3318.87 497.592 3887.29 
-3317.24 497.35 3883.37 
-3317.16 497.487 3883.29 
-3317.4 497.651 3883.51 
-3317.91 497.804 3883.74 
-3318.43 497.954 3883.96 
-3319.12 497.873 3883.44 
-3319.81 497.833 3883.03 
-3320.95 497.841 3882.57 
-3320.35 497.925 3883.07 
-3322.06 497.757 3881.86 
-3321.76 497.936 3882.51 
-3354.25 485.524 3883.3 
-3354.16 485.856 3883.92 
-3354.23 485.543 3884.21 
-3354.39 485.511 3884.55 
-3371.5 480.016 3868.64 
-3372.92 476.157 3858.81 
-3372.73 476.433 3861.28 
-3373.27 476.253 3861.14 
-3373.55 476.097 3858.63 
-3372.4 477.336 3863.59 
-3371.26 477.934 3866.08 
-3371.88 478.15 3865.99 
-3371.79 478.893 3867.3 
-3378.41 474.224 3850.98 
-3382.43 475.237 3849.59 
-3377.51 475.904 3854.19 
-3387.65 472.625 3845.05 
-3384.47 472.777 3845.84 
-3379.17 473.128 3846.88 
-3377.23 473.824 3848.99 
-3375.41 474.943 3854.07 
-3376.11 476.041 3857.71 
-3375.72 476.472 3859.14 
-3373.17 477.532 3863.38 
-3374.48 476.824 3860.53 
-3388.2 452.399 3809.05 
-3388.17 452.374 3808.77 
-3388.14 452.444 3808.58 
-3388.08 452.647 3808.55 
-3388.08 452.591 3808.4 
-3388.08 452.547 3808.24 
-3324.91 498.44 3888.51 
-3323.06 498.329 3889.3 
-3323.41 498.181 3889.33 
-3322.67 498.414 3889.11 
-3322.35 498.669 3889.28 
-3321.53 499.908 3890.17 
-3321.21 499.772 3890.07 
-3322.41 500.681 3890.35 
-3322.1 500.637 3890.35 
-3321.74 500.566 3890.35 
-3321.55 500.24 3890.18 
-3321.36 499.965 3890.05 
-3321.57 498.973 3889.23 
-3321.91 498.661 3888.93 
-3321.37 499.294 3889.6 
-3321.02 499.562 3889.8 
-3326.18 501.6 3890.54 
-3325.17 501.563 3890.56 
-3324.61 501.296 3890.5 
-3324.12 501.259 3890.51 
-3323.87 501.364 3890.59 
-3323.57 501.129 3890.49 
-3323.28 501.169 3890.54 
-3322.96 501.168 3890.58 
-3322.63 500.963 3890.49 
-3323.92 498.435 3883.06 
-3324.28 498.673 3883.6 
-3324.5 498.921 3884.23 
-3324.41 499.162 3884.98 
-3324.14 499.326 3885.57 
-3324.35 499.522 3886.02 
-3324.05 499.838 3886.43 
-3323.61 500.194 3886.79 
-3323.05 500.544 3887.17 
-3323.33 500.699 3887.25 
-3323.09 500.987 3887.52 
-3323.03 501.258 3887.75 
-3323.85 501.234 3887.6 
-3324.06 501.439 3887.74 
-3324.83 501.43 3888.53 
-3326.28 501.221 3888.99 
-3328.3 501.595 3890.03 
-3327.32 501.698 3890.55 
-3322.71 497.741 3887.98 
-3322.94 498.025 3888.64 
-3322.01 497.726 3887.87 
-3321.06 497.622 3887.72 
-3320.19 497.461 3887.51 
-3319.71 497.538 3887.5 
-3319.37 497.733 3887.6 
-3319.05 497.653 3887.43 
-3318.98 497.631 3887.38 
-3318.91 497.64 3887.36 
-3395.51 467.026 3818.15 
-3395.47 466.51 3818.3 
-3395.9 466.639 3819.42 
-3395.77 466.702 3818.96 
-3395.93 466.987 3819.45 
-3395.8 467.522 3819.39 
-3395.61 468.041 3819.46 
-3395.54 466.537 3818.41 
-3395.64 466.739 3818.53 
-3395.67 468.599 3818.7 
-3395.78 467.886 3819.04 
-3395.81 468.453 3818.37 
-3395.94 468.798 3817.69 
-3395.87 468.333 3818.03 
-3395.71 468.276 3817.86 
-3395.76 468.292 3817.91 
-3395.66 467.603 3818.11 
-3395.62 467.253 3818.2 
-3395.57 467.079 3818.2 
-3388.6 451.641 3810.38 
-3388.72 451.418 3810.81 
-3388.48 451.853 3809.95 
-3388.36 452.037 3809.49 
-3388.32 452.193 3809.55 
-3388.35 452.08 3803.08 
-3388.36 451.723 3803.15 
-3388.34 451.865 3803.14 
-3388.32 452.32 3803.13 
-3388.19 452.638 3803.37 
-3388.34 451.511 3803.26 
-3388.46 449.976 3803.78 
-3388.53 449.902 3803.91 
-3388.77 449.852 3804.45 
-3388.66 449.958 3804.22 
-3388.61 449.941 3804.08 
-3388.32 450.921 3803.48 
-3388.33 451.133 3803.38 
-3388.35 450.635 3803.52 
-3388.38 450.538 3803.49 
-3388.31 450.708 3803.56 
-3388.31 451.29 3803.38 
-3388.38 450.317 3803.57 
-3388.4 450.182 3803.57 
-3388.42 450.056 3803.67 
-3388.85 449.893 3804.64 
-3388.91 449.908 3804.81 
-3388.98 449.725 3804.97 
-3389.05 449.666 3805.17 
-3389.11 449.586 3805.36 
-3389.22 449.583 3805.61 
-3389.21 449.41 3805.69 
-3389.31 449.419 3805.91 
-3389.29 449.246 3805.95 
-3388.08 452.474 3808.08 
-3388.08 452.406 3807.77 
-3388.1 452.373 3807.95 
-3388.07 452.225 3807.55 
-3387.98 452.28 3807.17 
-3387.87 452.203 3806.66 
-3387.84 452.379 3806.68 
-3387.72 452.347 3806.05 
-3387.62 452.462 3805.58 
-3388.26 452.833 3803.27 
-3388.26 453.052 3803.38 
-3388.23 452.415 3803.2 
-3388.28 452.476 3803.1 
-3387.56 452.498 3804.8 
-3387.82 452.482 3804.04 
-3388.23 452.999 3803.54 
-3387.98 454.538 3804.89 
-3388.09 454.4 3804.39 
-3388.11 454.235 3804.25 
-3389.42 448.523 3806.74 
-3389.45 448.838 3806.8 
-3389.39 448.679 3806.81 
-3389.41 449.389 3806.14 
-3389.49 449.341 3806.36 
-3389.55 449.271 3806.53 
-3389.6 449.228 3806.72 
-3389.56 449.239 3806.82 
-3389.5 449.037 3806.81 
-3389.31 448.685 3806.91 
-3389.29 448.732 3807.3 
-3389.26 448.867 3807.56 
-3389.22 448.963 3807.33 
-3389.14 449.23 3807.28 
-3389.19 449.091 3807.15 
-3389.17 449.415 3807.21 
-3389.14 449.596 3807.28 
-3388.94 449.976 3807.16 
-3388.86 450.021 3807.31 
-3388.89 450.065 3808.01 
-3389.13 449.814 3807.29 
-3388.83 450.225 3807.92 
-3388.75 450.74 3810.19 
-3388.74 450.616 3809.5 
-3388.79 450.905 3810.62 
-3388.77 450.473 3808.89 
-3388.76 450.404 3808.02 
-3388.73 451.024 3810.31 
-3388.71 451.274 3810.48 
-3321.99 480.49 3821 
-3322.08 479.598 3820.37 
-3321.88 479.31 3820.17 
-3321.97 480.189 3820.51 
-3321.97 481.128 3821.28 
-3321.95 479.837 3820.32 
-3322.38 497.925 3882.21 
-3322.85 498.074 3882.46 
-3322.81 498.281 3883.08 
-3323.31 498.404 3883.22 
-3342.64 471.282 3831.23 
-3341.92 470.836 3830.2 
-3342.21 470.924 3830.49 
-3342.86 471.101 3831.04 
-3342.84 471.199 3831.2 
-3342.29 470.878 3830.62 
-3341.71 470.722 3829.97 
-3344.23 471.282 3832.22 
-3343.97 471.212 3831.84 
-3343.63 471.233 3831.73 
-3343.77 471.125 3831.45 
-3343.43 471.178 3831.44 
-3346.48 481.511 3864.92 
-3346.23 481.524 3865.52 
-3350.73 484.855 3868.27 
-3351.19 484.961 3868.78 
-3351.26 485.367 3869.81 
-3351.16 485.359 3867.6 
-3351.09 486.359 3866.68 
-3354.1 484.675 3882.91 
-3354.13 485.076 3883.03 
-3353.65 484.507 3882.88 
-3353.72 484.664 3882.68 
-3353.87 484.551 3884.21 
-3354.29 485.308 3884.75 
-3354.25 485.232 3884.56 
-3350.92 491.027 3874.64 
-3351.16 490.655 3874.93 
-3350.69 491.384 3874.36 
-3350.6 491.359 3874.17 
-3350.4 491.619 3873.91 
-3351.92 489.648 3875.93 
-3351.71 490.062 3875.72 
-3351.59 490.054 3875.49 
-3351.38 490.349 3875.21 
-3353.24 487.076 3877.43 
-3353.27 487.205 3877.44 
-3353.06 487.671 3877.25 
-3352.86 487.964 3876.99 
-3352.53 488.78 3876.71 
-3352.73 488.386 3876.94 
-3352.16 489.254 3876.23 
-3352.32 489.236 3876.51 
-3350.19 491.936 3873.64 
-3353.87 487.95 3876.25 
-3353.77 487.806 3876.47 
-3353.62 487.551 3876.7 
-3353.39 487.157 3877.06 
-3353.61 487.618 3876.88 
-3353.5 487.406 3877 
-3354.18 488.847 3874.68 
-3354.23 488.919 3874.97 
-3354.16 488.683 3875.26 
-3354.11 488.502 3875.61 
-3354.03 488.265 3875.9 
-3353.99 488.202 3876.15 
-3353.93 488.872 3873.93 
-3352.74 487.846 3872.1 
-3351.67 485.959 3869.94 
-3354.24 489.107 3874.31 
-3349.97 492.301 3871.93 
-3350.04 492.238 3871.17 
-3349.93 492.262 3872.67 
-3349.97 492.159 3873.32 
-3350.09 492.256 3870.39 
-3350.14 492.25 3869.59 
-3350.19 492.256 3868.77 
-3350.55 491.92 3865.84 
-3350.62 492.126 3864.75 
-3350.74 492.323 3863.82 
-3351.14 492.146 3864.22 
-3351.36 491.863 3864.4 
-3350.33 492.107 3867.42 
-3350.23 492.309 3868.01 
-3350.43 491.99 3866.51 
-3352.02 490.414 3865.37 
-3351.96 490.851 3865.32 
-3352.18 490.16 3865.67 
-3352.21 489.782 3865.8 
-3352.08 489.702 3865.66 
-3352.03 489.165 3865.81 
-3351.85 487.829 3866.08 
-3352.07 488.741 3866.02 
-3351.97 488.252 3866.08 
-3351.47 486.919 3866.43 
-3351.72 486.909 3866.61 
-3351.88 487.375 3866.36 
-3351.37 486.327 3866.89 
-3351.7 491.519 3864.94 
-3351.92 491.297 3865.35 
-3317.76 497.341 3886.06 
-3317.53 497.395 3885.88 
-3317.45 497.398 3885.69 
-3317.09 497.592 3885.44 
-3317.16 497.495 3885.27 
-3317.17 497.441 3884.3 
-3318.01 497.684 3886.73 
-3317.85 497.494 3886.36 
-3318.54 497.885 3887.41 
-3318.18 497.904 3887.15 
-3318.64 498.043 3887.67 
-3317.06 497.56 3884.28 
-3316.96 497.69 3884.17 
-3317.3 497.866 3884.18 
-3317.83 498.021 3884.4 
-3318.34 498.158 3884.59 
-3319.01 498.068 3884.05 
-3319.65 498.027 3883.66 
-3320.81 498.076 3883.32 
-3321.3 498.035 3882.99 
-3320.19 498.129 3883.73 
-3321.78 498.179 3883.21 
-3322.29 498.122 3882.83 
-3353.98 485.735 3883.21 
-3353.99 485.866 3883.7 
-3354.06 485.549 3884 
-3354.11 485.253 3884.25 
-3373.13 475.851 3856.44 
-3373.02 475.784 3856.79 
-3374.11 476.431 3859.7 
-3373.91 475.978 3857.44 
-3375.04 474.784 3853.08 
-3378.11 475.393 3851.87 
-3382.95 474.277 3847.34 
-3387.42 471.755 3843.73 
-3382.63 471.795 3844.58 
-3378.29 473.222 3846.62 
-3376.58 473.752 3847.68 
-3374.59 474.585 3851.88 
-3374.49 475.514 3856.08 
-3374.48 475.858 3857.08 
-3388.25 452.223 3809.04 
-3388.25 452.114 3808.85 
-3388.19 452.242 3808.61 
-3388.14 452.385 3808.42 
-3388.14 452.338 3808.25 
-3322.25 498.361 3888.66 
-3322.57 498.082 3888.42 
-3320.9 499.847 3889.95 
-3322.3 501.031 3890.57 
-3321.94 500.895 3890.52 
-3321.25 500.714 3890.38 
-3321.13 500.421 3890.24 
-3320.98 500.131 3890.1 
-3320.71 498.908 3889.05 
-3321.1 498.611 3888.76 
-3321.53 498.327 3888.48 
-3320.68 499.267 3889.42 
-3320.52 499.678 3889.73 
-3326.68 501.998 3890.64 
-3325.55 501.903 3890.65 
-3324.4 501.967 3890.77 
-3324.26 501.597 3890.66 
-3323.62 501.518 3890.71 
-3324 501.699 3890.77 
-3323.28 501.486 3890.73 
-3322.64 501.288 3890.68 
-3322.98 501.503 3890.77 
-3323.62 498.598 3883.66 
-3323.88 498.809 3884.17 
-3324.01 499.009 3884.7 
-3323.67 499.162 3885.29 
-3323.56 499.367 3885.93 
-3323.62 499.66 3886.35 
-3323.18 500.009 3886.71 
-3322.74 500.352 3887.06 
-3322.19 500.713 3887.44 
-3322.34 500.95 3887.61 
-3322.19 501.252 3887.88 
-3322.13 501.536 3888.12 
-3322.96 501.544 3888 
-3323.62 501.61 3888.31 
-3324.86 501.661 3889.53 
-3326.03 501.522 3889.59 
-3327.77 501.865 3890.24 
-3321.17 497.957 3888.08 
-3321.95 498.035 3888.19 
-3320.37 497.82 3887.89 
-3319.9 497.891 3887.89 
-3319.58 498.083 3887.99 
-3319.29 498.297 3888.12 
-3319.06 498.081 3887.85 
-3318.78 498.079 3887.77 
-3318.68 498.087 3887.75 
-3395.87 466.977 3819.07 
-3395.68 467.082 3818.42 
-3395.77 467.108 3818.67 
-3395.92 467.314 3819.04 
-3395.89 467.694 3818.66 
-3395.8 468.326 3817.96 
-3395.78 467.695 3818.31 
-3395.71 467.505 3818.25 
-3388.62 451.495 3810.24 
-3388.5 451.706 3809.79 
-3388.39 451.893 3809.37 
-3388.33 452.217 3803.03 
-3388.32 452.008 3803.13 
-3388.32 451.669 3803.24 
-3388.3 451.806 3803.23 
-3388.3 451.471 3803.33 
-3388.41 450.116 3803.71 
-3388.4 450.174 3803.77 
-3388.38 450.242 3803.82 
-3388.62 450.074 3804.24 
-3388.3 451.083 3803.47 
-3388.27 450.875 3803.57 
-3388.35 450.388 3803.6 
-3388.32 450.472 3803.63 
-3388.26 450.657 3803.66 
-3388.28 450.496 3803.67 
-3388.27 451.328 3803.43 
-3388.26 451.112 3803.51 
-3388.63 450.129 3804.35 
-3389.02 449.88 3805.06 
-3388.73 450.123 3804.59 
-3389.12 449.837 3805.3 
-3389.22 449.767 3805.52 
-3389.29 449.794 3805.7 
-3389.34 449.61 3805.87 
-3389.44 449.574 3806.12 
-3388.15 452.23 3808.1 
-3388.13 452.224 3807.87 
-3388.15 452.037 3807.72 
-3388.05 451.921 3807.18 
-3387.97 452.043 3806.95 
-3387.86 452.107 3806.36 
-3387.75 452.259 3805.98 
-3387.63 452.388 3805.35 
-3388.24 452.334 3803.19 
-3388.3 452.15 3803.12 
-3387.65 452.407 3804.48 
-3388.1 452.317 3803.47 
-3389.42 449.029 3806.88 
-3389.37 448.859 3806.88 
-3389.53 449.541 3806.35 
-3389.62 449.507 3806.58 
-3389.66 449.426 3806.73 
-3389.6 449.441 3806.83 
-3389.52 449.437 3806.9 
-3389.48 449.229 3806.88 
-3389.26 448.82 3807.05 
-3389.31 448.916 3806.94 
-3389.25 449 3807.03 
-3389.21 449.289 3807.14 
-3389.28 449.208 3807.06 
-3389.23 449.546 3807.19 
-3389.22 449.737 3807.25 
-3388.89 450.101 3806.85 
-3388.69 450.277 3806.62 
-3388.75 450.233 3807.16 
-3388.98 450.068 3806.82 
-3388.68 450.405 3807.17 
-3388.69 450.833 3809.81 
-3388.71 450.594 3808.57 
-3388.66 450.752 3809.04 
-3388.65 450.605 3807.72 
-3388.62 450.56 3807.24 
-3388.66 451.095 3809.91 
-3388.63 451.34 3810 
-3321.97 481.128 3821.28 
-3321.98 481.232 3821.14 
-3321.95 479.837 3820.32 
-3321.95 479.837 3820.32 
-3322.02 479.468 3820 
-3321.9 479.179 3819.84 
-3321.88 480.26 3820.19 
-3321.98 481.232 3821.14 
-3321.89 480.914 3820.67 
-3321.93 480.137 3820.43 
-3322.29 498.349 3883.49 
-3322.87 498.513 3883.73 
-3342 470.788 3830.24 
-3342.6 470.884 3830.58 
-3342.75 470.99 3830.79 
-3343.1 471.013 3831.38 
-3341.71 470.648 3829.94 
-3341.8 470.669 3830.01 
-3344.54 471.15 3831.73 
-3344.93 471.105 3831.77 
-3344.42 471.168 3831.91 
-3344.07 471.074 3831.45 
-3343.87 470.945 3830.92 
-3343.5 470.987 3830.88 
-3343.51 470.857 3830.56 
-3351.44 485.23 3868.11 
-3351.76 485.31 3868.42 
-3351.46 485.655 3867.53 
-3353.95 484.92 3882.94 
-3353.85 485.348 3882.97 
-3353.64 484.876 3883.33 
-3353.73 484.69 3883.78 
-3353.75 484.909 3882.85 
-3353.98 484.94 3884.29 
-3351.01 491.112 3874.84 
-3350.74 491.522 3874.51 
-3351.23 490.796 3875.12 
-3350.48 491.759 3874.13 
-3350.26 492.038 3873.83 
-3352.06 489.645 3876.19 
-3351.85 490.054 3875.98 
-3351.64 490.431 3875.74 
-3351.46 490.477 3875.42 
-3353.38 487.242 3877.23 
-3353.34 487.35 3877.57 
-3353.44 487.443 3877.38 
-3353.06 488.233 3877.43 
-3353.46 487.494 3877.88 
-3352.7 489.195 3877.13 
-3352.95 488.817 3877.43 
-3352.2 489.745 3876.48 
-3352.56 489.721 3877.05 
-3350.02 492.353 3873.51 
-3353.93 488.167 3876.36 
-3353.83 488.006 3876.54 
-3353.72 487.805 3876.7 
-3353.7 487.874 3876.92 
-3353.6 487.702 3877.08 
-3353.5 487.496 3877.18 
-3354.28 489.107 3874.62 
-3354.34 489.237 3874.79 
-3354.3 489.062 3875.17 
-3354.21 488.801 3875.44 
-3354.2 488.718 3875.77 
-3354.11 488.464 3875.98 
-3354.07 488.431 3876.21 
-3353.62 488.717 3873.2 
-3351.88 485.909 3869.54 
-3352.36 487.656 3870.94 
-3354.16 489.285 3873.79 
-3354.35 489.346 3874.36 
-3349.82 492.709 3872.31 
-3349.9 492.641 3871.43 
-3349.94 492.651 3870.69 
-3349.82 492.564 3873.04 
-3350 492.636 3869.91 
-3350.06 492.618 3869.14 
-3350.1 492.647 3868.34 
-3350.53 492.37 3864.69 
-3350.47 492.234 3865.5 
-3350.64 492.538 3863.84 
-3351.01 492.406 3864.23 
-3351.39 492.158 3864.76 
-3351.57 491.9 3864.87 
-3350.17 492.607 3867.47 
-3350.3 492.349 3866.81 
-3350.37 492.306 3865.97 
-3352.19 490.628 3865.78 
-3352.13 491.09 3865.77 
-3352.36 489.924 3866 
-3352.39 490.357 3866.16 
-3352.34 489.53 3866.13 
-3352.19 489.268 3865.97 
-3352 487.916 3866.3 
-3352.25 489.025 3866.24 
-3352.14 488.493 3866.28 
-3351.75 486.249 3867.21 
-3352.06 486.841 3866.95 
-3352.05 487.714 3866.61 
-3351.88 491.721 3865.4 
-3352.1 491.578 3865.84 
-3317.45 497.594 3886.18 
-3317.29 497.545 3885.9 
-3316.96 497.72 3885.5 
-3317.75 498.073 3887.01 
-3317.53 497.861 3886.58 
-3318.25 498.227 3887.61 
-3317.87 498.337 3887.44 
-3318.39 498.44 3887.98 
-3316.84 497.862 3884.55 
-3316.83 497.865 3885.69 
-3316.79 498.046 3884.95 
-3317.34 498.11 3884.87 
-3317.78 498.274 3885.16 
-3318.94 498.262 3884.64 
-3318.43 498.367 3885.16 
-3319.52 498.236 3884.32 
-3320.67 498.276 3883.96 
-3321.27 498.276 3883.71 
-3320.05 498.341 3884.41 
-3321.76 498.423 3883.93 
-3353.72 485.933 3883.09 
-3353.81 485.812 3883.5 
-3353.91 485.582 3883.79 
-3353.93 485.226 3884.05 
-3372.12 475.108 3854.51 
-3373.51 475.293 3854 
-3372.78 475.15 3854.8 
-3373.64 475.539 3856.12 
-3379.82 474.685 3848.66 
-3387.97 470.672 3842.04 
-3384.37 472.39 3844.25 
-3383.79 470.606 3842.59 
-3379.98 472.259 3844.97 
-3377.17 473.565 3846.59 
-3376.32 473.757 3846.7 
-3374.2 474.313 3850.21 
-3373.7 473.961 3848.81 
-3373.59 475.097 3854.79 
-3388.32 451.917 3808.91 
-3388.24 452.039 3808.58 
-3388.19 452.18 3808.43 
-3388.19 452.138 3808.27 
-3320.42 499.962 3889.79 
-3322.38 501.431 3890.8 
-3322.02 501.241 3890.71 
-3321.38 500.991 3890.51 
-3320.39 500.774 3890.2 
-3320.41 500.483 3890.06 
-3320.38 500.225 3889.9 
-3320.36 498.52 3888.62 
-3320.27 499.429 3889.47 
-3320.27 498.969 3889.03 
-3320.69 498.2 3888.31 
-3320.12 499.779 3889.59 
-3327.55 502.214 3890.48 
-3326.55 502.357 3890.75 
-3325.31 502.229 3890.79 
-3324.32 502.394 3890.95 
-3324.08 502.058 3890.9 
-3323.78 501.892 3890.92 
-3323.43 501.805 3890.91 
-3323.07 501.837 3890.96 
-3322.71 501.651 3890.89 
-3323.27 498.737 3884.21 
-3323.4 498.956 3884.8 
-3323.04 499.161 3885.55 
-3322.81 499.398 3886.22 
-3323.04 499.597 3886.39 
-3322.59 499.91 3886.72 
-3322.25 500.213 3887.03 
-3321.89 500.541 3887.35 
-3321.15 500.813 3887.69 
-3321.46 501.003 3887.8 
-3321.38 501.28 3888.04 
-3321.33 501.572 3888.28 
-3321.21 501.901 3888.58 
-3322.05 501.805 3888.39 
-3323.09 501.717 3888.78 
-3324.09 501.947 3889.78 
-3326.38 502.638 3890.69 
-3327.06 502.472 3890.6 
-3320.09 498.224 3888.26 
-3319.75 498.43 3888.37 
-3319.42 498.752 3888.6 
-3319.1 498.71 3888.47 
-3318.82 498.525 3888.22 
-3318.5 498.49 3888.1 
-3395.83 467.364 3818.67 
-3388.54 451.544 3809.72 
-3388.43 451.701 3809.24 
-3388.28 451.95 3803.21 
-3388.28 451.598 3803.33 
-3388.26 451.751 3803.31 
-3388.39 450.283 3803.92 
-3388.24 450.966 3803.61 
-3388.23 450.758 3803.68 
-3388.24 450.544 3803.8 
-3388.3 450.426 3803.83 
-3388.25 451.487 3803.42 
-3388.23 451.243 3803.53 
-3388.48 450.3 3804.17 
-3388.88 450.056 3804.9 
-3388.42 450.407 3804.14 
-3388.61 450.289 3804.48 
-3388.81 450.164 3804.86 
-3389.05 449.991 3805.27 
-3389.33 449.848 3805.83 
-3389.08 450.038 3805.39 
-3389.45 449.764 3806.08 
-3389.52 449.778 3806.27 
-3388.23 451.985 3808.22 
-3388.18 452.078 3808.01 
-3388.21 451.869 3807.88 
-3388.12 451.774 3807.35 
-3388 451.853 3806.66 
-3387.93 451.974 3806.49 
-3387.82 452.075 3805.89 
-3387.75 452.197 3805.72 
-3387.64 452.312 3805.17 
-3388.26 452.113 3803.19 
-3387.73 452.319 3804.28 
-3388.18 452.18 3803.34 
-3389.4 449.215 3806.95 
-3389.34 449.108 3806.98 
-3389.63 449.703 3806.51 
-3389.7 449.714 3806.7 
-3389.68 449.626 3806.82 
-3389.59 449.632 3806.9 
-3389.51 449.634 3806.97 
-3389.44 449.411 3806.97 
-3389.29 449.429 3807.11 
-3389.36 449.352 3807.03 
-3389.3 449.697 3807.17 
-3389.14 449.946 3806.96 
-3388.67 450.397 3806.25 
-3388.54 450.504 3806.32 
-3388.84 450.296 3806.32 
-3388.49 450.658 3806.45 
-3388.62 450.945 3809.37 
-3388.63 450.732 3808.1 
-3388.59 450.88 3808.56 
-3388.47 450.784 3806.78 
-3388.49 450.858 3807.2 
-3388.59 451.217 3809.54 
-3388.52 451.457 3809.42 
-3322.11 481.065 3820.68 
-3321.91 479.816 3819.92 
-3322.27 498.567 3884.14 
-3322.75 498.711 3884.36 
-3342.38 470.763 3830.35 
-3342.44 470.779 3830.67 
-3343.84 470.994 3831.32 
-3341.63 470.551 3829.8 
-3342.19 470.646 3830.12 
-3344.89 470.998 3831.13 
-3345.11 470.994 3831.27 
-3345.38 470.909 3831.22 
-3344.99 470.993 3831.48 
-3344.52 471.027 3831.5 
-3344.16 470.971 3831.15 
-3343.9 470.767 3830.41 
-3343.27 470.711 3830.23 
-3351.84 485.758 3867.74 
-3352.18 485.705 3868.07 
-3352.17 485.845 3869.06 
-3353.62 485.745 3883.08 
-3353.64 485.419 3883.14 
-3353.57 485.08 3883.07 
-3353.81 485.387 3883.78 
-3351.05 491.32 3875.01 
-3350.86 491.513 3874.74 
-3350.68 491.916 3874.56 
-3350.53 491.959 3874.3 
-3351.25 490.99 3875.25 
-3350.34 492.174 3874.03 
-3350.14 492.412 3873.76 
-3352.04 490.205 3876.35 
-3351.8 490.552 3876.06 
-3351.52 490.891 3875.71 
-3351.45 490.755 3875.51 
-3353.65 487.542 3877.76 
-3353.61 487.684 3877.41 
-3353.35 488.462 3878.07 
-3353.6 487.433 3878.25 
-3353.87 487.511 3878.26 
-3353.26 489.208 3878.09 
-3352.97 489.727 3877.71 
-3352.46 490.317 3877.06 
-3352.87 490.292 3877.73 
-3349.94 492.743 3873.53 
-3349.82 492.754 3873.3 
-3354.02 488.414 3876.41 
-3353.91 488.232 3876.58 
-3353.8 488.044 3876.76 
-3353.79 488.101 3877.01 
-3353.71 487.917 3877.2 
-3354.42 489.497 3874.52 
-3354.4 489.362 3874.98 
-3354.38 489.264 3875.31 
-3354.3 489.003 3875.54 
-3354.29 488.936 3875.88 
-3354.19 488.674 3876.09 
-3354.14 488.659 3876.31 
-3353.18 488.493 3872.04 
-3352.5 487.746 3870.4 
-3354.45 489.695 3874.14 
-3354.07 489.376 3873.2 
-3349.68 493.022 3872.89 
-3349.66 493.213 3872.25 
-3349.77 492.983 3871.7 
-3349.79 493.077 3870.96 
-3349.87 493.009 3870.18 
-3349.92 493.011 3869.4 
-3349.97 493.007 3868.66 
-3350.02 492.994 3867.93 
-3350.55 492.744 3863.88 
-3350.43 492.599 3864.77 
-3350.89 492.653 3864.24 
-3351.35 492.362 3864.87 
-3351.75 492.014 3865.35 
-3350.05 493.042 3867.3 
-3350.15 492.812 3866.78 
-3350.25 492.619 3866.2 
-3350.33 492.627 3865.37 
-3352.35 490.859 3866.2 
-3352.3 491.353 3866.22 
-3352.49 489.973 3866.35 
-3352.56 490.545 3866.59 
-3352.42 489.588 3866.42 
-3352.16 488.377 3866.55 
-3352.31 489.045 3866.54 
-3352.17 486.317 3867.49 
-3352.23 487.265 3867.1 
-3352.19 488.177 3866.85 
-3352.08 491.933 3865.95 
-3352.36 491.812 3866.47 
-3317.08 497.737 3886.07 
-3317.11 497.901 3886.45 
-3317.36 498.121 3886.87 
-3317.54 498.371 3887.36 
-3317.97 498.605 3887.88 
-3317.62 498.594 3887.83 
-3318.22 498.78 3888.28 
-3316.69 498.018 3885.84 
-3316.63 498.104 3886.04 
-3316.98 498.272 3885.49 
-3317.45 498.474 3885.89 
-3317.99 498.494 3885.72 
-3319.06 498.465 3885.19 
-3319.62 498.48 3884.99 
-3318.51 498.587 3885.77 
-3321.16 498.491 3884.38 
-3320.55 498.471 3884.58 
-3320.15 498.616 3885.17 
-3321.73 498.65 3884.61 
-3371.86 474.343 3852.02 
-3371.41 474.272 3851.51 
-3374.63 474.881 3851.75 
-3372.61 474.454 3852.51 
-3380.5 473.831 3846.5 
-3387.89 469.626 3840.5 
-3385.17 470.899 3842.01 
-3383.31 470.469 3842.08 
-3375.94 473.724 3846.19 
-3377.59 473.311 3846.08 
-3373.1 473.55 3847.46 
-3388.32 451.819 3808.67 
-3388.25 451.956 3808.41 
-3319.99 500.058 3889.61 
-3322.34 501.756 3890.97 
-3321.67 501.462 3890.75 
-3320.89 501.133 3890.48 
-3320.09 501.022 3890.19 
-3319.83 500.799 3889.91 
-3319.96 500.573 3889.85 
-3319.92 500.327 3889.68 
-3320 498.712 3888.71 
-3319.86 499.604 3889.42 
-3319.96 499.223 3889.19 
-3319.7 499.881 3889.42 
-3325.52 502.579 3890.91 
-3324.71 502.822 3891.07 
-3324.12 502.676 3891.11 
-3323.96 502.316 3891.05 
-3323.69 502.197 3891.1 
-3323.36 502.1 3891.09 
-3322.74 501.981 3891.09 
-3323.05 502.182 3891.17 
-3322.84 498.93 3884.95 
-3322.39 499.034 3885.45 
-3322.41 499.242 3886.04 
-3321.93 499.548 3886.54 
-3322.15 499.766 3886.68 
-3321.6 500.141 3887.07 
-3321.38 500.457 3887.37 
-3320.62 500.632 3887.63 
-3320.34 500.954 3887.94 
-3320.62 501.212 3888.11 
-3320.51 501.575 3888.42 
-3320.54 501.881 3888.66 
-3320.25 502.177 3889.2 
-3321.38 502.074 3889.37 
-3322.41 501.887 3889.28 
-3323.77 502.406 3890.15 
-3325.28 503.09 3890.98 
-3325.76 502.829 3890.81 
-3319.68 498.966 3888.87 
-3319.37 499.292 3889.07 
-3319.1 499.189 3888.91 
-3318.81 499.054 3888.71 
-3318.53 498.888 3888.49 
-3388.41 451.593 3808.9 
-3388.24 451.933 3803.28 
-3388.23 451.68 3803.39 
-3388.21 451.062 3803.63 
-3388.2 450.856 3803.72 
-3388.2 450.645 3803.81 
-3388.21 451.445 3803.49 
-3388.19 451.23 3803.6 
-3388.34 450.531 3804.11 
-3388.57 450.386 3804.51 
-3388.83 450.211 3804.97 
-3389.07 450.106 3805.47 
-3389.27 449.987 3805.83 
-3388.82 450.282 3805.04 
-3389.26 450.055 3805.9 
-3389.48 449.916 3806.28 
-3388.29 451.765 3808.29 
-3388.24 451.884 3808.1 
-3388.29 451.694 3808.12 
-3388.21 451.635 3807.66 
-3388.09 451.711 3806.95 
-3387.88 451.951 3805.94 
-3387.98 451.803 3806.27 
-3387.69 452.188 3805.22 
-3387.75 452.078 3805.33 
-3387.66 452.271 3804.56 
-3388.15 452.115 3803.41 
-3388.21 451.897 3803.35 
-3389.51 449.938 3806.43 
-3389.54 449.841 3806.7 
-3389.44 449.89 3806.71 
-3389.4 449.853 3806.87 
-3389.43 449.593 3807.03 
-3389.35 449.558 3807.09 
-3389.37 449.768 3807.07 
-3389.17 449.987 3806.8 
-3388.52 450.629 3805.74 
-3388.39 450.726 3805.73 
-3388.91 450.296 3806.21 
-3388.64 450.575 3805.73 
-3388.33 450.892 3805.93 
-3388.55 451.076 3809 
-3388.5 450.945 3807.62 
-3388.51 451.027 3808.09 
-3388.31 451.015 3806.28 
-3388.32 451.107 3806.71 
-3388.51 451.35 3809.08 
-3322.11 481.065 3820.68 
-3322.33 480.844 3820.12 
-3321.91 479.816 3819.92 
-3321.85 479.964 3819.75 
-3322.28 498.801 3884.81 
-3343.05 470.778 3830.76 
-3341.83 470.546 3829.98 
-3344.24 470.881 3830.86 
-3342 470.529 3829.91 
-3345.1 470.795 3830.44 
-3345.29 470.879 3830.82 
-3345.57 470.79 3830.69 
-3345.87 470.694 3830.54 
-3345.72 470.785 3830.92 
-3345.43 470.79 3830.92 
-3345.79 470.694 3830.66 
-3345.09 470.879 3831.15 
-3345.07 470.807 3830.94 
-3344.63 470.879 3831.08 
-3344.22 470.858 3830.82 
-3344.34 470.784 3830.64 
-3343.98 470.644 3830.11 
-3343.01 470.6 3830.02 
-3343 470.525 3829.87 
-3352.5 485.877 3868.62 
-3352.49 486.137 3867.94 
-3351.07 491.564 3875.14 
-3350.86 491.782 3874.85 
-3350.66 492.231 3874.65 
-3350.48 492.324 3874.36 
-3350.3 492.474 3874.09 
-3351.29 491.177 3875.4 
-3350.11 492.696 3873.82 
-3352.3 490.845 3876.96 
-3351.88 491.124 3876.36 
-3351.56 491.39 3875.92 
-3353.92 487.74 3877.99 
-3353.86 487.879 3877.63 
-3353.74 487.327 3878.65 
-3353.54 488.241 3878.52 
-3353.91 487.363 3878.58 
-3354.15 487.771 3878.42 
-3354.12 487.549 3878.72 
-3353.29 489.837 3878.35 
-3353.58 488.62 3878.75 
-3352.77 490.879 3877.74 
-3353.23 490.506 3878.43 
-3349.91 493.052 3873.59 
-3349.71 493.163 3873.27 
-3354.02 488.491 3876.58 
-3353.89 488.276 3876.79 
-3353.98 488.318 3877.11 
-3353.99 488.114 3877.49 
-3354.47 489.623 3874.72 
-3354.48 489.833 3874.34 
-3354.49 489.603 3875.03 
-3354.47 489.479 3875.37 
-3354.39 489.214 3875.65 
-3354.39 489.17 3875.97 
-3354.27 488.908 3876.14 
-3354.13 488.742 3876.52 
-3354.23 488.897 3876.33 
-3353.33 488.815 3871.68 
-3352.77 488.178 3870.24 
-3352.72 486.452 3868.71 
-3354.48 490.104 3873.94 
-3354.22 489.668 3873.12 
-3349.55 493.469 3872.85 
-3349.53 493.669 3872.17 
-3349.65 493.408 3871.54 
-3349.64 493.575 3870.86 
-3349.74 493.371 3870.34 
-3349.78 493.392 3869.63 
-3349.83 493.397 3868.88 
-3349.88 493.39 3868.15 
-3349.91 493.449 3867.41 
-3350.48 492.95 3863.88 
-3350.34 492.914 3864.47 
-3350.8 492.913 3864.31 
-3351.13 492.649 3864.73 
-3351.47 492.499 3865.27 
-3351.72 492.216 3865.5 
-3350.02 493.271 3866.71 
-3350.12 493.06 3866.13 
-3350.21 492.879 3865.57 
-3350.25 493.007 3864.81 
-3352.52 491.021 3866.63 
-3352.49 491.461 3866.67 
-3352.52 489.869 3866.6 
-3352.61 490.256 3866.7 
-3352.73 490.844 3867.03 
-3352.47 489.587 3866.69 
-3352.3 488.757 3866.8 
-3352.44 489.321 3866.85 
-3352.41 486.897 3867.55 
-3352.36 487.803 3867.33 
-3352.33 488.617 3867.13 
-3352.09 492.127 3866.17 
-3352.61 491.793 3867.01 
-3352.36 492.115 3866.71 
-3316.55 498.206 3886.19 
-3316.96 498.023 3886.76 
-3317.21 498.226 3887.13 
-3317.3 498.442 3887.58 
-3317.86 498.807 3888.23 
-3317.58 498.814 3888.25 
-3317.26 498.609 3887.96 
-3318.2 499.052 3888.51 
-3316.91 498.492 3886.17 
-3317.12 498.736 3886.62 
-3317.9 498.706 3886.36 
-3319.06 498.67 3885.78 
-3319.64 498.722 3885.69 
-3318.55 498.807 3886.37 
-3320.74 498.665 3885.06 
-3321.28 498.749 3885.08 
-3320.2 498.849 3885.83 
-3321.81 498.895 3885.29 
-3371.62 473.579 3849.21 
-3370.92 473.547 3849.27 
-3374.77 474.409 3849.87 
-3371.31 473.422 3848.27 
-3379.18 473.762 3846.23 
-3382.68 471.735 3843.12 
-3388.58 468.5 3838.74 
-3388.55 467.843 3837.64 
-3385.24 469.409 3839.79 
-3380.2 471.972 3844.06 
-3384.64 469.673 3840.61 
-3375.68 473.686 3846.02 
-3372.48 473.212 3846.57 
-3376.59 473.586 3845.98 
-3388.31 451.747 3808.47 
-3319.56 500.187 3889.45 
-3322.06 501.994 3891.03 
-3321.28 501.654 3890.75 
-3320.43 501.31 3890.45 
-3319.76 501.276 3890.14 
-3319.59 501.037 3889.9 
-3319.38 500.777 3889.62 
-3319.5 500.489 3889.53 
-3319.39 499.699 3889.23 
-3319.61 499.441 3889.25 
-3319.3 499.996 3889.27 
-3324.44 503.123 3891.22 
-3323.87 502.614 3891.2 
-3324.02 502.969 3891.26 
-3323.63 502.534 3891.27 
-3323.37 502.413 3891.27 
-3322.7 502.312 3891.26 
-3323.13 502.556 3891.39 
-3321.84 499.124 3885.94 
-3321.57 499.385 3886.46 
-3320.99 499.745 3886.85 
-3321.27 499.95 3886.97 
-3320.65 500.334 3887.39 
-3319.85 500.719 3887.83 
-3319.51 501.047 3888.15 
-3319.76 501.28 3888.3 
-3319.86 501.513 3888.47 
-3319.77 502.02 3888.9 
-3319.56 501.833 3888.78 
-3319.28 502.308 3889.3 
-3320.08 502.599 3889.94 
-3321.17 502.637 3890.08 
-3322.25 502.721 3890.27 
-3322.96 502.54 3890.18 
-3324.61 503.334 3891.13 
-3319.07 499.531 3889.04 
-3318.74 499.399 3888.85 
-3318.45 499.256 3888.68 
-3388.37 451.556 3808.52 
-3388.19 451.656 3803.46 
-3388.16 450.992 3803.73 
-3388.16 450.768 3803.82 
-3388.18 451.436 3803.56 
-3388.16 451.213 3803.67 
-3388.31 450.616 3804.15 
-3388.59 450.434 3804.62 
-3388.8 450.363 3805.09 
-3389.01 450.228 3805.46 
-3388.55 450.529 3804.65 
-3388.99 450.306 3805.53 
-3389.25 450.132 3805.96 
-3388.35 451.54 3808.28 
-3388.3 451.492 3807.88 
-3388.17 451.581 3807.16 
-3388.05 451.672 3806.46 
-3387.87 451.881 3805.59 
-3387.77 451.995 3805.2 
-3387.93 451.765 3805.77 
-3387.68 452.187 3804.53 
-3387.69 452.105 3804.6 
-3388.09 452.074 3803.53 
-3388.18 451.849 3803.43 
-3389.26 450.164 3806.1 
-3389.16 450.207 3806.14 
-3389.09 450.215 3806.21 
-3389.15 450.077 3806.54 
-3388.34 450.898 3805.17 
-3388.23 450.963 3805.22 
-3388.8 450.488 3805.77 
-3388.49 450.808 3805.23 
-3388.17 451.129 3805.44 
-3388.49 451.172 3808.57 
-3388.34 451.194 3807.17 
-3388.38 451.246 3807.76 
-3388.15 451.251 3805.78 
-3388.15 451.345 3806.14 
-3388.43 451.373 3808.57 
-3322.32 480.249 3819.57 
-3321.73 480.381 3819.59 
-3343.74 470.682 3830.3 
-3342.73 470.586 3830.19 
-3341.92 470.451 3829.81 
-3344.34 470.591 3829.87 
-3345.38 470.665 3829.94 
-3345.7 470.688 3830.24 
-3345.82 470.59 3829.82 
-3346.03 470.573 3830.03 
-3346.13 470.598 3830.39 
-3346.33 470.476 3829.88 
-3345.47 470.688 3830.62 
-3345.86 470.573 3830.32 
-3346.23 470.475 3830.06 
-3345.17 470.684 3830.58 
-3344.76 470.696 3830.55 
-3344.4 470.644 3830.22 
-3345.52 470.589 3830.34 
-3343.9 470.527 3829.84 
-3342.99 470.448 3829.72 
-3342.02 470.327 3829.54 
-3352.6 486.748 3867.99 
-3350.85 492.075 3874.94 
-3351.06 491.905 3875.26 
-3351.24 491.514 3875.44 
-3350.63 492.569 3874.74 
-3350.46 492.636 3874.44 
-3350.27 492.791 3874.15 
-3350.08 492.985 3873.89 
-3352.73 491.464 3877.84 
-3352.27 491.408 3877.07 
-3351.97 491.839 3876.73 
-3351.51 491.938 3876 
-3354.14 487.987 3878.03 
-3353.89 487.293 3879.06 
-3354.06 487.308 3878.96 
-3354.37 487.995 3878.51 
-3354.43 487.813 3878.92 
-3354.32 487.545 3879.12 
-3353.57 489.246 3878.92 
-3354.02 487.239 3879.41 
-3353.83 488.148 3879.29 
-3353.21 491.062 3878.57 
-3353.57 489.772 3879.1 
-3349.87 493.377 3873.65 
-3349.72 493.41 3873.39 
-3349.53 493.674 3873.14 
-3354.18 488.727 3876.83 
-3354.01 488.511 3876.79 
-3354.21 488.553 3877.19 
-3354.2 488.348 3877.54 
-3354.28 488.206 3877.95 
-3354.52 489.967 3874.6 
-3354.51 490.156 3874.21 
-3354.54 489.904 3874.95 
-3354.54 489.747 3875.34 
-3354.48 489.447 3875.7 
-3354.48 489.414 3876.03 
-3354.36 489.153 3876.2 
-3354.29 489.055 3876.44 
-3354.32 488.939 3876.76 
-3353.74 489.367 3871.81 
-3353.02 488.506 3870.05 
-3352.86 487.155 3868.65 
-3354.37 490.021 3873.25 
-3354.52 490.506 3873.84 
-3349.4 493.98 3872.7 
-3349.39 494.144 3872.04 
-3349.52 493.849 3871.47 
-3349.52 493.988 3870.76 
