-3023.44 252.833 3493.75 
-3018.89 269.078 3500.98 
-3019.99 268.398 3500.61 
-3019.77 269.266 3500.88 
-3022.93 264.541 3498.58 
-3023.16 264.444 3498.34 
-3023.76 264.712 3498.18 
-3024.29 264.859 3497.92 
-3024.05 264.699 3497.9 
-3024.31 264.699 3497.7 
-3021.23 267.169 3499.85 
-3020.2 268.956 3500.64 
-3024.92 265.028 3497.64 
-3026.23 265.322 3497.23 
-3027.6 270.295 3497.79 
-3027.29 270.976 3497.85 
-3027.28 271.355 3497.99 
-3027.16 267.692 3498.28 
-3026.43 266.2 3498.11 
-3026.76 266.898 3497.92 
-3026.92 266.876 3497.98 
-3028.15 270.1 3497.78 
-3028.26 271.304 3498.19 
-3028.49 271.418 3498.41 
-3028.98 271.526 3498.63 
-3029.22 271.794 3498.7 
-3031.72 275.479 3502.51 
-3031.56 275.253 3502.24 
-3032.04 275.534 3502.64 
-3032.44 276.243 3503.51 
-3032.44 275.991 3503.2 
-3032.36 275.596 3502.78 
-3032.62 276.474 3503.85 
-3032.69 276.76 3504.26 
-3032.46 277.02 3504.58 
-3032.29 277.162 3504.75 
-3032.14 277.295 3504.91 
-3032.18 277.556 3505.19 
-3031.96 277.736 3505.41 
-3031.8 278.206 3505.67 
-3031.38 274.781 3501.75 
-3031.33 274.206 3501.28 
-3030.28 273.864 3500.26 
-3029.63 273.18 3499.27 
-3029.54 272.603 3499 
-3029.61 272.954 3499.16 
-3029.68 272.675 3499.01 
-3029.33 271.714 3498.62 
-3029.75 271.912 3498.72 
-3029.73 271.669 3498.62 
-3029.73 272.169 3498.82 
-3029.73 272.403 3498.92 
-3022.67 281.491 3506.84 
-3031.5 283.052 3506.1 
-3031.1 283.988 3506.67 
-3032.23 280.681 3504.96 
-3032.05 280.052 3505.14 
-3032.1 279.558 3505.31 
-3031.91 279.026 3505.49 
-3032.18 281.505 3505.26 
-3032 282.418 3505.9 
-3031.21 284.683 3507.26 
-3030.74 284.717 3507.12 
-3030.41 284.193 3506.91 
-3030.83 283.775 3506.77 
-3031.14 284.601 3507.17 
-3031.31 284.774 3507.42 
-3030.93 285.057 3507.52 
-3031.32 284.93 3507.61 
-3031.47 284.943 3507.68 
-3031.6 285.106 3507.91 
-3030.5 285.582 3507.79 
-3026.6 286.037 3507.81 
-3027.56 286.48 3508.17 
-3028.65 286.614 3508.33 
-3025.97 285.964 3507.7 
-3025.83 285.791 3507.5 
-3029.73 286.491 3508.36 
-3030.33 286.295 3508.35 
-3022.56 284.846 3507.31 
-3022.26 284.613 3507.32 
-3022 284.35 3507.32 
-3025.34 285.835 3507.52 
-3024.76 285.761 3507.4 
-3024.26 285.621 3507.22 
-3023.82 285.517 3507.24 
-3023.58 285.53 3507.46 
-3023.21 285.342 3507.44 
-3022.85 285.192 3507.55 
-3019.62 282.666 3507.22 
-3019.44 282.562 3507.25 
-3021.65 284.138 3507.37 
-3021.16 284.132 3507.65 
-3020.79 283.789 3507.59 
-3020.57 283.509 3507.47 
-3019.78 282.779 3507.26 
-3019.92 282.881 3507.3 
-3020.38 283.321 3507.48 
-3020.13 283.061 3507.41 
-3019.97 282.945 3507.39 
-3019.35 282.532 3507.33 
-3019.35 282.398 3507.29 
-3020.4 282.135 3507.21 
-3020.22 282.098 3507.12 
-3021.79 281.764 3507.01 
-3023.25 281.449 3506.91 
-3019.08 270.982 3501.52 
-3024.34 264.849 3498.07 
-3026.89 265.429 3497.2 
-3025.69 265.163 3497.58 
-3027.8 278.101 3504.81 
-3027.32 279.16 3505.33 
-3029.24 270.25 3500.51 
-3029.82 273.232 3502.52 
-3028.71 269.436 3500.02 
-3030.1 269.733 3499.22 
-3031.97 270.342 3498.68 
-3032.11 270.129 3498.59 
-3031.99 269.504 3498.41 
-3032.09 270.093 3498.43 
-3031.97 269.71 3498.31 
-3031.77 268.625 3497.95 
-3031.51 269.116 3497.93 
-3031.5 268.226 3497.36 
-3029.72 267.169 3497.27 
-3030.23 267.896 3497.34 
-3028.1 266.498 3497.45 
-3029.27 279.737 3505.94 
-3029.07 279.644 3505.82 
-3027.76 279.864 3505.85 
-3028.07 279.37 3505.54 
-3025.43 280.91 3506.66 
-3027.26 280.564 3506.58 
-3027.8 280.392 3506.47 
-3028.26 280.241 3506.37 
-3028.88 280.06 3506.27 
-3029.26 279.865 3506.1 
-3029.71 279.847 3506.17 
-3030.26 279.619 3505.99 
-3024.44 281.157 3506.77 
-3024.85 243.884 3489.64 
-3024.72 243.551 3489.49 
-3024.86 243.747 3489.43 
-3022.83 237.287 3490.29 
-3022.7 237.15 3490.32 
-3022.55 236.931 3490.31 
-3022.39 236.728 3490.32 
-3022.22 236.54 3490.35 
-3022.99 237.222 3490.13 
-3023.08 237.268 3490.11 
-3023.39 237.212 3489.47 
-3023.59 240.706 3489.82 
-3023.5 240.246 3489.78 
-3024.18 241.833 3489.46 
-3022.34 237.296 3490.24 
-3022.03 236.356 3490.39 
-3023.33 239.476 3489.73 
-3025.11 243.651 3488.91 
-3025.22 243.999 3488.98 
-3025.1 243.793 3488.91 
-3025.2 243.824 3488.75 
-3024.86 243.557 3489.18 
-3025.05 243.621 3488.77 
-3023.74 236.928 3488.71 
-3024.09 236.595 3488.15 
-3024.41 236.281 3487.64 
-3024.42 236.429 3487.43 
-3024.31 236.656 3487.4 
-3024.2 236.925 3487.31 
-3024.12 237.163 3487.2 
-3024.06 237.386 3487.06 
-3023.99 237.617 3486.95 
-3023.96 237.904 3486.81 
-3025.87 241.916 3484.81 
-3025.82 241.845 3485.15 
-3025.75 241.763 3485.52 
-3024.71 238.834 3485.5 
-3024.86 238.903 3485.26 
-3024.35 238.357 3486.12 
-3024.94 238.924 3485.13 
-3025.03 238.916 3484.99 
-3025.1 238.947 3484.88 
-3025.12 239.038 3484.84 
-3025.12 239.149 3484.84 
-3025.18 239.178 3484.74 
-3025.26 239.13 3484.62 
-3025.29 239.215 3484.56 
-3025.28 239.343 3484.57 
-3025.28 239.541 3484.59 
-3025.39 240.012 3484.49 
-3025.48 240.402 3484.4 
-3025.62 240.902 3484.25 
-3025.74 241.297 3484.13 
-3025.78 241.393 3484.12 
-3026.13 241.825 3483.86 
-3025.91 241.585 3484.06 
-3026.08 241.754 3483.86 
-3026.16 241.813 3483.79 
-3026.08 241.82 3483.96 
-3026.11 241.891 3483.99 
-3026.2 241.881 3483.81 
-3026.22 241.915 3483.83 
-3026.08 241.898 3484.06 
-3025.85 241.501 3484.08 
-3026.16 241.952 3483.99 
-3026.25 242.003 3483.9 
-3026.18 242.007 3484.02 
-3026.28 242.064 3483.92 
-3026.2 242.059 3484.06 
-3026.11 242.053 3484.21 
-3026.03 242.037 3484.36 
-3025.93 241.978 3484.51 
-3025.19 247.455 3491.07 
-3025.06 247.723 3491.35 
-3025.26 242.43 3487.7 
-3025.23 242.678 3487.85 
-3024.84 243.219 3488.59 
-3025.03 242.964 3488.01 
-3025.17 242.923 3488 
-3025.39 241.985 3487.4 
-3025.41 242.168 3487.46 
-3025.38 242.332 3487.62 
-3025.73 241.832 3485.73 
-3025.64 241.738 3486.13 
-3025.56 241.555 3486.42 
-3025.48 241.484 3486.82 
-3025.49 241.701 3486.85 
-3025.47 241.837 3487.03 
-3025.45 242.006 3487.2 
-3024.8 248.792 3491.97 
-3024.34 249.687 3492.58 
-3025 248.061 3491.5 
-3024.94 248.398 3491.64 
-3024.04 250.962 3492.95 
-3023.69 252.216 3493.48 
-3023.55 252.775 3493.6 
-3018.15 271.486 3501.81 
-3018.58 270.301 3501.4 
-3006.73 274.393 3499.85 
-3007.83 277.874 3502.49 
-3009.51 281.74 3503.67 
-3008.66 279.461 3501.67 
-3010.55 284.407 3503.77 
-3023.58 252.971 3493.45 
-3023.93 252.066 3492.92 
-3024.29 251.013 3492.38 
-3024.68 250.046 3491.77 
-3025.05 249.264 3491.14 
-3025.14 248.842 3491.02 
-3025.6 247.899 3490.24 
-3025.12 265.051 3497.69 
-3026.66 265.401 3497.17 
-3028.3 270.574 3497.93 
-3028.03 270.988 3498.02 
-3026.95 266.629 3498.08 
-3028.82 270.073 3497.73 
-3029.04 270.164 3497.95 
-3029.12 271.439 3498.48 
-3028.86 270.821 3498.15 
-3029.19 271.116 3498.34 
-3031.87 275.244 3502.3 
-3031.71 274.821 3501.86 
-3032.24 275.281 3502.43 
-3032.82 276.465 3503.79 
-3032.75 276.085 3503.38 
-3032.72 275.678 3502.95 
-3032.59 275.347 3502.58 
-3033.02 276.723 3504.15 
-3032.96 276.928 3504.42 
-3032.77 277.046 3504.57 
-3032.67 277.275 3504.83 
-3032.41 277.351 3504.95 
-3032.49 277.62 3505.16 
-3032.24 277.849 3505.41 
-3032.06 278.298 3505.66 
-3030.63 273.702 3500.29 
-3029.75 272.916 3499.11 
-3030.2 272.538 3499.07 
-3030.06 272.716 3499.06 
-3029.61 271.436 3498.52 
-3030.31 271.68 3498.69 
-3030.28 271.928 3498.78 
-3030.18 271.455 3498.59 
-3030.23 272.186 3498.88 
-3031.72 283.12 3506.52 
-3031.39 283.557 3506.62 
-3032.54 280.589 3505.06 
-3032.31 280.131 3505.13 
-3032.19 279.083 3505.48 
-3032.39 279.714 3505.28 
-3032.45 281.436 3505.39 
-3032.42 282.113 3505.94 
-3032.05 282.693 3506.46 
-3031.36 284.902 3507.55 
-3030.78 285.01 3507.36 
-3030.31 284.64 3507.14 
-3030.55 283.433 3506.76 
-3030.02 283.884 3506.91 
-3031.06 283.089 3506.64 
-3031.66 285.043 3507.86 
-3031.29 285.43 3508.06 
-3030.88 285.797 3508.18 
-3031.69 285.376 3508.22 
-3031.79 285.202 3508.09 
-3031.98 285.414 3508.4 
-3026.99 286.469 3508.19 
-3026.18 286.155 3507.92 
-3028.58 287.177 3508.75 
-3027.86 287.003 3508.61 
-3029.4 287.001 3508.7 
-3025.56 286.051 3507.77 
-3030.22 286.918 3508.86 
-3030.73 286.421 3508.67 
-3030.59 286.945 3509.08 
-3022.56 285.024 3507.58 
-3022.27 284.823 3507.55 
-3021.99 284.59 3507.52 
-3021.71 284.309 3507.5 
-3024.98 285.949 3507.63 
-3024.38 285.839 3507.48 
-3023.99 285.704 3507.45 
-3023.76 285.74 3507.71 
-3023.38 285.574 3507.7 
-3023.06 285.421 3507.71 
-3022.84 285.402 3507.9 
-3022.58 285.209 3507.85 
-3019.55 282.647 3507.3 
-3021.29 284.269 3507.74 
-3020.88 283.934 3507.7 
-3020.6 283.608 3507.61 
-3019.69 282.747 3507.33 
-3019.81 282.841 3507.37 
-3020.12 283.08 3507.49 
-3020.34 283.329 3507.56 
-3019.95 282.963 3507.47 
-3019.79 282.859 3507.46 
-3019.5 282.643 3507.38 
-3019.33 282.555 3507.43 
-3019.63 282.392 3507.37 
-3020.9 282.104 3507.27 
-3022.14 281.821 3507.15 
-3021.67 281.852 3507.1 
-3023.23 281.541 3507.02 
-3025.14 281.079 3506.81 
-3024.59 281.242 3506.91 
-3029.81 275.452 3503.63 
-3028.58 278.504 3505.01 
-3028.86 278.907 3505.3 
-3029.27 278.592 3505.13 
-3029.77 270.152 3500.13 
-3030.36 270.78 3500.41 
-3030.92 270.347 3499.33 
-3032.11 270.64 3498.77 
-3032.01 270.59 3498.56 
-3031.77 270.268 3498.44 
-3031.55 269.887 3498.3 
-3031.17 269.446 3498.06 
-3030.17 268.362 3497.46 
-3027.87 266.508 3497.58 
-3030.45 279.381 3505.76 
-3030.96 279.419 3505.87 
-3029.52 279.18 3505.54 
-3026.46 280.779 3506.7 
-3029.12 280.238 3506.49 
-3028.67 280.388 3506.59 
-3029.7 280.104 3506.4 
-3029.95 279.941 3506.31 
-3030.62 279.822 3506.23 
-3031.08 279.568 3506.06 
-3031.24 279.773 3506.15 
-3032.15 279.293 3505.9 
-3031.79 279.438 3505.99 
-3024.91 243.357 3488.66 
-3022.93 237.166 3490.15 
-3022.78 236.967 3490.15 
-3022.63 236.753 3490.15 
-3022.49 236.557 3490.15 
-3022.15 236.226 3490.22 
-3022.34 236.385 3490.17 
-3023.12 237.125 3489.98 
-3023.29 237.124 3489.78 
-3023.56 237.007 3489.2 
-3023.82 236.805 3488.67 
-3024.17 241.412 3489.34 
-3023.23 238.92 3489.68 
-3022.21 236.608 3490.19 
-3024.77 241.846 3488.8 
-3025.23 243.656 3488.73 
-3025.32 243.807 3488.57 
-3025.39 243.913 3488.49 
-3025.38 243.79 3488.31 
-3025.36 243.627 3488.42 
-3025.13 243.452 3488.31 
-3025.24 243.417 3488.32 
-3024.2 236.436 3488.07 
-3024.53 236.17 3487.49 
-3024.48 236.402 3487.31 
-3024.37 236.638 3487.27 
-3024.28 236.849 3487.23 
-3024.2 237.091 3487.11 
-3024.14 237.312 3486.97 
-3024.07 237.531 3486.87 
-3024.05 237.77 3486.69 
-3024.04 237.91 3486.67 
-3025.93 242.055 3484.86 
-3026 242.087 3484.49 
-3025.83 241.945 3485.26 
-3024.7 238.706 3485.52 
-3024.84 238.813 3485.3 
-3024.91 238.751 3485.18 
-3024.95 238.815 3485.13 
-3024.37 238.231 3486.09 
-3025.02 238.825 3485.02 
-3025.09 238.777 3484.91 
-3025.14 238.839 3484.82 
-3025.19 238.919 3484.74 
-3025.2 239.054 3484.72 
-3025.34 239.091 3484.49 
-3025.3 239.016 3484.56 
-3025.41 239.41 3484.4 
-3025.39 239.183 3484.42 
-3025.45 239.704 3484.37 
-3025.43 239.892 3484.42 
-3025.56 240.345 3484.28 
-3025.63 240.696 3484.22 
-3025.78 241.052 3484.05 
-3025.81 241.319 3484.03 
-3025.96 241.558 3483.9 
-3025.92 241.545 3483.97 
-3026.3 241.865 3483.62 
-3026.27 241.881 3483.69 
-3026.01 241.668 3483.91 
-3026.17 241.773 3483.71 
-3026.25 241.822 3483.64 
-3026.23 241.949 3483.85 
-3026.32 241.931 3483.66 
-3026.37 241.971 3483.65 
-3026.31 242 3483.78 
-3026.41 242.051 3483.68 
-3026.35 242.058 3483.8 
-3026.45 242.114 3483.7 
-3026.37 242.119 3483.83 
-3026.28 242.108 3483.99 
-3026.19 242.103 3484.15 
-3026.1 242.098 3484.29 
-3025.3 247.728 3490.83 
-3025.22 247.933 3490.98 
-3025.35 242.549 3487.78 
-3025.31 242.803 3487.94 
-3025.05 243.121 3488.11 
-3025.27 243.021 3488.07 
-3025.14 243.17 3488.15 
-3025.48 242.25 3487.21 
-3025.45 242.409 3487.41 
-3025.43 242.567 3487.61 
-3025.71 241.948 3485.89 
-3025.79 242.004 3485.5 
-3025.62 241.848 3486.27 
-3025.55 241.664 3486.56 
-3025.55 241.845 3486.61 
-3025.53 241.983 3486.8 
-3025.51 242.13 3486.99 
-3024.78 248.873 3491.87 
-3024.37 249.826 3492.45 
-3025.07 248.157 3491.26 
-3024.95 248.454 3491.48 
-3024.11 251.153 3492.79 
-3023.8 252.264 3493.28 
-3023.67 252.758 3493.43 
-3023.59 253.003 3493.48 
-3008.63 279.982 3501.57 
-3007.18 276.192 3500.17 
-3008.72 280.657 3503.22 
-3008.58 280.781 3502.79 
-3010.2 284.436 3503.6 
-3023.68 253.016 3493.29 
-3023.97 252.325 3492.85 
-3024.21 251.518 3492.49 
-3024.57 250.627 3491.93 
-3025.17 249.73 3490.9 
-3025.54 248.604 3490.3 
-3025.65 248.219 3490.12 
-3029.2 270.483 3498.1 
-3027.1 266.608 3498.13 
-3029.22 269.67 3497.8 
-3029.61 270.056 3498.02 
-3029.86 270.466 3498.22 
-3029.64 270.814 3498.31 
-3029.87 271.159 3498.47 
-3032.08 274.829 3501.97 
-3031.95 274.206 3501.47 
-3032.44 274.841 3502.07 
-3033.1 276.14 3503.52 
-3033.12 276.489 3503.88 
-3033.02 275.866 3503.22 
-3032.91 275.348 3502.66 
-3033.06 275.607 3502.96 
-3032.78 274.855 3502.17 
-3033.37 276.323 3503.85 
-3033.06 276.872 3504.33 
-3032.98 277.232 3504.71 
-3032.79 277.513 3504.98 
-3032.48 277.934 3505.4 
-3032.69 277.784 3505.22 
-3032.55 278.37 3505.67 
-3031.74 273.764 3501.03 
-3030.2 273.314 3499.57 
-3029.95 273.006 3499.16 
-3030.62 272.562 3499.08 
-3030.69 272.246 3498.95 
-3030.44 272.813 3499.15 
-3030.78 271.44 3498.65 
-3030.83 271.707 3498.76 
-3030.76 271.974 3498.85 
-3030.41 271.191 3498.54 
-3031.38 282.498 3506.51 
-3032.73 281.346 3505.52 
-3032.68 280.227 3505.15 
-3032.43 279.166 3505.47 
-3032.61 279.629 3505.32 
-3032.81 281.787 3505.94 
-3032.4 282.251 3506.38 
-3031.73 281.87 3506.37 
-3031.64 285.073 3507.86 
-3030.9 285.268 3507.64 
-3031.36 285.373 3507.99 
-3030.37 285.214 3507.51 
-3029.92 284.577 3507.18 
-3030.8 282.615 3506.62 
-3030.31 283.095 3506.76 
-3029.84 283.267 3506.85 
-3029.55 284.032 3507.01 
-3031.9 285.295 3508.21 
-3031.98 285.474 3508.43 
-3031.47 285.97 3508.65 
-3031.12 286.231 3508.7 
-3031.91 285.803 3508.73 
-3032.06 285.431 3508.45 
-3032.32 285.65 3508.79 
-3032.26 285.711 3508.82 
-3027.7 287.209 3508.79 
-3026.69 286.604 3508.32 
-3025.77 286.257 3508.02 
-3028.67 287.678 3509.15 
-3029.47 287.551 3509.13 
-3029.96 287.301 3509.08 
-3025.14 286.139 3507.85 
-3030.43 287.549 3509.55 
-3030.16 287.719 3509.56 
-3030.99 286.791 3509.15 
-3030.77 287.419 3509.61 
-3022.27 284.997 3507.82 
-3021.98 284.781 3507.77 
-3021.7 284.525 3507.7 
-3024.54 286.029 3507.71 
-3024.12 285.904 3507.72 
-3023.91 285.955 3507.98 
-3023.54 285.776 3507.95 
-3023.18 285.627 3507.96 
-3022.92 285.62 3508.17 
-3022.63 285.446 3508.17 
-3022.34 285.201 3508.07 
-3021.34 284.414 3507.87 
-3020.99 284.101 3507.81 
-3020.71 283.788 3507.73 
-3020.45 283.493 3507.68 
-3019.64 282.75 3507.42 
-3020.18 283.186 3507.59 
-3019.97 283.003 3507.55 
-3019.79 282.887 3507.55 
-3019.63 282.772 3507.5 
-3019.48 282.666 3507.47 
-3019.39 282.572 3507.51 
-3020.09 282.366 3507.44 
-3021.33 282.09 3507.33 
-3022.66 281.794 3507.22 
-3023.64 281.542 3507.1 
-3024.81 281.273 3506.99 
-3026.6 280.831 3506.79 
-3026.06 280.999 3506.89 
-3030.25 276.616 3504.17 
-3029.6 278.277 3504.94 
-3030.97 273.161 3502.23 
-3030.05 278.813 3505.34 
-3030.4 278.486 3505.15 
-3030.68 278.156 3504.96 
-3031.15 271.104 3500.26 
-3031.56 270.854 3499.49 
-3032.54 271.312 3498.94 
-3032.34 270.99 3498.84 
-3032.15 270.927 3498.67 
-3031.66 270.875 3498.6 
-3031.45 270.516 3498.47 
-3031.18 270.114 3498.32 
-3030.77 269.667 3498.08 
-3029.98 268.795 3497.61 
-3027.71 266.536 3497.7 
-3031.85 279.141 3505.72 
-3031.07 278.879 3505.47 
-3032.73 279.128 3505.8 
-3028.05 280.531 3506.68 
-3029.19 280.833 3506.63 
-3029.66 280.609 3506.53 
-3028.7 280.876 3506.71 
-3030.01 280.789 3506.5 
-3030.46 280.305 3506.36 
-3030.91 280.431 3506.31 
-3031.75 279.978 3506.12 
-3031.33 280.567 3506.26 
-3032.26 279.913 3506.03 
-3032.8 279.56 3505.9 
-3023.02 236.989 3489.98 
-3022.88 236.789 3489.98 
-3022.73 236.586 3489.98 
-3022.59 236.389 3489.98 
-3022.35 236.186 3490.05 
-3022.16 236.019 3490.1 
-3023.43 236.996 3489.59 
-3023.24 236.987 3489.81 
-3023.79 236.732 3488.9 
-3023.96 236.621 3488.54 
-3025.08 242.9 3488.71 
-3024.75 241.319 3488.7 
-3023.61 239.408 3489.37 
-3022.81 237.684 3489.79 
-3025.31 243.182 3488.31 
-3025.35 243.533 3488.32 
-3025.41 243.856 3488.38 
-3025.41 243.637 3488.18 
-3025.37 243.402 3488.27 
-3025.43 243.686 3488.2 
-3025.23 243.234 3488.2 
-3025.35 243.172 3488.16 
-3024.39 236.212 3487.86 
-3024.63 236.001 3487.48 
-3024.59 236.19 3487.32 
-3024.53 236.426 3487.17 
-3024.42 236.667 3487.13 
-3024.31 236.894 3487.09 
-3024.24 237.142 3486.96 
-3024.15 237.463 3486.77 
-3024.17 237.843 3486.47 
-3026.06 242.282 3484.45 
-3025.96 242.262 3484.81 
-3025.88 242.13 3485.14 
-3026.15 242.169 3484.26 
-3024.74 238.636 3485.47 
-3024.87 238.692 3485.26 
-3024.96 238.647 3485.11 
-3025.02 238.709 3485.02 
-3024.63 238.406 3485.66 
-3025.11 238.658 3484.89 
-3025.17 238.714 3484.78 
-3025.23 238.784 3484.69 
-3025.29 238.839 3484.59 
-3025.26 238.954 3484.64 
-3025.4 238.973 3484.41 
-3025.44 239.077 3484.34 
-3025.35 238.896 3484.49 
-3025.55 239.472 3484.23 
-3025.61 239.821 3484.17 
-3025.67 240.147 3484.12 
-3025.57 240.117 3484.25 
-3025.72 240.486 3484.08 
-3025.74 240.74 3484.08 
-3025.91 241.176 3483.89 
-3025.94 241.474 3483.89 
-3026.08 241.7 3483.8 
-3026.12 241.693 3483.71 
-3026.44 241.925 3483.44 
-3026.39 241.878 3483.47 
-3026.4 241.934 3483.54 
-3026.21 241.757 3483.63 
-3026.32 241.818 3483.51 
-3026.43 241.82 3483.37 
-3026.38 241.999 3483.66 
-3026.46 241.984 3483.49 
-3026.52 242.035 3483.45 
-3026.49 242.051 3483.54 
-3026.57 242.099 3483.46 
-3026.5 242.104 3483.59 
-3026.61 242.16 3483.47 
-3026.52 242.163 3483.63 
-3026.46 242.173 3483.76 
-3026.34 242.151 3483.95 
-3026.29 242.179 3484.05 
-3025.41 242.743 3487.8 
-3025.4 242.977 3487.97 
-3025.54 242.405 3486.99 
-3025.51 242.525 3487.2 
-3025.49 242.671 3487.37 
-3025.47 242.821 3487.54 
-3025.8 242.136 3485.54 
-3025.72 242.099 3485.94 
-3025.63 241.98 3486.32 
-3025.59 242.095 3486.56 
-3025.57 242.264 3486.77 
-3024.77 248.999 3491.79 
-3024.42 250.036 3492.31 
-3025.37 248.465 3490.65 
-3025.12 248.697 3491.11 
-3024.17 251.39 3492.66 
-3023.85 252.52 3493.15 
-3023.71 252.996 3493.3 
-3008.2 279.721 3501.33 
-3010 284.542 3503.35 
-3023.78 253.074 3493.13 
-3024.1 252.274 3492.63 
-3024.33 251.481 3492.29 
-3024.83 250.616 3491.46 
-3025.37 249.873 3490.51 
-3025.8 248.975 3489.8 
-3025.75 248.702 3489.91 
-3027.41 266.987 3498.23 
-3027.03 265.579 3497.37 
-3028.07 267.73 3498.05 
-3029.82 269.726 3497.93 
-3030.26 270.216 3498.2 
-3030.56 270.642 3498.4 
-3030.24 270.868 3498.43 
-3032.31 274.171 3501.54 
-3032.15 273.815 3501.24 
-3032.67 274.099 3501.58 
-3033.43 276.024 3503.48 
-3033.38 276.306 3503.76 
-3033.36 275.735 3503.17 
-3033.12 274.869 3502.26 
-3033.28 275.381 3502.79 
-3032.99 274.142 3501.69 
-3033.63 276.162 3503.73 
-3033.52 274.47 3502.29 
-3033.21 274.241 3502.12 
-3032.79 274.396 3502.43 
-3032.97 277.326 3504.63 
-3031.72 277.034 3504.39 
-3032.38 274.776 3502.96 
-3033.04 277.503 3504.89 
-3032.91 277.809 3505.16 
-3032.67 278.07 3505.44 
-3032.61 278.482 3505.64 
-3032.63 279.123 3505.49 
-3031.06 273.201 3499.95 
-3031.1 272.312 3499.02 
-3031.1 272.566 3499.17 
-3031.23 272.005 3498.92 
-3031 272.744 3499.33 
-3031.66 273.034 3500.15 
-3031.28 271.441 3498.71 
-3030.87 271.066 3498.56 
-3031.33 271.734 3498.82 
-3031.21 281.968 3506.47 
-3032.96 280.964 3505.46 
-3032.82 279.805 3505.27 
-3032.72 281.831 3506.32 
-3033.11 281.501 3505.91 
-3032.06 281.21 3506.23 
-3031.6 281.292 3506.32 
-3030.94 285.553 3507.94 
-3031.37 285.679 3508.28 
-3029.65 284.728 3507.34 
-3029.89 285.266 3507.63 
-3030.46 285.658 3507.83 
-3030.74 281.948 3506.54 
-3030.25 282.515 3506.69 
-3029.57 282.82 3506.84 
-3029.33 283.564 3506.97 
-3029.15 284.24 3507.15 
-3032.29 285.659 3508.76 
-3031.71 285.835 3508.61 
-3031.73 286.35 3509.13 
-3031.37 286.574 3509.15 
-3032.09 286.219 3509.2 
-3032.53 285.883 3509.11 
-3032.58 285.886 3509.15 
-3032.43 286.123 3509.29 
-3027.25 287.258 3508.86 
-3028.17 287.776 3509.26 
-3026.3 286.635 3508.37 
-3025.7 286.494 3508.27 
-3025.27 286.318 3508.06 
-3029.02 288.17 3509.59 
-3029.4 288.045 3509.53 
-3029.83 287.915 3509.57 
-3024.68 286.208 3507.92 
-3030.27 287.314 3509.23 
-3029.82 287.39 3509.09 
-3029.64 287.612 3509.22 
-3031.09 287.254 3509.63 
-3030.66 287.134 3509.28 
-3021.98 284.959 3508.05 
-3021.68 284.71 3507.95 
-3024.27 286.105 3507.97 
-3024.05 286.166 3508.25 
-3023.65 285.961 3508.2 
-3023.29 285.816 3508.22 
-3022.98 285.782 3508.41 
-3022.64 285.649 3508.48 
-3022.37 285.397 3508.35 
-3022.11 285.192 3508.29 
-3021.27 284.474 3508.03 
-3020.93 284.068 3507.87 
-3020.6 283.709 3507.8 
-3020.27 283.333 3507.71 
-3020.04 283.077 3507.63 
-3019.88 282.971 3507.62 
-3019.71 282.869 3507.63 
-3019.6 282.78 3507.59 
-3019.46 282.68 3507.56 
-3020.21 282.424 3507.53 
-3021.52 282.127 3507.42 
-3022.85 281.831 3507.31 
-3024.33 281.535 3507.23 
-3024.32 281.476 3507.15 
-3025.37 281.226 3507.04 
-3026.9 280.965 3506.95 
-3027.54 280.818 3506.85 
-3028.1 280.725 3506.77 
-3030.56 277.697 3504.68 
-3031.69 274.411 3502.9 
-3031.29 278.538 3505.26 
-3031.67 278.227 3505.09 
-3031.81 277.945 3504.92 
-3031.52 277.742 3504.76 
-3031.69 271.723 3500.57 
-3032.63 271.727 3499.54 
-3032.62 271.582 3499.17 
-3032.33 271.576 3498.87 
-3032.11 271.24 3498.75 
-3031.46 271.15 3498.65 
-3031.11 270.781 3498.51 
-3030.9 270.39 3498.37 
-3030.49 269.924 3498.13 
-3029.89 269.277 3497.76 
-3027.52 266.466 3497.8 
-3033.42 278.993 3505.69 
-3032.29 278.777 3505.51 
-3032.31 278.498 3505.33 
-3033.34 279.452 3505.82 
-3028.85 281.5 3506.77 
-3029.47 281.321 3506.65 
-3028.32 281.391 3506.84 
-3029.92 281.494 3506.6 
-3030.41 280.993 3506.46 
-3030.81 281.169 3506.42 
-3031.83 280.602 3506.19 
-3031.19 281.287 3506.38 
-3032.31 280.588 3506.11 
-3032.71 280.132 3505.99 
-3033.18 279.947 3505.93 
-3023.11 236.802 3489.81 
-3022.94 236.587 3489.82 
-3022.81 236.371 3489.8 
-3022.55 236.195 3489.9 
-3022.37 235.975 3489.92 
-3022.26 235.816 3489.9 
-3022.41 236.52 3489.91 
-3023.49 236.887 3489.53 
-3023.84 236.629 3488.93 
-3023.58 236.676 3489.34 
-3024.17 236.341 3488.38 
-3024.19 236.359 3488.25 
-3024.27 240.298 3488.92 
-3025.24 241.286 3488.23 
-3025.28 242.517 3488.17 
-3023.35 238.649 3489.44 
-3023.06 237.803 3489.53 
-3025.34 243.079 3488.03 
-3025.3 242.8 3487.98 
-3025.38 243.209 3487.95 
-3025.45 243.789 3488.09 
-3025.42 243.339 3487.86 
-3025.42 243.29 3488.01 
-3025.44 243.544 3488.05 
-3025.49 243.752 3487.9 
-3024.56 235.983 3487.72 
-3024.72 235.927 3487.35 
-3024.66 236.164 3487.2 
-3024.47 236.678 3486.99 
-3024.58 236.424 3487.05 
-3024.35 236.94 3486.94 
-3024.25 237.232 3486.81 
-3024.24 237.399 3486.64 
-3024.15 237.619 3486.58 
-3024.39 238.013 3486.08 
-3026.19 242.552 3484.25 
-3026.25 242.366 3484.14 
-3026.01 242.479 3484.72 
-3025.89 242.288 3485.17 
-3024.84 238.604 3485.31 
-3024.92 238.572 3485.19 
-3025 238.524 3485.06 
-3025.05 238.581 3484.98 
-3024.75 238.425 3485.46 
-3024.87 238.5 3485.27 
-3025.2 238.593 3484.75 
-3025.13 238.542 3484.85 
-3025.26 238.647 3484.65 
-3025.31 238.717 3484.56 
-3025.38 238.775 3484.45 
-3025.49 238.95 3484.26 
-3025.44 238.851 3484.35 
-3025.58 239.292 3484.16 
-3025.72 239.734 3484.03 
-3025.79 240.056 3483.96 
-3025.81 240.318 3483.94 
-3025.86 240.625 3483.91 
-3025.89 240.91 3483.9 
-3026.1 241.351 3483.65 
-3026.11 241.56 3483.65 
-3026.03 241.563 3483.76 
-3026.18 241.65 3483.58 
-3026.25 241.702 3483.52 
-3026.51 241.877 3483.3 
-3026.58 241.922 3483.24 
-3026.53 241.982 3483.36 
-3026.32 241.746 3483.46 
-3026.38 241.643 3483.33 
-3026.47 241.675 3483.24 
-3026.6 242.032 3483.32 
-3026.68 242.086 3483.25 
-3026.65 242.103 3483.33 
-3026.76 242.163 3483.21 
-3026.65 242.148 3483.38 
-3026.76 242.201 3483.25 
-3026.81 242.243 3483.23 
-3026.66 242.201 3483.43 
-3026.61 242.214 3483.55 
-3026.59 242.262 3483.61 
-3026.45 242.229 3483.82 
-3026.39 242.401 3483.92 
-3025.45 242.987 3487.71 
-3025.46 243.224 3487.8 
-3025.6 242.541 3486.77 
-3025.56 242.69 3487.01 
-3025.54 242.862 3487.22 
-3025.52 243.041 3487.42 
-3025.81 242.287 3485.55 
-3025.73 242.267 3485.94 
-3025.65 242.153 3486.29 
-3025.62 242.334 3486.55 
-3024.92 249.082 3491.48 
-3024.49 250.269 3492.16 
-3025.53 248.818 3490.33 
-3025.48 249.095 3490.4 
-3024.22 251.695 3492.54 
-3023.9 252.788 3493.03 
-3023.89 253.078 3492.96 
-3024.59 251.385 3491.85 
-3024.22 252.295 3492.45 
-3025.3 250.361 3490.62 
-3025.85 249.295 3489.69 
-3032.51 273.681 3501.24 
-3032.87 273.541 3501.23 
-3033.69 275.845 3503.36 
-3033.81 275.741 3503.38 
-3033.6 275.485 3502.97 
-3033.46 274.879 3502.36 
-3033.37 274.132 3501.78 
-3033.19 273.705 3501.43 
-3033.28 272.906 3500.93 
-3033.61 273.389 3501.37 
-3032.85 272.426 3500.52 
-3032.2 272.147 3500.72 
-3033.07 277.58 3504.81 
-3033.14 277.738 3505.04 
-3033.15 277.997 3505.23 
-3032.9 278.097 3505.38 
-3032.86 278.579 3505.62 
-3032.84 279.295 3505.45 
-3031.59 272.088 3498.99 
-3031.62 272.348 3499.2 
-3031.73 272.435 3499.49 
-3031.8 271.785 3498.89 
-3032.33 272.908 3500.43 
-3031.81 271.493 3498.79 
-3033.11 280.567 3505.46 
-3033.09 279.785 3505.37 
-3033.02 281.404 3506.25 
-3033.39 281.138 3505.86 
-3030.97 285.912 3508.29 
-3031.42 286.062 3508.67 
-3029.22 284.761 3507.45 
-3029.6 285.441 3507.8 
-3030.23 285.887 3507.99 
-3030.35 281.717 3506.57 
-3029.93 282.227 3506.7 
-3029.54 282.054 3506.74 
-3029.14 282.567 3506.87 
-3029.03 283.252 3506.98 
-3028.78 283.965 3507.13 
-3032.01 286.002 3508.94 
-3031.96 286.824 3509.68 
-3031.66 286.943 3509.64 
-3031.39 287.11 3509.65 
-3032.25 286.684 3509.71 
-3032.79 286.103 3509.45 
-3032.29 286.214 3509.29 
-3032.73 286.334 3509.64 
-3032.57 286.572 3509.78 
-3027.96 287.882 3509.41 
-3027.19 287.551 3509.14 
-3026.46 287.04 3508.71 
-3028.81 288.17 3509.69 
-3025.26 286.531 3508.3 
-3026.04 287.022 3508.73 
-3024.85 286.389 3508.13 
-3028.75 287.655 3509.37 
-3029.44 287.839 3509.35 
-3029.13 287.401 3509.14 
-3024.45 286.304 3508.18 
-3030.25 287.017 3508.95 
-3029.75 287 3508.79 
-3029.24 286.969 3508.84 
-3031.04 286.931 3509.29 
-3030.58 286.831 3508.95 
-3021.82 285.045 3508.35 
-3021.59 284.807 3508.21 
-3024.32 286.391 3508.45 
-3023.95 286.294 3508.57 
-3023.7 286.108 3508.43 
-3023.32 285.978 3508.5 
-3022.9 285.888 3508.67 
-3022.55 285.781 3508.79 
-3022.34 285.537 3508.61 
-3022.06 285.346 3508.6 
-3021.08 284.281 3508.01 
-3021.2 284.478 3508.27 
-3021.41 284.724 3508.38 
-3020.83 283.995 3507.92 
-3020.7 283.876 3507.95 
-3020.45 283.573 3507.83 
-3020.19 283.292 3507.8 
-3020.01 283.085 3507.71 
-3019.82 282.961 3507.7 
-3019.65 282.855 3507.71 
-3019.52 282.758 3507.66 
-3019.51 282.63 3507.62 
-3020.75 282.393 3507.6 
-3021.74 282.153 3507.5 
-3023.16 281.842 3507.38 
-3024.65 281.539 3507.3 
-3025.75 281.424 3507.22 
-3025.91 281.239 3507.13 
-3026.59 281.144 3507.05 
-3026.9 281.58 3507.09 
-3027.37 281.437 3506.99 
-3027.86 281.388 3506.91 
-3033.11 278.115 3505.17 
-3033.15 277.85 3504.99 
-3032.8 272.03 3499.8 
-3032.15 272.116 3499.24 
-3032.18 271.884 3498.99 
-3033.39 278.514 3505.45 
-3033.37 278.751 3505.6 
-3033.62 279.635 3505.73 
-3033.88 280.781 3506.23 
-3033.4 278.273 3505.28 
-3029.1 281.931 3506.79 
-3028.63 282.388 3506.93 
-3028.38 281.967 3506.91 
-3027.88 282.096 3507 
-3033.45 281.194 3506.24 
-3023.15 236.616 3489.67 
-3023.05 236.405 3489.63 
-3022.97 236.204 3489.58 
-3022.75 236.147 3489.72 
-3022.59 236.001 3489.76 
-3022.46 235.795 3489.75 
-3022.36 235.69 3489.71 
-3022.66 236.683 3489.65 
-3024.15 236.3 3488.51 
-3023.78 236.421 3489.03 
-3024.47 236.017 3487.95 
-3023.98 239.432 3488.99 
-3025.16 240.529 3488.19 
-3025.26 241.627 3488.01 
-3025.26 242.453 3487.93 
-3023.71 238.535 3489.04 
-3025.34 242.681 3487.69 
-3025.29 242.381 3487.66 
-3025.39 242.866 3487.63 
-3025.47 243.442 3487.74 
-3025.43 242.99 3487.52 
-3025.49 243.513 3487.82 
-3025.54 243.689 3487.65 
-3025.51 243.446 3487.55 
-3024.78 235.74 3487.46 
-3024.78 235.915 3487.21 
-3024.71 236.175 3487.06 
-3024.54 236.655 3486.87 
-3024.43 236.897 3486.82 
-3024.64 236.419 3486.92 
-3024.33 237.142 3486.73 
-3024.29 237.393 3486.52 
-3024.26 237.71 3486.34 
-3024.69 238.238 3485.58 
-3026.34 242.604 3484.01 
-3026.29 242.81 3484.11 
-3026.08 242.715 3484.63 
-3025.91 242.455 3485.18 
-3024.95 238.443 3485.14 
-3025.11 238.45 3484.9 
-3025.04 238.417 3485.01 
-3024.87 238.397 3485.28 
-3025.2 238.475 3484.75 
-3025.28 238.508 3484.63 
-3025.34 238.58 3484.53 
-3025.39 238.658 3484.44 
-3025.47 238.717 3484.32 
-3025.52 238.812 3484.22 
-3025.6 238.93 3484.11 
-3025.68 239.254 3484.04 
-3025.78 239.661 3483.94 
-3026.17 240.356 3483.48 
-3026.17 240.531 3483.49 
-3026.15 240.678 3483.53 
-3026.14 240.843 3483.55 
-3026.13 241.015 3483.58 
-3026.14 241.191 3483.58 
-3026.19 241.405 3483.47 
-3026.23 241.48 3483.43 
-3026.3 241.543 3483.38 
-3026.55 241.708 3483.16 
-3026.66 241.98 3483.18 
-3026.63 241.729 3483.08 
-3026.34 241.425 3483.26 
-3026.43 241.491 3483.2 
-3026.5 241.478 3483.1 
-3026.72 242.053 3483.14 
-3026.82 242.157 3483.1 
-3026.81 242.098 3483.06 
-3026.94 242.18 3482.95 
-3026.88 242.22 3483.08 
-3026.93 242.264 3483.05 
-3026.99 242.309 3482.99 
-3026.89 242.292 3483.17 
-3026.75 242.252 3483.35 
-3026.75 242.308 3483.39 
-3026.69 242.507 3483.5 
-3026.55 242.456 3483.7 
-3026.5 242.655 3483.79 
-3025.51 243.219 3487.56 
-3025.53 243.458 3487.59 
-3025.66 242.541 3486.47 
-3025.65 242.741 3486.61 
-3025.62 242.843 3486.83 
-3025.59 242.997 3487.01 
-3025.57 243.146 3487.21 
-3025.57 243.362 3487.33 
-3025.83 242.443 3485.57 
-3025.74 242.416 3486.01 
-3025.67 242.356 3486.29 
-3024.6 250.397 3492 
-3025.21 249.214 3491.08 
-3025.89 249.594 3489.59 
-3025.54 249.399 3490.34 
-3024.35 251.627 3492.31 
-3023.96 252.999 3492.88 
-3024.78 251.605 3491.49 
-3025.02 250.996 3491.09 
-3024.04 253.01 3492.73 
-3024.26 252.473 3492.37 
-3025.4 250.62 3490.41 
-3033.2 273.165 3501.05 
-3034.06 275.607 3503.29 
-3033.95 275.672 3503.25 
-3033.85 273.635 3501.59 
-3033.77 274.896 3502.45 
-3033.9 275.383 3502.94 
-3033.71 273.983 3501.76 
-3033.51 273.504 3501.37 
-3032.74 272.612 3500.37 
-3032.37 272.343 3499.74 
-3033.11 278.258 3505.43 
-3033.11 278.655 3505.63 
-3033.06 279.224 3505.49 
-3033.43 280.383 3505.69 
-3030.65 286.204 3508.4 
-3031.05 286.348 3508.75 
-3031.42 286.417 3509.01 
-3031.77 286.251 3509.04 
-3028.56 284.377 3507.34 
-3029 285.037 3507.67 
-3029.38 285.699 3508.01 
-3030.06 286.128 3508.16 
-3028.69 282.968 3506.99 
-3028.46 283.653 3507.12 
-3031.75 286.574 3509.33 
-3031.38 286.724 3509.28 
-3032.13 286.45 3509.43 
-3028.72 288.204 3509.81 
-3027.81 287.909 3509.56 
-3026.9 287.526 3509.22 
-3028.23 287.62 3509.46 
-3025.25 286.74 3508.51 
-3024.73 286.523 3508.37 
-3026 287.169 3508.93 
-3028.17 287.118 3509.16 
-3028.64 287.153 3509.08 
-3028.65 286.682 3508.78 
-3029.91 286.705 3508.58 
-3029.21 286.454 3508.52 
-3028.62 286.198 3508.48 
-3030.92 286.611 3508.92 
-3030.42 286.533 3508.58 
-3021.84 285.223 3508.74 
-3021.63 284.992 3508.62 
-3024.24 286.525 3508.81 
-3024.58 286.616 3508.68 
-3023.92 286.455 3508.97 
-3023.56 286.194 3508.7 
-3023.2 286.08 3508.78 
-3022.82 286.006 3508.96 
-3022.52 285.921 3509.13 
-3022.25 285.643 3508.92 
-3022.03 285.483 3509.02 
-3020.98 284.209 3508.06 
-3021.14 284.46 3508.44 
-3021.41 284.818 3508.67 
-3020.44 283.603 3507.92 
-3020.88 284.117 3508.07 
-3020.65 283.866 3508.02 
-3020.25 283.406 3507.91 
-3019.99 283.116 3507.82 
-3019.87 283.017 3507.77 
-3019.68 282.903 3507.79 
-3019.51 282.786 3507.77 
-3019.7 282.65 3507.71 
-3021.11 282.392 3507.67 
-3022.4 282.097 3507.55 
-3023.33 281.873 3507.46 
-3024.8 281.646 3507.38 
-3025.41 281.783 3507.35 
-3025.75 282.106 3507.34 
-3026.27 281.718 3507.2 
-3026.95 282.251 3507.17 
-3026.53 282.107 3507.21 
-3027.45 282.013 3507.06 
-3033.33 278.34 3505.42 
-3033.3 279.339 3505.5 
-3033.68 280.54 3505.92 
-3028.1 282.671 3507.04 
-3028.2 283.232 3507.1 
-3027.23 282.677 3507.18 
-3027.62 282.813 3507.14 
-3024.16 235.941 3488.46 
-3023.95 236.188 3488.78 
-3022.89 235.992 3489.52 
-3024.34 235.702 3488.19 
-3022.69 235.834 3489.59 
-3022.61 235.622 3489.53 
-3022.47 235.625 3489.64 
-3022.38 235.466 3489.62 
-3023.04 236.672 3489.23 
-3023.41 237.554 3489.11 
-3024.49 235.952 3488.04 
-3025.07 239.639 3488.13 
-3025.26 240.48 3487.95 
-3025.22 241.828 3487.8 
-3025.23 240.864 3487.83 
-3025.24 242.077 3487.63 
-3025.02 238.907 3488.03 
-3025.36 242.399 3487.35 
-3025.32 242.176 3487.36 
-3025.27 241.926 3487.36 
-3025.41 242.547 3487.28 
-3025.48 243.048 3487.37 
-3025.45 242.614 3487.15 
-3025.58 243.614 3487.39 
-3025.56 243.43 3487.33 
-3025.52 243.035 3487.17 
-3024.78 235.647 3487.62 
-3024.89 235.653 3487.3 
-3024.91 235.737 3487.14 
-3024.81 236.006 3487.03 
-3024.73 236.275 3486.88 
-3024.62 236.589 3486.75 
-3024.5 236.865 3486.7 
-3024.39 237.126 3486.61 
-3024.36 237.349 3486.42 
-3024.34 237.684 3486.21 
-3024.73 238.168 3485.51 
-3024.88 238.287 3485.26 
-3026.44 242.849 3483.89 
-3026.38 243.049 3484 
-3026.15 242.947 3484.54 
-3025.91 242.614 3485.23 
-3025.02 238.316 3485.04 
-3024.95 238.334 3485.16 
-3025.11 238.316 3484.91 
-3025.18 238.369 3484.78 
-3025.26 238.39 3484.66 
-3025.33 238.352 3484.55 
-3025.36 238.449 3484.5 
-3025.42 238.517 3484.4 
-3025.46 238.596 3484.33 
-3025.53 238.593 3484.22 
-3025.56 238.701 3484.17 
-3025.64 238.804 3484.05 
-3025.78 239.268 3483.9 
-3025.84 239.56 3483.85 
-3026 239.921 3483.67 
-3026 240.098 3483.68 
-3026.38 240.294 3483.22 
-3026.39 240.587 3483.13 
-3026.43 240.396 3483.11 
-3026.33 240.823 3483.23 
-3026.27 241.058 3483.33 
-3026.24 241.209 3483.34 
-3026.26 241.31 3483.3 
-3026.58 241.528 3483.03 
-3026.7 241.844 3483.05 
-3026.63 241.437 3482.92 
-3026.69 241.624 3482.95 
-3026.4 241.305 3483.13 
-3026.32 241.205 3483.17 
-3026.46 241.25 3483.02 
-3026.55 241.323 3482.96 
-3026.78 241.942 3483.01 
-3026.89 242.037 3482.93 
-3026.84 241.876 3482.9 
-3027.02 242.239 3482.88 
-3026.95 241.925 3482.8 
-3027 242.069 3482.81 
-3027.09 242.283 3482.82 
-3027.14 242.347 3482.8 
-3027.03 242.383 3482.99 
-3026.91 242.415 3483.17 
-3026.81 242.549 3483.32 
-3026.81 242.802 3483.35 
-3026.65 242.725 3483.57 
-3026.6 242.916 3483.67 
-3025.72 242.578 3486.19 
-3025.7 242.755 3486.37 
-3025.72 242.983 3486.39 
-3025.67 242.987 3486.62 
-3025.65 243.145 3486.81 
-3025.63 243.31 3487.02 
-3025.62 243.537 3487.15 
-3025.81 242.564 3485.69 
-3025.78 242.657 3485.93 
-3025.13 249.927 3491.54 
-3025.94 249.866 3489.48 
-3025.54 249.481 3490.58 
-3024.72 251.447 3492.02 
-3024.15 252.961 3492.55 
-3024.49 252.393 3491.95 
-3025 251.663 3491.07 
-3025.41 250.94 3490.36 
-3034.31 275.373 3503.11 
-3034.09 273.853 3501.79 
-3034.22 275.427 3503.06 
-3034.11 274.918 3502.55 
-3033.98 274.209 3501.99 
-3028.01 283.97 3507.26 
-3028.4 284.686 3507.57 
-3028.8 285.349 3507.91 
-3029.25 286.042 3508.25 
-3029.81 286.308 3508.3 
-3028.62 288.207 3509.9 
-3027.83 287.516 3509.5 
-3028.55 288.245 3510.02 
-3028.01 288.038 3509.76 
-3027.6 287.888 3509.67 
-3026.69 287.511 3509.34 
-3027.64 286.961 3509.17 
-3024.99 286.762 3508.64 
-3025.66 287.079 3508.95 
-3027.63 286.498 3508.88 
-3028.13 286.61 3508.84 
-3028.05 286.11 3508.54 
-3028.7 285.763 3508.19 
-3028.15 285.387 3508.06 
-3028.02 285.681 3508.28 
-3021.76 285.275 3509.1 
-3021.54 285.017 3508.93 
-3024.7 286.845 3509.18 
-3024.41 286.799 3509.38 
-3025.05 286.922 3509.01 
-3024.11 286.733 3509.55 
-3023.62 286.391 3509.13 
-3023.25 286.259 3509.17 
-3023.09 286.297 3509.46 
-3022.26 285.771 3509.31 
-3022.75 286.121 3509.49 
-3022 285.575 3509.39 
-3020.96 284.209 3508.22 
-3021.08 284.42 3508.6 
-3021.33 284.836 3508.94 
-3020.48 283.711 3508.04 
-3020.83 284.088 3508.15 
-3020.72 283.98 3508.13 
-3020.24 283.444 3508 
-3020.04 283.206 3507.91 
-3019.87 283.061 3507.9 
-3019.77 282.981 3507.85 
-3019.58 282.831 3507.85 
-3020.2 282.62 3507.78 
-3021.87 282.307 3507.71 
-3022.66 282.108 3507.62 
-3023.96 281.932 3507.55 
-3024.46 281.818 3507.47 
-3024.81 282.31 3507.51 
-3025.24 282.463 3507.46 
-3026.08 282.447 3507.33 
-3025.61 282.811 3507.45 
-3026.43 282.79 3507.32 
-3026.78 283.053 3507.3 
-3027.7 283.442 3507.21 
-3027.18 283.415 3507.29 
-3023.13 235.699 3489.18 
-3024.81 235.401 3487.62 
-3024.98 235.467 3487.31 
-3022.83 235.591 3489.35 
-3022.5 235.454 3489.52 
-3023.49 235.455 3488.67 
-3022.85 235.909 3489.24 
-3024.16 237.3 3488.44 
-3025.07 238.268 3487.86 
-3025.24 239.664 3487.8 
-3025.2 241.62 3487.57 
-3025.2 240.821 3487.64 
-3025.22 239.948 3487.67 
-3025.22 241.639 3487.34 
-3025.4 242.136 3486.96 
-3025.35 241.972 3487.04 
-3025.3 241.72 3487.05 
-3025.26 241.502 3487.08 
-3025.49 242.654 3486.99 
-3025.45 242.232 3486.83 
-3025.6 243.376 3487.07 
-3025.56 243.072 3487.01 
-3025.54 242.635 3486.77 
-3025.02 235.519 3487.14 
-3024.92 235.847 3486.98 
-3024.84 236.105 3486.84 
-3024.74 236.395 3486.72 
-3024.65 236.657 3486.58 
-3024.56 236.841 3486.58 
-3024.46 237.086 3486.5 
-3024.44 237.275 3486.32 
-3024.39 237.609 3486.14 
-3024.76 238.087 3485.47 
-3024.89 238.182 3485.25 
-3024.98 238.216 3485.12 
-3026.53 243.093 3483.77 
-3026.46 243.269 3483.89 
-3026.03 242.913 3484.94 
-3026.39 243.39 3484.06 
-3025.88 242.727 3485.43 
-3025.07 238.201 3484.98 
-3025.15 238.187 3484.85 
-3025.19 238.259 3484.78 
-3025.27 238.27 3484.65 
-3025.37 238.228 3484.51 
-3025.41 238.319 3484.43 
-3025.45 238.403 3484.36 
-3025.52 238.476 3484.25 
-3025.61 238.469 3484.11 
-3025.61 238.583 3484.11 
-3025.65 238.654 3484.03 
-3025.77 238.897 3483.88 
-3025.8 239.136 3483.86 
-3026.01 239.506 3483.62 
-3026.03 239.727 3483.62 
-3026.42 240.075 3483.15 
-3026.47 240.238 3483.04 
-3026.36 240.737 3483.12 
-3026.45 240.361 3483.03 
-3026.42 240.513 3483.02 
-3026.31 240.948 3483.2 
-3026.29 241.082 3483.19 
-3026.76 241.731 3482.92 
-3026.6 241.199 3482.83 
-3026.67 241.214 3482.76 
-3026.7 241.416 3482.83 
-3026.77 241.513 3482.8 
-3026.39 241.1 3483.04 
-3026.33 240.972 3483.05 
-3026.52 241.106 3482.88 
-3026.45 241.008 3482.91 
-3026.9 241.76 3482.77 
-3026.83 241.646 3482.79 
-3027.08 242.044 3482.71 
-3026.97 241.664 3482.64 
-3027.01 241.854 3482.68 
-3027.14 242.158 3482.71 
-3027.1 242.461 3482.91 
-3027.05 242.184 3482.94 
-3027.04 242.563 3483.02 
-3026.93 242.687 3483.15 
-3026.93 242.958 3483.18 
-3026.89 243.105 3483.25 
-3026.75 242.996 3483.45 
-3026.69 243.196 3483.55 
-3025.75 242.816 3486.14 
-3025.78 243.056 3486.14 
-3025.76 243.204 3486.3 
-3025.71 243.232 3486.55 
-3025.69 243.406 3486.76 
-3025.66 243.483 3486.91 
-3025.85 242.806 3485.67 
-3025.81 242.915 3485.92 
-3025.42 250.066 3491.35 
-3025.99 250.123 3489.44 
-3025.67 249.678 3490.59 
-3025.42 250.864 3491.52 
-3024.52 252.704 3492.15 
-3024.95 252.043 3491.17 
-3025.51 251.19 3490.21 
-3034.56 275.141 3502.93 
-3034.32 274.173 3502.06 
-3034.45 274.928 3502.65 
-3027.84 284.347 3507.47 
-3028.25 285.029 3507.82 
-3027.97 287.774 3509.76 
-3027.27 287.224 3509.43 
-3027.08 286.723 3509.13 
-3028.47 288.252 3510.13 
-3028.01 288.13 3510.02 
-3027.29 287.83 3509.75 
-3026.42 287.46 3509.4 
-3027.11 286.351 3508.89 
-3025.56 287.113 3509.11 
-3027.55 285.977 3508.56 
-3027.07 285.908 3508.62 
-3027.44 285.407 3508.22 
-3027.67 284.675 3507.71 
-3027.57 285.039 3507.96 
-3021.81 285.471 3509.56 
-3021.61 285.229 3509.37 
-3021.47 285.041 3509.18 
-3025.16 287.093 3509.39 
-3024.91 287.109 3509.71 
-3024.64 287.095 3509.97 
-3024.2 286.935 3510.03 
-3023.66 286.585 3509.63 
-3023.35 286.557 3509.93 
-3022.51 285.963 3509.54 
-3022.2 285.786 3509.66 
-3023.1 286.406 3509.97 
-3020.89 284.151 3508.34 
-3021 284.348 3508.71 
-3021.28 284.884 3509.2 
-3020.62 283.903 3508.19 
-3020.36 283.612 3508.1 
-3020.77 284.043 3508.29 
-3020 283.201 3507.99 
-3019.77 283.029 3507.98 
-3019.67 282.939 3507.91 
-3019.87 282.789 3507.92 
-3020.99 282.524 3507.82 
-3022.82 282.213 3507.74 
-3023.5 282.114 3507.66 
-3023.83 282.54 3507.69 
-3024.28 282.482 3507.61 
-3024.31 283.058 3507.69 
-3024.78 282.991 3507.6 
-3025.19 283.108 3507.56 
-3025.93 283.144 3507.45 
-3025.43 283.6 3507.6 
-3026.28 283.511 3507.44 
-3026.7 283.728 3507.41 
-3027.37 283.989 3507.38 
-3027.08 284.219 3507.55 
-3024.59 235.633 3487.79 
-3024.98 235.309 3487.42 
-3022.83 235.391 3489.15 
-3024.01 236.4 3488.4 
-3025.03 236.977 3487.64 
-3025.03 236.362 3487.55 
-3025.07 237.632 3487.72 
-3025.21 238.934 3487.61 
-3025.22 238.494 3487.65 
-3025.18 241.357 3487.31 
-3025.18 240.537 3487.47 
-3025.19 239.48 3487.48 
-3025.21 241.174 3487.03 
-3025.42 241.805 3486.59 
-3025.38 241.669 3486.68 
-3025.34 241.545 3486.77 
-3025.3 241.283 3486.73 
-3025.25 241.143 3486.8 
-3025.5 242.307 3486.68 
-3025.47 241.912 3486.47 
-3025.63 243.147 3486.76 
-3025.59 242.873 3486.74 
-3025.57 242.428 3486.46 
-3025.52 242.09 3486.38 
-3025.13 235.457 3487.11 
-3025.02 235.676 3486.96 
-3024.96 235.924 3486.79 
-3024.85 236.219 3486.68 
-3024.76 236.496 3486.54 
-3024.67 236.765 3486.42 
-3024.56 236.968 3486.41 
-3024.44 237.492 3486.1 
-3024.53 237.172 3486.24 
-3024.75 237.969 3485.49 
-3024.91 238.065 3485.24 
-3024.97 238.108 3485.14 
-3025.05 238.092 3485.01 
-3026.61 243.345 3483.68 
-3026.57 243.56 3483.75 
-3026 243.019 3485.12 
-3026.4 243.561 3484.12 
-3025.13 238.076 3484.89 
-3025.21 238.072 3484.77 
-3025.25 238.152 3484.7 
-3025.33 238.152 3484.58 
-3025.4 238.086 3484.46 
-3025.45 238.199 3484.38 
-3025.5 238.277 3484.3 
-3025.53 238.361 3484.24 
-3025.61 238.359 3484.12 
-3025.69 238.332 3483.99 
-3025.7 238.424 3483.97 
-3025.69 238.541 3483.98 
-3025.75 238.685 3483.89 
-3026.01 239.069 3483.59 
-3026 239.267 3483.62 
-3026.47 239.872 3483.07 
-3026.31 239.581 3483.27 
-3026.54 239.948 3482.94 
-3026.51 240.099 3482.99 
-3026.51 240.144 3482.92 
-3026.35 240.837 3483.06 
-3026.4 240.645 3483.01 
-3026.48 240.301 3482.92 
-3026.46 240.408 3482.89 
-3026.58 240.96 3482.73 
-3026.65 240.991 3482.66 
-3026.73 241.07 3482.61 
-3026.75 241.288 3482.69 
-3026.83 241.398 3482.67 
-3026.39 240.867 3482.92 
-3026.39 240.731 3482.92 
-3026.51 240.881 3482.77 
-3026.44 240.758 3482.79 
-3026.89 241.529 3482.66 
-3027.07 241.776 3482.58 
-3027.13 241.969 3482.62 
-3026.95 241.419 3482.53 
-3027.03 241.567 3482.51 
-3027.05 241.925 3482.82 
-3026.95 242.035 3483.07 
-3026.91 242.27 3483.24 
-3027 242.68 3483.12 
-3026.95 242.769 3483.22 
-3026.99 243.072 3483.14 
-3026.94 243.234 3483.23 
-3026.85 243.245 3483.32 
-3026.82 243.39 3483.37 
-3026.76 243.463 3483.47 
-3025.83 243.19 3485.95 
-3025.8 243.225 3486.06 
-3025.76 243.327 3486.32 
-3025.73 243.345 3486.5 
-3025.68 243.218 3486.6 
-3025.9 243 3485.49 
-3025.86 243.067 3485.73 
-3026.1 250.244 3489.42 
-3025.92 249.877 3490.21 
-3025.77 250.138 3490.92 
-3025.48 251.48 3491.59 
-3024.72 252.953 3492.06 
-3024.94 252.299 3491.36 
-3025.43 251.542 3490.52 
-3027.56 287.576 3509.75 
-3026.75 286.926 3509.35 
-3026.56 285.911 3508.73 
-3026.52 286.353 3509.02 
-3028.45 288.323 3510.31 
-3028.11 288.001 3510.07 
-3027.93 288.161 3510.16 
-3027.18 287.85 3509.89 
-3026.34 287.492 3509.55 
-3025.58 287.201 3509.34 
-3026.99 285.411 3508.32 
-3026.53 285.415 3508.42 
-3027.06 284.642 3507.82 
-3026.85 284.867 3508.01 
-3022 285.689 3509.86 
-3021.73 285.51 3509.92 
-3021.59 285.315 3509.69 
-3021.42 285.097 3509.47 
-3025.33 287.249 3509.7 
-3025.15 287.33 3510.09 
-3025.09 287.439 3510.46 
-3024.66 287.264 3510.44 
-3024.26 287.142 3510.55 
-3023.82 286.814 3510.11 
-3023.71 286.859 3510.43 
-3022.75 286.15 3509.87 
-3022.42 285.937 3509.87 
-3023.39 286.646 3510.41 
-3020.81 284.087 3508.49 
-3020.93 284.287 3508.83 
-3021.21 284.887 3509.44 
-3020.52 283.818 3508.2 
-3020.67 283.965 3508.41 
-3020.55 283.855 3508.33 
-3020.4 283.708 3508.23 
-3020.15 283.404 3508.11 
-3019.87 283.114 3508.04 
-3019.66 282.913 3508 
-3019.69 283.005 3508.06 
-3020.74 282.681 3507.96 
-3021.39 282.505 3507.87 
-3022.67 282.379 3507.83 
-3023.17 282.665 3507.81 
-3023.78 283.241 3507.79 
-3023.4 283.041 3507.83 
-3024.07 283.745 3507.89 
-3024.48 283.627 3507.76 
-3024.93 283.641 3507.69 
-3025.87 283.805 3507.58 
-3025.38 284.179 3507.88 
-3025.83 284.286 3507.85 
-3026.51 284.164 3507.63 
-3025.18 237.202 3487.33 
-3025.16 236.419 3487.16 
-3025.19 238.188 3487.46 
-3025.15 240.818 3487.33 
-3025.15 240.958 3487.11 
-3025.16 239.549 3487.29 
-3025.17 238.488 3487.32 
-3025.22 240.82 3486.7 
-3025.18 240.742 3486.8 
-3025.44 241.487 3486.26 
-3025.39 241.346 3486.36 
-3025.34 241.167 3486.44 
-3025.29 240.9 3486.43 
-3025.25 240.734 3486.48 
-3025.49 241.63 3486.15 
-3025.66 242.809 3486.37 
-3025.61 242.676 3486.46 
-3025.62 242.342 3486.14 
-3025.57 242.097 3486.17 
-3025.54 241.74 3486.03 
-3025.12 235.673 3486.97 
-3025.08 235.814 3486.83 
-3025.06 235.958 3486.68 
-3024.94 236.09 3486.61 
-3024.85 236.379 3486.48 
-3024.76 236.639 3486.35 
-3024.65 236.939 3486.24 
-3024.51 237.489 3485.96 
-3024.79 237.893 3485.44 
-3024.56 237.211 3486.11 
-3024.91 237.969 3485.24 
-3025.01 237.992 3485.08 
-3025.1 237.967 3484.94 
-3026.7 243.567 3483.57 
-3026.63 243.809 3483.69 
-3026.68 243.703 3483.61 
-3026.29 243.554 3484.49 
-3026.56 243.883 3483.83 
-3025.19 237.956 3484.81 
-3025.31 238.043 3484.6 
-3025.26 237.97 3484.69 
-3025.39 237.977 3484.48 
-3025.5 237.96 3484.31 
-3025.48 238.092 3484.34 
-3025.54 238.158 3484.24 
-3025.58 238.242 3484.17 
-3025.67 238.247 3484.03 
-3025.78 238.232 3483.85 
-3025.78 238.311 3483.85 
-3025.79 238.38 3483.83 
-3025.77 238.459 3483.86 
-3025.76 238.549 3483.87 
-3026.01 238.861 3483.58 
-3026.58 239.293 3482.9 
-3026.54 239.466 3482.96 
-3026.55 239.67 3482.97 
-3026.59 239.741 3482.89 
-3026.59 239.79 3482.86 
-3026.55 239.967 3482.88 
-3026.53 240.118 3482.81 
-3026.57 239.913 3482.79 
-3026.43 240.575 3482.9 
-3026.52 240.183 3482.76 
-3026.49 240.347 3482.78 
-3026.57 240.72 3482.62 
-3026.63 240.76 3482.56 
-3026.71 240.837 3482.51 
-3026.78 240.927 3482.47 
-3026.81 241.153 3482.56 
-3026.88 241.272 3482.53 
-3026.44 240.608 3482.78 
-3026.47 240.454 3482.76 
-3026.5 240.651 3482.66 
-3026.47 240.513 3482.66 
-3027.09 241.58 3482.48 
-3027.11 241.779 3482.55 
-3026.94 241.141 3482.39 
-3027.01 241.338 3482.41 
-3027.08 241.404 3482.38 
-3027.01 241.675 3482.76 
-3026.93 241.809 3483.02 
-3026.83 242.064 3483.31 
-3026.77 242.307 3483.51 
-3026.77 242.604 3483.6 
-3026.7 242.685 3483.75 
-3026.91 243.402 3483.29 
-3026.62 242.728 3483.92 
-3026.87 243.563 3483.37 
-3026.81 243.68 3483.41 
-3025.86 243.106 3485.7 
-3025.82 242.906 3485.72 
-3025.77 242.777 3485.82 
-3025.75 243.007 3486.11 
-3025.7 242.927 3486.25 
-3026.01 243.184 3485.21 
-3025.9 243.048 3485.5 
-3026.24 250.352 3489.4 
-3025.82 251.045 3489.93 
-3026 250.205 3490.5 
-3025.91 251.045 3491.19 
-3025.1 252.905 3491.73 
-3025.27 251.979 3490.95 
-3026.89 287.186 3509.61 
-3027.6 287.695 3509.94 
-3026.19 286.58 3509.24 
-3026.04 285.336 3508.47 
-3026.05 285.821 3508.78 
-3025.78 285.998 3508.94 
-3028.33 288.343 3510.45 
-3028 288.027 3510.21 
-3027.73 288.138 3510.25 
-3027.09 287.883 3510.04 
-3026.16 287.479 3509.65 
-3025.64 287.344 3509.7 
-3026.42 284.889 3508.11 
-3025.97 284.827 3508.16 
-3026.29 284.367 3507.81 
-3022.2 285.824 3510.07 
-3021.87 285.631 3510.12 
-3021.55 285.394 3510.03 
-3021.37 285.156 3509.78 
-3025.47 287.442 3510.13 
-3025.12 287.598 3510.89 
-3025.43 287.586 3510.57 
-3024.73 287.452 3510.9 
-3024.59 287.495 3511.18 
-3024.13 287.188 3510.87 
-3022.98 286.345 3510.26 
-3022.57 286.05 3510.15 
-3023.9 287.039 3510.9 
-3023.55 286.791 3510.79 
-3020.7 284.003 3508.61 
-3020.87 284.238 3508.97 
-3021.12 284.863 3509.65 
-3020.55 283.866 3508.51 
-3020.44 283.759 3508.41 
-3020.27 283.594 3508.26 
-3019.98 283.244 3508.13 
-3019.78 283.082 3508.12 
-3020.24 282.835 3508.06 
-3019.93 282.96 3508.14 
-3021.73 282.656 3508.01 
-3022.21 282.519 3507.92 
-3022.61 282.997 3507.94 
-3022.89 283.366 3507.96 
-3023.33 283.694 3508 
-3023.82 283.991 3508.08 
-3024.37 284.451 3508.26 
-3024.59 284.225 3508.07 
-3024.95 284.147 3507.95 
