-3218.99 190.95 5846.45 
-3219.26 191.688 5846.96 
-3210.16 174.584 5860.9 
-3210.24 174.919 5860.74 
-3210.62 178.342 5863.02 
-3210.86 179.891 5863.3 
-3210.19 175.083 5861.52 
-3210.36 176.282 5862 
-3210.44 177.085 5862.66 
-3211.36 182.551 5863.8 
-3211.2 181.929 5864.1 
-3211.11 181.411 5863.83 
-3210.96 180.745 5864.01 
-3211.53 183.237 5863.46 
-3211.62 183.491 5862.99 
-3211.67 183.198 5863.04 
-3211.68 182.824 5862.84 
-3211.68 182.526 5862.57 
-3210.06 173.694 5860.06 
-3209.94 174.003 5860.91 
-3210.05 174.283 5860.95 
-3209.91 173.658 5859.13 
-3210.65 174.707 5860.38 
-3210.53 174.663 5860.73 
-3207.29 174.98 5858.07 
-3207.88 174.159 5858.33 
-3205.14 175.109 5857.95 
-3205.89 175.654 5857.6 
-3201.49 172.09 5859.13 
-3201.83 172.767 5858.87 
-3202.53 174.058 5858.46 
-3202.11 173.398 5858.65 
-3203.48 175.25 5857.8 
-3202.75 174.78 5857.95 
-3208.28 161.336 5861.18 
-3208.07 161.947 5860.67 
-3205.95 164.41 5860.01 
-3206.28 164.28 5859.81 
-3208.26 160.947 5861.83 
-3208.43 160.274 5863.29 
-3207.05 160.556 5865.46 
-3205.43 161.419 5867.68 
-3205.19 161.668 5867.96 
-3204.94 161.502 5868.54 
-3205.21 161.16 5868.6 
-3204.82 160.62 5869.58 
-3203.44 159.095 5870.48 
-3204.07 159.968 5870.25 
-3206.53 164.274 5859.55 
-3207.22 164 5859.16 
-3208.1 163.997 5858.72 
-3220.84 164.405 5855.41 
-3219.18 164.248 5855.79 
-3221.77 165.262 5854.83 
-3213.91 163.429 5857.97 
-3210.24 162.732 5858.46 
-3218.05 164.167 5856.12 
-3203.27 159.899 5870.28 
-3203.32 160.633 5869.95 
-3203.46 161.322 5869.58 
-3203.62 161.944 5869.23 
-3204.06 162.968 5868.52 
-3203.83 162.629 5868.81 
-3204.32 163.576 5867.99 
-3204.89 162.597 5867.22 
-3205.57 162.496 5866.14 
-3207.51 161.749 5863.44 
-3207.24 162.162 5862.49 
-3204.87 163.264 5862.02 
-3204.88 163.018 5862.34 
-3204.38 163.32 5862.42 
-3203.33 163.62 5862.77 
-3203.64 163.506 5862.66 
-3204 163.304 5862.57 
-3203.05 163.718 5862.86 
-3202.81 163.751 5862.98 
-3202.82 164.195 5864.01 
-3202.59 163.762 5863.15 
-3202.26 163.821 5863.24 
-3202.45 164.024 5863.73 
-3201.87 164.754 5863.2 
-3202.39 164.321 5864.01 
-3201.15 164.784 5862.71 
-3201.25 164.915 5862.24 
-3201.64 164.793 5862.2 
-3202.05 164.601 5862.23 
-3202.18 164.657 5861.96 
-3202.18 164.92 5861.48 
-3202.15 165.313 5860.82 
-3202.12 165.602 5860.35 
-3202.08 165.751 5860.14 
-3201.25 169.411 5859.51 
-3201.48 169.736 5859.43 
-3201.4 170.338 5859.43 
-3201.22 167.874 5859.53 
-3201.26 168.455 5859.51 
-3201.37 168.896 5859.47 
-3201.45 171.235 5859.28 
-3202.15 165.858 5860.03 
-3201.9 166.107 5859.9 
-3201.58 166.518 5859.69 
-3201.42 166.742 5859.55 
-3201.25 167.307 5859.51 
-3201.92 166.26 5859.8 
-3223.66 180.659 5848.33 
-3221.37 176.875 5848.91 
-3220.04 171.387 5851.83 
-3220.99 168.978 5852.48 
-3222.69 179.876 5847.51 
-3221.99 179.437 5846.95 
-3221.39 178.782 5846.47 
-3221.51 179.03 5846.54 
-3221.28 166.877 5853.67 
-3222.9 180.236 5847.73 
-3216.18 161.39 5851.78 
-3215.61 159.924 5851.96 
-3216.05 159.934 5851.81 
-3216.48 160.318 5851.72 
-3217.05 162.708 5851.58 
-3216.71 162.878 5851.67 
-3223.86 191.362 5852.25 
-3222.34 192.566 5850.29 
-3221.83 193.067 5848.67 
-3221.72 192.98 5849.07 
-3222.35 192.814 5848.11 
-3221.9 192.616 5850.02 
-3221.6 192.869 5849.38 
-3223.07 192.383 5847.53 
-3223.71 191.934 5847.19 
-3224.32 191.51 5846.76 
-3224.76 191.208 5846.22 
-3225.17 190.891 5846.48 
-3225.59 190.55 5846.82 
-3225.84 190.358 5846.73 
-3226.03 190.196 5846.78 
-3227.17 189.609 5847.44 
-3226.45 190.118 5846.47 
-3227.11 187.902 5849.6 
-3227.89 188.752 5849.44 
-3227.83 188.517 5849.44 
-3227.58 189.509 5847.42 
-3227.18 187.621 5847.6 
-3227.82 188.024 5848.62 
-3228.08 188.364 5847.24 
-3227.95 190.022 5844.86 
-3227.02 189.695 5844.57 
-3226.29 188.779 5844.92 
-3225.65 190.167 5843.52 
-3226.22 190.393 5843.6 
-3224.95 190.052 5843.57 
-3225.44 189.526 5842.98 
-3223.47 182.419 5847.6 
-3223.54 181.886 5848.28 
-3223.61 181.678 5848.33 
-3223.59 181.468 5848.38 
-3223.31 181.103 5848.21 
-3222.75 180.638 5847.73 
-3223.28 180.696 5848.09 
-3224.92 189.136 5842.74 
-3224.83 188.648 5842.32 
-3224.72 187.91 5842.23 
-3224.28 186.02 5844.39 
-3224.49 186.655 5842.54 
-3224.48 186.169 5842.41 
-3225.18 185.662 5840.89 
-3224.97 186.138 5841.2 
-3224.46 184.097 5843.97 
-3219.93 193.188 5848.99 
-3220.33 193.055 5849.2 
-3220.57 192.728 5849.96 
-3220.94 192.64 5850.09 
-3221.84 192.263 5851.01 
-3222.31 192.403 5850.76 
-3221.85 192.434 5850.52 
-3221.37 192.484 5850.38 
-3219.91 193.451 5847.74 
-3219.69 192.99 5847.58 
-3219.52 192.312 5847.21 
-3219.76 193.283 5848.6 
-3219.83 193.264 5848.73 
-3219.88 193.379 5848.21 
-3220.18 193.531 5847.65 
-3211.32 180.495 5864.27 
-3211.52 181.438 5863.67 
-3211.71 178.349 5861.57 
-3211.16 179.576 5864.53 
-3211.1 179.847 5865.14 
-3211.18 180.191 5864.82 
-3211.12 180 5865.08 
-3216.57 178.293 5852.45 
-3219.27 179.246 5857.68 
-3218.4 178.92 5858.78 
-3216.24 177.613 5859.43 
-3213.62 177.284 5860.24 
-3214.42 177.045 5859.98 
-3212.49 177.711 5860.63 
-3212.86 177.361 5860.52 
-3216.07 179.838 5847.52 
-3216.58 180.772 5845.54 
-3216.4 182.032 5845.3 
-3217.3 183.275 5844.95 
-3218.31 185.875 5845.21 
-3219.17 187.017 5845.06 
-3218.38 184.648 5844.69 
-3219.5 187.333 5844.99 
-3219.05 189.237 5845.51 
-3219.27 189.646 5845.34 
-3219.18 190.043 5845.37 
-3219.31 190.703 5845.85 
-3219.4 188.43 5845.29 
-3219.72 187.65 5844.84 
-3219.56 191.397 5846.27 
-3219.77 191.973 5846.5 
-3210.07 174.676 5861.54 
-3210.43 177.437 5863.39 
-3210.59 178.689 5863.99 
-3210.78 179.837 5864.11 
-3210.2 175.421 5862.08 
-3210.09 175.051 5862.15 
-3210.26 176.052 5862.68 
-3211.02 181.194 5864.52 
-3211.12 181.766 5864.76 
-3211.29 182.493 5864.5 
-3211.45 183.043 5863.98 
-3210.87 180.526 5864.63 
-3211.56 183.593 5864.01 
-3211.64 183.748 5863.56 
-3211.67 183.444 5863.47 
-3211.34 181.247 5864.54 
-3211.42 181.344 5864.13 
-3210.12 173.523 5860.53 
-3209.95 174.5 5861.75 
-3209.81 173.973 5861.41 
-3211.04 175.213 5860.74 
-3210.04 173.523 5859.06 
-3208.51 173.597 5858.5 
-3210.88 175.497 5861.37 
-3210.44 174.629 5861.1 
-3207.72 173.908 5858.3 
-3206.25 175.085 5857.69 
-3203.42 176.107 5857.26 
-3204.28 176.724 5856.9 
-3201.77 171.885 5859.04 
-3202.1 172.541 5858.79 
-3202.64 173.993 5858.28 
-3202.4 173.446 5858.5 
-3203.19 175.574 5857.4 
-3203.09 174.303 5857.96 
-3203.22 175.004 5857.62 
-3205.67 164.446 5860.24 
-3205.53 164.322 5860.48 
-3207.44 161.944 5861.27 
-3203.93 166.055 5859.51 
-3204.16 165.83 5859.7 
-3204.14 166.156 5859.35 
-3207.8 161.271 5862.55 
-3205.67 163.726 5860.89 
-3207.35 161.079 5864.52 
-3205.39 161.39 5867.5 
-3205.15 161.91 5867.56 
-3204.91 161.873 5868.08 
-3204.64 161.882 5868.46 
-3204.58 161.578 5868.94 
-3204.7 161.265 5869.19 
-3204.95 161.171 5868.96 
-3204.59 160.744 5869.78 
-3203.18 159.454 5870.61 
-3203.84 160.066 5870.35 
-3204.32 166.262 5859.19 
-3204.66 166.448 5859.09 
-3209.41 163.849 5857.76 
-3206.41 166.203 5859.1 
-3221.23 165.042 5854.8 
-3220.31 164.648 5855.06 
-3219.2 164.614 5855.42 
-3214.52 165.003 5857.04 
-3210.67 163.347 5858.76 
-3217.87 165.766 5855.23 
-3203.16 160.097 5870.28 
-3203.12 160.524 5870.13 
-3203.26 161.147 5869.79 
-3203.4 161.779 5869.44 
-3203.51 162.381 5869.13 
-3203.66 162.579 5868.94 
-3203.95 163.16 5868.52 
-3204.31 163.248 5867.91 
-3203.8 163.121 5868.63 
-3205.71 161.87 5866.5 
-3204.84 162.248 5867.7 
-3207.62 161.433 5863.73 
-3207.34 162.01 5862.26 
-3204.93 163.612 5861.49 
-3204.82 163.477 5861.73 
-3202.88 165.297 5860.65 
-3203.21 164.739 5861.25 
-3203.09 164.679 5861.38 
-3202.72 164.947 5861.16 
-3202.87 164.495 5861.76 
-3202.61 164.586 5861.7 
-3202.48 164.529 5861.75 
-3202.37 164.472 5861.93 
-3202.34 164.27 5862.36 
-3202.21 164.191 5862.64 
-3201.87 163.902 5863.3 
-3201.86 164.183 5862.82 
-3202.08 164.107 5863.77 
-3201.8 164.277 5863.82 
-3200.97 164.49 5863.11 
-3201.15 164.446 5862.83 
-3201.44 164.572 5862.55 
-3201.84 164.459 5862.5 
-3202.29 164.911 5861.28 
-3202.34 165.091 5860.89 
-3202.3 165.463 5860.31 
-3202.33 165.623 5860.17 
-3201.58 169.194 5859.4 
-3201.82 169.508 5859.31 
-3201.69 170.097 5859.35 
-3201.71 170.949 5859.22 
-3201.6 167.513 5859.41 
-3201.49 168.04 5859.44 
-3201.63 168.531 5859.39 
-3202.48 165.682 5860.16 
-3202.24 165.982 5859.98 
-3201.79 166.51 5859.65 
-3201.58 167.009 5859.43 
-3201.96 166.621 5859.5 
-3202.32 166.101 5859.92 
-3202.13 166.31 5859.78 
-3220.28 174.726 5850.75 
-3220.6 178.012 5846.17 
-3219.98 178.337 5845.56 
-3220.17 168.892 5852.8 
-3218.47 169.22 5853.24 
-3218.57 172.52 5851.69 
-3217.43 170.576 5852.76 
-3220.79 166.671 5853.7 
-3222.11 179.793 5847.11 
-3221.46 179.369 5846.57 
-3221.1 178.994 5846.19 
-3220.84 178.636 5845.94 
-3222.5 180.255 5847.48 
-3216.1 161.587 5851.87 
-3215.52 160.092 5852.05 
-3215.96 160.058 5851.9 
-3216.36 160.42 5851.82 
-3216.86 163.094 5851.68 
-3216.58 162.948 5851.77 
-3221.45 193.121 5848.74 
-3221.64 193.109 5848.48 
-3222.12 192.875 5847.99 
-3222.71 192.551 5847.5 
-3221.48 192.68 5849.87 
-3221.17 193.04 5849.05 
-3223.34 192.188 5846.88 
-3223.96 191.793 5846.34 
-3224.37 191.514 5845.79 
-3224.46 191.378 5845.63 
-3224.83 191.138 5845.82 
-3225.36 190.734 5846.34 
-3225.52 190.593 5846.37 
-3225.74 190.42 5846.41 
-3226.92 190.094 5846.08 
-3226.22 190.339 5846.05 
-3228.19 188.52 5848.87 
-3228 189.424 5847.37 
-3228.5 189.38 5847.25 
-3227.38 190.039 5845.93 
-3229.01 189.314 5847.13 
-3229.06 189.11 5846.96 
-3228.56 189.938 5845.51 
-3227.37 190.581 5844.05 
-3228.03 190.075 5845.39 
-3227.57 190.322 5844.81 
-3226.78 190.501 5843.64 
-3226.65 190.745 5844.05 
-3225.34 190.734 5844.15 
-3224.82 190.593 5844.1 
-3226 190.775 5844.12 
-3224.09 190.48 5844.23 
-3223.98 190.107 5843.85 
-3224.58 189.664 5843.3 
-3223.12 181.759 5848.16 
-3223.5 182.111 5846.74 
-3224.65 183.499 5843.78 
-3223.1 181.464 5848.15 
-3222.94 181.131 5847.97 
-3222.47 180.737 5847.56 
-3222.11 180.445 5846.91 
-3222 180.192 5847.08 
-3224.12 189.017 5842.83 
-3223.96 189.52 5843.32 
-3224.23 188.385 5842.29 
-3224.53 187.69 5841.81 
-3224.22 187.097 5841.49 
-3223.98 186.36 5841.32 
-3224.28 185.876 5840.89 
-3225.52 185.247 5840.25 
-3224.8 185.385 5840.21 
-3220.11 193.313 5848.57 
-3220.43 193.26 5848.6 
-3220.67 192.999 5849.26 
-3221.07 192.836 5849.57 
-3220.42 193.636 5847.14 
-3220.17 193.201 5847.05 
-3219.96 192.623 5846.83 
-3220.18 193.461 5847.97 
-3220.14 193.395 5848.24 
-3220.72 193.71 5847.02 
-3220.48 193.602 5847.45 
-3211.49 178.061 5861.74 
-3211.08 179.258 5864.73 
-3211.07 179.625 5865.14 
-3211.03 179.846 5865.37 
-3211.06 179.952 5865.32 
-3211.09 180.048 5865.21 
-3217.42 177.854 5852.55 
-3219.78 178.864 5856.61 
-3218.73 178.353 5857.4 
-3217.48 177.708 5858.11 
-3215.16 176.653 5859.57 
-3216.05 176.807 5858.71 
-3213.45 177.018 5860.33 
-3214.27 176.626 5860.04 
-3212.14 177.461 5860.78 
-3212.62 177.057 5860.64 
-3216.49 179.736 5847.28 
-3217.09 181.223 5844.85 
-3217.04 180.394 5845.56 
-3217.45 182.292 5844.61 
-3218.58 183.562 5844.24 
-3219.42 185.982 5844.47 
-3219.91 186.539 5844.38 
-3219.51 184.697 5843.96 
-3220.36 186.652 5844.15 
-3219.61 188.871 5845.13 
-3219.75 189.878 5845.02 
-3219.94 189.16 5844.9 
-3219.68 190.49 5845.23 
-3219.87 191.073 5845.52 
-3220.03 187.93 5844.84 
-3220.54 187.087 5844.23 
-3220.06 191.612 5845.74 
-3220.2 192.234 5846.1 
-3210.25 176.528 5863.58 
-3210.46 178.168 5864.45 
-3210.69 179.698 5864.83 
-3209.96 175.013 5862.61 
-3210.09 175.53 5863 
-3210.81 180.42 5865.17 
-3210.96 181.144 5865.13 
-3211.2 182.263 5865.08 
-3211.06 181.701 5865.39 
-3211.06 183.093 5865.36 
-3211.42 183.082 5864.46 
-3211.54 183.683 5864.48 
-3211.25 182.443 5865.33 
-3211.26 181.906 5865.12 
-3211.25 181.19 5864.97 
-3211.02 180.102 5865.53 
-3209.78 173.427 5860.73 
-3209.82 174.54 5862.36 
-3209.66 174.216 5862.45 
-3209.65 173.697 5861.56 
-3210.66 174.164 5859.64 
-3211.76 176.003 5861.08 
-3210.76 176.506 5863.43 
-3211.25 176.126 5861.29 
-3208.29 173.517 5858.37 
-3210.56 175.727 5863.26 
-3210.51 176.116 5863.99 
-3210.6 176.269 5863.71 
-3210.23 174.361 5861.41 
-3206.65 174.351 5857.93 
-3204.01 176.473 5856.89 
-3204.21 175.895 5857.07 
-3202.04 171.654 5858.97 
-3202.37 172.469 5858.68 
-3202.92 173.91 5858.15 
-3203.23 174.073 5857.96 
-3202.63 173.356 5858.39 
-3204.43 175.296 5857.26 
-3203.63 174.257 5857.72 
-3203.56 174.744 5857.56 
-3203.8 165.832 5859.79 
-3203.85 165.666 5859.99 
-3203.53 166.279 5859.38 
-3203.19 166.274 5859.49 
-3203.51 166.065 5859.63 
-3203.82 166.348 5859.24 
-3207.79 161.584 5862.18 
-3205.47 163.59 5861.24 
-3203.24 165.845 5859.99 
-3204.63 162.282 5868 
-3204.51 162.363 5868.18 
-3204.48 162.007 5868.61 
-3204.41 161.469 5869.37 
-3204.4 161.893 5868.92 
-3204.47 161.087 5869.73 
-3203.96 160.437 5870.28 
-3203.07 159.757 5870.58 
-3204.21 167.053 5859.03 
-3203.84 166.839 5859.12 
-3204.83 167.055 5859.02 
-3210.98 164.925 5857.55 
-3206.74 166.829 5858.91 
-3219.92 164.891 5854.85 
-3220.22 166.313 5853.85 
-3218.82 165.78 5854.67 
-3211.36 166.761 5857.05 
-3215.88 167.632 5854.97 
-3217.1 168.091 5854.26 
-3218.71 168.079 5853.77 
-3203.09 161.083 5869.93 
-3202.92 160.474 5870.25 
-3203.2 161.623 5869.64 
-3203.34 162.256 5869.29 
-3203.46 162.922 5868.95 
-3203.62 163.026 5868.79 
-3204.14 163.297 5868.09 
-3204 163.269 5868.23 
-3205.24 163.612 5861.31 
-3202.92 165.562 5860.32 
-3203.16 165.079 5860.87 
-3202.62 165.366 5860.51 
-3202.58 165.756 5860.13 
-3202.54 164.997 5861.04 
-3201.49 164.01 5863.37 
-3201.5 164.263 5862.89 
-3201.15 164.119 5863.42 
-3201.85 168.899 5859.31 
-3201.97 170.023 5859.25 
-3202.13 169.124 5859.21 
-3202.13 169.549 5859.2 
-3201.98 170.782 5859.14 
-3201.79 167.988 5859.34 
-3201.95 167.163 5859.34 
-3202 167.665 5859.29 
-3201.97 168.396 5859.28 
-3202.62 165.874 5860.07 
-3202.36 166.385 5859.63 
-3202.68 166.409 5859.51 
-3202.37 166.649 5859.39 
-3202.79 165.961 5859.97 
-3202.63 166.153 5859.8 
-3219.36 174.123 5851.63 
-3220.16 175.76 5850.64 
-3219.57 178.329 5846.76 
-3220.49 178.135 5845.35 
-3220.29 178.147 5843.56 
-3220 178.779 5842.55 
-3220.32 178.326 5841.3 
-3220.45 178.031 5841.19 
-3219.7 167.633 5853.51 
-3216.25 169.111 5854.01 
-3216.71 171.605 5852.9 
-3217.82 173.12 5852.48 
-3215.21 170.181 5854.26 
-3214.92 169.644 5854.45 
-3221.77 179.84 5846.88 
-3221.44 179.518 5846.12 
-3221.23 179.194 5845.66 
-3221.09 178.933 5845.22 
-3220.88 178.73 5845.42 
-3220.83 178.508 5844.88 
-3216.13 162.084 5851.93 
-3215.43 160.219 5852.14 
-3215.96 160.261 5851.97 
-3216.6 163.026 5851.79 
-3221.18 193.17 5848.6 
-3221.26 193.161 5848.4 
-3221.63 193.089 5848.22 
-3222.14 192.857 5847.63 
-3222.82 192.455 5847.09 
-3220.78 193.179 5848.77 
-3223.53 192.054 5846.42 
-3223.9 191.976 5845.84 
-3224.05 191.45 5845.48 
-3224.59 191.247 5845.59 
-3224.17 191.275 5845.42 
-3225.06 190.943 5845.97 
-3225.29 190.748 5846.04 
-3225.55 190.598 5846.02 
-3226.7 190.336 5845.51 
-3225.98 190.566 5845.62 
-3227.86 189.972 5845.86 
-3228.46 189.817 5846.02 
-3227.18 190.299 5845.17 
-3226.8 190.598 5844.57 
-3225.98 190.779 5844.63 
-3225.22 190.855 5844.59 
-3224.43 190.884 5844.75 
-3224.03 190.859 5844.62 
-3223.28 190.88 5844.77 
-3223.23 190.497 5844.41 
-3223.42 189.922 5843.88 
-3222.83 181.436 5847.6 
-3223.05 181.561 5846.82 
-3223.48 181.868 5845.67 
-3224.7 182.984 5843.4 
-3225.78 184.76 5839.82 
-3222.56 181.073 5847.52 
-3222.41 180.794 5846.78 
-3222.37 180.568 5845.85 
-3222.04 180.225 5846.04 
-3221.75 179.888 5846.11 
-3223.57 189.282 5843.35 
-3223.84 188.747 5842.81 
-3223.9 188.197 5842.43 
-3224.2 187.753 5841.91 
-3223.86 186.953 5841.63 
-3223.53 186.168 5841.43 
-3223.63 185.628 5841.19 
-3223.88 185.189 5840.87 
-3225.1 184.858 5839.68 
-3224.28 184.755 5840.31 
-3220.45 193.397 5848.13 
-3220.68 193.293 5848.28 
-3220.86 193.211 5848.49 
-3220.9 193.778 5846.61 
-3220.63 193.34 5846.49 
-3220.43 192.824 5846.31 
-3220.56 193.52 5847.7 
-3221.15 193.752 5846.87 
-3220.87 193.584 5847.32 
-3211.34 177.801 5861.93 
-3211.03 178.904 5864.75 
-3211 179.23 5865.28 
-3210.99 179.497 5865.41 
-3211 179.74 5865.61 
-3210.95 179.958 5865.75 
-3211.03 180.007 5865.47 
-3218.77 177.675 5853.66 
-3216.96 179.409 5847.47 
-3217.8 176.831 5855.86 
-3216.15 176.073 5857.34 
-3214.65 175.486 5858.83 
-3214.02 175.707 5859.39 
-3213.18 176.807 5860.69 
-3213.41 175.792 5859.81 
-3211.95 177.209 5860.88 
-3211.86 176.967 5860.94 
-3212.54 176.813 5860.7 
-3217.94 181.469 5844.14 
-3217.69 180.65 5844.65 
-3217.58 180.133 5845.46 
-3218.67 182.563 5843.94 
-3219.49 183.237 5843.53 
-3220.21 185.654 5843.8 
-3220.48 185.941 5843.66 
-3220.05 184.331 5843.37 
-3220.83 185.714 5843.32 
-3220.87 186.357 5843.43 
-3220.2 188.357 5844.72 
-3220.43 189.201 5844.56 
-3220.11 190.331 5844.89 
-3220.6 188.434 5844.44 
-3220.14 190.667 5845.1 
-3220.37 191.175 5845.32 
-3220.71 187.564 5844.31 
-3221.04 186.813 5843.51 
-3220.47 191.796 5845.6 
-3220.63 192.379 5845.86 
-3210.23 176.847 5864.39 
-3210.07 175.988 5863.89 
-3210.62 179.589 5865.39 
-3210.42 178.379 5865.24 
-3209.81 174.994 5863.2 
-3209.94 175.484 5863.55 
-3210.7 180.103 5865.73 
-3210.84 180.72 5865.54 
-3210.92 181.184 5865.76 
-3210.35 183.552 5866.08 
-3209.77 183.766 5866.63 
-3211.42 183.233 5864.84 
-3210.36 184.931 5865.75 
-3207.4 189.126 5867.58 
-3210.59 184.486 5866 
-3211.36 183.428 5865.23 
-3210.51 180.692 5867.58 
-3210.69 180.427 5866.86 
-3210.86 180.243 5866.17 
-3209.63 173.282 5861.12 
-3209.5 173.597 5862.01 
-3209.49 174.104 5862.97 
-3209.65 174.805 5863.58 
-3210.74 173.99 5859.41 
-3212.46 175.805 5860.49 
-3212.14 176.121 5860.92 
-3208.86 173.116 5858.42 
-3211.47 176.371 5861.16 
-3210.85 176.723 5863.16 
-3210.46 176.92 5865.81 
-3210.54 177.438 5866.01 
-3207.05 173.859 5858.05 
-3210.39 175.612 5863.97 
-3210.32 176.685 5866.12 
-3210.11 174.313 5861.88 
-3202.33 171.609 5858.85 
-3202.68 172.57 5858.5 
-3202.94 173.627 5858.18 
-3203.15 173.863 5858.04 
-3203.51 173.998 5857.83 
-3203.72 174.139 5857.7 
-3204.45 174.964 5857.29 
-3206.24 174.012 5857.8 
-3204.58 174.47 5857.41 
-3204.62 174.211 5857.41 
-3203.13 166.056 5859.78 
-3203.35 166.666 5859.22 
-3202.92 166.545 5859.33 
-3202.96 166.189 5859.66 
-3203.01 165.734 5860.15 
-3204.41 162.329 5868.45 
-3204.31 161.834 5869.21 
-3204.28 161.392 5869.72 
-3204.31 162.282 5868.72 
-3204.14 160.941 5870.15 
-3203.61 160.351 5870.46 
-3202.84 159.903 5870.62 
-3204.09 167.749 5858.93 
-3203.66 167.608 5859.02 
-3203.33 167.34 5859.11 
-3204.69 167.635 5858.94 
-3206.31 167.616 5858.89 
-3219.29 165.782 5854.2 
-3207.44 168.002 5858.32 
-3214.27 168.214 5855.34 
-3202.83 160.865 5870.12 
-3203 161.495 5869.83 
-3202.75 160.211 5870.57 
-3203.16 162.079 5869.49 
-3203.3 162.833 5869.09 
-3203.71 163.202 5868.59 
-3203.84 163.247 5868.41 
-3202.19 168.761 5859.2 
-3202.27 169.961 5859.14 
-3202.26 170.73 5859.03 
-3202.56 168.997 5859.09 
-3202.45 169.394 5859.11 
-3202.57 169.874 5859.04 
-3202.2 168.102 5859.22 
-3202.42 167.187 5859.27 
-3202.43 167.779 5859.18 
-3202.41 168.521 5859.15 
-3219.85 176.309 5850.83 
-3219.04 174.603 5852.06 
-3219.12 178.553 5846.85 
-3220.45 177.805 5843.76 
-3220.53 177.121 5844.49 
-3220.6 177.721 5841.06 
-3219.68 179.107 5842.63 
-3220.76 178.622 5840.37 
-3221.16 178.405 5840.01 
-3221.42 178.038 5839.58 
-3221.44 177.696 5839.72 
-3212.91 168.615 5855.67 
-3214.65 170.831 5854.5 
-3216 172.398 5853.72 
-3217.48 174.06 5853.13 
-3213.25 169.532 5855.2 
-3213.21 170.008 5855.33 
-3221.8 179.751 5844.99 
-3221.54 179.432 5845.01 
-3221.36 179.162 5844.68 
-3221.11 178.808 5844.42 
-3221.02 178.055 5843.98 
-3216.02 162.179 5852.02 
-3215.31 160.311 5852.23 
-3215.85 160.354 5852.06 
-3216.4 163.281 5851.88 
-3221.03 193.251 5848.17 
-3221.37 193.191 5848.11 
-3221.69 193.347 5847.74 
-3222.46 193.047 5847.04 
-3223.18 192.56 5846.46 
-3223.58 192.296 5845.79 
-3223.74 191.397 5845.34 
-3224.84 191.071 5845.64 
-3224.36 191.152 5845.41 
-3223.88 191.156 5845.25 
-3225.11 190.891 5845.65 
-3226.29 190.639 5845.04 
-3225.52 190.87 5845.18 
-3225.22 190.905 5844.93 
-3224.48 190.938 5845.1 
-3223.88 190.965 5845.13 
-3223.56 190.937 5844.98 
-3222.84 190.833 5844.8 
-3223.06 190.949 5844.87 
-3222.97 190.198 5844.39 
-3223.17 189.623 5843.88 
-3222.76 181.182 5846.65 
-3224.35 182.478 5843.18 
-3223.34 181.534 5844.81 
-3223.03 181.351 5845.81 
-3225.99 184.296 5839.46 
-3225.37 184.337 5839.19 
-3222.7 180.958 5845.81 
-3222.67 180.756 5844.93 
-3222.37 180.389 5844.88 
-3222.08 180.075 5845.05 
-3223.29 189.072 5843.45 
-3223.54 188.612 5842.97 
-3223.53 188.096 5842.66 
-3223.85 187.631 5842.11 
-3223.53 186.927 5841.86 
-3223.22 186.259 5841.64 
-3223.09 185.55 5841.38 
-3223.25 185.091 5841.15 
-3223.38 184.62 5840.92 
-3224.53 184.162 5839.79 
-3223.66 184.173 5840.53 
-3220.89 193.413 5847.8 
-3221.27 193.795 5846.42 
-3221.02 193.341 5846.26 
-3220.91 192.814 5846.03 
-3221.2 193.516 5847.36 
-3221.53 194.016 5846.5 
-3221.49 193.837 5846.94 
-3211.22 177.567 5862.12 
-3210.97 178.608 5864.94 
-3210.94 178.933 5865.42 
-3210.95 179.19 5865.51 
-3210.92 179.384 5865.68 
-3210.84 179.604 5866.01 
-3210.77 180.068 5866.46 
-3210.9 180.104 5865.98 
-3210.73 180.264 5866.64 
-3217.44 179.119 5847.61 
-3218.91 177.079 5852.65 
-3217.92 176.162 5854.52 
-3216.08 175.328 5856.43 
-3214.52 174.664 5858.04 
-3213.37 174.242 5858.39 
-3212.99 174.771 5858.99 
-3212.33 176.669 5860.8 
-3213.08 176.367 5860.53 
-3212.29 175.122 5859.74 
-3211.71 174.012 5858.88 
-3211.13 177.384 5862.4 
-3211.55 176.715 5861.1 
-3218.31 180.726 5844.03 
-3218.93 181.631 5843.45 
-3218.19 180.115 5844.95 
-3217.84 179.052 5847.29 
-3219.36 181.793 5842.96 
-3219.79 183.024 5842.99 
-3220.42 185.014 5843.1 
-3220.24 183.671 5842.71 
-3220.73 184.842 5842.75 
-3221 185.072 5842.65 
-3221.07 185.821 5842.7 
-3221.07 188.494 5844.12 
-3220.59 190.251 5844.67 
-3220.45 190.79 5844.95 
-3221.14 187.745 5844.06 
-3220.55 190.748 5845.05 
-3220.87 190.901 5845.1 
-3220.8 191.376 5845.35 
-3221.41 187.041 5843.67 
-3221.49 186.162 5843 
-3220.86 191.909 5845.6 
-3221.08 192.296 5845.75 
-3210.2 177.144 5865.18 
-3210.05 176.411 5864.75 
-3209.9 175.88 5864.41 
-3210.55 179.505 5866.01 
-3210.39 178.613 5866.02 
-3209.77 175.387 5864.1 
-3210.77 180.578 5866.05 
-3210.63 179.97 5866.3 
-3209.89 182.701 5866.79 
-3204.57 192.849 5869.56 
-3205.74 190.016 5869.12 
-3207.75 189.589 5867.2 
-3202.96 196.333 5870.3 
-3205.29 193.085 5868.79 
-3210.34 183.748 5866.98 
-3210.25 180.922 5868.62 
-3210.4 180.72 5868 
-3210.55 180.514 5867.4 
-3209.48 173.147 5861.5 
-3209.35 173.429 5862.37 
-3209.45 174.629 5864.06 
-3209.3 173.878 5863.34 
-3209.6 175.33 5864.68 
-3210.75 173.687 5859.04 
-3212.2 176.401 5860.88 
-3209 172.799 5858.26 
-3207.3 173.586 5858.01 
-3210.96 177.011 5862.97 
-3210.73 177.76 5865.71 
-3210.4 177.127 5866.19 
-3210.68 177.98 5865.98 
-3210.57 177.785 5866.19 
-3210.45 177.498 5866.31 
-3210.23 175.422 5864.5 
-3210.16 176.366 5866.34 
-3210.27 176.799 5866.34 
-3210.04 174.505 5863.03 
-3209.87 173.975 5862.12 
-3202.58 171.587 5858.72 
-3202.87 172.003 5858.49 
-3203 173.123 5858.23 
-3203.31 173.74 5857.97 
-3203.56 173.9 5857.82 
-3204.84 173.857 5857.43 
-3204.72 174.036 5857.41 
-3206.21 173.85 5857.71 
-3206.16 173.69 5857.6 
-3202.89 167.168 5859.2 
-3204.22 162.247 5868.98 
-3204.21 161.729 5869.54 
-3204.12 161.293 5870.07 
-3203.72 160.719 5870.39 
-3204.05 168.476 5858.82 
-3203.59 168.273 5858.92 
-3203.12 168.214 5859 
-3202.88 167.817 5859.1 
-3205.25 167.792 5859 
-3204.78 168.303 5858.88 
-3207.37 168.214 5858.29 
-3202.58 160.979 5870.13 
-3202.98 161.979 5869.65 
-3202.66 161.55 5869.9 
-3202.55 160.405 5870.57 
-3203.61 160.867 5870.45 
-3203.13 162.488 5869.35 
-3203.55 163.246 5868.72 
-3203.17 163.017 5869.11 
-3202.53 170.688 5858.9 
-3202.8 169.44 5859.01 
-3202.79 168.651 5859.04 
-3202.95 169.071 5858.98 
-3202.92 170.047 5858.89 
-3202.83 170.942 5858.72 
-3202.63 168.246 5859.1 
-3219.21 175.604 5852.23 
-3219.28 177.299 5850.15 
-3218.59 178.802 5846.84 
-3218.91 179.493 5845.2 
-3220.48 177.101 5843.07 
-3220.71 177.453 5840.97 
-3220.54 176.033 5843.81 
-3220.39 176.018 5842.67 
-3221.59 177.508 5839.76 
-3219.31 179.566 5842.97 
-3220.19 178.826 5840.91 
-3221.18 179.01 5840.21 
-3220.61 179.204 5840.67 
-3221.52 178.639 5839.83 
-3221.56 178.206 5839.6 
-3210.77 168.204 5856.72 
-3206.83 168.312 5858.5 
-3213.61 171.174 5855.29 
-3212.87 170.291 5855.63 
-3216.36 174.096 5854.32 
-3215.05 172.704 5854.73 
-3218.02 175.436 5853.39 
-3212.42 169.385 5855.69 
-3212.37 169.835 5855.94 
-3222.04 179.859 5844.12 
-3221.78 179.587 5844.31 
-3221.64 179.357 5843.99 
-3221.37 179.037 5843.96 
-3221.24 178.583 5843.63 
-3221.37 177.902 5843 
-3221.17 177.425 5843.32 
-3215.91 162.314 5852.11 
-3215.21 160.421 5852.32 
-3215.72 160.489 5852.13 
-3216.18 163.529 5851.99 
-3221.28 193.344 5847.75 
-3221.93 193.632 5847.28 
-3221.55 193.61 5847.36 
-3222.36 193.715 5846.7 
-3222.98 193.114 5846.31 
-3223.28 192.368 5845.7 
-3223.45 191.328 5845.2 
-3224.53 191.044 5845.41 
-3224.02 191.049 5845.24 
-3223.49 191.067 5845.07 
-3224.72 190.978 5845.35 
-3224.21 190.962 5845.3 
-3223.71 191.015 5845.11 
-3223.41 190.983 5844.99 
-3222.63 190.61 5844.74 
-3222.72 190.963 5844.9 
-3223 190.989 5844.9 
-3222.78 189.827 5844.31 
-3222.93 189.221 5843.83 
-3226.06 183.969 5839.06 
-3225.74 183.564 5839.11 
-3224.24 182.189 5842.36 
-3223.32 181.324 5843.86 
-3222.99 181.131 5844.89 
-3225.48 183.752 5838.79 
-3224.68 183.578 5839.37 
-3222.98 180.943 5843.99 
-3222.67 180.577 5844.01 
-3222.35 180.187 5843.91 
-3223.16 188.585 5843.26 
-3223.2 187.946 5842.83 
-3223.46 187.497 5842.33 
-3223.14 186.791 5842.08 
-3222.84 185.931 5841.7 
-3222.61 185.21 5841.45 
-3222.81 184.788 5841.21 
-3222.92 184.259 5840.98 
-3223.08 183.831 5840.76 
-3223.62 183.519 5840.23 
-3221.34 193.179 5846.1 
-3221.66 193.563 5846.19 
-3221.35 192.581 5845.83 
-3221.83 194.169 5846.54 
-3221.85 193.982 5846.94 
-3210.93 178.404 5865.12 
-3210.87 178.603 5865.59 
-3210.84 179.005 5865.77 
-3210.68 179.285 5866.2 
-3210.73 179.356 5866.29 
-3210.63 179.927 5866.87 
-3210.54 180.403 5867.39 
-3219.09 176.817 5851.65 
-3216.36 174.841 5855.29 
-3214.58 173.994 5857.12 
-3213.12 173.228 5857.64 
-3212.25 173.75 5858.43 
-3212.05 172.951 5857.84 
-3210.56 173.114 5858.55 
-3211.22 172.971 5858.15 
-3211.05 177.118 5862.47 
-3210.8 178.237 5865.52 
-3218.85 180.395 5843.13 
-3219.33 180.15 5842.25 
-3218.51 179.735 5845.21 
-3218.94 180.076 5843.48 
-3218.16 178.963 5847.03 
-3219.81 181.766 5842.32 
-3219.92 180.036 5841.7 
-3220.23 182.336 5842.03 
-3220.6 183.82 5842.26 
-3220.95 184.039 5841.92 
-3221.23 184.713 5842.14 
-3221.54 185.395 5842.37 
-3221.67 187.798 5843.73 
-3221.3 189.237 5844.22 
-3221.02 190.347 5844.66 
-3220.89 190.875 5844.93 
-3221.78 186.977 5843.34 
-3221.21 191.157 5845.18 
-3221.31 190.698 5844.91 
-3221.24 191.754 5845.47 
-3221.82 186.351 5842.84 
-3210.17 177.448 5865.95 
-3210.03 176.865 5865.62 
-3209.89 176.328 5865.27 
-3209.75 175.87 5865.05 
-3210.48 179.382 5866.63 
-3210.33 178.645 5866.68 
-3210.03 181.612 5866.92 
-3209.99 180.826 5867.15 
-3206.4 187.937 5869.01 
-3204.03 192.442 5870.38 
-3203.23 194.645 5870.64 
-3205.34 189.234 5869.92 
-3209.48 184.879 5867.46 
-3205.71 191.099 5869.08 
-3210.07 181.093 5869.31 
-3210.28 180.773 5868.45 
-3209.33 173.011 5861.9 
-3209.18 173.28 5862.8 
-3209.43 175.182 5865.15 
-3209.27 174.325 5864.31 
-3209.11 173.674 5863.79 
-3209.6 175.814 5865.57 
-3209.04 172.553 5858.11 
-3207.18 173.431 5857.87 
-3210.7 178.347 5866.06 
-3210.32 177.169 5866.46 
-3210.62 178.173 5866.27 
-3210.72 178.388 5865.96 
-3210.51 177.932 5866.45 
-3210.38 177.571 5866.57 
-3210.06 175.36 5865.41 
-3210.01 175.99 5866.5 
-3210.17 176.767 5866.58 
-3210.04 176.383 5866.69 
-3209.72 173.895 5862.71 
-3209.93 174.965 5865.35 
-3203.15 171.893 5858.39 
-3203.18 172.933 5858.16 
-3203.54 173.672 5857.86 
-3203.79 173.831 5857.71 
-3204.89 173.749 5857.39 
-3206.76 173.168 5857.56 
-3206.74 173.359 5857.66 
-3204.11 162.409 5869.06 
-3204.14 162.028 5869.38 
-3204.1 161.682 5869.83 
-3203.9 161.38 5870.24 
-3204.3 169.07 5858.75 
-3203.75 169.262 5858.75 
-3203.57 168.855 5858.83 
-3203.17 168.738 5858.93 
-3205.08 168.546 5858.9 
-3202.26 161.069 5870.16 
-3202.7 162.065 5869.7 
-3202.99 162.547 5869.42 
-3202.27 161.65 5869.94 
-3202.32 160.59 5870.58 
-3203.46 161.007 5870.52 
-3203.35 163.319 5868.87 
-3203.02 163.074 5869.19 
-3203.17 169.503 5858.9 
-3203.34 169.179 5858.87 
-3203.16 171.024 5858.59 
-3203.29 170.235 5858.72 
-3220.76 177.062 5840.82 
-3221.54 177.239 5839.96 
-3220.6 175.177 5843.19 
-3220.28 174.857 5842.31 
-3220.83 176.387 5840.65 
-3221.82 177.591 5839.54 
-3221.69 178.118 5839.38 
-3219.5 179.445 5841.85 
-3220.03 179.161 5841.08 
-3221.02 179.525 5840.5 
-3221.65 179.043 5839.89 
-3221.55 179.433 5840.1 
-3220.76 179.989 5840.84 
-3220.32 179.731 5841.05 
-3221.74 178.75 5839.37 
-3209.61 168.451 5857.32 
-3206.29 168.671 5858.68 
-3212.59 170.674 5855.91 
-3212.4 171.176 5856.1 
-3213.53 172.005 5856.13 
-3212.08 170.262 5856.27 
-3214.86 173.437 5855.91 
-3209.8 168.979 5857.12 
-3210.09 169.482 5857.02 
-3221.91 179.59 5843.53 
-3222.17 179.817 5843.17 
-3221.85 179.405 5842.94 
-3221.61 179.183 5843.25 
-3221.48 178.759 5843.07 
-3221.61 178.234 5842.48 
-3221.63 177.496 5842.13 
-3221.4 177.059 5842.56 
-3215.8 162.57 5852.21 
-3215.14 160.59 5852.39 
-3215.76 161.608 5852.03 
-3215.92 163.95 5852.17 
-3222.21 194.17 5846.43 
-3222.76 193.415 5846.1 
-3222.96 192.37 5845.59 
-3223.08 191.433 5845.15 
-3223.02 191.059 5844.98 
-3223.24 191.027 5844.96 
-3222.41 190.924 5844.91 
-3222.48 190.231 5844.6 
-3222.86 191.018 5844.94 
-3222.57 191.004 5844.96 
-3222.55 189.464 5844.24 
-3222.72 188.867 5843.78 
-3225.65 183.351 5838.77 
-3225.09 183.221 5838.75 
-3225.35 183.248 5838.49 
-3225.21 182.881 5839.1 
-3223.77 181.595 5842.34 
-3223.24 181.074 5843.06 
-3224.49 182.944 5839.16 
-3223.96 183.018 5839.68 
-3222.95 180.742 5843.11 
-3222.66 180.401 5843.07 
-3222.45 180.085 5842.77 
-3222.87 188.344 5843.34 
-3222.81 187.863 5843.1 
-3223.04 187.335 5842.56 
-3222.74 186.429 5842.14 
-3222.41 185.608 5841.81 
-3222.15 184.817 5841.52 
-3222.37 184.502 5841.28 
-3222.48 184.004 5841.06 
-3222.61 183.455 5840.81 
-3222.86 183.151 5840.6 
-3223.11 182.712 5840.23 
-3221.66 192.883 5845.88 
-3221.98 193.031 5845.88 
-3222 193.849 5846.23 
-3221.6 192.16 5845.57 
-3210.78 178.74 5865.93 
-3210.8 178.51 5865.81 
-3210.71 178.885 5866.2 
-3210.64 179.091 5866.48 
-3210.56 179.631 5866.97 
-3210.39 180.448 5867.93 
-3210.4 180.107 5867.73 
-3213.41 172.679 5857.01 
-3211.84 172.227 5857.26 
-3212.3 171.815 5856.74 
-3211.04 172.368 5857.52 
-3210.49 172.601 5857.98 
-3220.26 180.628 5841.31 
-3220.71 182.668 5841.57 
-3220.62 181.548 5841.29 
-3221.27 183.926 5841.54 
-3221.11 183.019 5841.34 
-3221.56 184.747 5841.87 
-3221.96 185.27 5841.93 
-3221.94 185.895 5842.4 
-3221.99 187.988 5843.74 
-3222.17 187.333 5843.26 
-3221.83 188.778 5844.09 
-3221.65 189.627 5844.46 
-3221.58 191.437 5845.25 
-3221.6 190.759 5844.95 
-3221.8 189.997 5844.61 
-3222.23 186.728 5842.78 
-3210.16 177.794 5866.71 
-3210.01 177.326 5866.54 
-3209.88 176.769 5866.08 
-3209.74 176.352 5865.94 
-3210.13 179.355 5867.33 
-3209.03 181.643 5867.98 
-3210.18 178.462 5867.52 
-3207.22 185.69 5868.76 
-3206.75 185.688 5869.45 
-3204.65 190.099 5870.57 
-3204.09 192.05 5870.63 
-3207.84 186.054 5868.63 
-3206.05 186.742 5870.02 
-3209.15 184.55 5867.87 
-3209.84 181.426 5869.93 
-3210.01 180.8 5869.39 
-3210.2 180.633 5868.68 
-3209.17 172.859 5862.3 
-3209.01 173.1 5863.19 
-3209.23 174.739 5865.18 
-3209.32 175.35 5865.93 
-3209.46 175.765 5866.05 
-3209.06 174.138 5864.83 
-3208.92 173.541 5864.36 
-3209.6 176.267 5866.37 
-3208.67 172.44 5857.9 
-3210.24 177.185 5866.7 
-3210.65 178.497 5866.28 
-3210.55 178.346 5866.54 
-3210.44 177.998 5866.69 
-3210.3 177.614 5866.81 
-3209.86 175.561 5866.61 
-3209.88 175.997 5866.87 
-3210.1 176.845 5866.85 
-3209.96 176.503 5866.98 
-3209.49 173.62 5863.14 
-3209.72 174.236 5864.15 
-3209.75 174.896 5866.26 
-3203.55 172.057 5858.22 
-3203.46 172.78 5858.08 
-3203.65 173.534 5857.85 
-3205.08 173.418 5857.42 
-3204.99 173.574 5857.4 
-3206.47 173.087 5857.4 
-3207.85 172.589 5857.62 
-3203.98 162.507 5869.22 
-3204.05 162.092 5869.53 
-3203.98 161.813 5869.96 
-3203.71 161.543 5870.33 
-3204.08 170.007 5858.52 
-3204.89 169.167 5858.78 
-3203.57 169.752 5858.73 
-3201.95 161.113 5870.21 
-3202.36 162.173 5869.73 
-3202.81 162.667 5869.45 
-3201.8 161.446 5870.11 
-3202.1 160.845 5870.56 
-3203.29 161.108 5870.61 
-3203.2 163.25 5869.1 
-3203.49 171.19 5858.43 
-3203.72 170.656 5858.48 
-3221.67 177.07 5840 
-3220.7 174.475 5842.57 
-3220.18 173.605 5841.97 
-3220.99 175.776 5840.41 
-3221.81 176.865 5840 
-3222 177.281 5839.66 
-3221.99 177.734 5839.3 
-3221.86 178.182 5839.24 
-3221.82 178.71 5839.54 
-3221.81 178.407 5839.39 
-3221.33 179.968 5840.44 
-3221.87 179.316 5839.68 
-3221.81 179.913 5840.08 
-3221.15 180.486 5840.74 
-3221.04 181.085 5840.95 
-3220.64 180.715 5841.09 
-3206.26 168.937 5858.65 
-3211.93 170.775 5856.11 
-3211.64 171.21 5856.19 
-3210.45 170.142 5856.81 
-3205.98 170.107 5858.31 
-3206.1 169.415 5858.57 
-3205.52 170.948 5858.17 
-3207.95 169.964 5857.82 
-3222.11 179.616 5842.44 
-3222.34 179.83 5842.1 
-3221.75 178.961 5842.42 
-3221.99 179.37 5842.08 
-3221.84 178.112 5841.81 
-3221.89 177.376 5841.38 
-3221.65 176.673 5841.73 
-3215.57 162.619 5852.33 
-3215.02 160.683 5852.47 
-3215.63 162.168 5852.05 
-3215.59 163.861 5852.33 
-3222.52 193.144 5845.89 
-3222.72 191.722 5845.28 
-3222.69 191.059 5845 
-3222.19 190.657 5844.82 
-3222.27 191.002 5844.98 
-3222.28 189.926 5844.51 
-3222.35 191.069 5845.03 
-3222.34 189.063 5844.13 
-3222.49 188.415 5843.69 
-3224.25 182.545 5839.05 
-3224.85 182.836 5838.54 
-3225.07 182.634 5838.83 
-3224.78 182.585 5838.49 
-3223.58 181.29 5842 
-3223.21 180.901 5842.33 
-3223.53 182.379 5839.69 
-3223.61 182.211 5839.44 
-3222.93 180.554 5842.24 
-3222.67 180.258 5842.28 
-3222.61 180.076 5841.72 
-3222.37 187.891 5843.47 
-3222.61 187.41 5842.97 
-3222.62 186.842 5842.55 
-3222.31 186.098 5842.25 
-3221.8 184.29 5841.61 
-3222 183.924 5841.22 
-3222.17 183.342 5840.94 
-3222.27 182.781 5840.7 
-3222.51 182.515 5840.51 
-3222.71 182.025 5840.21 
-3221.99 192.057 5845.47 
-3222.38 191.746 5845.32 
-3222.32 192.836 5845.77 
-3221.99 191.194 5845.11 
-3210.61 178.715 5866.45 
-3210.54 178.712 5866.66 
-3210.52 179.049 5866.84 
-3210.5 179.428 5867.08 
-3210.34 179.876 5867.83 
-3210.18 180.331 5868.61 
-3210.83 171.893 5856.99 
-3211.48 171.715 5856.77 
-3209.85 171.899 5857.66 
-3221 181.908 5841.15 
-3221.56 183.61 5841.28 
-3221.38 182.74 5841.12 
-3222.16 188.477 5843.92 
-3222.02 189.17 5844.23 
-3221.79 190.989 5845.03 
-3221.95 190.452 5844.77 
-3222.09 189.706 5844.44 
-3210.09 177.967 5867.47 
-3209.86 177.136 5866.84 
-3209.97 177.69 5867.52 
-3209.71 176.766 5866.8 
-3209.71 179.167 5868.11 
-3209.41 179.244 5868.53 
-3207.89 183.359 5868.81 
-3210.24 178.692 5867.64 
-3210.23 178.152 5867.37 
-3210.32 178.455 5867.26 
-3207.92 182.571 5869.15 
-3207.56 182.835 5869.57 
-3206.79 184.347 5870.03 
-3205.5 187.364 5870.58 
-3204.72 189.787 5870.75 
-3208.21 184.021 5869.5 
-3209.46 181.289 5870.32 
-3209.78 180.586 5869.91 
-3209.98 180.384 5869.3 
-3209 172.691 5862.68 
-3208.86 172.948 5863.55 
-3209.05 174.569 5865.67 
-3209.17 175.014 5865.94 
-3209.31 175.571 5866.42 
-3209.16 175.112 5866.28 
-3209.45 176.014 5866.62 
-3208.91 174.089 5865.4 
-3208.74 173.586 5865.22 
-3208.74 173.174 5864.46 
-3209.55 176.357 5866.86 
-3210.17 177.26 5866.93 
-3210.47 178.388 5866.79 
-3210.37 178.049 5866.93 
-3210.23 177.69 5867.05 
-3209.75 175.561 5866.95 
-3209.84 176.435 5867.34 
-3209.76 176.161 5867.4 
-3210.03 176.945 5867.12 
-3209.91 176.82 5867.41 
-3209.29 173.42 5863.68 
-3209.5 174.057 5864.98 
-3209.57 174.642 5866.63 
-3209.69 175.279 5867.12 
-3203.94 171.618 5858.18 
-3204.07 172.398 5857.96 
-3203.99 172.904 5857.87 
-3203.9 173.367 5857.8 
-3205.14 173.301 5857.43 
-3207.53 172.256 5857.37 
-3207.48 172.535 5857.42 
-3209.66 171.551 5857.36 
-3203.95 162.229 5869.62 
-3203.85 161.997 5870.03 
-3203.34 161.44 5870.57 
-3204.76 170.108 5858.46 
-3204.05 170.898 5858.3 
-3202.18 162.58 5869.61 
-3202.59 162.819 5869.44 
-3201.96 161.997 5869.87 
-3201.98 161.144 5870.53 
-3201.54 161.742 5870.05 
-3202.97 163.249 5869.27 
-3203.86 162.439 5869.6 
-3220.58 173.317 5841.99 
-3221.21 175.234 5840.24 
-3221.96 176.46 5839.84 
-3222.17 177.049 5839.71 
-3222.18 177.513 5839.34 
-3222.04 178.162 5839.04 
-3221.95 178.706 5839.38 
-3222.01 178.494 5839.2 
-3221.95 179.063 5839.56 
-3221.59 180.493 5840.44 
-3222.02 179.442 5839.67 
-3222.04 179.857 5839.85 
-3222.04 180.428 5840.1 
-3221.51 181.308 5840.73 
-3221.41 182.001 5840.94 
-3210.67 170.701 5856.51 
-3210.97 171.331 5856.36 
-3208.32 170.567 5857.58 
-3206.6 170.974 5857.96 
-3204.54 171.668 5857.97 
-3204.62 171.194 5858.06 
-3205.37 171.828 5857.85 
-3222.22 179.451 5841.43 
-3222.42 179.787 5841.37 
-3221.99 178.743 5841.68 
-3222.1 177.962 5841.07 
-3222.17 177.13 5840.53 
-3221.92 176.723 5841.03 
-3221.79 176.065 5841.1 
-3215.27 162.296 5852.45 
-3214.83 160.687 5852.56 
-3215.39 162.073 5852.1 
-3215.35 163.309 5852.26 
-3215.23 163.88 5852.51 
-3215.21 163.026 5852.52 
-3222.01 190.97 5844.99 
-3223.48 181.876 5839.28 
-3224.13 182.221 5838.88 
-3224.8 182.295 5838.83 
-3224.51 182.221 5838.45 
-3224.19 182.115 5838.7 
-3223.47 181.062 5841.5 
-3223.21 180.775 5841.64 
-3222.84 181.765 5839.9 
-3222.89 181.549 5839.66 
-3223.13 180.585 5841.14 
-3222.87 180.359 5841.59 
-3222.86 180.224 5840.92 
-3222.67 179.971 5840.8 
-3221.77 183.127 5841.03 
-3221.85 182.453 5840.9 
-3221.97 181.942 5840.6 
-3222.23 181.662 5840.39 
-3222.48 181.374 5840.11 
-3210.46 178.736 5866.91 
-3210.35 179.507 5867.64 
-3210.37 179.129 5867.39 
-3210.17 179.988 5868.46 
-3209.91 171.234 5856.97 
-3210.15 177.746 5867.31 
-3209.83 177.359 5867.52 
-3210.04 177.458 5867.46 
-3209.68 176.987 5867.46 
-3210.12 179.015 5868.16 
-3209.15 178.973 5868.93 
-3209.94 178.972 5868.56 
-3209.71 178.655 5868.86 
-3210.35 178.804 5867.32 
-3210.3 178.092 5867.15 
-3210.4 178.44 5867.03 
-3208.83 179.031 5869.35 
-3208.57 178.993 5869.73 
-3206.8 183.533 5870.42 
-3205.08 188.078 5870.97 
-3205.74 185.954 5870.89 
-3208.44 181.913 5870.76 
-3208.81 181.674 5870.55 
-3209.45 179.981 5870.26 
-3209.43 179.506 5869.99 
-3209.72 179.81 5869.56 
-3210 179.885 5868.98 
-3208.83 172.526 5863.08 
-3208.7 172.724 5863.82 
-3208.89 174.24 5865.85 
-3209.02 174.661 5866.05 
-3209.16 175.196 5866.55 
-3209.32 175.685 5866.7 
-3209 174.672 5866.29 
-3209.52 176.574 5867.38 
-3208.77 173.85 5865.63 
-3208.57 173.137 5865.17 
-3208.61 173.387 5865.56 
-3208.58 172.781 5864.43 
-3210.11 177.349 5867.16 
-3209.67 176.012 5867.59 
-3209.61 175.697 5867.57 
-3209.8 176.952 5867.9 
-3209.72 176.67 5867.94 
-3209.64 176.502 5868.1 
-3209.95 177.275 5867.62 
-3209.84 177.307 5868.02 
-3209.23 173.756 5865.55 
-3209.07 173.15 5864.09 
-3209.48 174.659 5866.9 
-3209.54 175.368 5867.54 
-3204.49 172.316 5857.83 
-3205.26 172.785 5857.56 
-3205.22 173.112 5857.46 
-3206.92 172.161 5857.46 
-3209.62 170.912 5857.02 
-3203.77 162.373 5869.88 
-3203.63 161.932 5870.27 
-3203.3 161.762 5870.54 
-3201.76 162.37 5869.77 
-3202.8 163.087 5869.51 
-3201.75 161.354 5870.52 
-3201.26 161.892 5870.05 
-3220.88 173.155 5841.35 
-3221.43 174.914 5840.01 
-3222.24 176.108 5839.53 
-3222.26 176.642 5839.65 
-3222.33 177.199 5839.34 
-3222.19 177.973 5838.96 
-3222.15 178.667 5839.13 
-3222.18 178.421 5838.97 
-3222.11 179.3 5839.5 
-3222.11 178.966 5839.33 
-3221.83 181.04 5840.46 
-3222.2 179.853 5839.67 
-3222.23 180.351 5839.88 
-3222.24 180.936 5840.14 
-3207.33 171.402 5857.66 
-3205.27 172.636 5857.57 
-3222.48 179.513 5840.69 
-3222.43 178.827 5840.53 
-3222.21 178.734 5841.09 
-3222.33 178.071 5840.49 
-3222.46 177.414 5839.91 
-3222.37 176.672 5839.82 
-3222.09 176.309 5840.39 
-3221.98 175.626 5840.42 
-3214.93 161.921 5852.6 
-3214.67 160.997 5852.57 
-3215.13 162.019 5852.17 
-3215.01 162.95 5852.35 
-3214.9 163.642 5852.65 
-3214.84 162.585 5852.68 
-3222.9 181.264 5839.44 
-3223.46 181.623 5839.05 
-3224.58 181.998 5838.76 
-3224.24 181.851 5838.4 
-3223.87 181.751 5838.71 
-3224.3 181.653 5838.82 
-3223.41 180.863 5840.85 
-3222.59 181.164 5839.86 
-3222.63 180.831 5839.64 
-3223.36 180.683 5840.26 
-3223.09 180.424 5840.52 
-3222.92 180.138 5840.08 
-3222.73 179.647 5840.07 
-3222.41 180.814 5839.91 
-3210.19 179.603 5868.23 
-3210.2 179.251 5868.03 
-3209.98 179.388 5868.73 
-3209.42 178.408 5869.32 
-3209.69 179.179 5869.23 
-3208.38 178.606 5870.1 
-3209.13 178.098 5869.9 
-3206.54 183.302 5870.94 
-3206.11 185.114 5871.03 
-3208.58 180.934 5871.26 
-3206.3 183.928 5871.35 
-3209.11 178.932 5870.34 
-3209.38 178.895 5869.71 
-3208.68 172.417 5863.56 
-3208.72 173.78 5865.84 
-3208.86 174.225 5866.09 
-3209.35 176.154 5867.29 
-3209.2 175.771 5867.21 
-3209 174.722 5866.51 
-3208.83 174.215 5866.34 
-3209.68 177.071 5868.22 
-3208.45 172.67 5864.81 
-3208.52 173.08 5865.4 
-3208.45 172.839 5865.19 
-3208.44 172.892 5865.54 
-3208.57 173.323 5865.79 
-3208.55 172.351 5864.04 
-3209.57 176.169 5868.08 
-3209.5 175.867 5868.08 
-3209.58 176.836 5868.31 
-3209.53 176.595 5868.5 
-3208.93 173.21 5865.29 
-3209.21 173.922 5866.14 
-3209.38 174.438 5866.74 
-3209.44 174.747 5867.35 
-3209.45 175.524 5868 
-3209.42 175.172 5867.83 
-3203.61 162.317 5870.14 
-3203.19 161.959 5870.56 
-3201.42 162.452 5869.83 
-3202.58 163.147 5869.69 
-3201.55 161.603 5870.49 
-3200.91 162.064 5870.06 
-3221.72 174.152 5839.97 
-3221.67 174.666 5839.71 
-3222.27 175.646 5839.36 
-3222.34 176.455 5839.26 
-3222.42 177.323 5839.06 
-3222.33 177.99 5838.84 
-3222.3 178.428 5838.84 
-3222.31 178.863 5839.04 
-3222.25 179.082 5839.23 
-3222.34 179.869 5839.52 
-3222.26 179.432 5839.39 
-3222.41 180.398 5839.7 
-3222.68 178.937 5839.9 
-3222.58 178.227 5839.89 
-3222.76 177.558 5839.12 
-3222.67 177.002 5839.14 
-3222.56 176.366 5839.18 
-3222.3 175.97 5839.7 
-3222.18 175.304 5839.75 
-3214.5 161.805 5852.81 
-3214.35 160.742 5852.82 
-3214.76 162.284 5852.32 
-3214.59 162.923 5852.56 
-3214.65 163.718 5852.78 
-3214.43 162.573 5852.88 
-3222.98 181.053 5839.2 
-3222.76 180.675 5839.36 
-3223.22 181.169 5838.94 
-3223.65 181.419 5838.65 
-3223.91 181.447 5838.39 
-3224.05 181.332 5838.78 
-3222.53 180.26 5839.49 
-3223.19 180.397 5839.77 
-3223.9 181.095 5838.56 
-3223.42 180.616 5839.5 
-3223.12 180.136 5839.28 
-3222.95 179.642 5839.46 
-3222.92 178.906 5839.25 
-3208.25 178.11 5870.44 
-3208.84 178.155 5870.46 
-3206.49 182.643 5871.58 
-3207.99 178.135 5870.92 
-3208.82 180.218 5871.87 
-3208.7 180.105 5872.26 
-3208.71 173.795 5866.07 
-3209.03 175.35 5867.12 
-3209.38 176.483 5868.12 
-3208.65 173.69 5866.27 
-3208.88 174.966 5867.05 
-3208.41 172.195 5864.39 
-3208.28 172.254 5864.82 
-3208.34 172.491 5865.08 
-3208.39 172.701 5865.31 
-3208.27 172.394 5865.38 
-3208.29 172.511 5865.62 
-3208.42 172.91 5865.79 
-3208.54 173.314 5866.03 
-3208.76 173.011 5865.46 
-3209.46 176.344 5868.58 
-3209.4 175.977 5868.53 
-3209.28 176.23 5868.2 
-3209.08 173.741 5866.07 
-3209.27 174.337 5866.79 
-3209.36 174.784 5867.65 
-3209.35 175.562 5868.38 
-3209.31 175.276 5868.27 
-3203.33 162.628 5870.2 
-3203.06 162.42 5870.53 
-3202.39 163.334 5869.9 
-3201.47 162.061 5870.47 
-3202.25 163.322 5870.16 
-3222.07 174.308 5839.37 
-3222.37 175.56 5838.93 
-3222.35 175.938 5839.1 
-3222.42 176.783 5838.92 
-3222.48 177.9 5838.7 
-3222.42 178.42 5838.7 
-3222.42 178.808 5838.89 
-3222.38 179.352 5839.2 
-3222.46 179.201 5839.03 
-3222.44 179.751 5839.34 
-3222.79 178.198 5839.3 
-3222.99 177.664 5838.54 
-3222.9 177.104 5838.57 
-3222.79 176.553 5838.62 
-3222.66 175.786 5838.61 
-3222.49 175.589 5839.03 
-3222.38 174.984 5839.09 
-3214.13 161.44 5852.98 
-3214.07 160.625 5853.21 
-3214.4 161.884 5852.5 
-3214.37 163.594 5852.91 
-3214.27 162.676 5852.68 
-3214.08 162.301 5853.03 
-3222.92 180.598 5839.06 
-3222.68 180.164 5839.13 
-3223.32 181.013 5838.68 
-3223.1 180.706 5838.84 
-3223.57 181.052 5838.4 
-3223.37 180.425 5838.86 
-3223.72 180.815 5838.34 
-3223.53 180.829 5838.25 
-3223.29 179.852 5838.64 
-3223.14 179.277 5838.8 
-3223.2 178.614 5838.38 
-3223.02 178.27 5838.73 
-3208.73 178.07 5871.05 
-3205.56 183.309 5872.48 
-3208.66 179.822 5872.62 
-3207.85 178.656 5871.87 
-3208.75 178.196 5871.62 
-3208.6 174.246 5866.91 
-3208.73 174.592 5866.97 
-3209.08 175.833 5868.01 
-3208.24 171.942 5864.56 
-3208.53 172.602 5865.2 
-3208.18 171.906 5864.76 
-3208.16 171.964 5864.95 
-3208.23 172.222 5865.16 
-3208.11 171.879 5865.19 
-3208.16 172.102 5865.46 
-3208.29 172.59 5865.87 
-3208.17 172.192 5865.71 
-3208.39 172.922 5866.06 
-3208.95 173.525 5865.95 
-3208.74 173.13 5865.67 
-3209.31 176.194 5868.64 
-3209.3 175.964 5868.84 
-3209.2 174.308 5866.84 
-3208.95 173.645 5866.13 
-3209.28 174.796 5867.93 
-3209.23 174.595 5867.63 
-3209.24 175.621 5868.82 
-3209.22 175.196 5868.53 
-3222.32 174.322 5838.85 
-3222.38 175.099 5838.71 
-3222.44 175.706 5838.48 
-3222.44 176.354 5838.74 
-3222.51 177.256 5838.6 
-3222.65 178.204 5838.29 
-3222.56 178.551 5838.6 
-3222.54 178.877 5838.78 
-3222.61 179.312 5838.91 
-3222.54 179.622 5839.15 
-3223.12 177.884 5838.2 
-3222.98 177.237 5838.29 
-3222.84 176.624 5838.35 
-3222.73 176.08 5838.43 
-3222.55 175.281 5838.45 
-3222.5 174.993 5838.65 
-3213.74 161.439 5853.3 
-3213.68 160.849 5853.6 
-3214.15 160.65 5853.21 
-3214.07 163.411 5853.03 
-3214.01 162.231 5852.8 
-3213.77 161.985 5853.2 
-3222.9 180.238 5838.91 
-3222.71 179.91 5839.05 
-3223.26 180.657 5838.56 
-3223.09 180.385 5838.69 
-3223.33 180.507 5838.37 
-3223.62 180.541 5838.05 
-3223.49 179.893 5838.1 
-3223.46 180.444 5838.14 
-3223.36 179.177 5838.16 
-3223.24 178.459 5838.06 
-3208.56 179.344 5872.85 
-3206.47 182.673 5873.14 
-3203.5 186.239 5873.66 
-3205.8 182.218 5873.23 
-3208.45 173.86 5866.82 
-3208.87 175.384 5868 
-3209.1 175.8 5868.4 
-3208.49 172.664 5865.36 
-3208.13 171.923 5864.97 
-3208.07 171.709 5865.01 
-3208.13 172.016 5865.24 
-3208 171.628 5865.33 
-3208.06 171.858 5865.56 
-3208.18 172.295 5865.95 
-3208.05 171.887 5865.79 
-3208.7 173.144 5865.77 
-3209.12 175.756 5868.8 
-3209.11 174.239 5866.87 
-3208.88 173.595 5866.17 
-3209.16 174.542 5867.66 
-3209.21 174.778 5868.2 
-3209.14 174.838 5868.45 
-3209.04 175.528 5868.95 
-3209.15 175.399 5868.94 
-3222.33 174.185 5838.59 
-3222.39 174.629 5838.22 
-3222.46 175.502 5838.03 
-3222.5 176.549 5838.32 
-3222.56 177.221 5838.1 
-3222.92 178.862 5838.21 
-3222.73 178.767 5838.45 
-3223.05 178.175 5837.74 
-3223.06 178.554 5837.91 
-3222.68 177.77 5837.81 
-3222.69 179.03 5838.65 
-3222.79 179.442 5838.7 
-3222.77 179.738 5838.88 
-3223.08 177.775 5837.99 
-3223 177.353 5838.13 
-3222.86 176.705 5838.21 
-3222.69 175.92 5838.31 
-3222.59 175.499 5838.2 
-3222.45 174.853 5838.3 
-3222.34 174.244 5838.37 
-3213.36 161.092 5853.92 
-3213.42 161.8 5853.56 
-3214.03 160.463 5853.53 
-3213.78 162.524 5853 
-3213.81 163.477 5853.17 
-3213.57 162.377 5853.33 
-3222.95 179.954 5838.7 
-3223.13 180.126 5838.49 
-3223.27 180.115 5838.27 
-3223.67 180.08 5837.6 
-3223.61 180.166 5837.8 
-3223.41 179.277 5837.91 
-3223.36 180.007 5838.07 
-3223.24 178.486 5837.9 
-3208.46 179.652 5873.45 
-3204.08 185.64 5874.36 
-3206.45 182.476 5874.03 
-3208.3 173.515 5866.75 
-3208.67 174.958 5867.9 
-3208.88 175.33 5868.31 
-3208.6 173.021 5865.75 
-3208.44 172.66 5865.43 
-3208.06 172.032 5865.4 
-3208.58 173.119 5865.92 
-3208.45 172.793 5865.63 
-3207.85 171.239 5865.36 
-3207.95 171.55 5865.57 
