-2977.64 244.986 2137.88
-2976.43 248.142 2159.66
-2975.79 247.84 2153
-2975.26 247.241 2153.79
-2977.13 244.215 2138.02
-2976.47 244.973 2140.83
-2976.04 244.077 2140.03
-2975.76 243.473 2139.46
-2976.83 246.194 2142.07
-2976.71 247.197 2145.09
-2976.37 248.283 2151.5
-2974.64 246.553 2153.7
-2973.25 245.609 2149.35
-2972.99 245.421 2150.12
-2976.57 249.111 2167.7
-2975.77 247.124 2159.82
-2975.79 242.598 2138.93
-2974.8 243.994 2143.32
-2974.37 245.079 2145.72
-2974.35 242.978 2141.43
-2976.97 243.17 2137.3
-2976.57 247.842 2147.74
-2973.8 245.692 2148.51
-2973.58 245.365 2147.83
-2976.72 248.443 2150.28
-2974.08 245.736 2154.37
-2972.94 245.077 2148.75
-2972.54 244.671 2149.38
-2975.79 247.059 2163.53
-2975.26 245.941 2159.81
-2977.23 242.996 2136.26
-2974.6 241.903 2139.95
-2973.97 242.873 2143.22
-2973.96 244.057 2145.49
-2973.72 244.849 2146.96
-2974.28 242.579 2140.47
-2975.85 242.026 2138.38
-2973.23 244.627 2147.82
-2972.8 244.267 2148.41
-2976.47 248.53 2170.16
-2975.69 246.268 2163.27
-2973.53 244.833 2154.65
-2972.5 244.559 2151.36
-2976.94 242.358 2136.54
-2977.29 242.34 2135.47
-2973.81 242.728 2143.97
-2973.54 243.819 2146.28
-2974.44 241.187 2139.62
-2976.58 241.717 2136.88
-2975.83 246.284 2165.31
-2972.35 243.845 2150.57
-2977.8 240.518 2135.46
-2977.5 241.438 2135.86
-2974.04 241.706 2140.45
-2973.43 242.561 2144.98
-2973.75 242.264 2141.42
-2975.61 241.441 2137.8
-2974.7 240.817 2138.85
-2975.52 240.611 2137.56
-2972.13 243.746 2149.58
-2975.33 244.933 2160.64
-2973.58 244.124 2155.27
-2972.49 243.673 2151.71
-2972.25 243.113 2150.76
-2977.1 248.239 2175.23
-2977.02 240.903 2136.25
-2978.31 239.079 2135.77
-2977.2 240.019 2135.92
-2975.5 239.863 2137.43
-2973.68 241.343 2141.23
-2973.6 241.89 2142.5
-2972.81 242.654 2146.37
-2972.79 243.413 2147.61
-2975.79 245.444 2165.28
-2972.22 242.68 2149.21
-2976.11 238.154 2137.26
-2977.66 237.852 2136.93
-2975.13 238.981 2137.66
-2974.39 239.643 2138.79
-2974.24 240.23 2139.36
-2973.88 243.396 2155.9
-2975.49 244.069 2161.22
-2972.83 242.846 2152.5
-2971.95 242.264 2150.53
-2971.99 242.928 2150.07
-2972.48 242.401 2148.11
-2972.42 242.62 2147.22
-2977.17 246.948 2174.2
-2979.43 235.538 2137.54
-2978.08 237.238 2137.06
-2975 237.443 2138.38
-2974.23 237.851 2138.47
-2973.2 241.855 2144.45
-2973.83 240.795 2140.36
-2973.76 239.821 2140.06
-2972.61 241.579 2145.51
-2976.01 244.302 2165.41
-2974.13 242.663 2156.57
-2973.08 242.031 2153.08
-2975.68 243.052 2161.52
-2972.39 242.451 2151.4
-2972.19 241.571 2146.81
-2977.06 245.921 2172.6
-2979.05 236.154 2137.31
-2975.68 236.673 2138.8
-2979.09 234.914 2138.36
-2975.86 237.136 2138.24
-2974.07 238.945 2138.41
-2976.07 243.608 2164.92
-2972.13 241.928 2149.38
-2973.24 240.961 2142.45
-2973.71 237.768 2139.06
-2973.78 239.118 2139.45
-2976.3 243.366 2165.61
-2974.32 241.929 2156.74
-2976.02 242.248 2162.43
-2972.66 241.79 2152.06
-2973.23 240.401 2141.03
-2977.64 245.103 2174.17
-2974.96 236.744 2139.26
-2975.56 236.216 2139.45
-2973.43 239.039 2140.16
-2977.47 243.982 2171.87
-2976.03 241.442 2161.04
-2974.65 241.717 2157.47
-2972.45 241.379 2151.07
-2972.22 241.615 2150.09
-2972.4 241.677 2148.4
-2972.37 241.064 2146.17
-2978.14 235.592 2140.33
-2977.69 236.098 2141
-2978.72 234.831 2139.38
-2973.93 237.081 2139.5
-2974.96 236.385 2140.05
-2977.96 243.46 2173.25
-2973.39 241.384 2153.47
-2976.39 240.84 2161.36
-2976.46 242.453 2165.13
-2973.16 240.108 2142.54
-2972.5 241.208 2149.1
-2973.02 239.591 2140.7
-2978.95 236.278 2147.95
-2978.82 236.352 2144.38
-2977.75 236.632 2142.03
-2973.56 237.273 2140.33
-2974.24 236.584 2140.29
-2973.54 238.116 2139.7
-2978.28 242.729 2173.5
-2973.51 240.692 2153.08
-2974.99 240.678 2156.92
-2976.81 240.22 2161.22
-2977.08 241.621 2166.45
-2972.73 240.445 2146.94
-2978.5 237.723 2158.47
-2979.97 236.187 2155.43
-2978.95 236.499 2152.97
-2977.74 236.992 2151.19
-2976.89 237.709 2147.89
-2977.12 238.072 2145.4
-2977.15 238.297 2143.88
-2975.55 236.666 2140.91
-2976.4 236.968 2141.98
-2974.04 236.975 2140.94
-2975.32 236.955 2141.74
-2978.73 242.028 2173.83
-2973.11 241.002 2152.39
-2973.03 240.446 2150.89
-2975.45 239.843 2156.13
-2973.81 240.128 2152.55
-2977.62 240.414 2165.3
-2976.29 239.466 2157.5
-2979.21 241.214 2173.54
-2972.75 239.096 2141.3
-2972.71 240.616 2149.58
-2972.93 239.988 2146.23
-2978.62 238.918 2163.75
-2977.5 238.305 2157.84
-2975.84 238.309 2152.49
-2975.22 238.609 2148.1
-2975.5 238.936 2145.24
-2976 238.653 2143.34
-2974.63 238.949 2150.87
-2974.77 238.191 2143.31
-2973.29 237.537 2141.13
-2972.98 238.454 2140.91
-2974.23 237.352 2141.88
-2973.46 240.125 2151.54
-2974.38 239.601 2152.45
-2978.15 239.726 2164.97
-2979.95 240.237 2173.21
-2976.45 239.068 2156.86
-2972.96 239.251 2142.26
-2976.38 238.726 2155.74
-2974.74 238.964 2145.4
-2974.22 239.089 2147.08
-2973.93 238.301 2142.76
-2973.39 239.634 2147.25
-2973.24 239.524 2144.44
-2973.31 239.951 2149.77
-2974.95 238.875 2151.75
-2973.82 239.6 2150.87
