-2976.31 278.135 2260.53
-2976.16 276.397 2262.7
-2976.45 277.244 2262.45
-2974.61 275.907 2258.76
-2974.42 276.52 2257.12
-2974.73 277.169 2256.93
-2974.99 278.016 2254.94
-2976.16 275.797 2263.31
-2974.45 274.96 2259.3
-2974.2 275.584 2257.05
-2974.4 276.967 2252.09
-2974.77 277.956 2251.87
-2974.72 278.75 2247.91
-2976.07 274.976 2263.6
-2974.47 274.176 2260.28
-2974.12 274.043 2259.09
-2974.03 274.691 2257.44
-2973.95 276.956 2247.01
-2974.16 277.64 2246.63
-2973.85 277.917 2243.33
-2972.87 275.994 2240.66
-2972.87 276.085 2242.38
-2973.78 274.139 2219.56
-2973.63 274.778 2221.33
-2974.31 276.142 2221.24
-2976.03 274.177 2263.67
-2974.67 273.282 2261.5
-2973.73 273.277 2259.46
-2974.11 272.951 2260.63
-2973.69 273.687 2257.34
-2974.11 275.837 2253.36
-2973.59 276.476 2246.38
-2972.3 275.236 2243.57
-2972.16 275.772 2236.97
-2971.51 275.215 2236.76
-2971.36 275.002 2237.57
-2971.46 274.94 2238.84
-2976.06 280.679 2243.36
-2973.93 278.702 2241.41
-2972.35 276.135 2236.21
-2973.57 274.175 2222.66
-2973.3 274.646 2225.43
-2973.22 275.184 2224.82
-2974.17 276.545 2226.8
-2973.3 276.138 2226.33
-2973.93 272.896 2217.39
-2973.76 272.227 2260.26
-2974 275.495 2252.62
-2973.28 272.961 2256.47
-2973.81 274.452 2253.38
-2973.37 273.183 2257.93
-2974 276.601 2248.03
-2970.71 274.582 2239.81
-2971.02 275.751 2235.46
-2976.17 279.971 2239.55
-2972.81 276.885 2236.29
-2971.89 276.515 2234.45
-2973.11 276.361 2231.64
-2973.75 276.458 2228.34
-2973.14 275.094 2226.59
-2972.76 275.482 2227.1
-2972.16 277.94 2225.64
-2972.72 277.371 2226.83
-2971.7 276.701 2227.78
-2973.85 272.522 2218.04
-2973.6 274.112 2224.14
-2974.77 272.433 2261.85
-2974.09 271.892 2261.05
-2973.57 272.207 2259.13
-2973.74 275.709 2248.41
-2973.61 272.215 2258.04
-2972.96 275.601 2245.56
-2971.82 274.862 2243.09
-2971.47 276.384 2235.05
-2970.48 274.258 2236.73
-2970.57 274.244 2237.48
-2974.95 277.542 2232.84
-2972.93 276.736 2235
-2971.98 276.301 2231.74
-2971.88 275.987 2228.5
-2971.67 275.94 2229.66
-2971.1 276.574 2231.37
-2970.96 276.166 2232.21
-2973.86 273.433 2223.29
-2973.64 271.677 2214.45
-2976.1 272.952 2263.81
-2973.47 275.553 2247.13
-2973.77 273.798 2252.88
-2973.6 272.097 2256.68
-2973.8 273.932 2249.1
-2970.68 274.341 2240.8
-2970.64 274.031 2238.94
-2970.66 274.873 2235.99
-2970.69 275.639 2234.36
-2970.13 273.744 2235.86
-2970.13 273.545 2236.76
-2972.4 274.94 2228.09
-2972.22 275.408 2229.82
-2971 275.455 2232.51
-2970.54 274.932 2234.52
-2973.51 274.311 2226.18
-2974.55 271.701 2261.8
-2974.38 270.599 2262.11
-2973.94 271.084 2261.19
-2973.58 271.305 2260.06
-2973.68 272.651 2252.73
-2970.82 274.286 2241.87
-2970.42 273.51 2240.04
-2970.26 273.404 2238.13
-2970.24 273.159 2238.89
-2969.84 272.951 2236.43
-2973.17 274.574 2227.27
-2971.27 274.498 2232.19
-2970.38 273.652 2234.69
-2970.33 272.871 2233.89
-2973.65 271.644 2218.48
-2973.89 272.373 2222.75
-2973.79 273.677 2225.04
-2973.87 272.928 2225.07
-2973.62 273.775 2227.12
-2973.58 270.693 2214.93
-2973.62 270.661 2218.2
-2975.93 272.006 2264.06
-2974.52 269.994 2262.65
-2973.76 270.267 2261.45
-2973.96 272.787 2248.95
-2973.83 274.006 2247.88
-2973.25 270.973 2256.95
-2973.78 271.917 2252.35
-2973.1 275.203 2246.37
-2970.52 273.734 2241.35
-2969.83 273.042 2235.67
-2976.23 269.032 2240.44
-2972.82 274.031 2228.25
-2972.35 274.721 2228.81
-2972.22 274.58 2229.57
-2971.78 274.567 2230.55
-2973.77 273.361 2226.43
-2973.6 269.654 2215.19
-2973.78 270.221 2218.9
-2974.04 271.511 2223.2
-2976.43 271.259 2264.8
-2973.16 270.454 2259.7
-2973.66 271.372 2258
-2974.02 272.695 2248.18
-2973.54 274.307 2246.96
-2972.39 275.073 2245.17
-2971.46 274.23 2243.78
-2970.16 272.809 2240.25
-2969.83 272.753 2237.25
-2969.79 272.678 2234.79
-2976.21 268.971 2241.84
-2975.21 270.915 2241.79
-2974.57 271.649 2244.75
-2976.87 266.798 2245.01
-2974.84 269.659 2233.31
-2974.5 270.253 2230.23
-2971.35 273.742 2231.99
-2973.98 272.057 2225.11
-2973.78 268.994 2215.75
-2974.18 271.005 2223.88
-2973.1 270.163 2256.58
-2973.95 273.698 2246.74
-2973.21 274.686 2245.66
-2971.21 273.878 2244.46
-2971.01 273.972 2243.14
-2969.71 272.303 2236.1
-2969.76 271.745 2235.54
-2976.48 266.702 2249.37
-2975.56 269.688 2243.47
-2976.12 267.412 2245.38
-2975.02 270.934 2240.29
-2974.41 272.178 2244.21
-2974.35 272.014 2245.51
-2974.76 270.674 2245.09
-2975.89 267.158 2248.85
-2975.32 267.886 2248.25
-2974.63 270.352 2234.35
-2974.36 270.385 2231.11
-2974.59 270.229 2229.48
-2974.05 271.064 2230.25
-2973.99 271.395 2229.48
-2976.61 266.974 2251.68
-2971.13 272.672 2232.04
-2974.35 268.873 2220.3
-2974.33 270.394 2224.56
-2977.13 269.889 2264.48
-2973.52 270.411 2258.19
-2973.11 269.86 2260.25
-2973.92 269.934 2254.07
-2973.96 271.166 2251.28
-2974.03 273.124 2247.26
-2972.07 274.574 2245.62
-2969.92 272.09 2240.34
-2969.95 272.348 2239.6
-2976 267.43 2251.66
-2975.13 269.005 2246.36
-2975.36 267.91 2246.15
-2974.66 272.149 2242.55
-2974.51 271.111 2245.99
-2974.72 269.656 2247.45
-2975.38 267.863 2251.29
-2974.67 268.694 2249.83
-2974.73 271.4 2239.4
-2974.14 270.862 2233.88
-2974.73 270.186 2227.8
-2974.61 270.323 2228.52
-2973.75 272.364 2229.76
-2978.31 266.003 2253.77
-2975.66 268.366 2255.81
-2978.17 268.485 2262.07
-2978.13 268.872 2263.09
-2971.94 273.61 2230.63
-2971.75 272.77 2231.15
-2969.83 272.238 2233.95
-2973.97 272.364 2226.26
-2973.51 273.751 2228.12
-2974.06 271.594 2226.44
-2974.05 270.549 2225.83
-2973.41 274.181 2228.77
-2974.05 267.929 2216.04
-2974.62 269.725 2225.2
-2977.79 269.297 2263.89
-2974.73 269.652 2261.4
-2973.69 269.9 2258.71
-2974.08 269.767 2260.22
-2974.2 269.262 2253.87
-2974.42 270.141 2248.87
-2974.52 269.043 2251.13
-2974.11 272.079 2247.58
-2973.62 274.153 2246.08
-2970.93 273.539 2245.13
-2970.28 272.942 2241.54
-2969.8 272.308 2238.37
-2969.86 271.085 2235.95
-2969.83 271.815 2237.48
-2969.83 271.521 2236.7
-2969.63 271.86 2234.57
-2974.97 268.737 2256.03
-2974.27 269.068 2254.84
-2974.31 272.783 2242.8
-2974.11 273.023 2245.77
-2974.24 271.899 2246.56
-2974.53 272.006 2240.21
-2974.02 270.817 2231.67
-2973.68 271.874 2230.48
-2974.31 270.584 2226.93
-2973.51 272.575 2230.83
-2973.89 272.029 2229.07
-2976.02 268.484 2257.63
-2978.55 267.622 2260.71
-2975 269.268 2258.23
-2974.17 269.586 2258
-2974.94 269.618 2259.85
-2972.45 273.856 2229
-2971.87 272.635 2230.36
-2969.85 271.758 2233.15
-2973.88 272.922 2227.46
-2973.77 273.186 2228.63
-2974.26 271.438 2227.82
-2973.83 267.993 2214.66
-2973.64 269.775 2257.29
-2971.79 273.925 2246.05
-2973.86 273.833 2245.45
-2969.92 271.395 2239.19
-2969.76 271.096 2234.65
-2973.52 272.676 2241.84
-2972.67 272.034 2242.59
-2974.19 273.066 2243.76
-2974.21 272.922 2244.7
-2973.4 271.731 2232.3
-2973.56 271.804 2233.9
-2974.27 271.608 2237.22
-2973.34 272.336 2240.35
-2973.99 272.372 2228.09
-2972.14 273.521 2229.84
-2969.55 271.145 2233.69
-2972.78 273.945 2245.67
-2972.34 273.275 2246.1
-2970.87 272.935 2245.65
-2970.81 273.654 2243.8
-2969.99 272.2 2241.36
-2970.63 273.264 2244.43
-2969.93 271.147 2238.42
-2969.9 270.412 2234.96
-2969.96 270.565 2236.76
-2971.13 270.318 2238.96
-2971.15 270.36 2240.12
-2970.91 270.247 2237.78
-2971.98 271.388 2242.89
-2972.92 272.405 2244.13
-2971.25 270.785 2237.33
-2973.31 272.052 2233.22
-2973.64 272.392 2235.74
-2973.36 272.488 2234.66
-2973.44 272.893 2238.95
-2971.83 271.582 2237.37
-2973.39 273.383 2230.94
-2973.12 273.676 2231.59
-2973.47 273.49 2230.09
-2973.08 273.822 2229.54
-2970.97 271.689 2232.21
-2972.07 272.821 2229.53
-2970.1 270.987 2232.94
-2973.17 273.139 2245.83
-2971.82 272.906 2246.48
-2970.34 272.953 2242.45
-2969.94 270.886 2237.52
-2969.78 270.196 2234.06
-2970.47 270.404 2241.53
-2970.62 270.052 2240.75
-2973.26 272.675 2244.95
-2970.4 270.858 2242.33
-2971.05 270.175 2236.79
-2973.12 272.738 2233.83
-2973.34 272.433 2231.77
-2973.46 273.256 2238.02
-2973.22 273.21 2236.82
-2972.98 273.16 2235.71
-2972.35 272.313 2237.16
-2971.55 271.195 2236.46
-2972.59 272.536 2231.93
-2972.59 272.677 2230.98
-2970.86 270.859 2232.25
-2971.47 271.733 2231.25
-2972.6 272.472 2246.44
-2973.05 272.204 2245.73
-2970.67 272.872 2243.3
-2969.97 272.031 2242.39
-2970.03 270.363 2238.28
-2969.98 270.123 2236.02
-2970.01 269.65 2235.19
-2969.97 269.314 2234.23
-2969.85 269.409 2233.32
-2970.21 269.36 2238.15
-2970.55 269.3 2237.27
-2970.02 270.766 2240.97
-2972.15 271.331 2244.54
-2972.74 271.97 2244.88
-2970.62 271.169 2243.21
-2971.35 270.624 2244.18
-2969.94 271.314 2241.96
-2972.59 272.511 2234.76
-2972.31 271.645 2234.62
-2973.06 273.334 2232.99
-2971.94 270.48 2234.56
-2971.42 268.659 2234.26
-2972.07 270.726 2232.89
-2972.18 272.28 2236.14
-2972.05 271.71 2235.66
-2972.09 271.178 2231.64
-2971.75 269.907 2232.46
-2971.54 269.05 2233.14
-2972.87 272.904 2230.13
-2972.53 272.275 2229.76
-2971.26 270.901 2231.22
-2971.56 271.452 2230.57
-2971.85 271.914 2229.72
-2972.45 271.772 2246.89
-2971.43 272.028 2245.83
-2971 272.604 2244.33
-2972.45 271.425 2245.67
-2970.65 271.93 2243.28
-2969.96 270.964 2239.79
-2970.05 270.011 2237.57
-2970.14 269.819 2239.35
-2970.11 269.107 2235.71
-2970.31 268.582 2236.93
-2970.32 268.432 2236.19
-2969.88 271.498 2240.78
-2971.46 271.008 2243.31
-2971.23 271.483 2244.21
-2971.4 270.108 2235.94
-2971.37 269.371 2235.45
-2970.83 268.015 2235.67
-2971.03 267.147 2234.22
-2970.69 267.221 2235.25
-2971.24 268.122 2232.73
-2971.41 268.927 2232.16
-2971.12 267.437 2233.29
-2970.87 266.448 2233.4
-2971.03 270.218 2231.69
-2969.7 270.094 2233
-2971.71 271.295 2245.51
-2970.08 269.504 2236.58
-2969.95 268.587 2233.58
-2970.13 268.691 2234.65
-2970.97 268.809 2235.95
-2970.99 265.724 2232.86
-2971.47 268.135 2231.91
-2971.55 269.096 2231.04
-2971.03 265.986 2232.16
-2970.5 266.103 2231.42
-2971.48 270.758 2230.31
-2970.47 270.127 2232.57
-2969.83 268.11 2232.55
-2969.83 268.875 2232.39
-2970.34 265.622 2230.83
-2970.26 264.907 2231.69
-2970.26 267.93 2234.34
-2971.9 268.241 2230.81
-2971.67 267.494 2231.46
-2971.19 265.395 2230.88
-2971.6 269.906 2230.71
-2970.41 266.038 2229.99
-2971.78 270.778 2229.53
-2970.04 267.44 2233.16
-2969.86 267.307 2231.84
-2970.04 266.653 2230.82
-2970.02 266.37 2232.14
-2972.06 266.696 2229.19
-2971.84 266.532 2230.06
-2971.35 264.759 2229.68
-2970.8 265.97 2229.2
-2972.18 268.533 2229.88
-2970.47 266.838 2230.07
-2970.6 269.51 2231.96
-2970.48 268.793 2231.58
-2972.39 268.624 2228.76
-2972.26 266.937 2228.11
-2972.09 265.041 2227.39
-2971.72 263.902 2227.67
-2971.53 264.062 2228.54
-2971.21 265.356 2228.4
-2971.26 267.303 2229.3
-2972.12 269.673 2229.36
-2971.49 268.923 2230.12
-2971.78 267.924 2228.98
-2971.67 265.971 2228.15
-2970.46 267.447 2230.56
-2970.88 268.396 2230.66
-2970.04 267.847 2231.35
-2971.16 267.873 2229.81
