-3521.9 -101.867 5835.61 
-3520.01 -102.947 5833.27 
-3519.77 -103.562 5831.11 
-3526.14 -101.799 5845.76 
-3529.31 -95.4564 5852.74 
-3510.54 -104.264 5803.18 
-3510.73 -110.171 5805.82 
-3514 -100.315 5805.42 
-3516.71 -99.5831 5811.38 
-3520.66 -97.4299 5814.95 
-3513.96 -112.761 5806.78 
-3514.38 -111.765 5805.48 
-3512.8 -113.604 5807.3 
-3510.87 -115.325 5807.3 
-3515.74 -100.742 5793.8 
-3516.24 -100.26 5786.19 
-3514.42 -103.103 5792.12 
-3517.39 -98.165 5784.47 
-3514.42 -103.943 5797.57 
-3515.3 -109.811 5802.49 
-3515.97 -115.354 5807.91 
-3516.62 -119.486 5809.62 
-3517.11 -115.71 5807.62 
-3518.64 -93.6049 5780.12 
-3518.03 -91.6989 5777.76 
-3519.81 -90.3628 5778.16 
-3517.66 -97.2329 5783.17 
-3517.34 -96.89 5782.37 
-3517.01 -96.7301 5781.7 
-3532.18 -90.1515 5852.8 
-3529.71 -93.6595 5861.74 
-3530.71 -91.3524 5858.64 
-3523.46 -105.988 5844.59 
-3519.11 -103.925 5827.63 
-3518.84 -100.69 5817.28 
-3520.62 -102.734 5835.75 
-3522.14 -106.907 5842.73 
-3519.11 -103.544 5833.12 
-3519.34 -103.777 5830.56 
-3526.66 -100.052 5852.88 
-3528.12 -95.1481 5862.43 
-3509.14 -105.964 5804.28 
-3509.62 -109.679 5805.65 
-3509.11 -116.493 5807.03 
-3507.95 -115.853 5806.58 
-3512.74 -101.75 5807.44 
-3514.11 -102.932 5812.02 
-3514.77 -116.959 5808.64 
-3512.89 -117.978 5808.38 
-3510.67 -119.626 5808.07 
-3508.47 -121.875 5807.89 
-3512.5 -106.693 5790.95 
-3513.1 -105.969 5787.2 
-3514.19 -106.031 5797.92 
-3514.87 -102.446 5784.93 
-3516.14 -110.708 5802.79 
-3517.63 -115.564 5807.03 
-3517.97 -120.822 5810.28 
-3515.95 -124.79 5810.54 
-3514.24 -125.803 5810.26 
-3514.65 -121.155 5809.48 
-3517.59 -94.3704 5779.7 
-3516.65 -94.1404 5778.69 
-3516.29 -92.4406 5776.92 
-3516.54 -96.9704 5781.3 
-3515.13 -94.1985 5777.63 
-3513.95 -93.1773 5775.7 
-3511.54 -94.1575 5775 
-3512.94 -95.2011 5776.89 
-3509.24 -95.0076 5774.39 
-3510.17 -96.7162 5776.22 
-3509.38 -93.4905 5773.33 
-3514.41 -102.956 5784.25 
-3514.85 -101.464 5782.96 
-3514.07 -103.24 5783.82 
-3514.29 -101.841 5782.44 
-3513.79 -103.055 5783.05 
-3529.57 -93.6999 5868.07 
-3530.69 -91.106 5865.53 
-3529.52 -94.7211 5871.99 
-3523.94 -104.2 5851.06 
-3525.89 -99.3398 5856.15 
-3517.41 -105.107 5825.13 
-3518.32 -104.683 5828.91 
-3516.4 -103.459 5817.19 
-3520.31 -104.551 5838.18 
-3521.41 -107.173 5842.01 
-3518.59 -103.31 5834.91 
-3521.87 -107.704 5848.37 
-3518.05 -104.096 5833.35 
-3525.96 -96.1894 5864.96 
-3528.76 -95.7044 5873.46 
-3528.94 -95.463 5873.25 
-3508.87 -105.036 5804.99 
-3507.54 -112.964 5805.91 
-3506.84 -110.584 5805.24 
-3506.76 -121.656 5807.37 
-3505.52 -119.755 5806.66 
-3509.74 -105.698 5808.71 
-3512.01 -106.104 5813.28 
-3512.56 -122.845 5809.22 
-3510.9 -122.962 5808.78 
-3508.68 -126.243 5808.79 
-3505.69 -127.218 5808.14 
-3506.78 -128.048 5808.61 
-3511.1 -108.535 5793.94 
-3513.57 -106.795 5797.44 
-3511.59 -108.096 5786.95 
-3509.64 -111.216 5790.23 
-3516.58 -110.731 5802.25 
-3518.38 -116.143 5807.05 
-3519.03 -121.362 5810.59 
-3517.05 -128.113 5811.58 
-3513.87 -131.805 5811.46 
-3515.45 -130.429 5811.63 
-3512.31 -133.214 5811.29 
-3512.46 -127.219 5810.04 
-3515.86 -97.5391 5780.99 
-3514.93 -97.6457 5780.21 
-3514.2 -96.1875 5778.45 
-3513.57 -102.628 5782.24 
-3511.62 -98.1006 5778.22 
-3509.88 -98.9304 5777.74 
-3507.76 -97.1163 5775.25 
-3507.23 -94.8451 5773.39 
-3505.59 -97.4534 5774.66 
-3510.76 -108.813 5786.35 
-3511.96 -106.421 5784.48 
-3511.45 -106.669 5783.33 
-3533.25 -89.5316 5871.35 
-3534.45 -87.9647 5873.73 
-3521.87 -103.602 5854.35 
-3523.84 -99.7677 5858.4 
-3515.77 -106.789 5824.78 
-3516.13 -106.298 5827.89 
-3517.64 -104.637 5831.62 
-3514.16 -106.463 5818.02 
-3518.84 -103.763 5837.48 
-3520.19 -107.96 5842.96 
-3520.24 -108.666 5847.7 
-3516.82 -104.094 5835.76 
-3516.74 -104.596 5834.94 
-3523.52 -98.0801 5866.06 
-3527.29 -97.2153 5873.57 
-3534.42 -91.9786 5877.32 
-3537.62 -86.5137 5877.41 
-3506.68 -106.049 5804.85 
-3504.75 -116.052 5805.58 
-3504.47 -108.678 5803.7 
-3504.49 -125.683 5807.51 
-3502.82 -123.864 5806.49 
-3508.7 -108.404 5811.45 
-3507.02 -106.664 5807.62 
-3511.56 -109.041 5817.3 
-3510.58 -129.47 5809.94 
-3509.91 -127.891 5809.45 
-3507.9 -131.896 5809.66 
-3506.2 -132.92 5809.39 
-3504.44 -133.842 5809.07 
-3503.42 -131.583 5808.35 
-3510.8 -110.246 5795.08 
-3513.96 -108.353 5798.04 
-3508.09 -113.664 5790.43 
-3517.84 -113.707 5804.4 
-3520.06 -120.669 5810.28 
-3518.91 -126.926 5811.89 
-3519.73 -130.563 5813.37 
-3518.46 -132.943 5813.66 
-3516.87 -134.877 5813.66 
-3510.64 -134.726 5811.11 
-3514.87 -136.632 5813.43 
-3513.27 -102.774 5781.93 
-3513.45 -101.753 5781.57 
-3513.55 -98.3462 5779.7 
-3512.31 -102.972 5781.37 
-3510.86 -107.382 5782.7 
-3473.94 -100.443 5797.64 
-3475.99 -102.325 5791.77 
-3473.65 -101.833 5788.92 
-3479.99 -103.892 5787.94 
-3478.53 -103.65 5783.59 
-3474.28 -102.231 5781.38 
-3503.56 -94.9772 5772.2 
-3499.67 -98.9662 5774.2 
-3496.92 -96.8914 5771.07 
-3510.68 -103.007 5780.42 
-3509.9 -102.962 5779.89 
-3508.82 -103.724 5779.7 
-3507.79 -99.6987 5777.06 
-3501.98 -99.7526 5775.33 
-3506.69 -100.894 5777.39 
-3509.44 -110.122 5786 
-3506.56 -115.169 5789.11 
-3510.41 -108.604 5784.59 
-3508.6 -110.126 5784.49 
-3519.61 -104.652 5855.38 
-3521.4 -100.923 5861.5 
-3514.14 -108.25 5823.82 
-3513.82 -108.296 5825.22 
-3514 -107.464 5829.09 
-3515.93 -105.655 5832.14 
-3518.2 -104.541 5839.07 
-3518.67 -108.412 5845.44 
-3517.54 -107.635 5852.91 
-3515.81 -104.613 5836.88 
-3515.59 -105.097 5836.14 
-3521.44 -100.359 5868.49 
-3523.87 -97.9332 5872.67 
-3530.66 -97.5689 5876.06 
-3532.33 -99.7761 5885.7 
-3536.45 -94.4849 5887.58 
-3541.15 -86.204 5884.82 
-3503.99 -105.641 5804.35 
-3501.89 -112.045 5803.16 
-3501.85 -118.255 5804.64 
-3501.97 -107.09 5802.23 
-3501.87 -130.265 5807.52 
-3499.56 -126.242 5805.38 
-3499.06 -120.42 5803.71 
-3508.43 -109.922 5814.01 
-3506.93 -107.938 5810.21 
-3505.25 -106.158 5808.8 
-3511.13 -110.516 5820.09 
-3508.96 -136.018 5810.88 
-3507.43 -137.856 5810.83 
-3505.83 -138.877 5810.54 
-3504.47 -140.153 5810.43 
-3503.14 -141.761 5810.46 
-3502.36 -137.032 5809.1 
-3500.72 -136.597 5808.45 
-3510.41 -112.397 5795.22 
-3513.28 -109.716 5797.41 
-3516.32 -111.708 5801.57 
-3506.85 -116.022 5792.79 
-3519.26 -116.964 5806.88 
-3520.53 -119.913 5809.09 
-3520.87 -125.172 5812.09 
-3522.02 -128.397 5813.61 
-3522.34 -130.87 5814.6 
-3521.17 -132.71 5814.72 
-3522.39 -135.393 5815.86 
-3521.9 -136.375 5815.88 
-3520.99 -137.246 5816.01 
-3512.5 -138.402 5813.05 
-3516.35 -138.811 5815.19 
-3510.92 -106.568 5781.92 
-3511.79 -102.745 5781.05 
-3509.4 -106.98 5781.17 
-3509.5 -107.701 5781.6 
-3509.43 -108.371 5782.27 
-3507.14 -111.278 5784.4 
-3467.32 -101.166 5779.88 
-3471.64 -103.343 5777.03 
-3467.28 -101.296 5778.83 
-3470.08 -102.177 5777.15 
-3472.33 -103.131 5777.6 
-3473.82 -104.118 5774.56 
-3470.77 -102.013 5776.46 
-3473.42 -105.041 5775.08 
-3471.38 -101.162 5783.48 
-3475.3 -102.897 5778.85 
-3471.81 -101.46 5781.04 
-3475.33 -103.639 5777.91 
-3473.16 -102.429 5778.7 
-3479.53 -103.926 5781.35 
-3478.63 -103.553 5791.74 
-3482.74 -104.365 5786.59 
-3482.82 -104.276 5784.01 
-3494.46 -103.333 5775.28 
-3494.29 -101.157 5773.19 
-3492.39 -100.543 5771.33 
-3492.87 -98.4122 5770.16 
-3495.91 -103.252 5776.19 
-3508.65 -107.136 5781.12 
-3507.95 -103.979 5779.57 
-3506.15 -108.727 5781.3 
-3502.59 -101.293 5776.62 
-3506.39 -105.376 5779.78 
-3503.35 -102.935 5777.68 
-3506.08 -114.534 5787.29 
-3504.94 -118.362 5790.83 
-3504.61 -115.983 5787.34 
-3518.92 -103.206 5862.49 
-3511.91 -109.383 5824.58 
-3514.19 -106.289 5833.05 
-3512.2 -107.739 5827.82 
-3518.34 -107.001 5843.79 
-3516.32 -105.073 5839.09 
-3515.45 -107.879 5855.38 
-3517.92 -104.851 5862.52 
-3514.96 -105.074 5837.82 
-3513.94 -104.833 5836.8 
-3527.22 -99.1974 5875.24 
-3522 -102.629 5868.45 
-3525.51 -100.937 5873.41 
-3528.38 -99.5162 5884.02 
-3532.99 -102.866 5895.39 
-3529.9 -101.909 5892.28 
-3536.58 -99.0025 5896.99 
-3501.76 -105.474 5805.14 
-3500.46 -106.262 5801.84 
-3498.79 -114.219 5802.07 
-3499.04 -108.788 5801.01 
-3498.75 -132.781 5806.55 
-3496.61 -129.409 5804.61 
-3496.26 -123.711 5803.06 
-3495.86 -117.835 5801.43 
-3506.82 -109.37 5812.84 
-3509.45 -111.136 5818.43 
-3506.46 -107.299 5811.99 
-3501.39 -105.629 5809.09 
-3510.88 -140.273 5813.18 
-3508.79 -141.699 5812.96 
-3507.47 -143.147 5813.4 
-3501.49 -143.189 5810.31 
-3505.34 -144.624 5813.41 
-3500.35 -143.613 5810.2 
-3497.52 -138.678 5807.33 
-3511.82 -112.627 5796.57 
-3514.94 -110.896 5799.48 
-3517.8 -115.426 5804.2 
-3507.12 -116.908 5794.44 
-3522.09 -123.589 5811.78 
-3519.81 -119.687 5807.7 
-3522.71 -126.373 5813.35 
-3522.91 -128.241 5814.21 
-3522.89 -129.597 5814.52 
-3523.1 -134.044 5815.58 
-3523.2 -132.643 5815.1 
-3523.11 -135.864 5814.92 
-3523.01 -137.012 5815.01 
-3523.34 -137.759 5815.59 
-3522.67 -137.806 5816.54 
-3515.67 -140.121 5815.76 
-3523.19 -138.514 5816.63 
-3506.78 -110.351 5782.78 
-3505.87 -110.554 5782.35 
-3506.59 -111.304 5783.76 
-3502.62 -117.526 5787 
-3503.36 -117.279 5787.55 
-3475.33 -103.887 5773.9 
-3471.29 -101.823 5775.78 
-3473.56 -104.096 5777.32 
-3470.53 -101.682 5779.46 
-3473.52 -105.407 5775.95 
-3474.55 -105.414 5776.24 
-3476.5 -104.462 5774.45 
-3476.62 -104.694 5774.9 
-3474.93 -104.847 5777.01 
-3479.31 -104.22 5779.65 
-3479.2 -104.625 5778.54 
-3475.39 -103.511 5773.46 
-3471.64 -101.237 5775.34 
-3476.05 -103.181 5773.01 
-3482.63 -104.213 5781.51 
-3481.8 -101.274 5807.72 
-3488.73 -104.745 5807.73 
-3480.22 -101.385 5804.51 
-3486.98 -104.944 5803.9 
-3479.44 -102.179 5800.26 
-3481.09 -99.7338 5811.9 
-3489.46 -104 5812.13 
-3486.49 -100.442 5818.84 
-3483.82 -104.575 5800.16 
-3483.42 -104.527 5787.63 
-3482.54 -105.116 5795.6 
-3485.01 -104.412 5783.55 
-3484.15 -104.231 5782.33 
-3489.29 -98.4523 5769.1 
-3487.88 -101.347 5770.69 
-3490.99 -98.366 5769.43 
-3487.26 -98.797 5769.13 
-3489.59 -101.75 5771.39 
-3486.07 -101.476 5770.62 
-3485.54 -99.0219 5768.83 
-3491.66 -103.091 5773.4 
-3491.69 -105.186 5775.5 
-3494.43 -104.711 5776.64 
-3505.04 -110.356 5781.76 
-3505 -108.946 5781 
-3500.75 -113.097 5781.71 
-3500.66 -113.976 5782.24 
-3503.69 -104.484 5779.07 
-3503.64 -108.745 5780.71 
-3496.58 -104.712 5777.02 
-3504 -118.758 5790.32 
-3504.45 -119.773 5792.05 
-3507.18 -117.82 5795.42 
-3503.21 -120.24 5791.11 
-3540.86 -91.1061 5892.23 
-3545.88 -89.1709 5896.47 
-3545.98 -83.5747 5887.87 
-3549.59 -86.8477 5901.82 
-3550.19 -82.4792 5892.18 
-3508.83 -111.103 5818.53 
-3510.23 -109.18 5822.28 
-3512.41 -106.011 5831.19 
-3510.59 -107.183 5825.77 
-3517.5 -106.648 5844.14 
-3513.98 -108.035 5852.57 
-3514.74 -104.926 5840 
-3511.55 -102.798 5861.93 
-3514.23 -98.8584 5870.62 
-3512.98 -103.81 5839.49 
-3511.82 -104.484 5835.42 
-3521.02 -97.5774 5879.01 
-3518.38 -99.2568 5875.38 
-3522.91 -96.6797 5888.19 
-3535.33 -104.349 5905.57 
-3533.2 -104.803 5906.32 
-3530.58 -103.826 5900.79 
-3524.74 -99.5462 5898.06 
-3539.41 -100.206 5907.2 
-3541.27 -95.5694 5899.68 
-3499.35 -105.464 5804.46 
-3497.55 -107.421 5800.52 
-3497.86 -106.001 5801.12 
-3495.54 -112.306 5799.92 
-3496.14 -109.03 5799.73 
-3495.07 -134.6 5805.08 
-3493.72 -127.921 5802.76 
-3493.13 -121.181 5800.82 
-3492.38 -114.555 5798.82 
-3506.48 -109.292 5814.12 
-3506.36 -107.69 5814.45 
-3501.67 -106.188 5812.13 
-3497.75 -105.261 5808.17 
-3514.84 -141.254 5816.05 
-3512.93 -142.444 5816 
-3510.4 -143.896 5815.87 
-3509.32 -145.06 5816.12 
-3505.34 -146.079 5814.81 
-3499.33 -144.934 5810.06 
-3501.33 -146.602 5812.62 
-3496.2 -141.055 5807.08 
-3511.93 -114.159 5796.91 
-3515.04 -112.379 5799.83 
-3517.59 -116.534 5803.99 
-3522.75 -124.479 5812.84 
-3522.88 -124.79 5811.58 
-3521.6 -123.27 5810.23 
-3522.94 -126.741 5813.87 
-3523.25 -129.751 5814.51 
-3523.22 -131.161 5814.8 
-3523.31 -135.093 5813.88 
-3523.53 -134.192 5813.03 
-3523.05 -136.378 5813.75 
-3523.11 -138.239 5814.52 
-3522.88 -137.902 5813.91 
-3523.33 -138.993 5814.81 
-3523.74 -138.553 5815.82 
-3523.43 -139.252 5816.74 
-3524.07 -139.644 5815.75 
-3503.32 -115.228 5784.84 
-3501.91 -115.522 5784.17 
-3501.25 -114.884 5783.32 
-3501.36 -119.121 5787.64 
-3502.49 -120.991 5790.88 
-3501.41 -122.321 5791.15 
-3477.27 -103.915 5774.19 
-3477.44 -103.476 5773.8 
-3479.31 -104.804 5776.41 
-3479.13 -104.964 5776.96 
-3477.86 -103.895 5774.63 
-3480.41 -104.674 5775.68 
-3479.96 -104.645 5776.14 
-3479.3 -104.885 5777.74 
-3482.76 -104.288 5780.17 
-3477.67 -102.949 5773.37 
-3475.93 -102.544 5772.73 
-3472.11 -100.7 5774.85 
-3472.54 -99.9286 5774.3 
-3473.53 -99.6837 5773.03 
-3477.67 -102.52 5772.86 
-3484.59 -104.176 5780.43 
-3492.07 -105.146 5808.28 
-3490.35 -105.366 5803.1 
-3488.4 -105.507 5799.63 
-3493.71 -104.757 5814.25 
-3492.68 -101.833 5820.9 
-3486.13 -105.687 5797.4 
-3482.89 -105.573 5793.04 
-3485.45 -104.773 5785.5 
-3484.33 -107.154 5795.69 
-3482.16 -107.263 5794.81 
-3485.61 -104.333 5781.41 
-3475.17 -98.2923 5771.26 
-3476.64 -101.312 5771.57 
-3476.4 -98.6167 5770.95 
-3476.76 -102.385 5772.23 
-3474.31 -99.2613 5772 
-3476.96 -101.943 5771.93 
-3487.13 -102.151 5771.31 
-3489.51 -103.804 5773.29 
-3490.57 -103.694 5773.34 
-3484.06 -99.0476 5768.76 
-3485.09 -101.166 5770.11 
-3485.78 -102.048 5770.64 
-3482.46 -98.6083 5768.48 
-3483.6 -100.645 5770.73 
-3491.17 -105.012 5775.02 
-3491.03 -105.82 5776.03 
-3482.49 -100.942 5770.5 
-3481.37 -98.5565 5768.52 
-3481.34 -101.669 5770.09 
-3480.56 -98.8139 5768.73 
-3479.78 -101.356 5770.24 
-3491.93 -106.785 5776.62 
-3479.65 -98.7349 5768.88 
-3478.3 -100.876 5770.45 
-3478.86 -98.2779 5769.22 
-3477.25 -100.607 5770.89 
-3499.14 -113.015 5781.2 
-3498.08 -114.93 5781.79 
-3499.49 -115.81 5783.32 
-3503.33 -107.351 5780.22 
-3496.29 -106.011 5777.11 
-3497.69 -112.276 5780.3 
-3503.73 -120.713 5792.44 
-3507.63 -118.235 5796.6 
-3512.1 -115.415 5797.45 
-3502.2 -122.127 5791.98 
-3544.58 -93.9372 5907.41 
-3550.21 -86.7506 5911.14 
-3507.92 -111.004 5818.03 
-3508.43 -109.492 5819.21 
-3509.12 -108.222 5821.53 
-3510.39 -105.714 5829.65 
-3507.89 -106.868 5822.84 
-3516.41 -106.108 5844.8 
-3512.55 -106.42 5850.43 
-3507.68 -103.697 5856.66 
-3513.35 -104.618 5844.52 
-3507.43 -96.8898 5869.62 
-3504 -97.8288 5864.15 
-3505.55 -97.3722 5877.76 
-3511.57 -97.6313 5878.6 
-3511.43 -103.007 5842.71 
-3510.34 -103.065 5838.41 
-3508.78 -104.099 5833.06 
-3516.39 -96.1165 5885.07 
-3518.51 -94.8887 5895.88 
-3537.18 -98.4329 5911.03 
-3531.28 -103.12 5909.96 
-3525.82 -101.69 5907.88 
-3518.85 -96.681 5904.77 
-3541.97 -94.0692 5911.64 
-3496.64 -105.427 5804.2 
-3494.4 -108.145 5799.23 
-3495.51 -106.246 5800.04 
-3493.28 -110.043 5798.5 
-3491.53 -132.172 5802.64 
-3493.19 -137.134 5804.64 
-3490.79 -125.86 5800.73 
-3490.05 -119.39 5798.78 
-3488.98 -113.382 5796.81 
-3490.72 -110.829 5797.42 
-3506.38 -109.668 5816.23 
-3507.06 -108.406 5817.7 
-3503.18 -106.828 5816.65 
-3496.96 -105.385 5811.38 
-3494.62 -105.219 5807.73 
-3523.62 -140.01 5816.86 
-3518.02 -141.861 5816.77 
-3517.01 -142.924 5816.8 
-3515.18 -144.226 5816.79 
-3507.21 -146.838 5816.15 
-3500.25 -145.209 5810.5 
-3501.86 -147.891 5814.11 
-3501.89 -147.526 5813.68 
-3501.98 -147.921 5814.36 
-3498.52 -143.207 5808.35 
-3495.41 -139.759 5806.07 
-3514.73 -113.747 5799.61 
-3515.99 -115.641 5801.51 
-3518.95 -119.924 5806.4 
-3523.11 -124.77 5812.17 
-3522.96 -125.264 5813.5 
-3523.15 -125.781 5810.38 
-3523.41 -126.098 5810.94 
-3521.87 -124.283 5809.62 
-3523.28 -128.382 5814.19 
-3523.69 -131.476 5812.33 
-3523.67 -133.06 5812.47 
-3523.32 -135.384 5812.51 
-3523.58 -134.368 5811.46 
-3523.11 -136.525 5811.93 
-3522.88 -137.407 5813 
-3522.88 -139.049 5813.44 
-3523.04 -139.46 5814.24 
-3522.69 -138.619 5812.62 
-3523.54 -139.621 5815.18 
-3523.16 -139.911 5814.87 
-3524.46 -140.341 5816 
-3523.15 -140.719 5815.6 
-3523.37 -141.363 5816.15 
-3500.74 -118.983 5786.91 
-3500.02 -116.963 5784.41 
-3500.28 -122.849 5790.75 
-3500.45 -124.525 5792.53 
-3501.15 -123.642 5792.41 
-3478.7 -103.475 5774.35 
-3479.08 -103.127 5773.71 
-3482.06 -105.008 5777.63 
-3482.39 -104.682 5778.39 
-3482.49 -104.495 5779.31 
-3481.18 -104.855 5775.37 
-3482.29 -105.45 5777.32 
-3484.17 -104.211 5778.85 
-3478.98 -102.748 5773.01 
-3478.11 -102.277 5772.29 
-3479.74 -102.799 5772.14 
-3485.53 -104.171 5778.97 
-3492.71 -105.365 5804.01 
-3492.45 -105.82 5799.51 
-3490.04 -106.071 5798.26 
-3487.06 -106.793 5796.76 
-3498.34 -105.689 5815.96 
-3500.53 -104.181 5822.34 
-3496.03 -101.421 5825.58 
-3483.4 -105.88 5792.64 
-3485 -105.471 5790.71 
-3486.38 -104.916 5784.09 
-3486.33 -104.353 5780.1 
-3484.54 -108.73 5795.5 
-3481.81 -108.988 5794.44 
-3480.97 -108.58 5793.8 
-3478.36 -101.712 5771.09 
-3478.7 -102.231 5771.52 
-3486.54 -102.774 5771.16 
-3488.86 -104.205 5773.13 
-3490.19 -105.629 5775.5 
-3489.45 -105.77 5775.09 
-3484.52 -101.514 5770.58 
-3484.83 -102.294 5770.54 
-3485.6 -102.897 5770.94 
-3490.3 -106.605 5776.13 
-3490.96 -107.259 5776.64 
-3483.09 -102.036 5770.32 
-3480.34 -102.177 5770.71 
-3491.92 -107.997 5777.18 
-3496.67 -114.847 5781.27 
-3496.5 -113.976 5780.76 
-3497.63 -116.092 5782.36 
-3495.69 -115.771 5781.4 
-3498.35 -117.337 5783.66 
-3499.26 -108.018 5778.68 
-3494.78 -109.826 5778.89 
-3495.43 -113.182 5779.98 
-3505.59 -120.642 5795.87 
-3503.06 -121.945 5792.87 
-3509.17 -117.61 5798.54 
-3511.76 -116.313 5798.25 
-3513.36 -116.059 5798.62 
-3502.07 -123.205 5793.07 
-3545.95 -88.133 5913.45 
-3507.14 -111.333 5818.01 
-3506.82 -111.081 5818.34 
-3506.97 -109.623 5818.2 
-3506.99 -105.147 5827.37 
-3506.65 -103.065 5852.03 
-3502.1 -98.976 5858.99 
-3501.91 -99.0548 5855.44 
-3505.9 -101.314 5848.3 
-3505.74 -100.348 5842.76 
-3503.25 -100.97 5836.31 
-3495.07 -98.4463 5834.28 
-3501.14 -101.947 5830.39 
-3492.06 -98.8789 5828.83 
-3532.67 -93.3957 5915.64 
-3538.06 -88.7 5916.2 
-3526.19 -97.1905 5915.6 
-3520.21 -97.282 5912.37 
-3494.61 -105.516 5801.94 
-3491.01 -109.196 5797.8 
-3492.79 -107.26 5798.79 
-3488.65 -130.76 5800.78 
-3491.59 -135.318 5803.18 
-3487.88 -124.521 5798.9 
-3487.04 -117.717 5796.81 
-3485.78 -113.191 5795.26 
-3488.05 -111.158 5796.38 
-3524.55 -140.704 5817.01 
-3524.83 -141.071 5816.3 
-3524.36 -141.541 5817.15 
-3524.85 -142.278 5817.27 
-3517.29 -144.376 5816.99 
-3504.48 -148.302 5815.97 
-3514.03 -145.822 5816.86 
-3501.19 -145.061 5810.89 
-3503.23 -147.951 5814.69 
-3503.55 -149.137 5816.2 
-3504.28 -148.748 5815.99 
-3503.51 -149.711 5816.82 
-3500.26 -143.511 5808.95 
-3497.56 -141.677 5807.21 
-3494.33 -138.078 5804.9 
-3519.35 -121.772 5807.08 
-3515.96 -116.85 5801.61 
-3523.05 -124.278 5813.13 
-3523.76 -126.987 5811.17 
-3523.6 -126.108 5812.07 
-3523.3 -127.071 5813.86 
-3523.71 -127.459 5809.64 
-3523.33 -126.543 5809.5 
-3524.13 -128.81 5809.38 
-3523.96 -127.968 5810.24 
-3522.77 -125.646 5808.76 
-3523.78 -130.503 5811.62 
-3523.84 -133.187 5810.78 
-3523.39 -135.44 5810.86 
-3523.76 -133.976 5809.88 
-3522.97 -137.426 5811.49 
-3523.37 -135.94 5810.47 
-3522.24 -139.295 5812.92 
-3522.64 -139.85 5814.34 
-3522.81 -140.159 5814.69 
-3522.76 -137.734 5811.09 
-3522.84 -140.757 5815.19 
-3523.71 -142.119 5816.68 
-3522.72 -141.736 5816.06 
-3522.63 -142.769 5816.97 
-3499.77 -119.929 5787.17 
-3498.86 -123.297 5790.15 
-3498.83 -119.877 5786.44 
-3499.26 -124.876 5792.09 
-3501.82 -124.726 5793.95 
-3501.67 -125.838 5794.67 
-3500.69 -125.519 5793.55 
-3481.98 -105.054 5775.12 
-3480.39 -103.441 5772.93 
-3482.68 -105.096 5774.89 
-3482.49 -105.737 5777.66 
-3483.35 -105.036 5777.69 
-3483.93 -104.463 5777.97 
-3482.9 -105.899 5777.04 
-3482.62 -106.097 5777.37 
-3485.27 -104.394 5777.83 
-3481.1 -103.457 5772.27 
-3480.46 -102.786 5771.3 
-3481.69 -103.2 5771.94 
-3486.21 -104.394 5777.93 
-3497.51 -97.6781 5841.21 
-3490.2 -107.691 5797.76 
-3487.46 -108.204 5796.66 
-3481.25 -108.112 5793.34 
-3486.28 -105.486 5789.44 
-3482.96 -107.236 5792.8 
-3487.07 -104.518 5779.03 
-3487.17 -105.095 5783.18 
-3484.8 -110.263 5795.33 
-3482.02 -110.561 5794.26 
-3480 -110.472 5793.32 
-3480.16 -109.966 5792.77 
-3487.84 -104.496 5773.11 
-3488.82 -105.929 5774.7 
-3489.72 -106.647 5775.8 
-3489.08 -106.584 5775.3 
-3483.89 -102.542 5771.3 
-3482.13 -102.516 5770.67 
-3485.95 -105.025 5773.36 
-3486.92 -104.9 5773.31 
-3489.62 -107.644 5776.2 
-3490.25 -107.705 5776.59 
-3491.41 -108.597 5777.32 
-3492.97 -110.76 5778.71 
-3494.65 -114.822 5780.58 
-3496.24 -117.141 5782.47 
-3493.61 -115.797 5780.76 
-3494.47 -116.836 5781.66 
-3497.27 -118.258 5783.79 
-3497.72 -120.563 5786.44 
-3493.44 -114.187 5779.83 
-3493.19 -112.998 5779.28 
-3507.81 -119.564 5799.19 
-3505.48 -121.267 5796.4 
-3503.04 -122.944 5793.96 
-3509.25 -117.85 5799.7 
-3511.39 -117.347 5799.33 
-3511.91 -116.931 5799.19 
-3513.67 -117.368 5799.42 
-3502.55 -124.255 5794.46 
-3499.97 -98.2959 5852.48 
-3500.3 -97.6563 5847.8 
-3487.9 -109.673 5796.58 
-3485.89 -128.104 5798.65 
-3489.6 -132.659 5801.38 
-3492.5 -135.631 5803.24 
-3485.2 -122.19 5796.94 
-3483.58 -116.943 5794.83 
-3482.8 -113.66 5794.02 
-3485.04 -111.708 5795.18 
-3524.99 -141.897 5816.67 
-3522.79 -143.932 5818.15 
-3525.45 -142.35 5816.95 
-3525.07 -142.964 5817.41 
-3525 -143.568 5818.88 
-3504.67 -149.209 5817.88 
-3512.13 -146.966 5817.3 
-3522.34 -144.136 5817.41 
-3502.05 -144.466 5810.92 
-3503.28 -147.578 5814.26 
-3507.44 -149.157 5817.7 
-3507.96 -148.564 5817.35 
-3505.18 -149.611 5817.18 
-3504.82 -149.891 5817.31 
-3507.61 -149.649 5818.31 
-3506.79 -150.652 5819.96 
-3507.61 -150.792 5821.28 
-3498.96 -142.196 5807.36 
-3503.13 -144.448 5811.52 
-3501.65 -142.73 5809.12 
-3495.81 -139.092 5805.34 
-3517.12 -119.343 5803.54 
-3520.57 -123.82 5807.74 
-3514.57 -118.452 5800.46 
-3523.34 -125.929 5813.57 
-3523.41 -124.979 5813.23 
-3524.23 -131.499 5808.86 
-3524.04 -130.601 5809.99 
-3523.74 -128.618 5811.69 
-3523.72 -127.762 5808.83 
-3524.31 -129.66 5808.5 
-3524.33 -131.768 5808.35 
-3524.41 -131.575 5808.03 
-3523.34 -126.902 5807.38 
-3523.64 -127.57 5808.01 
-3524.02 -132.637 5809.57 
-3523.78 -134.311 5809.55 
-3524.18 -132.534 5808.73 
-3524.19 -132.882 5808.5 
-3523.51 -135.902 5809.9 
-3523.84 -134.475 5809.2 
-3521.62 -139.694 5812.91 
-3521.38 -137.921 5810.33 
-3522.32 -140.404 5814.36 
-3522.37 -140.953 5814.86 
-3522.89 -136.492 5809.61 
-3521.6 -142.369 5815.98 
-3521.9 -144.335 5818.09 
-3521.57 -143.141 5816.78 
-3518.95 -146.101 5818.44 
-3519.16 -145.58 5818.15 
-3497.45 -123.709 5789.57 
-3498.18 -125.253 5791.8 
-3499.55 -126.339 5793.24 
-3502.66 -125.721 5795.5 
-3500.35 -127.263 5794.59 
-3501.49 -127.248 5795.6 
-3483.18 -106.452 5777.01 
-3483.54 -106.365 5776.73 
-3483.37 -105.107 5774.66 
-3483.95 -106.611 5776.53 
-3482.84 -106.52 5777.74 
-3483.77 -105.928 5777.79 
-3484.63 -105.223 5777.8 
-3483.02 -106.901 5777.49 
-3485.68 -105.212 5777.88 
-3483.93 -105.072 5774.54 
-3482.24 -102.752 5771.68 
-3484.33 -104.996 5774.15 
-3486.62 -105.144 5778.05 
-3480.34 -109.6 5792.13 
-3487.36 -105.613 5788.46 
-3484.64 -106.811 5791.98 
-3488.38 -105.129 5779.56 
-3488.78 -105.587 5783.16 
-3481.9 -112.296 5793.92 
-3479.47 -112.132 5792.99 
-3479.16 -111.795 5792.31 
-3479.38 -111.309 5791.8 
-3488.21 -106.68 5775.07 
-3488.98 -107.594 5775.79 
-3484.92 -104.879 5773.64 
-3487.16 -107.32 5775.65 
-3489.3 -108.296 5776.32 
-3489.89 -108.338 5776.68 
-3490.73 -108.782 5777.17 
-3491.88 -111.216 5778.29 
-3495.5 -118.518 5783.26 
-3492.59 -115.193 5780.06 
-3492.88 -116.44 5780.89 
-3493.74 -117.915 5782.12 
-3496.46 -120.939 5786.42 
-3496.13 -123.807 5789.29 
-3492.1 -114.131 5779.41 
-3492.34 -113.245 5779.14 
-3505.6 -121.644 5797.14 
-3507.74 -120.095 5799.6 
-3509.42 -118.499 5800.45 
-3503.37 -123.875 5795.2 
-3511.44 -117.93 5800.24 
-3512.32 -117.82 5800.17 
-3503.3 -124.897 5795.68 
-3482.73 -123.478 5795.95 
-3487.79 -130.258 5799.75 
-3484.72 -126.624 5797.35 
-3490.04 -131.865 5800.26 
-3492.77 -134.36 5801.46 
-3480.56 -117.669 5793.45 
-3480.15 -114.389 5792.92 
-3523.45 -143.833 5818.53 
-3521.71 -145.174 5820.45 
-3518.24 -147.372 5820.18 
-3517.91 -147.457 5819.32 
-3524.17 -143.766 5818.87 
-3526.1 -143.67 5819.79 
-3525.58 -143.614 5819.45 
-3524.11 -144.246 5821.18 
-3523.09 -144.554 5820.7 
-3506.56 -148.441 5820.39 
-3507.69 -150.569 5821.86 
-3517.96 -145.633 5818.52 
-3526.15 -143.831 5819.66 
-3507.36 -147.605 5816.1 
-3510.4 -149.696 5819.59 
-3510.02 -150.272 5820.4 
-3511.36 -148.545 5818.51 
-3510.93 -147.611 5817.54 
-3507.55 -150.052 5818.65 
-3506.99 -150.52 5818.82 
-3506.26 -150.738 5818.81 
-3509.09 -150.181 5820.57 
-3508.84 -150.277 5821 
-3510 -151.085 5821.85 
-3510.03 -151.369 5822.24 
-3499.02 -140.754 5805.63 
-3495.68 -137.12 5802.87 
-3504.55 -143.578 5811.39 
-3507.93 -146.774 5815.57 
-3501.51 -141.535 5807.87 
-3519.84 -123.611 5806.74 
-3516.6 -120.013 5802.85 
-3514.07 -119.447 5801.19 
-3524.43 -130.227 5807.77 
-3524.46 -131.636 5807.76 
-3524.34 -132.134 5808.11 
-3523.06 -126.701 5806.62 
-3524.09 -129.781 5806.6 
-3524.39 -130.255 5807.18 
-3524.24 -133.059 5808.15 
-3524.45 -132.588 5807.73 
-3524.07 -134.054 5808.41 
-3523.82 -134.978 5808.62 
-3520.38 -139.708 5811.71 
-3520.12 -138.21 5810.11 
-3521.18 -136.658 5808.54 
-3520.4 -140.765 5812.81 
-3518.69 -142.797 5814.61 
-3522.55 -135.338 5807.91 
-3517.48 -144.956 5817.01 
-3517.65 -145.917 5818.04 
-3513.4 -147.234 5817.9 
-3513.52 -148.504 5818.95 
-3496.86 -125.481 5791.22 
-3498.14 -126.688 5792.65 
-3499.32 -129.922 5795.8 
-3500.68 -129.945 5796.72 
-3502.78 -127.48 5796.74 
-3503.01 -125.994 5796.14 
-3502.35 -129.838 5797.74 
-3503.97 -129.908 5798.73 
-3483.69 -107.044 5776.87 
-3483.53 -107.452 5777.31 
-3484.56 -106.966 5776.21 
-3484.22 -107.229 5776.53 
-3483.3 -107.352 5777.86 
-3484.11 -106.797 5777.89 
-3485.07 -106.152 5777.91 
-3483.45 -107.895 5777.72 
-3485.96 -105.973 5777.97 
-3485.1 -107.26 5775.96 
-3486.05 -107.363 5775.83 
-3487.39 -105.929 5778.72 
-3479.35 -111.245 5791.07 
-3481.06 -109.476 5791.28 
-3488.43 -105.689 5788.26 
-3485.85 -106.736 5791.08 
-3489.4 -105.839 5780.12 
-3490.06 -106.071 5784.51 
-3490.79 -106.114 5781.5 
-3478.63 -113.888 5792.41 
-3478.21 -113.53 5791.83 
-3478.33 -113.211 5791.26 
-3478.6 -112.646 5790.86 
-3488.15 -107.64 5775.69 
-3488.68 -108.312 5776.04 
-3486.55 -107.893 5776.03 
-3487.55 -108.029 5775.97 
-3489.02 -109.024 5776.5 
-3489.44 -109.039 5776.74 
-3489.64 -109.41 5777 
-3490.17 -109.253 5777.14 
-3490.89 -111.498 5778.06 
-3494.17 -119.027 5783.47 
-3495.61 -120.634 5786.03 
-3491.82 -116.082 5780.3 
-3491.55 -114.854 5779.55 
-3492.65 -117.654 5781.6 
-3493.71 -123.79 5789.74 
-3495.03 -125.042 5790.74 
-3490.6 -114.225 5779.04 
-3490.72 -113.546 5778.82 
-3491.39 -113.243 5778.88 
-3505.49 -122.219 5797.57 
-3509.39 -119.684 5800.84 
-3509.35 -119.065 5800.86 
-3503.36 -124.703 5795.92 
-3512 -118.557 5801.16 
-3481.37 -122.686 5794.74 
-3486.62 -127.58 5797.23 
-3482.74 -122.738 5793.81 
-3490.61 -129.995 5797.34 
-3487.49 -126.572 5795.22 
-3493.17 -132.319 5798.44 
-3478.59 -119.147 5792.34 
-3477.77 -116.11 5791.79 
-3517.64 -147.756 5820.99 
-3513.25 -149.415 5820.06 
-3521.62 -145.563 5821.79 
-3525.34 -143.774 5821.15 
-3525.65 -144.117 5821.97 
-3522.56 -145.318 5822.41 
-3524.34 -144.459 5822.08 
-3507.86 -150.155 5822.6 
-3507.14 -148.034 5823.21 
-3515.85 -145.909 5822.04 
-3509.44 -151.388 5822.57 
-3523.77 -144.186 5820.98 
-3527.23 -143.858 5820.06 
-3526.32 -144.265 5822.4 
-3511.71 -149.664 5819.7 
-3511.21 -150.304 5820.53 
-3510.48 -150.818 5821.23 
-3511.7 -146.305 5816.51 
-3510.85 -151.053 5821.63 
-3510 -151.54 5822.58 
-3510.79 -151.361 5822.18 
-3497.8 -137.162 5801.51 
-3496.16 -135.899 5800.87 
-3508.29 -144.031 5813.08 
-3509.29 -145.696 5815.09 
-3503.6 -141.034 5808.53 
-3498.99 -138.728 5803.64 
-3518.93 -123.3 5805.62 
-3522.06 -125.907 5805.99 
-3515.94 -120.833 5802.46 
-3513.3 -119.96 5802.17 
-3524.52 -131.619 5807.46 
-3523.91 -129.161 5805.89 
-3523.47 -131.101 5806.73 
-3524.26 -131.529 5807.13 
-3524.36 -132.911 5807.65 
-3524.42 -132.207 5807.38 
-3524.29 -133.549 5807.61 
-3523.68 -134.03 5807.38 
-3519.05 -139.583 5810.39 
-3519.06 -138.278 5809.36 
-3520.02 -137.003 5808.13 
-3521.55 -135.635 5807.3 
-3517.61 -140.866 5811.49 
-3515.54 -143.485 5814.49 
-3522.69 -134.513 5807.13 
-3514.14 -145.89 5817.04 
-3496.53 -127.103 5792.2 
-3498.33 -130.221 5795.32 
-3504.5 -132.471 5800.75 
-3503.14 -133.377 5800.76 
-3505.25 -131.61 5800.51 
-3503.45 -127.321 5797.1 
-3505.26 -129.673 5799.32 
-3503.93 -125.445 5796.95 
-3507.49 -130.91 5801.25 
-3509.16 -130.139 5801.54 
-3484.03 -107.943 5777.1 
-3484.02 -108.531 5777.53 
-3484.77 -107.658 5776.28 
-3484.37 -107.943 5776.72 
-3484.25 -107.889 5777.99 
-3485.11 -107.165 5778 
-3486 -106.756 5778.13 
-3483.81 -108.631 5777.95 
-3485.58 -107.836 5776.12 
-3488.24 -106.681 5779.54 
-3478.3 -113.093 5790.08 
-3479.11 -111.624 5790.23 
-3482.26 -109.363 5790.4 
-3489.13 -105.72 5788.54 
-3485.59 -107.705 5789.97 
-3490.52 -106.84 5781.15 
-3491.91 -106.524 5783.41 
-3489.99 -105.791 5788.06 
-3477.17 -115.431 5791.28 
-3477.42 -114.888 5790.81 
-3477.67 -114.31 5790.22 
-3488.16 -108.752 5776.27 
-3486.12 -108.552 5776.42 
-3487.1 -108.628 5776.33 
-3488.61 -109.489 5776.62 
-3488.44 -111.519 5777.71 
-3488.89 -111.454 5777.6 
-3489.12 -109.515 5776.78 
-3489.28 -111.757 5777.73 
-3489.88 -111.736 5777.83 
-3493.13 -118.987 5783.49 
-3493.5 -120.649 5786.23 
-3494.28 -121.023 5786.58 
-3490.88 -115.51 5779.65 
-3490.97 -116.557 5780.32 
-3491.92 -117.684 5781.6 
-3490.13 -114.968 5779.19 
-3492.66 -125.935 5791.59 
-3494.53 -127.661 5792.6 
-3496.43 -129.287 5793.78 
-3489.47 -114.181 5778.78 
-3505.5 -122.712 5797.89 
-3509.52 -120.148 5801.16 
-3480.49 -119.886 5791.84 
-3484.55 -123.494 5793.43 
-3483.4 -121.702 5792.09 
-3491.62 -128.724 5794.91 
-3489.62 -126.954 5794.15 
-3488.29 -125.556 5793.4 
-3486.31 -123.996 5792.87 
-3494.12 -131.397 5796.49 
-3477.17 -117.273 5791.03 
-3479.58 -118.59 5791 
-3517.48 -147.93 5821.48 
-3513.36 -149.877 5820.79 
-3511.74 -150.375 5820.77 
-3518.16 -147.667 5822.04 
-3525.27 -144.826 5823.41 
-3524.68 -144.651 5822.84 
-3521.38 -146.104 5823.52 
-3522.92 -145.526 5823.4 
-3507.96 -149.701 5823.25 
-3509.19 -147.154 5827.43 
-3515.7 -145.712 5825.42 
-3509.31 -151.435 5822.95 
-3522.81 -144.31 5824.3 
-3526.56 -144.247 5820.86 
-3527.91 -144.025 5820.2 
-3526.97 -144.379 5822.74 
-3526.25 -144.77 5823.38 
-3512.96 -144.813 5815.47 
-3512.05 -150.827 5821.59 
-3509.95 -151.585 5823.09 
-3510.66 -151.532 5822.48 
-3512.06 -151.195 5822.2 
-3496.64 -133.519 5797.47 
-3509.56 -142.423 5811.45 
-3513.22 -142.592 5812.47 
-3501.88 -139.541 5806.18 
-3498.25 -134.967 5799.52 
-3516.97 -122.31 5803.56 
-3520.49 -124.845 5805.24 
-3523.61 -128.544 5805.18 
-3514.31 -121.041 5802.7 
-3509.88 -120.501 5801.43 
-3523.1 -130.541 5806.32 
-3523.47 -131.866 5806.91 
-3523.86 -132.678 5807.16 
-3523.45 -133.206 5807.09 
-3522.26 -133.802 5806.82 
-3522.27 -133.192 5806.69 
-3518.37 -137.849 5808 
-3517.87 -139.134 5809.1 
-3520.02 -136.616 5807.3 
-3521.19 -135.19 5806.78 
-3521.69 -134.358 5806.78 
-3515.36 -141.293 5811.34 
-3516.5 -139.905 5809.63 
-3499.59 -132.747 5798.16 
-3507.7 -133.061 5803.06 
-3508.26 -132.009 5802.44 
-3506.73 -134.394 5803.83 
-3503.37 -135.637 5803.1 
-3504.38 -126.952 5797.65 
-3505.1 -128.582 5798.78 
-3508.75 -129.431 5800.97 
-3505.47 -125.613 5798.34 
-3505.8 -123.043 5798.4 
-3509.79 -130.985 5802.29 
-3511.43 -130.103 5802.47 
-3511.57 -129.337 5802.2 
-3484.55 -108.88 5777.2 
-3484.2 -109.391 5777.99 
-3484.51 -109.412 5777.61 
-3485.13 -108.355 5776.47 
-3484.92 -108.758 5776.85 
-3485.41 -107.984 5778.14 
-3484.7 -108.759 5778.1 
-3486.79 -107.432 5778.78 
-3489.08 -107.515 5780.37 
-3477.48 -114.521 5789.19 
-3478.22 -113.147 5789.35 
-3480.63 -111.037 5789.42 
-3485.04 -108.732 5788.99 
-3490.37 -105.967 5787.97 
-3491.28 -107.214 5783 
-3492.16 -106.6 5784.46 
-3476.79 -116.681 5790.76 
-3476.82 -115.946 5790.1 
-3476.98 -115.539 5789.45 
-3487.88 -109.299 5776.61 
-3487.26 -109.323 5776.75 
-3485.98 -109.283 5776.99 
-3486.65 -109.348 5776.9 
-3487.99 -111.408 5777.78 
-3488.8 -113.721 5778.68 
-3492.47 -120.434 5786.19 
-3491.99 -118.795 5783.66 
-3490.08 -123.969 5790.45 
-3491.16 -124.66 5790.81 
-3489.91 -115.952 5779.64 
-3490.85 -117.511 5781.75 
-3489.19 -114.78 5779 
-3494.64 -129.896 5794.32 
-3496.4 -131.338 5795.26 
-3497.99 -132.171 5796.58 
-3482.36 -120.32 5791.21 
-3485.09 -121.999 5791.43 
-3486.04 -123.185 5792.15 
-3492.6 -128.244 5793.72 
-3491.35 -127.047 5793.16 
-3490.29 -126.109 5792.79 
-3488.89 -125.143 5792.6 
-3494.03 -129.718 5794.47 
-3481.38 -119.369 5790.86 
-3478.62 -117.921 5791.03 
-3513.68 -150.385 5821.63 
-3517.05 -148.375 5821.96 
-3523.82 -145.344 5823.9 
-3524.24 -145.299 5824.8 
-3525.4 -145.291 5824.28 
-3517.7 -148.124 5822.47 
-3521.99 -145.681 5824.23 
-3523.06 -145.401 5824.55 
-3508.43 -149.486 5824.15 
-3510.36 -146.681 5830.82 
-3508.82 -149.004 5825.29 
-3519.34 -144.81 5828.07 
-3526.24 -144.623 5822.6 
-3528.52 -144.277 5820.43 
-3527.41 -144.733 5823.25 
-3526.58 -145.225 5823.98 
-3510.64 -151.63 5822.78 
-3510.37 -151.051 5824 
-3511.18 -151.575 5823.3 
-3511.96 -151.336 5822.45 
-3513.66 -150.788 5822.2 
-3509.09 -140.778 5809.55 
-3513.84 -140.305 5809.39 
-3504.34 -138.619 5806.51 
-3499.95 -135.844 5801.43 
-3518.49 -123.516 5804.22 
-3515.82 -122.195 5802.95 
-3523 -127.859 5804.48 
-3523.05 -129.548 5805.57 
-3512.55 -120.938 5802.13 
-3510.34 -120.766 5801.59 
-3506.29 -123.166 5799.08 
-3522.53 -131.926 5806.59 
-3522.41 -130.672 5806.09 
-3522.29 -132.5 5806.6 
-3520.88 -133.111 5806.21 
-3520.87 -133.726 5806.35 
-3521 -132.376 5806.11 
-3518.13 -137.176 5807.01 
-3519.89 -136.069 5806.71 
-3516.82 -138.268 5807.56 
-3520.36 -134.948 5806.45 
-3520.5 -134.278 5806.42 
-3515.7 -139.322 5808.41 
-3508.39 -134.533 5804.62 
-3509.28 -133.236 5803.76 
-3510.07 -132.202 5803.28 
-3506.82 -136.49 5805.77 
-3506.09 -127.194 5798.98 
-3507.85 -128.456 5800.17 
-3510.47 -128.659 5801.48 
-3506.58 -125.989 5799.16 
-3506.74 -123.529 5799.49 
-3511.48 -131.104 5803.1 
-3513.79 -129.768 5803.39 
-3513.78 -129.154 5803.13 
-3512.79 -128.629 5802.51 
-3485.54 -111.056 5778.31 
-3485.56 -109.525 5777.28 
-3484.53 -110.659 5778.51 
-3485.03 -109.622 5778.34 
-3485.01 -111.103 5778.6 
-3486.06 -108.824 5778.72 
-3487.36 -108.21 5779.42 
-3488.95 -108.298 5781.09 
-3489.94 -107.732 5782.48 
-3477.25 -114.855 5788.38 
-3476.83 -116.026 5789.72 
-3478.13 -113.305 5788.65 
-3480.92 -111.577 5788.41 
-3484.56 -109.783 5787.72 
-3489.46 -106.627 5787.98 
-3489.65 -106.772 5786.34 
-3488.15 -107.764 5785.38 
-3477.54 -117.228 5791.06 
-3477.18 -116.879 5790.98 
-3487.56 -111.28 5777.83 
-3487.11 -111.18 5777.9 
-3486.64 -111.038 5777.95 
-3488.47 -113.829 5778.78 
-3489.94 -121.739 5788.34 
-3490.25 -119.037 5784.58 
-3489.25 -117.4 5782.03 
-3488.84 -115.611 5779.72 
-3484.22 -120.903 5790.78 
-3487.9 -123.812 5791.73 
-3486.62 -122.222 5790.71 
-3488.81 -121.614 5788.61 
-3487.8 -121.478 5788.83 
-3488.04 -123.069 5790.69 
-3483.04 -120.135 5790.8 
-3480.39 -118.738 5790.96 
-3525.14 -144.587 5826.07 
-3523.42 -145.425 5825.32 
-3524.22 -144.93 5826.38 
-3526.29 -144.977 5825.37 
-3518.66 -147.46 5823.04 
-3513.53 -150.885 5822.46 
-3522.09 -145.216 5824.82 
-3512.65 -145.921 5834.41 
-3509.41 -148.571 5826.69 
-3518.22 -144.934 5831.47 
-3523.97 -144.858 5826.01 
-3528.18 -145.081 5822.07 
-3529.01 -144.445 5820.62 
-3528.21 -144.88 5823.2 
-3527.57 -145.182 5823.83 
-3527.45 -145.308 5824.74 
-3512.04 -151.393 5822.9 
-3511.41 -151.364 5824.02 
-3510.81 -150.097 5825.2 
-3512.29 -151.428 5823.76 
-3509.79 -139.307 5808.14 
-3513.75 -139.626 5808.29 
-3517.9 -123.428 5803.35 
-3522 -127.093 5804.05 
-3515.3 -122.448 5802.81 
-3522.4 -129.489 5805.34 
-3509.11 -122.718 5800.6 
-3507.34 -123.453 5799.83 
-3521.57 -131.364 5806.01 
-3520.23 -131.861 5805.61 
-3519.57 -133.005 5805.73 
-3519.66 -133.697 5805.96 
-3521.26 -130.382 5805.45 
-3519.23 -135.55 5806.33 
-3517.67 -136.409 5806.49 
-3516.49 -137.456 5806.89 
-3519.46 -134.587 5806.18 
-3518.75 -133.955 5805.79 
-3514.88 -138.487 5807.4 
-3512.05 -135.116 5805.21 
-3510.77 -135.817 5805.66 
-3510.4 -136.744 5806.33 
-3512.59 -134.547 5805.04 
-3513.24 -133.789 5804.79 
-3510.37 -138.06 5807.17 
-3507.89 -127.052 5799.9 
-3510.03 -127.883 5800.97 
-3510.95 -128.069 5801.62 
-3507.31 -126.117 5799.57 
-3514.23 -132.772 5804.53 
-3517.47 -130.255 5804.47 
-3516.9 -131.004 5804.7 
-3515.55 -131.719 5804.55 
-3517.38 -129.426 5804.15 
-3517.26 -128.756 5803.88 
-3486.13 -110.882 5778.01 
-3486.36 -112.773 5778.98 
-3482.74 -116.127 5784.16 
-3483.87 -116.023 5783.33 
-3481.88 -115.84 5784.47 
-3483.82 -111.27 5779.58 
-3486.42 -109.416 5780.01 
-3483.54 -111.049 5780.46 
-3487.29 -108.924 5781.09 
-3486.42 -109.008 5783.19 
-3485.76 -109.326 5784.71 
-3477.5 -114.358 5787.78 
-3477.07 -115.732 5789.08 
-3477.01 -116.41 5790.58 
-3478.57 -117.564 5791.1 
-3480.43 -112.556 5787.11 
-3479.59 -118.215 5791.05 
-3487.98 -113.461 5778.73 
-3487.49 -113.133 5778.7 
-3487.05 -113.191 5778.89 
-3488.04 -115.328 5780 
-3488.52 -119.072 5785.11 
-3487.77 -117.682 5783.1 
-3485.39 -121.21 5790.24 
-3486.8 -121.72 5789.81 
-3485.43 -120.675 5789.17 
-3486.88 -119.472 5786.37 
-3486.66 -120.979 5788.71 
-3483.98 -120.27 5789.9 
-3482.14 -119.492 5790.7 
-3526.43 -143.685 5828.58 
-3524.37 -144.026 5829.65 
-3521.8 -145.349 5828.04 
-3522.28 -145.422 5825.37 
-3521.46 -144.547 5831.32 
-3528.06 -143.723 5828.07 
-3517.39 -148.243 5822.93 
-3513.86 -150.731 5822.94 
-3518.7 -146.943 5824.02 
-3510.05 -148.088 5828.46 
-3512.54 -146.008 5836.49 
-3518.75 -145.417 5833.91 
-3521.95 -145.205 5829.53 
-3526.14 -145.378 5825.44 
-3530.36 -145.502 5821.19 
-3529.58 -144.731 5821.04 
-3528.86 -144.98 5822.99 
-3528.35 -145.31 5823.74 
-3528.5 -145.268 5824.5 
-3529.11 -143.766 5827.55 
-3513.26 -151.102 5823.57 
-3512.07 -151.098 5824.67 
-3510.58 -148.451 5828.44 
-3511.63 -150.093 5826.52 
-3513.04 -150.878 5824.28 
-3521.75 -127.169 5803.87 
-3519.62 -125.436 5803.56 
-3518.99 -125.206 5803.5 
-3513.81 -122.338 5802.48 
-3522.13 -128.789 5804.61 
-3508.27 -123.765 5800.17 
-3520.72 -129.831 5804.96 
-3519.67 -131.394 5805.16 
-3518.55 -133.054 5805.39 
-3521.53 -128.497 5804.35 
-3518.19 -135.275 5806.17 
-3516.52 -136.077 5806.19 
-3514.92 -136.883 5806.44 
-3517.78 -134.512 5805.78 
-3517.38 -133.523 5805.33 
-3516.81 -135.352 5805.91 
-3516.31 -134.321 5805.41 
-3509.78 -126.995 5800.81 
-3510.72 -127.416 5801.43 
-3516.14 -127.667 5803.39 
-3508.5 -125.944 5800.22 
-3516.68 -133.132 5805.08 
-3517.84 -132.452 5805.08 
-3518.58 -131.903 5805.02 
-3519.45 -129.341 5804.38 
-3484.99 -116.033 5782.63 
-3482.88 -118.4 5787.13 
-3482.09 -118.129 5787.22 
-3483.67 -118.086 5786.16 
-3480.91 -115.923 5785.15 
-3481.13 -118.011 5788.26 
-3482.11 -112.344 5780.93 
-3481.59 -112.184 5782.47 
-3480.24 -112.948 5784.37 
-3477.94 -114.552 5786.56 
-3477.84 -116.724 5790.15 
-3478.09 -115.84 5787.71 
-3477.85 -115.403 5787.16 
-3480.88 -118.567 5790.25 
-3479.36 -117.441 5789.61 
-3487.32 -115.008 5780.19 
-3485.96 -116.284 5782.33 
-3486.63 -117.732 5783.85 
-3484.13 -119.756 5788.53 
-3485.34 -120.071 5788.22 
-3484.3 -119.412 5787.83 
-3485.71 -119.019 5786.36 
-3482.77 -119.178 5788.85 
-3529.59 -143.014 5835.13 
-3527.39 -143.344 5837.96 
-3524.59 -143.789 5838.31 
-3517.8 -145.101 5834.02 
-3519.94 -145.462 5827.85 
-3517.24 -147.596 5824.71 
-3520.22 -144.497 5839.13 
-3533.33 -142.706 5835.65 
-3512.44 -146.04 5837.74 
-3513.87 -145.001 5842.14 
-3517.15 -145 5840.13 
-3523.67 -145.743 5829.55 
-3519.87 -145.934 5834.92 
-3528.43 -145.795 5824.38 
-3531.96 -146.052 5821.43 
-3530.07 -145.027 5821.55 
-3529.18 -145.336 5823.42 
-3529.92 -145.301 5824.21 
-3530.07 -143.944 5826.73 
-3534.55 -142.848 5834.93 
-3514.12 -149.787 5824.32 
-3512.49 -150.836 5825.26 
-3510.99 -148.708 5828.63 
-3510.98 -147.73 5830.91 
-3512.22 -150.196 5827.27 
-3512.59 -150.108 5825.79 
-3513.15 -149.817 5825.16 
-3518.4 -125.083 5803.43 
-3520.79 -128.034 5804.1 
-3510.91 -123.18 5801.55 
-3520.18 -129.321 5804.49 
-3519.17 -131.205 5804.88 
-3510.26 -126.473 5801.14 
-3515.84 -126.96 5803.18 
-3519.07 -127.548 5803.99 
-3509.56 -125.448 5800.84 
-3484.81 -118.303 5785.8 
-3479.68 -116.97 5787.75 
-3479.95 -115.994 5785.55 
-3480.42 -114.401 5783.51 
-3480.26 -113.074 5782.63 
-3478.95 -113.821 5784.36 
-3477.74 -114.921 5785.96 
-3478.21 -115.468 5786.47 
-3478.79 -116.239 5787.4 
-3478.88 -115.889 5786.22 
-3533.12 -142.476 5839.77 
-3531.72 -142.662 5842.84 
-3528.97 -143.034 5845.16 
-3523.39 -144.043 5844.34 
-3515.1 -145.265 5836.7 
-3514.62 -145.945 5834.26 
-3517.01 -145.405 5831.37 
-3514.8 -145.425 5833.33 
-3517.17 -146.71 5826.85 
-3518.09 -144.854 5841.53 
-3535.79 -142.093 5843.73 
-3536.14 -142.144 5842.32 
-3515.82 -144.56 5846.48 
-3513.74 -143.937 5848.05 
-3517.19 -143.736 5845.19 
-3522.99 -142.627 5845.74 
-3512.99 -146.007 5837 
-3516.84 -145.129 5843.26 
-3522.39 -143.569 5842.97 
-3527.87 -146.125 5826.21 
-3525.06 -146.296 5830 
-3522.76 -145.846 5835.52 
-3531.28 -145.402 5821.47 
-3531.14 -146.463 5823.75 
-3530.6 -145.254 5823.64 
-3529.7 -145.354 5823.18 
-3531.42 -144.042 5826.33 
-3535.53 -143.009 5833.86 
-3536.51 -141.812 5842.28 
-3513.92 -148.62 5827.76 
-3511.45 -148.779 5829.36 
-3511.31 -147.859 5831.13 
-3512.51 -148.858 5829.93 
-3511.99 -148.802 5829.93 
-3512.81 -148.962 5829.02 
-3512.93 -147.652 5830.82 
-3512.85 -147.628 5831.78 
-3517.91 -125.044 5803.37 
-3519.84 -127.532 5803.99 
-3513.32 -124.14 5802.15 
-3514.31 -126.265 5802.54 
-3517.88 -125.772 5803.51 
-3512.96 -125.303 5802.02 
-3479.65 -114.729 5784.02 
-3478.89 -113.917 5783.83 
-3477.85 -115.09 5785.39 
-3478.52 -115.693 5786.05 
-3535.59 -141.582 5847.51 
-3534.35 -141.642 5848.83 
-3526.28 -143.194 5848.73 
-3533.64 -141.452 5850.23 
-3521.25 -144.54 5849.17 
-3512.66 -147.108 5834.15 
-3512.2 -147.05 5834.29 
-3516.17 -146.215 5829.13 
-3513.07 -146.589 5831.28 
-3514.47 -146.077 5830.9 
-3535.27 -139.985 5850.54 
-3535.29 -139.93 5850.19 
-3518.62 -143.619 5851.86 
-3517.24 -143.21 5855.05 
-3512.65 -142.978 5852.64 
-3517.21 -141.951 5853.83 
-3521.11 -142.926 5845.91 
-3520 -142.07 5850.97 
-3527.24 -141.526 5847.54 
-3534.21 -139.915 5850.77 
-3527.86 -141.318 5848.1 
-3528.17 -143.109 5842.27 
-3528.45 -141.396 5847.41 
-3529.1 -146.702 5826.91 
-3526.03 -146.441 5832.2 
-3533.49 -146.798 5822.39 
-3532.08 -145.459 5821.95 
-3531.57 -145.104 5823.5 
-3531.44 -144.79 5824.82 
-3535.79 -143.316 5830.81 
-3536.7 -142.241 5838.84 
-3535.39 -139.823 5850 
-3535.47 -140.154 5848.33 
-3478.89 -114.974 5784.41 
-3535.11 -139.734 5851.34 
-3534.31 -139.827 5851.14 
-3528.51 -142.284 5850.89 
-3533.73 -141.334 5850.92 
-3524.43 -142.494 5856.09 
-3527.39 -141.416 5859.01 
-3535.17 -139.641 5851.66 
-3521.48 -142.919 5856.04 
-3520.68 -142.351 5860.02 
-3520.49 -141.697 5865.5 
-3513.98 -141.845 5860.22 
-3512.67 -141.899 5857.78 
-3522.01 -140.168 5858.53 
-3518.99 -140.12 5861.23 
-3525.23 -141.755 5848.21 
-3523.83 -140.771 5854.13 
-3530.44 -144.145 5838.29 
-3535.96 -141.276 5844.11 
-3529.74 -146.646 5830.55 
-3531.48 -147.102 5825.68 
-3534.76 -147.238 5822.62 
-3533.04 -145.623 5822.58 
-3532.75 -144.966 5823.71 
-3532.72 -144.713 5824.99 
-3536.65 -143.744 5829.46 
-3536.27 -142.754 5838.57 
-3528.72 -140.761 5850.13 
-3533.19 -141.134 5852.16 
-3530.66 -140.687 5857.52 
-3533.82 -139.705 5852.02 
-3524.87 -141.474 5863.28 
-3527.72 -140.547 5866.99 
-3529.14 -140.412 5866.54 
-3522.65 -141.695 5863.68 
-3521.92 -141.292 5869.08 
-3517.36 -140.417 5870.23 
-3517.71 -138.879 5876.28 
-3512.05 -140.337 5866.64 
-3512.01 -140.904 5863.13 
-3516.39 -139.95 5864.17 
-3526.25 -138.758 5862.39 
-3523.89 -138.205 5868.3 
-3520.98 -138.196 5870 
-3527.41 -139.899 5855.42 
-3532.67 -147.367 5826.83 
-3536.41 -144.144 5834.35 
-3535.84 -147.678 5823.07 
-3534.07 -145.687 5823.39 
-3534.03 -144.861 5824.67 
-3534.52 -144.459 5825.88 
-3536.64 -144.003 5827.69 
-3537.5 -144.605 5828.06 
-3531.62 -138.784 5858.36 
-3535.2 -139.289 5853.48 
-3530.85 -140.252 5861.74 
-3534.51 -138.961 5857.1 
-3524.42 -140.631 5869.88 
-3526.91 -139.863 5871.46 
-3528.2 -139.197 5874.18 
-3529.18 -139.147 5873.77 
-3530.86 -139.148 5867.88 
-3522.08 -139.094 5875.94 
-3524.49 -139.409 5875.01 
-3513.47 -138.491 5876.63 
-3515.91 -138.383 5877.83 
-3520.73 -137.839 5879.25 
-3511.16 -139.349 5871.33 
-3512.06 -139.793 5868.46 
-3517.72 -138.325 5871.41 
-3529.17 -138.411 5863.24 
-3526.58 -137.891 5871.57 
-3524.05 -137.436 5879.05 
-3521.64 -137.502 5878.55 
-3518.99 -137.505 5878.97 
-3536.35 -146.126 5829.63 
-3537.23 -146.094 5825.73 
-3534.14 -138.405 5861.94 
-3531.49 -138.152 5866.47 
-3533.2 -138.808 5861 
-3533.23 -138.185 5866.8 
-3527.14 -139.001 5875.78 
-3527.35 -138.726 5877.4 
-3528.38 -138.79 5876.73 
-3529.92 -138.705 5874.88 
-3529.03 -138.698 5876.99 
-3532.31 -138.537 5866.55 
-3525.5 -137.701 5879.58 
-3524.34 -137.166 5881.59 
-3525.83 -138.645 5877.45 
-3512.05 -137.824 5878.93 
-3517.25 -137.617 5880.07 
-3520.58 -137.34 5880.84 
-3523.3 -136.888 5882.98 
-3523.64 -136.907 5882.95 
-3511.47 -137.704 5879.33 
-3511.51 -138.804 5873.7 
-3515.73 -137.913 5875.53 
-3529.19 -137.843 5871.91 
-3526.6 -137.336 5879.95 
-3524.78 -136.984 5882.16 
-3522.81 -137.039 5882.07 
-3521.49 -137.143 5881.82 
-3520.17 -136.951 5882.83 
-3519.94 -137.266 5881.52 
-3517.13 -137.168 5882.2 
-3518.5 -137.048 5882.49 
-3533.27 -137.936 5869.85 
-3531.45 -137.733 5873.3 
-3532.04 -138.043 5872.97 
-3531.96 -137.704 5876.47 
-3529.43 -138.236 5878.96 
-3529.24 -137.674 5880.08 
-3527.95 -137.744 5879.79 
-3530.32 -138.346 5877.43 
-3531.44 -138.489 5871.5 
-3529.99 -138.261 5878.43 
-3527.7 -137.213 5880.75 
-3527.63 -136.518 5883.46 
-3525.36 -136.655 5883.83 
-3526.46 -136.57 5883.71 
-3524.82 -136.754 5884.07 
-3516.89 -137.479 5880.71 
-3521.9 -137.056 5884.13 
-3522.83 -136.948 5883.34 
-3523.89 -136.83 5884.16 
-3523.13 -136.909 5884.3 
-3513.35 -137.358 5881.2 
-3516.3 -137.398 5881.25 
-3511.62 -137.699 5879.56 
-3513.93 -137.358 5881.39 
-3515.64 -137.248 5882.04 
-3529.39 -137.409 5878.82 
-3528.27 -137.018 5881.94 
-3526.53 -136.821 5882.57 
-3523.26 -136.712 5883.47 
-3521.68 -136.81 5883.2 
-3524.3 -136.753 5885.41 
-3523.39 -136.846 5885.65 
-3520.39 -136.945 5884.43 
-3519.18 -137.042 5884.48 
-3531.91 -137.458 5878.33 
-3529.1 -137.006 5881.2 
-3530.82 -137.125 5881.47 
-3530.39 -136.831 5882.31 
-3529.22 -136.643 5882.49 
-3528.87 -136.375 5883.73 
-3528.75 -136.683 5882.88 
-3526.36 -136.571 5885.41 
-3525.27 -136.66 5885.3 
-3521.01 -137.135 5884.62 
-3522.61 -136.94 5886.05 
-3519.21 -137.232 5884.44 
-3518.51 -137.237 5884.89 
-3511.94 -137.422 5881.48 
-3515.15 -137.295 5883.84 
-3516.5 -137.19 5883.78 
-3519.06 -137.103 5885.09 
-3522.01 -137.02 5886.5 
-3521.23 -137.126 5886.04 
-3520.57 -137.179 5886.22 
-3514.76 -137.246 5882.84 
-3518.68 -137.232 5885.71 
-3519.45 -137.183 5886.54 
-3520.18 -137.155 5886.69 
-3512.33 -137.297 5882.52 
-3513.81 -137.351 5883.46 
-3517.76 -137.199 5885.03 
-3521.19 -137.105 5886.86 
-3516.38 -137.231 5884.55 
-3519.12 -137.194 5886.74 
-3516.16 -137.278 5884.98 
-3511.73 -137.148 5882.62 
-3514.73 -137.325 5884.46 
-3515.83 -137.202 5884.65 
-3518.56 -137.218 5886.72 
-3511.78 -137.024 5883.05 
-3514.13 -137.267 5884.61 
-3516.7 -137.222 5885.98 
-3511.66 -136.917 5883.52 
-3516.84 -137.205 5886.46 
-3514.77 -137.058 5884.73 
-3516.7 -137.222 5885.98 
-3511.66 -136.917 5883.52 
-3512.86 -136.902 5885.32 
-3511.24 -136.786 5883.79 
-3514.54 -136.99 5885.05 
-3516.35 -137.095 5886.73 
-3512.75 -136.689 5886.07 
-3511.13 -136.666 5884.27 
-3514.53 -136.857 5886.25 
-3511.13 -136.666 5884.27 
-3511.35 -136.704 5884.01 
-3514.53 -136.857 5886.25 
-3510.58 -136.27 5886.17 
