-3012.57 452.136 1967.24 
-3012.39 452.205 1967.71 
-3012.03 452.406 1965.71 
-3012.79 452.221 1967.8 
-3012.81 452.155 1968.53 
-3013.59 451.677 1965.55 
-3013.4 451.751 1966.09 
-3011.84 452.335 1966.58 
-3011.37 452.889 1963.54 
-3014.77 451.403 1963.92 
-3014.76 451.441 1964.38 
-3012.45 452.202 1968.07 
-3013.4 451.983 1967.25 
-3012.95 452.365 1968.37 
-3012.95 452.277 1968.54 
-3013.1 452.15 1969.11 
-3012.97 452.087 1969.31 
-3014.83 451.303 1964.53 
-3014.9 451.255 1964.07 
-3014.76 451.363 1965.04 
-3011.07 452.585 1964.84 
-3009.82 453.914 1960.27 
-3014.72 451.401 1963.53 
-3012.04 452.301 1967.3 
-3011.55 452.409 1966.13 
-3012.96 452.248 1963.31 
-3013.59 452.133 1964.13 
-3015.29 451.642 1965.2 
-3013.74 452.188 1964.92 
-3012.58 452.181 1968.61 
-3013.89 451.983 1967.59 
-3014.69 451.39 1965.39 
-3013.22 452.432 1968.71 
-3013.14 452.358 1968.84 
-3013.28 452.295 1969.2 
-3013.33 452.158 1969.54 
-3013.42 451.998 1970.36 
-3013.13 452.061 1969.9 
-3015.33 451.712 1965.79 
-3015.39 451.787 1966.37 
-3010.21 453.088 1962.39 
-3010.95 452.545 1964.81 
-3009.02 454.427 1958.12 
-3014.56 451.431 1963.13 
-3013.33 452 1962.61 
-3012.12 452.291 1967.69 
-3011.52 452.423 1966.27 
-3011.69 452.599 1962.63 
-3012.21 452.517 1963.63 
-3012.86 452.391 1964.44 
-3014.16 452.148 1965.84 
-3013.61 452.261 1965.6 
-3012.73 452.158 1969.14 
-3014.54 451.894 1967.7 
-3014.61 451.397 1965.65 
-3015.53 451.806 1966.93 
-3013.81 452.381 1968.74 
-3013.43 452.493 1969.26 
-3013.38 452.405 1969.27 
-3013.58 452.376 1969.73 
-3013.51 452.288 1969.69 
-3013.55 452.225 1969.85 
-3013.61 452.1 1970.25 
-3013.71 451.942 1971.17 
-3013.3 452.031 1970.5 
-3014.72 452.05 1966.65 
-3008.21 454.467 1958 
-3010.04 452.871 1962.71 
-3011 452.543 1965.17 
-3010.48 452.657 1963.91 
-3009.55 454.086 1957.75 
-3014.46 451.476 1962.46 
-3012.19 452.307 1961.79 
-3011.64 452.404 1966.75 
-3012.29 452.26 1968.28 
-3011.01 452.739 1961.98 
-3011.38 452.677 1962.96 
-3011.93 452.576 1963.78 
-3012.58 452.456 1964.57 
-3013.12 452.354 1965.17 
-3014.21 452.154 1966.63 
-3014.46 452.103 1966.6 
-3013.54 452.282 1966.09 
-3012.87 452.133 1969.63 
-3015.61 451.823 1968.02 
-3014.55 451.427 1966.04 
-3015.77 451.755 1967.41 
-3015.3 451.946 1967.58 
-3013.72 452.514 1969.15 
-3013.67 452.549 1969.68 
-3013.64 452.464 1969.73 
-3013.84 452.425 1970.2 
-3013.78 452.333 1970.19 
-3013.77 452.24 1970.28 
-3013.83 452.083 1970.75 
-3014.05 451.872 1972.1 
-3013.78 451.929 1971.75 
-3013.21 452.063 1970.57 
-3014.83 452.036 1967.32 
-3008.49 453.957 1958.89 
-3008.47 454.387 1956.86 
-3009.91 452.79 1962.61 
-3011.14 452.521 1965.69 
-3010.63 452.634 1964.51 
-3010.16 452.737 1963.37 
-3014.15 451.606 1960.86 
-3014.51 451.435 1961.88 
-3012.78 451.998 1961.24 
-3010.76 452.733 1961.09 
-3011.88 452.359 1967.46 
-3011.41 452.468 1966.44 
-3012.53 452.215 1969.02 
-3010.48 452.842 1961.6 
-3010.81 452.786 1962.49 
-3011.23 452.715 1963.39 
-3011.79 452.611 1964.19 
-3012.39 452.499 1964.88 
-3012.98 452.388 1965.55 
-3013.86 452.229 1966.92 
-3014.31 452.144 1967.5 
-3014.74 452.062 1967.72 
-3013.39 452.32 1966.56 
-3015.54 452.095 1968.87 
-3015.83 451.848 1968.22 
-3015.97 451.892 1968.86 
-3015.28 451.959 1968.23 
-3015.77 451.867 1968.65 
-3013.75 452.631 1969.61 
-3013.9 452.599 1970.1 
-3013.88 452.511 1970.18 
-3014.11 452.483 1970.68 
-3014.04 452.392 1970.64 
-3014 452.303 1970.68 
-3013.99 452.219 1970.75 
-3014.03 452.095 1971.09 
-3014.21 451.923 1972.09 
-3014.46 451.791 1973.23 
-3013.86 451.921 1972.17 
-3013.37 452.042 1971.24 
-3012.82 452.162 1969.89 
-3009.2 453.075 1961.01 
-3007.72 454.409 1956.94 
-3008.66 454.108 1956.72 
-3014.2 451.502 1960.25 
-3009.61 452.862 1962.15 
-3010.87 452.592 1965.28 
-3010.37 452.701 1964.11 
-3009.89 452.806 1962.97 
-3012.65 451.91 1960.49 
-3010.68 452.667 1960.38 
-3009.95 452.936 1960.67 
-3011.95 452.351 1967.85 
-3011.3 452.5 1966.4 
-3009.98 452.938 1961.34 
-3010.33 452.881 1962.21 
-3010.71 452.816 1963.18 
-3011.24 452.72 1964.02 
-3012.28 452.527 1965.35 
-3011.76 452.626 1964.75 
-3012.84 452.423 1966 
-3013.89 452.233 1967.62 
-3014.54 452.111 1968.36 
-3014.87 452.045 1968.45 
-3015.32 451.959 1968.85 
-3013.29 452.347 1967.03 
-3015.39 452.26 1969.28 
-3015.84 452.058 1969.35 
-3015.88 451.946 1969.35 
-3015.79 451.88 1969.27 
-3014.93 452.473 1969.74 
-3013.94 452.686 1970.08 
-3014.15 452.676 1970.52 
-3014.11 452.582 1970.55 
-3014.31 452.558 1970.99 
-3014.4 452.499 1971.25 
-3014.29 452.423 1971.12 
-3014.21 452.342 1971.06 
-3014.27 452.271 1971.27 
-3014.18 452.185 1971.19 
-3014.34 452.067 1971.79 
-3014.41 451.93 1972.45 
-3014.85 451.751 1974.04 
-3014.51 451.779 1973.68 
-3014.01 451.9 1972.75 
-3013.47 452.03 1971.75 
-3012.8 452.178 1970.14 
-3012.27 452.289 1968.76 
-3008.24 453.623 1958.81 
-3009.09 452.983 1961.04 
-3007.65 454.316 1956.39 
-3008.92 453.771 1956.67 
-3015.64 451.278 1958.15 
-3013.37 451.64 1959.34 
-3009.39 452.922 1961.89 
-3010.89 452.6 1965.63 
-3010.43 452.698 1964.45 
-3009.87 452.821 1963.12 
-3010.57 452.609 1959.75 
-3009.39 453.036 1959.84 
-3009.45 453.036 1960.52 
-3011.58 452.446 1967.24 
-3009.66 453.006 1961.5 
-3010.12 452.928 1962.56 
-3010.6 452.843 1963.88 
-3011.25 452.727 1964.74 
-3011.95 452.599 1965.58 
-3012.7 452.458 1966.47 
-3013.6 452.296 1967.96 
-3013.96 452.225 1968.13 
-3014.34 452.157 1968.73 
-3014.25 452.167 1968.22 
-3014.86 452.058 1969.18 
-3015.29 451.972 1969.42 
-3015.74 451.907 1969.83 
-3015.72 452.201 1969.82 
-3015.75 452.095 1969.83 
-3015.77 451.997 1969.91 
-3014.16 452.768 1970.43 
-3015.21 452.491 1969.88 
-3015.59 452.379 1970.24 
-3014.38 452.731 1970.92 
-3014.35 452.642 1970.97 
-3014.55 452.6 1971.44 
-3014.62 452.524 1971.68 
-3014.56 452.439 1971.67 
-3014.45 452.361 1971.54 
-3014.54 452.299 1971.79 
-3014.4 452.205 1971.63 
-3014.55 452.143 1972 
-3014.65 451.96 1972.79 
-3015.18 451.773 1974.55 
-3015.16 451.648 1975.14 
-3014.71 451.744 1974.39 
-3014.14 451.88 1973.3 
-3013.76 451.978 1972.69 
-3013.09 452.125 1971.1 
-3012.04 452.35 1968.46 
-3012.43 452.27 1969.55 
-3008.41 453.226 1959.49 
-3007.44 454.169 1956.61 
-3008.78 453.061 1960.56 
-3007.66 454.064 1956.11 
-3009.42 453.34 1956.67 
-3015.54 451.675 1957.69 
-3016.41 450.995 1954.86 
-3012.98 451.824 1957.58 
-3010.97 452.386 1959.29 
-3009.3 452.951 1961.87 
-3011.19 452.544 1966.55 
-3010.46 452.703 1964.82 
-3009.89 452.826 1963.39 
-3009.23 453.007 1959.05 
-3008.84 453.145 1959.52 
-3009.12 453.103 1960.53 
-3009.34 453.041 1961.78 
-3009.96 452.93 1963.07 
-3010.93 452.716 1965.57 
-3011.49 452.656 1966.29 
-3011.97 452.487 1968.21 
-3011.74 452.646 1966.13 
-3012.34 452.535 1966.69 
-3013.03 452.408 1967.58 
-3013.55 452.317 1968.77 
-3014.13 452.202 1968.95 
-3014.57 452.124 1969.66 
-3014.93 452.052 1969.83 
-3015.35 451.971 1970.08 
-3015.69 451.939 1970.36 
-3015.66 452.061 1970.45 
-3015.61 452.28 1970.31 
-3015.65 452.163 1970.33 
-3015.05 452.632 1970.27 
-3014.4 452.82 1970.85 
-3015.49 452.429 1970.76 
-3015.46 452.528 1970.7 
-3014.6 452.784 1971.32 
-3014.58 452.691 1971.38 
-3014.78 452.659 1971.84 
-3014.81 452.577 1972 
-3014.81 452.482 1972.11 
-3014.75 452.389 1972.11 
-3014.8 452.311 1972.31 
-3014.63 452.232 1972.06 
-3014.83 452.227 1972.48 
-3014.81 452.145 1972.53 
-3014.75 452.016 1972.76 
-3014.96 452.002 1973.23 
-3015.48 451.762 1975.18 
-3015.51 451.577 1976.12 
-3015.04 451.679 1975.32 
-3014.5 451.809 1974.27 
-3013.33 452.086 1971.98 
-3014.08 451.924 1973.84 
-3014.36 451.849 1974.19 
-3012.7 452.225 1970.46 
-3011.72 452.431 1967.93 
-3012.36 452.303 1969.76 
-3007.34 453.993 1956.56 
-3008.12 453.237 1958.98 
-3008.8 453.067 1960.82 
-3008.28 453.179 1959.56 
-3007.54 453.847 1956 
-3009.12 453.293 1956.21 
-3015.94 451.814 1956.01 
-3016.48 451.183 1952.45 
-3010.11 452.605 1958.56 
-3012.93 452.038 1954.83 
-3009.32 452.954 1962.08 
-3010.86 452.628 1966.06 
-3011.58 452.473 1967.84 
-3010.16 452.781 1964.36 
-3009.5 452.924 1962.74 
-3008.5 453.18 1958.45 
-3008.64 453.184 1959.97 
-3008.22 453.262 1958.79 
-3010.51 452.732 1965.29 
-3009.29 452.983 1962.28 
-3011.42 452.534 1967.57 
-3012.33 452.335 1969.84 
-3013.1 452.238 1971.07 
-3012.57 452.419 1969.04 
-3013.2 452.145 1972.01 
-3012.63 452.454 1968.66 
-3012.63 452.49 1967.7 
-3013.06 452.414 1968.82 
-3013.84 452.275 1969.85 
-3014.24 452.19 1969.71 
-3014.94 452.058 1970.39 
-3015.42 451.971 1970.91 
-3015.61 451.959 1970.82 
-3015.58 452.073 1970.94 
-3015.51 452.195 1971.09 
-3015.55 452.22 1970.81 
-3015.51 452.325 1970.8 
-3015.02 452.739 1970.61 
-3014.59 452.879 1971.17 
-3015.39 452.469 1971.26 
-3015.36 452.577 1971.21 
-3015.36 452.67 1971.06 
-3014.79 452.852 1971.62 
-3014.79 452.749 1971.75 
-3015.09 452.698 1972.21 
-3015.1 452.616 1972.33 
-3015.1 452.528 1972.45 
-3015.11 452.439 1972.56 
-3015.12 452.357 1972.66 
-3015.13 452.278 1972.81 
-3015.14 452.194 1972.93 
-3015.14 452.111 1973.02 
-3015.1 452.043 1973.26 
-3015.43 451.95 1974.37 
-3015.91 451.659 1976.41 
-3015.9 451.515 1977.04 
-3015.63 451.549 1976.77 
-3015.11 451.674 1975.76 
-3014.68 451.793 1975.26 
-3015.99 451.525 1978.77 
-3015.81 451.567 1978.42 
-3014.7 451.804 1975.62 
-3013.97 451.962 1973.86 
-3015.03 451.703 1975.79 
-3014.1 451.954 1974.22 
-3007.23 453.844 1956.42 
-3007.68 453.335 1958.12 
-3008.55 453.144 1960.43 
-3007.89 453.288 1958.78 
-3007.34 453.596 1955.93 
-3007.68 453.659 1955.68 
-3008.92 453.199 1955.66 
-3014.51 451.776 1955.7 
-3019.42 452.798 1950.42 
-3015.85 451.583 1950.41 
-3009.52 452.763 1957.73 
-3012.78 452.297 1951.75 
-3009.21 452.912 1956.24 
-3007.88 453.305 1957.77 
-3013.97 452.072 1973.01 
-3013.73 452.203 1971.55 
-3013.69 452.28 1970.68 
-3014.09 452.237 1970.93 
-3014.5 452.153 1970.76 
-3014.7 452.11 1970.54 
-3015.24 452.008 1971.21 
-3015.47 452.044 1971.65 
-3015.5 452.074 1971.38 
-3015.44 452.201 1971.54 
-3015.39 452.313 1971.56 
-3015.42 452.365 1971.32 
-3015.03 452.839 1970.9 
-3014.76 452.948 1971.44 
-3015.29 452.52 1971.77 
-3015.27 452.617 1971.68 
-3015.26 452.725 1971.55 
-3015.26 452.812 1971.37 
-3015.08 452.777 1972.08 
-3015.06 452.923 1971.87 
-3015.07 452.856 1972.01 
-3015.29 452.446 1971.93 
-3015.31 452.346 1972.04 
-3015.35 452.225 1972.02 
-3015.33 452.166 1972.24 
-3015.33 452.09 1972.41 
-3015.26 452.031 1972.37 
-3014.84 452.103 1972.19 
-3014.83 452.074 1973.11 
-3015.62 451.874 1974.89 
-3016.3 451.708 1977.24 
-3016.26 451.429 1978.11 
-3016.41 451.508 1978 
-3015.83 451.802 1975.52 
-3015.83 451.516 1977.45 
-3015.34 451.649 1976.87 
-3016.58 451.395 1980.21 
-3017.84 451.141 1983.55 
-3017.36 451.257 1982.3 
-3016.55 451.435 1980.27 
-3015.74 451.602 1978.3 
-3015 451.769 1976.41 
-3015.63 451.57 1977.24 
-3007.1 453.685 1956.28 
-3007.31 453.413 1957.29 
-3007.59 453.32 1955.36 
-3007.26 453.381 1955.67 
-3007.62 453.427 1955.46 
-3008.72 453.144 1954.97 
-3013.95 451.865 1954.67 
-3017.17 451.727 1946.21 
-3012.57 452.374 1949.54 
-3015.12 451.819 1975.93 
-3014.9 451.934 1974.65 
-3014.81 452.015 1973.76 
-3014.72 452.119 1971.54 
-3015.09 452.044 1971.57 
-3015.42 452.014 1971.92 
-3015.03 452.956 1971.27 
-3015.06 453 1971.76 
-3015.87 451.777 1976.5 
-3016.59 451.56 1977.94 
-3017.26 451.424 1980.52 
-3016.03 451.741 1976.09 
-3016.59 451.567 1978.09 
-3017.01 451.284 1980.11 
-3016.62 451.347 1979.15 
-3016.38 451.399 1978.85 
-3015.89 451.529 1978.17 
-3017.27 451.244 1981.88 
-3016.27 451.566 1978.84 
-3017.49 451.301 1981.9 
-3016.18 451.452 1978.61 
-3006.87 453.227 1955.33 
-3005.24 452.89 1951.91 
-3008.21 452.883 1953.12 
-3007.12 453.15 1955.15 
-3007.48 453.209 1955.1 
-3007.78 453.233 1954.92 
-3009.3 452.887 1953.84 
-3013.63 451.966 1953.42 
-3018.25 452.662 1949.98 
-3017.32 452.526 1948.96 
-3016.44 451.701 1945.05 
-3011.96 452.025 1948.27 
-3016.18 451.645 1977.98 
-3016.55 451.444 1977.64 
-3017.46 451.298 1980.74 
-3015.96 451.737 1975.7 
-3016.93 451.473 1979.11 
-3016.16 451.707 1976.3 
-3017.41 451.187 1981.3 
-3016.82 451.309 1980.08 
-3016.44 451.407 1979.49 
-3017.46 451.195 1982.23 
-3006.56 452.716 1953.29 
-3005.38 452.346 1949.94 
-3002.03 452.309 1945.6 
-3006.62 452.588 1951.42 
-3007.36 453.019 1954.74 
-3006.7 452.559 1952.93 
-3007.75 453.023 1954.45 
-3009.51 452.745 1952.91 
-3015.1 452.213 1950.26 
-3016.34 451.973 1946.31 
-3016.46 451.538 1944.18 
-3017.39 452.071 1946.38 
-3012.42 451.483 1945.94 
-3008.4 452.181 1950.3 
-3016.56 451.335 1977.56 
-3017.25 451.381 1980.1 
-3016.38 451.66 1976.95 
-3017.34 451.199 1981.4 
-3016.91 451.302 1980.58 
-3017.9 451.1 1983.26 
-3006.23 452.191 1950.97 
-3004.86 451.834 1947.21 
-2999.5 451.783 1940.41 
-3004.47 452.124 1947.54 
-3007.6 452.851 1954.16 
-3007.01 452.553 1953.13 
-3006.43 452.043 1950.92 
-3008.39 452.725 1953.22 
-3013.37 452.257 1949.96 
-3015.5 451.944 1946.44 
-3016.69 451.563 1943.78 
-3007.34 451.838 1948.53 
-3013.12 451.003 1943.7 
-3017.52 451.035 1980.67 
-3016.59 451.287 1977.54 
-3016.57 451.622 1977.51 
-3017.61 451.254 1981.31 
-3017.16 451.474 1979.52 
-3017.98 451.144 1982.48 
-3005.79 451.61 1948.13 
-3004.36 451.26 1944.24 
-3000.65 451.385 1940.2 
-2996.34 451.223 1934.34 
-3001.8 451.569 1942.06 
-3007.17 452.391 1952.68 
-3007.68 452.646 1953.63 
-3006.49 451.791 1950.12 
-3006.17 451.585 1949.07 
-3008.56 452.472 1952.47 
-3012.33 452.238 1949.46 
-3014.86 451.895 1946.31 
-3016.8 451.67 1943.7 
-3008.88 451.362 1946.93 
-3004.89 451.42 1944.92 
-3013.14 450.708 1942.35 
-3017.1 451.042 1979.15 
-3016.63 451.358 1977.6 
-3016.73 451.539 1977.97 
-3017.45 451.388 1980.43 
-3005.2 450.984 1944.74 
-3005.77 451.122 1946.72 
-3003.66 450.674 1940.96 
-2998.84 450.776 1935.53 
-2993.67 450.674 1928.89 
-2997.59 450.982 1934.66 
-3000.42 450.898 1937.52 
-3006.64 451.588 1949.53 
-3007.43 452.229 1952.27 
-3006.21 451.28 1948.12 
-3008.36 452.261 1952.1 
-3012.09 452.123 1948.74 
-3014.66 451.899 1946.11 
-3016.87 451.739 1943.5 
-3007.48 451.069 1945.44 
-3003.05 450.765 1939.94 
-3012.41 450.419 1941.49 
-3016.84 451.721 1943.04 
-3016.94 451.083 1978.53 
-3016.97 451.504 1978.66 
-3018.25 451.063 1983.36 
-3017.81 451.28 1981.54 
-3018.66 450.944 1984.59 
-3004.66 450.36 1941.49 
-3005.24 450.568 1943.69 
-3005.68 450.604 1945.03 
-3003.22 450.057 1937.9 
-2998.72 450.171 1932.89 
-2994.4 450.183 1927.78 
-2990.73 450.133 1923.13 
-2994.97 450.286 1928.61 
-2998.47 450.213 1932.29 
-3006.57 451.174 1948.05 
-3006.16 450.939 1946.9 
-3007.08 451.487 1949.5 
-3008.45 451.997 1950.85 
-3011.98 452.06 1948.31 
-3014.53 451.935 1946 
-3007.3 450.687 1943.76 
-3002.46 450.226 1936.89 
-3008.95 450.237 1942.37 
-3013.85 450.579 1940.64 
-3017.05 451.885 1943.13 
-3017.06 451.089 1978.87 
-3017.16 451.459 1979.23 
-3004.18 449.754 1938.46 
-3004.82 450.018 1940.99 
-3005.19 449.935 1941.8 
-3005.83 450.366 1944.63 
-3002.73 449.457 1934.85 
-2998.16 449.606 1929.89 
-2993.08 449.575 1923.69 
-2988.05 449.63 1917.83 
-2990.97 449.614 1921.09 
-2994.45 449.613 1925.06 
-2997.99 449.594 1929.02 
-3006.17 450.665 1945.97 
-3006.33 450.543 1945.68 
-3006.79 450.818 1946.99 
-3008.39 451.693 1949.28 
-3012.25 452.04 1947.55 
-3014.52 451.966 1945.75 
-3005.38 450.199 1940.11 
-3001.75 449.651 1933.56 
-3011.19 449.86 1939.71 
-3007.11 449.946 1940.68 
-3017.3 451.942 1942.69 
-3014.78 450.902 1940.44 
-3017.28 451.075 1979.49 
-3004.37 449.446 1938.13 
-3003.77 449.052 1935.43 
-3004.69 449.225 1938.45 
-3005.48 449.773 1942.13 
-3005.93 450.163 1944.03 
-3003.14 448.792 1933.41 
-3001.69 447.174 1929.13 
-2999.01 447.707 1926.65 
-2994.91 448.161 1922.4 
-2989.06 449.222 1917.43 
-2991.11 448.372 1917.97 
-2985.04 448.566 1910.89 
-2986.58 449.241 1914.44 
-2991.13 448.919 1918.44 
-2987.79 448.895 1914.54 
-2994.52 448.893 1922.23 
-2997.99 448.902 1926.22 
-3005.89 449.85 1942.92 
-3006.27 450.086 1944.06 
-3007.23 450.649 1946.02 
-3012.14 452.021 1947.16 
-3016.93 452.054 1943.19 
-3001.2 448.801 1929.59 
-3003.76 449.443 1934.94 
-3007.84 449.519 1939.23 
-3011.8 449.952 1939.02 
-3015.45 451.144 1940.19 
-3017.35 451.416 1979.77 
-3017.61 451.357 1980.54 
-3018 451.259 1981.95 
-3004.25 448.354 1935.17 
-3003.78 448.268 1933.93 
-3005.08 449.143 1939.32 
-3005.76 447.658 1935.11 
-3006.17 447.973 1935.69 
-3005.53 449.352 1940.84 
-3003.07 448.009 1932.38 
-3002.55 447.474 1930.73 
-3002.52 446.713 1929.74 
-3002.3 444.561 1926.39 
-3002.53 444.855 1927.33 
-3000.8 444.712 1924.32 
-3002.09 444.535 1925.83 
-2995.23 446.143 1919.59 
-2987.68 448.549 1914.02 
-2991.03 446.885 1915.56 
-2988.68 446.632 1911.66 
-2987.34 448.07 1912.87 
-2991.13 446.075 1914.31 
-2994.66 448.364 1921.61 
-2990.94 448.394 1917.41 
-2998.49 448.337 1925.95 
-3002.46 448.297 1930.44 
-3005.86 449.506 1941.69 
-3006.23 449.693 1942.66 
-3007.16 450.08 1943.61 
-3011.73 451.903 1946.68 
-3016.91 452.088 1942.58 
-3017.19 452.151 1942.93 
-3004.29 448.896 1933.36 
-3006.39 448.361 1936 
-3008.59 449.229 1938.19 
-3013.29 450.621 1939.84 
-3007.91 449.322 1939.28 
-3005.33 447.302 1934.43 
-3005.65 447.398 1934.62 
-3003.77 448.027 1933.73 
-3002.42 447.877 1930.12 
-3006.8 448.865 1937.51 
-3003.47 448.067 1933.29 
-3003.06 447.4 1931.78 
-3002.74 447.268 1930.94 
-3002.76 447.043 1930.73 
-3003.16 445.98 1929.76 
-3003.29 444.097 1927.52 
-3003.3 442.069 1924.29 
-3003.23 441.899 1923.6 
-3003.33 442.22 1924.9 
-2997.94 444.523 1920.44 
-3002.69 441.915 1922.08 
-3003.15 441.854 1923.1 
-3003.54 441.471 1922.59 
-2993.77 445.138 1916.25 
-2992.06 445.324 1912.51 
-2994.04 444.636 1915.07 
-2990.32 447.509 1915.76 
-2995.43 444.828 1917.78 
-2998.41 447.916 1925.58 
-2994.4 447.969 1921.06 
-3008.34 449.607 1940.07 
-3011.82 451.71 1945.68 
-3009.19 450.031 1941.09 
-3014.39 451.67 1943.3 
-3004.26 447.462 1933.81 
-3006.04 446.821 1933.93 
-3003.8 447.166 1931.21 
-3002.37 447.48 1929.8 
-3004.02 447.357 1933.21 
-3005.18 446.616 1933.32 
-3003.13 447.06 1931.42 
-3004.52 446.125 1931.62 
-3005.19 443.796 1929.14 
-3005.15 445.109 1930.85 
-3005.41 441.833 1926.76 
-3005.4 441.292 1925.37 
-3005.88 441.024 1924.98 
-3001.17 442.154 1920.62 
-3004.69 440.653 1921.46 
-3004.8 441.19 1923.05 
-3005.87 441.289 1925.02 
-2996.85 443.566 1916.91 
-2996.63 443.629 1914.32 
-2997.76 443.051 1916.28 
-2998.75 443.207 1918.73 
-2992.76 447.211 1918.35 
-2994.74 445.681 1918.64 
-2998.88 444.264 1921.44 
-2997.74 447.552 1924.58 
-3012.01 451.393 1944.45 
-3006.25 446.556 1934.14 
-3003.22 446.768 1930.29 
-3001.05 447.146 1928.08 
-3006.08 446.328 1933.52 
-3006.22 445.829 1933.2 
-3004.74 446.206 1931.64 
-3006.52 444.609 1931.74 
-3006.2 444.089 1930.58 
-3006.09 443.295 1929.29 
-3006.61 441.42 1927.2 
-3006.34 441.682 1926.78 
-3003.07 441.033 1919.45 
-3001.11 441.83 1918.8 
-2996.63 443.629 1914.32 
-3000.13 442.341 1915.39 
-3003.07 441.033 1919.45 
-2995.05 447.004 1920.9 
-3000.56 444.297 1923.84 
-2998.04 446.493 1923.86 
-3000.18 446.346 1926.3 
-3002.91 446.559 1929.8 
-3004.22 445.842 1930.67 
-3002.16 446.086 1928.43 
-3006.97 442.133 1928.63 
-3002.25 444.279 1925.91 
-3004.46 440.403 1919.1 
-3003.89 440.915 1916.69 
-3004.9 440.012 1918.39 
-3005.23 440.27 1916.72 
-3005.23 440.27 1916.72 
-3005.5 439.506 1917.13 
-3004.9 440.012 1918.39 
-3004.48 440.096 1918.53 
-3003.56 440.517 1918.5 
-3004.95 439.886 1917.01 
