-3219.17 66.8513 4212.6 
-3218.66 65.4353 4203.73 
-3217.15 65.289 4202.12 
-3217.51 64.5816 4197.22 
-3217.06 64.2634 4193.63 
-3213.98 64.7245 4184.73 
-3216.06 64.0867 4190.82 
-3211.66 62.8877 4189.5 
-3211.66 62.8258 4190.95 
-3210.48 62.5947 4188.17 
-3199.57 61.5908 4187.07 
-3200.24 61.4329 4186.17 
-3201.05 61.2742 4185.25 
-3198.41 62.1234 4187.54 
-3120.83 132.249 4205.68 
-3120.95 131.546 4205.54 
-3122.62 132.851 4218.45 
-3121.91 132.402 4211.97 
-3121.42 131.96 4207.75 
-3121.32 131.631 4206.6 
-3121.39 130.94 4206.29 
-3165.21 96.7955 4255.41 
-3162.41 100.087 4256.41 
-3171.15 93.7544 4256.96 
-3176.13 88.9185 4253.34 
-3180.73 83.9103 4249.79 
-3183.01 79.2078 4241.71 
-3181.57 77.5084 4233.41 
-3182.48 77.0421 4234.42 
-3180.85 77.8544 4232.44 
-3154.2 100.675 4233.94 
-3155.16 100.606 4234.56 
-3151.79 101.341 4234.2 
-3152.1 100.74 4234.79 
-3150.21 100.096 4237.36 
-3150.78 99.8183 4236.72 
-3155.64 99.1344 4243.73 
-3156.14 98.7272 4245.58 
-3158.61 99.379 4246.89 
-3159.48 99.5669 4249.18 
-3155.05 99.5516 4241.04 
-3156.35 100.736 4236.79 
-3154.42 99.7115 4239.11 
-3155.41 100.503 4235.9 
-3160.12 101.879 4256.73 
-3156.38 99.2476 4251.46 
-3155.72 98.6448 4249.41 
-3147.44 102.522 4241.18 
-3148.28 102.003 4242.99 
-3149.25 101.017 4241.71 
-3150.23 99.9603 4241.27 
-3150.5 99.3517 4239.61 
-3146.04 103.757 4243.13 
-3142.75 107.223 4237.03 
-3144.37 105.646 4238.89 
-3143.97 105.397 4243.53 
-3145.26 104.098 4245.54 
-3140.79 112.653 4236.22 
-3142.45 108.833 4239.22 
-3142.84 107.155 4244.04 
-3139.97 116.484 4242.87 
-3134.53 124.02 4248.68 
-3136.06 121.708 4248.79 
-3137.32 119.634 4249.38 
-3126.34 131.515 4243.54 
-3129.64 129.032 4247.23 
-3132.84 126.35 4250.79 
-3124.53 132.15 4240.5 
-3123.85 131.916 4235.03 
-3123.36 132.376 4239.3 
-3123.61 132.227 4229.01 
-3123.65 131.921 4224.58 
-3123.91 131.174 4219.37 
-3123.17 130.294 4212.02 
-3121.94 130.667 4208.22 
-3121.64 130.983 4207.05 
-3179.33 80.8511 4211.06 
-3178.5 80.2086 4215.12 
-3181.15 80.3442 4204.82 
-3180.15 75.6568 4203.15 
-3180.67 75.0663 4205.96 
-3178.32 79.5425 4216.92 
-3178.09 79.0624 4217.89 
-3177.74 78.768 4218.98 
-3177.8 76.9834 4220.03 
-3176.84 75.4298 4218.6 
-3175.65 74.8363 4218.51 
-3175.58 74.6288 4217.77 
-3176.18 75.1794 4218.51 
-3179.62 74.7395 4222.26 
-3178.05 74.5876 4221.66 
-3180.65 75.2054 4226.97 
-3176.3 74.7394 4214.67 
-3174.12 73.812 4219.03 
-3174.01 73.8925 4218.51 
-3175.85 74.581 4214.77 
-3176.31 74.3863 4220.76 
-3175.34 74.0952 4219.95 
-3174.18 73.7858 4218.85 
-3197.77 62.2994 4190.13 
-3196.83 62.921 4192.8 
-3198.61 61.8802 4188.86 
-3180.24 74.6609 4207.07 
-3179.6 74.5476 4209.01 
-3179.97 73.9982 4208.5 
-3179.95 73.7682 4209.39 
-3181.08 72.1947 4208.06 
-3180.51 72.8759 4209.16 
-3179.17 73.9167 4212.84 
-3180.38 72.374 4211.22 
-3180.54 72.1368 4211.44 
-3194.26 64.6396 4198.6 
-3189.62 67.9407 4203.63 
-3184.48 69.4895 4206.53 
-3183.41 70.1537 4206.57 
-3183.17 69.8441 4207.16 
-3182.35 70.4366 4207.71 
-3181.17 71.5933 4211.12 
-3180.83 71.883 4211.35 
-3123.39 132.27 4224.16 
-3123.05 132.968 4229.69 
-3123.29 131.947 4219.35 
-3122.47 133.66 4236.31 
-3121.64 135.172 4237.58 
-3118.1 139.574 4245.06 
-3120.32 136.316 4239.13 
-3115.33 140.213 4247.15 
-3114.71 139.211 4247.65 
-3113.57 139.914 4249.48 
-3112.67 144.94 4258.57 
-3117.43 145.057 4262.1 
-3111.81 144.066 4255.96 
-3112.39 142.629 4254.31 
-3112.94 141.296 4252.56 
-3124.47 138.81 4271.91 
-3121.83 143.511 4266.31 
-3139 137.854 4290.97 
-3136.09 134.87 4286.06 
-3129.82 136.551 4278.98 
-3206.44 63.645 4180.25 
-3207.24 63.688 4180.69 
-3208.65 63.7185 4181.58 
-3208.03 63.7053 4181.16 
-3213.02 64.7827 4183.54 
-3209.27 63.0713 4183.28 
-3209.18 63.4729 4182.41 
-3209.76 62.9328 4184.08 
-3205.48 62.1671 4181.83 
-3204.59 61.6119 4182.34 
-3202.33 61.8208 4183.47 
-3203.03 61.7544 4183.23 
-3201.76 61.2898 4184.8 
-3203.93 61.5475 4183.16 
-3215.93 68.9037 4220.94 
-3219.99 67.8914 4220.69 
-3213.06 69.5231 4221.21 
-3215.13 67.4824 4212.31 
-3214.61 67.1206 4210.24 
-3210.5 65.7538 4206.54 
-3212.24 64.84 4201.6 
-3212.52 63.902 4197.56 
-3212.14 63.1853 4194.32 
-3211.01 62.9638 4186.9 
-3209.48 62.3419 4186.02 
-3212.18 62.9706 4192.55 
-3206.87 61.3729 4189.64 
-3206.57 61.5137 4191.3 
-3206.12 60.9468 4186.3 
-3205.82 61.1592 4187.29 
-3199.41 61.5294 4188.11 
-3200.43 61.2627 4186.73 
-3201.25 61.1407 4185.44 
-3122.24 131.915 4212.48 
-3121.59 131.384 4208.24 
-3165.25 100.372 4259.43 
-3160.78 102.868 4258.74 
-3178.29 89.6806 4261.05 
-3172.54 96.3937 4267.43 
-3183.46 83.5288 4253.72 
-3185.5 79.209 4246.09 
-3185.1 76.0976 4237.55 
-3183.29 74.9933 4231.55 
-3181.7 74.6165 4227.45 
-3154.42 100.572 4234.99 
-3152.43 100.381 4235.28 
-3152.76 100.054 4236.13 
-3151.19 99.1656 4237.52 
-3151.32 98.7947 4238.18 
-3150.9 98.9804 4238.85 
-3152.53 99.0092 4243.1 
-3156.39 98.4004 4247.1 
-3152.67 98.8076 4244.71 
-3152.58 97.7993 4245.64 
-3155.59 98.3285 4247.96 
-3152 98.5717 4241.29 
-3153.83 99.8255 4237.78 
-3152.01 98.6091 4239.7 
-3156.9 100.069 4253.49 
-3157.72 101.07 4255.82 
-3154.5 98.96 4250.41 
-3153.41 98.4493 4248.31 
-3152.87 98.1871 4246.89 
-3147.02 102.907 4245.12 
-3149.41 101.184 4244.43 
-3148.64 101.769 4246 
-3150.35 100.247 4243.11 
-3151 99.5125 4242.84 
-3150.9 99.2225 4241.11 
-3143.06 106.403 4243.92 
-3143.82 104.999 4246.14 
-3145.77 103.895 4247.19 
-3147.21 102.842 4246.73 
-3142.13 112.441 4240.08 
-3142.08 108.547 4245.31 
-3141.9 107.8 4245.94 
-3143.11 112.361 4242.65 
-3142.45 106.459 4247.97 
-3141.21 108.58 4251.22 
-3139.85 116.763 4245.51 
-3135.25 124.691 4255.64 
-3135.86 123.104 4251.6 
-3137.38 121.058 4253.49 
-3138.25 117.389 4250.73 
-3138.35 118.491 4252.17 
-3128.9 130.451 4253.64 
-3123.34 134.191 4249.92 
-3125.39 133.203 4252.11 
-3123.65 134.207 4246.5 
-3132.12 128.108 4257.57 
-3123 134.2 4242.92 
-3122.56 132.842 4235.09 
-3122.23 133.081 4238.6 
-3121.81 135.049 4242 
-3122.59 131.26 4212.47 
-3179.7 80.2816 4209.48 
-3179.06 80.097 4213.13 
-3178.67 79.415 4215.55 
-3180.38 77.2411 4203.97 
-3180.66 75.6242 4205.85 
-3179.63 75.7937 4207.8 
-3179.44 75.2959 4208.38 
-3178.5 77.8204 4216.04 
-3178.21 77.4871 4217.78 
-3178 77.1727 4219.18 
-3177.6 75.9541 4218.2 
-3176.64 75.4889 4217 
-3177.09 75.9556 4216.69 
-3177.54 76.3729 4216.45 
-3178.54 74.512 4213.75 
-3178.79 74.2311 4213.31 
-3180.46 74.6353 4222.8 
-3178.8 74.4436 4221.66 
-3176.62 74.346 4220.71 
-3176.84 74.8541 4214.02 
-3175.78 74.6337 4213.95 
-3176.25 75.0371 4213.42 
-3175.76 75.1925 4213.36 
-3176.09 75.0642 4213.55 
-3175.07 74.4198 4214.62 
-3174.24 74.0118 4217.53 
-3175.32 74.4442 4215.08 
-3175.33 74.0214 4219.69 
-3174.21 73.7432 4218.58 
-3173.59 73.7056 4218.67 
-3198.63 61.8193 4189.6 
-3197.93 62.2161 4192.78 
-3195.9 63.4979 4196.99 
-3199.49 61.4223 4188.95 
-3179.33 75.0314 4209.4 
-3178.96 74.5841 4212.7 
-3178.88 75.047 4213.05 
-3180.04 72.7403 4211.67 
-3179.68 73.0339 4212.35 
-3178.68 74.6257 4214.84 
-3178.4 73.9763 4214.66 
-3178.09 74.2338 4214.48 
-3178.41 73.9255 4215.07 
-3178.77 73.6579 4215.04 
-3191.01 67.2986 4204 
-3185.31 69.2603 4206.96 
-3183.33 70.1295 4208.76 
-3182.64 70.5905 4209.42 
-3181.35 71.953 4212.45 
-3179.62 73.4644 4215.43 
-3178.96 73.5643 4215.25 
-3121.96 133.973 4238.13 
-3117.82 138.738 4245.73 
-3121.2 135.44 4240.09 
-3118.26 137.681 4245.07 
-3115.25 137.984 4247.67 
-3114.07 138.784 4249.38 
-3113.57 140.023 4251.62 
-3112.39 144.316 4258.33 
-3116 144.628 4261.04 
-3120.36 144.846 4264.18 
-3112.13 143.237 4256.62 
-3113.17 141.274 4254.09 
-3126.7 135.428 4272.95 
-3122.99 141.74 4267.96 
-3138.58 129.13 4286.09 
-3132.61 132.202 4279.65 
-3206.17 61.9774 4182.27 
-3206.14 61.4838 4183.24 
-3209.6 62.4565 4185.11 
-3205.5 61.0309 4184.22 
-3206.52 61.1457 4184.73 
-3205.07 61.501 4182.9 
-3202.71 61.3513 4184.22 
-3203.54 61.1236 4184.24 
-3202 61.0689 4185.14 
-3204.57 61.0613 4184.03 
-3213.19 70.4887 4229.41 
-3217.24 69.6611 4228.9 
-3215.13 71.0339 4237.24 
-3217.51 70.7677 4238.24 
-3209.73 70.61 4226.18 
-3211.44 69.4049 4219.35 
-3209.84 67.5457 4213.89 
-3201.83 67.1779 4213.95 
-3205.49 65.1581 4205.43 
-3206.64 62.8493 4197.44 
-3206.49 61.7677 4193.16 
-3205.81 61.2086 4189.99 
-3205.13 61.1473 4187.96 
-3204.89 61.2141 4191.34 
-3204.74 60.9338 4184.65 
-3204.2 60.9953 4185.56 
-3200.15 61.2293 4188.15 
-3200.92 61.101 4186.84 
-3201.58 61.0167 4185.77 
-3161.35 104.19 4260.82 
-3164.39 103.275 4267.27 
-3157.86 101.68 4257.41 
-3159.67 102.874 4259.96 
-3179.62 91.7045 4270.65 
-3183.67 88.5505 4266.44 
-3187.55 83.5795 4260.32 
-3189.36 80.0557 4254.47 
-3188.09 78.1607 4247.87 
-3186.66 75.5816 4238.93 
-3184.36 73.5684 4229.89 
-3182.26 73.9472 4225.39 
-3180.55 74.3009 4222.11 
-3153.37 100.013 4236.63 
-3151.95 98.9217 4238.34 
-3151.01 98.6079 4239.24 
-3151.3 98.3908 4239.6 
-3151.04 98.7827 4240.2 
-3152.09 98.4964 4245.62 
-3152.1 99.3157 4244.34 
-3151.7 98.9716 4242.4 
-3151.29 98.5257 4240.63 
-3155.76 100.224 4253.53 
-3154.22 99.4358 4251.14 
-3153.06 99.6096 4249.42 
-3153.09 99.0382 4248.61 
-3152.41 98.9087 4246.96 
-3150.65 100.351 4245.34 
-3150.65 100.62 4246.73 
-3149.45 101.538 4247.33 
-3151.2 99.7698 4244.67 
-3151.42 99.4012 4243.57 
-3151.16 99.0187 4241.83 
-3144.43 105.427 4249.11 
-3147.59 103.063 4248.54 
-3146.46 104.679 4250.76 
-3148.81 102.117 4248.06 
-3142.11 114.831 4245.24 
-3141.04 108.859 4246.63 
-3139.16 109.699 4250.62 
-3139.48 110.062 4251.59 
-3143 107.764 4251.94 
-3139.99 110.866 4252.98 
-3141.52 110.411 4253.82 
-3139.14 116.466 4249.99 
-3136.8 123.032 4255.89 
-3136.58 124.162 4258.45 
-3133.77 127.947 4262.7 
-3138.19 121.037 4256.26 
-3138.85 119.032 4254.42 
-3138.86 114.803 4253.79 
-3138.87 114.194 4252.96 
-3139.46 115.222 4254.77 
-3125.76 133.423 4257.09 
-3122.25 134.913 4253.87 
-3118.05 136.132 4249.46 
-3117.8 136.9 4251.62 
-3117.85 135.896 4248.57 
-3127.06 133.149 4260.58 
-3120.18 135.611 4246.61 
-3118.74 136.816 4245.12 
-3117.18 136.356 4246.21 
-3179.55 78.4407 4209.27 
-3180.53 78.2786 4205.29 
-3179.3 78.1743 4211.12 
-3179.05 78.0057 4213.13 
-3179.86 76.6348 4207.68 
-3179.18 75.7549 4209.85 
-3179.19 76.5525 4209.53 
-3179.06 75.7498 4212.26 
-3178.77 76.6779 4214.12 
-3179.04 76.6285 4212.55 
-3177.85 76.7144 4216.55 
-3178.88 75.6157 4213.22 
-3178.13 74.29 4221.16 
-3176.76 74.1584 4219.9 
-3175.39 73.9312 4219.34 
-3175.38 73.9827 4219.54 
-3177.52 74.605 4214.33 
-3175.53 75.2519 4213.42 
-3176.23 74.8241 4213.55 
-3174.97 74.4388 4214.06 
-3174.27 74.2339 4214.7 
-3175.91 75.1898 4213.14 
-3175.44 75.334 4213.09 
-3174.48 75.5454 4212.76 
-3174.38 75.5476 4212.82 
-3174.18 74.1701 4215.39 
-3173.8 74.0928 4215.24 
-3174.13 74.0189 4217.23 
-3174.25 74.166 4215.7 
-3174.27 73.7072 4218.32 
-3173.62 73.6733 4218.43 
-3173.31 73.6704 4218.66 
-3173.81 73.9539 4217.25 
-3199.58 61.4119 4189.64 
-3198.87 61.8188 4191.95 
-3197.3 62.7369 4196.31 
-3193.78 65.4386 4201.95 
-3200.58 61.1253 4189.36 
-3176.12 74.7216 4213.99 
-3176.05 74.9034 4213.77 
-3174.51 75.4909 4213.16 
-3176.26 74.4576 4214.34 
-3189.05 69.3779 4208.84 
-3185.85 69.1943 4207.65 
-3183.85 69.7927 4208.61 
-3181.59 73.0588 4214.36 
-3183.05 72.5917 4213.59 
-3179.74 73.5151 4215.78 
-3177.84 73.5019 4215.93 
-3177.34 73.7055 4215.53 
-3176.21 74.3299 4214.51 
-3114.98 137.288 4247.79 
-3115.01 138.114 4249.7 
-3114.43 139.545 4252.15 
-3114.62 143.892 4259.68 
-3119.19 144.832 4263.1 
-3113.27 142.116 4256.3 
-3114.8 140.431 4254.9 
-3125 137.011 4270.3 
-3131.06 131.618 4273.21 
-3121.99 143.49 4265.46 
-3141.52 125.45 4283.64 
-3136.11 128.93 4279.33 
-3204.02 60.9376 4184.42 
-3203.29 60.9441 4184.88 
-3202.58 60.9903 4185.22 
-3202.18 60.9225 4186.68 
-3210.34 71.5972 4239.84 
-3208.96 71.1717 4233.17 
-3214.71 72.6128 4246.26 
-3216.4 72.2981 4245.8 
-3203.97 71.184 4234.46 
-3205.35 70.7796 4227.71 
-3206.66 69.3673 4221.35 
-3199.2 66.6165 4212.95 
-3201.45 68.7857 4221.8 
-3201.96 65.081 4205.62 
-3204.03 62.7528 4198.02 
-3204.54 61.5127 4192.6 
-3204.39 61.0524 4189.48 
-3203.65 61.0131 4186.97 
-3203.52 60.9931 4191.11 
-3201.56 60.9394 4188.43 
-3156.81 103.133 4258.87 
-3156.17 104.74 4260 
-3159.12 105.552 4264.5 
-3155.78 101.26 4255.22 
-3157.06 102.157 4257.92 
-3195.02 80.8317 4265.86 
-3194.5 79.2766 4261.24 
-3190.35 76.8196 4247.36 
-3192.59 77.841 4254.19 
-3187.97 74.9405 4239.38 
-3186.18 73.2654 4231.72 
-3183.78 72.9118 4226.03 
-3182.45 73.6328 4223.26 
-3179.76 74.1534 4221.59 
-3151.7 99.2477 4245.42 
-3154.6 101.247 4254.53 
-3152.86 101.422 4252.94 
-3152.61 100.205 4250.35 
-3152.37 99.6376 4247.77 
-3151.43 100.465 4248.23 
-3150.87 101.024 4249.07 
-3151.77 99.6345 4246.39 
-3144.86 106.787 4252.35 
-3149.66 102.227 4250.23 
-3148.06 104.464 4252.21 
-3146.04 107.147 4253.7 
-3142.4 113.686 4245.75 
-3139.47 108.404 4246.27 
-3138.36 109.69 4250.69 
-3140.07 115.185 4249.75 
-3139.16 109.958 4251.1 
-3139.18 110.064 4251.08 
-3139.08 111.056 4251.74 
-3138.97 111.612 4252.25 
-3139.12 112.15 4252.99 
-3143.49 109.305 4254.16 
-3140.18 111.99 4254.17 
-3142.06 111.417 4255.33 
-3139.29 113.22 4252.37 
-3138.24 122.009 4257.35 
-3139.09 122.65 4261.7 
-3136.87 126.11 4267.63 
-3128.56 132.561 4266.34 
-3139.59 118.935 4256.49 
-3139.52 119.934 4257.4 
-3140 115.797 4255.71 
-3141.02 112.616 4255.58 
-3122.51 136.622 4257.75 
-3120.37 136.36 4254.61 
-3116.05 137.351 4249.74 
-3115.66 138.715 4252.3 
-3116.35 135.376 4247.78 
-3115.44 136.808 4248.65 
-3123.92 137.904 4261.18 
-3115.21 135.59 4246.06 
-3178.27 74.0634 4220.14 
-3175.56 73.8765 4219.09 
-3177.27 73.9387 4218.84 
-3174.3 73.6714 4218.06 
-3174.9 73.7315 4218.55 
-3174.33 75.566 4212.94 
-3175.32 74.5821 4213.72 
-3174.1 74.2292 4214.24 
-3173.33 74.0058 4214.96 
-3176.28 74.9079 4213.34 
-3172.63 73.7994 4215.72 
-3175.91 75.2178 4212.97 
-3174.57 75.5333 4212.47 
-3174.52 75.5543 4212.57 
-3174.48 75.5959 4212.69 
-3173.74 75.4135 4212.07 
-3173.46 75.2436 4212.24 
-3173.5 75.2373 4212.69 
-3172.99 73.8456 4216.27 
-3172.88 73.8388 4215.98 
-3173.35 73.9168 4216.41 
-3173.63 73.6424 4218.2 
-3173.23 73.6376 4218.5 
-3173.46 73.8508 4217.59 
-3173.19 73.8595 4216.77 
-3200.78 61.1041 4190.25 
-3200.14 61.5882 4192.22 
-3198.63 62.1704 4194.92 
-3195 64.8024 4201.97 
-3196.46 63.7747 4200.54 
-3191.49 68.1046 4210.27 
-3174.54 75.3118 4213.5 
-3174.39 75.4608 4213.29 
-3174.45 75.403 4213.4 
-3173.51 75.1904 4213.24 
-3174.65 75.2119 4213.58 
-3187.95 70.6507 4216.32 
-3182.73 72.9538 4215.96 
-3186.15 71.4117 4210.42 
-3183.96 69.0097 4209.07 
-3183.42 69.1153 4208.62 
-3178.82 73.6416 4217.2 
-3178.69 73.5389 4216.74 
-3180.94 73.4164 4216.8 
-3177.97 73.4832 4216.37 
-3176.92 73.5093 4215.82 
-3176.18 74.0872 4214.85 
-3174.79 75.0825 4213.68 
-3118.43 143.917 4261.91 
-3116.63 141.339 4258.53 
-3119.37 139.118 4258.13 
-3117.89 138.354 4255.17 
-3128.59 133.043 4269.94 
-3124.06 138.205 4266.73 
-3136.75 127.28 4275.13 
-3121.4 141.748 4261.82 
-3143.41 122.835 4280.87 
-3202.64 60.8797 4188.93 
-3211.3 72.619 4247.21 
-3204.04 72.1094 4245.82 
-3202.5 71.4409 4239.52 
-3214 73.8798 4253.82 
-3215.05 74.1384 4255.77 
-3216.24 73.7997 4254.14 
-3200.62 70.743 4231.09 
-3197.09 66.4919 4217.55 
-3198.43 69.7594 4226.6 
-3197.77 65.5138 4208.79 
-3201.31 62.9848 4199.8 
-3202.53 61.7109 4193.76 
-3202.83 61.1365 4191.88 
-3201.91 60.8581 4190.53 
-3153.44 106.348 4261.32 
-3150.89 107.618 4261.87 
-3151.9 104.127 4256.89 
-3197.19 77.2314 4260.42 
-3191.47 75.2657 4245.15 
-3194.55 75.7053 4251.07 
-3189.01 73.4786 4236.65 
-3187.29 72.6859 4231.79 
-3184.88 72.3774 4226.46 
-3182.61 73.2104 4222.34 
-3180.08 73.8856 4221.22 
-3150.66 104.783 4255.26 
-3151.27 102.054 4251.95 
-3149.53 104.435 4253.36 
-3147.75 106.827 4254.71 
-3144.25 110.259 4255.86 
-3146 109.12 4255.95 
-3138.81 109.038 4248.34 
-3138.73 108.867 4247.81 
-3139.33 108.528 4246.35 
-3139.1 108.358 4245.45 
-3139.02 107.759 4245.41 
-3141.86 111.88 4247.3 
-3138.68 108.158 4246.35 
-3136.57 107.228 4245.13 
-3136.59 107.012 4244.74 
-3136.77 106.748 4244.41 
-3137.36 109.624 4250.54 
-3138.95 109.868 4250.9 
-3139.75 112.353 4251.49 
-3139.19 110.248 4251.04 
-3143.06 111.985 4256.74 
-3140.91 119.555 4258.82 
-3143.67 118.855 4264.91 
-3141.32 122.994 4272.93 
-3134.31 128.62 4271.17 
-3140.61 116.093 4256.52 
-3141.08 115.704 4257.25 
-3141.68 115.448 4258.03 
-3143.33 114.435 4259.34 
-3141.11 113.503 4256.51 
-3142.32 113.102 4257.19 
-3178.92 73.8393 4219.27 
-3176.26 73.7704 4218.44 
-3175.08 73.6801 4218.21 
-3174.41 73.6139 4217.57 
-3174.33 73.6348 4217.7 
-3173.91 73.5975 4217.67 
-3173.69 73.614 4217.96 
-3174.94 74.516 4213.69 
-3173.77 74.1712 4214.13 
-3172.73 73.8735 4214.91 
-3172.05 73.6716 4215.68 
-3176.13 74.8845 4213.26 
-3171.67 73.5313 4216.55 
-3171.21 73.4357 4216.43 
-3176.12 75.1533 4212.9 
-3174.74 75.5456 4212.35 
-3174.58 75.5485 4212.37 
-3173.47 75.2413 4211.47 
-3173.49 75.2707 4211.69 
-3173.16 75.0361 4211.96 
-3172.95 74.8124 4212.58 
-3173.11 74.9021 4213.04 
-3172.26 73.6372 4216.95 
-3171.78 73.5345 4216.88 
-3172.17 73.5953 4217.29 
-3173.28 73.6077 4218.26 
-3173.06 73.7171 4218.09 
-3172.78 73.7365 4217.25 
-3201.36 61.3029 4192.2 
-3200.13 61.9067 4195.17 
-3198.39 62.3732 4197.28 
-3193.35 66.8136 4209.23 
-3195.41 64.9154 4204.59 
-3191.79 68.2612 4217.44 
-3187.66 70.6574 4221.43 
-3173.61 75.0986 4213.83 
-3173.57 75.1626 4213.62 
-3173.12 74.8471 4213.66 
-3173.43 75.0997 4213.55 
-3173.7 75.0641 4213.98 
-3182.97 72.2406 4219.29 
-3180.73 73.3276 4219.51 
-3177.18 73.5692 4217.07 
-3176.55 73.4878 4216.69 
-3175.44 73.5591 4216.18 
-3175 74.7433 4214.03 
-3174.98 74.8719 4213.89 
-3173.75 74.9476 4214.14 
-3147.08 119.178 4279.34 
-3209 73.2703 4255.18 
-3205.01 72.5512 4256.3 
-3200.37 71.6267 4241.97 
-3202.51 72.3041 4252.69 
-3198.7 70.9416 4235.49 
-3212.19 74.5243 4260.96 
-3195.43 67.147 4219.93 
-3195.91 69.8539 4227.01 
-3197.68 63.9308 4202.37 
-3195.77 65.7331 4212.02 
-3148.97 109.905 4261.44 
-3197.88 75.9356 4257.68 
-3192.78 73.5266 4241.09 
-3196.37 73.8826 4247.23 
-3191.35 72.1 4233.99 
-3188.73 71.7855 4230.29 
-3186.35 71.9139 4227.55 
-3183.96 72.5084 4222.71 
-3148.98 107.124 4256.25 
-3147.92 112.478 4261.29 
-3147.12 109.594 4257.43 
-3145.03 111.547 4257.94 
-3138.17 109.098 4248.66 
-3138.78 108.608 4246.93 
-3138.62 108.382 4245.55 
-3137.49 109.16 4249.02 
-3139.18 108.118 4244.84 
-3139.4 107.637 4244.97 
-3136.98 106.429 4244.02 
-3138.38 108.183 4244.58 
-3137.24 107.673 4245.79 
-3139.02 108.76 4247.57 
-3141.27 110.12 4247.98 
-3140.19 111.439 4250.77 
-3136.27 108.369 4247.64 
-3136.24 107.487 4245.28 
-3136.25 107.286 4244.88 
-3136.44 106.978 4244.48 
-3136.64 106.662 4244.08 
-3137 108.626 4248.11 
-3138.74 109.851 4250.77 
-3139.16 110.102 4250.76 
-3143.81 112.781 4258.17 
-3144.85 114.419 4260.25 
-3146.14 119.401 4270.94 
-3150.1 116.424 4267.03 
-3146.57 114.171 4261.26 
-3174.43 73.5729 4217.2 
-3173.98 73.551 4217.29 
-3173.69 73.5684 4217.65 
-3173.42 73.5824 4217.97 
-3172.82 73.9268 4214.43 
-3173.95 74.2773 4213.83 
-3175.25 74.6548 4213.43 
-3171.61 73.5797 4215.59 
-3171.58 73.5976 4215.19 
-3170.57 73.2907 4216.42 
-3170.83 73.2453 4217.31 
-3170.59 73.2239 4217.06 
-3170.23 73.111 4216.86 
-3174.71 75.5501 4212.21 
-3175.91 74.8817 4213.09 
-3175.98 75.2408 4212.72 
-3173.69 75.3059 4211.49 
-3172.92 74.9271 4211.08 
-3172.85 74.8292 4211.6 
-3172.66 74.6276 4212.19 
-3172.37 74.3438 4212.81 
-3172.59 74.484 4213.14 
-3172.8 74.6136 4213.49 
-3171.32 73.3919 4217.45 
-3171.62 73.425 4217.81 
-3171.3 73.3184 4217.73 
-3173.2 73.582 4218.15 
-3172.93 73.5833 4218.37 
-3172.67 73.6282 4218.24 
-3172.67 73.686 4217.63 
-3171.94 73.5032 4217.89 
-3194.32 66.9285 4214.61 
-3192.34 68.1379 4220.62 
-3188.56 70.4735 4224.49 
-3186.03 71.6133 4225.28 
-3173.12 74.7641 4213.95 
-3173.26 74.7903 4214.1 
-3172.59 74.3988 4214.01 
-3173.4 74.8244 4214.22 
-3174.05 73.5554 4216.93 
-3174.12 73.7223 4216.31 
-3175.04 74.4886 4214.42 
-3173.65 74.885 4214.18 
-3174 74.7257 4214.31 
-3173.18 74.5594 4214.57 
-3200.25 72.1896 4244.87 
-3196.93 71.0298 4235.02 
-3200.73 73.3757 4253.34 
-3193.28 68.2326 4222.17 
-3193.37 70.2006 4227.83 
-3198.88 74.578 4253.93 
-3202.14 74.7273 4261.88 
-3195.21 72.2293 4238.88 
-3198.63 72.8235 4245.57 
-3191.68 71.0072 4230.32 
-3189.4 70.7998 4227.2 
-3137.31 109.013 4248.62 
-3138.3 108.533 4246.8 
-3138.22 108.36 4245.66 
-3137.78 108.201 4244.48 
-3136.09 108.506 4247.93 
-3139.31 107.86 4244.21 
-3139.71 107.485 4244.37 
-3137.44 106.213 4243.76 
-3138.54 107.944 4244.02 
-3136.87 106.35 4243.73 
-3137.63 107.971 4243.59 
-3139.18 109.706 4249.89 
-3138.02 109.243 4249.28 
-3140.32 110.695 4250.25 
-3135.98 107.571 4245.31 
-3135.9 107.48 4244.92 
-3136.12 107.195 4244.53 
-3136.32 106.874 4244.13 
-3136.53 106.555 4243.73 
-3173.63 73.5392 4217.46 
-3173.76 73.5524 4217.14 
-3173.35 73.544 4217.76 
-3173.08 73.5557 4218.06 
-3172.48 73.8655 4214.31 
-3173.37 74.1628 4213.82 
-3174.64 74.5255 4213.45 
-3170.56 73.3128 4216.04 
-3170.25 73.2577 4215.82 
-3171.09 73.4965 4215.06 
-3169.95 73.004 4216.6 
-3171.1 73.2203 4217.53 
-3171 73.1319 4217.35 
-3170.83 73.045 4217.13 
-3170.56 73.0201 4216.95 
-3170.32 72.8962 4216.64 
-3174.77 75.5424 4212.11 
-3173.72 75.2841 4211.32 
-3175.42 74.7922 4213.06 
-3176.16 75.1545 4212.71 
-3173.13 75.0497 4210.85 
-3172.58 74.6992 4210.77 
-3172.41 74.5046 4211.4 
-3172.25 74.3365 4211.94 
-3172.18 74.2291 4212.49 
-3171.74 73.8394 4212.98 
-3172.04 74.0393 4213.34 
-3172.29 74.2012 4213.7 
-3171.19 73.099 4216.27 
-3171.1 73.0397 4216.16 
-3171 72.9797 4216.08 
-3172.69 73.5423 4218.3 
-3171.83 73.3713 4217.12 
-3171.91 73.4216 4217.96 
-3171.36 73.1768 4216.67 
-3172.71 74.4156 4214.22 
-3172.86 74.4845 4214.27 
-3173.08 74.5654 4214.4 
-3171.99 73.9252 4214.21 
-3172.25 74.089 4214.35 
-3173.59 73.5888 4216.87 
-3173.58 73.6433 4216.47 
-3174.86 74.4938 4214.44 
-3174.1 73.9491 4215.68 
-3173.81 74.5456 4214.59 
-3173.37 74.5407 4214.73 
-3172.69 74.2379 4214.63 
-3172.8 74.1858 4214.94 
-3206.5 73.6915 4261.73 
-3196.29 71.3746 4236.74 
-3137.07 108.86 4248.22 
-3137.82 108.43 4246.53 
-3137.71 108.31 4245.61 
-3135.89 108.446 4247.76 
-3137.36 108.179 4244.59 
-3136.96 108.027 4243.49 
-3139.35 107.581 4243.47 
-3139.78 107.223 4243.71 
-3137.68 105.939 4243.29 
-3138.69 107.683 4243.39 
-3137.11 106.009 4243.33 
-3137.99 107.767 4243.23 
-3136.8 106.247 4243.43 
-3137.36 107.643 4242.55 
-3136.83 107.797 4242.68 
-3135.73 107.617 4245.41 
-3135.79 107.389 4244.55 
-3135.64 107.542 4245.02 
-3136 107.099 4244.18 
-3136.19 106.798 4243.81 
-3136.36 106.506 4243.41 
-3136.52 106.314 4242.96 
-3173.45 73.5596 4217.27 
-3173.2 73.544 4217.59 
-3172.86 73.5343 4217.93 
-3171.87 73.7302 4214.33 
-3172.86 74.0616 4213.81 
-3174.14 74.4334 4213.42 
-3169.69 73.0524 4216.42 
-3169.38 72.9465 4216.19 
-3169.65 73.1239 4215.78 
-3170.46 73.3563 4215.03 
-3170.12 72.774 4216.36 
-3169.75 72.8568 4216.28 
-3170.9 72.9153 4216.02 
-3170.8 72.8475 4215.91 
-3170.59 72.7341 4215.66 
-3170.68 72.7679 4215.77 
-3170.58 72.8764 4216.75 
-3170.47 72.6437 4215.64 
-3170.36 72.6098 4215.35 
-3174.85 75.5314 4212.02 
-3173.72 75.251 4211.12 
-3172.97 74.9494 4210.5 
-3176.15 75.1421 4212.61 
-3175.14 74.7587 4212.98 
-3172.28 74.487 4210.48 
-3172.11 74.3015 4211.09 
-3171.86 74.0563 4211.68 
-3171.56 73.7799 4212.12 
-3171.8 73.9425 4212.42 
-3171.59 73.6791 4213.5 
-3171.23 73.3984 4213.52 
-3171.32 73.5473 4212.67 
-3171.18 73.395 4213.14 
-3171.83 73.8293 4213.88 
-3171.12 73.221 4214.53 
-3171.08 73.2185 4214.21 
-3170.94 73.1378 4213.93 
-3170.8 73.0451 4213.72 
-3171.98 73.4104 4216.94 
-3171.66 73.4701 4215.04 
-3171.47 73.4054 4214.92 
-3171.11 73.1167 4215.3 
-3172.34 74.0812 4214.51 
-3172.53 74.1576 4214.61 
-3171.53 73.5612 4214.28 
-3171.77 73.7067 4214.59 
-3173.19 73.6524 4216.47 
-3173.15 73.6173 4216.86 
-3173.46 73.9993 4215.48 
-3173.09 73.5855 4217.22 
-3174.76 74.523 4214.33 
-3173.92 74.4284 4214.69 
-3174.1 74.2652 4214.89 
-3173.04 74.2721 4215.06 
-3173.26 74.27 4215.11 
-3172.15 73.8318 4214.86 
-3172.37 73.9049 4215.01 
-3172.46 73.8644 4215.24 
-3136.99 108.655 4247.61 
-3137.17 108.259 4245.54 
-3137.09 108.308 4246.1 
-3135.59 108.378 4247.53 
-3135.74 108.401 4247.62 
-3136.87 108.141 4244.62 
-3136.53 108.014 4243.64 
-3136.16 107.869 4242.61 
-3139.44 107.336 4242.86 
-3139.86 106.983 4243.09 
-3138.07 105.961 4242.64 
-3138.73 107.407 4242.67 
-3137.34 106.05 4242.43 
-3138.06 107.518 4242.59 
-3136.8 106.17 4242.55 
-3137.36 107.388 4241.86 
-3136.66 107.517 4241.83 
-3136.03 107.645 4241.83 
-3135.49 107.649 4245.46 
-3135.65 107.322 4244.23 
-3135.53 107.48 4244.69 
-3135.37 107.576 4245.07 
-3135.84 107.042 4243.88 
-3136.03 106.756 4243.53 
-3135.79 106.741 4242.44 
-3135.94 106.679 4241.86 
-3136.53 106.581 4241.67 
-3172.84 73.567 4217.58 
-3172.09 73.4627 4216.74 
-3171.42 73.6442 4214.28 
-3172.41 73.9772 4213.79 
-3173.81 74.3925 4213.33 
-3169.49 72.7438 4215.97 
-3169.09 72.8488 4215.91 
-3169.2 73.0263 4215.63 
-3170.23 73.3262 4214.72 
-3170.25 72.5263 4215.29 
-3170.15 72.4878 4215.14 
-3169.88 72.6642 4216.06 
-3170.67 72.9536 4213.68 
-3170.54 72.8361 4213.87 
-3170.58 72.9314 4213.13 
-3170.41 72.7546 4213.68 
-3170.41 72.8112 4213.08 
-3170.31 72.7414 4213 
-3174.95 75.5388 4211.96 
-3173.89 75.2749 4211.06 
-3173.18 75.0002 4210.45 
-3172.54 74.7137 4210.03 
-3176.09 75.1425 4212.51 
-3175 74.7682 4212.85 
-3171.98 74.2945 4210.1 
-3171.73 74.0394 4210.78 
-3171.6 73.8816 4211.34 
-3171.2 73.5344 4211.8 
-3171.01 73.334 4212.39 
-3171.42 73.5082 4213.89 
-3170.79 73.1102 4212.99 
-3171.37 73.3931 4214.71 
-3171.93 73.6034 4215.11 
-3171.92 73.7394 4214.75 
-3172.56 73.6553 4216.23 
-3172.71 73.7213 4216.07 
-3172.43 73.6003 4216.36 
-3172.9 74.0225 4215.45 
-3172.26 73.5304 4216.55 
-3172.68 73.9542 4215.34 
-3172.08 73.6302 4215.26 
-3136.64 108.573 4247.45 
-3135.36 108.336 4247.42 
-3136.4 108.116 4244.77 
-3136.3 108.164 4245.33 
-3136.66 108.318 4246.43 
-3136.1 107.995 4243.81 
-3135.76 107.866 4242.81 
-3135.39 107.723 4241.79 
-3139.49 107.111 4242.28 
-3139.99 106.789 4242.48 
-3138.56 106.154 4241.99 
-3138.77 107.149 4241.99 
-3137.97 106.334 4241.68 
-3138.07 107.265 4241.92 
-3137.27 106.461 4241.67 
-3137.24 107.005 4241.01 
-3136.52 107.126 4241.01 
-3135.81 107.243 4241 
-3135.18 107.352 4241.05 
-3135.27 107.697 4245.59 
-3135.48 107.297 4243.99 
-3135.36 107.449 4244.48 
-3135.13 107.667 4245.4 
-3135.19 107.548 4244.87 
-3135.68 107.015 4243.62 
-3135.61 106.895 4242.83 
-3171.16 73.6278 4214.14 
-3171.85 73.8778 4213.75 
-3173.02 74.2036 4213.43 
-3174.22 74.5808 4212.96 
-3169.22 72.6442 4215.68 
-3169.64 72.5333 4215.74 
-3168.81 72.7503 4215.62 
-3168.88 72.9644 4215.44 
-3169.65 73.2011 4214.69 
-3169.95 72.5012 4215.86 
-3170.05 72.3678 4215.21 
-3170.2 72.6614 4212.97 
-3170.02 72.4486 4213.82 
-3170.66 73.0648 4212.37 
-3170.69 73.1386 4211.84 
-3170.58 73.0725 4211.6 
-3170.43 72.9483 4211.69 
-3174.98 75.5357 4211.84 
-3173.96 75.2778 4210.92 
-3173.19 74.9673 4210.24 
-3172.52 74.6939 4209.74 
-3176.03 75.1822 4212.33 
-3175.58 74.9953 4212.47 
-3172 74.3642 4209.46 
-3171.58 74.0025 4209.91 
-3171.43 73.8301 4210.5 
-3171.16 73.5544 4211.19 
-3135.24 108.284 4247.22 
-3135.55 107.946 4243.79 
-3135.59 108.014 4244.43 
-3135.85 108.136 4245.43 
-3136.23 108.365 4246.84 
-3135.34 107.845 4242.96 
-3135 107.721 4242.01 
-3134.71 107.46 4241.19 
-3139.57 106.911 4241.75 
-3140.2 106.692 4241.79 
-3139.07 106.362 4241.43 
-3138.7 106.76 4241.03 
-3137.97 106.883 4241.02 
-3135.32 107.255 4243.72 
-3135.2 107.394 4244.16 
-3134.94 107.746 4245.69 
-3134.96 107.618 4245.1 
-3135.07 107.493 4244.56 
-3135.33 107.103 4243.06 
-3170.53 73.4931 4214.17 
-3171.66 73.8727 4213.63 
-3173.09 74.2813 4213.21 
-3174.54 74.7331 4212.65 
-3169.44 72.4235 4215.47 
-3169.02 72.5196 4215.39 
-3169.92 72.3209 4215.01 
-3169.81 72.2568 4214.93 
-3168.62 72.6151 4215.32 
-3168.41 72.8162 4215.37 
-3168.95 73.042 4214.74 
-3170.29 72.8246 4211.89 
-3170.06 72.5371 4213.11 
-3170.88 73.3752 4210.83 
-3170.54 73.1211 4210.72 
-3175.01 75.5341 4211.72 
-3174.15 75.2983 4210.84 
-3173.44 75.0378 4210.28 
-3172.55 74.676 4209.48 
-3175.18 75.5299 4211.69 
-3175.99 75.1642 4212.21 
-3171.79 74.2396 4209.05 
-3171.3 73.8171 4209.56 
-3171.07 73.5747 4210.22 
-3134.99 108.257 4247.17 
-3134.64 107.716 4242.26 
-3134.78 107.821 4243.19 
-3135.05 107.94 4244.16 
-3135.04 108.003 4244.79 
-3135.78 108.192 4246.05 
-3134.91 108.192 4246.93 
-3134.31 107.537 4241.1 
-3139.55 106.65 4240.92 
-3134.94 107.296 4243.08 
-3134.97 107.384 4243.99 
-3134.78 107.723 4245.52 
-3134.74 107.612 4244.98 
-3134.89 107.512 4244.58 
-3170.11 73.416 4214.14 
-3170.63 73.6156 4213.81 
-3171.98 74.0166 4213.35 
-3173.29 74.3898 4212.97 
-3174.22 74.703 4212.53 
-3175.6 75.0899 4212.15 
-3169.69 72.1948 4214.75 
-3169.26 72.3017 4215.19 
-3168.82 72.3834 4215.08 
-3169.95 72.4617 4213.06 
-3168.41 72.5015 4215.04 
-3168.13 72.6891 4215.16 
-3168.24 72.8667 4214.81 
-3170.35 72.9655 4210.81 
-3170.17 72.722 4211.99 
-3170.69 73.3034 4210.03 
-3175.16 75.5238 4211.52 
-3174.19 75.2782 4210.61 
-3173.62 75.07 4210.2 
-3172.97 74.8173 4209.69 
-3172.24 74.5054 4208.96 
-3171.64 74.1684 4208.53 
-3171.22 73.8059 4209.03 
-3170.75 73.3905 4209.54 
-3134.2 107.693 4242.11 
-3133.9 107.608 4240.64 
-3133.98 107.742 4242.14 
-3134.34 107.808 4243.4 
-3134.16 107.847 4243.85 
-3134.81 108.015 4245.1 
-3135.47 108.187 4246.24 
-3134.67 108.156 4246.84 
-3134.6 107.788 4245.75 
-3134.18 107.378 4241.98 
-3134.54 107.446 4243.87 
-3133.61 107.426 4241.33 
-3134.56 107.688 4245.27 
-3134.26 107.536 4244.08 
-3169.11 73.1633 4214.33 
-3171.21 73.8398 4213.43 
-3169.82 73.4209 4213.92 
-3172.76 74.2903 4212.95 
-3173.74 74.6204 4212.48 
-3175.41 75.0818 4212.04 
-3175.28 75.519 4211.45 
-3169.58 72.117 4214.65 
-3169.84 72.3795 4213.06 
-3169.09 72.175 4214.93 
-3168.84 72.2142 4214.6 
-3168.44 72.3587 4214.66 
-3170.1 72.7031 4211.68 
-3168 72.5411 4214.81 
-3167.71 72.7066 4214.7 
-3170.34 73.0209 4210.15 
-3174.17 75.2399 4210.37 
-3173.48 74.9718 4209.83 
-3172.86 74.7384 4209.38 
-3172.15 74.4298 4208.63 
-3171.48 74.0836 4208.06 
-3171.06 73.7235 4208.55 
-3170.61 73.3249 4209.13 
-3133.59 107.683 4240.35 
-3133.33 107.747 4240.21 
-3133.8 107.808 4242.26 
-3134.28 107.95 4244.9 
-3133.82 107.881 4243.81 
-3133.68 107.871 4242.68 
-3134.93 108.115 4246 
-3134.45 108.11 4246.69 
-3134.4 107.817 4245.8 
-3133.15 107.453 4240.99 
-3134.33 107.713 4245.24 
-3133.55 107.543 4243.17 
-3132.91 107.445 4241.16 
-3168.29 72.9602 4214.36 
-3170.19 73.5831 4213.61 
-3172.08 74.1339 4213.01 
-3168.48 73.0392 4213.85 
-3172.58 74.329 4212.68 
-3173.94 74.7393 4212.21 
-3175.12 75.0524 4211.94 
-3175.35 75.4893 4211.21 
-3175.33 75.5241 4211.34 
-3169.46 72.0331 4214.56 
-3169.72 72.2861 4213.08 
-3169.94 72.5549 4211.95 
-3169.39 72.0835 4214.06 
-3169.47 72.2018 4213.2 
-3168.95 72.3142 4213.56 
-3168.47 72.4644 4213.77 
-3170.15 72.8208 4210.78 
-3168.07 72.6073 4213.85 
-3167.76 72.7402 4213.63 
-3170.27 73.0081 4209.68 
-3173.37 74.8915 4209.52 
-3174.03 75.1477 4210.03 
-3172.74 74.6514 4209.04 
-3172.04 74.3409 4208.27 
-3171.35 74.0084 4207.63 
-3170.9 73.6475 4208.06 
-3170.49 73.2703 4208.69 
-3133.45 107.884 4241.32 
-3133.14 107.845 4239.88 
-3132.47 107.643 4239.58 
-3133.49 107.956 4242.98 
-3133.79 107.936 4244.55 
-3134.36 108.044 4245.77 
-3133.34 107.945 4241.74 
-3134.18 108.071 4246.55 
-3134.2 107.846 4245.85 
-3133.6 107.683 4244.13 
-3132.43 107.485 4241.01 
-3132.07 107.621 4239.48 
-3168.16 72.933 4212.98 
-3169.39 73.3666 4213.06 
-3171.15 73.9018 4213.17 
-3167.96 72.8087 4212.49 
-3171.26 73.9865 4212.98 
-3172.9 74.4722 4212.4 
-3174.59 74.9823 4211.84 
-3175.22 75.1292 4211.74 
-3175.47 75.5315 4211.18 
-3174.47 75.3052 4210.3 
-3169.8 72.4437 4212.02 
-3170.03 72.722 4210.82 
-3169.55 72.3265 4212.29 
-3169.02 72.4518 4212.58 
-3168.61 72.5998 4212.64 
-3168.24 72.7367 4212.66 
-3170.14 72.9085 4209.68 
-3173.28 74.8146 4209.2 
-3172.63 74.5649 4208.7 
-3173.83 75.0206 4209.59 
-3171.94 74.2579 4207.93 
-3171.24 73.939 4207.23 
-3170.71 73.5412 4207.61 
-3170.34 73.1759 4208.44 
-3132.85 107.917 4239.73 
-3133.06 108.012 4241.07 
-3133.16 108.034 4242.28 
-3133.46 108.006 4243.82 
-3133.81 107.996 4245.42 
-3133.82 108.033 4246.32 
-3133.72 107.839 4245.26 
-3132.56 107.592 4242.15 
-3131.54 107.596 4239.38 
-3132.03 107.767 4239.2 
-3168.31 72.8816 4211.33 
-3167.93 72.8126 4211.57 
-3168.52 73.0621 4211.78 
-3168.66 72.7612 4211.53 
-3171.29 74.0225 4212.57 
-3173.14 74.5915 4212.16 
-3173.92 74.8639 4211.75 
-3175.24 75.2292 4211.41 
-3175.51 75.5253 4210.94 
-3175.48 75.5105 4211.06 
-3174.5 75.2782 4210.1 
-3169.89 72.6141 4210.88 
-3169.61 72.4431 4211.47 
-3169.68 72.5519 4210.67 
-3169.11 72.5912 4211.52 
-3169.99 72.7951 4209.74 
-3173.18 74.7347 4208.87 
-3172.58 74.5021 4208.41 
-3173.9 75.0119 4209.43 
-3171.91 74.2056 4207.66 
-3170.71 73.5983 4207 
-3171.27 73.9229 4206.96 
-3170.29 73.2182 4207.58 
-3170.21 73.0796 4208.38 
-3132.58 108.017 4239.42 
-3132.8 108.09 4240.81 
-3132.87 108.118 4241.89 
-3133.18 108.079 4243.29 
-3133.48 108.052 4244.85 
-3133.3 108.03 4245.58 
-3132.81 107.774 4243.63 
-3131.65 107.557 4240.54 
-3131.21 107.719 4238.89 
-3131.8 107.851 4238.99 
-3168.56 72.9497 4210.09 
-3168.82 72.8919 4210.35 
-3168.09 72.8515 4210.63 
-3168.57 73.0791 4210.87 
-3168.07 72.8522 4209.97 
-3169.18 72.7273 4210.53 
-3171.75 74.1913 4212.1 
-3172.05 74.3036 4211.58 
-3173.86 74.9028 4211.57 
-3175.13 75.2448 4211.27 
-3175.58 75.5546 4210.82 
-3174.77 75.3631 4210.18 
-3174.25 75.1288 4209.58 
-3169.68 72.6432 4210.02 
-3170.01 72.884 4208.9 
-3173.31 74.7499 4208.77 
-3172.54 74.4435 4208.12 
-3171.89 74.1534 4207.38 
-3170.55 73.5117 4206.58 
-3170.14 73.1009 4207.57 
-3171.06 73.7995 4206.54 
-3132.29 108.105 4239.19 
-3132.53 108.178 4240.63 
-3132.61 108.206 4241.8 
-3132.92 108.149 4242.83 
-3133.19 108.126 4244.26 
-3131.89 107.714 4242.01 
-3132.72 108.043 4244.53 
-3130.88 107.603 4239.21 
-3130.87 107.791 4238.64 
-3131.49 107.93 4238.76 
-3169.18 72.9838 4208.96 
-3169.02 73.048 4208.61 
-3168.56 72.9545 4209.33 
-3169.33 72.8439 4209.46 
-3168.57 73.0751 4210.08 
-3168.13 72.8651 4208.99 
-3168.59 72.9685 4208.58 
-3169.79 72.7738 4209.09 
-3168.57 73.0758 4209.34 
-3171.32 74.0512 4210.38 
-3173.66 74.8678 4210.97 
-3175.1 75.2899 4211.09 
-3175.61 75.5615 4210.68 
-3174.89 75.3764 4210.09 
-3174.42 75.1595 4209.51 
-3173.62 74.8453 4208.86 
-3172.74 74.4938 4208.1 
-3172.22 74.2501 4207.47 
-3171.49 73.9471 4206.77 
-3170.36 73.4037 4206.12 
-3170.13 73.1569 4206.91 
-3169.85 72.8813 4208.28 
-3170.75 73.629 4206.02 
-3132 108.186 4238.99 
-3132.28 108.265 4240.62 
-3132.46 108.285 4242.25 
-3132.84 108.207 4243.44 
-3130.79 107.66 4239.84 
-3132.25 108.085 4243.86 
-3130.38 107.781 4238.43 
-3131.12 107.988 4238.51 
-3169.78 72.9749 4207.73 
-3169.45 73.1155 4207.44 
-3169.03 73.06 4207.84 
-3168.17 72.8851 4208.26 
-3168.8 73.0166 4207.5 
-3168.55 72.966 4207.67 
-3168.24 72.9476 4208.16 
-3168.21 72.8977 4207.62 
-3169.83 73.5205 4208.83 
-3175.52 75.52 4210.51 
-3174.43 75.1391 4210.68 
-3171.45 74.094 4209.31 
-3175.04 75.406 4210.03 
-3174.68 75.2337 4209.55 
-3173.97 74.9807 4209.06 
-3173.22 74.6433 4208.15 
-3172.25 74.2287 4207.29 
-3171.7 74.0052 4206.79 
-3171.16 73.7753 4206.24 
-3170 73.2266 4206.02 
-3169.97 73.1061 4206.69 
-3170.62 73.5472 4205.71 
-3131.75 108.263 4238.79 
-3132.05 108.34 4240.45 
-3132.18 108.256 4243.81 
-3131.77 108.303 4243.09 
-3132.18 108.358 4241.76 
-3130.26 107.682 4239.54 
-3130.86 108.057 4238.31 
-3129.72 107.696 4238.57 
-3130.24 107.9 4238.22 
-3169.49 73.1612 4206.53 
-3169.18 73.0963 4206.87 
-3168.54 72.9679 4207.11 
-3169.15 73.0951 4206.33 
-3168.92 73.0477 4206.51 
-3168.22 72.9036 4207.04 
-3168.58 73.0697 4207.37 
-3168.45 72.9504 4206.89 
-3175.65 75.5758 4210.42 
-3173.7 74.891 4209.68 
-3171.68 74.177 4208.9 
-3175.13 75.3953 4209.83 
-3174.55 75.1544 4209.28 
-3174.07 74.9646 4208.89 
-3173.53 74.7463 4208.4 
-3173.08 74.5637 4208 
-3172.74 74.4338 4207.76 
-3172.58 74.3467 4207.48 
-3171.17 73.6835 4205.79 
-3171.56 73.9144 4206.47 
-3170.24 73.3875 4205.49 
-3170.05 73.2882 4205.46 
-3170.13 73.3342 4205.31 
-3131.52 108.335 4238.59 
-3131.84 108.411 4240.38 
-3131.97 108.431 4241.67 
-3131.3 108.458 4242.7 
-3130.53 108.099 4238.1 
-3129.71 107.818 4238.47 
-3168.77 73.0165 4206.61 
-3168.84 73.0333 4206.18 
-3169.61 73.1975 4205.01 
-3169.43 73.161 4204.97 
-3168.62 72.9907 4206.2 
-3168.38 72.9426 4206.21 
-3168.2 72.9085 4206.11 
-3170.1 73.6147 4207.47 
-3175.36 75.435 4209.89 
-3172.46 74.45 4208.16 
-3174.95 75.2456 4209.35 
-3174.43 75.0295 4208.87 
-3173.89 74.8181 4208.41 
-3173.26 74.5537 4207.82 
-3172.7 74.3277 4207.32 
-3172.22 74.1415 4206.91 
-3171.44 73.8404 4206.23 
-3170.61 73.4258 4205.18 
-3170.76 73.3932 4205.02 
-3169.77 73.2274 4204.34 
-3131.3 108.394 4238.46 
-3131.61 108.481 4240.16 
-3131.58 108.563 4241.06 
-3130.87 108.588 4242.1 
-3130.36 108.179 4237.92 
-3129.53 107.867 4238.35 
-3169.22 73.1199 4204.91 
-3169.02 73.0801 4204.86 
-3168.83 73.0422 4204.8 
-3168.63 73.0041 4204.72 
-3168.24 72.9398 4205.93 
-3169.36 73.3495 4206.21 
-3174.17 74.748 4208.13 
-3175.19 75.1885 4209.06 
-3175.45 75.383 4209.02 
-3172.24 74.3054 4207.05 
-3173.58 74.5088 4207.6 
-3173.07 74.2973 4207.13 
-3172.4 74.0043 4206.47 
-3171.88 73.7931 4206 
-3172.11 73.9514 4206.38 
-3170.9 73.3945 4204.99 
-3169.6 73.1987 4204.22 
-3131.1 108.473 4238.2 
-3131.33 108.551 4239.58 
-3131.18 108.719 4240.41 
-3130.41 108.834 4241.58 
-3130.3 108.307 4237.74 
-3129.33 107.877 4238.29 
-3169.38 73.1577 4204.13 
-3169.15 73.1123 4204.1 
-3168.43 72.9645 4204.64 
-3168.93 73.0689 4204.06 
-3168.49 73.0147 4204.7 
-3173.52 74.324 4207.1 
-3173.64 74.2905 4206.98 
-3175.09 75.011 4208.49 
-3175.91 75.3582 4208.46 
-3172.95 74.1189 4206.66 
-3174.98 75.0586 4207.37 
-3169.05 73.1981 4204.74 
-3170.43 73.5833 4204.86 
-3172.43 73.9221 4206.23 
-3171.11 73.3613 4204.79 
-3170.9 73.3276 4204.76 
-3169.87 73.2224 4204.09 
-3130.85 108.561 4237.94 
-3131.05 108.634 4239.18 
-3129.94 109.072 4240.96 
-3130.59 109.032 4239.88 
-3130.07 108.39 4237.53 
-3128.97 107.744 4238.79 
-3169.82 73.2086 4203.91 
-3169.39 73.1625 4203.78 
-3168.73 73.03 4204 
-3169.18 73.1216 4203.7 
-3168.58 73.0008 4203.84 
-3171.65 73.3706 4204.69 
-3171.77 73.3476 4204.6 
-3173.76 74.2522 4206.85 
-3171.53 73.3773 4204.76 
-3175.01 74.8258 4207.76 
-3175.68 75.0822 4207.47 
-3176.33 75.3396 4207.19 
-3171.27 73.3435 4204.71 
-3170.18 73.4801 4204.3 
-3174.14 74.619 4205.52 
-3168.78 73.0437 4203.45 
-3169.9 73.1974 4203.73 
-3130.55 108.643 4237.72 
-3130.34 109.053 4239.02 
-3129.41 109.342 4240.24 
-3128.93 107.911 4238.06 
-3168.97 73.0814 4203.6 
-3169.42 73.1647 4203.37 
-3171.99 73.3649 4204.61 
-3170.42 73.1537 4203.38 
-3170.22 73.1635 4203.41 
-3170.08 73.1739 4203.49 
-3174.28 74.4165 4207.06 
-3170.16 73.1881 4203.71 
-3175.45 74.8035 4206.47 
-3174.95 74.5247 4206.19 
-3176.08 75.0572 4206.23 
-3175.31 74.9052 4205.39 
-3169.1 73.1617 4203.44 
-3168.72 73.0351 4203.23 
-3169.25 73.1384 4203.19 
-3169.21 73.1282 4202.96 
-3130.18 108.7 4237.5 
-3128.89 109.593 4239.52 
-3129.64 109.444 4238.46 
-3128.38 107.805 4238.32 
-3172.17 73.3711 4204.6 
-3170.62 73.1438 4203.34 
-3169.53 73.1293 4202.66 
-3169.4 73.1373 4202.78 
-3174.1 74.2234 4206.54 
-3175.97 74.8388 4205.24 
-3175.53 74.6453 4205.32 
-3175.31 74.4891 4204.96 
-3174.52 74.2246 4205.51 
-3176.17 75.0744 4205.16 
-3176.34 75.0234 4205.29 
-3169.42 73.2462 4203.14 
-3168.86 73.067 4202.84 
-3129.21 108.647 4237.45 
-3128.37 109.715 4238.69 
-3172.25 73.3215 4204.46 
-3170.93 73.1381 4203.37 
-3169.89 73.1223 4202.72 
-3168.97 73.0875 4202.28 
-3168.86 73.0685 4202.56 
-3173.94 74.0325 4206.07 
-3176.34 75.0217 4205.04 
-3175.86 74.7659 4204.91 
-3175 74.3172 4204.79 
-3175.45 74.5529 4204.73 
-3174.61 74.1145 4204.68 
-3174.03 73.9371 4205.25 
-3176.92 75.2765 4205.14 
-3175.53 74.8282 4204.54 
-3170.43 73.5206 4203.01 
-3172.21 73.2666 4204.24 
-3171.09 73.121 4203.25 
-3170.32 73.1159 4202.84 
-3169.21 73.0974 4202.16 
-3171.01 73.6394 4202.79 
-3172.64 73.3687 4204.51 
-3176.93 75.2855 4204.94 
-3176.31 75.0129 4204.86 
-3175.9 74.7923 4204.72 
-3174.91 74.2659 4204.51 
-3175.37 74.5112 4204.56 
-3174.31 73.951 4204.48 
-3173.79 73.7178 4204.58 
-3177.33 75.229 4204.73 
-3176.64 74.9694 4204.42 
-3174.83 74.5282 4203.78 
-3171.3 73.113 4203.25 
-3170.49 73.1046 4202.77 
-3169.66 73.1049 4202.26 
-3170.26 73.415 4202.24 
-3176.84 74.8114 4203.83 
-3172.66 73.2968 4204.25 
-3176.94 75.2998 4204.75 
-3177.37 75.2329 4204.53 
-3176.34 75.0346 4204.69 
-3175.79 74.7389 4204.54 
-3175.27 74.4636 4204.38 
-3174.71 74.1647 4204.33 
-3174.18 73.8822 4204.25 
-3173.57 73.5599 4204.18 
-3173.89 73.7239 4204.23 
-3177.62 75.1331 4204.35 
-3177.27 74.9813 4204.22 
-3171.56 73.1058 4203.27 
-3170.82 73.0957 4202.8 
-3169.72 73.0868 4202.18 
-3170.31 73.0936 4202.54 
-3169.68 73.2241 4201.76 
-3173.75 74.0623 4202.72 
-3174.32 74.2665 4203.14 
-3177.41 74.8149 4203.59 
-3177.86 75.0578 4203.96 
-3172.69 73.2218 4204 
-3176.95 75.308 4204.54 
-3177.36 75.2486 4204.36 
-3177.61 75.1518 4204.18 
-3176.24 74.9881 4204.53 
-3175.81 74.7582 4204.39 
-3175.49 74.5934 4204.23 
-3174.97 74.3081 4204.19 
-3174.4 74.0056 4204.12 
-3173.82 73.692 4204.07 
-3173.28 73.4067 4203.96 
-3171.88 73.0931 4203.28 
-3171.1 73.0827 4202.79 
-3170.02 73.0777 4202.21 
-3170.33 73.064 4202.22 
-3169.16 73.1013 4201.51 
-3171.46 73.5414 4201.47 
-3177.46 74.7069 4203.23 
-3178.19 74.954 4203.47 
-3177.93 75.0477 4203.74 
-3172.73 73.1599 4203.72 
-3176.97 75.3349 4204.32 
-3176.43 75.0937 4204.41 
-3177.43 75.2369 4204.15 
-3177.34 75.2833 4204.12 
-3177.69 75.1381 4203.94 
-3176.01 74.8717 4204.27 
-3175.83 74.7827 4204.09 
-3175.26 74.472 4204.06 
-3174.69 74.1674 4204.01 
-3174.14 73.8705 4203.93 
-3174.03 73.8067 4204.04 
-3173.67 73.6169 4203.89 
-3173.24 73.3964 4203.74 
-3172.03 73.069 4203.1 
-3171.34 73.0644 4202.71 
-3170.66 73.0528 4202.26 
-3169.33 73.0995 4201.44 
-3169.55 73.0997 4201.38 
-3169.47 73.2759 4200.8 
-3177.78 74.67 4202.95 
-3173.72 73.8556 4201.81 
-3172.21 73.7179 4200.55 
-3170.61 73.4766 4200.53 
-3178.33 74.9194 4203.17 
-3178 75.0366 4203.5 
-3172.49 73.1011 4203.19 
-3172.77 73.2199 4203.25 
-3173.14 73.3903 4203.36 
-3176.38 75.0737 4204.2 
-3176.97 75.3321 4204.1 
-3177.38 75.2837 4203.88 
-3177.69 75.1519 4203.79 
-3177.59 75.2015 4203.77 
-3176.22 74.9929 4204 
-3175.54 74.6266 4203.94 
-3174.96 74.3144 4203.88 
-3174.4 74.0176 4203.83 
-3174 73.8058 4203.66 
-3173.99 73.793 4203.8 
-3173.64 73.6088 4203.72 
-3173.43 73.5415 4203.35 
-3172.14 73.0495 4202.89 
-3171.36 73.0411 4202.47 
-3170.6 73.0308 4201.99 
-3169.26 73.2744 4200.69 
-3169.77 73.0752 4201.29 
-3169.34 73.318 4200.8 
-3169.31 73.3173 4200.54 
-3170.55 73.5146 4200.23 
-3177.1 74.42 4202.27 
-3178.61 74.8182 4202.85 
-3173.61 73.9777 4200.21 
-3171.7 73.7195 4199.95 
-3178.49 74.8732 4202.84 
-3178.19 74.9824 4203.16 
-3177.88 75.0936 4203.46 
-3172.51 73.1735 4202.71 
-3172.36 73.1137 4202.64 
-3172.76 73.2991 4202.67 
-3173.12 73.4455 4202.87 
-3173.37 73.5745 4202.89 
-3176.97 75.3328 4203.92 
-3177.49 75.2599 4203.6 
-3177.7 75.1734 4203.5 
-3176.3 75.0431 4203.83 
-3175.78 74.7642 4203.83 
-3175.2 74.452 4203.76 
-3174.61 74.1336 4203.71 
-3174.23 73.9411 4203.47 
-3173.91 73.7705 4203.48 
-3173.66 73.6556 4203.39 
-3173.91 73.8187 4203.12 
-3173.66 73.7338 4202.79 
-3172.18 73.0498 4202.57 
-3171.62 73.0217 4202.39 
-3170.83 73.0129 4201.92 
-3169.95 73.4502 4200.1 
-3170.02 73.0596 4201.19 
-3169.44 73.3532 4200.82 
-3169.5 73.4027 4200.3 
-3169.58 73.4296 4199.96 
-3170.97 73.6367 4199.82 
-3171.76 73.7756 4199.64 
-3178.67 74.739 4202.01 
-3178.44 74.6207 4201.92 
-3177.82 74.6076 4200.88 
-3178.62 74.7941 4202.13 
-3174.59 74.1806 4199.76 
-3172.79 73.9407 4199.51 
-3178.47 74.8518 4202.06 
-3178.36 74.9354 4202.84 
-3178.03 75.0525 4203.17 
-3172.52 73.2366 4202.24 
-3172.37 73.1916 4202.08 
-3172.26 73.129 4202.18 
-3172.79 73.3465 4202.29 
-3173.12 73.5075 4202.4 
-3173.4 73.6576 4202.34 
-3173.53 73.7 4202.54 
-3176.99 75.3549 4203.75 
-3177.46 75.2866 4203.46 
-3177.89 75.1184 4203.19 
-3177.75 75.177 4203.2 
-3176.35 75.0788 4203.66 
-3175.87 74.8182 4203.67 
-3175.41 74.5693 4203.63 
-3174.82 74.2541 4203.59 
-3174.52 74.1086 4203.3 
-3174.26 74.0286 4202.89 
-3174.25 73.9928 4202.61 
-3173.73 73.8447 4202.22 
-3171.85 73.0045 4202.26 
-3172.1 73.0797 4202.02 
-3171.07 72.9957 4201.85 
-3170.61 73.6195 4199.61 
-3170.26 73.0261 4201.08 
-3169.56 73.3827 4200.82 
-3169.61 73.4505 4200.26 
-3169.6 73.4647 4199.88 
-3170.11 73.581 4199.4 
-3171.64 73.808 4199.32 
-3172.6 73.9631 4199.19 
-3177.44 74.883 4199.36 
-3177.42 74.9301 4199.6 
-3177.45 74.9683 4199.93 
-3177.63 74.7794 4199.51 
-3175.69 74.3935 4199.4 
-3174.29 74.2282 4199.01 
-3173.45 74.0991 4199.08 
-3178.35 74.9065 4202.09 
-3177.3 75.0422 4199.97 
-3178.22 74.9986 4202.85 
-3172.45 73.2758 4201.73 
-3172.22 73.1843 4201.66 
-3172.78 73.4306 4201.73 
-3173.24 73.6306 4201.92 
-3173.55 73.8159 4201.75 
-3177 75.3726 4203.57 
-3177.45 75.3077 4203.31 
-3177.72 75.2047 4203.08 
-3178.09 75.0569 4202.84 
-3177.98 75.1083 4202.81 
-3175.86 74.8181 4203.51 
-3176.39 75.1088 4203.48 
-3175.36 74.551 4203.42 
-3175.02 74.3676 4203.47 
-3174.88 74.3044 4203.23 
-3174.64 74.2427 4202.7 
-3174.38 74.1749 4202.25 
-3174.08 74.0651 4201.89 
-3173.84 73.9777 4201.64 
-3171.14 72.9756 4201.67 
-3171.57 72.9702 4201.81 
-3171.92 73.0223 4201.86 
-3172.01 73.1134 4201.48 
-3171.5 73.8383 4199 
-3170.52 73.0267 4201.01 
-3169.71 73.3581 4200.88 
-3169.71 73.4901 4200.34 
-3169.77 73.5378 4199.8 
-3169.67 73.492 4199.86 
-3169.75 73.5434 4199.45 
-3170.6 73.7236 4198.92 
-3172.75 74.0393 4198.83 
-3173.79 74.2133 4198.65 
-3177.23 74.8888 4198.8 
-3177.21 74.937 4198.98 
-3177.14 74.9945 4199.22 
-3177.15 75.039 4199.54 
-3176.71 74.6248 4198.94 
-3177.24 74.8589 4198.66 
-3174.41 74.2915 4198.71 
-3175.27 74.4332 4198.57 
-3178.26 74.9588 4202.16 
-3177.27 75.089 4200.18 
-3177.08 75.1077 4199.75 
-3177.08 75.1484 4200.01 
-3172.29 73.2666 4201.26 
-3172.48 73.3456 4201.3 
-3172.08 73.1923 4201.12 
-3172.79 73.4861 4201.31 
-3173.21 73.6717 4201.5 
-3173.89 74.0698 4201.13 
-3173.56 73.8759 4201.32 
-3177.01 75.3784 4203.38 
-3177.43 75.3265 4203.15 
-3177.74 75.2114 4202.91 
-3178.14 75.0152 4202.16 
-3177.96 75.0751 4202.04 
-3177.86 75.1299 4202.16 
-3175.98 74.888 4203.36 
-3175.46 74.6085 4203.29 
-3176.32 75.0766 4203.28 
-3175 74.4031 4202.9 
-3175.01 74.4719 4202.4 
-3174.8 74.4136 4202.04 
-3174.67 74.373 4201.82 
-3174.39 74.2671 4201.58 
-3174.15 74.1768 4201.33 
-3171.63 72.9619 4201.58 
-3171.82 73.0457 4201.33 
-3171.89 73.1337 4200.9 
-3171.97 73.9889 4198.45 
-3172.8 74.1004 4198.48 
-3170.76 73.0004 4200.91 
-3169.94 73.4266 4200.73 
-3169.76 73.4409 4200.75 
-3169.85 73.5474 4200.27 
-3169.9 73.5912 4199.76 
-3169.95 73.6323 4199.26 
-3169.84 73.583 4199.38 
-3169.95 73.6365 4198.97 
-3170.37 73.7149 4198.77 
-3171.08 73.8683 4198.42 
-3173.67 74.2312 4198.42 
-3174.88 74.4786 4197.94 
-3175 74.426 4198.37 
-3177.17 74.9039 4198.73 
-3177.07 74.9582 4198.77 
-3177.06 74.9992 4199.02 
-3177 75.0658 4199.25 
-3177.06 75.0701 4199.45 
-3177.17 74.7952 4198.28 
-3177.25 74.828 4198.5 
-3176.31 74.6432 4198.18 
-3177.19 74.8631 4198.54 
-3176 74.6101 4198.1 
-3177.3 75.1227 4200.46 
-3177.09 75.1886 4200.28 
-3176.98 75.1387 4199.59 
-3176.97 75.188 4199.91 
-3176.98 75.2341 4200.23 
-3172.38 73.3613 4200.86 
-3172.17 73.2763 4200.77 
-3172.53 73.4348 4200.8 
-3171.98 73.2285 4200.52 
-3172.79 73.543 4200.87 
-3173.12 73.6984 4200.97 
-3173.35 73.7972 4201.11 
