-3081.85 155.362 1306.77 
-3082.77 153.063 1305.74 
-3082.66 153.585 1304.95 
-3081.73 155.885 1308.08 
-3082.76 152.596 1306.32 
-3082.22 155.074 1308.79 
-3082.89 152.13 1306.67 
-3082.43 154.711 1309.06 
-3083.06 152.123 1307.06 
-3083.17 152.727 1305.07 
-3082.74 153.462 1304.11 
-3083.13 152.02 1305.67 
-3083.25 151.374 1305.95 
-3083.29 151.554 1306.45 
-3082.81 154.636 1310.04 
-3083.32 151.949 1307.31 
-3082.67 154.489 1309.39 
-3083.36 151.705 1306.89 
-3081.6 155.176 1300.07 
-3082.91 152.837 1302.49 
-3082.06 154.758 1299.61 
-3082.65 153.327 1303.17 
-3083.45 152.514 1304.08 
-3083.6 152.166 1303.1 
-3083.5 151.788 1304.81 
-3083.55 151.029 1305.15 
-3083.54 151.08 1306.02 
-3083.7 150.856 1305.63 
-3083.67 151.254 1306.46 
-3083.29 154.205 1310.11 
-3083.95 151.764 1307.4 
-3083.84 151.533 1306.97 
-3086.3 151.316 1307.14 
-3084.41 152.898 1309.02 
-3083.29 152.288 1302.24 
-3082.62 154.071 1299.64 
-3084.01 151.504 1302.73 
-3083.89 151.585 1303.91 
-3084.18 151.277 1303.3 
-3083.83 151.024 1304.18 
-3083.89 150.753 1304.84 
-3083.93 150.979 1306.06 
-3084.21 150.796 1305.48 
-3084.31 151.269 1306.66 
-3084.46 151.053 1306.38 
-3086.18 151.087 1306.64 
-3086.34 150.606 1305.82 
-3084.55 156.785 1314.72 
-3086.51 152.384 1309.26 
-3087.74 150.483 1306.68 
-3087.99 150.937 1307.9 
-3085.33 154.482 1290.03 
-3084.44 154.381 1293.64 
-3086.17 153.837 1289.97 
-3083.91 151.471 1302.16 
-3083.29 153.091 1300.04 
-3084.51 150.807 1303.19 
-3084.43 150.814 1302.77 
-3084.2 150.791 1303.6 
-3084.08 150.646 1304.02 
-3084.41 150.61 1304.74 
-3084.58 150.81 1306 
-3084.83 150.534 1305.35 
-3086.32 150.091 1304.97 
-3086.22 149.751 1304.44 
-3087.82 149.674 1305.68 
-3087.71 149.253 1304.71 
-3088.5 149.964 1306.94 
-3089.64 150.351 1309.24 
-3088.31 149.76 1306.57 
-3088.63 153.299 1287.14 
-3089.12 152.651 1287.61 
-3088.98 153.404 1286.74 
-3088.45 152.98 1287.73 
-3083.96 152.597 1299.74 
-3083.5 155.011 1294.16 
-3084.35 151.098 1301.77 
-3086.07 153.564 1292.15 
-3087.11 153.387 1289.13 
-3085.17 154 1292.97 
-3085.01 153.486 1295.85 
-3084.56 152.34 1299.2 
-3084.49 150.708 1302.36 
-3084.64 150.393 1303.52 
-3084.83 150.245 1303.15 
-3084.87 150.24 1302.66 
-3084.64 150.312 1304.11 
-3085.08 150.218 1304.62 
-3086.24 149.644 1304.32 
-3086.27 149.597 1304.08 
-3087.7 149.107 1304.25 
-3087.64 148.948 1304.06 
-3088.13 149.022 1306.08 
-3088.02 148.941 1305.15 
-3090.74 151.668 1312.44 
-3091.26 150.585 1311.84 
-3095.04 147.495 1313.68 
-3094.25 147.602 1313.08 
-3092.7 152.065 1315.63 
-3095.61 147.927 1314.43 
-3089.44 148.915 1307.13 
-3090.33 149.516 1309.25 
-3089.1 148.989 1306.57 
-3096.13 148.584 1315.34 
-3096.65 145.026 1313.37 
-3097.3 148.345 1315.54 
-3095.91 144.338 1313.72 
-3098.16 148.183 1315.81 
-3097.1 145.285 1313.08 
-3099.18 148.216 1316.49 
-3097.48 145.393 1312.71 
-3100.48 148.866 1317.8 
-3098 145.796 1313.12 
-3100.52 147.588 1316.79 
-3089.62 153.088 1286.74 
-3090.27 152.966 1286.53 
-3089.58 153.669 1286.11 
-3088.99 152.506 1288.28 
-3088.82 152.49 1288.76 
-3087.59 153.348 1288.1 
-3088.35 152.658 1289.15 
-3091.38 151.181 1288.9 
-3091.47 151.186 1288.61 
-3091.71 151.434 1287.85 
-3092.12 151.493 1287.59 
-3084.85 150.58 1301.62 
-3084.66 150.56 1302.04 
-3087.45 153.025 1289.73 
-3087.98 151.938 1295.43 
-3089.6 151.317 1293.98 
-3088.1 152.446 1292.08 
-3085.51 152.828 1296.89 
-3085.02 151.957 1299.05 
-3085.12 150.606 1301.05 
-3084.93 150.237 1302.16 
-3085.05 149.983 1303.63 
-3085.36 149.84 1303.14 
-3085.32 149.89 1302.7 
-3085.4 149.913 1302.15 
-3085.37 149.9 1303.86 
-3086.35 149.51 1303.56 
-3087.63 148.835 1303.81 
-3087.69 148.846 1303.39 
-3088.15 148.791 1304.35 
-3088.13 148.638 1304.04 
-3089.07 148.541 1306.01 
-3088.54 148.608 1305.27 
-3091.41 148.872 1310.29 
-3094.51 145.643 1312.47 
-3093.81 145.75 1311.85 
-3095.19 143.477 1313.23 
-3090.53 148.123 1308.06 
-3089.9 147.916 1306.75 
-3089.72 147.879 1306.33 
-3096.48 144.316 1312.74 
-3095.85 143.781 1313.22 
-3095.05 142.898 1313.49 
-3096.98 144.649 1312.35 
-3097.63 145.079 1312.07 
-3097.12 144.394 1311.8 
-3098.41 145.441 1312.7 
-3101.07 147.021 1316.26 
-3092.54 151.499 1287.44 
-3090.99 151.199 1290.08 
-3091.2 151.231 1289.35 
-3090.12 151.512 1290.62 
-3093.73 149.88 1290.45 
-3094.04 149.843 1290.09 
-3093.76 150.199 1289.53 
-3091.65 151.214 1288.25 
-3093.36 149.916 1290.83 
-3094.16 150.187 1289.15 
-3094.39 150.161 1288.79 
-3085.4 150.044 1301.6 
-3087.42 151.884 1296.57 
-3091.46 149.248 1295.57 
-3094.15 147.857 1293.32 
-3092.41 149.965 1292.35 
-3085.81 151.677 1298.69 
-3085.73 150.665 1300.34 
-3085.7 150.31 1300.9 
-3086.45 149.477 1302.98 
-3086.48 149.493 1302.43 
-3086.55 149.499 1301.97 
-3086.56 149.599 1301.54 
-3087.71 148.879 1302.99 
-3088.1 148.625 1303.71 
-3088.18 148.639 1303.27 
-3088.72 148.372 1304.56 
-3088.59 148.373 1304.02 
-3089.24 148.03 1305.34 
-3089.62 147.513 1305.85 
-3092.08 147.166 1309.95 
-3091.18 147.478 1308.85 
-3093.71 144.836 1311.38 
-3094.33 142.26 1312.55 
-3093.87 141.759 1311.95 
-3094.39 142.061 1313.02 
-3090.17 147.251 1306.99 
-3089.91 147.117 1306.28 
-3096.23 143.44 1312.14 
-3095.6 142.947 1312.66 
-3094.91 142.25 1313.05 
-3094.03 141.183 1313.19 
-3098.01 145.022 1311.7 
-3097.4 144.374 1311.37 
-3096.68 143.179 1311.04 
-3096.42 143.262 1311.59 
-3103.23 147.136 1316.29 
-3099.85 144.784 1312.43 
-3102.22 147.163 1316.36 
-3099.03 145.07 1312.85 
-3101.78 144.822 1312.4 
-3104.3 146.982 1315.48 
-3094.62 150.169 1288.39 
-3092.89 151.612 1287.24 
-3093.09 149.95 1291.34 
-3095.58 147.892 1291.16 
-3095.95 147.914 1290.77 
-3096.37 147.974 1290.41 
-3096.46 148.222 1289.97 
-3095.35 147.819 1291.49 
-3096.67 148.412 1289.58 
-3096.82 148.677 1289.22 
-3086.52 149.785 1301.17 
-3087.11 150.79 1298.95 
-3089.13 150.761 1296.53 
-3091.02 149.33 1296.34 
-3091.78 146.783 1298.85 
-3092.69 147.734 1296.53 
-3093.43 147.285 1296.66 
-3095.05 147.805 1291.91 
-3097.1 144.944 1292.43 
-3095.76 145.976 1293.24 
-3094.52 147.209 1295.49 
-3093.03 149.762 1291.96 
-3086.76 150.064 1300.56 
-3087.97 148.848 1302.48 
-3088.12 148.734 1302.82 
-3088.12 148.884 1302.09 
-3088.1 148.986 1301.55 
-3088.16 149.064 1301.04 
-3088.54 148.455 1303.61 
-3088.8 148.319 1303.37 
-3088.6 148.563 1303.03 
-3089.15 147.595 1304.76 
-3088.88 147.946 1303.95 
-3089.59 147.006 1305.43 
-3089.99 146.538 1306.02 
-3093.5 143.988 1310.95 
-3092.2 146.034 1309.49 
-3091.02 146.557 1308.1 
-3093.54 141.44 1311.45 
-3093.56 140.726 1312.61 
-3093.35 140.635 1312.05 
-3093.05 140.367 1311.35 
-3090.6 146.166 1307.31 
-3090.14 146.673 1306.64 
-3095.53 141.986 1311.65 
-3095.34 142.103 1312.13 
-3094.69 141.429 1312.46 
-3094.05 140.786 1312.84 
-3093.29 139.726 1312.98 
-3093.14 139.698 1312.73 
-3097.75 144.451 1311.02 
-3098.61 144.744 1311.55 
-3097.28 143.771 1310.72 
-3096.7 142.67 1310.39 
-3096.07 142.012 1310.52 
-3095.83 142.002 1311.14 
-3099.98 144.3 1311.64 
-3098.87 144.281 1311.1 
-3103.62 144.033 1310.74 
-3105.22 146.123 1313.67 
-3106.28 141.655 1306.89 
-3107.7 141.704 1306.35 
-3106.91 145.667 1312.13 
-3097.8 150.232 1287.6 
-3099.01 147.959 1289.17 
-3099.59 148.945 1288.23 
-3097.28 149.707 1288.22 
-3095.73 150.968 1287.2 
-3095.18 150.533 1287.77 
-3101.94 147.038 1289.88 
-3100.77 150.688 1286.72 
-3099.77 147.653 1289.35 
-3105 147.76 1289.48 
-3102.93 149.007 1288.16 
-3097.03 149.15 1288.76 
-3097.77 145.665 1291.61 
-3097.49 146.167 1291.16 
-3097.64 146.435 1290.91 
-3098.07 146.555 1290.73 
-3097.95 146.986 1290.35 
-3097.84 145.204 1292.06 
-3098.42 146.823 1290.42 
-3098.74 147.091 1290.09 
-3115.84 145.6 1286.25 
-3087.87 149.274 1300.75 
-3088.79 150.162 1298.24 
-3088.34 149.635 1300.1 
-3090.41 148.738 1298.25 
-3091.23 147.464 1298.6 
-3092.33 145.723 1299.45 
-3091.81 145.055 1301.85 
-3092.29 144.298 1302.21 
-3091.12 146.577 1300.37 
-3092.91 145.202 1299.66 
-3094.89 146.336 1297.29 
-3097.58 144.699 1292.38 
-3096.96 146.063 1293.76 
-3098.07 144.393 1293.24 
-3095.85 146.317 1296.13 
-3088.29 149.4 1300.31 
-3088.61 148.666 1302.55 
-3088.66 148.744 1302.09 
-3088.61 148.843 1301.53 
-3088.69 148.671 1300.65 
-3088.79 148.592 1301.16 
-3088.98 147.678 1303.39 
-3088.93 148.276 1302.89 
-3089.64 146.552 1305.08 
-3089.17 147.252 1304.2 
-3090.49 145.593 1305.98 
-3090.6 145.777 1306.8 
-3090.87 145.143 1306.62 
-3093.21 143.496 1310.55 
-3093.1 140.723 1310.92 
-3091.89 145.777 1308.93 
-3092.36 145.467 1309.54 
-3091.55 145.172 1308.39 
-3092.89 139.412 1312.04 
-3092.72 139.272 1311.45 
-3092.6 139.662 1310.49 
-3092.52 139.068 1310.86 
-3091 145.125 1307.52 
-3095.06 141.213 1311.17 
-3094.61 140.887 1311.77 
-3093.99 140.376 1312.18 
-3093.23 139.5 1313.08 
-3092.9 138.825 1312.93 
-3092.72 138.608 1312.21 
-3098.03 144.216 1310.65 
-3097.47 143.594 1310.19 
-3096.89 142.637 1309.78 
-3096.32 142.225 1309.85 
-3095.71 141.82 1309.85 
-3095.53 141.599 1310.58 
-3102.3 143.743 1310.51 
-3099.34 143.795 1310.84 
-3098.21 143.778 1310.18 
-3106.66 140.359 1304.89 
-3109.8 143.081 1307.28 
-3108.69 139.996 1303.72 
-3110.33 140.88 1303.8 
-3098.82 147.579 1289.58 
-3099.66 146.957 1290 
-3101.73 146.384 1290.49 
-3103.78 145.565 1291.36 
-3104.18 145.889 1291.05 
-3105.86 147.393 1289.74 
-3101.57 145.85 1290.93 
-3104.97 145.711 1291.19 
-3106.44 147.07 1289.85 
-3108.66 148.291 1288.45 
-3107.31 146.391 1289.99 
-3109.17 147.981 1288.47 
-3098.34 145.541 1291.56 
-3098.55 145.096 1292.18 
-3098.58 145.76 1291.35 
-3098.81 146.049 1291.09 
-3098.9 144.654 1293.12 
-3099.09 144.797 1292.9 
-3099.29 146.087 1290.96 
-3099.53 146.631 1290.36 
-3099.54 146.209 1290.78 
-3107.96 146.116 1289.93 
-3110.6 147.65 1287.99 
-3109.01 145.918 1289.62 
-3109.78 145.256 1289.52 
-3112.12 146.735 1287.76 
-3088.94 149.322 1299.89 
-3088.89 148.989 1300.19 
-3090.07 148.007 1299.77 
-3092.64 143.862 1302.53 
-3092.32 144.206 1303.36 
-3091.79 144.74 1302.66 
-3090.11 147.303 1300.83 
-3092.7 143.792 1303.67 
-3093.41 144.795 1300.16 
-3096.34 145.197 1298.44 
-3096.66 145.613 1297.21 
-3097.66 145.558 1295.05 
-3098.96 144.615 1293.8 
-3089.02 148.226 1302.49 
-3089.14 148.19 1301.69 
-3089.1 148.203 1302.14 
-3089.24 147.876 1301.2 
-3090.04 146.995 1301.37 
-3089.05 147.539 1302.83 
-3089.57 146.647 1303.97 
-3089.97 146.01 1304.9 
-3091.03 144.553 1305.95 
-3091.26 144.088 1306.35 
-3091.09 144.789 1307.19 
-3091.36 143.986 1306.75 
-3093 143.426 1310.2 
-3092.9 140.582 1310.4 
-3092.16 145.017 1309.14 
-3092.76 143.67 1309.83 
-3091.54 144.477 1308.19 
-3091.96 144.55 1308.74 
-3092.48 138.281 1311.52 
-3092.31 138.164 1310.9 
-3092.76 140.672 1310.14 
-3092.42 139.605 1310.12 
-3092.27 138.689 1310.31 
-3091.42 143.983 1307.74 
-3095.12 141.36 1310.32 
-3094.6 140.932 1310.91 
-3094.09 140.526 1311.41 
-3092.81 138.352 1313.42 
-3093.18 139.301 1313.16 
-3092.59 137.923 1312.61 
-3092.39 137.585 1311.85 
-3097.48 143.189 1309.59 
-3096.38 142.564 1309.21 
-3097.15 142.881 1309.1 
-3096.15 142.19 1309.26 
-3095.75 141.953 1309.01 
-3095.23 141.544 1309.51 
-3101.04 143.602 1310.41 
-3105.56 141.051 1305.78 
-3103.5 142.985 1308.69 
-3098.93 143.413 1310.08 
-3098.12 143.339 1309.58 
-3107.94 139.161 1302.94 
-3113.97 140.129 1299.12 
-3110.54 140.08 1302.02 
-3109.06 139.67 1302.63 
-3101.36 145.6 1291.27 
-3103.57 145.033 1291.85 
-3104.07 144.705 1292.13 
-3104.44 145.134 1291.71 
-3105.41 145.383 1291.33 
-3106.79 146.612 1290.05 
-3105.7 145.032 1291.4 
-3106.08 144.788 1291.48 
-3099.19 145.12 1292.02 
-3099.16 144.994 1292.34 
-3099.34 144.764 1292.79 
-3099.29 145.301 1291.74 
-3099.43 145.558 1291.46 
-3100.29 144.043 1294.06 
-3100.22 144.074 1294.56 
-3100.32 144.039 1293.68 
-3100.98 144.96 1292.02 
-3101.08 145.198 1291.8 
-3101.18 145.427 1291.56 
-3106.46 144.407 1291.71 
-3107.37 143.985 1291.38 
-3111.12 144.549 1289.11 
-3113.01 145.495 1287.95 
-3109.06 143.323 1290.51 
-3108.3 143.094 1291.12 
-3114.51 144.531 1287.54 
-3115.69 144.572 1286.93 
-3093.11 143.277 1304.1 
-3093.29 143.585 1302.94 
-3092.3 143.905 1304.14 
-3092.75 143.172 1304.73 
-3091.19 145.395 1302.57 
-3091.67 144.561 1303.48 
-3092.98 142.883 1304.82 
-3094.07 144.513 1300.58 
-3097.55 144.88 1298.22 
-3094.95 144.316 1300.83 
-3095.89 143.961 1301.03 
-3097.42 144.568 1298.82 
-3098.72 144.563 1298.24 
-3099.6 144.163 1297.23 
-3100.01 144.103 1295.4 
-3090.05 146.314 1303.09 
-3090.13 146.598 1302.17 
-3090.29 146.153 1302.8 
-3091.41 144.285 1304.85 
-3090.69 145.223 1304.48 
-3091.1 144.515 1305.24 
-3091.08 144.405 1305.59 
-3091.92 141.475 1307.14 
-3091.99 141.631 1306.93 
-3091.92 141.041 1307.62 
-3091.46 143.77 1307.23 
-3091.93 141.391 1307.72 
-3091.92 140.865 1308.29 
-3092.6 143.193 1309.58 
-3092.07 143.672 1308.67 
-3091.82 143.485 1308.27 
-3092.5 142.499 1309.42 
-3092.14 137.197 1311.16 
-3092.07 137.53 1310.63 
-3092.13 138.2 1310.26 
-3092.56 140.556 1309.9 
-3092.3 139.789 1309.82 
-3092.18 138.959 1309.92 
-3091.98 141.433 1308.66 
-3091.96 141.259 1308.43 
-3094.69 141.109 1310.05 
-3094.15 140.674 1310.58 
-3093.88 140.431 1311.05 
-3092.24 137.082 1312.55 
-3092.54 137.738 1313.38 
-3092.78 138.262 1314.04 
-3093.09 139.011 1314.51 
-3093.16 139.348 1311.74 
-3092.17 136.895 1312.08 
-3092.04 136.584 1311.39 
-3097.61 143.135 1309.09 
-3096.97 142.796 1308.49 
-3096.34 142.41 1308.53 
-3097.34 142.991 1308.68 
-3095.89 142.151 1308.23 
-3095.35 141.726 1308.7 
-3094.76 141.263 1309.22 
-3100.33 143.346 1309.82 
-3102.55 143.158 1308.85 
-3105.05 141.01 1305.56 
-3107.68 139.123 1302.76 
-3098.22 143.115 1309.3 
-3108.64 139.295 1302.18 
-3114.16 139.115 1297.9 
-3114.07 138.269 1297.43 
-3110.43 138.763 1300.98 
-3103.54 144.604 1292.2 
-3104.18 144.079 1292.71 
-3104.67 144.426 1292.36 
-3105.1 144.712 1292.01 
-3105.6 144.406 1292.09 
-3106.03 144.01 1292.26 
-3100.49 144.265 1292.95 
-3100.65 144.463 1292.64 
-3100.38 144.108 1293.3 
-3100.79 144.713 1292.34 
-3102.14 143.308 1295.63 
-3102.17 143.42 1295.08 
-3101.53 143.372 1296.01 
-3101.97 143.631 1294.48 
-3102.92 144.094 1292.44 
-3103.33 144.119 1292.39 
-3103.33 144.404 1292.23 
-3106.67 143.598 1292.19 
-3107.74 143.027 1291.67 
-3113.14 142.469 1288.74 
-3111.41 141.307 1289.82 
-3110.94 140.815 1290.3 
-3110.55 140.624 1290.65 
-3093.32 142.66 1304.7 
-3093.4 142.425 1305.3 
-3093.89 143.322 1303.31 
-3092.4 143.471 1304.88 
-3092.97 142.658 1305.54 
-3093.23 142.494 1305.51 
-3091.45 144.668 1303.53 
-3092.18 143.588 1305.01 
-3098.07 144.352 1299.63 
-3099.4 143.949 1300.1 
-3096.5 143.74 1301.53 
-3094.54 142.864 1303.83 
-3100.11 143.214 1301.32 
-3101.16 143.118 1297.22 
-3100.63 142.943 1300.98 
-3092.2 143.329 1305.43 
-3092.53 141.232 1306.75 
-3092.55 140.107 1306.99 
-3092.38 141.494 1306.72 
-3092.26 141.466 1306.84 
-3092.17 141.581 1306.89 
-3091.83 137.43 1309.51 
-3091.89 137.655 1308.84 
-3091.85 137.476 1309.89 
-3092.02 138.725 1309.67 
-3092.34 141.732 1309.21 
-3092.16 141.506 1308.92 
-3092.41 140.602 1309.65 
-3091.91 136.724 1310.58 
-3091.93 137.205 1310.45 
-3091.98 138.005 1309.98 
-3092.15 139.418 1309.65 
-3092.25 140.12 1309.56 
-3094.27 140.857 1309.79 
-3093.21 139.392 1311.09 
-3091.83 136.325 1312.22 
-3091.79 136.079 1310.97 
-3092.08 136.871 1312.93 
-3092.77 138.386 1314.2 
-3092.41 137.573 1313.68 
-3091.89 136.253 1310.73 
-3091.91 136.746 1309.78 
-3097.52 143.068 1308.72 
-3096.72 142.64 1308.05 
-3097.47 142.972 1308.29 
-3097.17 142.806 1307.99 
-3096.51 142.459 1307.62 
-3095.42 141.89 1307.8 
-3095.93 142.228 1307.56 
-3095.01 141.548 1308.35 
-3093.79 140.325 1309.67 
-3094.55 141.199 1308.63 
-3099.92 143.166 1309.22 
-3101.61 142.993 1308.31 
-3102.85 142.854 1308.17 
-3104.82 140.899 1305.19 
-3107.42 139.132 1302.68 
-3108.59 139.125 1301.76 
-3097.5 142.839 1309.19 
-3110.4 137.919 1300.42 
-3114.61 137.623 1296.33 
-3104.06 143.679 1293 
-3104.82 143.815 1292.91 
-3105.23 144.035 1292.56 
-3105.67 143.654 1292.71 
-3106.25 143.214 1292.8 
-3102.37 143.654 1294.06 
-3102.55 143.813 1293.54 
-3102.74 143.958 1292.97 
-3103.27 142.645 1295.65 
-3102.52 142.775 1296.24 
-3102.96 143.179 1294.8 
-3101.73 142.987 1296.33 
-3103.53 143.72 1293.08 
-3107.43 142.603 1292.24 
-3109.78 140.83 1291.12 
-3112.4 138.816 1290.11 
-3093.84 142.629 1304.47 
-3093.97 142.199 1305.16 
-3093.69 142.189 1305.41 
-3093.59 141.121 1306.29 
-3093.74 141.105 1306.19 
-3092.92 142.528 1305.87 
-3093.33 141.394 1306.46 
-3093.5 141.449 1306.32 
-3092.55 139.591 1306.97 
-3092.71 139.775 1306.79 
-3099.53 143.528 1301.56 
-3098.74 144.05 1301.19 
-3096.96 143.54 1302.09 
-3094.75 142.246 1304.84 
-3095.38 142.657 1304.09 
-3099.78 143.162 1302.42 
-3100.31 143.004 1302.17 
-3101.54 142.661 1298.68 
-3103.98 141.27 1297.48 
-3101.58 142.286 1300.53 
-3100.93 142.656 1301.95 
-3101.57 142.058 1301.48 
-3091.87 137.068 1308.11 
-3091.96 136.509 1308.66 
-3091.94 137.622 1308.38 
-3092.32 137.533 1313.56 
-3091.54 135.732 1311.48 
-3091.75 135.956 1310.43 
-3091.94 136.589 1309.26 
-3091.77 136.307 1312.76 
-3097.26 142.944 1308.59 
-3096.86 142.615 1307.57 
-3097.57 142.938 1307.85 
-3097.25 142.767 1307.56 
-3096.99 142.59 1307.13 
-3096.38 142.35 1307.1 
-3095.71 142.074 1307.03 
-3095.2 141.819 1307.06 
-3094.83 141.511 1307.71 
-3093.83 140.364 1309.03 
-3092.02 136.952 1313.14 
-3094 140.592 1308.32 
-3099.51 143.011 1308.89 
-3100.8 142.986 1308.03 
-3102.22 142.878 1307.83 
-3101.37 142.831 1307.55 
-3102.84 142.6 1307.54 
-3104.65 140.671 1304.66 
-3107.09 139.195 1302.62 
-3108.25 139.079 1301.91 
-3109.06 138.363 1300.4 
-3110.42 137.774 1299.78 
-3098.05 142.724 1308.89 
-3104.76 143.254 1293.46 
-3104.29 143.121 1293.86 
-3105.25 143.29 1293.21 
-3105.73 143.087 1293.17 
-3106.17 142.565 1293.38 
-3107.05 142.273 1292.75 
-3103.36 143.178 1294.31 
-3103.42 143.523 1293.65 
-3103.93 142.405 1295.18 
-3104.74 141.065 1296.84 
-3104.47 141.673 1296.08 
-3109.73 140.447 1291.4 
-3112.28 138.596 1290.29 
-3094.24 141.796 1305.76 
-3093.88 140.856 1306.17 
-3092.19 136.781 1306.89 
-3092.19 136.687 1307.02 
-3092.21 136.47 1307.01 
-3092.21 137.158 1307.01 
-3092.17 137.335 1307.13 
-3091.94 136.231 1308.64 
-3099.06 143.494 1302.27 
-3099.44 143.231 1302.78 
-3097.41 143.336 1302.53 
-3098.48 143.38 1302.34 
-3094.98 141.746 1305.81 
-3095.62 142.223 1304.9 
-3096.24 142.629 1304.19 
-3099.91 142.987 1303.19 
-3100.3 142.857 1302.98 
-3100.89 142.601 1302.78 
-3103.23 141.097 1299.51 
-3103.51 141.188 1298.4 
-3105.16 139.979 1298.34 
-3107.84 139.045 1295.72 
-3109.35 138.64 1293.83 
-3103.23 140.815 1300.29 
-3101.6 141.927 1302.28 
-3103.25 140.578 1301.07 
-3091.4 135.513 1311.64 
-3091.78 135.901 1309.36 
-3091.72 136.352 1312.74 
-3096.6 142.744 1308.91 
-3097.24 142.868 1308.17 
-3097.58 142.882 1307.5 
-3097.43 142.763 1307.15 
-3098.31 142.837 1306.45 
-3098.19 142.784 1306.08 
-3096.87 142.477 1306.73 
-3096.54 142.324 1306.53 
-3096.07 142.156 1306.68 
-3095.83 142.028 1306.33 
-3094.18 140.862 1307.56 
-3094.93 141.677 1306.59 
-3095.41 141.852 1306.23 
-3091.57 136.06 1312.36 
-3091.46 135.804 1311.7 
-3115.88 137.523 1292.98 
-3111.81 137.476 1297.93 
-3100.57 142.907 1307.44 
-3102.05 142.642 1307.12 
-3101.13 142.697 1306.91 
-3102.72 142.531 1307.27 
-3104.56 140.681 1304.47 
-3107.14 139.128 1302.38 
-3108.1 138.907 1301.66 
-3108.88 138.22 1299.97 
-3111.58 137.65 1297.76 
-3096.5 142.468 1309.28 
-3099.6 142.949 1307.73 
-3105.16 142.587 1293.98 
-3104.22 142.68 1294.54 
-3105.05 142.093 1294.68 
-3105.62 142.57 1293.74 
-3106.85 141.878 1293.24 
-3106.45 141.841 1293.82 
-3109.28 140.023 1292.11 
-3109.47 140.258 1291.77 
-3105.28 141.467 1295.42 
-3108.48 139.201 1294.12 
-3108.1 139.549 1294.1 
-3112.27 138.413 1290.5 
-3093.99 140.556 1307.12 
-3093.72 139.977 1306.78 
-3093.32 138.911 1305.93 
-3091.71 135.778 1309.16 
-3091.52 135.522 1309.67 
-3092.4 136.42 1306.08 
-3091.72 135.705 1309.53 
-3092.19 136.19 1308.12 
-3098.74 143.239 1303.08 
-3099.33 143.191 1303.3 
-3097.68 143.111 1302.71 
-3097.6 142.817 1303.84 
-3095.67 141.957 1305.56 
-3096.42 142.304 1304.89 
-3100.52 142.734 1303.56 
-3099.84 142.935 1303.73 
-3100.97 142.465 1303.4 
-3101.45 141.973 1303.5 
-3101.47 141.931 1302.99 
-3104.92 139.772 1299.1 
-3106.35 139.313 1297.72 
-3109.21 138.528 1294.98 
-3111.16 137.811 1292.48 
-3111.56 137.73 1291.88 
-3105 139.502 1299.66 
-3103.16 140.648 1301.97 
-3104.96 139.365 1300.3 
-3091.29 135.328 1311.5 
-3097.43 142.662 1308.11 
-3098.05 142.814 1307.15 
-3099.65 142.667 1305.84 
-3099.71 142.431 1305.18 
-3098.08 142.778 1305.68 
-3099.54 142.606 1304.87 
-3096.52 142.302 1306.06 
-3098.07 142.788 1305.3 
-3096.64 142.356 1305.49 
-3096.12 142.142 1305.58 
-3091.7 136.126 1310.67 
-3115.54 137.365 1292.61 
-3115.46 137.219 1292.18 
-3111.78 137.696 1297.13 
-3100.49 142.767 1306.73 
-3100.05 142.951 1307.12 
-3102.41 142.347 1306.67 
-3101.69 142.514 1306.6 
-3100.92 142.564 1306.26 
-3104.33 140.643 1304.21 
-3106.67 139.225 1302.41 
-3108.08 138.578 1301.03 
-3109.05 138.029 1299.28 
-3105.74 141.896 1294.38 
-3106.19 141.207 1294.72 
-3109.18 139.797 1292.42 
-3106.9 141.22 1293.97 
-3108.42 139.512 1293.49 
-3111.37 137.917 1291.85 
-3111.71 137.902 1291.62 
-3112.28 138.264 1290.69 
-3112.94 138.145 1290.18 
-3093.79 140.089 1306.11 
-3093.35 138.971 1305.47 
-3092.6 136.357 1305.37 
-3092.74 137.121 1306.65 
-3093.82 140.135 1305.61 
-3097.73 142.775 1304.26 
-3099.11 143.156 1303.77 
-3101.01 142.417 1304.05 
-3100.18 142.71 1304.22 
-3099.51 143.009 1304.16 
-3101.48 142.116 1304.11 
-3101.93 141.827 1304.1 
-3103.21 140.703 1302.71 
-3106.31 139.157 1298.35 
-3109.09 138.493 1295.77 
-3111.51 137.711 1292.73 
-3112.48 137.219 1292.01 
-3112.81 137.239 1291.57 
-3112.91 137.405 1291.19 
-3106.07 138.806 1299.28 
-3105.18 139.283 1300.71 
-3099.85 142.832 1306.54 
-3100.21 142.575 1305.97 
-3100.18 142.379 1304.72 
-3100.5 142.433 1305.46 
-3099.74 142.758 1304.56 
-3097.96 142.799 1304.95 
-3097.83 142.786 1304.57 
-3111.86 137.704 1296.43 
-3115.35 137.131 1291.84 
-3111.89 137.644 1295.74 
-3102.02 142.204 1305.87 
-3101.42 142.417 1306.05 
-3104.42 140.354 1303.64 
-3102.39 142.021 1305.56 
-3106.51 139.11 1301.96 
-3107.66 138.464 1301.11 
-3108.63 138.008 1299.2 
-3108.51 139.654 1293.14 
-3108.6 139.854 1292.87 
-3111.26 138.269 1291.62 
-3111.74 138.038 1291.44 
-3113 137.604 1290.82 
-3112.86 137.822 1290.67 
-3112.9 137.988 1290.41 
-3093.57 139.477 1305.06 
-3092.88 136.688 1304.92 
-3093.79 140.015 1304.96 
-3101.63 142.25 1304.89 
-3100.88 142.444 1304.35 
-3102.1 141.967 1304.81 
-3103.66 140.559 1303.24 
-3105.37 139.304 1301.66 
-3105.59 139.09 1300.8 
-3107.11 138.665 1298.36 
-3110.49 138.067 1294.88 
-3111.96 137.565 1292.85 
-3112.65 137.039 1292.25 
-3105.77 138.635 1300.1 
-3101.12 142.424 1305.31 
-3112.31 137.512 1294.47 
-3108.99 138.129 1298.3 
-3115.13 137.033 1291.43 
-3104.1 140.41 1303.49 
-3105.72 139.374 1302.51 
-3105.98 139.175 1301.76 
-3106.74 138.543 1300.97 
-3107.68 137.989 1300.23 
-3092.88 136.688 1304.92 
-3093.32 138.217 1304.63 
-3093.79 140.015 1304.96 
-3093.1 136.018 1303.66 
-3106.13 138.706 1300.69 
-3107 138.088 1299.06 
-3110.33 137.987 1295.65 
-3112.34 137.296 1293.06 
-3112.95 136.885 1292.35 
-3115.03 136.945 1290.92 
-3113.23 137.138 1293.28 
-3112.57 137.443 1293.36 
-3110.11 137.906 1296.53 
-3107.49 137.999 1299.53 
-3093.32 138.217 1304.63 
-3093.45 138.091 1303.96 
-3093.1 136.018 1303.66 
-3093.47 136.421 1302.7 
-3113.05 136.961 1293 
-3115.03 136.987 1290.86 
