-3328.59 483.476 3218.18 
-3328.57 483.61 3218.5 
-3337.69 480.854 3235.64 
-3337.03 480.58 3234.44 
-3328.82 479.16 3220.37 
-3328.87 480.335 3219.44 
-3328.95 482.406 3217.94 
-3329.12 481.399 3218.21 
-3329.12 482.478 3218.15 
-3344.32 459.942 3222.04 
-3340.25 457.618 3219.76 
-3344.88 456.302 3223.02 
-3346.18 460.469 3223.08 
-3346.65 459.575 3223.45 
-3347.59 459.388 3224.35 
-3347.18 459.587 3223.86 
-3338.71 458.808 3218.8 
-3339.96 458.712 3219.41 
-3348.08 455.078 3225.28 
-3347.92 458.943 3224.7 
-3350.71 450.776 3225.16 
-3350.46 451.731 3225.81 
-3350.02 452.333 3225.94 
-3351.07 450.636 3225.04 
-3350.73 451.244 3225.51 
-3350.97 450.172 3224.79 
-3351.25 449.395 3224.37 
-3351.29 450.564 3224.95 
-3360.44 442.959 3205.19 
-3360.51 443.312 3204.84 
-3349.37 453.357 3225.74 
-3348.99 454.102 3225.65 
-3348.57 455.417 3225.65 
-3348.35 458.828 3225.15 
-3369.6 436.699 3237.02 
-3370.86 443.339 3230.14 
-3368.02 438.642 3238.7 
-3374.92 442.344 3220.8 
-3374.14 444.905 3221.73 
-3367.34 441.287 3239.16 
-3370.54 446.103 3230.41 
-3366.39 442.376 3244.48 
-3368.93 447.13 3234.63 
-3366.71 439.905 3248.44 
-3366.74 451.203 3246.7 
-3367.96 449.476 3237.67 
-3378.99 431.531 3213.65 
-3381.99 433.5 3207.62 
-3379.85 430.089 3210.46 
-3382.49 433.489 3206.6 
-3380.6 430.302 3208.29 
-3381.39 431.214 3206.84 
-3380.87 433.885 3210.31 
-3378.41 432.89 3215.99 
-3377.92 434.934 3217.17 
-3374.12 434.721 3226.17 
-3377.84 437.276 3217.1 
-3376.78 438.795 3219.07 
-3335.24 467.29 3217.1 
-3335.71 466.757 3217.2 
-3336.19 466.102 3217.33 
-3337.22 460.466 3218.09 
-3336.59 465.841 3217.43 
-3337.03 465.718 3217.55 
-3337.6 461.956 3218.16 
-3334.3 468.242 3217 
-3334.77 471.422 3216.22 
-3337.62 460.122 3218.19 
-3338.08 460.256 3218.32 
-3338.32 459.577 3218.48 
-3329.15 478.857 3219.83 
-3329.64 478.201 3219.52 
-3330.46 477.411 3219.36 
-3330.99 476.97 3218.94 
-3331.1 475.906 3218.7 
-3331.17 476.405 3218.47 
-3331.26 475.284 3218.65 
-3331.25 476.995 3218.31 
-3331.61 474.606 3218.33 
-3333.13 472.385 3216.49 
-3332.7 472.966 3216.59 
-3333.6 471.92 3216.47 
-3334.3 471.756 3216.32 
-3332.75 474.075 3217.02 
-3332.39 474.909 3217.39 
-3344.08 455.652 3290.96 
-3346.62 456.016 3281.43 
-3346.7 453.142 3284.54 
-3351.32 452.064 3277.97 
-3349.66 456.805 3276.19 
-3347.02 465.249 3275.49 
-3343.5 466.805 3275.82 
-3340.65 469.18 3270.17 
-3339.61 471.296 3265.13 
-3333.8 475.649 3257.28 
-3332.16 476.138 3257.2 
-3331.49 475.361 3260.25 
-3331.21 474.669 3264.81 
-3336.08 481.137 3246.95 
-3337.62 481.645 3246.75 
-3339.05 481.601 3243.98 
-3339.69 481.659 3242.88 
-3340.25 481.922 3241.68 
-3337.3 480.766 3249.09 
-3336.26 479.627 3249.48 
-3335.81 478.268 3251.24 
-3334.5 476.384 3254.06 
-3333.17 475.013 3261.22 
-3339.05 481.418 3237.89 
-3339.76 481.685 3238.98 
-3340.41 481.949 3240.05 
-3338.48 481.131 3236.64 
-3336.2 480.48 3232.15 
-3334.89 480.259 3227.72 
-3330.64 481.687 3223.44 
-3329.58 482.603 3221 
-3329.99 482.112 3221.87 
-3328.92 483.137 3218.95 
-3329.78 482.154 3220.65 
-3329.85 481.888 3220.2 
-3329.46 482.35 3219.5 
-3329.26 482.392 3218.64 
-3329.4 482.288 3219.06 
-3337.96 480.588 3234.75 
-3337.41 480.351 3233.72 
-3329.22 480.235 3218.78 
-3329.32 482.02 3217.75 
-3329.49 481.427 3217.55 
-3329.56 481.794 3218.37 
-3343.04 459.811 3221.01 
-3345.72 464.181 3223.6 
-3343 466.366 3221.05 
-3347.07 464.583 3224.94 
-3347.67 463.501 3225.07 
-3348.13 463.165 3225.6 
-3348.72 463.379 3226.61 
-3339.52 459.564 3219.08 
-3338.97 460.247 3218.75 
-3340.82 460.085 3219.62 
-3348.91 462.046 3226.24 
-3349.66 453.444 3226 
-3350.92 451.385 3225.56 
-3350.53 452.061 3226.07 
-3351.14 451.425 3225.53 
-3351.51 450.511 3224.88 
-3360.76 443.462 3204.59 
-3360.17 443.842 3204.65 
-3360.41 443.983 3204.38 
-3359.98 444.272 3204.48 
-3349.58 456.818 3226.6 
-3349.36 457.319 3226.32 
-3349.14 458.114 3226.12 
-3348.79 458.957 3225.55 
-3349.4 461.615 3226.97 
-3381.88 431.312 3205.85 
-3382.91 431.664 3204.91 
-3379.39 428.94 3205.34 
-3381.13 430.595 3204.64 
-3381.18 430.573 3204.41 
-3379.59 429.297 3204.18 
-3380.39 429.946 3203.93 
-3379.02 428.868 3203.75 
-3382.63 433.672 3205.46 
-3383.11 432.611 3204.32 
-3383.49 431.733 3203.11 
-3374.11 446.942 3221.44 
-3377.87 440.438 3215.05 
-3378.9 438.478 3213.64 
-3377.32 441.76 3215.45 
-3371.67 450.16 3226.06 
-3370.67 452.847 3228.72 
-3366.98 439.261 3250.35 
-3366.86 448.668 3250.64 
-3367.18 458.936 3249.21 
-3368.55 455.56 3237.36 
-3380.26 435.576 3211.69 
-3382.03 434.632 3207.32 
-3382.36 434.465 3205.99 
-3335.2 470.996 3216.24 
-3335.57 470.791 3216.41 
-3337.99 461.634 3218.29 
-3337.46 466.112 3217.6 
-3336.26 470.68 3216.64 
-3335.9 470.824 3216.5 
-3334.4 472.911 3216.14 
-3334.88 472.388 3216.1 
-3338.44 461.692 3218.41 
-3338.84 461.374 3218.57 
-3329.45 479.355 3218.92 
-3330.02 479.023 3218.44 
-3330.86 478.024 3218.46 
-3331.52 477.93 3217.81 
-3331.82 476.364 3217.87 
-3332.1 477.162 3217.4 
-3331.79 477.273 3217.64 
-3332.2 475.8 3217.5 
-3332.01 477.872 3217.26 
-3333.41 473.708 3216.3 
-3333.95 472.909 3216.25 
-3333.12 474.389 3215.88 
-3332.95 475.221 3216.45 
-3332.68 476.052 3216.34 
-3348.97 450.271 3289.68 
-3354.47 451.212 3273.77 
-3350.32 458.227 3272.16 
-3349.76 467.084 3272.86 
-3346.32 467.962 3273.72 
-3342.94 468.252 3272.16 
-3339.08 473.144 3260.45 
-3333.81 476.566 3254.63 
-3332.38 475.937 3257.34 
-3342.08 471.139 3264.76 
-3331.97 474.476 3265.05 
-3332.57 474.932 3261.46 
-3339.76 482.131 3246.66 
-3340.69 482.057 3244.12 
-3341.22 482.318 3243.32 
-3341.73 482.486 3242.24 
-3341.1 482.223 3241.12 
-3338.52 481.026 3250.2 
-3337.2 479.582 3250.87 
-3337.32 478.629 3252.55 
-3336.32 477.539 3253.05 
-3335.18 476.067 3255.15 
-3335.57 475.659 3256.97 
-3333.25 474.315 3264.85 
-3339.5 481.244 3237.37 
-3340.33 481.482 3238.49 
-3341.13 481.821 3239.85 
-3338.83 480.821 3235.89 
-3337.5 480.386 3233.15 
-3336.27 480.493 3230.63 
-3333.59 480.365 3226.04 
-3330.75 481.198 3222.67 
-3330.4 481.358 3221.71 
-3331.09 480.683 3222.34 
-3330.57 480.977 3221.24 
-3330.7 480.664 3220.76 
-3330.13 481.316 3220.02 
-3329.96 481.453 3219.52 
-3329.8 481.547 3218.96 
-3338.77 480.477 3234.99 
-3338.26 480.331 3234.2 
-3338.05 480.359 3233.67 
-3329.59 480.399 3217.96 
-3329.71 481.437 3217.92 
-3329.87 480.997 3217.31 
-3330 481.125 3218.54 
-3342.67 464.714 3220.65 
-3341.74 464.563 3220.04 
-3342.98 467.386 3221.53 
-3345.64 467.73 3225.15 
-3342.84 468.688 3221.72 
-3340.69 470.825 3219.37 
-3339.93 470.419 3218.7 
-3349.44 469.96 3229.42 
-3346.8 472.291 3227.5 
-3349.69 468.561 3229.47 
-3350 467.608 3229.52 
-3349.89 464.103 3228.15 
-3350.82 467.067 3229.71 
-3339.98 461.222 3219.13 
-3340.59 466.114 3219.13 
-3350.14 453.167 3226.57 
-3350.11 452.618 3226.1 
-3350.4 452.971 3226.97 
-3350.76 452.141 3226.17 
-3350.06 455.954 3227.12 
-3349.87 456.591 3226.94 
-3351.74 449.087 3224.17 
-3351.71 450.541 3224.85 
-3351.39 451.371 3225.44 
-3369.89 438 3201.11 
-3368.71 443.689 3200.66 
-3368.83 438.541 3201.15 
-3370.72 440.042 3200.76 
-3371.88 436.793 3201.17 
-3372.8 438.122 3200.49 
-3372.78 438.56 3200.22 
-3360.95 443.69 3204.3 
-3359.87 444.611 3204.35 
-3360.04 444.101 3204.87 
-3360.07 444.539 3204.14 
-3360.55 444.225 3204.12 
-3359.9 444.562 3204.62 
-3360.09 444.069 3205.55 
-3359.87 444.744 3205.19 
-3360.12 443.585 3207.83 
-3360.21 443.95 3211.65 
-3359.02 444.293 3214.28 
-3360.15 443.597 3211.39 
-3350.54 460.212 3227.29 
-3350.29 461.124 3227.41 
-3350.16 462.117 3227.6 
-3350.67 463.629 3228.34 
-3383.16 431.467 3204.69 
-3381.87 431.183 3205.05 
-3383.8 431.133 3201.65 
-3383.87 430.892 3201.94 
-3382.04 431.222 3204.87 
-3382.19 431.069 3204.65 
-3381.36 430.566 3204.27 
-3380.75 430.075 3203.88 
-3382.48 434.236 3204.67 
-3383.19 432.82 3203.19 
-3383.6 431.601 3201.61 
-3383.87 431.354 3200.97 
-3374.83 446.578 3218.98 
-3377.15 442.191 3214.54 
-3380.36 437.486 3208.79 
-3380.85 436.501 3208.85 
-3381.06 435.761 3209.43 
-3380.04 438.291 3208.43 
-3373.2 449.987 3220.36 
-3370.95 455.169 3226.21 
-3366.5 441.285 3252.55 
-3367.04 452.859 3252.76 
-3367.53 466.36 3251.64 
-3368.76 463.39 3240.99 
-3369.9 459.019 3231.04 
-3382.09 435.337 3205.99 
-3382.24 435.024 3204.54 
-3335.29 472.061 3216.07 
-3335.63 472.027 3216.12 
-3338.34 466.015 3217.83 
-3337.96 465.895 3217.76 
-3336.68 470.503 3216.81 
-3336.31 471.674 3216.47 
-3335.94 471.997 3216.25 
-3334.52 473.609 3215.97 
-3334.05 473.903 3215.83 
-3333.79 473.897 3215.99 
-3334.9 473.451 3215.94 
-3338.9 465.879 3218.12 
-3339.67 465.866 3218.58 
-3330.76 479.182 3217.58 
-3330.05 480.27 3217.38 
-3332.09 478.29 3217.15 
-3331.25 479.191 3217.17 
-3332.52 477.04 3216.79 
-3332.49 477.76 3216.96 
-3332.77 477.487 3216.82 
-3332.59 477.858 3217.04 
-3332.51 474.692 3215.22 
-3333.2 474.231 3215.32 
-3332.04 475.866 3214.72 
-3332.21 476.908 3215.48 
-3353.19 455.787 3268.89 
-3358.43 446.905 3271.34 
-3352.39 467.449 3270.31 
-3348.88 469.4 3270.84 
-3344.08 468.604 3271.69 
-3338.67 474.982 3255.73 
-3337.45 476.935 3251.19 
-3333.35 475.706 3257.15 
-3334.38 476.319 3254.64 
-3342.56 471.745 3263.53 
-3341.34 474.038 3257.37 
-3333.58 474.655 3262.07 
-3340.03 482.355 3248.03 
-3341.92 482.597 3244.84 
-3342.56 482.849 3246.34 
-3342.44 482.786 3243.41 
-3341.96 482.107 3241.09 
-3342.66 482.474 3242.45 
-3341.03 482.682 3248.93 
-3339.83 481.402 3251.24 
-3338.5 479.977 3251.87 
-3338.5 478.859 3253.68 
-3337.36 477.378 3254.62 
-3336.16 475.377 3258.06 
-3334.13 474.064 3265.38 
-3339.68 480.922 3236.68 
-3340.66 481.241 3238.1 
-3341.56 481.591 3239.55 
-3339.57 480.523 3235.61 
-3336.34 480.112 3229.18 
-3333.44 480.262 3225.43 
-3338.54 480.484 3233.22 
-3337.74 479.765 3231.5 
-3332.12 480.138 3222.75 
-3333.75 479.968 3225.04 
-3331.29 480.318 3221.86 
-3332.12 479.743 3222.37 
-3331.52 479.932 3221.41 
-3330.84 480.332 3220.32 
-3331.77 479.529 3220.98 
-3330.43 480.739 3219.8 
-3330.21 480.932 3219.17 
-3339.06 480.309 3234.68 
-3339.89 480.304 3235.18 
-3338.98 480.345 3234.15 
-3339.68 480.312 3234.65 
-3338.87 480.408 3233.76 
-3330.02 480.916 3217.88 
-3330.48 480.157 3217.2 
-3330.19 480.56 3217.57 
-3330.43 480.495 3218.86 
-3330.26 480.65 3218.35 
-3339.84 469.335 3218.59 
-3345.98 473.651 3226.63 
-3343.4 469.785 3222.82 
-3340.29 471.789 3219.2 
-3339.43 471.842 3218.34 
-3338.87 470.818 3217.95 
-3338.76 471.847 3217.84 
-3349.22 472.371 3229.5 
-3353.45 470.469 3231.85 
-3352.85 471.403 3231.66 
-3349.27 477.089 3228.27 
-3348.76 477.015 3227.85 
-3353.71 469.434 3231.87 
-3353.7 468.427 3231.71 
-3352.52 466.691 3230.05 
-3353.78 467.818 3231.3 
-3338.56 469.692 3217.68 
-3350.43 455.544 3228.16 
-3350.22 455.771 3227.62 
-3350.66 453.159 3227.62 
-3350.94 452.499 3226.66 
-3351.06 458.741 3226.83 
-3351.08 459.869 3227.22 
-3351.92 449.28 3224.18 
-3351.94 450.397 3224.74 
-3351.61 451.438 3225.42 
-3351.27 452.202 3226.02 
-3351.18 455.239 3227.94 
-3350.92 455.315 3228.32 
-3361.3 443.111 3204.56 
-3361.41 443.392 3204.27 
-3361.74 442.824 3204.42 
-3361.78 443.274 3204.16 
-3361.9 442.479 3204.12 
-3367.89 441.238 3201.05 
-3366.71 439.611 3201.62 
-3367.03 438.794 3201.58 
-3368.3 439.541 3201.16 
-3368.94 444.446 3200.58 
-3370.61 441.67 3200.65 
-3372.87 439.232 3200.1 
-3368.02 444.334 3200.94 
-3368.04 445.182 3200.75 
-3373.81 438.662 3199.71 
-3373.7 438.191 3199.78 
-3372.37 437.366 3200.99 
-3373.51 437.761 3200.25 
-3360.93 444.079 3204.02 
-3359.76 445.033 3203.98 
-3360.07 444.88 3203.88 
-3360.46 444.628 3203.86 
-3359.68 445.208 3204.12 
-3359.91 445.072 3206.16 
-3360.23 444.719 3208.23 
-3360.03 444.73 3206.76 
-3359.21 444.508 3214.37 
-3358.46 444.963 3215.54 
-3351.24 461.745 3227.48 
-3351.29 462.781 3228.29 
-3352.13 464.26 3229.11 
-3383.43 431.035 3204.3 
-3384.07 430.522 3201.75 
-3384.12 430.816 3200.97 
-3384.33 430.45 3201.06 
-3383.69 430.536 3203.77 
-3382.26 430.713 3204.28 
-3381.47 430.426 3204.01 
-3380.54 429.806 3203.58 
-3381.28 430.079 3203.64 
-3382.9 433.689 3202.89 
-3383.62 432.551 3201.33 
-3383.73 432.028 3201.13 
-3383.83 431.84 3200.75 
-3384 431.445 3200.57 
-3375.53 444.769 3215.73 
-3377.22 442.307 3212.94 
-3379.97 438.75 3207.31 
-3381.81 436 3205.35 
-3381.53 436.49 3205.04 
-3381.38 436.776 3204.73 
-3373.3 449.289 3218.27 
-3370.99 454.283 3221.42 
-3363.68 443.781 3256.06 
-3365.04 452.811 3255.43 
-3366.66 462.665 3255.34 
-3366.92 474.626 3254.81 
-3368.43 468.918 3244.63 
-3369.09 462.616 3234.67 
-3370.12 456.581 3223.91 
-3382.35 434.916 3203.25 
-3335.28 473.252 3215.95 
-3335.68 473.192 3215.95 
-3337.26 470.286 3217.09 
-3336.62 471.779 3216.62 
-3336.12 472.684 3216.22 
-3334.17 473.984 3215.27 
-3333.59 474.158 3215.13 
-3334.62 473.987 3215.45 
-3337.92 469.902 3217.39 
-3331.76 478.7 3217.43 
-3332.68 477.919 3217.13 
-3332.96 477.527 3216.97 
-3332.86 477.269 3216.26 
-3333.16 477.538 3217.08 
-3332.95 475.001 3215.08 
-3332.55 476.378 3215.07 
-3356.75 450.256 3266.11 
-3355.91 459.998 3265.95 
-3354.81 469.39 3268.17 
-3352.49 470.975 3267.84 
-3344.55 469.316 3270.14 
-3348.46 470.215 3268.84 
-3340.56 476.64 3250.67 
-3338.75 479.027 3244.81 
-3335.53 477.26 3251.49 
-3334.28 475.238 3257.98 
-3335.37 475.818 3255.07 
-3341.51 475.233 3254.54 
-3342.71 473.174 3260.14 
-3344.26 470.315 3267.69 
-3334.71 474.295 3263.06 
-3343.03 483.036 3244.52 
-3343.18 483.133 3246.04 
-3343.38 483.2 3246.95 
-3343.54 483.257 3247.82 
-3343.53 482.831 3243.9 
-3342.51 481.918 3240.97 
-3343.24 482.359 3242.54 
-3341.85 483 3250.11 
-3340.63 482.149 3251.05 
-3341.12 481.762 3252.29 
-3339.7 480.255 3252.93 
-3339.9 479.199 3254.88 
-3338.79 478.001 3255.42 
-3338.16 476.821 3256.53 
-3336.81 475.077 3259.12 
-3335.09 473.815 3265.87 
-3340.15 480.73 3236.5 
-3341.07 481.033 3237.85 
-3342.02 481.385 3239.33 
-3340.59 480.459 3236.1 
-3335.86 479.563 3226.57 
-3339.53 480.581 3233.35 
-3339.39 480.085 3232.27 
-3336.88 479.066 3228.11 
-3333.15 479.328 3222.49 
-3334.29 479.457 3224.52 
-3332.32 479.291 3221.97 
-3333.5 478.811 3222.35 
-3332.6 478.827 3221.59 
-3331.1 479.904 3219.89 
-3331.81 479.342 3220.5 
-3332.94 478.365 3221.2 
-3330.56 480.44 3219.43 
-3340.63 480.28 3235.62 
-3340.7 480.307 3235.11 
-3341.32 480.272 3235.59 
-3340.02 480.355 3234.52 
-3339.79 480.4 3234.13 
-3340.07 480.536 3233.8 
-3330.4 480.356 3218.07 
-3330.61 479.969 3217.55 
-3330.64 480.111 3218.63 
-3330.87 479.965 3219.24 
-3345.23 473.221 3225.64 
-3345.74 474.878 3226.2 
-3348.17 477.016 3227.23 
-3342.64 471.003 3222.05 
-3339.78 472.624 3218.99 
-3338.94 472.609 3218.2 
-3338.09 472.821 3217.49 
-3338.05 471.155 3217.51 
-3337.85 472.056 3217.27 
-3337.54 472.902 3217.03 
-3352.55 472.517 3231.55 
-3349.38 473.312 3229.63 
-3349.93 477.24 3228.73 
-3354.55 470.675 3232.47 
-3354.1 471.383 3232.31 
-3353.45 472.126 3232.05 
-3351.71 478.883 3229.79 
-3352.08 479.333 3229.74 
-3354.8 469.617 3232.46 
-3355.02 468.742 3232.35 
-3354.07 466.717 3230.55 
-3355.07 467.947 3231.84 
-3351.11 458.378 3226.58 
-3350.63 455.282 3228.9 
-3351.16 457.793 3226.64 
-3351.77 460.043 3227.19 
-3351.92 459.7 3226.76 
-3351.89 461.618 3227.44 
-3351.86 451.33 3225.29 
-3352.74 448.418 3222.91 
-3352.42 449.546 3223.83 
-3352.17 450.099 3224.48 
-3353.51 448.221 3221.79 
-3352.79 449.43 3222.87 
-3353.94 448.608 3221.07 
-3351.81 454.968 3226.38 
-3351.6 455.032 3226.79 
-3351.09 452.386 3226.35 
-3351.39 455.184 3227.44 
-3351.81 458.165 3226.19 
-3351.6 458.212 3226.31 
-3361.34 443.762 3204.03 
-3364.39 441.184 3202.39 
-3363.8 441.657 3202.78 
-3363.74 440.975 3202.89 
-3362.08 442.905 3204.1 
-3361.91 443.585 3203.97 
-3361.55 443.912 3203.91 
-3367.44 441.754 3201.23 
-3367.6 444.268 3201.23 
-3371.05 441.882 3200.57 
-3368.86 444.97 3200.64 
-3367.89 445.84 3200.69 
-3373.24 439.689 3200.06 
-3374.02 439.008 3199.79 
-3367.21 445.35 3201.22 
-3367.16 445.899 3201.02 
-3367.16 446.499 3200.83 
-3374.54 437.869 3199.4 
-3374.54 438.241 3199.47 
-3374.82 438.511 3199.47 
-3374.15 437.6 3199.46 
-3372.92 437.06 3201.07 
-3373.55 437.17 3200.49 
-3374.03 437.209 3199.66 
-3360.79 444.498 3203.8 
-3361.15 444.25 3203.84 
-3360.26 445.793 3203.49 
-3359.98 445.986 3203.54 
-3359.68 446.039 3204.35 
-3360.36 445.868 3207.39 
-3360.32 444.91 3209.09 
-3360.25 444.349 3211.76 
-3358.21 444.855 3215.68 
-3357.8 445.554 3217.31 
-3357.5 445.353 3217.45 
-3360.83 445.875 3210.89 
-3352.36 462.935 3228.96 
-3353.57 464.852 3229.9 
-3384.25 430.158 3201.77 
-3384.51 430.113 3201.16 
-3384.36 430.755 3200.61 
-3384.75 430.148 3200.71 
-3383.82 430.17 3203.54 
-3382.6 430.168 3203.79 
-3384.59 429.602 3201.68 
-3384.63 429.789 3201.37 
-3381.6 429.715 3203.28 
-3380.48 429.541 3203.17 
-3383.15 433.662 3202.15 
-3383.76 432.355 3200.78 
-3383.72 432.877 3201.3 
-3383.92 431.801 3200.3 
-3383.84 432.246 3200.4 
-3384.23 431.231 3200.18 
-3377.34 442.341 3211.03 
-3375.3 444.718 3213.82 
-3379.94 438.856 3206.54 
-3381.52 436.695 3204.13 
-3382.28 435.276 3203.07 
-3373.63 448.002 3215.81 
-3372.41 449.951 3215.16 
-3361.94 454.404 3258.86 
-3360.82 446.709 3259.63 
-3363.36 463.24 3258.92 
-3365.27 473.471 3258.33 
-3366.52 474.687 3251.53 
-3363.75 476.719 3256.1 
-3360.98 477.157 3250.67 
-3361.24 477.172 3249.03 
-3365.88 473.392 3248.47 
-3368.02 466.655 3240.2 
-3368.77 460.476 3230.02 
-3369.91 455.612 3219.82 
-3335.17 473.795 3215.7 
-3335.97 473.606 3216.14 
-3335.55 474.038 3216.04 
-3337.24 471.401 3217.02 
-3336.75 472.423 3216.59 
-3336.36 473.067 3216.31 
-3334.2 474.586 3215.42 
-3333.66 474.721 3215.12 
-3335.03 474.296 3215.83 
-3334.64 474.725 3215.77 
-3331.96 478.575 3217.71 
-3332.97 477.814 3217.22 
-3333.24 477.386 3216.61 
-3333.18 476.753 3215.8 
-3333.45 477.469 3217.14 
-3333.5 477.332 3216.69 
-3333.43 475.718 3215.34 
-3365.79 440.347 3259.97 
-3362.7 443.513 3263.95 
-3358.04 451.002 3262.64 
-3357.38 470.083 3265.68 
-3359.51 460.63 3262.4 
-3351.66 471.722 3265.92 
-3355.72 472.57 3264.72 
-3347.89 471.025 3266.82 
-3339.26 478.804 3245.67 
-3336.23 476.897 3252.1 
-3335.22 474.863 3258.94 
-3336.18 474.958 3257.41 
-3336.62 476 3253.66 
-3339.75 478.671 3246.27 
-3341.69 476.224 3252.24 
-3342.81 474.585 3256.77 
-3344.73 471.267 3265.55 
-3335.93 473.576 3266.31 
-3335.99 474.144 3262.58 
-3343.85 483.356 3245.6 
-3344.55 483.647 3246.83 
-3344.17 483.54 3247.72 
-3343.37 483.455 3250.48 
-3344.21 482.742 3244.11 
-3344.39 483.207 3245.38 
-3343.03 481.758 3240.91 
-3343.73 482.204 3242.47 
-3342.56 482.54 3252.84 
-3342.06 481.488 3253.92 
-3340.86 480.509 3253.98 
-3341.29 479.72 3255.8 
-3339.99 478.098 3256.78 
-3339.03 476.526 3258.1 
-3337.48 474.797 3260.21 
-3340.93 480.63 3236.75 
-3341.6 480.854 3237.74 
-3342.62 481.286 3239.47 
-3341.52 480.254 3236.09 
-3341.62 480.424 3236.68 
-3340.57 480.659 3233.3 
-3340.52 480.067 3232.03 
-3338.03 478.569 3229.49 
-3335.96 478.657 3227 
-3334.45 478.504 3222.2 
-3334.13 479.011 3222.87 
-3335.08 478.868 3224.05 
-3333.62 478.297 3221.94 
-3334.3 478.073 3221.93 
-3333.74 477.94 3221.23 
-3332.27 478.696 3219.83 
-3332.64 478.442 3220.24 
-3332.94 478.263 3220.7 
-3333.72 477.818 3220.42 
-3341.17 480.345 3235.06 
-3341.96 480.314 3235.59 
-3342.37 480.268 3236.06 
-3340.82 480.386 3234.65 
-3340.65 480.441 3234.26 
-3341.52 480.776 3233.54 
-3341.27 480.633 3233.96 
-3330.63 479.989 3218.07 
-3331.84 478.747 3217.99 
-3331.92 478.797 3218.65 
-3331.97 478.819 3219.05 
-3332.42 478.497 3219.43 
-3344.41 473.844 3224.97 
-3342.23 472.203 3221.78 
-3344.66 474.968 3226.08 
-3347.33 476.949 3226.85 
-3346.39 476.892 3227.05 
-3351.5 479.885 3229.49 
-3339.41 473.233 3218.9 
-3338.49 473.292 3218.07 
-3337.88 473.449 3217.55 
-3337.14 472.358 3216.81 
-3337.13 473.144 3216.82 
-3337.4 473.517 3217.19 
-3351.46 473.596 3230.85 
-3350.36 476.246 3229.73 
-3349.98 476.824 3228.81 
-3353.13 473.533 3231.93 
-3352.47 474.381 3231.48 
-3351.43 478.167 3229.86 
-3355.35 470.766 3232.95 
-3355.3 471.445 3233 
-3354.96 471.825 3232.84 
-3354.56 472.225 3232.65 
-3353.93 472.746 3232.37 
-3352.57 479.705 3230.29 
-3353.47 480.707 3230.38 
-3352.64 480.545 3230.57 
-3355.54 469.92 3232.89 
-3355.63 469.192 3232.58 
-3355.11 466.829 3230.86 
-3355.39 467.744 3231.68 
-3355.9 468.74 3232.38 
-3351.76 459.036 3226.25 
-3352.61 461.217 3227.34 
-3352.66 460.489 3226.67 
-3353.27 461.591 3227.31 
-3352.8 462.442 3228.13 
-3352.14 451.037 3225.03 
-3352.02 454.862 3225.95 
-3356 447.292 3219.07 
-3353.39 449.596 3221.64 
-3352.84 458.514 3225.57 
-3352.45 458.212 3225.84 
-3352.08 458.121 3226.05 
-3352.51 459.528 3225.79 
-3352.5 459.969 3226.07 
-3363.38 442.078 3203.14 
-3363.02 442.266 3203.44 
-3363.06 441.451 3203.48 
-3364.04 442.225 3202.55 
-3364.82 441.43 3202.18 
-3362.63 441.872 3203.82 
-3362.63 442.464 3203.75 
-3362.26 442.219 3204.05 
-3362.38 443.07 3203.9 
-3362.06 443.834 3203.93 
-3361.91 445.595 3203.46 
-3361.7 445.687 3203.44 
-3361.31 445.666 3203.47 
-3367.09 442.125 3201.51 
-3365.96 440.546 3201.75 
-3367.06 444.573 3201.53 
-3366.73 445.507 3201.52 
-3366.33 442.861 3201.74 
-3371.08 442.677 3200.61 
-3369.17 445.082 3200.72 
-3368.23 445.926 3200.7 
-3367.68 446.508 3200.82 
-3367.12 447.057 3200.97 
-3372.92 440.33 3200.18 
-3374.13 439.53 3200.07 
-3374.44 439.112 3199.77 
-3366.34 446.348 3201.7 
-3366.42 446.767 3201.46 
-3366.47 447.299 3201.22 
-3376.8 437.345 3198.66 
-3376.65 437.049 3198.61 
-3376.79 437.265 3198.65 
-3376.97 437.516 3198.68 
-3375.2 438.774 3199.45 
-3376.53 436.778 3198.59 
-3373.41 435.548 3201.36 
-3373.98 436.817 3200.03 
-3376.25 436.356 3198.71 
-3360.94 445.703 3203.47 
-3360.59 445.745 3203.48 
-3361.57 447.354 3203.16 
-3361.52 447.8 3203.31 
-3361.59 448.485 3203.49 
-3360.77 447.767 3203.59 
-3361.61 447.14 3203.12 
-3359.56 447.065 3204.35 
-3361.56 448.018 3207.64 
-3361.1 448.423 3206.62 
-3360.56 445.967 3212.35 
-3359.31 444.769 3214.61 
-3362.5 449.329 3209.26 
-3362.69 450.235 3210.39 
-3362.47 450.461 3210.96 
-3359.12 445.267 3215.35 
-3353.66 463.442 3229.96 
-3354.2 464.738 3230.11 
-3355.05 466.145 3230.24 
-3384.93 429.785 3200.84 
-3384.81 430.362 3200.29 
-3385.23 429.727 3200.37 
-3384.15 429.706 3203 
-3384.24 429.382 3202.88 
-3382.73 429.692 3203.36 
-3385.03 429.298 3201.27 
-3384.93 429.171 3201.62 
-3385.03 429.501 3201.01 
-3384.45 428.993 3202.63 
-3383.07 429.159 3202.89 
-3383.12 434.067 3202.13 
-3383.85 432.653 3200.75 
-3383.78 433.234 3201.42 
-3383.92 432.167 3200.03 
-3384.04 431.814 3199.83 
-3383.92 432.579 3200.28 
-3384.52 431.179 3199.72 
-3384.81 430.603 3199.96 
-3377.03 442.788 3210.45 
-3380.49 438.08 3205.01 
-3374.18 445.852 3211.95 
-3382 436.11 3203 
-3382.39 435.318 3202.66 
-3371.14 450.923 3213.27 
-3372.91 447.111 3209.51 
-3360.02 471.4 3263.17 
-3362.49 473.039 3260.92 
-3361.69 475.328 3259.4 
-3359.03 476.799 3244.68 
-3358.45 477.233 3249.82 
-3361.1 476.841 3255.16 
-3359.71 475.539 3258.52 
-3355.51 475.49 3244.62 
-3356.77 476.023 3244.09 
-3365.65 471.676 3245.37 
-3359.49 476.014 3243.18 
-3367.58 464.553 3236.16 
-3368.38 459.271 3226.14 
-3369.14 456.246 3218.78 
-3370.55 452.215 3213.21 
-3336.4 473.74 3216.52 
-3335.86 474.283 3216.37 
-3335.28 474.721 3216.18 
-3336.73 473.221 3216.56 
-3333.93 475.702 3215.69 
-3334.45 475.629 3216.03 
-3333.18 477.766 3217.43 
-3333.73 476.768 3216.24 
-3333.7 477.435 3217.21 
-3333.84 477.156 3216.8 
-3334.22 476.56 3216.5 
-3350.21 472.353 3264.15 
-3353.99 473.075 3263.2 
-3358.23 474 3261.85 
-3337.38 477.372 3251.18 
-3337.16 474.869 3256.85 
-3337.08 474.067 3261.85 
-3337.58 476.253 3252.88 
-3340.2 478.238 3247.75 
-3344.58 472.173 3263.37 
-3343.42 474.803 3256.55 
-3341.02 478.267 3247.68 
-3342.53 476.295 3252.49 
-3348.09 472.472 3263.46 
-3336.96 473.332 3266.63 
-3337.96 474.388 3261.51 
-3345.3 483.968 3248.16 
-3345.39 483.643 3247.11 
-3345.18 483.956 3249.35 
-3344.53 483.852 3251.6 
-3344.68 482.57 3243.99 
-3345.43 482.981 3245.49 
-3345.03 483.176 3245.72 
-3343.72 481.706 3241.21 
-3344.37 482.129 3242.69 
-3343.56 482.53 3254.13 
-3342.65 481.107 3255.27 
-3342.71 480.137 3256.91 
-3341.48 478.716 3257.65 
-3340.48 477.268 3258.73 
-3339.62 475.811 3259.99 
-3341.92 480.581 3237.26 
-3342.46 480.884 3238.37 
-3342.5 480.679 3237.87 
-3343.36 481.261 3239.88 
-3342.28 480.239 3236.58 
-3342.93 480.231 3236.53 
-3342.65 480.413 3237.3 
-3341.74 480.551 3232.66 
-3341.62 479.934 3231.65 
-3338.78 478.146 3229.8 
-3335.99 478.197 3227.78 
-3335.75 478.36 3223.86 
-3334.55 477.917 3221.49 
-3334.25 477.871 3221.16 
-3334.73 477.799 3220.99 
-3334.36 477.71 3219.83 
-3334.58 477.772 3220.29 
-3333.41 477.805 3219.3 
-3333.61 477.761 3219.78 
-3334.29 477.594 3219.05 
-3342.08 480.368 3235.29 
-3342.9 480.346 3235.77 
-3343.11 480.304 3236.13 
-3343.6 480.263 3236.6 
-3341.64 480.407 3234.86 
-3341.59 480.526 3234.32 
-3341.98 480.441 3234.78 
-3342.54 480.866 3233.65 
-3342.44 480.729 3234.11 
-3331.92 478.731 3218.3 
-3333.35 477.724 3217.79 
-3333.28 477.818 3218.52 
-3341.81 472.954 3221.57 
-3343.79 474.216 3225.21 
-3341.85 473.367 3222.03 
-3343.68 475.2 3226.32 
-3345.39 476.865 3227.28 
-3350.47 479.966 3229.77 
-3351.39 480.579 3230.95 
-3339.4 473.751 3219.23 
-3338.57 473.711 3218.32 
-3338.71 474.04 3218.67 
-3338.03 473.96 3217.89 
-3337.54 473.984 3217.5 
-3336.9 473.711 3216.89 
-3337.02 474.117 3217.17 
-3351.08 476.45 3230.43 
-3352.03 478.455 3230.45 
-3351.93 477.248 3230.86 
-3354.1 473.472 3232.53 
-3353.66 474.613 3232.29 
-3353.34 475.581 3231.95 
-3352.6 475.552 3231.59 
-3356.09 470.931 3233.54 
-3355.97 471.649 3233.62 
-3355.75 472.266 3233.55 
-3355.38 472.699 3233.27 
-3354.93 473.052 3232.97 
-3353.83 480.82 3230.67 
-3354.9 481.36 3231.17 
-3353.75 480.961 3231.51 
-3352.52 480.866 3231.58 
-3356.2 470.069 3233.16 
-3356.38 469.311 3232.79 
-3356.01 468.05 3231.97 
-3355.72 467.133 3231.12 
-3356.68 468.506 3232.5 
-3353.73 462.79 3228.67 
-3353.59 461.583 3226.82 
-3354.05 462.519 3227.56 
-3352.14 454.462 3225.57 
-3352.95 458.138 3225.08 
-3352.4 450.845 3224.58 
-3352.38 455.125 3224.99 
-3352.63 454.137 3224.15 
-3352.64 450.989 3223.76 
-3352.85 452.676 3223.21 
-3353.41 459.599 3225.05 
-3353.48 460.352 3225.22 
-3352.84 459.47 3225.59 
-3353.33 460.724 3225.6 
-3353.52 461.242 3226.23 
-3363.57 442.722 3202.9 
-3363.19 442.985 3203.2 
-3362.79 443.046 3203.55 
-3365.63 443.595 3201.96 
-3365.2 444.233 3202 
-3362.41 443.659 3203.84 
-3362.19 445.536 3203.47 
-3362.77 447.427 3202.93 
-3362.8 447.604 3202.95 
-3362.54 447.587 3202.96 
-3362.06 447.357 3203.03 
-3366.19 445.617 3202.01 
-3366.01 446.205 3202.11 
-3371.31 442.836 3200.72 
-3369.17 445.424 3200.78 
-3368.21 446.376 3200.8 
-3367.76 447.052 3201.01 
-3367.24 447.449 3201.12 
-3366.44 447.811 3201.29 
-3373.24 440.551 3200.32 
-3374.6 439.72 3200.15 
-3375.08 439.186 3199.68 
-3365.62 447.015 3201.99 
-3365.55 446.828 3202.23 
-3365.78 447.455 3201.69 
-3365.71 447.877 3201.52 
-3378.14 435.747 3197.66 
-3378.3 435.717 3197.66 
-3378.09 435.555 3197.63 
-3377.14 437.707 3198.71 
-3378.33 435.936 3197.73 
-3377.21 437.725 3198.68 
-3377.88 435.271 3197.84 
-3374 436.419 3200.39 
-3376.01 435.959 3198.88 
-3377.64 434.807 3198.1 
-3362.37 447.858 3203.01 
-3362.37 448.384 3203.22 
-3362.13 448.709 3203.44 
-3361.88 449.002 3203.65 
-3361.59 449.158 3203.78 
-3361.15 448.761 3203.74 
-3359.98 448.05 3205.23 
-3358.26 447.111 3204.07 
-3360.16 448.235 3203.83 
-3362.41 450.006 3209.04 
-3359.99 448.824 3205.78 
-3357.61 446.161 3217.79 
-3356.71 447.414 3218.32 
-3354.88 448.767 3219.9 
-3360.29 446.103 3212.95 
-3361.92 449.968 3211.67 
-3362.67 450.792 3210.96 
-3362.43 451.345 3211.43 
-3362.64 451.53 3211.29 
-3359 445.814 3216.01 
-3358.47 446.081 3217.02 
-3358.49 445.676 3216.55 
-3360.08 446.475 3213.57 
-3354.38 464.215 3229.4 
-3354.95 465.48 3229.6 
-3355.53 466.283 3230.31 
-3380.85 429.467 3203 
-3380.8 429.118 3202.65 
-3379.88 429 3202.7 
-3385.38 429.367 3200.57 
-3385.4 429.818 3199.94 
-3385.7 429.275 3200.11 
-3384.99 428.931 3201.82 
-3385.47 429.091 3200.75 
-3385.47 428.922 3200.99 
-3385.46 428.776 3201.21 
-3384.72 428.617 3202.35 
-3384.49 428.288 3202.15 
-3382.17 429.131 3202.78 
-3382.46 428.702 3202.4 
-3385.3 428.663 3201.63 
-3383.19 434.307 3201.9 
-3383.94 432.917 3200.83 
-3383.93 433.386 3201.27 
-3383.98 432.353 3199.73 
-3384.05 432.135 3199.39 
-3384.39 431.607 3199.37 
-3384.02 433.013 3200.6 
-3384.03 432.73 3200.08 
-3384.79 431.04 3199.33 
-3385.13 430.406 3199.62 
-3376.75 442.999 3209.43 
-3380.18 438.467 3204.84 
-3381.77 436.424 3202.53 
-3376.17 443.353 3208.35 
-3382.82 435.02 3201.93 
-3372.35 447.412 3207.98 
-3375.82 443.469 3206.79 
-3357.13 475.287 3241.57 
-3355.28 477.009 3248.23 
-3358.76 476.888 3254.6 
-3356.71 475.425 3258.2 
-3353.71 474.25 3244.39 
-3356.02 474.32 3260.66 
-3353.38 472.412 3241.78 
-3355.27 473.859 3241.7 
-3365.24 470.427 3242.78 
-3359.89 474.996 3241.92 
-3358.36 475.51 3240.54 
-3366.69 464.808 3235.67 
-3367.24 460.938 3228.02 
-3368.06 457.789 3220.69 
-3369.89 453.182 3213.26 
-3372.42 447.419 3206.74 
-3336.4 474.252 3216.76 
-3335.81 474.832 3216.59 
-3334.94 475.545 3216.35 
-3333.91 477.403 3217.44 
-3334.22 476.936 3217.01 
-3334.6 476.346 3216.73 
-3352.37 473.773 3261.24 
-3338.06 475.409 3254.21 
-3338.19 474.261 3259.4 
-3338.03 473.481 3264.46 
-3338.82 476.903 3251.94 
-3341.32 477.871 3249.05 
-3341.84 477.488 3250.19 
-3345 473.949 3259.25 
-3345.03 472.802 3262.03 
-3348.4 473.454 3261.21 
-3338.87 473.605 3264.62 
-3338.74 474.214 3262.4 
-3346 484.172 3249.47 
-3346.4 484.004 3248.66 
-3345.94 483.502 3247.11 
-3346.42 484.461 3250.34 
-3345.63 484.24 3252.62 
-3345.31 482.476 3244.15 
-3346.02 482.859 3245.56 
-3346.39 483.305 3246.91 
-3344.31 481.561 3241.23 
-3344.87 481.998 3242.68 
-3344.58 482.891 3254.83 
-3343.94 481.616 3256.07 
-3344.25 480.694 3257.96 
-3343.06 479.325 3258.66 
-3341.96 477.972 3259.46 
-3340.98 476.465 3260.66 
-3340.6 475.212 3262.19 
-3343.21 480.527 3237.95 
-3343.27 480.882 3238.87 
-3343.5 480.693 3238.55 
-3343.96 481.098 3239.85 
-3343.11 480.221 3237.04 
-3344.03 480.216 3237.09 
-3343.77 480.355 3237.87 
-3342.92 480.629 3232.66 
-3343.42 480.36 3231.83 
-3341.89 479.223 3230.9 
-3339.46 477.488 3229.94 
-3336.09 477.772 3228.89 
-3335.95 478.108 3223.15 
-3337.75 477.422 3225.82 
-3335.39 477.648 3220.96 
-3334.98 477.723 3221.28 
-3335.15 477.738 3220.29 
-3336.18 477.323 3220.51 
-3334.82 477.439 3218.66 
-3335.01 477.531 3219.18 
-3335.28 477.536 3219.51 
-3333.7 477.6 3218.33 
-3334 477.552 3218.66 
-3334.62 477.282 3217.94 
-3342.82 480.406 3235.36 
-3343.61 480.378 3235.86 
-3344.01 480.334 3236.31 
-3344.35 480.293 3236.73 
-3344.77 480.252 3237.16 
-3342.36 480.502 3234.64 
-3343.17 480.682 3234.45 
-3343.09 480.451 3235.18 
-3343.62 480.956 3233.6 
-3343.61 480.887 3234.11 
-3343.15 474.507 3225.39 
-3341.43 473.769 3221.99 
-3344.24 476.742 3227.43 
-3342.63 475.447 3226.56 
-3348.73 479.523 3229.69 
-3350.13 480.473 3230.87 
-3351.63 481.031 3232.23 
-3350.55 480.865 3231.94 
-3339.11 474.376 3219.64 
-3338.63 474.42 3219.04 
-3338.09 474.398 3218.26 
-3338.04 474.788 3218.69 
-3337.52 474.457 3217.72 
-3336.96 474.599 3217.36 
-3336.41 474.721 3216.99 
-3352.51 477.561 3231.2 
-3353.99 480.576 3230.95 
-3354.42 474.454 3232.78 
-3354.96 473.725 3233.11 
-3354.14 475.335 3232.74 
-3353.73 475.914 3232.53 
-3353.02 476.091 3231.98 
-3353.09 477.953 3231.5 
-3356.57 471.882 3234.37 
-3356.73 470.837 3234.16 
-3356.35 472.54 3234.31 
-3356.01 473.111 3234.1 
-3355.63 473.557 3233.81 
-3355.75 481.542 3231.66 
-3354.55 481.309 3232.35 
-3353.15 481.228 3232.52 
-3356.89 469.857 3233.72 
-3357.05 469.127 3233.11 
-3356.46 467.78 3231.83 
-3356.26 467.109 3231.12 
-3357.2 468.086 3232.39 
-3357.75 468.468 3233.02 
-3354.48 463.81 3228.5 
-3354.28 462.233 3226.88 
-3354.58 463.23 3227.59 
-3353.18 458.076 3224.46 
-3353.62 459.523 3224.5 
-3352.89 455.845 3223.58 
-3353.33 457.811 3223.87 
-3354.03 460.788 3224.63 
-3354.32 461.428 3225.13 
-3354.01 461.41 3225.53 
-3354.16 461.815 3226.16 
-3364.62 444.842 3202.21 
-3363.6 444.969 3202.8 
-3363.09 443.588 3203.26 
-3362.72 443.72 3203.58 
-3365.37 446.106 3202.3 
-3364.18 446.507 3202.57 
-3362.47 445.47 3203.45 
-3362.95 447.289 3202.92 
-3363.13 447.596 3202.96 
-3363.14 447.796 3202.99 
-3362.96 447.868 3202.99 
-3362.66 447.861 3202.97 
-3365.34 446.588 3202.42 
-3371.48 442.966 3200.83 
-3371.44 443.331 3200.94 
-3369.07 445.869 3200.84 
-3368.39 446.662 3200.98 
-3367.92 447.46 3201.24 
-3367.36 447.912 3201.4 
-3366.76 448.092 3201.48 
-3366.22 448.24 3202.17 
-3365.74 448.26 3201.99 
-3373.56 440.709 3200.51 
-3374.65 440.155 3200.39 
-3375.5 439.321 3199.69 
-3375.63 439.5 3199.87 
-3375.04 439.773 3200.13 
-3365.02 447.895 3201.83 
-3364.87 447.641 3201.98 
-3364.68 447.331 3202.17 
-3364.99 448.344 3201.96 
-3378.26 435.164 3197.46 
-3378.26 435.545 3197.59 
-3378.61 434.876 3197.34 
-3378.39 435.188 3197.46 
-3378.68 435.165 3197.43 
-3378.56 435.561 3197.57 
-3378.13 434.817 3197.58 
-3378.57 435.889 3197.69 
-3377.37 437.895 3198.75 
-3378.63 436.141 3197.77 
-3377.89 434.635 3197.84 
-3375.83 435.55 3199.08 
-3373.91 434.353 3201.4 
-3374.34 435.685 3200.59 
-3377.55 434.481 3198.22 
-3378.12 434.214 3197.68 
-3362.7 448.236 3203.1 
-3362.8 448.664 3203.32 
-3362.44 448.799 3203.51 
-3362.17 449.14 3203.68 
-3361.97 449.404 3203.9 
-3361.35 449.776 3204.24 
-3361.7 449.486 3204.04 
-3357.74 447.858 3204.36 
-3359.92 448.989 3204.33 
-3361.17 450.26 3207.04 
-3362.9 450.96 3210.6 
-3358.8 449.266 3205.6 
-3356.99 447.483 3217.83 
-3353.56 451.693 3221.49 
-3361.56 450.519 3212.33 
-3361.82 451.363 3211.83 
-3362.82 451.728 3211.16 
-3362.05 451.939 3211.72 
-3362.48 452.289 3211.52 
-3358.12 446.849 3217.1 
-3359.86 446.861 3214 
-3358.99 446.289 3215.88 
-3355.26 465.309 3229.12 
-3355.58 465.898 3229.83 
-3356.19 466.495 3230.52 
-3381.73 428.556 3202.2 
-3385.94 429.037 3200.03 
-3385.37 430.023 3199.54 
-3385.74 429.397 3199.76 
-3385.94 429.117 3199.66 
-3386.08 428.875 3200.03 
-3386.04 428.736 3200.31 
-3385.95 428.595 3200.67 
-3385.64 428.437 3201.29 
-3384.52 427.859 3201.87 
-3384.13 427.657 3201.68 
-3383.44 434.151 3201.3 
-3383.81 433.485 3200.79 
-3384.04 432.522 3199.49 
-3384.06 432.317 3199 
-3384.35 431.815 3199.02 
-3383.74 433.351 3200.29 
-3383.87 432.973 3199.83 
-3384.5 431.481 3198.99 
-3384.95 430.718 3199.27 
-3380.29 438.247 3203.56 
-3381.84 436.171 3201.65 
-3382.63 435.206 3201.4 
-3380.17 438.256 3202.66 
-3376.48 442.629 3205.5 
-3355.32 473.181 3239.45 
-3356.83 474.169 3239.28 
-3353.44 476.73 3248.13 
-3350.56 471.57 3244.3 
-3351.89 472.369 3244.02 
-3356.57 477.076 3253.69 
-3355.08 475.819 3256.95 
-3352.12 474.593 3259.26 
-3351.95 471.426 3241.65 
-3353.95 472.439 3239.99 
-3353.29 472.539 3239.4 
-3364.97 467.888 3238.42 
-3361.06 473.474 3241.03 
-3358.9 474.6 3239.55 
-3357.86 474.34 3237.86 
-3366.1 463.106 3231.41 
-3366.57 460.141 3224.41 
-3368.79 455.66 3216.18 
-3369.87 451.82 3210.25 
-3372.92 446.403 3205.3 
-3378.51 440.049 3203.55 
-3335.71 475.415 3216.87 
-3335.35 475.49 3216.63 
-3334.26 477.317 3217.66 
-3334.58 476.752 3217.21 
-3335.01 476.098 3216.93 
-3338.84 475.25 3254.37 
-3339.19 473.471 3263.23 
-3339.17 474.408 3257.48 
-3339.51 473.479 3265.41 
-3339.78 475.908 3253.19 
-3342.38 477.317 3250.73 
-3345.48 474.572 3257.93 
-3349.59 474.68 3258.55 
-3347.34 484.523 3250.55 
-3346.84 483.789 3248.4 
-3347.38 484.219 3249.82 
-3347.09 484.728 3251.17 
-3347.7 484.959 3252.11 
-3346.78 484.703 3253.66 
-3345.58 483.457 3255.18 
-3345.82 482.309 3244.06 
-3346.55 482.714 3245.53 
-3346.95 483.158 3246.9 
-3347.31 483.616 3248.27 
-3344.83 481.392 3241.14 
-3345.36 481.821 3242.55 
-3345.3 482.311 3256.66 
-3345.83 481.55 3258.56 
-3344.92 480.079 3259.79 
-3343.66 478.732 3260.37 
-3342.39 477.308 3261.07 
-3341.94 476.04 3262.55 
-3341.88 474.902 3264.31 
-3344.24 480.513 3238.57 
-3344.23 480.828 3239.35 
-3344.63 480.657 3239.18 
-3344.74 480.975 3240.05 
-3343.93 480.191 3237.48 
-3345.3 480.216 3237.62 
-3344.88 480.183 3237.66 
-3344.78 480.175 3238 
-3344.83 480.34 3238.51 
-3344.24 480.689 3232.6 
-3340.76 476.638 3229.21 
-3341.35 476.619 3228.92 
-3343.5 479.555 3230.87 
-3344.93 480.437 3231.73 
-3342.08 474.772 3228.56 
-3341.27 475.483 3230.57 
-3338.5 477.069 3231.16 
-3336.71 477.654 3222.75 
-3338.78 476.678 3228.55 
-3337.57 477.072 3222.6 
-3335.97 477.209 3219.84 
-3337.09 476.593 3220.28 
-3338.2 476.477 3222.21 
-3335.03 477.036 3217.87 
-3335.23 477.131 3218.33 
-3335.45 477.153 3218.69 
-3335.97 476.951 3219.09 
-3334.77 476.826 3217.4 
-3335.13 476.627 3217.47 
-3344 480.421 3235.75 
-3344.65 480.37 3236.35 
-3345.13 480.324 3236.85 
-3345.6 480.283 3237.31 
-3346.06 480.241 3237.77 
-3343.25 480.528 3234.86 
-3344.35 480.878 3234.37 
-3344.33 480.719 3234.74 
-3343.99 480.473 3235.41 
-3344.64 481.062 3233.79 
-3342.58 474.85 3225.64 
-3341.25 474.094 3222.31 
-3343.19 476.659 3227.59 
-3347.15 479.181 3229.7 
-3342.4 476.684 3227.83 
-3341.68 475.635 3226.68 
-3348.83 480.431 3230.99 
-3349.47 480.778 3231.89 
-3351.92 481.387 3233.21 
-3350.65 481.262 3233.08 
-3349.39 481.138 3232.95 
-3338.62 475.023 3219.82 
-3338.06 475.12 3219.16 
-3337.25 474.932 3217.85 
-3337.13 475.311 3218.1 
-3337.08 475.687 3218.53 
-3336.62 475.185 3217.49 
-3336.09 475.352 3217.15 
-3355.18 480.811 3231.44 
-3356.25 481.77 3232.43 
-3354.94 474.241 3233.33 
-3354.59 475.224 3233.14 
-3354.49 474.495 3233.16 
-3355.5 474.064 3233.9 
-3354.46 475.995 3233.19 
-3353.98 476.625 3232.93 
-3353.44 476.454 3232.43 
-3353.61 478.201 3231.84 
-3357.3 471.842 3235.1 
-3356.96 472.7 3235.11 
-3357.53 470.607 3234.86 
-3356.63 473.141 3234.9 
-3356.31 473.565 3234.7 
-3356.07 473.958 3234.61 
-3355.55 481.642 3232.87 
-3354.34 481.615 3233.43 
-3353.1 481.565 3233.51 
-3357.78 469.345 3234.08 
-3357.05 467.493 3231.74 
-3356.92 466.857 3231.01 
-3357.97 467.592 3232.06 
-3358.86 468.237 3233.4 
-3359.1 467.388 3232.32 
-3355.2 464.842 3228.56 
-3354.71 462.396 3226.6 
-3354.95 463.249 3227.26 
-3355.14 464.241 3227.93 
-3353.84 459.486 3223.94 
-3354.29 460.608 3224.08 
-3353.5 457.651 3223.3 
-3353.33 456.088 3222.81 
-3354.03 459.409 3223.43 
-3354.72 461.224 3224.53 
-3354.63 462.015 3225.88 
-3354.97 461.877 3225.29 
-3363.29 445.63 3202.96 
-3363.56 446.861 3202.83 
-3363.29 446.654 3202.85 
-3362.96 445.545 3203.2 
-3362.67 445.356 3203.41 
-3364.52 446.811 3202.4 
-3363.94 447.165 3202.57 
-3363.07 446.925 3202.88 
-3363.3 447.22 3202.92 
-3363.52 447.836 3203.01 
-3363.52 447.452 3202.95 
-3363.38 448.032 3203.03 
-3363.27 448.235 3203.1 
-3362.93 448.085 3203.04 
-3371.6 443.398 3201.04 
-3373.63 441.199 3200.84 
-3369.73 445.608 3200.99 
-3368.98 446.464 3201.11 
-3368.53 447.149 3201.26 
-3368.07 447.771 3201.5 
-3367.41 448.351 3201.78 
-3366.74 448.506 3202.02 
-3365.75 448.938 3202.41 
-3366.27 449.023 3202.49 
-3364.93 448.815 3202.39 
-3374.53 440.783 3200.75 
-3375.54 439.765 3200.15 
-3377.43 438.043 3198.93 
-3377.45 438.166 3199.11 
-3364.44 448.391 3202.34 
-3364.35 448.123 3202.38 
-3364.18 447.812 3202.49 
-3363.92 447.496 3202.67 
-3364.34 448.737 3202.45 
-3378.54 434.6 3197.35 
-3379.31 434.561 3197.21 
-3379.19 434.313 3197.28 
-3379.42 434.815 3197.28 
-3378.86 435.485 3197.55 
-3378.35 434.351 3197.48 
-3379 435.72 3197.57 
-3379.05 436.024 3197.66 
-3378.73 436.288 3197.85 
-3375.82 435.038 3199.33 
-3377.43 434.311 3198.36 
-3377.96 434.068 3197.85 
-3378.46 433.738 3197.57 
-3378.54 433.859 3197.53 
-3378.72 433.918 3197.5 
-3363.05 448.462 3203.22 
-3363.16 448.88 3203.42 
-3362.84 449.173 3203.61 
-3362.45 449.377 3203.79 
-3362.55 449.75 3204.15 
-3362.17 449.687 3204.3 
-3361.79 449.97 3204.79 
-3362 450.89 3207.5 
-3363.09 451.71 3210.49 
-3354.32 450.94 3220.2 
-3353.29 454.897 3222.51 
-3360.98 450.136 3213.1 
-3361.15 451.353 3212.43 
-3360.92 451.088 3213 
-3361.24 451.879 3212.19 
-3362.77 452.709 3211.39 
-3363 452.442 3211.16 
-3361.58 452.458 3212.05 
-3362.11 452.914 3211.79 
-3358.26 447.317 3216.62 
-3355.72 449.83 3218.49 
-3359.65 447.575 3214.52 
-3355.87 465.315 3229.03 
-3355.95 465.813 3229.69 
-3356.6 466.252 3230.23 
-3383.87 427.46 3201.44 
-3381.3 428.287 3201.91 
-3383.79 427.155 3201.15 
-3383.59 427.002 3200.88 
-3380.97 427.972 3201.58 
-3386.11 428.951 3199.53 
-3385.12 430.366 3199.24 
-3385.55 429.622 3199.49 
-3385.77 429.183 3199.41 
-3386.39 428.755 3199.54 
-3386.52 428.59 3199.7 
-3386.4 428.326 3200.11 
-3385.9 427.823 3201 
-3386.07 426.924 3200.9 
-3386.4 427.571 3200.25 
-3383.29 434.179 3200.66 
-3383.75 432.875 3199.22 
-3383.73 432.689 3198.81 
-3384 432.22 3198.76 
-3383.34 433.819 3200.06 
-3383.49 433.413 3199.66 
-3384.21 431.853 3198.71 
-3384.69 431.098 3198.98 
-3381.72 436.112 3201.01 
-3382.45 435.289 3200.81 
-3380.74 437.21 3201.23 
-3354.74 473.412 3238.08 
-3355.83 473.895 3237.38 
-3356.68 473.951 3237.51 
-3351.85 476.432 3248.3 
-3349.35 470.694 3244.17 
-3350.77 470.953 3241.85 
-3353.58 476.246 3255.65 
-3351.11 476.574 3249.23 
-3352.15 472.092 3239.97 
-3353.18 473.235 3238 
-3354.37 473.811 3237.15 
-3364.94 465.568 3234.77 
-3361.2 472.588 3239.63 
-3359.57 473.752 3239.04 
-3358.31 473.786 3237.41 
-3357.14 474.228 3236.7 
-3357.41 473.989 3236.45 
-3365.21 462.645 3228.81 
-3365.99 459.782 3222.07 
-3367.6 457.408 3218.39 
-3368.76 454.198 3213.07 
-3370.18 450.134 3207.06 
-3378.56 439.801 3203.09 
-3373.02 445.731 3204.58 
-3381.09 436.523 3200.17 
-3381.75 435.806 3200.06 
-3335.25 476.135 3217.13 
-3339.99 473.177 3266.15 
-3340.59 473.045 3266.63 
-3340.43 473.302 3262.99 
-3339.68 474.226 3258.28 
-3340.5 475.742 3253.45 
-3342.82 477.314 3250.84 
-3343.4 477.223 3251.2 
-3346.11 475.359 3256.25 
-3349.41 475.482 3256.63 
-3348.27 484.477 3251.03 
-3348.34 484.867 3252.05 
-3347.86 484.051 3249.71 
-3348.37 485.225 3253.13 
-3348.18 485.113 3254.74 
-3346.63 483.945 3255.71 
-3346.28 482.14 3243.94 
-3347.01 482.543 3245.4 
-3347.58 483.046 3247.02 
-3347.86 483.507 3248.35 
-3348.43 483.965 3249.85 
-3345.33 481.284 3241.2 
-3346.05 481.728 3242.76 
-3346.75 483.063 3257.27 
-3347.35 482.333 3259.21 
-3346.43 480.718 3260.65 
-3344.99 478.899 3261.78 
-3343.54 477.534 3262.16 
-3343.11 476.329 3263.56 
-3343.57 475.786 3265.05 
-3342.71 474.38 3266.19 
-3345.3 480.481 3239.16 
-3345.28 480.772 3239.88 
-3345.8 480.606 3239.79 
-3345.79 480.881 3240.48 
-3345.69 481.04 3240.81 
-3346.38 480.195 3238.2 
-3345.87 480.161 3238.21 
-3345.69 480.151 3238.52 
-3345.9 480.303 3239.1 
-3345.37 480.843 3232.84 
-3341.76 474.935 3227.51 
-3341.38 476.732 3228.67 
-3341.04 475.462 3227.1 
-3344.72 479.508 3230.57 
-3346.35 480.283 3231.12 
-3346.03 480.625 3232.08 
-3339.58 476.25 3227.41 
-3336.94 476.423 3219.55 
-3338.04 475.788 3220.08 
-3339.12 475.754 3222.22 
-3340.46 475.699 3226.46 
-3335.5 476.695 3217.78 
-3335.59 476.345 3217.55 
-3335.88 476.634 3218.13 
-3336.7 476.262 3218.77 
-3335.69 475.951 3217.31 
-3344.94 480.451 3235.95 
-3345.09 480.408 3236.29 
-3345.71 480.359 3236.87 
-3346.36 480.315 3237.42 
-3346.84 480.268 3237.93 
-3347.25 480.222 3238.39 
-3344.13 480.532 3235.15 
-3345.46 480.939 3234.58 
-3345.43 481.073 3234.26 
-3345.97 480.887 3234.86 
-3345.08 480.683 3235.06 
-3345.06 480.493 3235.73 
-3345.74 481.161 3233.8 
-3340.93 474.385 3222.44 
-3341.88 474.998 3225.57 
-3345.18 478.685 3229.66 
-3347.54 480.288 3230.91 
-3341.03 476.453 3227.83 
-3340.65 475.873 3227.03 
-3341.4 475.439 3226.19 
-3348.37 480.758 3232.03 
-3351.75 481.728 3234.36 
-3350.77 481.632 3234.26 
-3349.8 481.535 3234.13 
-3348.8 481.445 3234.09 
-3348.04 481.078 3233.03 
-3337.68 475.7 3219.39 
-3340.41 474.733 3222.28 
-3336.36 475.664 3217.66 
-3336.23 476.074 3217.88 
-3355.89 481.012 3232.28 
-3356.56 481.973 3233.65 
-3355.5 481.827 3233.82 
-3354.81 474.257 3233.84 
-3354.41 475.17 3233.28 
-3354.06 474.352 3233.54 
-3355.59 474.263 3234.46 
-3354.47 476.759 3233.4 
-3354.47 476.016 3233.38 
-3354.62 478.64 3232.93 
-3354.59 478.822 3232.59 
-3354.01 478.29 3232.23 
-3358.49 471.527 3236.09 
-3357.91 472.421 3235.98 
-3357.26 473.101 3235.72 
-3359.16 469.646 3235.14 
-3356.92 473.515 3235.51 
-3356.75 473.904 3235.51 
-3356.27 474.23 3235.21 
-3354.51 482.002 3234.69 
-3353.66 481.905 3234.5 
-3352.68 481.836 3234.54 
-3357.64 467.026 3231.31 
-3357.42 466.298 3230.37 
-3359.04 466.691 3231.3 
-3360.24 467.481 3233.25 
-3360.33 466.591 3231.88 
-3355.72 464.765 3228.33 
-3355.12 462.63 3226.47 
-3355.41 463.462 3227.06 
-3355.57 464.144 3227.67 
-3354.55 460.416 3223.61 
-3355.01 461.004 3224.03 
-3354.26 457.054 3221.84 
-3354.08 457.943 3222.47 
-3354.19 459.192 3222.9 
-3354.68 460.093 3223.09 
-3355.39 461.638 3224.62 
-3355.33 462.535 3226.03 
-3355.68 462.299 3225.37 
-3363.81 448.159 3202.93 
-3363.61 448.42 3203.15 
-3363.38 448.655 3203.31 
-3371.91 443.541 3201.17 
-3373.6 441.693 3201.13 
-3369.61 445.795 3201.36 
-3369.16 446.91 3201.49 
-3368.72 447.442 3201.49 
-3368.21 448.094 3201.83 
-3367.72 448.468 3201.98 
-3367.18 448.964 3202.28 
-3366.69 449.047 3202.47 
-3365.53 449.256 3202.87 
-3364.93 449.083 3202.73 
-3366.11 449.339 3202.85 
-3364.31 449.107 3202.63 
-3374.97 440.719 3200.86 
-3373.91 441.819 3201.3 
-3375.55 439.891 3200.39 
-3377.46 438.28 3199.28 
-3379.01 436.284 3197.82 
-3363.98 448.5 3202.78 
-3363.98 448.899 3202.77 
-3378.79 434.213 3197.41 
-3380.05 434.289 3197.11 
-3379.82 434.107 3197.22 
-3379.42 433.935 3197.37 
-3379.9 434.732 3197.23 
-3379.72 435.129 3197.38 
-3379.8 435.386 3197.45 
-3379.65 435.777 3197.55 
-3377.38 433.929 3198.46 
-3375.75 434.657 3199.53 
-3374.68 434.614 3201.01 
-3377.81 433.958 3198.02 
-3378.28 433.639 3197.65 
-3379.28 433.256 3197.5 
-3379.01 433.063 3197.64 
-3379.21 433.729 3197.47 
-3380.08 432.817 3197.44 
-3363.23 449.276 3203.61 
-3363.54 449.08 3203.4 
-3363.3 449.688 3203.91 
-3362.94 449.684 3203.99 
-3363.12 450.1 3204.42 
-3362.75 450.231 3204.71 
-3362.21 450.468 3205.43 
-3362.41 451.327 3207.59 
-3363.51 452.445 3209.94 
-3363.22 452.632 3210.84 
-3354.71 454.786 3219.36 
-3355.24 455.813 3219.08 
-3355.29 456.617 3219.61 
-3360.57 450.838 3213.64 
-3358.83 453.377 3213.77 
-3358.5 453.202 3214.08 
-3358.08 453.21 3214.59 
-3359.06 453.705 3213.69 
-3363.08 453.376 3211.28 
-3362.48 453.391 3211.63 
-3359.34 453.974 3213.61 
-3361.43 453.011 3212.19 
-3361.71 453.466 3212.08 
-3356.79 451.97 3216.79 
-3359.41 448.577 3215.01 
-3355.18 454.465 3218.33 
-3356.41 465.21 3228.84 
-3356.5 465.739 3229.54 
-3357.08 465.789 3229.55 
-3386.32 426.074 3200.68 
-3386.58 425.38 3200.32 
-3380.67 427.658 3201.24 
-3383.35 426.884 3200.6 
-3381.06 427.338 3200.83 
-3386.32 424.881 3200.3 
-3385.9 429.002 3199.26 
-3386.17 428.829 3199.31 
-3384.84 430.755 3198.94 
-3385.29 429.974 3199.21 
-3385.52 429.46 3199.13 
-3386.45 428.638 3199.33 
-3386.65 428.398 3199.42 
-3386.71 427.698 3199.52 
-3386.64 426.764 3200.01 
-3383.03 434.385 3200.16 
-3383.37 433.287 3199.02 
-3383.33 433.17 3198.72 
-3383.54 432.787 3198.63 
-3383.75 432.353 3198.57 
-3382.94 434.238 3199.57 
-3383.11 433.803 3199.37 
-3384.45 431.429 3198.71 
-3384.02 431.941 3198.5 
-3382.11 435.528 3200.4 
-3382.52 435.02 3200.02 
-3355.17 474.098 3236.54 
-3356.23 474.176 3236.53 
-3348.46 470.716 3244.74 
-3348.96 470.519 3242.19 
-3350.22 471.121 3241.37 
-3351.62 472.298 3239.42 
-3353.03 476.937 3253.79 
-3349.68 476.512 3249.68 
-3347.97 470.89 3244.32 
-3352.73 473.572 3237.2 
-3353.64 473.99 3236.4 
-3354.17 474.056 3236.08 
-3364.34 464.25 3231.3 
-3363.87 466.217 3234.6 
-3361.69 471.458 3238.78 
-3358.81 473.176 3237.49 
-3359.56 472.691 3237.93 
-3357.56 473.517 3236.35 
-3356.82 474.222 3235.97 
-3356.03 474.211 3235.8 
-3364.59 462.497 3227.25 
-3365.26 460.061 3221.45 
-3367.41 456.792 3216.44 
-3368.94 452.36 3209.45 
-3370.08 449.527 3205.82 
-3378.74 439.382 3202.36 
