-3024.07 198.932 1014.9 
-2986.84 233.077 984.247 
-2988.18 230.515 986.397 
-2988.45 229.464 986.351 
-2988.94 228.483 985.789 
-2988.38 228.911 985.128 
-2989.71 228.153 987.481 
-2990.34 227.849 988.427 
-2985.82 234.531 981.068 
-2983.87 234.821 977.257 
-2991.16 227.986 995.347 
-2990.51 228.201 994.327 
-2991.45 227.716 997.32 
-2990.76 227.627 991.601 
-2991.11 227.429 989.962 
-2992.1 227.33 997.824 
-2992.3 227.104 999.334 
-2992.85 226.512 1000.6 
-2993.13 225.927 989.377 
-2993.35 225.977 990.255 
-2979.25 240.758 976.354 
-2980.58 238.829 975.744 
-2980.73 237.701 975.079 
-2981.72 236.456 974.187 
-2981.9 234.795 973.714 
-2995.39 224.783 1000.46 
-2994.73 225.366 1000.24 
-2995.98 224.284 1000.61 
-2996.69 223.036 1001.08 
-2997.57 223.444 998.795 
-2997.32 223.952 998.139 
-2996.81 224.328 998.602 
-2997.07 222.648 1000.87 
-2997.65 221.959 1000.93 
-2999.67 218.063 999.816 
-2998.22 221.214 1000.71 
-2998.85 220.413 999.808 
-2999.92 217.994 998.441 
-3000.59 217.56 997.22 
-3000.55 215.987 994.842 
-3001.63 214.939 993.352 
-3002.57 214.686 992.704 
-3000.34 217.09 995.647 
-3005.15 210.854 990.408 
-3007.71 207.558 988.619 
-3009.6 205.36 987.848 
-3011.32 204.111 988.85 
-3013.36 202.92 991.442 
-3013.66 202.826 994.405 
-3014.49 202.19 996.736 
-3015.04 201.464 999.548 
-3015.73 200.135 1001.79 
-3016.59 198.952 1001.87 
-3015.54 201.17 998.115 
-3015.82 200.701 999.308 
-3018.61 196.208 1003.74 
-3019.67 195.098 1005.84 
-3019.96 194.988 1006.42 
-3019.47 195.221 1005.27 
-3020.64 194.533 1006.65 
-3019.68 194.928 1004.88 
-3021.63 196.531 1009.8 
-3022.01 194.166 1007.64 
-3022.76 195.966 1010.2 
-3023.81 198.043 1013.43 
-3021.65 193.762 1006.55 
-3022.13 193.568 1006.79 
-2986.99 232.564 983.658 
-2987.78 230.106 985.329 
-2987.95 229.206 984.869 
-2989.5 227.873 986.45 
-2989.08 227.789 985.342 
-2988.6 228.301 985.039 
-2988.15 228.406 984.472 
-2990.08 227.499 986.575 
-2992.53 225.947 987.997 
-2990.71 227.351 987.43 
-2984.46 234.022 977.446 
-2984.94 233.05 977.765 
-2986.98 232.209 982.915 
-2991.16 227.536 993.525 
-2991.79 227.419 996.213 
-2992.85 226.733 992.325 
-2993.3 226.269 991.348 
-2993.66 226.696 996.613 
-2993.78 226.496 998.644 
-2993.82 226.685 997.638 
-2993.94 226.379 999.282 
-2994.28 225.919 999.833 
-2995.86 224.133 991.175 
-2995.81 224.707 992.773 
-2995.14 225.247 992.929 
-2979.9 239.649 975.014 
-2980.7 238.287 974.413 
-2981.29 237.059 973.809 
-2981.92 235.682 973.081 
-2982.91 233.172 974.545 
-2982.36 234.017 973.4 
-2996.2 224.885 998.6 
-2995.66 225.3 998.51 
-2997.83 223.079 998.69 
-2997.95 223.304 997.869 
-2997.68 223.697 997.312 
-2996.42 224.77 998.177 
-2998.03 222.637 998.541 
-2999.38 219.979 998.857 
-2998.78 221.782 997.87 
-2999.61 219.831 997.859 
-2999.97 219.478 997.054 
-3000.18 219.195 996.081 
-3000.27 216.514 994.007 
-3000.55 216.068 992.76 
-3001.16 216.043 992.166 
-3001.95 214.961 991.273 
-3000.14 219.051 995.231 
-3000.03 219.133 994.453 
-3003.92 211.975 988.886 
-3004.21 210.996 987.088 
-3007.62 207.289 987.147 
-3009.32 205.464 986.829 
-2979.04 240.335 974.417 
-3012.45 203.106 987.773 
-3013.94 202.4 989.76 
-3015.31 201.693 991.039 
-3014.27 202.388 992.613 
-3014.79 202.044 995.249 
-3015.73 201.324 996.534 
-3017.05 198.39 1001.9 
-3019.28 195.403 1003.97 
-3016.25 200.678 997.829 
-3016.6 200.092 999.019 
-3017.35 198.126 1001.76 
-3017.66 197.888 1001.61 
-3020.62 194.13 1005.69 
-3020.84 194.031 1006.07 
-3021.37 193.753 1006.26 
-3020.34 194.304 1005.32 
-3020.9 193.745 1004.85 
-3020.45 194.165 1004.49 
-3023.06 193.512 1007.87 
-3023.09 192.976 1007 
-3024.07 195.387 1010.69 
-3027.33 196.336 1014.35 
-3022.97 192.743 1006.23 
-3022.49 192.883 1005.95 
-3025.04 194.368 1010.14 
-3026.45 193.5 1009.98 
-3029.72 195.496 1015.27 
-2987.27 229.855 984.176 
-2987.36 229.032 983.65 
-2987.49 228.249 983.23 
-2989.62 227.244 984.948 
-2988.66 227.659 984.461 
-2989.4 226.814 984.276 
-2988.04 227.494 983.244 
-2992.2 225.711 986.733 
-2991.83 225.47 985.693 
-2995.49 223.536 988.98 
-2985.33 232.215 977.629 
-2983.69 231.672 974.648 
-2986.98 231.63 982.288 
-2993.12 226.774 993.909 
-2993.34 226.788 995.331 
-2995.3 225.355 994.23 
-2995.1 225.782 997.113 
-2995.2 225.867 995.923 
-2995.16 225.717 994.838 
-2995.26 225.529 997.907 
-2996.6 223.731 991.969 
-2996.51 224.312 993.366 
-2995.91 225.04 994.447 
-2980.31 239.022 973.744 
-2981.18 237.575 973.352 
-2981.75 236.301 972.622 
-2982.29 234.37 972.67 
-2983.3 232.029 973.631 
-2995.83 225.213 997.994 
-2998.18 222.848 997.849 
-2996.79 224.489 997.769 
-2996.07 225.137 997.654 
-2998.34 222.463 997.873 
-2999.43 221.092 997.075 
-2998.67 222.321 997.176 
-2999.16 221.62 996.648 
-2999.62 220.843 996.003 
-2999.67 220.735 995.118 
-2999.84 219.219 993.592 
-3000.28 217.372 992.338 
-3000.14 217.355 991.412 
-3000.38 216.504 990.815 
-3000.44 215.781 989.115 
-2999.47 220.964 994.679 
-3004.21 210.094 985.558 
-2999.52 215.155 985.176 
-3007.22 206.82 985.693 
-3009.06 204.996 985.495 
-3012.41 202.89 986.636 
-3030.65 194.099 1013.74 
-2979.22 239.912 973.209 
-3015.4 201.291 988.81 
-3015.57 200.776 987.806 
-3016.15 201.017 989.81 
-3016.03 201.284 992.306 
-3018.7 200 991.567 
-3018.83 199.815 990.878 
-3015.5 201.644 993.881 
-3016.1 201.279 995.041 
-3016.53 200.82 996.635 
-3016.65 200.868 995.83 
-3019.62 195.091 1003.81 
-3017.29 199.587 998.793 
-3017.15 200.101 997.548 
-3018.02 197.6 1001.5 
-3020.27 194.517 1003.54 
-3021.51 193.287 1005.12 
-3021.85 193.091 1005.56 
-3022.17 192.957 1005.78 
-3022.11 192.677 1004.22 
-3022.69 192.184 1004.4 
-3020.9 193.754 1004.04 
-3024.23 192.63 1007.48 
-3024.06 192.28 1006.67 
-3024.19 191.889 1006.16 
-3023.77 191.935 1005.93 
-3023.5 191.911 1005.73 
-3027.5 192.679 1009.41 
-3025.56 192.059 1007.32 
-2986.76 229.052 982.34 
-2986.45 231.205 980.342 
-2986.97 228.453 982.486 
-2986.75 226.206 980.598 
-2986.47 226.56 980.653 
-2990.12 225.961 984.074 
-2991.61 224.928 984.62 
-2988.82 226.76 983.387 
-2988.71 224.611 981.157 
-2988.23 225.125 981.1 
-2987.57 225.516 980.742 
-2987.08 225.781 980.51 
-2994.91 223.492 987.628 
-2996.62 222.781 990.1 
-2984.74 230.629 975.505 
-2984.16 230.485 974.012 
-2995.59 225.307 995.717 
-2995.89 225.148 995.476 
-2995.4 225.426 996.663 
-2995.52 225.404 997.375 
-2997.57 222.769 992.497 
-2997.64 223.03 993.443 
-2997.12 223.921 994.63 
-2996.73 224.573 995.619 
-2980.59 238.451 972.736 
-2981.44 236.983 972.266 
-2981.92 235.747 971.9 
-2982.46 233.793 972.021 
-2983.34 231.682 972.783 
-2984.31 230.034 973.349 
-2998.73 222.355 996.338 
-2998.27 222.997 997.11 
-2998.18 223.143 996.52 
-2996.73 224.607 997.098 
-2995.89 225.274 997.034 
-2997.45 223.963 996.488 
-2996.21 225.068 996.305 
-2998.03 223.125 995.589 
-2998.65 222.411 995.722 
-2999.26 221.471 995.778 
-2999.16 221.573 995.24 
-2999.53 219.621 992.823 
-2998.95 221.36 993.519 
-2999.08 221.468 994.353 
-2999.18 219.679 991.95 
-2998.55 219.772 990.941 
-2999.2 217.806 990.234 
-2998.92 217.242 989.163 
-2998.51 216.702 986.973 
-2996.6 216.102 980.539 
-3001.95 210.086 981.591 
-3004.83 207.618 983.442 
-3007.2 204.571 983.001 
-3005.7 204.772 980.926 
-3012.76 202.103 985.545 
-3011.52 202.004 983.797 
-3015.92 200.023 986.943 
-3032.94 191.289 1009.91 
-3028.97 191.853 1008.58 
-3029.29 190.366 1006.06 
-3033.42 188.293 1004.47 
-3035.86 187.896 1006.41 
-3038.71 183.937 1002.11 
-2979.74 239.622 972.311 
-3019.22 199.407 989.83 
-3018.94 199.645 990.273 
-3019.41 199.03 989.213 
-3019.67 198.549 988.584 
-3018.85 200.085 993.169 
-3018.88 200.052 992.413 
-3021.24 199.046 992.721 
-3022.04 198.529 991.998 
-3021.77 198.545 991.4 
-3018.89 200.048 993.884 
-3018.89 200.002 994.41 
-3019.02 199.851 994.916 
-3017.31 200.319 996.617 
-3019.43 199.555 995.529 
-3017.79 199.661 997.591 
-3017.76 199.066 999.151 
-3018.28 197.47 1001.26 
-3021.27 193.907 1002.93 
-3021.97 193.042 1003.65 
-3022.96 192.068 1004.93 
-3023.32 191.889 1005.42 
-3022.7 192.284 1004.08 
-3026.17 190.074 1003.18 
-3024.3 191.016 1004.62 
-3025.29 191.853 1006.84 
-3025.48 190.978 1005.85 
-3025.63 191.339 1006.39 
-3025.28 190.716 1005.4 
-3025.14 190.546 1005.08 
-2986.66 229.305 981.599 
-2986.22 226.777 980.56 
-2985.98 226.935 980.288 
-2986.48 230.655 979.908 
-2985.44 230.331 976.715 
-2986.35 224.231 978.428 
-2985.75 223.984 977.916 
-2985.25 224.542 977.976 
-2992.6 222.929 983.372 
-2989.16 224.076 981.139 
-2994.39 221.478 984.3 
-2987.43 223.312 978.479 
-2987.68 222.985 978.306 
-2986.89 223.977 978.61 
-2995.28 220.756 984.798 
-2996.39 222.291 988.692 
-2997.24 222.278 990.766 
-2985.19 229.317 975.566 
-2984.79 229.382 974.561 
-2995.78 225.242 996.401 
-2998.45 221.818 992.924 
-2997.84 221.912 991.653 
-2998.45 222.171 993.847 
-2998.13 222.71 994.458 
-2981.06 237.475 971.698 
-2981.77 236.102 971.224 
-2982.41 233.743 971.108 
-2983.48 230.862 971.833 
-2984.22 229.713 972.598 
-2984.95 228.812 973.986 
-2984.83 228.774 973.218 
-2998.69 222.154 994.818 
-2997.81 219.652 989.334 
-2997.2 218.099 986.12 
-2998.85 211.343 977.932 
-3004.57 203.995 978.118 
-3002.66 205.766 976.886 
-2993.98 218.399 980.38 
-2994.64 216.864 976.954 
-2995.43 215.264 975.462 
-2996.44 213.515 975.675 
-3010.22 200.225 979.709 
-3007.45 201.271 977.943 
-3006.34 201.708 976.746 
-3016.24 199.209 986.035 
-3013.79 199.256 982.677 
-3017.14 197.879 985.403 
-3017.4 198.679 986.884 
-3019.77 198.046 987.962 
-3029.11 190.013 1005.53 
-3036.89 185.631 1003.25 
-3029.82 189.41 1004.91 
-3033.81 187.576 1003.37 
-3039.42 183.053 1001.11 
-3038.23 182.318 998.714 
-3038.65 181.993 998.125 
-2978.75 240.825 972.261 
-2980.55 238.345 971.325 
-3022.26 198.011 990.618 
-3022.56 197.615 990.139 
-3023.05 197.026 989.722 
-3021.97 198.569 993.42 
-3022.16 198.516 992.658 
-3023.3 197.685 992.157 
-3023.01 197.676 991.271 
-3021.42 198.894 993.945 
-3021.6 198.762 994.363 
-3019.94 199.047 996.343 
-3019.73 199.331 995.946 
-3021.8 198.383 995.197 
-3022.41 198.156 994.471 
-3019.84 198.719 997.214 
-3020.16 198.059 998.078 
-3019.89 196.354 1000.77 
-3019.2 196.595 1001.29 
-3021.52 193.715 1002.7 
-3025.63 190.944 1002.31 
-3025.03 191.375 1002.21 
-3026.15 190.49 1002.38 
-3024.91 190.615 1004.8 
-3026.42 190.13 1002.66 
-3027.75 189.098 1002.55 
-3030.63 187.936 1000.02 
-3029.96 188.473 999.698 
-3028.34 188.744 1002.6 
-3029.17 189.468 1004.58 
-3029.74 188.989 1003.77 
-3028.86 189.123 1003.63 
-3029.29 188.656 1002.88 
-2985.52 227.614 979.524 
-2985.7 227.218 979.976 
-2984.91 224.831 977.754 
-2985.02 225.77 977.677 
-2986 228.815 977.791 
-2985.53 227.983 976.721 
-2985.97 228.525 979.077 
-2986.25 223.425 977.864 
-2985.72 222.573 976.957 
-2985.44 223.159 977.039 
-2985.23 223.673 977.06 
-2992.21 222.653 982.427 
-2993.37 219.383 979.895 
-2989.31 223.499 980.763 
-2987.79 222.8 978.309 
-2986.85 223.05 977.976 
-2987 222.166 977.304 
-2986.62 222.135 977.178 
-2987.34 222.065 977.288 
-2996.53 220.446 986.969 
-2985.13 226.616 975.291 
-2985.32 226.975 976.004 
-2981.31 236.621 970.406 
-2982.45 234.097 970.19 
-2984.06 229.9 971.03 
-2984.24 229.626 970.308 
-2984.45 228.898 971.859 
-2984.8 228.519 972.509 
-2985.28 226.398 974.743 
-2985.27 228.076 973.586 
-2985.14 227.965 972.725 
-2998.08 211.23 976.402 
-2998.74 209.373 975.613 
-3005.29 202.244 975.782 
-3000.86 207.324 975.812 
-3004.15 203.172 974.959 
-3003.31 204.417 975.074 
-2993.53 218.247 977.805 
-2994.33 216.201 974.807 
-2994.74 215.14 973.546 
-2995.5 214.213 973.97 
-2993.66 217.401 975.942 
-2996.14 213.284 974.514 
-3008.25 200.128 977.114 
-3009.41 199.211 977.228 
-3010.95 198.1 977.766 
-3011.98 197.259 977.966 
-3012.5 197.015 978.547 
-3006.71 200.856 976.042 
-3006.06 201.226 975.587 
-3020.19 197.238 987.355 
-3015.19 196.296 981.626 
-3014.15 195.726 979.799 
-3011.95 197.761 978.494 
-3016.64 194.735 981.846 
-3017.8 194.358 982.482 
-3021.28 195.188 985.846 
-3022.68 196.779 988.906 
-3036.84 185.028 1001.67 
-3034.64 186.649 1002.21 
-3039.94 182.371 1000.29 
-3039.45 180.916 997.263 
-3038.78 180.903 996.636 
-3040.97 184.511 1004.93 
-3037.66 182.898 999.495 
-3038.16 181.03 996.354 
-3037.84 181.902 997.23 
-3037.9 181.149 996.098 
-2979.59 239.943 971.205 
-2980.76 238.304 970.532 
-2981.13 236.854 969.659 
-3023.75 196.918 990.678 
-3024.5 196.033 990.242 
-3024.39 195.119 988.675 
-3024.61 195.456 989.469 
-3023.25 197.784 992.887 
-3022.53 198.182 993.867 
-3023.52 197.538 993.375 
-3024.57 196.528 991.707 
-3024.71 196.52 992.448 
-3022.23 197.91 995.806 
-3022.72 197.812 995.143 
-3024.2 196.919 994.089 
-3024.2 196.769 994.831 
-3022.82 197.116 996.56 
-3020.9 197.151 998.687 
-3024.5 195.651 996.912 
-3024.12 194.03 999.554 
-3022.06 193.814 1001.78 
-3024.7 192.173 1001.4 
-3024.89 191.711 1001.73 
-3028.78 189.606 999.435 
-3029.66 188.765 999.245 
-3027.71 190.779 999.797 
-3029.06 188.57 1002.58 
-3031.48 187.455 1000.33 
-3031.35 187.515 998.514 
-3032.02 187.291 999.153 
-3030.63 188.506 998.158 
-3032.96 187.114 1001.56 
-3032.41 187.075 1000.5 
-2985.33 226.468 977.342 
-2985.02 224.154 976.945 
-2984.83 224.884 976.799 
-2984.76 224.522 976.216 
-2986.2 222.295 977.124 
-2985.32 221.977 976.203 
-2985.62 221.762 976.256 
-2985.35 222.489 976.257 
-2985.3 223.032 976.295 
-2989.9 222.631 980.289 
-2992.7 220.263 980.543 
-2992.81 219.149 978.462 
-2987.8 222.503 978.177 
-2987.59 221.783 977.173 
-2984.97 223.827 975.137 
-2985.03 223.752 975.746 
-2982.28 235.152 969.326 
-2984.51 229.664 969.245 
-2984.35 227.935 971.21 
-2985.15 227.959 969.447 
-2984.84 227.898 970.363 
-2984.96 227.888 971.719 
-2985.34 225.917 974.15 
-2985.07 223.947 974.407 
-2985.35 225.907 973.43 
-2985.37 225.966 972.65 
-2997.21 211.301 974.769 
-2997.52 209.771 974.25 
-2997.95 209.266 974.167 
-3005.49 201.293 974.852 
-3004.74 202.106 974.717 
-3000.39 207.279 974.741 
-3004.14 202.549 973.708 
-3003.63 203.187 973.246 
-3003.26 203.93 973.822 
-3002.66 204.908 974.005 
-2992.88 218.537 977.027 
-2994.12 215.642 973.15 
-2994.68 214.615 972.331 
-2995.12 214.377 972.757 
-2993.53 216.75 974.154 
-2995.82 213.424 973.301 
-2993.16 217.62 975.345 
-2992.58 218.373 976.038 
-2996.8 211.54 973.797 
-3007.18 200.189 975.803 
-3007.58 199.504 975.246 
-3008.19 199.308 975.757 
-3010.15 198.274 976.836 
-3009.17 198.524 975.721 
-3008.47 198.75 975.069 
-3010.32 197.695 976.452 
-3011.09 196.963 976.754 
-3011.77 196.601 976.994 
-3012.62 196.512 977.85 
-3014.51 193.706 978.162 
-3006.39 200.273 974.822 
-3005.97 200.719 974.794 
-3023.8 193.214 985.774 
-3015.61 192.158 978.169 
-3016.11 191.316 977.999 
-3019.32 193.883 983.167 
-3016.95 191.932 979.27 
-3022.4 191.489 982.775 
-3019.18 192.218 981.277 
-3036.46 184.669 1000.22 
-3035.27 185.618 1000.42 
-3040.28 181.103 998.367 
-3039.05 178.881 994.36 
-3038.43 178.74 994.289 
-3038.03 178.731 994.159 
-3041.03 182.014 999.937 
-3037.17 183.204 998.813 
-3037.53 182.236 997.004 
-3037.68 178.772 993.908 
-3037.61 181.201 995.703 
-3037.32 178.954 993.694 
-2979.87 239.939 970.372 
-2981.29 237.784 969.608 
-3025.12 195.897 991.061 
-3025.59 195.102 990.486 
-3025.3 194.895 989.609 
-3025.26 191.799 985.61 
-3026.51 190.889 985.958 
-3025.53 194.092 988.763 
-3024.83 196.509 993.082 
-3025.27 196.013 993.759 
-3025.82 195.446 992.521 
-3025.7 195.493 991.828 
-3025.88 195.429 993.253 
-3023.97 196.487 996.054 
-3024.63 196.116 995.59 
-3025.58 195.556 994.423 
-3025.86 195.046 995.261 
-3025.53 194.884 996.647 
-3026.37 192.835 998.759 
-3027.02 192.678 998.045 
-3026.8 191.557 999.959 
-3027.58 191.225 999.419 
-3028.52 190.728 998.556 
-3029.8 189.61 998.026 
-3030.3 189.269 997.666 
-3033.23 186.675 999.326 
-3032.44 186.039 998.183 
-3031.39 188.105 997.226 
-3033.9 186.452 1000.28 
-3034.3 186.068 999.259 
-2984.9 223.319 976.151 
-2984.6 221.876 975.665 
-2985.03 221.73 975.653 
-2984.46 221.822 975.238 
-2985.38 221.601 975.39 
-2984.69 222.372 975.804 
-2989.81 221.951 979.556 
-2992.4 219.922 979.714 
-2992.17 219.708 978.558 
-2992.33 219.148 977.441 
-2988.23 221.603 977.671 
-2988.13 220.948 976.886 
-2987.42 221.223 976.416 
-2983.78 223.299 976.034 
-2984.83 223.258 974.578 
-2982.05 236.866 968.649 
-2983.75 232.136 968.243 
-2985.49 225.456 969.963 
-2985.75 225.386 969.134 
-2985.38 225.846 972.014 
-2985.3 225.782 971.471 
-2985.3 225.743 970.645 
-2985.26 223.976 973.67 
-2985.36 223.906 973.194 
-2997.08 209.795 973.137 
-2997.41 209.224 973.037 
-3005.48 200.887 974.293 
-3005.03 201.315 974.182 
-3004.74 201.668 973.777 
-3000.46 206.866 973.907 
-3004.5 201.948 973.184 
-3004.04 202.54 972.68 
-3003.61 203.142 972.408 
-3003.1 203.944 972.82 
-3002.54 204.843 973.029 
-2993.47 216.114 972.538 
-2994.18 215.066 972.314 
-2994.96 214.227 971.698 
-2994.36 214.725 970.844 
-2993.79 215.298 970.953 
-2995.62 213.406 972.127 
-2992.89 217.246 973.735 
-2992.53 217.997 975.064 
-2996.49 211.61 972.46 
-2990.68 219.069 976.676 
-2990.58 219.078 976.043 
-3006.96 199.715 974.734 
-3007.92 198.939 974.433 
-3007.41 199.157 973.978 
-3009.54 197.983 975.529 
-3008.65 198.052 973.751 
-3008.85 197.838 973.787 
-3008.43 198.339 973.766 
-3010.47 196.937 975.812 
-3009.76 197.49 975.276 
-3011.06 196.45 976.109 
-3011.5 196.05 976.065 
-3012.07 196.246 976.249 
-3012.71 196.055 976.944 
-3013.3 195.921 977.971 
-3014.62 193.153 977.589 
-3015.84 190.967 977.218 
-3005.88 200.462 974.317 
-3006.22 200.085 974.307 
-3006.63 199.808 974.43 
-3024.23 189.983 982.504 
-3016.26 190.748 977.658 
-3015.88 190.618 977.217 
-3016.43 191.458 978.624 
-3018.31 191.611 979.953 
-3021.8 191.09 981.594 
-2981.94 242.191 964.143 
-3036.19 184.565 999.013 
-3035.29 185.331 999.21 
-3039.65 178.942 994.414 
-3040.12 178.958 994.485 
-3038.2 177.455 992.373 
-3038.52 177.103 991.449 
-3037.75 177.381 992.3 
-3037.28 177.573 991.999 
-3041.79 181.782 999.36 
-3040.58 178.95 994.244 
-3037.13 182.926 997.362 
-3036.31 183.973 997.654 
-3037.38 181.407 995.554 
-3037.21 182.096 996.015 
-3036.87 177.745 991.836 
-3036.99 179.171 993.565 
-3036.5 177.945 991.781 
-3042.51 181.95 999.268 
-2980.14 240.002 969.619 
-2981.16 238.519 969.269 
-3026.46 194.616 991.43 
-3027.07 193.056 989.822 
-3027.59 192.835 990.55 
-3027.15 192.554 989.191 
-3026.3 188.401 982.543 
-3027.51 189.895 985.949 
-3026.55 194.6 994.021 
-3026.99 194.201 993.015 
-3027 194.131 992.175 
-3026.05 194.628 996.047 
-3026.91 194.098 994.976 
-3028.01 192.277 996.796 
-3028.59 191.722 996.431 
-3027.42 192.648 997.375 
-3030.14 189.976 996.845 
-3030.78 189.357 996.554 
-3033.52 186.233 998.218 
-3032.66 187.044 997.132 
-3031.78 188.243 996.123 
-3034.55 185.765 998.167 
-2983.99 222.651 975.659 
-2984.32 221.973 975.083 
-2984 222.128 974.654 
-2984.63 221.662 974.856 
-2984.09 222.062 974.319 
-2984.95 221.479 974.414 
-2985.32 221.438 974.608 
-2990.3 220.782 978.605 
-2990.37 219.377 977.936 
-2990.61 219.121 977.381 
-2988.84 220.504 977.113 
-2988.72 220.238 976.818 
-2988.14 220.545 976.582 
-2987.68 220.45 975.925 
-2986.83 221.291 975.884 
-2984.88 222.754 974.302 
-2985.2 223.276 973.836 
-2983.43 234.063 967.114 
-2981.89 237.643 968.237 
-2986.07 225.734 967.964 
-2985.53 223.764 972.151 
-2985.61 223.123 972.319 
-2985.83 223.271 971.372 
-2985.39 223.405 973.137 
-2985.53 223.802 972.611 
-2985.22 223.088 973.635 
-2996.69 209.911 972.041 
-2996.88 209.507 971.847 
-2997.42 209.122 972.437 
-3005.56 200.561 973.963 
-3005.17 200.947 973.886 
-3004.96 201.162 973.441 
-3004.81 201.417 973.172 
-2999.99 207.061 973.077 
-3002.09 205.371 972.798 
-3002.17 205.393 973.628 
-3004.51 201.852 972.532 
-3004.71 201.511 972.719 
-3004.43 201.831 971.868 
-3004.07 202.417 971.847 
-3003.82 202.769 971.571 
-3003.39 203.423 971.863 
-3002.88 204.214 972.048 
-3002.37 204.937 972.075 
-2992.54 216.914 972.557 
-2993.32 215.713 971.159 
-2992.47 216.473 971.504 
-2994.98 214.034 970.702 
-2993.85 215.178 969.862 
-2994.57 214.439 969.673 
-2993.32 215.674 969.48 
-2992.95 215.997 969.9 
-2995.88 211.99 971.156 
-2990.49 218.721 974.304 
-2990.58 219.05 975.241 
-2988.54 219.958 976.463 
-2988.39 219.735 975.866 
-3007.03 199.296 973.733 
-3008 198.569 973.37 
-3007.34 198.812 973.141 
-3007.68 198.647 973.133 
-3009.08 197.647 973.869 
-3008.27 197.631 974.634 
-3008.14 197.921 974.329 
-3008.52 197.354 974.463 
-3008.13 198.152 973.619 
-3009.97 197.064 975.022 
-3010.61 196.33 975.479 
-3010.26 196.471 975.187 
-3009.33 197.466 974.034 
-3010.98 195.855 975.507 
-3011.53 195.705 975.282 
-3011.97 195.8 975.221 
-3012.47 195.812 975.803 
-3013.49 195.426 977.449 
-3013.17 195.569 976.67 
-3014.63 192.833 977.129 
-3015.53 191.02 977.026 
-3015.53 190.605 976.908 
-3006.55 199.587 973.763 
-3005.98 200.092 973.941 
-3023.57 189.674 981.127 
-3016.44 190.475 977.639 
-3016.01 189.942 977.117 
-3015.58 190.095 976.685 
-3015.59 190.417 976.947 
-3018.15 191.34 979.514 
-3021.96 190.534 980.698 
-3020.7 190.943 980.307 
-2983.48 240.078 963.379 
-2986.36 239.012 958.174 
-2981.87 238.998 966.873 
-2981.07 239.131 968.469 
-2988.59 236.21 955.614 
-2989.82 235.392 953.635 
-2988.7 237.125 954.024 
-3035.5 184.997 998.112 
-3039.05 177.006 991.109 
-3039.53 176.78 990.525 
-3037.83 177.096 991.575 
-3038.39 176.581 990.339 
-3037.89 176.752 990.772 
-3037.27 177.229 991.46 
-3036.73 177.375 991.216 
-3041.34 179.08 993.979 
-3040.34 177.146 990.58 
-3036.78 182.973 996.396 
-3036.12 183.363 996.369 
-3035.62 184.332 997.051 
-3037.08 181.316 995.01 
-3036.71 179.313 993.497 
-3036.94 182.055 995.526 
-3036.29 177.598 991.197 
-3036.07 177.998 991.537 
-3043.48 182.258 999.784 
-3045.74 182.94 1000.33 
-3041.78 179.56 994.493 
-3043.09 181.742 998.123 
-3028.41 192.107 991.199 
-3029.15 190.303 989.319 
-3029.76 190.088 990.578 
-3028.61 188.848 986.151 
-3027.67 187.315 982.512 
-3026.91 187.234 981.42 
-3025.24 188.153 980.578 
-3029.33 191.414 994.379 
-3028.97 191.784 994.992 
-3028.84 191.847 992.251 
-3030.06 190.473 993.871 
-3028.96 191.547 995.704 
-3033.86 186.174 997.131 
-3033 187.003 996.138 
-3034.81 185.246 997.107 
-2984.75 222.341 974.285 
-2984.74 222.072 973.958 
-2984.55 221.716 973.921 
-2984.85 221.456 974.035 
-2984.9 221.453 973.623 
-2985.54 221.257 973.726 
-2985.29 221.357 973.709 
-2985.65 221.159 973.998 
-2987.58 220.131 975.248 
-2986.46 221.217 975.438 
-2985.09 222.725 973.609 
-2982.27 237.425 967.276 
-2984.15 233.633 965.606 
-2986.18 227.745 965.517 
-2986.05 223.401 970.306 
-2985.38 223.01 972.962 
-2985.76 222.569 972.204 
-2985.33 222.626 972.805 
-2985.89 222.416 971.69 
-2996.39 210.13 970.826 
-2996.74 209.596 970.969 
-2997.43 209.339 971.632 
-3005.48 200.392 973.612 
-3005.12 200.762 973.348 
-3005 200.872 972.78 
-3004.88 201.12 972.655 
-2999.86 207.105 972.298 
-3001.9 205.395 971.61 
-3004.63 201.432 971.995 
-3004.77 201.223 972.233 
-3004.4 201.8 971.277 
-3004.76 200.066 971.206 
-3004.64 200.102 970.99 
-3004.13 202.272 971.053 
-3003.72 202.886 970.971 
-3003.24 203.62 971.184 
-3002.72 204.327 971.09 
-3002.24 204.995 971.164 
-2990.44 217.894 972.629 
-2990.38 218.464 973.515 
-2992.37 216.315 970.409 
-2990.15 217.68 972.033 
-2995.58 212.537 969.772 
-2994.11 214.831 968.799 
-2995.19 212.854 968.824 
-2993.03 216.023 969.1 
-2993.53 215.269 968.208 
-2992.52 216.329 969.624 
-2987.51 219.968 974.513 
-3006.95 199.051 973.125 
-3007.89 198.347 973.663 
-3007.49 198.577 973.833 
-3007 198.856 973.789 
-3008.74 197.073 974.294 
-3007.56 196.397 975.848 
-3007.76 195.855 975.477 
-3007.44 196.982 976.02 
-3007.8 198.109 974.817 
-3007.95 195.402 975.085 
-3009.97 196.851 974.504 
-3009.51 197.211 973.926 
-3010.57 195.907 975.187 
-3010.15 196.247 974.696 
-3008.96 196.785 974.113 
-3011.14 195.652 974.859 
-3011.76 195.555 974.523 
-3012.45 195.588 975.124 
-3012.27 195.463 974.64 
-3012.95 195.475 975.833 
-3013.45 194.848 976.921 
-3014.63 192.75 976.792 
-3013.47 195.196 976.571 
-3015.35 191.031 976.754 
-3015.43 190.033 976.324 
-3015.3 190.421 976.35 
-3006.62 199.204 973.112 
-3006.28 199.598 973.376 
-3005.85 199.947 973.511 
-3022.85 189.479 979.981 
-3016.32 189.982 977.316 
-3015.93 189.12 976.519 
-3015.44 189.45 975.917 
-3018.26 191.138 979.313 
-3021.55 190.61 980.017 
-3020.38 191.04 979.828 
-2989.58 234.549 955.304 
-2985.39 238.225 960.559 
-2987.68 235.674 957.916 
-2988.64 234.88 956.839 
-2988.15 236.176 956.65 
-2982.99 237.646 965.848 
-3039.17 176.384 989.666 
-3042.03 175.305 986.686 
-3037.38 176.887 990.843 
-3038.53 176.255 989.329 
-3037.6 176.446 989.961 
-3037.09 176.648 990.071 
-3036.9 177.047 990.785 
-3035.99 177.39 990.534 
-3036.36 177.145 990.468 
-3042.78 176.024 987.641 
-3043.27 176.646 988.501 
-3042.38 175.454 986.85 
-3036.6 182.379 995.102 
-3035.39 184.054 995.513 
-3035.83 183.339 994.93 
-3036.27 182.503 994.515 
-3034.92 184.838 995.941 
-3036.72 181.477 994.531 
-3036.42 179.434 993.361 
-3035.83 178.243 991.586 
-3035.64 177.69 990.645 
-3035.6 177.935 991.012 
-3049.17 182.493 997.66 
-3045.57 182.1 997.912 
-3044.51 180.813 995.459 
-3045.17 178.803 991.491 
-3032.5 187.505 993.902 
-3032.88 186.98 993.444 
-3029.35 187.82 985.837 
-3031.22 187.855 989.676 
-3033.48 186.116 993.092 
-3028.25 186.197 981.757 
-3026.27 186.845 979.877 
-3027.41 186.287 980.5 
-3024.23 188.102 979.32 
-3032.77 187.272 994.912 
-3034.19 185.759 996.123 
-2984.95 222.08 973.365 
-2985.07 222.493 973.355 
-2985.15 221.677 973.162 
-2985.4 221.375 973.318 
-2985.53 221.395 972.898 
-2985.89 221.138 973.128 
-2986.31 220.617 973.147 
-2986.51 220.458 973.724 
-2986.15 221.123 974.921 
-2984.42 234.028 964.527 
-2985.95 230.561 962.954 
-2986.47 228.577 963.226 
-2986.54 224.922 966.964 
-2986.27 223.4 969.776 
-2985.89 222 972.113 
-2985.48 222.17 972.683 
-2986.18 222.468 970.974 
-2986 221.52 971.736 
-2996.08 210.673 969.592 
-2996.36 209.844 969.777 
-2997.25 209.197 970.562 
-3005.63 199.938 973.155 
-3005.28 200.392 973.2 
-3004.94 199.143 972.471 
-3005.05 199.969 972.085 
-3004.95 200.03 971.825 
-2999.78 207.142 971.613 
-3001.56 205.566 970.754 
-3001.96 205.289 970.597 
-3004.86 200.042 971.485 
-3004.51 200.317 970.253 
-3004.6 200.119 970.619 
-3004.45 198.53 971.442 
-3004.31 198.371 971.215 
-3004.29 198.768 970.711 
-3004.19 202.147 970.437 
-3003.95 202.524 970.149 
-3003.54 203.188 970.331 
-3003.12 203.794 970.448 
-3002.81 204.258 970.127 
-3002.46 204.797 970.114 
-2987.76 219.665 973.747 
-2989.92 217.756 971.221 
-2989.85 217.783 971.655 
-2987.08 219.877 973.013 
-2995.03 212.912 968.066 
-2994.15 214.681 967.828 
-2995.66 210.954 968.505 
-2992.86 216.18 968.752 
-2993.23 215.656 967.984 
-2993.6 215.033 967.211 
-2994.14 214.55 967.02 
-2989.95 217.902 970.791 
-3006.59 199.068 973.964 
-3007.59 198.33 974.774 
-3007.3 198.515 974.971 
-3007.07 198.716 974.525 
-3006.63 198.916 974.859 
-3008.17 195.037 974.64 
-3007.14 195.33 976.016 
-3006.85 195.653 976.625 
-3007.38 195.005 975.327 
-3007.23 197.401 976.264 
-3006.74 196.064 977.12 
-3007.6 194.697 974.668 
-3009.74 196.844 973.759 
-3009.2 196.51 973.865 
-3010.58 195.862 974.456 
-3010.29 196.152 973.864 
-3009.91 196.517 973.663 
-3008.32 194.767 974.258 
-3011.49 195.545 974.653 
-3011.61 195.499 974.115 
-3011.09 195.728 974.029 
-3012.18 195.301 974.07 
-3012.95 195.286 975.251 
-3012.7 195.257 974.815 
-3012.64 195.162 974.399 
-3013.43 194.982 975.998 
-3013.29 194.452 976.207 
-3014.65 192.68 976.419 
-3015.13 191.174 976.35 
-3015.24 189.781 975.752 
-3015.09 190.505 975.96 
-3006.26 199.311 973.542 
-3006.05 199.517 973.118 
-3022.12 189.679 979.493 
-3016.33 189.608 977.041 
-3015.59 188.947 975.608 
-3015.81 188.832 976.006 
-3015.31 188.924 975.186 
-3015.3 189.357 975.551 
-3018.42 191.007 979.219 
-3021.01 190.811 979.474 
-3021.48 190.338 978.974 
-3019.99 191.108 979.474 
-2989.96 233.135 956.099 
-2984.78 237.116 962.483 
-2986.75 235.804 959.342 
-2989.04 233.039 957.533 
-3041.52 175.135 986.438 
-3041.68 175.207 986.614 
-3045.38 174.564 983.871 
-3044.6 174.355 983.627 
-3041.14 175.102 986.414 
-3038.18 176.174 989.023 
-3037.22 176.364 989.321 
-3036.6 176.835 990.112 
-3036.66 176.56 989.434 
-3035.77 177.171 989.832 
-3035.31 177.465 989.718 
-3036.11 176.836 989.645 
-3046.66 174.713 984.597 
-3047.43 176.956 987.54 
-3036.35 181.603 993.943 
-3033.92 185.303 992.698 
-3035.8 182.866 993.887 
-3034.04 184.683 991.939 
-3035.99 181.898 993.527 
-3036.04 179.698 993.067 
-3035.44 178.437 991.098 
-3035.32 178.177 990.672 
-3034.91 177.755 989.662 
-3035.06 178.003 990.259 
-3047.45 180.933 994.631 
-3048.36 181.675 995.856 
-3048.83 179.991 992.306 
-3049.55 180.977 994.231 
-3050.19 179.24 990.925 
-3029.99 186.972 986.039 
-3029.1 185.795 982.784 
-3030.82 185.881 986.441 
-3028.51 185.333 980.481 
-3029.43 184.855 981.767 
-3026.41 186.031 978.46 
-3027.56 185.655 979.239 
-3024.2 188.083 978.434 
-3022.47 189.123 978.73 
-2985.76 221.702 972.46 
-2986.02 221.156 972.704 
-2986.12 221.254 972.259 
-2986.58 220.515 972.595 
-2987.11 219.937 972.46 
-2984.61 234.31 963.424 
-2985.6 232.11 962.789 
-2986.47 230.424 961.817 
-2986.76 228.781 962.157 
-2986.97 225.63 965.159 
-2986.89 222.83 968.891 
-2986.12 221.434 971.915 
-2986.97 222.248 969.916 
-2986.7 221.753 970.733 
-2986.75 221.323 971.111 
-2996.25 210.434 968.707 
-2999.27 207.653 970.839 
-2997.07 209.95 968.902 
-3005 198.798 972.876 
-3004.98 198.626 973.198 
-3005.71 199.607 973.45 
-3005.02 199.12 972.569 
-3004.67 197.383 972.366 
-3004.81 197.156 972.831 
-3004.83 197.017 972.764 
-3004.7 197.462 972.192 
-3004.56 198.363 971.746 
-3001.42 205.647 969.999 
-2999.48 207.538 970.025 
-3001.81 205.455 969.663 
-3002.3 205.14 969.334 
-3004.46 200.372 969.739 
-3004.55 198.76 969.001 
-3004.38 198.253 969.759 
-3004.86 197.039 972.168 
-3004.76 197.233 971.901 
-3004.32 197.821 971.043 
-3005.06 196.77 972.014 
-3004.21 201.939 969.781 
-3003.81 202.398 969.489 
-3003.69 202.862 969.67 
-3003.35 203.527 969.486 
-3002.71 204.603 968.899 
-3003.02 204.091 969.051 
-2994.99 212.903 967.19 
-2995.61 211.198 967.887 
-2995.96 211 967.862 
-2992.25 216.643 968.869 
-2992.85 216.235 967.855 
-2993.49 215.47 966.885 
-2993.98 214.63 966.458 
-2994.88 212.925 966.634 
-2989.69 218.248 970.502 
-2987.26 220.177 971.89 
-3006.26 199.037 975.255 
-3006.16 199.231 974.48 
-3007.01 197.764 976.472 
-3006.84 198.166 976.457 
-3006.81 198.723 975.524 
-3006.43 198.783 976.1 
-3007.67 194.5 974.121 
-3006.99 195.087 975.25 
-3006.74 195.389 975.717 
-3006.53 195.645 975.466 
-3006.58 195.858 976.22 
-3007.23 194.789 974.634 
-3006.57 196.592 976.801 
-3006.44 196.152 976.179 
-3007.3 194.583 974.071 
-3009.33 195.9 973.671 
-3008.4 194.558 973.905 
-3010.78 196.053 973.48 
-3009.99 196.353 973.161 
-3010.42 196.308 973.25 
-3009.42 195.578 973.291 
-3007.56 194.45 973.732 
-3011.86 195.526 973.713 
-3011.46 195.706 973.666 
-3011.92 195.367 973.861 
-3011.12 195.944 973.494 
-3012.81 194.828 973.838 
-3012.27 195.305 973.605 
-3013.38 194.891 975.39 
-3013.11 195.035 974.82 
-3012.99 195.04 974.265 
-3013.27 194.287 975.61 
-3014.58 192.604 976.05 
-3014.34 192.408 975.664 
-3014.87 191.027 975.812 
-3015.13 189.389 975.224 
-3014.96 190.186 975.448 
-3005.9 199.356 974.283 
-3016.64 189.46 976.976 
-3015.95 188.661 975.394 
-3015.7 188.54 974.939 
-3015.49 188.7 975.045 
-3016.21 188.787 975.862 
-3015.05 188.913 974.725 
-3015.21 188.527 974.551 
-3018.46 190.728 978.879 
-3021.05 190.763 978.845 
-3020.28 191.077 979.049 
-3021.9 189.885 978.184 
-3021.36 190.402 978.319 
-2992.59 228.7 955.662 
-2992.24 231.012 954.245 
-2990.64 231.466 956.308 
-2993.85 222.32 959.994 
-2994.39 225.373 956.058 
-2985.56 236.135 961.405 
-2987.18 232.943 959.872 
-2987.89 234.313 958.45 
-2986.24 233.955 960.863 
-2988.09 231.443 959.264 
-2988.95 230.295 958.568 
-2995.08 225.082 955.246 
-2994.54 228.959 952.363 
-2995.62 224.055 955.116 
-2995.32 228.101 951.255 
-3044.54 174.063 983.127 
-3045.98 174.193 982.701 
-3047.11 174.269 983.05 
-3045.68 173.994 982.338 
-3040.84 175.045 986.274 
-3044.1 173.872 983.126 
-3040.12 175.272 986.492 
-3037.7 176.136 988.528 
-3037.04 176.332 988.751 
-3036.4 176.559 988.966 
-3035.54 176.984 989.128 
-3035.1 177.182 988.853 
-3034.77 177.449 988.871 
-3035.83 176.751 988.946 
-3048.93 176.535 986.512 
-3035.53 180.278 992.208 
-3035.68 179.975 992.705 
-3035.52 182.444 992.981 
-3033.58 184.224 990.405 
-3035.3 180.617 991.704 
-3035.02 178.633 990.385 
-3034.85 178.337 989.988 
-3034.47 178.026 989.499 
-3034.32 177.653 988.741 
-3054.26 178.301 990.825 
-3053.61 180.101 993.984 
-3052.78 178.206 989.562 
-3052.18 179.457 991.895 
-3051.75 177.662 988.339 
-3051.17 179.156 990.909 
-3050.53 176.138 985.898 
-3049.35 175.597 985.022 
-3030.35 184.204 982.908 
-3031.27 184.098 985.337 
-3028.96 184.055 979.747 
-3029.9 183.997 981.214 
-3030.53 183.281 982.107 
-3024.55 187.714 977.748 
-3028.39 184.228 977.855 
-3022.69 189.286 977.584 
-2986.66 220.731 972.087 
-2986.73 221.079 971.536 
-2984.54 234.716 962.283 
-2985.42 232.842 962.295 
-2986.35 231.602 961.551 
-2987.14 228.775 961.483 
-2987.23 230.115 960.8 
-2987.15 227.404 962.44 
-2987.36 225.117 964.827 
-2987.59 222.044 968.291 
-2987.87 221.191 969.131 
-2987.57 221.03 970.039 
-2987.51 220.686 970.822 
-2997.27 209.959 968.098 
-2996.26 210.655 967.457 
-3004.98 198.666 973.701 
-3004.92 197.597 973.639 
-3004.9 197.304 973.2 
-3005.77 199.181 974.613 
-3004.89 196.869 972.693 
-3005.14 197.014 973.279 
-3005.05 196.967 973.09 
-3005.21 196.783 973.245 
-3005.06 196.807 972.996 
-3004.99 196.808 972.51 
-3001.18 206.174 969.023 
-2999.32 207.957 968.728 
-3002.45 205.245 967.939 
-3001.77 205.902 968.27 
-3002.85 204.691 967.605 
-3004.15 200.475 969.521 
-3004.41 199.215 968.56 
-3004.48 197.525 968.54 
-3004.5 198.285 968.01 
-3004.28 197.3 969.855 
-3005.17 196.642 972.462 
-3005.08 196.812 971.761 
-3005.36 196.437 972.482 
-3003.7 202.039 969.236 
-3003.35 202.639 968.759 
-3003.43 202.856 969.091 
-3003.49 203.303 968.914 
-3003.29 203.697 968.305 
-3003.08 204.173 967.563 
-2995.42 211.357 967.165 
-2995.81 210.838 967.205 
-2989.91 218.341 969.924 
-2993.02 216.094 967.093 
-2990.04 218.462 969.374 
-2993.81 214.986 966.105 
-2994.92 212.883 966.166 
-2995.5 211.345 966.4 
-2987.82 219.804 971.488 
-2987.4 220.422 971.356 
-3006.26 198.624 976.316 
-3006.06 198.952 975.417 
-3006.47 197.152 976.409 
-3006.6 198.51 976.535 
-3006.35 197.773 975.974 
-3006.46 198.58 976.935 
-3006.43 198.301 977.18 
-3007.22 194.53 973.716 
-3006.84 194.841 974.473 
-3006.64 195.14 974.807 
-3006.45 195.422 974.592 
-3006.26 195.732 974.345 
-3006.32 195.953 975.17 
-3006.87 194.655 973.92 
-3006.24 196.479 975.753 
-3006.17 196.196 974.994 
-3006.78 194.597 973.546 
-3008.44 194.233 973.485 
-3007.56 194.381 973.411 
-3010.7 196.265 973.094 
-3009.45 195.329 972.845 
-3010.07 196.257 972.75 
-3008.5 194.012 973.044 
-3007.13 194.464 973.269 
-3011.52 195.843 973.485 
-3011.86 195.663 973.586 
-3012.3 195.619 973.563 
-3011.08 196.115 973.246 
-3013.39 195.001 973.849 
-3012.82 195.063 973.433 
-3012.64 195.218 973.324 
-3013.47 194.824 974.896 
-3013.41 194.436 975.258 
-3013.36 194.915 974.31 
-3014.43 191.999 975.265 
-3013.44 193.878 975.464 
-3014.71 190.573 975.185 
-3014.88 189.706 974.907 
-3005.93 198.815 975.555 
-3016.29 188.437 975.268 
-3016.06 188.306 974.819 
-3015.6 188.257 974.428 
-3015.02 188.271 974.058 
-3016.77 188.903 976.265 
-3014.81 189.211 974.527 
-3014.84 188.645 974.236 
-3018.43 190.621 978.68 
-3019.69 191.119 978.954 
-3020.32 191.076 978.569 
-3020.76 190.843 978.162 
-3021.37 190.403 977.46 
-3022.07 189.782 976.829 
-3020.91 190.746 977.665 
-2990.29 228.028 958.131 
-2990.78 226.627 958.632 
-2990.75 225.396 959.899 
-2993.35 221.761 961.191 
-2989.9 229.422 957.971 
-2994.56 219.302 961.925 
-2994.09 218.928 962.916 
-2993.27 217.798 964.536 
-2985.44 234.32 961.882 
-2987.62 228.691 960.617 
-2987.9 227.686 960.478 
-2994.97 218.787 961.638 
-2996.25 227.132 950.261 
-2996.02 223.165 954.787 
-2997.95 225.388 946.752 
-2995.3 218.686 960.733 
-3045.64 173.701 981.662 
-3045.05 173.624 981.812 
-3046.44 173.866 981.611 
-3047.35 173.941 982.186 
-3048.41 173.856 982.319 
-3043.54 173.789 983.238 
-3044.35 173.621 982.182 
-3040.19 175.206 985.962 
-3037.4 176.124 988.082 
-3036.58 176.397 988.304 
-3035.87 176.647 988.413 
-3035.31 176.866 988.399 
-3034.79 177.021 987.997 
-3034.36 177.302 988.053 
-3034.49 178.771 989.528 
-3034.81 181.006 990.965 
-3034.88 182.795 991.894 
-3033.27 182.412 988.836 
-3032.4 183.371 987.328 
-3033.94 179.222 989.025 
-3034.44 178.524 989.476 
-3034.16 178.241 989.245 
-3033.89 177.861 988.714 
-3033.81 177.613 988.012 
-3057.8 176.634 990.727 
-3054.82 175.256 985.574 
-3054.07 175.178 985.074 
-3053.15 174.966 984.446 
-3056.77 174.976 986.887 
-3060.41 175.586 990.754 
-3058.03 173.386 985.86 
-3061.59 175.414 991.004 
-3058.66 172.837 985.506 
-3059.16 172.538 985.12 
-3059.84 172.265 984.981 
-3051.36 173.365 982.178 
-3031.23 182.63 984.271 
-3031.61 183.067 985.314 
-3030.24 182.571 980.425 
-3030.31 182.696 980.993 
-3030.44 182.345 981.576 
-3030.52 182.111 982.125 
-3023.39 189.003 974.295 
-3028.62 184.043 975.43 
-3030.66 182.082 980.215 
-3022.08 190.22 974.08 
-2987.31 227.523 961.515 
-2987.8 226.512 962.14 
-2987.81 224.535 964.635 
-2988.18 221.692 967.714 
-2989.97 218.912 968.296 
-2990.04 219.256 967.703 
-2989.89 218.738 968.953 
-2997.36 209.783 967.255 
-2996.61 210.142 966.659 
-2996.09 210.633 966.405 
-3004.96 198.72 974.201 
-3004.88 197.921 974.019 
-3005.15 197.568 974.05 
-3005.16 197.219 973.581 
-3005.11 198.647 974.859 
-3005.14 196.641 973.018 
-3005.11 196.617 972.793 
-3005.39 196.888 973.603 
-3005.35 196.802 973.48 
-3005.47 196.596 973.539 
-3005.32 196.605 973.305 
-3001.11 206.747 967.586 
-2999.31 208.229 967.208 
-3002.58 206.045 964.627 
-3003.15 205.483 964.346 
-3001.98 206.661 964.942 
-3003.54 205.059 964.166 
-3003.74 200.592 969.282 
-3004.16 199.49 968.06 
-3004.29 198.699 967.67 
-3004.5 197.157 967.294 
-3004.42 196.429 968.447 
-3004.35 197.892 967.069 
-3004.63 196.741 970.509 
-3005.29 196.42 972.796 
-3005.37 196.176 972.161 
-3005.36 196.165 972.599 
-3003.3 202.167 968.677 
-3003.42 202.765 967.981 
-3003.51 203.294 968.095 
-3003.42 203.545 967.895 
-3003.43 203.769 966.99 
-3003.78 204.766 964.002 
-2992.54 216.179 967.007 
-2993.6 215.579 965.972 
-2993.64 215.665 966.259 
-2994.24 214.257 965.678 
-2993.93 214.871 965.635 
-2995.14 212.903 965.606 
-2995.69 211.631 965.473 
-2995.96 211.046 965.709 
-3006.3 198.08 977.487 
-3006.13 198.45 976.532 
-3006.2 197.061 975.623 
-3006.09 198.191 975.813 
-3006.03 197.477 975.142 
-3006.36 198.698 977.292 
-3005.92 198.709 976.139 
-3006.46 197.826 978.223 
-3006.86 194.533 973.292 
-3006.62 194.688 973.854 
-3006.56 194.92 974.038 
-3006.4 195.224 974.004 
-3006.23 195.555 973.976 
-3006.05 196.041 974.104 
-3006.07 195.84 973.925 
-3006.58 194.563 973.474 
-3005.95 196.717 974.85 
-3005.98 196.378 974.496 
-3006.61 194.495 973.107 
-3007.55 194.253 973.05 
-3007.03 194.42 972.93 
-3011.05 196.239 972.61 
-3010.62 196.329 972.479 
-3008.56 193.736 972.621 
-3009.23 194.88 972.405 
-3009.79 195.89 972.364 
-3007.57 194.034 972.621 
-3006.67 194.454 972.848 
-3011.42 196.055 973.075 
-3011.79 195.846 973.383 
-3012.52 195.436 973.179 
-3012.25 195.638 973.166 
-3013.51 194.784 973.914 
-3013.41 194.863 973.304 
-3013.08 195 973.153 
-3013.01 195.137 972.998 
-3013.5 194.381 974.997 
-3013.53 194.624 974.524 
-3013.65 193.724 975.23 
-3014.28 191.632 974.787 
-3014.49 190.576 974.74 
-3014.64 189.937 974.619 
-3006.01 198.296 976.713 
-3016.8 188.406 975.472 
-3016.33 188.099 974.694 
-3015.75 188.023 974.193 
-3015.15 188.02 973.792 
-3014.63 188.029 973.431 
-3014.63 188.481 973.794 
-3014.76 188.396 973.937 
-3018.51 190.447 978.377 
-3014.63 189.03 974.166 
-3014.51 189.67 974.316 
-3019.65 191.206 978.607 
-3020.18 191.174 978.104 
-3020.3 191.265 977.484 
-3020.47 191.265 976.888 
-3020.76 191.089 976.432 
-3021.43 190.398 976.461 
-3021.37 190.832 974.085 
-2988 226.661 961.169 
-2991.39 223.013 961.948 
-2992.63 220.227 963.639 
-2988.54 225.625 961.804 
-2992.28 218.452 965.367 
-2994.54 216.152 964.539 
-2993.54 216.6 965.116 
-2992.54 217.172 965.732 
-2995.28 215.212 963.291 
-2997.34 224.166 949.722 
-2995.93 220.042 957.7 
-2995.61 217.337 960.996 
-2999.74 222.466 943.916 
-3000.51 220.47 944.121 
-3001.21 221.066 941.687 
-2999.29 221.477 945.627 
-2998.96 222.82 945.92 
-2995.89 214.952 961.894 
-3046.16 173.452 980.866 
-3045.58 173.285 980.592 
-3044.81 173.305 981.034 
-3047.2 173.496 981.141 
-3046.92 172.948 980.253 
-3048.13 173.69 981.804 
-3043.7 173.679 982.527 
-3044.21 173.463 981.37 
-3039.59 175.444 986.115 
-3042.9 173.94 982.853 
-3037.02 176.197 987.62 
-3039.55 175.443 985.657 
-3036.21 176.42 987.777 
-3035.73 176.601 987.807 
-3035.26 176.791 987.825 
-3034.35 177.337 987.403 
-3034.75 177.176 987.239 
-3033.9 177.55 987.531 
-3033.93 178.562 989.001 
-3034.03 181.655 989.987 
-3033.65 179.994 988.903 
-3032.91 180.291 988.144 
-3032.58 181.446 987.121 
-3033.24 179.761 988.5 
-3033.42 178.976 988.614 
-3033.5 178.201 988.641 
-3033.4 177.938 988.202 
-3033.38 177.875 987.46 
-3033.18 178.009 987.763 
-3056.28 173.341 983.421 
-3055.72 172.715 982.878 
-3054.5 172.394 982.1 
-3057.44 172.538 982.545 
-3063.17 174.555 990.045 
-3060.44 172.199 984.775 
-3063.77 174.063 989.129 
-3058.54 172.119 981.725 
-3049.29 171.262 979.442 
-3052.39 171.072 979.723 
-3050.4 169.965 978.344 
-3031.73 181.286 985.137 
-3032.43 180.98 986.615 
-3030.1 181.544 980.902 
-3031.25 180.272 982.389 
-3030.25 181.128 981.565 
-3030.15 181.253 981.255 
-3030.35 181.102 981.879 
-3030.45 181.082 982.225 
-3023.29 188.839 971.529 
-3020.76 191.601 971.19 
-3027.66 184.352 969.939 
-3030.95 182.027 979.172 
-3031.36 180.946 975.168 
-3031.87 180.016 968.673 
-3031.7 179.938 982.746 
-3030.99 181.014 980.491 
-3020.18 192.22 971.774 
-2988.26 224.183 964.145 
-2990.5 219.184 967.045 
-2990.09 220.412 966.389 
-2992.42 216.306 966.473 
-2997.31 209.695 966.161 
-2997.08 210.636 964.114 
-2997.64 210.161 963.953 
-2996.74 211.118 963.783 
-3004.99 198.043 974.403 
-3005.32 197.835 974.624 
-3005.46 197.368 974.313 
-3005.38 197.118 973.877 
-3004.96 198.751 975.154 
-3004.9 198.487 974.792 
-3005.42 196.437 973.346 
-3005.33 196.388 973.162 
-3005.59 196.822 973.892 
-3005.62 196.661 973.837 
-3005.57 196.597 973.703 
-3005.58 196.385 973.562 
-3005.71 196.308 973.718 
-3000.07 208.492 963.194 
-2999.74 208.364 964.696 
-3003.14 206.843 958.473 
-3003.77 206.158 958.054 
-3004.22 205.775 957.591 
-3001.14 208.54 959.299 
-3004.6 205.467 957.34 
-3003.56 201.17 968.092 
-3003.94 199.735 967.624 
-3004.02 198.983 967.084 
-3004.15 198.314 966.788 
-3004.56 196.376 967.271 
-3004.59 196.784 966.181 
-3004.38 197.331 966.242 
-3004.58 195.893 968.891 
-3004.18 197.913 965.853 
-3005.18 196.168 971.259 
-3005.38 196.206 973.036 
-3005.27 195.859 972.128 
-3005.34 195.864 972.631 
-3003.61 203.022 967.191 
-3003.64 201.479 966.938 
-3003.67 203.379 967.066 
-3003.61 203.504 967.06 
-3003.81 203.58 966.26 
-3004.21 204.348 963.363 
-3004.03 204.601 963.541 
-2994.15 214.505 965.27 
-2993.55 215.291 965.568 
-2995.44 213.641 964.338 
-2996.32 212.206 963.593 
-2996.47 211.584 963.574 
-3006.4 197.522 978.815 
-3006.19 197.901 977.723 
-3005.74 197.748 975.001 
-3005.64 198.288 975.421 
-3005.73 197.002 974.323 
-3006.2 198.924 977.492 
-3005.84 199.039 976.435 
-3005.5 198.844 975.817 
-3006.41 194.691 973.536 
-3006.34 195.099 973.795 
-3006.19 195.456 973.834 
-3005.96 195.64 973.685 
-3005.9 196.135 973.876 
-3005.85 196.341 973.965 
-3005.92 195.993 973.801 
-3006.49 194.433 973.051 
-3006.42 194.451 973.209 
-3005.77 196.591 974.029 
-3006.48 194.338 972.638 
-3007.04 194.359 972.631 
-3006.68 194.388 972.531 
-3011.35 196.191 972.319 
-3010.78 196.257 972.1 
-3009.72 195.662 972.005 
-3008.59 193.461 972.187 
-3007.64 193.771 972.209 
-3008.89 194.388 971.918 
-3006.94 194.264 972.207 
-3006.52 194.296 972.383 
-3011.78 195.981 972.738 
-3014.25 194.395 971.893 
-3013.17 195.074 971.416 
-3013.56 194.491 974.077 
-3013.55 194.638 973.458 
-3013.62 194.756 972.954 
-3013.72 194.766 972.812 
-3015.17 194.347 972.085 
-3013.57 194.251 974.687 
-3013.76 193.506 974.939 
-3014.1 191.446 974.352 
-3014.36 190.341 974.416 
-3005.18 198.589 976.031 
-3016.83 188.077 974.899 
-3018.49 190.324 977.939 
-3016.03 187.844 974.088 
-3015.32 187.788 973.576 
-3014.83 187.749 973.203 
-3014.47 187.788 972.998 
-3014.41 188.248 973.292 
-3014.44 188.789 973.702 
-3014.37 189.428 974 
-3014.22 190.166 974.117 
-3019.62 191.341 978.34 
-3019.88 191.431 977.724 
-3020 191.527 977.062 
-3020.17 191.69 976 
-3020.72 191.526 974.178 
-3019.9 192.077 974.174 
-3020.05 191.607 976.554 
-3019.77 192.673 972.02 
-2989.84 222.227 964.163 
-2995.17 214.604 964.432 
-2994.03 215.564 965.125 
-2992.85 216.071 965.891 
-2992.06 216.936 966.208 
-2996.16 213.813 962.308 
-2998.17 222.134 947.864 
-2997.17 222.789 950.948 
-2998.72 221.115 946.977 
-2996.28 220.34 955.84 
-2995.69 218.297 958.9 
-2995.76 217.043 960.061 
-2995.98 215.375 960.8 
-3003.07 217.712 941.709 
-3003.38 218.28 940.013 
-3002.79 217.023 943.034 
-2999.69 219.873 946.261 
-2996.2 214.376 960.951 
-3046.51 172.694 979.785 
-3045.26 172.908 979.891 
-3046.16 172.418 979.348 
-3044.57 173.063 980.27 
-3049.08 170.79 978.849 
-3048.41 170.594 978.117 
-3048.92 170.58 978.427 
-3043.77 173.595 981.603 
-3044.11 173.271 980.385 
-3042.97 173.811 982.18 
-3036.63 176.345 987.115 
-3038.87 175.747 985.785 
-3041.58 174.783 982.809 
-3035.75 176.646 987.116 
-3035.27 176.889 987.203 
-3033.97 177.786 986.855 
-3034.73 177.454 986.62 
-3034.3 177.698 986.632 
-3033.54 177.952 986.964 
-3032.82 179.998 987.76 
-3032.98 179.786 988.254 
-3032.96 179.595 988.086 
-3033.11 178.748 988.165 
-3033.03 178.558 987.839 
-3032.92 178.347 986.95 
-3033.01 178.243 986.555 
-3032.81 178.693 986.99 
-3056.38 172.057 981.739 
-3060.79 172.065 983.798 
-3064.59 173.727 988.288 
-3058.34 171.542 980.303 
-3056.89 171.764 980.477 
-3064.42 173.168 986.5 
-3049.99 169.527 977.927 
-3052.92 170.346 978.777 
-3050.46 169.082 977.801 
-3050.25 169.185 977.773 
-3030.53 179.715 982.512 
-3031.51 180.273 984.534 
-3032.77 179.712 987.404 
-3032.82 179.206 987.333 
-3030.09 180.246 980.968 
-3032.5 179.377 985.027 
-3030.1 180.064 980.604 
-3030.11 179.89 980.61 
-3030.24 180.451 981.825 
-3023.24 188.644 970.084 
-3020.8 191.252 969.82 
-3019.8 192.418 970.334 
-3019.59 192.865 970.968 
-3025.63 185.048 966.586 
-3027.1 183.18 965.298 
-3031.46 181.68 978.798 
-3032.01 180.907 977.006 
-3033.17 179.601 974.774 
-3033.5 178.61 970.072 
-3031.51 180.797 980.555 
-3031.28 180.019 965.572 
-3033.1 178.015 964.991 
-3032.01 179.869 982.535 
-3033.28 178.203 986.179 
-3032.68 179.427 983.182 
-2997.91 211.477 958.566 
-2998.7 210.724 958.614 
-2997.23 211.875 961.553 
-3005.25 198.381 975.083 
-3005.14 198.948 975.518 
-3005.62 196.207 973.495 
-3005.59 196.108 973.378 
-3005.74 196.407 973.828 
-3005.78 196.089 973.663 
-3001.69 208.947 955.004 
-3003.69 207.157 953.512 
-3004.31 206.537 953.062 
-3004.8 206.087 952.618 
-3004.78 205.117 957.393 
-3005.15 205.402 953.091 
-3003.81 199.445 966.699 
-3003.97 198.703 966.069 
-3004.75 196.142 967.342 
-3004.82 196.35 966.143 
-3005.61 196.339 962.598 
-3004.65 197.09 964.299 
-3004.88 195.832 969.705 
-3004.77 197.442 962.198 
-3005.41 196.882 961.725 
-3005.21 195.614 971.483 
-3005.55 195.924 973.13 
-3005.25 195.54 972.089 
-3005.48 195.488 972.527 
-3003.71 201.422 965.772 
-3003.86 202.926 966.15 
-3003.74 199.667 965.767 
-3004.02 203.244 965.713 
-3004.38 203.944 963.429 
-3004.94 204.269 960.464 
-3004.95 204.749 956.894 
-2996.54 212.966 962.04 
