-2995.49 426.079 1862.11 
-2995.18 425.687 1862 
-2991.07 433.977 1867 
-2991.07 433.705 1866.85 
-2990.97 433.038 1866.79 
-2990.89 433.309 1866.95 
-2991.7 430.221 1865.75 
-2991.95 428.582 1865.05 
-2992.23 428.514 1864.79 
-2993.01 429.456 1864.39 
-2993.47 429.95 1863.98 
-2993.95 429.358 1863.07 
-2994.93 428.766 1862.36 
-2991.09 432.354 1866.68 
-2991.04 431.587 1866.6 
-2991.64 435.468 1867.29 
-2991.52 435.311 1867.32 
-2991.39 435.137 1867.36 
-2991.13 434.76 1867.43 
-2991.26 435.092 1867.54 
-2991.17 434.932 1867.53 
-2991.16 434.597 1867.23 
-2991.13 434.328 1867.11 
-2994.62 427.469 1864.66 
-2994.8 428.084 1865.38 
-2995.26 428.77 1866.02 
-2995.4 429.3 1866.76 
-2994.14 433.568 1865.79 
-2993.23 435.641 1866.11 
-2992.28 435.691 1866.8 
-2993.71 429.261 1867.02 
-2994.2 429.019 1867.3 
-2993.91 431.601 1866.48 
-2995.33 429.733 1867.57 
-2994.99 429.724 1867.84 
-2991.91 435.568 1867.07 
-2993.53 426.843 1864.34 
-2994.35 426.763 1864.24 
-2994.61 427.131 1864.36 
-2995.16 429.708 1863.77 
-2995.78 430.203 1863.8 
-2994.66 429.121 1863.71 
-2994.34 429.253 1863.75 
-2993.87 428.792 1863.71 
-2993.36 428.233 1863.75 
-2993.37 428.121 1863.99 
-2998.63 435.229 1875.11 
-2996.15 432.468 1872.43 
-2998.34 435.162 1874.77 
-2997.99 432.608 1864.41 
-2997.34 432.215 1863.99 
-2996.96 431.947 1863.96 
-2997 429.97 1865.49 
-2996.04 429.177 1865.87 
-2997.01 429.54 1864.7 
-2996.47 428.97 1864.7 
-2996.76 429.105 1864.3 
-2996.19 428.81 1864.97 
-2996.38 431.002 1868.75 
-2995.69 429.166 1866.22 
-2995.9 429.238 1866.12 
-2996.38 431.117 1863.89 
-2998.64 438.539 1879.08 
-2998.31 437.612 1877.43 
-2998.35 438.002 1878.13 
-2998.23 436.765 1876.24 
-2998.15 435.295 1874.57 
-2999.93 438.33 1877.5 
-2999.68 436.688 1876.16 
-2999.11 436.145 1875.64 
-2999.12 435.876 1875.49 
-2998.81 435.844 1875.37 
-2998.61 435.499 1875.11 
-2996.6 432.229 1874.49 
-2997.05 432.726 1874.55 
-2996.56 432.47 1873.37 
-2988.88 414.646 1861.52 
-2989.52 412.423 1861.24 
-2988.52 414.282 1861.58 
-2988.5 410.94 1861.56 
-2988.15 414.137 1861.71 
-2987.67 409.494 1861.3 
-2988.1 410.319 1861.69 
-2987.67 408.3 1860.64 
-2993.47 418.137 1860.56 
-2993.19 416.088 1861.27 
-2991.86 415.607 1861.27 
-2991.64 415.885 1861.2 
-2992.3 418.324 1860.65 
-2987.36 418.719 1863.33 
-2987.46 418.069 1862.78 
-2987.6 417.235 1862.31 
-2987.99 417.206 1862.04 
-2992.96 424.686 1862.96 
-2994.53 425.453 1862.38 
-2991.45 424.298 1864.09 
-2989.22 421.945 1864.11 
-2988.12 405.916 1858.98 
-2988.88 405.844 1857.73 
-2988.58 405.136 1857.64 
-2998.51 433.553 1877.53 
-2996.88 432.189 1875.44 
-3008.1 439.968 1884.66 
-3001.17 437.73 1882.06 
-3006.84 439.161 1884.8 
-3001.27 437.624 1882.62 
-3000.02 437.271 1882.05 
-2999.6 436.4 1881.22 
-2999.35 435.143 1879.95 
-2998.64 433.389 1878.57 
-2998.53 433.347 1877.92 
-2995.89 427.465 1862.34 
-2995.57 426.319 1862.35 
-2995.11 425.863 1862.39 
-2990.94 433.962 1867.24 
-2990.89 433.592 1867.11 
-2990.81 432.673 1866.95 
-2990.72 433.216 1867.21 
-2990.59 432.843 1867.21 
-2990.59 427.542 1866.19 
-2990.12 425.494 1865.57 
-2991.59 427.224 1865.01 
-2992.28 428.419 1864.66 
-2991.74 426.48 1864.66 
-2992.01 427.237 1864.59 
-2992.54 428.309 1864.41 
-2993.74 429.023 1863.23 
-2994.87 428.393 1862.63 
-2990.59 431.604 1866.91 
-2989.87 428.51 1866.92 
-2990.16 427.749 1866.61 
-2991.72 435.657 1867.39 
-2991.53 435.492 1867.55 
-2991.67 435.715 1867.63 
-2991.4 435.299 1867.54 
-2991.08 434.937 1867.73 
-2990.92 434.701 1867.73 
-2990.99 434.57 1867.51 
-2991.33 435.303 1867.76 
-2991.22 435.181 1867.84 
-2991 434.35 1867.35 
-2994.98 427.923 1864.92 
-2994.97 427.479 1864.37 
-2995.46 428.525 1865.41 
-2996.15 430.976 1869.16 
-2994.03 433.726 1866.24 
-2993 435.698 1866.51 
-2992.24 435.861 1867.01 
-2991.99 435.76 1867.18 
-2993.73 429.39 1867.52 
-2994.43 429.546 1867.91 
-2993.89 431.682 1866.94 
-2995.83 430.973 1869.93 
-2995.3 430.469 1869.46 
-2993.23 427.056 1863.91 
-2993.57 426.098 1863.98 
-2994.37 426.25 1863.75 
-2994.5 426.584 1863.95 
-2994.81 426.92 1864 
-2995.07 427.26 1864.08 
-2995.45 428.971 1863.59 
-2995.29 428.519 1863.48 
-2996.21 429.734 1863.66 
-2995.9 428.927 1863.52 
-2994.28 428.314 1863.58 
-2995.14 428.268 1863.4 
-2993.96 428.043 1863.53 
-2993.46 427.997 1863.58 
-2993.15 427.384 1863.66 
-2995.83 431.83 1872.04 
-2997.85 432.104 1864.4 
-2997.66 431.504 1863.8 
-2997.17 431.001 1863.79 
-2996.7 430.52 1863.75 
-2997.27 430.009 1864.63 
-2995.77 428.875 1865.66 
-2995.94 428.738 1865.24 
-2997.41 429.879 1863.6 
-2997.06 429.395 1863.62 
-2996.27 428.465 1863.93 
-2996.59 428.696 1863.74 
-2996.81 429.013 1863.47 
-2995.96 428.347 1864.35 
-2999.61 438.313 1877.63 
-2998.5 438.724 1879.18 
-2998.27 438.195 1878.31 
-2998.1 437.433 1876.79 
-2997.92 436.451 1875.15 
-2998.06 436.593 1875.64 
-2998.05 435.554 1874.45 
-2998.41 435.752 1874.91 
-2999.14 436.423 1875.78 
-2999.5 436.734 1876.25 
-2998.69 436.154 1875.26 
-2994.79 430.902 1873.71 
-2995.38 431.385 1872.9 
-2995.9 431.93 1873.01 
-2987.7 413.601 1861.99 
-2987.81 414.252 1861.87 
-2987.21 416.95 1862.45 
-2987.27 409.124 1861.58 
-2987.78 410.1 1861.97 
-2987.44 413.621 1862.23 
-2987.28 407.964 1860.97 
-2993.2 417.873 1860.57 
-2992.94 416.361 1861.62 
-2992.08 415.402 1861.48 
-2992.01 417.561 1860.69 
-2988.03 420.469 1864.08 
-2987.06 418.88 1863.74 
-2987.01 417.753 1862.92 
-2986.85 418.076 1863.27 
-2993.32 425.333 1863.06 
-2992.3 425.488 1863.86 
-2991.7 425.55 1864.45 
-2990.31 424.706 1864.88 
-2987.65 406.016 1859.54 
-2996.35 431.632 1876.23 
-2993.96 430.158 1874.54 
-3000.3 437.631 1882.8 
-3004.26 437.839 1884.24 
-3000.87 437.566 1883.76 
-2999.52 436.184 1882.4 
-2999.98 436.638 1883.38 
-2999.18 434.887 1881.48 
-2998.1 432.775 1879.53 
-2993.26 429.293 1876.51 
-2995.86 427.353 1862.67 
-2995.58 426.506 1862.61 
-2995.19 426.093 1862.59 
-2994.63 425.682 1862.77 
-2990.82 434.003 1867.48 
-2990.48 433.506 1867.68 
-2990.73 433.572 1867.37 
-2990.42 433.083 1867.56 
-2990.26 431.815 1867.25 
-2990.16 432.584 1867.65 
-2989.9 431.808 1867.68 
-2989.14 424.667 1866.36 
-2987.83 420.964 1864.69 
-2988.08 421.055 1864.49 
-2992.16 426.194 1864.17 
-2992.25 426.706 1864.22 
-2992.72 428.224 1864.19 
-2992.53 426.963 1864.01 
-2993.19 428.032 1863.65 
-2994.47 428.236 1862.92 
-2989.59 428.81 1867.21 
-2989.37 429.122 1867.53 
-2988.78 424.795 1867.23 
-2991.91 435.867 1867.47 
-2991.6 435.72 1867.85 
-2991.46 435.512 1867.8 
-2991.85 435.954 1867.77 
-2991.11 435.114 1868.02 
-2990.83 434.773 1868.04 
-2990.47 434.135 1868.01 
-2990.3 434.174 1868.31 
-2990.68 434.112 1867.72 
-2991.38 435.483 1868.02 
-2991.23 435.346 1868.17 
-2995.29 427.92 1864.6 
-2995.45 427.698 1864.13 
-2995.69 428.425 1865 
-2995.66 431.346 1871.34 
-2993.61 433.73 1866.82 
-2992.77 435.782 1866.9 
-2992.32 436.039 1867.16 
-2992.12 435.96 1867.32 
-2993.7 429.969 1867.77 
-2994.29 429.837 1868.63 
-2994.82 430.3 1869.47 
-2993.64 432.201 1867.41 
-2995.36 430.787 1870.59 
-2994.76 430.363 1870.08 
-2993.16 426.728 1863.59 
-2993.48 426.058 1863.78 
-2994.39 425.913 1863.4 
-2994.72 426.273 1863.46 
-2994.89 426.648 1863.66 
-2995.26 427.131 1863.75 
-2995.56 427.586 1863.88 
-2996.51 428.433 1863.27 
-2996.38 428.177 1863.18 
-2996.71 428.716 1863.35 
-2995.07 428.009 1863.29 
-2996.25 427.93 1863.08 
-2994.89 427.786 1863.22 
-2994.79 427.77 1863.09 
-2995.45 431.262 1872.09 
-2997.89 431.592 1864.06 
-2997.7 430.398 1863.37 
-2996.03 428.136 1863.85 
-2996.34 428.295 1863.62 
-2996.57 428.496 1863.54 
-2995.69 428.021 1864.22 
-2998.28 438.749 1879.12 
-2998.92 438.855 1878.46 
-2999.47 438.199 1877.51 
-2998.16 438.285 1878.27 
-2998.05 437.643 1877.05 
-2997.79 436.387 1874.71 
-2998.13 435.932 1874.58 
-2997.85 437.068 1875.8 
-2998.73 436.431 1875.45 
-2999.1 436.547 1875.93 
-2999.33 436.837 1876.35 
-2998.38 436.278 1874.91 
-2993.32 430.099 1872.82 
-2994.52 430.771 1872.5 
-2986.83 416.843 1862.54 
-2987.09 416.434 1862.32 
-2986.84 417.155 1862.85 
-2987.34 409.758 1862.33 
-2987.77 410.538 1862.43 
-2987.28 413.37 1862.45 
-2986.7 416.475 1862.73 
-2987.04 409.103 1862.21 
-2993.11 417.048 1860.32 
-2992.34 415.858 1861.75 
-2992.32 415.239 1861.66 
-2986.75 418.297 1863.58 
-2986.63 417.391 1863.13 
-2993.36 425.515 1863.23 
-2992.74 426.155 1863.6 
-2988.63 404.713 1856.95 
-2987.47 405.852 1859.71 
-2988.44 404.426 1857.02 
-2992.74 429.198 1875.04 
-2992.07 429.281 1873.29 
-3000.46 436.837 1884.63 
-3002.4 435.819 1884.65 
-3005.27 437.556 1886.53 
-3001.02 437.259 1885.38 
-2999 434.7 1883.44 
-2999.48 435.312 1883.89 
-2999.82 434.979 1885.1 
-2998 432.68 1882.2 
-2997.97 432.567 1880.73 
-2993.43 429.091 1877.8 
-2990.14 428.112 1873.3 
-2989.95 428.839 1871.99 
-2996 427.428 1862.89 
-2995.64 426.891 1863.03 
-2995.43 426.536 1862.88 
-2995.07 426.14 1862.86 
-2994.52 425.785 1863.1 
-2990.25 433.526 1867.99 
-2989.87 432.939 1868.18 
-2989.98 432.825 1867.99 
-2989.71 432.283 1868.11 
-2988.59 427.351 1868.12 
-2989.5 431.718 1868.14 
-2988.23 426.994 1868.53 
-2987.59 421.183 1865.42 
-2987.73 421.124 1865.07 
-2986.83 418.881 1864.01 
-2993.03 426.539 1863.45 
-2988.3 424.461 1867.68 
-2987.95 424.226 1867.99 
-2987.41 421.182 1865.77 
-2992.11 436.08 1867.57 
-2991.67 435.916 1868.1 
-2991.52 435.713 1868.07 
-2992.12 436.216 1867.83 
-2991.9 436.11 1868.04 
-2990.83 434.96 1868.3 
-2990.3 434.355 1868.56 
-2989.74 433.508 1868.64 
-2989.98 433.503 1868.32 
-2989.74 433.695 1868.85 
-2991.48 435.763 1868.32 
-2991.38 435.592 1868.28 
-2991.19 435.48 1868.45 
-2990.86 435.124 1868.51 
-2995.9 427.901 1863.79 
-2995.06 430.781 1871.28 
-2992.76 435.312 1867.25 
-2992.32 436.156 1867.38 
-2993.9 429.737 1868.74 
-2993.58 430.548 1868.14 
-2994.09 429.961 1869.54 
-2992.75 435.154 1867.52 
-2994.55 430.311 1870.6 
-2993.98 429.929 1870 
-2993.4 425.776 1863.5 
-2995.03 426.33 1863.15 
-2995.22 426.7 1863.33 
-2995.51 427.155 1863.47 
-2995.82 427.628 1863.6 
-2996.28 428.103 1863.5 
-2996.17 427.877 1863.42 
-2996.25 427.543 1862.9 
-2996.06 427.629 1863.31 
-2994.7 430.684 1871.86 
-2998.84 438.904 1878.41 
-2998.22 438.902 1879.25 
-2997.96 438.013 1877.49 
-2998.04 438.427 1878.3 
-2999.38 437.754 1877.02 
-2997.98 437.781 1877.15 
-2997.83 437.29 1876.12 
-2997.57 436.38 1874.11 
-2998.01 436.229 1874.47 
-2997.59 436.765 1874.73 
-2998.88 436.567 1875.98 
-2998.48 436.36 1875.58 
-2998.41 436.361 1875.24 
-2999.15 436.827 1876.4 
-2998.15 436.319 1874.82 
-2992.16 429.376 1872.32 
-2993.56 430.088 1872.07 
-2986.95 412.86 1862.97 
-2987.06 413.283 1862.75 
-2986.54 415.939 1862.94 
-2986.47 416.766 1863.07 
-2986.96 409.211 1862.64 
-2986.71 413.1 1863.2 
-2986.52 418.137 1863.78 
-2986.47 417.592 1863.42 
-2987.66 404.613 1858.56 
-2986.87 407.56 1861.87 
-2990.26 429.251 1871.9 
-2990.41 430.127 1871.52 
-3000.59 435.51 1885.98 
-3002.31 434.857 1885.68 
-3005.15 436.157 1887.02 
-2997.43 431.809 1883.18 
-2999.21 434.066 1884.95 
-2998.74 433.471 1884.75 
-3000.03 433.9 1886.21 
-2999.28 433.471 1885.61 
-2993.73 428.451 1880.01 
-2993.78 428.929 1879.07 
-2991.19 427.298 1878.45 
-2990.99 427.419 1877.31 
-2989.63 431.239 1870.72 
-2989.24 428.482 1871.59 
-2989.36 431.374 1870.41 
-2990.18 426.979 1876.29 
-2989.93 431.538 1870.87 
-2995.85 427.281 1863.2 
-2989.63 432.906 1868.47 
-2989.29 432.298 1868.64 
-2989.31 432.068 1868.52 
-2988.97 430.679 1868.59 
-2986.89 420.944 1866.6 
-2986.76 420.129 1865.77 
-2987.89 426.534 1868.87 
-2986.82 420.94 1866.82 
-2986.65 418.84 1864.22 
-2987.15 420.9 1865.96 
-2986.5 418.83 1864.45 
-2992.33 436.292 1867.64 
-2991.78 436.139 1868.35 
-2991.59 435.939 1868.38 
-2992.07 436.349 1868.16 
-2992.32 436.432 1867.93 
-2990.27 434.49 1868.82 
-2989.65 433.735 1869.16 
-2989.16 432.853 1869.05 
-2989.11 432.888 1869.29 
-2989.4 432.882 1868.76 
-2989.23 432.839 1869.57 
-2991.39 435.802 1868.58 
-2990.98 435.388 1868.71 
-2990.46 434.903 1868.86 
-2994.13 430.18 1871.28 
-2993.42 430.547 1868.62 
-2993.41 429.855 1869.19 
-2992.73 435.506 1867.88 
-2992.73 435.41 1867.7 
-2993.19 429.815 1869.65 
-2993.81 429.872 1870.49 
-2993.27 429.562 1870.12 
-2998.51 439.012 1878.8 
-2997.98 438.601 1878.48 
-2998.99 437.304 1876.7 
-2997.67 437.397 1875.81 
-2997.7 437.597 1876.27 
-2997.74 437.961 1876.88 
-2997.63 437.052 1875.3 
-2997.4 436.84 1873.74 
-2997.19 436.878 1873.44 
-2997.34 436.27 1873.71 
-2997.78 436.249 1874.4 
-2997.43 436.195 1874.22 
-2997.48 437.082 1874.43 
-2998.39 436.427 1875.82 
-2998.12 436.275 1875.35 
-2998.15 436.299 1875.13 
-2997.85 436.244 1874.74 
-2991.98 429.456 1871.44 
-2990.6 430.65 1871.34 
-2990.66 432.546 1870.73 
-2993.18 429.724 1871.49 
-2986.26 416.481 1863.28 
-2986.25 417.206 1863.47 
-2986.52 413.059 1863.35 
-2986.11 416.188 1863.55 
-2986.31 417.948 1863.92 
-2986.74 407.404 1862.09 
-2987.52 404.443 1858.64 
-2986.5 412.299 1863.42 
-2986.15 413.011 1863.69 
-2986.83 405.518 1860.93 
-2987.43 404.164 1858.53 
-2990.08 433.797 1869.87 
-3001.9 433.344 1887.49 
-3002.41 433.987 1886.7 
-3004.49 435.028 1888.37 
-2993.62 427.889 1880.44 
-2993.57 427.518 1880.92 
-2997.33 431.169 1883.9 
-2998.64 432.599 1885.38 
-3001.12 432.438 1887.96 
-2999.57 432.897 1886.36 
-2998.9 432.318 1886 
-2990.51 426.662 1880.53 
-2989.6 426.286 1879.94 
-2989.92 426.434 1880.29 
-2988.97 427.505 1872.52 
-2989.02 430.975 1870.26 
-2989.86 433.708 1869.66 
-2989.61 433.358 1869.64 
-2989.27 426.108 1879.68 
-2989.05 432.21 1868.97 
-2988.87 430.607 1869.28 
-2988.71 429.663 1869.03 
-2987.61 426.222 1869.52 
-2986.06 418.178 1864.45 
-2986.21 418.17 1864.23 
-2987.24 424.73 1869.61 
-2986.86 421.198 1867.29 
-2985.82 417.889 1864.53 
-2991.65 436.125 1868.64 
-2991.88 436.613 1868.48 
-2991.48 435.985 1868.78 
-2991.55 435.953 1868.56 
-2992.39 436.577 1868.11 
-2992.2 436.512 1868.33 
-2992.76 435.527 1868.08 
-2988.89 431.983 1869.34 
-2988.81 431.316 1869.87 
-2991.11 435.567 1868.93 
-2990.65 435.23 1868.98 
-2993.39 429.637 1870.87 
-2993.14 431.736 1868.83 
-2992.82 431.273 1869.34 
-2992.47 431.12 1869.99 
-2992.54 432.423 1869.54 
-2992.79 429.721 1870.45 
-2998.29 439.064 1878.98 
-2999 438.592 1877.45 
-2997.82 438.606 1878.1 
-2997.77 438.208 1877.4 
-2998.75 437.188 1876.64 
-2997.46 437.468 1874.67 
-2997.54 437.76 1875.48 
-2997.56 438.137 1875.96 
-2997.66 438.42 1876.93 
-2997.35 437.251 1873.75 
-2997.15 437.281 1873.35 
-2997.09 436.223 1873.39 
-2997.08 436.696 1873.36 
-2997.11 436.268 1873.7 
-2996.89 437.314 1873.07 
-2997.69 436.191 1874.91 
-2997.28 436.159 1874.41 
-2997.91 436.254 1875.5 
-2992.5 429.662 1870.93 
-2990.79 433.411 1870.54 
-2991.78 430.661 1871.1 
-2990.31 434.192 1869.86 
-2990.76 435.439 1869.2 
-2986.02 417.111 1863.74 
-2985.84 415.863 1863.84 
-2986.48 408.563 1862.93 
-2986.06 412.477 1863.76 
-2985.49 415.924 1864.21 
-2987.46 403.866 1858.43 
-2988.81 403.05 1855.01 
-2986.81 404.845 1860.7 
-2986.59 405.853 1861.69 
-2989.74 426.144 1881.71 
-2993.89 426.835 1881.81 
-2997.15 430.329 1884.51 
-2997.79 431.003 1885.84 
-3000.64 430.956 1888.57 
-3003.82 433.261 1889.22 
-2998.71 428.809 1887.8 
-2998.94 430.824 1887.56 
-2987.41 425.956 1883.17 
-2986.53 426.137 1883.91 
-2987.05 425.765 1883.17 
-2988.62 427.568 1871.5 
-2988.61 425.885 1879.98 
-2988.84 430.398 1869.69 
-2988.08 426.763 1870.5 
-2987.87 426.307 1870.36 
-2987.56 425.536 1870.59 
-2987.3 424.55 1870.85 
-2985.69 417.137 1864.33 
-2985.94 417.444 1864.05 
-2987.14 423.849 1870.02 
-2986.46 419.811 1866.32 
-2985.53 417.211 1864.7 
-2991.66 436.244 1868.96 
-2992.18 436.609 1868.6 
-2991.95 436.468 1868.79 
-2991.21 435.866 1869.1 
-2992.39 436.685 1868.33 
-2992.76 435.692 1868.29 
-2988.79 430.119 1870.09 
-2992.88 432.924 1869 
-2992.07 431.896 1870.34 
-2992.18 433.364 1869.88 
-2992.39 434.682 1869.39 
-2992.65 434.105 1869.12 
-2992.06 431.23 1870.71 
-2998.09 439.054 1878.67 
-2998.9 438.591 1877.37 
-2997.68 438.901 1877.56 
-2998.46 437.003 1876.47 
-2997.25 437.639 1873.53 
-2997.4 437.85 1874.58 
-2997.43 438.27 1875.23 
-2997.52 438.583 1876.14 
-2997.6 438.748 1876.87 
-2996.88 437.668 1873.01 
-2996.99 437.853 1873.09 
-2996.9 436.528 1873.19 
-2996.85 436.099 1873.11 
-2996.78 437.106 1872.99 
-2996.92 436.391 1873.83 
-2996.88 436.154 1873.46 
-2996.59 437.677 1872.71 
-2996.6 438.03 1872.67 
-2997.35 436.102 1874.9 
-2996.95 436.268 1874.24 
-2997.64 436.205 1875.52 
-2991.6 432.426 1870.96 
-2991.02 434.087 1870.51 
-2990.93 435.685 1869.4 
-2985.72 416.559 1864.01 
-2986.19 409.663 1863.46 
-2985.26 415.244 1864.43 
-2985.38 416.371 1864.56 
-2986.97 404.198 1860.33 
-2986.74 404.433 1861.15 
-2986.53 405.501 1861.95 
-2986.18 408.95 1863.47 
-2987.52 403.612 1858.52 
-2987.58 403.389 1858.66 
-2987.98 402.852 1856.68 
-3002.41 427.877 1891.39 
-2990.78 425.303 1881.56 
-2987.89 426.74 1884.22 
-2987.23 426.059 1883.58 
-2986.94 426.845 1884.72 
-2994.11 425.768 1882.72 
-2995.32 426.42 1883.97 
-2996.75 426.732 1885.5 
-2998.57 426.93 1886.89 
-2997.94 423.327 1890.38 
-2986.11 426.704 1884.77 
-2985.85 426.225 1884.52 
-2985.67 426.598 1885.11 
-2986.27 425.82 1883.72 
-2988.36 426.64 1871.6 
-2988.5 425.715 1877.27 
-2987.57 425.539 1882.15 
-2988.2 426.622 1871.07 
-2988 424.808 1872.8 
-2987.78 424.496 1872.67 
-2987.54 424.008 1872.38 
-2987.14 423.557 1871.14 
-2987.13 422.153 1869.26 
-2986.28 419.362 1865.93 
-2985.42 417.329 1865 
-2985.22 416.328 1864.89 
-2991.98 436.443 1869.33 
-2991.53 436.117 1869.4 
-2992.2 436.636 1869.15 
-2992.37 436.799 1868.91 
-2992.39 436.783 1868.55 
-2992.72 436.016 1868.49 
-2991.78 433.164 1870.45 
-2991.92 434.605 1870.05 
-2992.14 435.483 1869.65 
-2992.54 436.667 1869.18 
-2992.61 436.505 1868.72 
-2998.76 438.382 1877.1 
-2997.97 439.295 1879.08 
-2997.66 439.435 1877.93 
-2997.52 439.148 1876.67 
-2998.24 437.009 1876.37 
-2997.18 438.049 1873.46 
-2997.3 438.345 1874.4 
-2997.39 438.855 1875.46 
-2996.68 438.286 1872.71 
-2996.84 438.377 1872.86 
-2996.66 436.952 1872.89 
-2996.6 436.573 1872.85 
-2996.44 436.323 1872.6 
-2996.79 435.817 1873.12 
-2996.44 437.504 1872.58 
-2996.62 436.475 1873.54 
-2996.6 436.071 1873.25 
-2996.31 438.025 1872.38 
-2996.3 438.383 1872.31 
-2996.36 438.682 1872.33 
-2997.15 436.041 1875.11 
-2996.87 436.214 1874.5 
-2996.52 436.528 1873.79 
-2997.68 436.543 1875.85 
-2991.3 434.818 1870.54 
-2991.6 434.222 1870.61 
-2991.43 436.018 1869.7 
-2985.09 415.132 1864.69 
-2987.11 403.84 1860.31 
-2986.91 403.782 1861.01 
-2986.58 404.46 1861.96 
-2986.43 405.876 1862.53 
-2986.03 409.755 1864.04 
-2985.02 415.078 1865.01 
-2987.25 403.481 1860.22 
-2987.68 403.154 1858.7 
-2987.64 400.161 1862.56 
-2986.88 402.065 1862.55 
-2987.53 400.119 1863.07 
-2986.74 402.306 1863.07 
-2986.7 402.254 1863.65 
-2987.38 400.101 1863.61 
-2986.84 402.696 1864.72 
-2987.27 400.053 1864.17 
-2987.51 400.175 1864.58 
-2990.47 424.479 1882.02 
-2987.24 425.325 1883.71 
-2987.4 426.49 1884.56 
-2988.92 427.838 1885.37 
-2988.1 427.971 1886.57 
-2987.17 427.518 1886.3 
-2986.07 426.998 1886.39 
-2985.74 426.813 1885.66 
-2993.8 423.022 1884.72 
-2989.43 423.958 1882.9 
-2995.6 420.723 1889.88 
-2996.03 420.237 1891.71 
-2984.99 426.416 1885.84 
-2985.42 425.992 1884.9 
-2985.17 426.413 1885.63 
-2987 425.435 1882.26 
-2985.72 425.686 1884.19 
-2988.07 425.215 1876.71 
-2987.76 424.744 1877.08 
-2987.38 424.139 1877.47 
-2987.05 423.676 1878.39 
-2987.12 423.231 1873.28 
-2986.74 423.15 1878.77 
-2987.03 421.97 1869.83 
-2986.88 422.589 1873.36 
-2986.18 419.114 1866.01 
-2985.16 416.945 1865.37 
-2985.09 416.388 1865.19 
-2992.01 436.418 1869.71 
-2992.51 436.816 1869.55 
-2992.36 436.662 1869.81 
-2991.88 434.952 1870.39 
-2992.51 436.406 1869.84 
-2998.37 439.071 1878.07 
-2997.76 439.684 1879.25 
-2997.7 439.846 1878.68 
-2998.5 437.998 1876.79 
-2997.49 439.717 1876.97 
-2997.58 440.049 1877.97 
-2997.34 439.426 1875.67 
-2998.17 437.459 1876.39 
-2997.1 438.423 1873.28 
-2997.23 438.852 1874.38 
-2996.51 438.848 1872.45 
-2996.8 438.763 1872.75 
-2996.38 436.693 1872.62 
-2996.42 437.102 1872.62 
-2996.11 436.342 1872.22 
-2996.57 435.669 1872.87 
-2996.16 437.611 1872.29 
-2996.12 438.051 1872.17 
-2996.32 436.465 1873.31 
-2996.4 435.896 1873.03 
-2996.01 438.579 1871.99 
-2996.06 438.948 1871.99 
-2995.96 439.427 1871.81 
-2996.22 439.236 1872.09 
-2997.19 436.259 1875.46 
-2996.75 436.174 1874.75 
-2996.48 436.446 1874.1 
-2996.14 436.7 1873.52 
-2997.86 437.255 1875.98 
-2991.66 435.088 1870.7 
-2991.98 436.365 1870.02 
-2986.8 403.492 1861.64 
-2987.15 403.301 1860.84 
-2986.52 404.258 1862.69 
-2986.41 405.521 1863.09 
-2986.15 408.25 1864.28 
-2985.33 413.813 1865.11 
-2984.9 415.766 1865.39 
-2987.4 403.062 1860.04 
-2986.74 402.728 1865.3 
-2987.85 400.266 1865 
-2986.35 403.144 1865.95 
-2988.14 400.313 1865.42 
-2987.17 404.9 1868.82 
-2987.5 404.333 1868.88 
-2987.1 402.169 1861.83 
-2986.84 402.674 1862.17 
-2986.69 403.145 1863.13 
-2987.02 402.939 1861.49 
-2987.35 402.364 1861.08 
-2986.77 403.165 1864.14 
-2986.5 403.856 1865.12 
-2986.22 403.882 1865.92 
-2986.41 426.275 1885.34 
-2988.7 427.496 1885.51 
-2989.92 428.373 1885.74 
-2988.95 428.396 1887.09 
-2987.7 427.084 1885.75 
-2987.95 427.927 1887.18 
-2986.97 427.451 1886.94 
-2984.72 426.456 1886.41 
-2985.7 426.852 1887 
-2988.26 423.505 1883.15 
-2992.9 422.002 1885.13 
-2994.27 419.066 1889.97 
-2986.5 425.071 1883.85 
-2995.17 418.286 1893.52 
-2994.93 418.139 1892.61 
-2997.29 420.452 1893.46 
-2994.82 417.315 1896.77 
-2984.03 426.004 1886.71 
-2984.3 426.067 1886.46 
-2985.29 425.397 1884.52 
-2985.06 425.877 1885.32 
-2984.99 426.27 1885.78 
-2984.26 425.992 1886.48 
-2986.44 425.184 1882.64 
-2986.09 424.897 1882.84 
-2986.59 424.466 1881.65 
-2985.75 424.214 1882.79 
-2985.8 423.841 1882.36 
-2986.41 422.675 1879.22 
-2985.24 423.485 1882.85 
-2986.95 421.527 1870.23 
-2986.22 419.127 1866.27 
-2986.78 421.838 1873.84 
-2986.57 421.571 1877.25 
-2985.24 417.138 1865.66 
-2984.85 416.041 1865.62 
-2992.53 436.729 1870.24 
-2991.97 435.347 1870.83 
-2992.48 436.152 1870.44 
-2997.76 439.355 1878.87 
-2998.4 438.697 1877.13 
-2997.6 440.193 1879.03 
-2997.59 440.294 1878.59 
-2997.46 440.544 1877.87 
-2997.35 440.071 1876.33 
-2997.44 440.401 1877.33 
-2997.16 439.311 1874.35 
-2997.2 439.849 1875.13 
-2998.11 438.041 1876.59 
-2997.03 438.828 1873.16 
-2996.2 439.636 1872.02 
-2996.5 439.217 1872.38 
-2996.71 439.22 1872.6 
-2996.15 437.218 1872.34 
-2996.11 436.755 1872.33 
-2995.9 436.55 1872.01 
-2995.83 436.184 1871.89 
-2996.35 435.506 1872.62 
-2995.86 437.823 1871.95 
-2995.87 438.145 1871.91 
-2995.79 438.568 1871.77 
-2996.1 436.319 1873.09 
-2996.19 435.75 1872.82 
-2995.64 439.06 1871.54 
-2995.8 439.129 1871.69 
-2995.72 439.565 1871.55 
-2995.65 440.052 1871.4 
-2995.91 439.861 1871.69 
-2996.68 436.212 1874.95 
-2997.28 436.803 1875.45 
-2996.29 436.476 1874.19 
-2995.93 436.703 1873.78 
-2995.88 436.755 1873.26 
-2997.84 437.739 1876.14 
-2986.69 403.306 1862.28 
-2987.3 402.94 1860.78 
-2986.37 405.247 1863.84 
-2986.49 404.122 1863.52 
-2986.23 406.604 1864.18 
-2986.03 409.677 1865.1 
-2985.17 414.452 1865.62 
-2986.92 405.468 1868.74 
-2987.83 406.098 1872.53 
-2988.42 404.954 1871.86 
-2987.49 406.893 1872.45 
-2986.42 404.31 1864.59 
-2986.06 405.098 1866.06 
-2986.9 406.224 1869.37 
-2985.47 425.682 1885.42 
-2986.31 426.626 1886.39 
-2987.54 427.376 1886.75 
-2989.88 428.381 1886.31 
-2990.98 429.005 1886.16 
-2989.72 428.778 1887.53 
-2988.87 428.058 1886.8 
-2988.63 428.271 1887.76 
-2987.47 427.718 1887.68 
-2986.51 427.254 1887.45 
-2984.71 426.386 1887.08 
-2983.96 426.017 1886.86 
-2985.55 426.809 1887.69 
-2988.84 422.47 1883.3 
-2986.31 423.683 1883.45 
-2985.07 425.164 1885.39 
-2991.81 420.939 1885.45 
-2992.92 418.708 1889.42 
-2994.38 417.576 1892.45 
-2993.4 417.714 1890.86 
-2994.2 416.87 1896.17 
-2994.41 416.952 1896.73 
-2994.02 416.593 1895.78 
-2997.5 419.727 1895.7 
-2983.25 425.57 1887.38 
-2983.42 425.682 1887.26 
-2983.43 425.635 1887.24 
-2984.86 425.315 1885.06 
-2984.7 425.942 1885.91 
-2984.32 425.956 1886.42 
-2983.46 425.599 1887.2 
-2985.12 424.608 1884.04 
-2984.93 424.912 1884.57 
-2984.76 424.302 1884.26 
-2984.84 423.88 1883.82 
-2986.34 422.194 1879.17 
-2985.04 423.055 1882.71 
-2985.56 422.429 1880.91 
-2984.51 423.588 1884.01 
-2984.31 423.202 1883.98 
-2986.73 420.021 1868.02 
-2986.93 421.121 1870.72 
-2986.2 419.002 1866.39 
-2986.68 420.967 1875.99 
-2986.08 421.545 1879.18 
-2985.14 416.893 1865.92 
-2984.94 415.702 1865.97 
-2997.89 439.121 1877.95 
-2997.45 439.795 1879 
-2997.43 440.776 1878.76 
-2997.43 440.844 1878.37 
-2997.39 440.856 1877.95 
-2997.29 440.962 1877.11 
-2997.23 441.243 1877.28 
-2997.2 440.414 1875.64 
-2997.29 440.751 1876.68 
-2996.96 439.224 1873.02 
-2997.05 439.703 1873.92 
-2997.04 440.219 1874.39 
-2997.98 438.652 1876.92 
-2995.91 440.189 1871.64 
-2996.11 440.173 1871.84 
-2996.39 439.704 1872.2 
-2996.61 439.687 1872.42 
-2995.99 437.088 1872.2 
-2995.56 436.619 1871.62 
-2995.76 436.831 1871.93 
-2995.79 437.597 1871.92 
-2995.46 436.266 1871.45 
-2996.14 435.363 1872.38 
-2995.53 438.177 1871.56 
-2995.56 438.503 1871.54 
-2995.45 438.996 1871.36 
-2995.87 436.215 1872.9 
-2995.99 435.595 1872.62 
-2995.34 439.517 1871.17 
-2995.46 439.66 1871.27 
-2995.44 440.067 1871.18 
-2995.38 440.597 1871.05 
-2995.61 440.528 1871.29 
-2996.38 436.464 1874.61 
-2997.57 437.563 1875.69 
-2996.87 436.827 1875.04 
-2995.66 436.773 1873.1 
-2996.05 436.718 1874.21 
-2995.56 436.922 1873.38 
-2997.73 438.175 1876.32 
-2986.27 405.331 1864.7 
-2986.19 406.646 1864.95 
-2985.97 410.098 1865.45 
-2985.22 414.308 1865.98 
-2988.36 405.358 1873.29 
-2987.53 406.455 1876.71 
-2987.87 405.924 1876.42 
-2987.34 407.027 1876.37 
-2986.31 406.357 1865.89 
-2987.05 407.548 1869.27 
-2987.06 406.935 1869.37 
-2987.22 407.478 1876.09 
-2985.45 426.396 1886.94 
-2986.72 427.262 1887.59 
-2988.1 427.987 1887.79 
-2991.22 429.186 1886.67 
-2992.17 429.712 1886.62 
-2990.88 429.335 1887.67 
-2989.43 428.635 1887.82 
-2990.68 429.165 1887.39 
-2990.08 428.974 1888.14 
-2988.94 428.444 1888.33 
-2987.7 427.851 1888.24 
-2986.47 427.26 1888.07 
-2984.56 426.342 1887.78 
-2983.56 425.852 1887.41 
-2985.36 426.735 1888.27 
-2988.38 421.725 1883.53 
-2986.15 422.86 1883.36 
-2984.34 424.831 1885.91 
-2984.44 425.963 1887.16 
-2988.24 420.914 1883.78 
-2991.13 419.011 1887.55 
-2992.11 417.261 1890.37 
-2993.8 416.226 1895.39 
-2993.1 416.953 1892.18 
-2983.06 425.184 1887.47 
-2982.8 424.758 1887.49 
-2982.54 425.275 1888.05 
-2982.62 425.28 1887.97 
-2982.56 425.173 1888.01 
-2984.52 425.407 1885.66 
-2984.12 425.793 1886.58 
-2984.64 424.832 1884.92 
-2983.5 425.559 1887.15 
-2982.67 425.198 1887.91 
-2984.4 424.014 1884.49 
-2984.37 424.724 1885.22 
-2984.67 422.356 1882.76 
-2984.38 422.798 1883.62 
-2984.63 421.792 1882.81 
-2984.09 423.771 1884.74 
-2983.92 423.642 1885.12 
-2984.18 422.896 1884.39 
-2986.68 419.773 1868.29 
-2986.86 420.557 1871.11 
-2986.1 418.623 1866.42 
-2986.73 420.341 1875.85 
-2986.51 420.479 1878.01 
-2985.88 421.167 1879.61 
-2984.78 421.38 1882.46 
-2985.1 416.712 1866.2 
-2985.06 416.02 1866.38 
-2997.48 439.443 1878.35 
-2997.24 440.295 1878.87 
-2997.26 441.383 1878.45 
-2997.26 441.406 1878.04 
-2997.21 441.435 1877.56 
-2997.08 441.618 1876.61 
-2997.13 441.348 1876.38 
-2997.03 441.883 1876.81 
-2997.04 440.777 1874.89 
-2997.17 440.975 1876 
-2996.85 439.609 1872.77 
-2996.87 439.972 1873 
-2996.9 440.523 1873.66 
-2997.67 439.017 1877.29 
-2995.8 440.652 1871.46 
-2995.98 440.699 1871.63 
-2996.31 440.193 1872.04 
-2996.56 440.11 1872.3 
-2995.72 437.298 1871.89 
-2995.27 436.108 1871.23 
-2995.21 436.656 1871.2 
-2995.22 436.811 1871.28 
-2995.61 437.077 1871.8 
-2995.51 437.819 1871.6 
-2995.97 435.167 1872.21 
-2995.25 438.265 1871.27 
-2995.23 438.675 1871.19 
-2995.21 439.069 1871.11 
-2995.11 439.579 1870.92 
-2995.5 436.604 1872.9 
-2995.67 436.045 1872.68 
-2995.76 435.581 1872.46 
-2995.06 440.018 1870.81 
-2995.16 440.231 1870.88 
-2995.2 440.568 1870.86 
-2995.28 441.115 1870.85 
-2995.12 441.077 1870.66 
-2995.51 441.042 1871.11 
-2997.23 437.449 1875.28 
-2997.5 438.077 1875.92 
-2996.54 437.086 1874.63 
-2995.69 436.953 1873.79 
-2995.25 437.033 1873.07 
-2997.59 438.726 1876.63 
-2986.32 407.81 1866.4 
-2985.92 410.356 1865.9 
-2985.25 414.243 1866.31 
-2990.68 406.613 1888.13 
-2987.93 407.055 1882.78 
-2988.17 407.867 1883.58 
-2989.08 406.144 1884.16 
-2990.85 405.839 1887.86 
-2988.28 405.324 1876.96 
-2988.72 404.911 1873.81 
-2987.96 406.066 1880.63 
-2988.45 405.33 1880.32 
-2987.31 406.839 1880.3 
-2986.94 408.246 1869.39 
-2987.17 407.944 1875.96 
-2987.09 408.308 1877.06 
-2986.94 407.321 1879.87 
-2986.73 427.404 1888.54 
-2988.04 428.032 1888.72 
-2992.22 429.926 1887.44 
-2993.18 430.34 1887.18 
-2991.61 429.699 1888.11 
-2989.18 428.58 1888.89 
-2990.4 429.127 1888.25 
-2991.57 429.68 1888.24 
-2991.08 429.474 1888.71 
-2989.98 428.948 1888.65 
-2983.81 425.966 1888.05 
-2985.96 422.12 1883.31 
-2988.27 420.051 1884.08 
-2990.17 417.686 1888.49 
-2992.57 416.029 1891.57 
-2991.81 416.31 1890.29 
-2993.71 415.255 1896.05 
-2993.65 414.604 1895.21 
-2982.36 424.87 1888.12 
-2983.29 423.552 1886.35 
-2985.77 421.484 1882.96 
-2982.29 424.681 1888.12 
-2982.31 424.95 1888.17 
-2982.25 424.768 1888.17 
-2982.32 424.831 1888.14 
-2984.19 425.687 1886.43 
-2984.13 425.212 1886.05 
-2983.27 425.405 1887.36 
-2983.4 425.416 1887.22 
-2982.54 425.055 1888 
-2984.12 424.538 1885.4 
-2984.32 422.146 1883.74 
-2984.32 421.593 1883.56 
-2984.27 422.504 1884.12 
-2984.44 421.043 1883.21 
-2983.88 424.731 1885.95 
-2983.79 423.461 1885.53 
-2983.61 424.693 1886.32 
-2984.15 422.568 1884.74 
-2986.73 419.566 1867.97 
-2986.69 419.696 1869.05 
-2986.83 420.099 1871.6 
-2986.7 419.635 1869.36 
-2986.04 418.374 1866.5 
-2986.59 419.833 1877.28 
-2986.78 419.73 1875.26 
-2986.32 420.311 1878.55 
-2985.65 420.651 1880.27 
-2984.73 420.877 1882.61 
-2985.17 415.831 1866.66 
-2986.01 418.162 1866.64 
-2997.24 439.68 1878.31 
-2997.05 440.347 1878.75 
-2997.1 441.239 1878.49 
-2997.08 442.112 1878.01 
-2997.1 441.942 1877.72 
-2997.04 442.008 1877.19 
-2996.85 442.338 1876.02 
-2996.94 441.967 1875.99 
-2997.03 441.515 1875.77 
-2996.9 441.955 1875.58 
-2996.85 442.467 1876.39 
-2996.89 441.077 1874.11 
-2997.02 441.366 1875.33 
-2996.71 440.315 1872.5 
-2996.71 440.7 1872.66 
-2997.29 439.439 1877.66 
-2995.65 441.191 1871.23 
-2995.82 441.26 1871.39 
-2996.16 440.698 1871.82 
-2996.4 440.563 1872.08 
-2995.36 437.693 1871.47 
-2994.78 436.467 1870.63 
-2995.41 435.331 1871.26 
-2994.65 436.68 1870.53 
-2994.61 436.819 1870.52 
-2995.19 436.95 1871.28 
-2995.37 437.267 1871.54 
-2995.71 435.329 1872.15 
-2995.03 438.279 1871.05 
-2994.97 438.78 1870.9 
-2994.92 439.228 1870.79 
-2994.87 439.67 1870.67 
-2994.79 440.196 1870.51 
-2995.29 436.571 1872.75 
-2995.4 436.17 1872.58 
-2995.43 435.914 1872.42 
-2994.84 440.525 1870.47 
-2994.93 440.731 1870.5 
-2995.01 440.931 1870.52 
-2995.28 441.419 1870.74 
-2995.21 441.209 1870.45 
-2995.13 440.975 1870.3 
-2995.38 441.591 1870.82 
-2996.86 437.582 1874.87 
-2997.26 438.014 1875.56 
-2997.38 438.592 1876.2 
-2996.2 437.301 1874.23 
-2995.48 437.261 1873.51 
-2994.99 437.122 1872.89 
-2997.31 439.205 1876.96 
-2985.61 412.085 1866.03 
-2986.78 409.084 1868.95 
-2985.32 414.376 1866.7 
-2990.79 407.564 1888.87 
-2989.45 410.584 1883.76 
-2990.65 409.424 1888.17 
-2987.87 406.505 1881.67 
-2988.71 405.706 1882.46 
-2989.08 405.079 1882.27 
-2988.77 410.254 1882.05 
-2987.37 407.75 1881.56 
-2987.15 407.28 1880.93 
-2988.98 404.494 1880.04 
-2988.74 404.713 1876.82 
-2989.15 404.573 1881.39 
-2987.47 409.594 1873.83 
-2987.22 407.735 1880.06 
-2987.91 410.811 1877.02 
-2988.13 410.43 1878.64 
-2992.83 430.276 1888.24 
-2994.01 430.807 1887.65 
-2992.37 430.084 1888.68 
-2990.38 429.158 1889.1 
-2991.57 429.726 1889.22 
-2987.44 419.592 1884.03 
-2988.41 418.011 1885.78 
-2991.59 416.16 1889.57 
-2993.73 413.069 1895.46 
-2992.96 414.384 1891.49 
-2992.83 414.295 1890.32 
-2982.79 423.851 1887.44 
-2985.12 421.16 1883.32 
-2986.73 419.426 1883.54 
-2982.2 424.505 1888.15 
-2982.58 423.738 1887.69 
-2982.13 424.288 1888.14 
-2982.15 424.512 1888.18 
-2982.26 424.641 1888.13 
-2983.64 425.464 1886.99 
-2983.75 425.282 1886.69 
-2982.54 424.994 1887.99 
-2982.65 425.009 1887.89 
-2984.27 421.969 1884.28 
-2984.26 421.468 1884.1 
-2984.24 420.943 1883.91 
-2984.21 422.248 1884.66 
-2984.46 420.209 1883.12 
-2984.63 420.466 1882.79 
-2984.27 420.583 1883.57 
-2983.67 423.304 1885.95 
-2983.35 424.731 1886.75 
-2983.36 425.177 1887.16 
-2986.83 419.465 1867.77 
-2986.75 419.428 1871.55 
-2986.75 419.255 1869.63 
-2986.68 419.421 1868.41 
-2986.8 419.548 1870.19 
-2986.39 419.61 1878.36 
-2986.65 419.182 1876.48 
-2986.74 419.166 1874.72 
-2986.09 419.83 1879.16 
-2985.49 420.125 1880.73 
-2984.83 420.302 1882.37 
-2985.88 417.849 1866.81 
-2985.7 417.315 1867.02 
-2987 419.33 1867.15 
-2996.88 440.368 1878.59 
-2996.93 441.549 1878.31 
-2996.94 442.52 1877.88 
-2996.93 442.5 1877.3 
-2996.8 442.978 1877.17 
-2996.86 442.585 1876.76 
-2996.75 442.489 1875.34 
-2996.64 442.882 1875.23 
-2996.67 442.926 1875.69 
-2996.83 442.041 1874.96 
-2996.72 442.465 1874.92 
-2996.67 443.072 1876.04 
-2996.87 441.731 1874.72 
-2996.63 441.058 1872.46 
-2996.77 441.428 1873.64 
-2996.42 440.868 1872.05 
-2996.97 439.879 1877.99 
-2995.52 441.725 1870.99 
-2995.8 441.663 1871.31 
-2996.07 441.148 1871.65 
-2995.45 438.576 1869.96 
-2995.1 437.797 1871.18 
-2994.86 435.558 1870.35 
-2995.1 435.359 1871.02 
-2994.3 436.255 1869.97 
-2994.96 437.044 1871.03 
-2993.99 436.683 1869.87 
-2994.36 436.907 1870.26 
-2995.12 437.336 1871.27 
-2995.39 435.637 1872.07 
-2994.8 438.341 1870.8 
-2994.72 438.863 1870.64 
-2994.67 439.319 1870.52 
-2994.59 439.796 1870.36 
-2994.6 440.106 1870.28 
-2994.67 440.268 1870.17 
-2994.79 440.425 1870.16 
-2995 436.836 1872.71 
-2995.07 436.533 1872.55 
-2995.08 436.315 1872.41 
-2995.14 436.015 1872.2 
-2994.92 440.562 1870.12 
-2995.02 440.755 1870.19 
-2995.35 441.407 1870.47 
-2995.25 440.962 1870.07 
-2995.33 441.18 1870.21 
-2995.15 440.745 1869.95 
-2995.47 441.504 1870.39 
-2995.49 441.727 1870.65 
-2996.92 437.963 1875.24 
-2996.38 437.725 1874.58 
-2996.01 437.531 1874.08 
-2997.05 438.506 1875.86 
-2997.09 439.096 1876.53 
-2995.13 437.407 1873.24 
-2994.89 437.245 1872.83 
-2996.94 439.723 1877.39 
-2985.52 413.138 1866.54 
-2986.27 410.308 1867.58 
-2987.12 409.992 1870.06 
-2987.57 411.595 1870.83 
-2985.41 414.296 1866.93 
-2985.31 415.333 1866.92 
-2992.72 409.115 1893.72 
-2991.13 412.064 1886.95 
-2992.64 411.56 1890.29 
-2990.56 413.363 1884.48 
-2990.16 413.275 1882.71 
-2989.47 413.005 1881.31 
-2988.5 410.54 1880.67 
-2988.92 413.807 1880.09 
-2988.34 410.527 1879.71 
-2987.46 411.623 1873.2 
-2988.29 413.378 1876.47 
-2987.67 413.52 1872.77 
-2993.8 430.755 1888.61 
-2992.64 430.242 1889.4 
-2988.41 417.247 1885.75 
-2992.55 414.557 1889.12 
-2993.32 411.448 1892.71 
-2993.56 412.024 1894.32 
-2983.12 423.019 1886.81 
-2985.03 420.51 1883.02 
-2986.54 418.558 1883.28 
-2982.9 422.919 1887.26 
-2982.48 423.448 1887.69 
-2982.04 424.096 1888.16 
-2982.04 424.254 1888.2 
-2982.11 424.317 1888.16 
-2982.29 424.627 1888.1 
-2983.09 425.175 1887.49 
-2982.48 424.832 1888 
-2982.32 424.613 1888.08 
-2984.23 421.857 1884.77 
-2984.22 421.339 1884.62 
-2984.2 420.809 1884.45 
-2984.16 420.173 1884.49 
-2984.19 420.244 1884.05 
-2984.14 422.106 1885.14 
-2984.43 419.362 1883.25 
-2984.57 419.527 1882.89 
-2984.7 419.904 1882.62 
-2984.24 419.94 1883.58 
-2983.62 422.935 1886.27 
-2983.07 425.017 1887.43 
-2982.97 424.811 1887.39 
-2982.61 424.87 1887.89 
-2986.58 418.629 1871.6 
-2986.67 418.934 1870.09 
-2986.82 419.199 1867.97 
-2986.74 418.677 1869.21 
-2986.52 418.312 1869.62 
-2986.51 418.838 1877.83 
-2986.2 419.119 1878.89 
-2986.56 418.323 1876.8 
-2986.62 418.613 1875.23 
-2985.91 419.212 1879.69 
-2985.38 419.601 1881.06 
-2984.9 419.715 1882.2 
-2987.08 419.071 1866.86 
-2985.75 416.905 1867.21 
-2996.64 440.395 1878.34 
-2996.73 441.108 1878.37 
-2996.77 442.229 1877.99 
-2996.77 443.162 1877.47 
-2996.72 443.072 1876.59 
-2996.55 443.624 1876.33 
-2996.59 443.634 1876.74 
-2996.55 443.038 1874.58 
-2996.32 443.525 1874.36 
-2996.51 443.342 1874.98 
-2996.46 443.521 1875.17 
-2996.64 442.509 1874.19 
-2996.58 442.808 1874.29 
-2996.45 443.622 1875.45 
-2996.51 443.606 1875.89 
-2996.74 442.079 1874.17 
-2996.57 441.479 1872.39 
-2996.3 441.318 1871.86 
-2996.38 441.47 1871.92 
-2996.68 441.864 1873.41 
-2996.09 441.414 1871.64 
-2995.57 441.967 1870.94 
-2995.67 442.16 1871.03 
-2995.9 441.902 1871.37 
-2994.85 437.854 1870.93 
-2994.77 435.894 1871.19 
-2994.16 436.444 1870.35 
-2994.66 437.133 1870.7 
-2993.78 436.753 1870.08 
-2994.11 437.001 1869.98 
-2994.85 437.392 1870.98 
-2994.57 438.382 1870.56 
-2994.5 438.894 1870.42 
-2994.39 439.445 1870.22 
-2994.4 439.762 1870.12 
-2994.52 439.937 1870 
-2994.66 440.018 1869.86 
-2994.77 440.195 1869.89 
-2994.91 440.317 1869.82 
-2994.81 437.045 1872.66 
-2994.78 436.83 1872.5 
-2994.81 436.531 1872.33 
-2994.59 436.337 1871.57 
-2995.05 440.526 1869.85 
-2995.46 441.267 1870.1 
-2995.3 440.77 1869.73 
-2995.38 441.006 1869.9 
-2995.21 440.569 1869.62 
-2995.61 441.327 1869.97 
-2995.59 441.617 1870.33 
-2995.61 441.853 1870.6 
-2996.54 438.003 1874.99 
-2996.73 438.496 1875.6 
-2995.85 437.817 1874.25 
-2995.51 437.609 1873.76 
-2996.77 439.075 1876.28 
-2996.71 439.71 1877.06 
-2994.96 437.477 1873.11 
-2994.9 437.296 1872.78 
-2996.56 440.292 1877.92 
-2986 410.997 1867.05 
-2987.67 412.027 1868.96 
-2987.72 412.019 1869.53 
-2987.92 413.208 1870.62 
-2987.82 413.889 1871.15 
-2985.47 414.455 1867.22 
-2991.44 414.072 1887.46 
-2989.29 415.871 1884.38 
-2988.75 415.852 1882.47 
-2989.3 415.682 1883.59 
-2988.26 415.957 1880.58 
-2988.24 416.191 1881.35 
-2988.81 413.935 1879.12 
-2988.19 416.069 1879.8 
-2988.28 415.971 1879.1 
-2988.51 414.124 1877.43 
-2987.72 414.464 1872.7 
-2988.14 414.336 1875.6 
-2988.66 416.799 1885.31 
-2983.66 421.869 1885.58 
-2985.23 419.596 1882.29 
-2986.37 418.219 1882.69 
-2983.97 421.063 1884.92 
-2983.2 422.11 1886.78 
-2982.78 422.683 1887.29 
-2982.35 423.257 1887.74 
-2981.96 423.878 1888.17 
-2981.88 423.706 1888.19 
-2981.93 423.971 1888.21 
-2982.12 424.257 1888.14 
-2982.32 424.507 1888.05 
-2982.19 424.312 1888.1 
-2984.2 421.301 1885.11 
-2984.16 421.715 1885.29 
-2984.17 420.726 1885.05 
-2984.14 420.239 1884.93 
-2984.05 419.616 1884.55 
-2984.04 419.686 1884.97 
-2984.13 419.691 1884.09 
-2984.21 419.326 1883.77 
-2984.76 418.821 1883.1 
-2984.8 419.043 1882.9 
-2984.81 419.301 1882.44 
-2983.3 423.198 1886.89 
-2982.54 424.695 1887.92 
-2982.56 424.769 1887.92 
-2982.39 424.56 1888.01 
-2986.46 417.953 1871.79 
-2986.85 418.595 1868.35 
-2986.61 418.045 1869.27 
-2987.31 416.367 1869.95 
-2986.86 418.013 1868.87 
-2987.12 418.744 1867.45 
-2986.7 417.351 1872.66 
-2987.18 416.152 1871.15 
-2986.43 418.449 1878.55 
-2987.03 417.738 1878.03 
-2986.17 418.552 1879.35 
-2987.32 416.732 1875 
-2986.55 418.214 1875.59 
-2987.74 416.281 1876.45 
-2985.87 418.703 1880.25 
-2985.24 419.318 1881.57 
-2985.02 419.226 1882.08 
-2987.46 418.454 1866.97 
-2985.99 416.437 1867.44 
-2996.53 441.342 1878.19 
-2996.67 443.29 1877.55 
-2996.56 442.384 1877.85 
-2996.38 443.873 1876.71 
-2995.85 443.848 1875.29 
-2995.87 443.895 1875.68 
-2996.33 443.417 1873.74 
-2996.24 443.542 1873.91 
-2996 443.691 1874.27 
-2995.48 443.586 1873.17 
-2995.31 443.601 1873.25 
-2995.82 443.75 1874.49 
-2996.56 442.646 1873.64 
-2996.39 443.19 1873.25 
-2996.39 443.257 1873.56 
-2995.81 443.8 1874.86 
-2996.6 442.354 1873.4 
-2996.49 441.903 1872.25 
-2996.25 441.912 1871.72 
-2996.08 441.901 1871.55 
-2995.7 442.035 1870.69 
-2995.79 442.345 1871.15 
-2995.78 442.25 1870.83 
-2994.6 437.919 1870.67 
-2994.07 436.656 1870.79 
-2994.22 437.184 1870.19 
-2993.59 436.869 1870.21 
-2993.8 436.749 1870.84 
-2994.58 437.44 1870.69 
-2994.31 438.51 1870.28 
-2994.28 438.927 1870.19 
-2994.23 439.401 1870 
-2994.34 439.538 1869.8 
-2994.45 439.698 1869.8 
-2994.6 439.777 1869.65 
-2994.74 439.841 1869.49 
-2994.84 440.052 1869.6 
-2994.97 440.088 1869.41 
-2995.03 440.294 1869.58 
-2994.81 437.14 1872.63 
-2994.72 436.969 1872.47 
-2994.62 436.754 1872.3 
-2994.51 436.581 1871.95 
-2994.08 436.717 1871.38 
-2995.15 440.378 1869.48 
-2995.5 440.943 1869.67 
-2995.58 441.075 1869.75 
-2995.36 440.492 1869.33 
-2995.44 440.713 1869.49 
-2995.28 440.293 1869.19 
-2995.71 441.434 1870.01 
-2995.69 440.813 1869.49 
-2995.77 441.047 1869.67 
-2995.72 441.713 1870.27 
-2995.99 438.02 1874.57 
-2996.39 438.451 1875.3 
-2996.45 439.046 1876.01 
-2995.11 437.694 1873.51 
-2995.26 437.901 1873.86 
-2996.39 439.657 1876.76 
-2996.33 440.324 1877.6 
-2994.97 437.52 1873.03 
-2994.93 437.376 1872.76 
-2996.32 440.997 1878.19 
-2985.79 411.248 1866.49 
-2987.64 412.042 1868.34 
-2988.15 413.439 1869.33 
-2988.04 413.404 1870.19 
-2988.04 414.167 1870.26 
-2987.95 413.826 1870.73 
-2987.79 414.667 1870.75 
-2988.72 416.516 1884.6 
-2986.54 417.881 1882.13 
-2986.14 418.216 1880.61 
-2985.81 418.55 1881.32 
-2986.55 417.975 1879.67 
-2988.22 415.988 1878.04 
-2986.92 417.757 1878.89 
-2984.68 419.557 1883.19 
-2983.65 421.121 1885.91 
-2983.07 421.888 1886.88 
-2982.64 422.523 1887.35 
-2982.26 422.937 1887.73 
-2981.81 423.451 1888.18 
-2981.79 423.634 1888.23 
-2981.94 423.905 1888.19 
-2981.99 423.946 1888.16 
-2982.11 424.104 1888.11 
-2982.21 424.228 1888.06 
-2984.15 421.206 1885.66 
-2984.14 420.668 1885.58 
-2984.11 420.117 1885.52 
-2984.04 419.777 1885.36 
-2983.78 419.469 1885.11 
-2984 419.224 1884.35 
-2983.78 419.561 1885.6 
-2984.65 418.617 1883.34 
-2984.25 419.515 1884.65 
-2983.61 420.841 1886.06 
-2983.21 423.013 1887.14 
-2982.36 424.38 1887.99 
-2982.31 424.357 1888.02 
-2987.12 418.046 1868.32 
-2987.72 416.156 1869.43 
-2987.41 418.093 1867.75 
-2987.92 417.689 1867.23 
-2986.29 415.821 1867.66 
-2985.5 414.373 1867.51 
-2996.35 442.036 1877.87 
-2996.42 443.127 1877.54 
-2996.42 443.875 1877.13 
-2995.47 443.95 1875.56 
-2995.47 443.994 1875.92 
-2995 443.816 1874.1 
-2994.88 443.832 1874.26 
-2994.76 443.867 1874.43 
-2995.7 443.459 1872.66 
-2995.57 443.523 1872.88 
-2995.18 443.672 1873.51 
-2995.43 443.16 1872.49 
-2995.35 443.016 1872.52 
-2995.21 443.171 1872.83 
-2995.03 443.697 1873.69 
-2996.41 443.018 1872.97 
-2995.81 443.422 1872.47 
-2995.99 443.399 1872.35 
-2996.48 442.639 1872.81 
-2996.39 442.279 1872 
-2996.18 442.288 1871.59 
-2995.93 442.45 1871.31 
-2995.86 442.038 1870.49 
-2995.81 441.827 1870.33 
-2995.86 442.474 1870.97 
-2995.93 442.247 1870.65 
-2994.35 438.028 1870.39 
-2993.46 436.99 1870.3 
-2993.97 437.284 1869.92 
-2993.6 436.839 1871.03 
-2993.79 436.837 1871.5 
-2994.34 437.536 1870.44 
-2994.06 438.633 1870.02 
-2994.03 439.033 1869.84 
-2994.11 439.247 1869.84 
-2994.26 439.297 1869.61 
-2994.41 439.342 1869.42 
-2994.51 439.541 1869.5 
-2994.65 439.592 1869.31 
-2994.8 439.64 1869.13 
-2994.88 439.857 1869.26 
-2995.03 439.914 1869.09 
-2995.13 440.152 1869.22 
-2994.84 437.229 1872.6 
-2994.79 437.137 1872.48 
-2994.71 436.966 1872.4 
-2994.4 436.771 1872.11 
-2994.64 436.89 1872.28 
-2994.13 436.775 1871.84 
-2995.59 440.563 1869.3 
-2995.41 440.015 1868.88 
-2995.5 440.286 1869.09 
-2995.29 439.939 1868.85 
-2995.85 441.343 1869.9 
-2995.72 440.358 1869.1 
-2995.82 440.623 1869.3 
-2995.9 440.881 1869.49 
-2995.28 438.09 1874.06 
-2995.98 438.223 1874.77 
-2996.13 439.066 1875.81 
-2996.02 438.679 1875.25 
-2996.03 439.644 1876.48 
-2995.01 437.726 1873.36 
-2995.05 437.881 1873.53 
-2996.05 440.142 1877.15 
-2996.12 441.111 1878.05 
-2995.92 440.741 1877.74 
-2995 437.62 1873.05 
-2994.95 437.461 1872.74 
-2985.74 411.346 1866.49 
-2987.62 411.998 1867.71 
-2988.19 413.44 1868.73 
-2988.29 414.121 1869.34 
-2988.19 413.834 1869.83 
-2987.99 416.084 1868.98 
-2983.11 421.433 1886.74 
-2982.7 422.082 1887.2 
-2982.37 422.387 1887.51 
-2981.69 423.233 1888.21 
-2982.02 422.737 1887.85 
-2981.76 423.511 1888.22 
-2981.91 423.731 1888.16 
-2982.01 423.85 1888.12 
-2982.13 424.005 1888.07 
-2984.11 420.646 1886.11 
-2983.34 422.4 1887.19 
-2984.07 420.071 1886.05 
-2983.9 419.721 1885.89 
-2983.53 419.365 1885.67 
-2983.89 418.975 1884.74 
-2984.58 418.461 1883.87 
-2983.62 419.578 1886.36 
-2983.51 419.443 1886.16 
-2984.01 419.659 1885.35 
-2983.43 420.721 1886.34 
-2982.28 424.162 1887.99 
-2982.19 424.057 1888.03 
-2987.7 417.599 1867.92 
-2988.3 417.114 1867.54 
-2988.34 415.961 1868.56 
-2985.9 415.384 1868.03 
-2985.65 411.805 1866.85 
-2987.91 416.364 1867.46 
-2996.15 442.203 1877.76 
-2995.86 443.942 1876.71 
-2996.16 443.312 1877.42 
-2994.58 443.89 1874.53 
-2994.45 443.919 1874.68 
-2994.71 444.052 1875.36 
-2994.85 443.436 1873.51 
-2994.73 443.331 1873.61 
-2994.61 443.36 1873.82 
-2995.7 442.953 1871.92 
-2995.58 442.971 1872.15 
-2995.08 443.23 1873.05 
-2995.51 442.748 1872.06 
-2995.44 442.645 1871.98 
-2995.33 442.652 1872.29 
-2995.22 442.71 1872.52 
-2995 443.059 1873.06 
-2996.27 443.241 1872.38 
-2995.81 443.039 1871.83 
-2995.94 443.225 1871.83 
-2996.34 443.01 1872.21 
-2996.3 442.672 1871.77 
-2996.08 442.733 1871.42 
-2995.95 442.705 1871.17 
-2995.94 441.559 1870.06 
-2996 441.831 1870.27 
-2996 442.492 1870.84 
-2996.07 442.106 1870.49 
-2994.14 437.999 1870.19 
-2993.91 438.55 1869.87 
-2993.25 437.086 1870.55 
-2993.39 436.949 1871.21 
-2993.85 437.431 1869.82 
-2993.8 436.932 1871.64 
-2993.45 437.023 1871.35 
-2994.04 437.683 1870.11 
-2993.91 438.837 1869.63 
-2994.04 438.891 1869.46 
-2994.16 439.089 1869.51 
-2994.32 439.09 1869.25 
-2994.47 439.138 1869.05 
-2994.56 439.357 1869.17 
-2994.71 439.408 1868.97 
-2994.87 439.463 1868.78 
-2994.95 439.681 1868.92 
-2995.11 439.68 1868.7 
-2995.18 439.912 1868.88 
-2994.91 437.384 1872.61 
-2994.83 437.25 1872.48 
-2994.71 437.066 1872.34 
-2994.41 436.959 1872.13 
-2994.03 436.928 1871.87 
-2995.63 440.108 1868.91 
-2995.55 439.855 1868.71 
-2995.38 439.543 1868.49 
-2995.49 439.622 1868.53 
-2995.26 439.523 1868.51 
-2995.98 441.126 1869.68 
-2995.76 439.878 1868.68 
-2995.84 440.204 1868.94 
-2995.94 440.431 1869.1 
-2996.04 440.641 1869.26 
-2995.66 438.346 1874.65 
-2995.15 438.238 1874.08 
-2995.08 438.028 1873.68 
-2995.72 439.314 1875.83 
-2995.66 438.815 1875.15 
-2995.71 440.472 1877.15 
-2995.67 439.904 1876.5 
-2995.03 437.785 1873.22 
-2995.9 441.646 1877.9 
-2995.68 441.241 1877.77 
-2995 437.605 1872.84 
-2987.5 411.863 1866.99 
-2988.24 413.437 1868.2 
-2988.25 413.627 1868.64 
-2982.85 421.481 1886.95 
-2982.31 422.109 1887.49 
-2981.62 423.06 1888.22 
-2982.04 422.208 1887.71 
-2981.6 423.139 1888.25 
-2981.76 423.42 1888.2 
-2981.83 423.476 1888.16 
-2981.96 423.675 1888.11 
-2982.03 423.738 1888.08 
-2983.58 421.56 1887.15 
-2984.02 420.054 1886.63 
-2982.27 423.789 1888.06 
-2983.85 419.772 1886.39 
-2983.26 419.255 1886.27 
-2983.78 418.743 1885.12 
-2984.38 418.519 1884.6 
-2983.7 419.856 1885.93 
-2983.35 419.274 1886.71 
-2983.54 419.496 1886.82 
-2983.25 420.671 1886.45 
-2982.11 423.822 1888.03 
-2988.73 415.849 1868.07 
-2988.55 414.238 1868.75 
-2985.93 413.03 1867.38 
-2987.59 411.782 1866.55 
-2988.88 415.556 1867.82 
-2995.94 442.753 1877.59 
-2995.32 443.879 1876.36 
-2995.52 443.558 1876.88 
-2994.49 443.347 1873.97 
-2994.37 443.4 1874.18 
-2994.24 443.72 1874.57 
-2994.34 444.038 1875.2 
-2994.91 442.953 1873.14 
-2994.85 442.726 1873.08 
-2994.72 442.802 1873.31 
-2994.61 442.797 1873.48 
-2995.79 442.928 1871.53 
-2995.69 442.843 1871.59 
-2995.6 442.773 1871.76 
-2995.14 442.596 1872.57 
-2995.52 442.685 1871.63 
-2995.42 442.596 1871.61 
-2995.34 442.554 1871.93 
-2995.24 442.475 1872.1 
-2995.04 442.488 1872.65 
-2996.08 443.254 1871.69 
-2995.9 443.022 1871.51 
-2996.01 443.112 1871.44 
