-2963.83 310.02 1518.13
-2963.58 314.121 1516.23
-2963.65 312.274 1517.37
-2963.76 308.909 1518.96
-2963.04 311.133 1521.06
-2963.1 310.031 1521.75
-2963.32 309.028 1521.71
-2963 314.422 1518.31
-2962.99 313.043 1519.47
-2962.69 312.118 1521.48
-2963.95 307.602 1519.55
-2962.74 310.868 1522.36
-2962.83 309.271 1523.22
-2962.31 310.35 1523.8
-2963.2 314.989 1517.46
-2963.05 315.95 1517.54
-2962.45 313.441 1520.88
-2962.38 312.742 1522.21
-2963.13 308.483 1522.75
-2962.11 311.198 1523.49
-2962.43 311.651 1522.76
-2962.34 309.326 1524.49
-2962.67 308.598 1524.15
-2961.55 310.559 1524.84
-2962.62 314.554 1519.89
-2962.74 315.368 1519.93
-2964.34 306.696 1519.79
-2962.77 316.161 1519.27
-2962.42 314.38 1521.32
-2963.49 307.313 1522.62
-2962.81 307.732 1524.02
-2961.53 311.481 1524.37
-2962.01 312.067 1523.49
-2962 312.864 1523.3
-2962.08 308.869 1525.4
-2961.48 309.725 1525.52
-2960.47 311.718 1526.27
-2962.51 315.267 1521.58
-2962.69 315.716 1520.83
-2962.64 316.333 1521.52
-2965.1 316.742 1543.65
-2962.32 313.776 1522.21
-2960.64 312.509 1525.65
-2960.6 313.223 1525.43
-2960.55 309.094 1527.11
-2960.44 310.86 1526.71
-2962.3 314.584 1522.24
-2963.54 306.419 1523.19
-2962.92 307.248 1524.75
-2962.43 316.115 1522.48
-2962.84 317.012 1536.81
-2962.46 314.502 1542.23
-2961.49 315.535 1536.47
-2961.95 314.448 1522.96
-2961.79 313.593 1523.35
-2960.55 314.025 1525.24
-2962.26 308.079 1525.25
-2960.88 308.454 1527.73
-2959.27 313.807 1526.87
-2959.09 309.288 1527.91
-2959.4 310.76 1527.99
-2962.28 315.243 1522.59
-2964.21 305.511 1523.27
-2961.99 315.328 1523.35
-2962.9 317.101 1522.77
-2960.38 318.335 1531.24
-2963.89 318.258 1532.01
-2959.79 317.402 1531.46
-2961.95 313.599 1543.31
-2964.7 314.169 1551.76
-2960.46 315.835 1532.6
-2959.6 315.798 1526.21
-2959.63 308.751 1528.66
-2959.24 312.755 1527.45
-2959.41 311.784 1527.68
-2959.51 314.837 1526.41
-2958.59 309.948 1528
-2960.51 315.484 1525.13
-2960.84 316.268 1525
-2963.46 306.477 1525.15
-2962.37 307.361 1525.54
-2964.1 305.772 1525.14
-2960 308.431 1529.34
-2965.24 305.058 1525.65
-2961.36 317.248 1524.65
-2962.18 316.164 1523.21
-2962.48 319.012 1529.55
-2958.96 319.536 1530.63
-2960.55 314.318 1536.34
-2963.68 313.431 1551.43
-2960.13 315.946 1531.72
-2964.29 313.371 1554.33
-2964.54 313.312 1555.41
-2958.91 318.196 1532.31
-2958.14 318.096 1530.72
-2964.27 312.917 1556.45
-2959.59 308.735 1530.07
-2958.79 313.751 1527.76
-2958.94 309.461 1528.91
-2959.16 309.352 1529.91
-2958.91 310.882 1528.69
-2958.86 310.193 1529.09
-2959.64 317.507 1526.46
-2959.42 316.737 1526.53
-2961.23 307.669 1527.79
-2961.74 306.891 1527.9
-2962.07 306.134 1528.44
-2960.33 307.83 1529.66
-2962.43 305.772 1529.13
-2963.34 305.53 1529.37
-2963.19 318.303 1523.59
-2964.67 319.208 1527.45
-2962.6 319.731 1528.49
-2961.15 319.812 1529.23
-2962.07 317.735 1523.36
-2960.87 319.123 1525
-2961.22 317.973 1524.72
-2960.08 318.816 1526.29
-2959.01 320.104 1531.43
-2959.08 320.866 1530.1
-2958.66 319.852 1529.71
-2958.25 318.589 1529.7
-2958.77 316.622 1531.25
-2958.79 317.432 1531.5
-2961.37 312.997 1543.09
-2962.88 312.759 1551.33
-2963.49 312.693 1554.41
-2964.81 312.818 1559.04
-2966.16 319.15 1587.03
-2968.75 313.978 1608.26
-2959.36 316.065 1526.93
-2959.57 308.512 1530.86
-2958.65 311.996 1528.47
-2958.65 314.583 1527.65
-2959.11 315.134 1527.08
-2958.7 310.464 1530.24
-2958.57 311.564 1529.44
-2958.99 317.548 1527.18
-2960.75 306.88 1530.47
-2960.17 307.338 1530.78
-2959.54 307.788 1531.12
-2963.84 305.193 1530.12
-2964.18 304.881 1530.89
-2964.75 304.425 1531.65
-2961.2 306.386 1531.24
-2961.63 305.943 1531.85
-2959.72 319.29 1526.81
-2963.31 319.368 1525.22
-2963.39 319.24 1526.67
-2962.04 319.885 1526.29
-2962.27 319.401 1524.56
-2962.23 318.928 1523.98
-2960.29 321.993 1528.5
-2959.47 321.931 1530.64
-2959.59 322.646 1529.38
-2958.96 320.956 1528.99
-2960.07 313.165 1536.86
-2960.81 312.107 1543.24
-2963.86 312.665 1555.61
-2963.86 312.211 1556.81
-2964.04 312.354 1559.91
-2963.86 311.829 1558.8
-2964.91 312.768 1561.69
-2965.32 317.94 1583.99
-2964.78 320.402 1591.36
-2965.37 317.713 1582.55
-2962.99 322.721 1594.22
-2964.22 321.903 1594.05
-2967.38 314.162 1606.52
-2967.75 315.054 1605.97
-2968.28 313.315 1608.61
-2968.6 312.031 1609.76
-2959.43 308.387 1531.94
-2958.52 313.067 1528.87
-2959.19 309.219 1530.96
-2959.03 308.991 1532.19
-2958.78 310.172 1531.7
-2958.06 310.739 1530.71
-2957.64 310.325 1531.33
-2959.21 319.171 1527.35
-2959.32 318.374 1527.02
-2965.02 304.215 1532.73
-2965.28 304.502 1535.21
-2962.15 305.509 1532.49
-2961.05 306.496 1532.2
-2961.41 306.119 1532.75
-2960.3 319.544 1526.12
-2961.03 320.515 1525.97
-2960.4 321.862 1527.61
-2961.24 318.866 1524.3
-2960.57 320.168 1525.28
-2959.56 322.989 1528.5
-2959.23 321.956 1528.23
-2960.54 311.907 1542.38
-2962.51 312.25 1550.88
-2962.82 311.792 1554.22
-2963.59 311.595 1556.49
-2963.33 312.681 1559.71
-2962.55 315.875 1565.58
-2964.11 313.262 1562.88
-2964.89 313.283 1565.49
-2965.05 313.519 1568.19
-2965.6 318.861 1587.43
-2964.94 317.295 1583.3
-2965.04 317.026 1581.93
-2964.07 322.956 1595.79
-2964.96 322.397 1595.72
-2965.36 319.662 1591.84
-2964.71 321.088 1594.13
-2965.84 321.66 1595.45
-2967.26 317.269 1604.06
-2966.16 316.482 1604.9
-2966.41 317.154 1604.35
-2965.84 315.911 1605.47
-2967.05 313.503 1606.98
-2966.61 312.661 1607.55
-2969.59 310.952 1611.6
-2966.93 312.019 1607.74
-2959.45 308.287 1532.88
-2958.26 311.264 1531.38
-2959 316.773 1527.74
-2960.08 307.476 1532.18
-2959.99 307.591 1533.08
-2962.1 305.621 1533.69
-2963.41 305.479 1536.1
-2962.7 306.011 1536.13
-2964.13 305.918 1539.23
-2964.06 306.019 1540.23
-2960.58 306.968 1532.62
-2961.41 306.206 1533.85
-2963.84 306.306 1541.41
-2959.91 320.483 1526.88
-2958.9 320.508 1528.23
-2960.94 320.167 1524.53
-2960.2 322.416 1526.03
-2960.27 320.462 1525.97
-2959.94 322.407 1527.01
-2959.7 321.556 1527.23
-2959.43 320.528 1527.46
-2958.4 318.485 1528.53
-2958.79 319.41 1527.94
-2959.66 312.156 1537.06
-2958.77 315.107 1531.57
-2958.89 312.068 1534.41
-2957.95 317.785 1529.74
-2958.15 317.795 1528.8
-2962.11 311.335 1550.62
-2963.57 311.202 1557.48
-2962.66 312.953 1559.3
-2961.01 318.114 1569.2
-2960.87 317.343 1567.09
-2963.17 314.158 1564.49
-2964.11 313.566 1565.99
-2964.6 317.048 1584.06
-2964.14 320.261 1591.87
-2964.8 316.608 1581.08
-2965.45 322.826 1597.23
-2966.73 321.923 1597.2
-2965.83 320.115 1594.64
-2966.33 320.907 1595
-2966.76 322.826 1600.46
-2966.97 318.35 1603.46
-2966.18 318.481 1603.58
-2965.4 317.957 1604.13
-2965.32 316.882 1604.73
-2965.64 315.173 1606.05
-2969.97 310.324 1612.13
-2969.13 310.752 1610.54
-2958.38 313.979 1528.47
-2958.72 315.624 1527.9
-2958.4 309.839 1532.42
-2958.57 318.175 1527.86
-2959.25 308.397 1533.84
-2959.95 307.613 1533.84
-2962.08 306.576 1536.43
-2963.19 306.937 1539.88
-2963.32 306.754 1541.05
-2960.89 306.686 1534.1
-2963.93 305.642 1543.42
-2962.97 306.56 1543.28
-2964.64 304.32 1546.62
-2958.65 319.688 1528.71
-2960.03 321.489 1526.45
-2960.62 321.041 1525.34
-2960.21 311.906 1539.63
-2959.51 311.389 1537.14
-2958.94 310.874 1535
-2958.54 311.08 1534.17
-2958.06 316.815 1529.24
-2960.39 311.328 1543.09
-2963.29 311.956 1555.16
-2962.16 312.594 1558.29
-2961.47 312.916 1558.42
-2960.66 316.55 1565.45
-2960.78 317.218 1568.87
-2962 315.689 1567.04
-2963.31 313.83 1566.28
-2964.63 313.667 1569.45
-2966.25 313.486 1571.1
-2965.66 319.1 1592.6
-2964.99 318.378 1587.75
-2964.62 316.774 1582.78
-2964.25 316.438 1581.78
-2963.26 322.538 1595.81
-2964.48 322.938 1597.19
-2964.67 316.263 1580.37
-2966.96 322.482 1598.59
-2966.11 323.226 1598.97
-2965.14 323.012 1598.51
-2966.49 319.222 1594.92
-2967.3 321.05 1601.61
-2966.02 322.661 1600.34
-2966.16 320.621 1602.09
-2966.01 319.871 1602.64
-2964.78 319.958 1601.94
-2964.87 318.853 1602.95
-2965.47 314.136 1606.48
-2965.16 315.561 1605.28
-2970.5 309.691 1612.84
-2968.05 310.894 1608.33
-2967.5 311.434 1607.9
-2965.51 312.204 1606.89
-2958.18 315.989 1528.67
-2958.33 309.285 1532.96
-2959.03 308.262 1534.7
-2958.14 308.968 1533.89
-2958.04 311.08 1532.53
-2958.18 313.393 1530.08
-2961.35 307.238 1536.72
-2962.36 307.647 1540.79
-2962.59 307.598 1539.91
-2962.51 307.594 1541.62
-2960.44 307.141 1534.47
-2964.08 304.686 1545.85
-2962.37 307.182 1543.3
-2964.69 304.391 1547.78
-2964.9 304.82 1550.1
-2960.84 321.461 1524.31
-2960.48 322.357 1525.3
-2958.19 311.779 1533.74
-2958.72 314.172 1531.59
-2958.45 313.951 1530.55
-2958.57 316.709 1528.57
-2960.63 315.338 1563.36
-2963.08 310.618 1557.28
-2960.88 313.487 1560.85
-2960.96 315.368 1565.79
-2962.09 314.758 1567.98
-2962.76 314.305 1567.43
-2965.53 313.973 1571.6
-2963.95 316.48 1583.96
-2963.77 322.576 1596.96
-2965.57 322.778 1599.62
-2964.56 321.456 1600.14
-2965.24 322.098 1600.18
-2963.91 320.755 1600.2
-2963.53 319.743 1600.62
-2965.33 312.92 1606.99
-2964.74 314.803 1604.91
-2958.91 307.876 1535.51
-2958.24 314.016 1529.27
-2958.04 308.868 1534.85
-2958.03 309.857 1533.32
-2958.09 310.682 1533.46
-2959.6 307.527 1535.05
-2961.93 308.08 1541.33
-2962.43 307.596 1539
-2963.24 305.423 1545.45
-2964.41 304.761 1548.52
-2963.61 304.942 1546.82
-2962.77 305.626 1546.43
-2964.99 308.046 1559.65
-2965.42 306.022 1553.83
-2958.5 310.346 1534.4
-2961.9 310.609 1550.84
-2962.42 310.839 1554.35
-2961.17 313.832 1563.48
-2964.87 318.444 1590.87
-2962.47 322.13 1594.62
-2962.69 321.954 1596.23
-2963.77 316.283 1582.87
-2964.24 322.43 1598.02
-2963.29 321.904 1597.29
-2963.62 320.93 1599.51
-2964.75 318.099 1602.93
-2963.03 319.855 1599.76
-2968.64 310.37 1608.75
-2964.94 313.456 1606.15
-2964.77 316.773 1603.63
-2964.59 315.445 1604.18
-2963.97 318.439 1601.34
-2963.81 319.28 1601.29
-2960.17 308.25 1537.14
-2960.77 307.76 1536.83
-2958.19 308.306 1535.96
-2958.16 309.548 1535.57
-2961.27 308.45 1539.08
-2961.85 308.249 1539.88
-2961.83 307.646 1543.68
-2963.74 305.233 1548.54
-2962.68 305.71 1547.18
-2962.24 306.324 1545.79
-2966.76 309.764 1570.04
-2964.95 309.928 1565.61
-2965.22 309.302 1564.69
-2964.76 306.359 1553.24
-2964.07 305.263 1549.5
-2959.88 311.145 1540.3
-2958.68 310.109 1535.23
-2960.51 310.67 1543.69
-2960.95 312.776 1559.91
-2961.19 313.086 1562.25
-2964.8 317.499 1587.48
-2963.76 320.407 1592.71
-2962.45 321.92 1595.37
-2963.86 316.07 1581.18
-2964.23 315.441 1580.16
-2965.51 315.424 1577.35
-2964.72 322.161 1599.16
-2963.72 321.62 1598.37
-2965.07 314.635 1577.7
-2969.09 309.975 1609.25
-2967.31 311.272 1606.54
-2966.45 311.728 1606.2
-2965.13 312.504 1605.89
-2964.84 312.898 1605.08
-2964.67 317.118 1602.61
-2963.83 318.27 1600.34
-2963.42 318.954 1599.53
-2960.96 308.982 1539.51
-2957.97 309.016 1536.28
-2959.47 308.674 1537.5
-2959 309.515 1537.75
-2959.43 310.54 1537.45
-2961.29 307.937 1544.37
-2961.49 308.541 1541.9
-2961.19 308.842 1540.95
-2962.1 306.304 1546.89
-2964.23 308.636 1559.57
-2967.09 309.528 1577.56
-2963.25 306.1 1549.9
-2964.17 306.762 1553.01
-2962.76 305.94 1548.07
-2963.89 308.363 1556.1
-2960.03 311.073 1539.56
-2962.01 309.653 1551.13
-2961.25 309.446 1547.66
-2962.53 310.142 1554.66
-2963.2 310.975 1556.2
-2962.23 310.46 1556.97
-2960.79 311.518 1555.6
-2961.17 312.589 1557.65
-2961.4 313.517 1564.61
-2965.55 314.627 1573.13
-2965.62 314.061 1573.62
-2964.75 314.499 1572
-2964.59 318.017 1591.64
-2962.59 321.329 1594.91
-2962.99 321.254 1595.79
-2963.31 320.793 1598.7
-2963.24 320.954 1597.7
-2969.69 309.171 1609.43
-2965.45 312.254 1605.07
-2964.68 315.798 1603.37
-2964.14 317.777 1599.55
-2963.79 318.248 1599
-2963.78 318.757 1598.17
-2963.62 319.436 1598.48
-2963.54 320.182 1598.19
-2960.44 309.715 1539.49
-2960.03 310.33 1539.43
-2960.78 309.541 1540.57
-2961.7 306.882 1545.89
-2966 311.352 1571.11
-2964.68 310.552 1566.12
-2963.73 309.804 1562.44
-2963.37 309.949 1561.78
-2967.86 310.366 1583.45
-2966.19 310.21 1581.8
-2966.6 310.081 1577.57
-2965.62 310.866 1581.8
-2962.76 306.537 1549.24
-2963.87 308.026 1554.95
-2963.65 309.32 1559.58
-2962.88 310.795 1555.4
-2963.11 310.05 1555.58
-2961.61 310.239 1556.29
-2960.83 312.775 1558.93
-2962.02 314.115 1567.52
-2962.33 313.443 1567.05
-2961.2 312.502 1561.41
-2964.6 316.723 1587.4
-2963.34 320.302 1593.61
-2964.4 318.672 1592.46
-2963.61 315.694 1584.52
-2963 321.285 1596.76
-2963.38 320.753 1596.25
-2963.8 315.335 1581.53
-2968.16 310.138 1606.51
-2967.23 311.44 1605.65
-2966.13 312.101 1604.79
-2970.35 308.294 1609.18
-2964.75 313.492 1604.37
-2964.61 317.026 1600.81
-2964.4 317.899 1595.14
-2963.92 319.192 1596.87
-2963.98 319.628 1596.05
-2964.19 318.928 1594.32
-2960.68 309.752 1541.4
-2960.38 310.153 1540.83
-2960.59 309.858 1544.04
-2965.45 311.948 1571.04
-2963.2 310.637 1562.09
-2967.66 309.847 1588.07
-2965.89 310.879 1584.05
-2966.85 310.28 1573.74
-2966 310.726 1578.33
-2963.3 307.442 1552.41
-2969.17 309.093 1606.34
-2969.2 309.089 1603.34
-2962.69 310.348 1556.35
-2961.2 310.946 1556.56
-2961.48 313.025 1564
-2963.95 314.799 1572.03
-2964.73 314.336 1573.35
-2965.75 313.344 1574.74
-2964.85 317.092 1590.69
-2963.8 315.465 1583.79
-2964.55 315.906 1587.49
-2963.84 315.408 1582.66
-2964.16 314.882 1580.86
-2964.19 313.938 1580.66
-2964.09 314.341 1581.78
-2963.72 320.258 1595.66
-2967.78 310.899 1605.69
-2966.81 311.809 1604.56
-2965.19 315.327 1601.83
-2964.82 316.36 1601.55
-2964.67 317.345 1595.69
-2965.07 316.726 1596.71
-2965.27 315.82 1592.96
-2964.89 315.974 1592.25
-2964.6 317.172 1592.91
-2963.06 320.748 1594.94
-2960.69 309.016 1544.29
-2961.36 308.742 1548.4
-2961.52 307.372 1546.81
-2964.37 311.071 1566.73
-2967.08 310.598 1588.47
-2965.06 311.811 1583.59
-2965.58 311.348 1578.36
-2963.38 308.585 1554.71
-2963.4 308.822 1555.42
-2962.11 307.113 1548.64
-2961.91 306.983 1547.59
-2968.2 310.145 1605.77
-2968.65 309.926 1603.25
-2968.8 309.757 1599.87
-2968.24 310.337 1593.68
-2962.18 308.982 1551.59
-2962.81 309.491 1554.88
-2962.83 309.79 1556.91
-2961.01 312.107 1556.57
-2960.88 312.004 1558.14
-2962.38 312.845 1566
-2963.68 313.797 1570.51
-2961.42 312.22 1562.17
-2964.45 317.696 1592.41
-2964.08 319.378 1593.72
-2963.76 314.969 1584.81
-2964.87 313.913 1578.03
-2964.95 313.007 1578.14
-2967.56 311.359 1604.68
-2966.6 312.172 1603.5
-2965.77 312.76 1604.17
-2965.29 316.494 1597.41
-2966.83 314.288 1598.29
-2965.71 315.083 1593.18
-2966.02 315.363 1594.75
-2964.56 314.619 1589.01
-2964.53 315.22 1588.26
-2964.62 316.595 1591.57
-2963.67 320.45 1594.3
-2961.71 307.919 1548.62
-2964.94 312.712 1571.53
-2962.77 310.404 1561.24
-2966.63 311.286 1589.02
-2965.56 311.43 1584.76
-2965.3 311.369 1582.83
-2964.69 312.475 1583.73
-2965.2 311.338 1581.4
-2962.62 308.28 1551.87
-2963.6 308.948 1556.52
-2963.13 309.741 1559.25
-2967.97 311.018 1602.69
-2968.29 310.797 1600.24
-2968.33 310.58 1598.21
-2967.36 311.784 1593.99
-2963.33 309.71 1556.36
-2961.64 310.657 1557.75
-2962.2 310.274 1558.27
-2961.02 311.535 1558.75
-2965.04 313.258 1574.06
-2961.18 311.941 1560.39
-2961.03 312.107 1559.5
-2965.57 312.609 1575.24
-2964.02 314.554 1582.88
-2963.96 314.671 1583.99
-2964.38 313.04 1581.54
-2967.18 312.468 1602.15
-2966.65 313.763 1601.41
-2966.67 316.006 1598.96
-2966.98 313.715 1597.08
-2967.3 312.881 1599.63
-2967.91 311.473 1599.43
-2965 313.7 1588.94
-2966.31 313.843 1593.2
-2966.99 313.199 1595.54
-2964.39 313.871 1585.84
-2963.82 311.548 1566.54
-2963.34 312.32 1567.37
-2962.53 311.364 1562.03
-2961.96 311.403 1561.24
-2965.87 311.683 1574.37
-2966.22 311.939 1589.33
-2964.72 312.172 1582.47
-2965.34 312.997 1588.59
-2965.23 312.097 1578.04
-2966.32 311.003 1574.85
-2964.87 312.004 1581.08
-2961.55 311.141 1559.61
-2962.26 310.629 1560.21
-2962.66 312.22 1565.43
-2963.45 313.262 1569.37
-2964.79 313.65 1572.47
-2961.75 312.463 1563.37
-2965.53 312.572 1573
-2965.3 312.559 1574.55
-2964.16 313.29 1582.46
-2964.24 313.496 1583.73
-2963.94 314.229 1585.05
-2964.6 312.823 1584.86
-2961.62 311.267 1560.43
