-3356.62 448.071 3487.36
-3355.29 448.242 3480.47
-3356.26 448.702 3488.46
-3354.54 449.341 3482.71
-3354.8 449.031 3481.72
-3354.71 448.528 3479.32
-3354.71 451.001 3537.87
-3354.3 449.197 3480.08
-3357.22 448.544 3495.91
-3355.27 449.339 3486.81
-3353.76 449.944 3481.23
-3353.38 448.753 3476.82
-3353.94 448.734 3477.65
-3354.21 448.82 3478.65
-3354.38 451.427 3535.9
-3355.94 452.104 3533.1
-3360.91 448.754 3524.63
-3356 449.139 3491.25
-3353.87 450.121 3484.21
-3353.68 449.976 3482.2
-3353.63 449.638 3479.93
-3351.84 448.952 3475.53
-3352.32 449.119 3476.21
-3352.84 449.52 3477.26
-3353.34 449.368 3478.38
-3357.3 450.315 3537.63
-3356.66 450.735 3537.28
-3356.37 452.158 3532.49
-3353.04 451.108 3534.59
-3355.49 452.228 3531.66
-3356.91 452.311 3529.7
-3349.69 450.67 3485.77
-3349.13 450.979 3482.71
-3359.92 449.636 3523.82
-3360.47 449.619 3527.41
-3355.38 449.551 3490.82
-3356.59 449.212 3500.41
-3358.67 449.569 3517.89
-3352.65 450.537 3480.87
-3353.24 449.586 3479.15
-3350.56 449.359 3475.11
-3351.32 449.669 3476.1
-3352.1 449.714 3476.73
-3358.11 450.42 3535.94
-3357.58 451.705 3532.62
-3358.06 451.597 3531.66
-3357.62 452.057 3530.51
-3354.36 452.181 3529.34
-3354.88 452.249 3530.2
-3356.02 452.422 3528.58
-3356.38 452.29 3527.84
-3357.19 452.112 3527.78
-3350.91 450.658 3490.49
-3350.05 451.005 3484.89
-3359.17 450.309 3523.88
-3359.69 450.35 3527.24
-3360.82 449.223 3530.56
-3356.74 449.685 3509.04
-3356.77 449.752 3513.18
-3358.11 450.075 3518.48
-3353.06 450.736 3484.36
-3352.73 450.509 3479.95
-3352.32 450.114 3477.81
-3358.57 451.178 3532.19
-3358.07 451.821 3529.51
-3354.41 452.031 3527.27
-3355.3 452.206 3527.47
-3355.94 452.013 3525.6
-3357.17 451.723 3525.3
-3356.51 451.735 3524.62
-3351.83 450.699 3492.55
-3350.76 451.067 3486.49
-3349.28 451.326 3482.05
-3348.69 451.276 3481.16
-3359.27 450.863 3528.45
-3360.07 450.008 3530.42
-3360.87 448.86 3534.13
-3354.7 450.001 3491.48
-3355.97 449.72 3500.2
-3356.15 450.174 3508.45
-3357.46 450.575 3519.26
-3358.81 450.754 3525.2
-3352.48 450.919 3483.04
-3351.85 450.834 3480.59
-3352.1 450.452 3478.45
-3360.3 449.037 3536.65
-3351.13 450.218 3476.71
-3359.37 450.205 3533.59
-3358.92 451.161 3530.24
-3357.82 451.841 3527.27
-3358.78 451.209 3527.79
-3353.65 451.704 3525.79
-3354.63 452.059 3525.3
-3355.24 451.31 3520.88
-3354.42 451.327 3521.51
-3356.02 451.09 3520.09
-3357.77 451.403 3524.7
-3356.89 450.912 3520.22
-3353.79 451.225 3522.16
-3347.59 451.053 3480.02
-3347.23 451.138 3478.14
-3351.56 450.946 3489.62
-3350.23 451.446 3483.17
-3349.37 451.253 3480.43
-3348.69 451.267 3479.97
-3352.54 450.729 3496.8
-3354.2 450.61 3516.7
-3359.66 450.339 3531.6
-3355.36 450.089 3499.44
-3356.81 450.232 3515.46
-3354.05 450.323 3490.22
-3354.9 450.057 3496.42
-3351.86 450.871 3479.28
-3350.48 450.148 3476.06
-3349.9 449.974 3475.54
-3351.17 450.513 3477.82
-3354.76 450.64 3515.98
-3355.75 450.465 3515.63
-3348.27 451.244 3479.23
-3350.99 451.575 3483.23
-3354.41 450.655 3514.76
-3353.52 450.607 3495.29
-3348.99 449.691 3474.83
-3355.88 450.405 3510.07
-3352.24 451.158 3484.39
-3351.09 451.106 3480.81
-3351.07 451.17 3479.67
-3353.69 450.517 3491.6
-3351.38 450.859 3478.67
-3350.11 450.528 3476.72
-3355.32 450.574 3514.31
-3356.16 450.282 3513.7
-3351.81 451.256 3487.71
-3351.02 451.564 3482.43
-3349.61 451.374 3481.21
-3352.99 450.845 3491.17
-3348.06 451.124 3477.87
-3348.91 450.144 3475.48
-3353.09 450.805 3490.37
-3350.42 451.251 3480.1
-3353.77 450.491 3497.15
-3355.27 450.362 3502.41
-3350.46 450.989 3478.14
-3349.37 450.829 3477.08
-3349.27 450.599 3476.29
-3354.14 450.774 3510.23
-3355.14 450.564 3509.83
-3351.66 451.41 3483.74
-3349.61 451.187 3479.38
-3354.29 450.65 3502.67
-3350.6 451.392 3478.81
-3348.85 451.106 3478.03
