-3315.6 494.584 1964.86 
-3315.82 494.308 1965.21 
-3315.85 493.94 1964.52 
-3287.9 523.523 1964.19 
-3287.7 523.896 1964.28 
-3287.86 524.678 1963.91 
-3287.65 524.904 1963.68 
-3287.31 525.406 1963.54 
-3286.99 525.871 1963.4 
-3286.73 526.232 1963.35 
-3286.57 526.289 1963.22 
-3286.97 522.285 1969.9 
-3286.96 522.105 1969.28 
-3287.28 522.354 1965.09 
-3286.27 522.411 1967.56 
-3286.38 522.389 1967.19 
-3286.26 522.401 1967.99 
-3286.11 522.652 1968.43 
-3302.5 512.971 1970.09 
-3288.51 521.698 1970.7 
-3291.46 521.003 1972.71 
-3292.55 522.145 1975.59 
-3294.69 520.414 1976.36 
-3303.06 513.011 1977.07 
-3301.95 513.146 1971.71 
-3302.43 512.942 1970.84 
-3302.97 512.611 1973.61 
-3305.52 511.182 1973.96 
-3305.12 511.38 1976.33 
-3307.75 509.575 1975.56 
-3307.87 509.286 1976.02 
-3307.73 509.605 1974.65 
-3295.64 519.912 1977.3 
-3303.56 513.103 1968.56 
-3303.31 513.464 1969.05 
-3303.43 513.161 1969.72 
-3304.56 512.623 1968.5 
-3305.15 512.707 1967.78 
-3305.41 512.398 1967.28 
-3303.56 512.93 1970.05 
-3286.26 526.355 1963.12 
-3286.01 526.295 1963.18 
-3285.93 526.374 1962.96 
-3285.8 526.399 1962.92 
-3286.39 526.349 1963.15 
-3319.13 498.271 1965.88 
-3319.08 498.255 1964.7 
-3319.27 498.923 1966.23 
-3319.87 497.966 1965.3 
-3318.62 496.49 1965.4 
-3318.24 495.518 1965.35 
-3317.78 493.889 1964.87 
-3318.38 492.735 1964.34 
-3317.93 497.301 1963.14 
-3317.42 496.04 1961.76 
-3317.93 495.907 1962.13 
-3318.65 498.274 1964.23 
-3318.76 495.699 1962.82 
-3318.4 495.954 1962.61 
-3319.34 494.785 1962.95 
-3319.26 495.239 1963.13 
-3319.74 494.213 1963.12 
-3320.64 492.021 1963.35 
-3320.53 492.701 1963.23 
-3320.14 493.682 1963.32 
-3320.91 491.557 1963.65 
-3321.2 491.125 1963.94 
-3322.68 488.155 1969.21 
-3321.13 489.617 1973.15 
-3322.33 488.128 1974.16 
-3316.11 493.724 1965.32 
-3316.61 493.5 1966.04 
-3316.79 493.393 1966.8 
-3317.46 493.003 1967.89 
-3318.59 492.515 1969.79 
-3319.73 491.615 1971.54 
-3320.77 490.3 1973.49 
-3320.89 491.196 1964.43 
-3319.78 491.953 1964.48 
-3319.12 492.295 1964.38 
-3275.2 533.719 1965.17 
-3274.76 534.074 1965.35 
-3274.15 534.411 1965.45 
-3276.99 532.488 1965.22 
-3276.68 532.863 1965.54 
-3278.14 529.147 1967.76 
-3278.35 530.82 1967.56 
-3278.39 531.171 1966.83 
-3278.38 531.736 1965.71 
-3277.42 532.521 1965.42 
-3278.34 528.827 1968.07 
-3279.5 528.06 1968.41 
-3280.84 527.449 1969.17 
-3281.09 527.137 1970.54 
-3282.77 527.209 1972.07 
-3282.16 527.348 1972.44 
-3281.85 527.368 1972.38 
-3282.46 527.319 1972.45 
-3281.3 527.709 1972.3 
-3281.15 527.568 1971.6 
-3284.49 527.518 1972.27 
-3286.21 527.836 1973.08 
-3286.61 527.316 1973.45 
-3286.81 526.448 1972.23 
-3286.21 525.074 1970.44 
-3286.93 526.644 1973.1 
-3286.91 526.847 1973.69 
-3285.33 523.794 1969 
-3285.53 523.629 1969.31 
-3285.48 523.821 1969.81 
-3285.22 523.859 1968.81 
-3285.37 523.692 1968.48 
-3285.79 523.656 1970.14 
-3286.54 524.923 1970.83 
-3275.53 533.851 1965.33 
-3275.98 533.6 1965.47 
-3276.33 533.45 1965.65 
-3283.53 523.731 1965.76 
-3283.64 523.704 1966.26 
-3283.94 523.816 1966.53 
-3284.08 523.81 1966.93 
-3284.43 524.608 1963.93 
-3284.39 524.574 1963.6 
-3284.54 524.757 1964.22 
-3283.95 523.965 1964.71 
-3284.08 524.218 1965.03 
-3284.05 524.256 1965.39 
-3281.88 525.843 1961.76 
-3281.88 526.195 1962.11 
-3282.75 526.23 1962.35 
-3282.68 525.422 1961.6 
-3283.76 526.068 1962.46 
-3284.95 526.162 1962.97 
-3284.11 526.382 1962.83 
-3284.86 525.593 1963.05 
-3285.01 525.82 1963.35 
-3285.11 525.937 1963.63 
-3284.98 525.648 1963.75 
-3282.96 524.421 1960.97 
-3282.55 524.743 1961.05 
-3281.63 525.145 1961.14 
-3281.57 525.512 1961.38 
-3284.36 523.934 1967.11 
-3284.79 523.975 1968.06 
-3284.94 523.933 1968.15 
-3284.78 524.04 1967.74 
-3284.65 524.067 1967.35 
-3285.16 523.718 1968.23 
-3285.14 523.718 1967.93 
-3282.45 525.295 1961.11 
-3282.41 525.839 1961.22 
-3282.66 526.14 1961.31 
-3282.54 524.449 1960.97 
-3282.63 526.884 1961.65 
-3282.62 526.508 1961.44 
-3282.47 526.809 1961.54 
-3282.43 526.638 1961.47 
-3282.44 526.293 1961.36 
-3285.73 526.495 1963.05 
-3283.13 527.235 1962.21 
-3284.33 526.933 1962.77 
-3285.6 526.592 1963.16 
-3284.7 526.927 1963 
-3282.86 527.236 1962.05 
-3282.58 527.064 1961.75 
-3192.12 555.063 2009.52 
-3192.27 554.881 2009.46 
-3192.39 554.663 2009.81 
-3192.44 554.513 2010.16 
-3192.47 554.396 2010.51 
-3191.56 555.551 2009.66 
-3192.27 554.991 2009.28 
-3192.79 554.034 2010.53 
-3193.08 553.67 2010.63 
-3193.36 553.321 2010.77 
-3193.52 553.053 2011.13 
-3193.77 552.69 2011.46 
-3191.52 554.964 2012.61 
-3191.68 554.832 2012.56 
-3191.65 554.875 2012.48 
-3191.8 555.014 2011.69 
-3191.77 554.931 2012.03 
-3191.8 554.969 2011.84 
-3191.73 554.882 2012.27 
-3191.79 555.326 2010.7 
-3191.8 555.378 2010.52 
-3191.76 555.414 2010.48 
-3191.72 555.409 2010.58 
-3191.77 555.45 2010.33 
-3191.76 555.475 2010.27 
-3191.81 555.297 2010.76 
-3191.83 555.27 2010.81 
-3191.86 555.033 2011.51 
-3191.85 555.073 2011.4 
-3191.85 555.119 2011.24 
-3191.86 555.166 2011.08 
-3191.87 555.214 2010.9 
-3191.87 555.265 2010.73 
-3191.76 555.469 2009.72 
-3191.76 555.473 2009.99 
-3191.74 555.468 2009.44 
-3191.7 555.491 2009.52 
-3191.67 555.511 2009.53 
-3191.64 555.535 2009.82 
-3191.63 555.534 2009.54 
-3191.59 555.55 2009.48 
-3191.56 555.564 2009.38 
-3191.54 555.569 2009.27 
-3191.7 555.439 2009.39 
-3191.85 555.328 2009.14 
-3194.05 552.299 2011.76 
-3194.39 551.859 2011.99 
-3194.36 551.78 2012.48 
-3194.4 551.612 2012.97 
-3194.48 551.406 2013.45 
-3195.17 550.689 2013.17 
-3195.49 550.287 2013.34 
-3194.81 551.114 2013.1 
-3195.82 550.085 2013.03 
-3197.88 550.334 2015.82 
-3199.02 549.455 2017.69 
-3199.35 549.364 2018.09 
-3198.22 550.236 2015.94 
-3197.17 550.861 2014.23 
-3196.85 550.975 2013.95 
-3196.72 551.059 2013.67 
-3191.37 555.039 2012.86 
-3192.2 554.339 2012.9 
-3195.55 551.775 2013.11 
-3196.22 551.354 2012.99 
-3196.85 551.071 2013.5 
-3196.67 551.177 2013.15 
-3191.53 554.914 2012.77 
-3200.1 549.241 2018.88 
-3199.8 549.33 2018.49 
-3200.32 548.986 2019.52 
-3200.3 549.12 2019.25 
-3200.24 548.959 2019.27 
-3199.42 549.196 2017.39 
-3198.57 549.465 2015.37 
-3196.28 550.051 2012.94 
-3196.52 549.961 2013.1 
-3196.78 550.121 2012.57 
-3197.03 550.046 2012.68 
-3196.06 550.188 2012.65 
-3197.3 549.978 2012.77 
-3197.57 549.93 2012.81 
-3197.99 549.77 2013.53 
-3191.49 554.978 2012.69 
-3320.26 498.145 1987.46 
-3319.78 500.545 1985.78 
-3322.74 488.216 1994.56 
-3321.38 493.543 1989.64 
-3322.02 499.53 1971.88 
-3322.36 499.246 1971.71 
-3322.67 498.924 1971.46 
-3322.54 499.027 1972.15 
-3321.1 500.561 1980.07 
-3322.18 499.412 1974.99 
-3322.9 498.592 1971.61 
-3324.63 480.172 1993.39 
-3324.45 482.899 1995.95 
-3323.72 483.898 1993.12 
-3323.18 484.607 1985.95 
-3324.32 480.569 1988.46 
-3323.49 483.806 1982.98 
-3322.47 487.038 1979.14 
-3322 488.328 1981.14 
-3320.53 501.323 1975.65 
-3319.28 502.954 1978.9 
-3321.7 499.764 1971.95 
-3310.81 514.586 1985.8 
-3309.82 515.006 1985.84 
-3287.57 526.441 1974.44 
-3287.31 526.6 1974.61 
-3286.45 527.769 1973.86 
-3286.56 527.525 1973.78 
-3286.02 527.881 1973.66 
-3284.59 527.613 1973.33 
-3276.62 531.643 1978.27 
-3277.8 531.058 1976.08 
-3279.26 530.005 1974.31 
-3273.15 532.825 1981.7 
-3271.65 533.419 1982.89 
-3271.08 533.531 1983.96 
-3270.93 533.436 1985.07 
-3274.81 532.24 1980.22 
-3280.59 528.39 1972.63 
-3279.94 529.023 1972.99 
-3279.4 529.565 1972.84 
-3279.29 529.818 1973.48 
-3282.82 527.378 1973.18 
-3282.54 527.404 1972.84 
-3270.44 533.533 1985.43 
-3294.77 521.696 1978.4 
-3290.83 524.305 1976.41 
-3293.95 522.136 1977.84 
-3288.75 526.008 1974.87 
-3309.22 515.158 1985.46 
-3302.71 514.797 1980.94 
-3305.45 511.85 1977.92 
-3304.89 512.888 1978.95 
-3305.29 511.536 1977.06 
-3296.48 519.813 1978.96 
-3302.42 516.008 1983.4 
-3305.7 515.798 1984.75 
-3303.66 515.627 1983.59 
-3308.14 515.462 1985.25 
-3311.56 514.033 1985.89 
-3311.27 514.132 1985.55 
-3312.75 513.191 1985.29 
-3311.98 513.649 1985.46 
-3313.38 512.398 1985.12 
-3314.93 510.256 1984.88 
-3317.42 506.209 1982.43 
-3318.91 503.404 1979.44 
-3270.81 537.313 1968.47 
-3270.47 537.77 1968.86 
-3271.36 536.905 1968.07 
-3270.66 537.971 1968.99 
-3270.24 538.228 1969.42 
-3269.92 538.46 1969.82 
-3269.97 538.7 1970.04 
-3262.43 534.814 1995.77 
-3262.12 535.497 1996.17 
-3261.79 535.589 1996.2 
-3263.04 534.708 1995.35 
-3262.75 535.046 1995.74 
-3263.41 534.641 1995.17 
-3263.71 534.702 1995.11 
-3263.96 534.645 1995.02 
-3267.11 535.032 1993.17 
-3265.54 534.886 1994.4 
-3267.11 535.117 1993.68 
-3268.69 534.58 1991.04 
-3270 534.191 1990.43 
-3270.28 533.966 1989.87 
-3271.64 533.065 1989.71 
-3274.31 532.496 1989.4 
-3267.81 535.045 1992.47 
-3268.6 534.766 1991.69 
-3268.06 535.251 1983.25 
-3268.01 536.049 1981.6 
-3268.3 535.623 1981.96 
-3269.24 534.359 1985.19 
-3269.01 534.612 1984.37 
-3268.82 534.851 1983.44 
-3269.22 537.67 1978.39 
-3270.74 538.317 1975.59 
-3269.96 538.948 1974.49 
-3270.73 538.555 1975.04 
-3268.83 539.444 1972.51 
-3268.71 539.554 1973.18 
-3268.73 539.511 1973.59 
-3269.01 539.531 1972.67 
-3269.22 539.288 1974 
-3269.94 538.912 1970.38 
-3270.19 539.124 1970.94 
-3270.29 538.978 1970.36 
-3269.95 539.269 1971.56 
-3269.41 539.401 1972.17 
-3272 536.555 1967.5 
-3272.34 536.054 1967.05 
-3273 534.96 1966.02 
-3272.88 535.399 1966.4 
-3273.33 534.938 1965.87 
-3247.27 552.761 1993.72 
-3247.66 553.468 1993.51 
-3249.28 555.688 1994.83 
-3251.17 558.022 1996.41 
-3250.4 558.219 1995.75 
-3252.86 557.488 1997.9 
-3251.75 558.227 1996.7 
-3250.71 558.538 1995.76 
-3253.23 555.915 1998.26 
-3249.56 551.791 1995.33 
-3250.3 552.268 1996.3 
-3250.29 552.191 1996.42 
-3250.34 552.119 1996.68 
-3250.6 552.364 1996.93 
-3252.38 554.277 1998.05 
-3250.87 552.602 1997.2 
-3253.04 554.875 1998.68 
-3250.93 552.406 1997.67 
-3250.96 552.392 1997.92 
-3250.8 552.342 1997.62 
-3250.66 552.269 1997.62 
-3250.05 552.045 1997 
-3249.77 551.924 1996.53 
-3250.55 552.203 1997.64 
-3250.47 552.174 1997.52 
-3249.73 551.873 1996.48 
-3249.66 551.798 1996.27 
-3249.59 551.736 1996.03 
-3249.41 551.569 1995.37 
-3249.48 551.632 1995.59 
-3249.52 551.659 1995.81 
-3245.12 551.842 1996.21 
-3244.9 551.614 1996.81 
-3245.54 552.358 1994.39 
-3245.69 552.832 1993.87 
-3245.29 552.17 1994.96 
-3245.86 553.385 1993.34 
-3246.67 552.786 1993.85 
-3244.93 552.087 1995.53 
-3244.33 551.643 1997.07 
-3251.6 552.698 1998.28 
-3251.47 552.613 1998.43 
-3251.31 552.539 1998.28 
-3251.12 552.456 1998.13 
-3252.46 553.168 1998.28 
-3252.26 553.054 1998.3 
-3252.16 552.98 1998.45 
-3252.02 552.912 1998.39 
-3251.77 552.779 1998.38 
-3251.9 552.827 1998.55 
-3252.75 553.848 1997.89 
-3252.79 553.631 1998.14 
-3252.8 554.689 1997.35 
-3252.45 555.256 1997.18 
-3252.82 555.576 1997.57 
-3252.88 555.413 1997.58 
-3252.87 555.746 1997.64 
-3253.12 556.091 1997.93 
-3253.31 555.93 1998.05 
-3252.26 557.082 1997.3 
-3252.95 556.644 1997.91 
-3253.18 556.435 1998.06 
-3253.66 556.365 1998.39 
-3251 558.1 1996 
-3247.47 559.283 1993.04 
-3248.75 558.769 1994.32 
-3249.49 558.247 1994.98 
-3243.67 551.809 1997.11 
-3243.44 551.667 1997.53 
-3243.02 551.402 1998.3 
-3242.44 551.547 1998.3 
-3242.15 551.344 1998.45 
-3242.86 551.647 1997.9 
-3241.71 551.265 1998.39 
-3239.49 549.656 2000.32 
-3239.97 549.968 2000.01 
-3238.94 549.44 2000 
-3241.23 550.878 1998.54 
-3241.26 551.2 1998.31 
-3240.94 550.559 1999.14 
-3240.42 550.349 1999.38 
-3238.41 549.251 1999.52 
-3238.14 549.241 1999.24 
-3238.12 549.15 1999.29 
-3238.04 549.161 1999.18 
-3237.89 549.055 1998.95 
-3237.69 548.962 1998.58 
-3237.05 548.427 1997.6 
-3237.14 548.594 1997.67 
-3237.37 548.735 1998.06 
-3237.41 548.912 1998.08 
-3243.02 560.361 1988.93 
-3244.57 559.966 1990.49 
-3242.25 560.536 1988.3 
-3245.83 559.156 1991.83 
-3246.73 558.893 1992.61 
-3247.64 558.567 1993.4 
-3234.04 550.143 1992.64 
-3234.34 550.205 1993.37 
-3233.48 550.316 1991.22 
-3233.89 550.255 1992.25 
-3233.75 550.38 1991.91 
-3233.33 550.301 1990.61 
-3233.31 550.505 1990.35 
-3233.55 550.74 1990.14 
-3234.13 551.329 1989.95 
-3234.65 551.922 1989.84 
-3235.11 552.185 1989.36 
-3235.52 552.436 1988.94 
-3236.55 553.481 1988.51 
-3236 553.064 1988.93 
-3237.12 553.929 1988.08 
-3237.64 554.367 1987.72 
-3238.75 555.01 1986.59 
-3238.17 554.67 1987.19 
-3239.03 554.869 1986.14 
-3239.67 555.363 1986.14 
-3239.75 554.729 1985.95 
-3240.16 555.135 1985.91 
-3240.45 555.139 1985.8 
-3244.26 548.196 1982.5 
-3240.97 555.828 1985.9 
-3240.85 556.434 1986.18 
-3240.69 557.701 1986.6 
-3240.64 558.284 1986.74 
-3240.62 558.601 1986.76 
-3240.73 557.078 1986.46 
-3240.61 555.546 1985.92 
-3240.78 555.94 1986.08 
-3241.12 560.752 1987.37 
-3242.46 560.456 1988.68 
-3240.61 559.043 1986.76 
-3240.55 559.47 1986.84 
-3240.6 559.757 1986.85 
-3240.6 560.058 1986.94 
-3240.82 560.165 1987.06 
-3240.9 560.779 1987.35 
-3240.64 560.701 1987.16 
-3240.81 560.508 1987.16 
-3234.6 549.886 1994.43 
-3234.48 550.158 1994.18 
-3234.59 550.275 1994.03 
-3265.01 540.413 1997.9 
-3263.49 540.754 1998.74 
-3263.85 540.648 1998.69 
-3262.77 540.222 1998.14 
-3262.59 538.171 1997.37 
-3262.92 538.271 1997.35 
-3263.26 540.542 1998.46 
-3263.27 540.096 1998.08 
-3262.35 535.698 1996.3 
-3262.59 535.763 1996.34 
-3262.76 536.191 1996.52 
-3263.12 536.386 1996.58 
-3273.37 533.216 1990.76 
-3271.73 533.339 1990.08 
-3269.67 534.502 1991.09 
-3274.44 532.767 1990.14 
-3265.98 540.271 1996.84 
-3266.03 539.902 1997.07 
-3266.77 538.964 1996.64 
-3268.1 537.71 1995.62 
-3268.46 537.274 1995.1 
-3268.61 536.301 1994.1 
-3268.42 536.667 1994.64 
-3268.62 536.654 1994.52 
-3265.83 540.541 1996.66 
-3268.54 535.596 1993.29 
-3268.6 535.015 1992.5 
-3236.55 548.514 1996.89 
-3236.03 548.87 1996.17 
-3236.85 548.54 1997.27 
-3235.55 549.6 1995.88 
-3235.16 549.815 1995.35 
-3234.78 550.02 1994.86 
-3321.8 488.758 1975.5 
-3312.94 505.537 1967.14 
-3316.2 502.54 1967.3 
-3316.57 502.835 1968.13 
-3315.97 502.195 1966.62 
-3306.26 511.626 1967.29 
-3306.6 511.38 1967.75 
-3308.62 509.662 1967.83 
-3312.55 505.991 1967.64 
-3305.7 512.141 1967.4 
-3315.07 501.73 1964.95 
-3316.11 501.764 1966.31 
-3315.15 501.313 1964.19 
-3315.23 501.03 1963.92 
-3315.52 500.999 1963.69 
-3315.89 500.531 1962.84 
-3315.97 500.72 1963.58 
-3316.27 501.377 1966.01 
-3316.25 501.059 1965.65 
-3315.53 500.406 1962.44 
-3315.67 499.644 1962.22 
-3315.98 499.721 1962.51 
-3315.22 499.646 1961.82 
-3314.39 499.462 1961.68 
-3312.89 497.41 1961.22 
-3312.39 497.714 1960.95 
-3313.84 498.387 1961.47 
-3315.35 498.732 1961.55 
-3313.36 497.056 1961.96 
-3313.68 496.797 1962.29 
-3313.93 496.573 1962.66 
-3314.12 496.259 1962.85 
-3314.42 495.967 1963.17 
-3314.92 495.293 1963.98 
-3315.59 494.721 1965.16 
-3315.53 494.706 1964.81 
-3315.97 494.017 1965.29 
-3315.86 494.432 1965.54 
-3316.3 493.838 1966.08 
-3316.16 494.17 1966 
-3287 522.667 1965.26 
-3286.74 522.969 1965.36 
-3287.4 524.116 1964.41 
-3287.63 524.922 1964.04 
-3287.54 525.201 1963.77 
-3287.23 525.666 1963.65 
-3286.93 526.117 1963.53 
-3286.76 526.34 1963.56 
-3286.57 526.377 1963.53 
-3286.42 526.464 1963.35 
-3286.97 522.529 1970.45 
-3286.03 523.05 1969.65 
-3285.92 523.083 1969.21 
-3286.02 522.843 1968.89 
-3285.95 522.812 1967.85 
-3285.96 522.957 1967.35 
-3286.17 522.813 1966.88 
-3285.74 523.087 1968.29 
-3303.71 512.714 1970.26 
-3289.91 521.801 1972.35 
-3291.11 523.253 1975.02 
-3288.8 525.657 1974.26 
-3303.25 512.508 1971.74 
-3303.36 512.431 1973.25 
-3303.92 512.55 1970.51 
-3304.94 511.554 1973.65 
-3306.61 510.474 1972.97 
-3308.3 509.313 1977.09 
-3311.41 507.07 1976.62 
-3313.44 505.81 1973.99 
-3311.55 507.064 1977.15 
-3311.59 507.041 1972.63 
-3308.06 509.655 1971.3 
-3304.7 512.511 1968.81 
-3305.13 512.617 1968.05 
-3305.45 512.474 1967.63 
-3304.92 512.407 1969 
-3286.25 526.446 1963.43 
-3286.18 526.52 1963.32 
-3286.06 526.479 1963.3 
-3286.1 526.537 1963.1 
-3285.85 526.487 1963.13 
-3319.19 498.214 1965.86 
-3318.97 497.54 1965.68 
-3318.73 499.424 1966.95 
-3318.71 499.356 1967.18 
-3317.35 499.909 1966.02 
-3319.26 496.818 1963.69 
-3319.86 497.668 1964.86 
-3316.42 500.717 1965.59 
-3318.79 499.91 1967.39 
-3319.54 498.663 1966.1 
-3320.44 498.07 1966.09 
-3320.44 497.944 1965.86 
-3320.28 497.839 1965.59 
-3320.24 497.581 1965.28 
-3320.71 497.331 1965.48 
-3317.67 499.322 1965.95 
-3318.59 496.651 1965.75 
-3318.11 495.382 1965.61 
-3317.83 494.397 1965.24 
-3318.31 493.162 1964.69 
-3317.66 498.085 1963.1 
-3317.2 496.197 1961.65 
-3317.27 498.446 1963.32 
-3317.19 499.626 1964.02 
-3318.78 496.843 1963.21 
-3318.94 497.92 1963.76 
-3319.57 494.826 1963.29 
-3319.77 496.139 1963.94 
-3319.58 496.637 1963.87 
-3319.85 494.434 1963.42 
-3320.9 492.127 1963.43 
-3320.51 493.117 1963.46 
-3320.33 493.71 1963.6 
-3321.24 491.641 1963.7 
-3321.56 491.027 1964.07 
-3316.97 493.317 1967.42 
-3316.5 493.773 1966.68 
-3317.75 492.952 1968.54 
-3318.81 492.613 1970.6 
-3319.74 491.93 1972.24 
-3320.55 490.888 1973.9 
-3321.35 489.645 1976.4 
-3321.04 491.341 1964.58 
-3319.99 492.09 1964.65 
-3319.07 492.664 1964.61 
-3275.01 534.152 1965.49 
-3274.16 534.67 1965.64 
-3273.35 535.115 1965.98 
-3277 532.688 1965.67 
-3276.69 533.227 1965.81 
-3278.38 530.775 1967.97 
-3277.52 532.432 1966.37 
-3277.42 532.752 1966.66 
-3277.15 533.072 1966.27 
-3277.64 532.468 1965.84 
-3278.59 528.95 1968.66 
-3278.26 530.872 1968.24 
-3279.62 528.452 1969.19 
-3280.2 528.311 1969.89 
-3280.61 528.019 1970.93 
-3282.91 527.277 1972.49 
-3280.59 528.268 1971.94 
-3284.55 527.586 1972.43 
-3285.98 527.979 1973.2 
-3287.26 526.343 1972.99 
-3287.53 526.031 1972.67 
-3287.61 526.335 1973.78 
-3285.39 523.431 1968.66 
-3285.66 523.32 1968.78 
-3285.76 523.421 1969.65 
-3285.39 523.466 1967.94 
-3285.45 523.399 1968.15 
-3286.91 524.787 1971.19 
-3286.22 523.477 1970.49 
-3286.03 523.173 1970.07 
-3275.56 534.15 1965.65 
-3275.15 534.304 1965.65 
-3275.88 534.117 1965.74 
-3276.3 533.869 1965.89 
-3283.75 523.92 1965.81 
-3283.81 523.852 1966.15 
-3284.1 523.978 1966.43 
-3284.24 523.965 1966.76 
-3285.23 526.016 1964.06 
-3284.69 524.94 1964.52 
-3285.18 525.818 1964.26 
-3284.77 525.039 1964.76 
-3284.28 524.436 1965.4 
-3281.03 526.052 1961.76 
-3281.51 526.3 1962.29 
-3282.27 526.406 1962.55 
-3283.37 526.409 1962.67 
-3282.93 526.509 1962.8 
-3285.12 526.446 1963.28 
-3284.32 526.642 1963.16 
-3283.65 526.596 1963.01 
-3285.43 526.557 1963.65 
-3285.43 526.457 1963.86 
-3281.98 524.685 1961.04 
-3281.14 525.082 1961.13 
-3280.5 525.568 1961.24 
-3280.45 525.887 1961.36 
-3284.52 524.099 1966.98 
-3285.11 523.83 1967.6 
-3284.96 523.98 1967.8 
-3284.88 524.187 1967.61 
-3284.94 524.12 1967.94 
-3284.79 524.223 1967.22 
-3285.36 523.569 1967.62 
-3285.34 523.689 1967.3 
-3281.94 524.954 1961.06 
-3281.79 525.524 1961.17 
-3281.97 525.896 1961.25 
-3281.74 524.488 1961 
-3282.36 526.969 1961.59 
-3281.88 526.296 1961.38 
-3281.88 526.743 1961.51 
-3281.8 526.488 1961.44 
-3281.75 526.034 1961.3 
-3285.75 526.585 1963.25 
-3283.02 527.484 1962.34 
-3285.63 526.675 1963.34 
-3284.5 527.119 1963.07 
-3282.75 527.485 1962.21 
-3282.61 527.263 1961.92 
-3282.33 527.147 1961.68 
-3192.48 554.778 2009.11 
-3192.57 554.661 2009.02 
-3192.65 554.467 2009.36 
-3192.7 554.317 2009.75 
-3192.76 554.157 2010.13 
-3192.55 554.772 2008.96 
-3193.06 553.803 2010.2 
-3193.36 553.438 2010.3 
-3193.76 552.888 2010.71 
-3193.58 553.156 2010.44 
-3193.99 552.559 2010.96 
-3194.23 552.219 2011.25 
-3191.68 554.8 2012.66 
-3191.77 554.798 2012.46 
-3191.75 554.847 2012.34 
-3191.85 554.99 2011.67 
-3191.79 554.893 2012.12 
-3191.83 554.935 2011.89 
-3191.84 555.352 2010.52 
-3191.9 555.351 2010.32 
-3191.8 555.414 2010.4 
-3191.82 555.441 2010.23 
-3191.79 555.458 2010.06 
-3191.86 555.307 2010.63 
-3191.91 555.013 2011.48 
-3191.91 555.059 2011.32 
-3191.9 555.102 2011.19 
-3191.91 555.15 2011.03 
-3191.92 555.194 2010.87 
-3191.92 555.239 2010.71 
-3191.91 555.314 2010.49 
-3191.93 555.281 2010.56 
-3191.8 555.444 2009.69 
-3191.78 555.444 2009.37 
-3191.76 555.445 2009.06 
-3191.72 555.468 2009.15 
-3191.69 555.49 2009.2 
-3191.65 555.51 2009.24 
-3191.62 555.526 2009.2 
-3191.59 555.538 2009.08 
-3191.56 555.553 2009.09 
-3192 555.208 2008.84 
-3192.82 554.56 2008.65 
-3192.49 554.827 2008.63 
-3194.52 551.832 2011.49 
-3194.8 551.441 2011.77 
-3194.75 551.394 2012.23 
-3194.74 551.304 2012.66 
-3195.14 550.864 2012.59 
-3195.52 550.385 2012.79 
-3195.82 550.306 2012.42 
-3199.41 549.51 2017.85 
-3199.7 549.449 2018.19 
-3197.49 550.813 2014.19 
-3198.43 550.247 2015.89 
-3199.56 549.622 2017.76 
-3197.14 550.937 2013.89 
-3192.57 554.138 2012.61 
-3195.34 551.992 2012.84 
-3196.08 551.516 2012.7 
-3196.53 551.297 2012.7 
-3197.1 551.063 2013.33 
-3197.18 550.985 2013.63 
-3196.97 551.161 2012.98 
-3200.64 549.25 2019.26 
-3200.39 549.363 2018.86 
-3200.07 549.447 2018.46 
-3200.79 549.111 2019.63 
-3200.74 549.007 2019.73 
-3199.86 549.304 2017.5 
-3199.03 549.546 2015.6 
-3196.3 550.3 2012.26 
-3196.53 550.193 2012.47 
-3196.79 550.358 2011.92 
-3197.05 550.286 2012.02 
-3197.29 550.207 2012.15 
-3196.05 550.426 2012.01 
-3197.56 550.145 2012.23 
-3197.85 550.056 2012.4 
-3198.5 549.856 2013.8 
-3320.21 497.607 1986.4 
-3319.87 498.785 1985.53 
-3319.67 499.827 1985.44 
-3322.25 488.408 1989.31 
-3321.16 493.026 1986.4 
-3321.97 499.273 1970.66 
-3322.34 498.992 1970.59 
-3322.68 498.686 1970.45 
-3322.9 498.366 1970.23 
-3323.19 498.314 1970.56 
-3320.88 500.084 1980.66 
-3322.3 499.183 1975.07 
-3322.87 498.45 1971.85 
-3323.39 497.827 1970.23 
-3321.36 490.435 1982.44 
-3320.92 490.69 1976.84 
-3320.55 501.209 1974.61 
-3321.43 499.939 1971.83 
-3320.09 501.737 1974.96 
-3310.78 514.371 1985.22 
-3310.26 514.759 1985.46 
-3284.57 527.6 1972.83 
-3276.13 531.852 1978.13 
-3277.28 531.285 1976.08 
-3278.5 530.607 1974.5 
-3279.02 530.231 1973.51 
-3271.75 533.754 1981.91 
-3272.96 533.313 1980.91 
-3270.59 534.269 1982.74 
-3269.98 534.126 1984.12 
-3270.03 533.922 1984.84 
-3274.52 532.761 1979.47 
-3279.96 528.9 1972.34 
-3279.47 529.398 1972.02 
-3279.23 529.817 1972.18 
-3279.11 530.061 1972.68 
-3288.01 526.126 1973.43 
-3309.25 515.03 1984.9 
-3310.01 514.722 1985.01 
-3304.03 513.889 1980.22 
-3304.97 513.405 1979.75 
-3305.88 511.945 1978.61 
-3308.6 509.294 1977.75 
-3308.68 509.433 1978.33 
-3305.91 512.225 1979.16 
-3304.52 514.325 1981.41 
-3305.88 515.239 1983.72 
-3308.19 515.208 1984.52 
-3306.52 514.763 1983.07 
-3311.63 513.791 1985.25 
-3311.06 514.002 1984.92 
-3313.07 512.646 1984.83 
-3312.43 513.347 1985.13 
-3314.69 510.558 1984.67 
-3316.71 507.385 1983.25 
-3318.1 504.715 1980.34 
-3318.88 503.371 1978.61 
-3271.48 537.414 1968.35 
-3271.08 537.745 1968.68 
-3270.71 538.191 1969.22 
-3271.19 538.032 1968.97 
-3271.31 537.897 1968.83 
-3270.47 538.497 1969.6 
-3270.4 538.801 1969.95 
-3262.76 535.396 1996.08 
-3263.5 534.842 1995.39 
-3263.18 535.053 1995.67 
-3263.04 535.254 1995.91 
-3263.86 534.789 1995.24 
-3264.26 534.84 1995.13 
-3265.77 535.184 1994.6 
-3267.84 535.195 1993.19 
-3267.28 535.443 1993.93 
-3267.74 535.487 1993.7 
-3268.96 535.503 1981.3 
-3269.09 535.065 1982.2 
-3269.63 537.609 1978.28 
-3269.98 537.545 1978.14 
-3269.54 534.603 1983.39 
-3269.59 535.039 1982.01 
-3271.07 538.323 1975.61 
-3271.24 538.535 1975.17 
-3269.76 539.394 1973.87 
-3270.58 539.024 1974.41 
-3271.32 538.806 1974.73 
-3269.09 539.66 1973.38 
-3269.03 539.64 1972.98 
-3269.51 539.513 1972.46 
-3270.4 539.203 1971.03 
-3270.53 539.038 1970.34 
-3270.69 539.122 1970.44 
-3270.79 538.814 1969.87 
-3270.37 539.303 1971.42 
-3269.92 539.393 1971.99 
-3272.05 537.049 1967.88 
-3272.92 535.808 1966.75 
-3272.59 536.428 1967.26 
-3246.94 553.397 1993.18 
-3246.15 553.521 1992.84 
-3246.94 554.297 1992.89 
-3248.29 555.559 1993.97 
-3252.96 557.915 1997.84 
-3252.58 557.476 1997.53 
-3254.35 556.6 1999.3 
-3254.08 557.609 1998.92 
-3249.63 551.273 1996.32 
-3249.86 551.087 1997.14 
-3249.93 550.607 1997.97 
-3250.08 550.752 1998.13 
-3250.23 550.909 1998.28 
-3250.37 551.087 1998.37 
-3250.88 552.481 1997.44 
-3251.34 552.953 1997.81 
-3250.51 551.241 1998.48 
-3250.86 551.738 1998.63 
-3251.8 553.332 1998.31 
-3253.14 554.826 1999.04 
-3250.74 552.289 1997.8 
-3250.95 552.354 1998.24 
-3250.83 552.308 1998.07 
-3250.56 552.185 1997.83 
-3250.01 552.004 1997.04 
-3250.34 552.099 1997.56 
-3250.42 552.125 1997.72 
-3249.73 551.852 1996.57 
-3249.66 551.777 1996.38 
-3249.58 551.71 1996.11 
-3249.62 551.331 1996.5 
-3249.51 551.318 1996.07 
-3249.64 551.421 1996.57 
-3244.52 551.892 1996.45 
-3244.32 552.126 1995.81 
-3244.84 552.657 1994.16 
-3244.85 553.273 1993.58 
-3245.15 553.697 1993.15 
-3244.67 552.342 1994.75 
-3246.02 554.057 1992.7 
-3245.3 554.24 1992.62 
-3244.31 552.288 1995.21 
-3243.98 551.924 1996.7 
-3251.66 552.697 1998.58 
-3251.52 552.604 1998.73 
-3251.34 552.526 1998.58 
-3251.16 552.448 1998.37 
-3252.78 553.426 1998.37 
-3252.33 553.065 1998.5 
-3252.2 552.981 1998.65 
-3252.05 552.903 1998.63 
-3251.98 552.842 1998.83 
-3251.81 552.749 1998.76 
-3252.93 554.202 1997.95 
-3253.01 554.073 1998.15 
-3253.01 554.858 1997.65 
-3252.97 555.233 1997.61 
-3253.45 555.749 1998.13 
-3253.42 555.569 1998.06 
-3253.42 555.355 1998.03 
-3253.84 556.112 1998.54 
-3253.88 555.918 1998.54 
-3253.47 556.861 1998.4 
-3253.8 556.62 1998.62 
-3254.22 556.403 1998.94 
-3254.28 556.188 1998.97 
-3247.88 556.875 1993.62 
-3243.31 552.138 1996.48 
-3243.06 552.038 1996.96 
-3242.87 551.869 1997.44 
-3241.97 551.788 1998.05 
-3242.31 551.899 1997.69 
-3241.65 551.648 1998.11 
-3241.23 551.554 1998.07 
-3239.69 550.033 1999.42 
-3239.26 549.788 1999.64 
-3240.11 550.316 1999.06 
-3238.81 549.598 1999.61 
-3240.71 550.745 1998.61 
-3240.63 551.174 1998.35 
-3240.71 551.502 1998.16 
-3240.1 550.687 1998.62 
-3238.36 549.414 1999.36 
-3238.05 549.414 1999.03 
-3238.03 549.293 1999.08 
-3237.83 549.174 1998.74 
-3237.61 549.065 1998.37 
-3237.11 548.856 1997.69 
-3236.79 548.87 1997.33 
-3237.23 549.29 1998 
-3236.99 549.23 1997.7 
-3243.64 560.178 1989.71 
-3244.92 559.463 1991.03 
-3244.28 557.008 1990.64 
-3244.99 556.27 1991.27 
-3245.75 555.873 1991.87 
-3246.31 555.07 1992.36 
-3234.27 550.418 1993.16 
-3234.55 550.487 1993.83 
-3233.41 550.557 1991 
-3233.67 550.598 1991.68 
-3234.1 550.511 1992.73 
-3233.96 550.66 1992.36 
-3233.37 550.793 1990.83 
-3233.67 551.037 1990.42 
-3234.07 551.587 1990.41 
-3234.25 552.03 1990.56 
-3234.85 552.388 1990 
-3235.43 552.756 1989.48 
-3235.97 553.439 1989.32 
-3236.62 553.918 1988.81 
-3235.39 553.155 1989.91 
-3237.16 554.428 1988.48 
-3237.83 554.887 1987.93 
-3239.34 555.548 1986.35 
-3238.49 555.136 1987.19 
-3238.91 555.572 1986.97 
-3240 555.498 1986.07 
-3239.53 555.937 1986.49 
-3239.82 555.877 1986.3 
-3240.31 555.653 1986.06 
-3240.74 556.528 1986.36 
-3240.61 557.777 1986.75 
-3240.56 558.253 1986.86 
-3240.54 558.579 1986.89 
-3240.56 558.874 1986.84 
-3240.63 557.234 1986.67 
-3240.5 555.957 1986.16 
-3240.56 556.356 1986.35 
-3242.03 560.539 1988.42 
-3243.09 559.208 1989.51 
-3243.99 559.823 1990.22 
-3240.52 559.232 1986.89 
-3240.46 559.606 1986.99 
-3240.49 559.842 1986.93 
-3240.45 560.209 1986.99 
-3240.63 560.37 1987.06 
-3240.87 560.607 1987.56 
-3240.4 560.774 1987.15 
-3240.46 560.536 1987.06 
-3241.63 559.915 1988.33 
-3234.58 550.371 1994.6 
-3234.68 550.465 1994.48 
-3234.79 550.616 1994.45 
-3265.15 540.036 1997.67 
-3263.97 540.343 1998.35 
-3263.34 538.414 1997.29 
-3263.5 536.375 1996.54 
-3265.38 539.297 1997.28 
-3263.75 538.52 1997.23 
-3264.18 539.495 1997.64 
-3263.05 535.794 1996.32 
-3263.44 535.916 1996.33 
-3265.72 539.926 1997 
-3266.54 538.902 1996.69 
-3267.89 537.687 1995.62 
-3268.26 537.131 1995.06 
-3268.11 535.873 1993.93 
-3268.26 536.282 1994.31 
-3268.08 536.614 1994.75 
-3267.97 536.242 1994.42 
-3236.44 548.881 1996.93 
-3235.98 549.318 1996.42 
-3235.5 550.048 1996.14 
-3235.04 550.345 1995.55 
-3234.71 550.513 1995.05 
-3316.13 503.398 1968.53 
-3320.35 499.464 1968.44 
-3320.59 499.62 1969.13 
-3319.99 500.968 1970.3 
-3319.17 500.3 1968.27 
-3306.12 511.852 1967.74 
-3306.47 511.639 1968.1 
-3308.86 509.47 1968.26 
-3307.07 511.08 1968.47 
-3313.99 505.079 1968.52 
-3305.79 512.172 1967.83 
-3319.13 499.949 1967.82 
-3315.44 500.661 1964.06 
-3316 500.449 1963.98 
-3316.55 497.621 1961.85 
-3316.89 497.54 1962.13 
-3317.38 498.072 1962.86 
-3315.96 498.834 1961.76 
-3314.5 497.219 1961.42 
-3314.48 497.384 1961.95 
-3314.15 497.807 1961.42 
-3315.61 497.61 1961.41 
-3316.05 497.021 1961.4 
-3314.71 497.817 1962.99 
-3314.63 497.6 1962.49 
-3314.54 496.802 1963.31 
-3314.95 497.852 1963.37 
-3314.53 496.338 1963.44 
-3314.8 495.844 1963.79 
-3315.39 495.017 1964.87 
-3315.84 494.874 1965.67 
-3315.49 495.455 1964.91 
-3316.17 494.303 1966.21 
-3315.93 494.544 1965.85 
-3316.11 494.495 1966.25 
-3286.48 523.281 1965.38 
-3286.02 523.191 1966.47 
-3287.06 524.292 1964.57 
-3287.46 525.472 1963.89 
-3287.21 524.962 1964.31 
-3287.16 525.926 1963.77 
-3286.89 526.319 1963.7 
-3286.68 526.473 1963.69 
-3286.42 526.575 1963.53 
-3286.54 526.554 1963.64 
-3286.3 526.62 1963.51 
-3288.84 523.146 1972.73 
-3285.68 523.191 1967.83 
-3285.83 523.275 1967 
-3285.63 523.312 1967.57 
-3285.6 523.225 1968.17 
-3305.05 512.315 1969.28 
-3288.33 525.648 1973.42 
-3304.4 512.261 1970.96 
-3304.75 512.012 1971.62 
-3304.99 512.163 1969.91 
-3305.37 511.65 1971.59 
-3306.12 511.038 1971.29 
-3311.62 507.079 1977.71 
-3314.82 505.048 1975.64 
-3314.57 505.207 1976.59 
-3316.57 503.987 1973.3 
-3314.88 505.111 1977.2 
-3308.09 509.682 1969.76 
-3308.92 509.129 1969.57 
-3306.25 511.116 1969.83 
-3305.22 512.516 1968.33 
-3305.49 512.474 1967.86 
-3305.44 512.358 1968.62 
-3286.2 526.631 1963.5 
-3286.08 526.613 1963.44 
-3285.97 526.603 1963.39 
-3285.87 526.58 1963.32 
-3318.49 499.612 1966.9 
-3320.27 497.386 1965.09 
-3319.65 498.73 1966.54 
-3320.99 497.77 1966.28 
-3320.83 497.518 1965.81 
-3320.66 498.182 1966.63 
-3320.86 497.887 1966.24 
-3321.18 498.031 1966.93 
-3320.79 497.021 1965.24 
-3321.03 497.221 1965.74 
-3321.06 497.477 1966.04 
-3318 499.007 1966.28 
-3315.91 500.232 1964.17 
-3315.75 500.114 1964.34 
-3318.41 496.331 1965.94 
-3317.88 494.731 1965.67 
-3318.08 493.773 1965.17 
-3316.85 498.133 1962.8 
-3316.71 499.266 1963.7 
-3316.57 499.748 1964.16 
-3319.71 494.868 1963.51 
-3320 495.732 1964.01 
-3320.48 497.061 1964.96 
-3320.11 494.326 1963.71 
-3320.86 492.633 1963.64 
-3320.62 493.438 1963.83 
-3321.53 491.541 1963.88 
-3321.14 492.443 1963.89 
-3321.9 491.046 1964.22 
-3316.8 493.701 1967.27 
-3317.35 493.218 1968.14 
-3316.42 494.016 1966.65 
-3318.37 492.869 1969.92 
-3319.46 492.655 1972.16 
-3319.8 492.269 1972.79 
-3320.47 491.439 1974.29 
-3321.22 491.446 1964.73 
-3320.04 492.496 1964.93 
-3319.37 492.711 1964.79 
-3318.53 493.618 1965.25 
-3274.28 534.838 1965.8 
-3273.55 535.334 1966.06 
-3273.39 535.334 1966.08 
-3273.16 535.89 1966.77 
-3277.17 532.813 1965.94 
-3276.79 533.369 1965.99 
-3277.28 533.076 1966.76 
-3276.82 533.446 1966.13 
-3276.82 533.648 1966.37 
-3276.55 533.927 1966.29 
-3278.1 530.972 1968.47 
-3278.74 529.183 1969.3 
-3277.19 533.341 1966.92 
-3279.75 528.922 1970.48 
-3278.83 529.438 1969.79 
-3280.04 528.736 1971.49 
-3287.89 525.453 1972.83 
-3285.58 523.436 1967.32 
-3287.37 524.568 1971.69 
-3288.65 523.485 1972.61 
-3274.91 534.806 1966.02 
-3274.6 534.881 1965.93 
-3275.54 534.504 1966.02 
-3276.43 533.914 1966.07 
-3275.6 535.042 1966.21 
-3284.02 524.135 1965.76 
-3283.99 524.022 1966.06 
-3284.43 524.148 1966.64 
-3284.24 524.125 1966.29 
-3285.57 526.58 1963.86 
-3285.43 526.249 1964.06 
-3285.22 525.762 1964.33 
-3284.87 525.119 1964.92 
-3285.29 525.693 1964.55 
-3285.33 525.837 1964.34 
-3284.95 525.202 1965.11 
-3280.22 526.115 1961.59 
-3280.86 526.203 1962.05 
-3281.03 526.364 1962.42 
-3281.83 526.474 1962.69 
-3282.61 526.613 1963.03 
-3283.31 526.679 1963.19 
-3284.65 527.141 1963.25 
-3284.69 526.797 1963.49 
-3284.35 527.324 1963.3 
-3283.98 526.737 1963.34 
-3285.68 526.814 1963.64 
-3285.64 526.761 1963.51 
-3280.71 525.115 1961.14 
-3280.79 525.589 1961.23 
-3281.11 525.957 1961.3 
-3280.68 526.329 1961.47 
-3281.07 526.178 1961.37 
-3284.74 524.286 1966.91 
-3285.3 523.808 1967.08 
-3285.16 523.971 1967.46 
-3284.92 524.324 1967.45 
-3284.95 524.258 1967.94 
-3285.1 524.138 1967.73 
-3285.56 523.561 1966.98 
-3285.54 523.688 1966.64 
-3281.46 524.662 1961.02 
-3281.22 525.236 1961.14 
-3281.32 525.642 1961.22 
-3280.85 524.762 1961.06 
-3281.85 526.991 1961.63 
-3281.26 526.697 1961.58 
-3281.23 526.453 1961.45 
-3285.76 526.69 1963.45 
-3282.86 527.716 1962.49 
-3282.59 527.645 1962.29 
-3282.49 527.411 1962 
-3282.28 527.314 1961.81 
-3192.83 554.498 2008.73 
-3192.87 554.347 2008.83 
-3192.97 554.349 2008.55 
-3193.04 554.051 2009.24 
-3193 553.976 2009.75 
-3193.32 553.581 2009.89 
-3193.62 553.218 2009.95 
-3193.86 552.875 2010.26 
-3194.12 552.523 2010.47 
-3194.39 552.164 2010.72 
-3194.7 551.742 2011.02 
-3191.92 554.758 2012.23 
-3193 553.89 2012.37 
-3191.89 554.964 2011.68 
-3191.87 554.858 2012.03 
-3192.33 554.582 2011.82 
-3191.88 555.395 2010.28 
-3191.89 555.351 2010.41 
-3191.86 555.421 2010.07 
-3191.83 555.432 2009.86 
-3192 555.022 2011.25 
-3192.52 554.576 2011.4 
-3191.96 555.091 2011.12 
-3191.96 555.134 2010.98 
-3191.97 555.179 2010.82 
-3191.97 555.222 2010.67 
-3191.98 555.266 2010.52 
-3191.98 555.314 2010.36 
-3191.95 555.353 2010.27 
-3191.84 555.413 2009.5 
-3191.82 555.422 2009.33 
-3191.8 555.423 2009.01 
-3191.78 555.422 2008.7 
-3191.74 555.445 2008.77 
-3191.7 555.469 2008.87 
-3191.66 555.494 2008.91 
-3191.63 555.512 2008.86 
-3191.79 555.375 2008.65 
-3192.01 555.197 2008.66 
-3192.72 554.646 2008.31 
-3193.2 554.264 2008.28 
-3193.46 554.029 2008.07 
-3193.18 554.222 2008.35 
-3193.5 554.031 2007.95 
-3195.04 551.269 2011.38 
-3195.13 551.004 2012.03 
-3195.52 550.532 2012.23 
-3195.79 550.527 2011.82 
-3199.87 549.55 2018.13 
-3198.62 550.271 2015.76 
-3197.78 550.792 2014.05 
-3197.45 550.89 2013.86 
-3200.06 549.655 2018.04 
-3199.93 549.693 2017.81 
-3194.87 552.429 2012.52 
-3195.95 551.673 2012.44 
-3196.45 551.407 2012.32 
-3196.87 551.271 2012.54 
-3197.46 551.025 2013.21 
-3197.48 550.949 2013.56 
-3197.19 551.191 2012.79 
-3201.13 549.226 2019.67 
-3201.31 549.358 2019.55 
-3200.9 549.381 2019.2 
-3200.71 549.498 2018.84 
-3200.34 549.518 2018.53 
-3201.2 549.132 2019.79 
-3200.53 549.216 2018.64 
-3199.58 549.614 2016 
-3196.3 550.518 2011.66 
-3196.55 550.432 2011.81 
-3196.77 550.6 2011.27 
-3197.02 550.523 2011.39 
-3197.29 550.46 2011.47 
-3197.53 550.371 2011.62 
-3196.04 550.664 2011.36 
-3197.8 550.279 2011.78 
-3198.24 550.196 2012.22 
-3198.99 549.923 2014.13 
-3320.33 495.141 1985.09 
-3319.94 496.257 1983.89 
-3319.68 499.199 1983.81 
-3319.81 498.063 1984.15 
-3320.33 492.984 1979.64 
-3320.58 491.875 1978.67 
-3321.56 499.552 1970.68 
-3321.9 499.067 1969.92 
-3322.16 498.86 1969.98 
-3322.42 498.643 1970.06 
-3322.59 498.341 1969.86 
-3322.82 497.95 1969.61 
-3323.1 498.004 1970.01 
-3321.05 499.562 1980.18 
-3322.4 498.931 1975.03 
-3323.03 497.886 1971.73 
-3323.45 497.233 1970.46 
-3323.4 497.306 1969.62 
-3323.17 497.637 1969.64 
-3320.43 491.877 1974.93 
-3321.15 500.174 1971.79 
-3319.92 501.88 1974.47 
-3320.84 500.618 1971.98 
-3310.49 514.287 1984.65 
-3275.86 531.987 1977.81 
-3276.41 531.856 1976.29 
-3277.5 531.267 1974.81 
-3278.36 530.821 1973.52 
-3278.8 530.473 1972.68 
-3271.42 534.403 1981.24 
-3272.06 534.237 1980.54 
-3272.88 533.969 1979.86 
-3269.97 534.962 1982.13 
-3270.57 534.976 1981.47 
-3273.56 534.01 1979.01 
-3275.07 532.953 1978.05 
-3279.42 529.398 1971.27 
-3279.15 529.851 1971.42 
-3278.95 530.265 1971.74 
-3309.12 514.786 1984.35 
-3309.92 514.537 1984.43 
-3305.52 513.377 1980.3 
-3306.02 512.646 1979.76 
-3308.79 509.607 1978.83 
-3311.88 506.988 1978.35 
-3311.51 507.488 1978.68 
-3308.83 509.936 1979.29 
-3307.21 514.332 1982.55 
-3305.67 513.675 1980.89 
-3311.58 513.729 1984.84 
-3312.06 513.607 1985.04 
-3310.9 513.932 1984.45 
-3314.58 510.549 1984.33 
-3313.16 512.34 1984.45 
-3312.81 512.793 1984.77 
-3316.53 507.463 1982.93 
-3317.53 505.738 1981.12 
-3318.5 503.953 1979.13 
-3319.61 502.135 1974.54 
-3271.74 537.69 1968.54 
-3271.5 538.16 1969.06 
-3270.95 538.289 1969.27 
-3271.78 537.991 1968.93 
-3272.08 537.687 1968.64 
-3270.83 538.574 1969.61 
-3263.16 535.468 1996.08 
-3263.98 535.013 1995.44 
-3263.61 535.131 1995.65 
-3263.35 535.332 1995.9 
-3264.5 535.046 1995.24 
-3266 535.471 1994.79 
-3267.53 535.834 1994.21 
-3267.84 535.855 1994.06 
-3269.62 535.632 1980.56 
-3270.65 537.728 1977.37 
-3271.46 538.456 1975.46 
-3270.07 535.606 1980.35 
-3271.54 538.557 1975.32 
-3271.77 538.789 1974.92 
-3270.65 539.246 1973.89 
-3269.97 539.445 1973.38 
-3271.38 539.042 1974.21 
-3271.91 538.944 1974.51 
-3269.62 539.55 1972.87 
-3270.18 539.408 1972.4 
-3270.8 539.207 1970.81 
-3271.05 538.887 1969.9 
-3271.13 538.992 1970.14 
-3271.34 538.551 1969.48 
-3270.42 539.368 1971.94 
-3270.73 539.286 1971.52 
-3272.36 537.056 1967.97 
-3272.84 536.521 1967.34 
-3253.83 557.187 1998.72 
-3255.42 557.086 2000.87 
-3255.02 557.288 1999.79 
-3254.68 557.072 1999.46 
-3250 550.91 1998.11 
-3250.14 551.073 1998.22 
-3250.12 550.8 1998.37 
-3250.26 551.031 1998.43 
-3250.31 550.984 1998.54 
-3250.44 551.135 1998.64 
-3250.58 551.345 1998.73 
-3250.66 551.417 1998.6 
-3250.7 551.435 1998.85 
-3251 551.822 1998.85 
-3250.84 551.611 1998.95 
-3250.98 551.973 1998.94 
-3251.04 551.857 1999.1 
-3251.54 552.858 1998.48 
-3252.73 554.256 1999.03 
-3254.49 556.26 1999.89 
-3250.65 552.215 1998.03 
-3251.02 552.363 1998.48 
-3250.84 552.246 1998.46 
-3250.73 552.23 1998.26 
-3250.44 552.031 1998.03 
-3250.36 552.023 1997.95 
-3249.95 551.96 1997.07 
-3250.21 552.034 1997.51 
-3250.24 551.999 1997.71 
-3249.73 551.84 1996.68 
-3249.69 551.79 1996.58 
-3249.74 551.591 1996.89 
-3249.66 551.501 1996.67 
-3250.03 551.307 1997.9 
-3250.1 551.25 1998.04 
-3250.02 551.495 1997.74 
-3243.81 552.132 1996.15 
-3243.65 552.451 1995.07 
-3243.53 552.324 1995.62 
-3244.1 553.468 1993.51 
-3244.17 552.812 1994.11 
-3244.44 554.102 1992.87 
-3243.86 554.186 1992.87 
-3244.55 554.667 1992.33 
-3243.96 552.509 1994.62 
-3245.4 554.788 1992.1 
-3244.73 555.244 1991.77 
-3251.75 552.709 1999.01 
-3251.3 552.475 1998.84 
-3251.45 552.541 1998.97 
-3251.18 552.429 1998.63 
-3253.04 553.717 1998.43 
-3252.6 553.217 1998.64 
-3252.42 553.091 1998.82 
-3252.13 552.919 1998.84 
-3252.07 552.863 1999.05 
-3251.89 552.774 1999.01 
-3253.23 554.896 1997.91 
-3253.33 554.87 1998.07 
-3253.16 554.198 1998.27 
-3253.83 555.681 1998.48 
-3253.69 555.485 1998.34 
-3253.56 555.271 1998.22 
-3254.13 555.942 1998.82 
-3253.96 555.706 1998.65 
-3254.27 556.842 1999.06 
-3254.57 556.583 1999.28 
-3254.45 556.197 1999.19 
-3254.25 555.886 1999 
-3242.94 552.373 1995.86 
-3242.52 552.297 1996.44 
-3242.42 552.135 1997.09 
-3241.5 552.084 1997.71 
-3241.87 552.168 1997.35 
-3241.13 551.893 1997.87 
-3240.44 551.901 1998.02 
-3239.74 550.454 1998.69 
-3239.41 550.202 1998.81 
-3239.03 549.991 1998.92 
-3238.63 549.834 1998.95 
-3240.14 551.01 1998.57 
-3240 551.641 1998.31 
-3239.71 551.398 1998.51 
-3239.43 551.126 1998.72 
-3239.28 550.839 1998.77 
-3238.3 549.604 1999.07 
-3237.83 549.352 1998.7 
-3237.73 549.699 1998.73 
-3237.47 549.386 1998.29 
-3236.7 549.226 1997.39 
-3236.37 549.231 1997.01 
-3236.94 549.717 1997.88 
-3236.75 549.637 1997.63 
-3236.46 549.668 1997.32 
-3243.41 557.666 1989.94 
-3243.43 556.863 1990.45 
-3244.14 556.049 1991.11 
-3234.48 550.719 1993.61 
-3234.75 550.786 1994.25 
-3233.6 550.841 1991.52 
-3233.86 550.909 1992.18 
-3234.27 550.771 1993.09 
-3234.11 550.977 1992.8 
-3233.49 551.246 1990.96 
-3233.39 551.117 1991.27 
-3233.67 551.725 1991.12 
-3233.75 552.144 1991.4 
-3234.32 552.423 1990.82 
-3234.9 552.788 1990.3 
-3235.44 553.573 1990.23 
-3236.03 553.814 1989.58 
-3236.48 554.247 1989.31 
-3234.87 553.238 1990.75 
-3236.85 554.673 1989.17 
-3237.37 554.978 1988.68 
-3237.84 555.369 1988.35 
-3238.34 555.463 1987.71 
-3238.98 555.91 1987.23 
-3240.06 555.961 1986.28 
-3239.73 556.3 1986.6 
-3240.27 556.17 1986.33 
-3240.54 556.851 1986.6 
-3240.52 557.945 1986.93 
-3240.48 558.337 1986.99 
-3240.46 558.714 1987.02 
-3240.49 558.96 1986.96 
-3240.49 557.483 1986.9 
-3240.33 556.618 1986.54 
-3242.3 559.243 1988.93 
-3242.44 557.993 1989.54 
-3240.45 559.314 1987.01 
-3240.29 559.418 1987.2 
-3240.26 559.727 1987.23 
-3240.4 560.008 1987.06 
-3240.32 560.415 1987.15 
-3240.16 560.539 1987.5 
-3240.75 559.854 1988.05 
-3241.6 558.778 1988.93 
-3234.77 550.674 1994.94 
-3234.89 550.811 1994.87 
-3234.91 551.018 1994.74 
-3265.29 539.606 1997.55 
-3263.83 536.103 1996.38 
-3266.07 538.37 1996.59 
-3267.33 537.739 1995.81 
-3267.64 537.715 1995.7 
-3264.53 538.149 1996.88 
-3264.25 536.259 1996.33 
-3263.45 535.621 1996.11 
-3263.76 535.763 1996.14 
-3267.91 537.137 1995.2 
-3267.74 536.689 1994.96 
-3267.7 536.23 1994.55 
-3235.91 549.771 1996.66 
-3235.03 550.637 1995.77 
-3235.46 550.353 1996.28 
-3234.75 550.872 1995.29 
-3319.51 501.634 1970.84 
-3320.38 499.114 1967.98 
-3321.4 498.251 1967.92 
-3321.05 498.375 1967.4 
-3320.84 499.723 1969.76 
-3321.37 498.772 1968.76 
-3320.78 500.257 1970.57 
-3320.04 498.88 1967.4 
-3306.12 511.965 1968.3 
-3306.52 511.459 1968.82 
-3309.09 509.132 1968.66 
-3313.76 505.449 1969.25 
-3308.63 509.418 1969.01 
-3318.93 502.222 1971.5 
-3305.65 512.361 1968.15 
-3319.69 498.76 1966.73 
-3316.26 496.596 1961.4 
-3316.17 497.375 1962.29 
-3316.5 497.714 1962.49 
-3315.64 496.436 1961.18 
-3315.42 497.176 1962.17 
-3315.81 496.761 1961.74 
-3315.4 498.365 1963.27 
-3315.28 498.624 1963.68 
-3314.94 496.488 1964.01 
-3315.53 497.725 1964.13 
-3315.26 497.807 1963.76 
-3315.61 498.583 1964.03 
-3315.17 495.962 1964.37 
-3316.29 494.546 1966.76 
-3316.15 495.211 1966.11 
-3315.93 495.742 1965.51 
-3316.47 494.142 1966.9 
-3286.26 523.636 1965.35 
-3285.92 523.427 1966.16 
-3285.76 523.424 1966.74 
-3287.25 525.642 1964.09 
-3286.71 524.757 1964.66 
-3287.08 526.183 1963.87 
-3286.93 526.437 1963.96 
-3286.79 526.47 1963.83 
-3286.64 526.607 1963.87 
-3286.34 526.714 1963.67 
-3286.48 526.677 1963.78 
-3286.22 526.737 1963.65 
-3305.45 512.109 1969.23 
-3305.42 511.879 1969.88 
-3305.84 511.611 1969.82 
-3314.88 505.216 1977.78 
-3317.71 503.59 1976.49 
-3319.1 502.378 1973.98 
-3318.5 503.111 1976.43 
-3317.65 503.217 1972.18 
-3312.79 506.221 1969.78 
-3317.42 504.046 1977.64 
-3306.36 511.17 1969.49 
-3306.34 511.434 1969.11 
-3306.09 511.539 1969.41 
-3305.9 511.968 1968.78 
-3286.12 526.719 1963.6 
-3286.03 526.713 1963.57 
-3285.94 526.711 1963.54 
-3285.85 526.699 1963.5 
-3321.34 497.737 1966.73 
-3321.54 498.065 1967.48 
-3320.97 496.787 1965.2 
-3321.14 497.059 1965.7 
-3321.33 497.411 1966.32 
-3318.57 498.086 1966.73 
-3316.66 499.686 1965.24 
-3316.06 499.602 1964.28 
-3318.16 495.81 1966.08 
-3317.97 494.532 1965.8 
-3316.29 498.915 1963.51 
-3316.09 499.338 1963.98 
-3320.31 495.509 1964.32 
-3320.41 494.1 1963.98 
-3320.83 493.36 1964.06 
-3321.53 491.967 1964.12 
-3321.17 492.877 1964.22 
-3321.86 491.611 1964.35 
-3322.09 491.179 1964.52 
-3321.37 491.572 1964.88 
-3317.16 493.55 1967.92 
-3316.81 493.909 1967.33 
-3318.05 493.066 1969.48 
-3319.17 492.979 1971.62 
-3320.08 492.554 1973.85 
-3320.46 492.411 1965.06 
-3319.15 493.263 1965.21 
-3319.22 493.574 1965.55 
-3319.89 493.088 1965.41 
-3318.54 494.045 1965.68 
-3273.76 535.459 1966.17 
-3273.58 536.066 1966.83 
-3273.37 536.054 1966.87 
-3276.67 534.057 1966.52 
-3276.21 534.161 1966.22 
-3276.31 534.125 1966.55 
-3276.05 533.935 1966.44 
-3277.98 531.109 1968.75 
-3277.01 533.679 1967.07 
-3276.54 534.067 1966.78 
-3279.03 529.65 1970.47 
-3277.87 531.282 1969.05 
-3274.64 534.97 1966.37 
-3274.1 535.473 1966.48 
-3275.14 534.816 1966.47 
-3284.3 524.365 1965.69 
-3284.27 524.263 1965.95 
-3284.45 524.274 1966.33 
-3284.66 524.339 1966.6 
-3285.77 526.818 1963.65 
-3285.71 526.708 1963.84 
-3285.5 526.232 1964.11 
-3285.52 526.002 1964.48 
-3285.58 526.145 1964.24 
-3285.66 526.385 1964.08 
-3285.04 525.275 1965.3 
-3285.56 526.081 1964.79 
-3280.12 526.313 1961.84 
-3280.48 526.465 1961.63 
-3280.08 526.507 1962.06 
-3281.12 526.504 1962.74 
-3281.99 526.626 1963.04 
-3282.83 526.793 1963.44 
-3283.56 526.829 1963.54 
-3284.28 526.862 1963.63 
-3283.95 527.488 1963.32 
-3282.7 527.873 1962.57 
-3280.93 526.73 1961.7 
-3284.93 524.421 1967.1 
-3285.44 523.847 1966.86 
-3285.3 524.006 1967.26 
-3284.98 524.387 1967.82 
-3285.08 524.278 1967.92 
-3285.29 524.134 1967.41 
-3285.74 523.548 1966.39 
-3285.77 523.63 1966.09 
-3285.65 523.781 1966.43 
-3282.05 527.335 1961.85 
-3281.47 527.035 1961.78 
-3282.43 527.781 1962.34 
-3282.35 527.558 1962.08 
-3193.18 554.126 2008.34 
-3193.28 553.901 2008.7 
-3193.38 554.021 2008.11 
-3193.45 553.628 2009.08 
-3193.28 553.709 2009.51 
-3193.58 553.377 2009.49 
-3193.86 553.054 2009.5 
-3193.94 552.883 2009.85 
-3194.19 552.555 2010.04 
-3194.47 552.2 2010.2 
-3194.85 551.701 2010.43 
-3195.09 551.347 2010.82 
-3193.63 553.475 2012.16 
-3193.32 553.778 2011.98 
-3195.15 552.299 2012.2 
-3192.87 554.248 2011.59 
-3194.48 552.991 2011.53 
-3191.93 555.381 2010.17 
-3191.9 555.395 2009.95 
-3191.87 555.406 2009.74 
-3192.33 554.84 2011.03 
-3193.61 553.83 2011 
-3194.46 553.125 2011.04 
-3195.04 552.81 2010.35 
-3192.01 555.125 2010.91 
-3192.02 555.165 2010.76 
-3192.03 555.206 2010.6 
-3192.03 555.247 2010.48 
-3192.02 555.289 2010.34 
-3192 555.342 2010.09 
-3192.03 555.322 2010.15 
-3191.99 555.34 2009.91 
-3191.89 555.386 2009.39 
-3191.86 555.39 2009.13 
-3191.83 555.403 2009.01 
-3191.82 555.399 2008.68 
-3191.81 555.396 2008.4 
-3191.77 555.419 2008.38 
-3191.73 555.445 2008.5 
-3191.69 555.47 2008.62 
-3191.66 555.485 2008.52 
-3191.71 555.436 2008.53 
-3192.76 554.615 2007.87 
-3192.55 554.785 2008.21 
-3193.15 554.315 2007.91 
-3193.83 553.775 2007.6 
-3193.84 553.719 2007.65 
-3193.57 553.912 2007.94 
-3195.43 550.897 2011.17 
-3195.44 550.743 2011.69 
-3195.72 550.721 2011.32 
-3200.3 549.607 2018.33 
-3198.97 550.23 2015.82 
-3198.11 550.756 2013.95 
-3197.76 550.855 2013.77 
-3200.77 549.58 2018.5 
-3200.76 549.571 2018.37 
-3200.73 549.565 2018.22 
-3195.89 551.797 2012.09 
-3196.44 551.501 2011.96 
-3197.02 551.316 2012.21 
-3197.65 551.144 2012.52 
-3197.92 550.869 2013.58 
-3198.03 550.913 2013.28 
-3197.81 551.025 2012.94 
-3201.78 549.354 2019.91 
-3201.6 549.216 2020.02 
-3201.71 549.45 2019.6 
-3201.23 549.498 2019.2 
-3201.33 549.509 2019.08 
-3200.74 549.588 2018.63 
-3200.44 549.459 2017.61 
-3201.25 549.365 2018.92 
-3199.81 549.807 2015.54 
-3196.54 550.67 2011.17 
-3196.31 550.729 2011.09 
-3196.73 550.845 2010.62 
-3197 550.763 2010.75 
-3197.25 550.681 2010.88 
-3197.55 550.622 2010.93 
-3197.77 550.502 2011.18 
-3195.94 550.872 2010.83 
-3196.2 550.917 2010.64 
-3198.01 550.44 2011.26 
-3198.47 550.418 2011.64 
-3199.13 550.122 2013.54 
-3320.17 493.649 1978.1 
-3319.83 498.193 1982.52 
-3320.02 495.147 1979.59 
-3320.27 492.468 1975.52 
-3321.18 499.82 1970.67 
-3321.6 499.271 1969.92 
-3322.06 498.621 1969.45 
-3321.8 498.846 1969.44 
-3322.31 498.39 1969.51 
-3322.65 497.889 1969.19 
-3323 497.466 1969.1 
-3322.8 497.425 1968.62 
-3322.02 498.932 1977.25 
-3322.88 498.031 1972.21 
-3323.45 496.694 1970.21 
-3323.44 496.134 1970.72 
-3323.72 497.033 1969.07 
-3323.24 496.945 1968.76 
-3323.16 497.202 1968.96 
-3320.39 501.076 1971.7 
-3310.42 513.996 1984 
-3276.88 531.886 1974.72 
-3275.54 534.203 1974.39 
-3274.99 534.324 1975.01 
-3274.7 535.158 1975.43 
-3277.58 531.463 1973.46 
-3277.99 531.193 1972.56 
-3278.5 530.802 1971.78 
-3271.44 534.982 1980.08 
-3272.08 534.866 1979.35 
-3272.5 534.733 1978.93 
-3270.49 535.607 1980.15 
-3271.11 535.537 1979.48 
-3274.43 535.794 1975.89 
