-3222.36 92.4098 5876.86 
-3222.82 91.9211 5876.28 
-3223.11 91.1957 5875.65 
-3231.31 67.4122 5863.78 
-3229.57 66.8086 5865.94 
-3231.26 65.8696 5864.37 
-3229.24 72.2477 5866.62 
-3227.18 68.8889 5868.44 
-3228.75 68.7828 5866.41 
-3227.67 74.6612 5868.71 
-3226.84 72.5748 5869.38 
-3227.48 65.9799 5866.94 
-3229.3 67.8875 5866.04 
-3228.1 65.3333 5866.82 
-3222.1 93.1773 5877.76 
-3222.11 93.8586 5878.84 
-3223.02 89.8315 5875.13 
-3225.57 93.6871 5873.58 
-3223.08 88.6148 5874.43 
-3225.73 92.4022 5872.67 
-3220.61 90.5988 5878.08 
-3220.44 89.5053 5877.95 
-3220.66 87.7168 5876.72 
-3231.94 65.4551 5863.8 
-3230.84 63.2772 5864.84 
-3232.78 65.6433 5863.03 
-3230.59 65.4239 5865.27 
-3228.89 65.1 5866.36 
-3226.62 68.0099 5868.42 
-3227.03 65.5718 5867.14 
-3226.21 70.3825 5870.48 
-3226.28 71.9486 5870.21 
-3225.87 73.0339 5870.24 
-3226.17 74.2084 5869.79 
-3227.79 64.4574 5867.25 
-3228.33 64.0198 5866.94 
-3220.81 95.5413 5889.53 
-3219.79 93.7338 5889.16 
-3222.59 96.8181 5884.22 
-3219.62 91.0783 5880.37 
-3218.01 90.7689 5884.02 
-3222.95 87.2836 5873.89 
-3223.11 86.1558 5873.29 
-3225.57 90.1565 5872.07 
-3220.77 85.1149 5875.88 
-3220.82 83.3898 5874.49 
-3225.61 89.0859 5871.74 
-3225.79 86.7741 5871.41 
-3227.53 86.7274 5869.81 
-3223.09 84.6788 5872.94 
-3218.73 89.5637 5881.55 
-3220.02 86.4206 5877.46 
-3218.4 88.3879 5881.72 
-3220.32 84.4721 5876.32 
-3238.88 37.2312 5875.69 
-3232.86 44.1032 5876.15 
-3236.83 37.249 5878.19 
-3233.77 47.3802 5872.26 
-3232.85 46.5156 5873.74 
-3238.49 43.5796 5871.26 
-3236.46 57.6884 5863.55 
-3233.43 57.3493 5865.79 
-3234.12 53.6527 5867.6 
-3231.54 62.2573 5864.42 
-3229.58 60.323 5866.81 
-3232.15 61.41 5864.17 
-3228.84 61.9277 5866.55 
-3230.88 64.3029 5865.01 
-3229.1 63.8049 5866.09 
-3228.42 63.0093 5866.65 
-3231.05 62.6609 5864.69 
-3229.51 58.3618 5867.81 
-3232.2 60.3073 5864.83 
-3230.53 58.7875 5866.87 
-3232.68 59.2316 5865.17 
-3226.67 65.3603 5867.4 
-3226.69 64.9406 5867.82 
-3226.26 67.3843 5868.8 
-3226.07 69.4801 5870.57 
-3227.36 64.3407 5867.74 
-3225.69 71.3572 5871.09 
-3225.72 70.1897 5871.54 
-3225.62 74.033 5870.61 
-3226.75 75.9613 5869.89 
-3225.59 72.2752 5870.91 
-3227.18 62.5931 5868.09 
-3227.84 63.1478 5867.39 
-3228.25 62.1089 5867.26 
-3227.88 80.937 5869.16 
-3226.64 82.0014 5870.29 
-3227.21 77.251 5869.36 
-3224.39 76.9947 5871.47 
-3224.01 76.0407 5871.69 
-3221.51 94.5186 5881.48 
-3217.92 91.0184 5885.22 
-3218.31 91.3062 5883.89 
-3220.86 94.781 5884.56 
-3217.1 90.2285 5889.7 
-3217.7 91.3789 5888.44 
-3219.62 93.9279 5891.74 
-3220.4 95.4369 5892.25 
-3219.52 94.4779 5893.9 
-3216.42 90.5081 5893.95 
-3216.63 89.8314 5885.86 
-3214.52 90.4891 5890.05 
-3215.66 89.9415 5889.35 
-3221.04 82.6121 5873.89 
-3220.3 82.5892 5874.78 
-3220.74 81.6263 5874.05 
-3223.44 83.5772 5872.62 
-3224.23 82.6605 5872.23 
-3221.61 81.441 5873.32 
-3215.37 89.2875 5887.47 
-3217.72 86.7828 5882.21 
-3218.75 84.9416 5879.5 
-3215.05 88.4313 5887.91 
-3215.67 86.9885 5884.98 
-3219.9 83.5995 5876.47 
-3219.96 82.1955 5875.05 
-3218.04 104.697 5899.05 
-3231.48 42.8371 5879.41 
-3235.82 36.5356 5880.65 
-3231.73 43.774 5877.86 
-3235.1 42.9145 5874.8 
-3230.49 48.9346 5873.8 
-3229.68 48.4907 5875.13 
-3230.48 51.8381 5871.56 
-3231.17 53.5416 5869.58 
-3234.32 49.6002 5870.23 
-3230.46 57.1333 5867.74 
-3228.84 60.5383 5867.2 
-3230.05 54.9576 5869.48 
-3229.34 56.4108 5869.31 
-3228.94 58.7017 5868.12 
-3227.08 63.2629 5868.62 
-3226.78 64.1355 5868.58 
-3226.29 66.5975 5869.26 
-3226.21 68.849 5870.97 
-3225.52 71.0539 5871.45 
-3225.79 69.0593 5872.03 
-3225.54 70.0822 5871.89 
-3224.06 74.9901 5871.62 
-3225.66 73.1905 5870.49 
-3224.08 74.1651 5871.59 
-3225.41 71.8963 5871.32 
-3226.87 61.0534 5869.42 
-3227.34 60.4032 5869.01 
-3227.84 61.6041 5868.08 
-3228.27 60.59 5867.7 
-3225.07 78.9468 5870.8 
-3224.81 77.8688 5871.24 
-3225.22 80.8899 5871.24 
-3222.15 79.5758 5872.05 
-3222.91 79.7929 5871.75 
-3221.92 77.9452 5871.94 
-3217.84 94.1053 5897.83 
-3217.06 92.56 5897.73 
-3220.02 95.7301 5895.03 
-3216 90.7951 5897.42 
-3213.59 90.4174 5893.64 
-3213.03 90.5952 5891.82 
-3212.21 91.0929 5893.73 
-3220.4 81.1464 5874.23 
-3221.1 79.9828 5873.25 
-3221.59 80.3468 5872.94 
-3222.28 80.5768 5872.46 
-3223.04 80.2848 5871.9 
-3212.91 89.4769 5892.16 
-3218.11 83.446 5880.96 
-3215.95 85.3159 5884.75 
-3214.67 87.5703 5889.06 
-3212.07 88.5981 5893.61 
-3214.57 86.5161 5888.67 
-3219.6 81.9544 5875.99 
-3220.16 80.6804 5874.6 
-3214.86 104.37 5901.53 
-3215.41 105.458 5900.38 
-3238.07 31.4991 5883.61 
-3238.81 30.4523 5884.07 
-3239.39 30.886 5882.15 
-3235.44 35.3281 5882.97 
-3237.75 32.9085 5882.04 
-3230.78 42.1989 5881.63 
-3228.63 45.7983 5879.92 
-3229.12 46.7795 5878.03 
-3229.83 52.9552 5871.39 
-3229.02 49.0715 5875.58 
-3229.27 52.3377 5872.43 
-3228.96 55.8911 5870.15 
-3228.5 58.5007 5868.74 
-3226.68 61.6036 5870.01 
-3226.55 62.6238 5870.04 
-3226.23 65.7813 5870.03 
-3226.33 67.9148 5871.3 
-3225.27 71.1436 5871.64 
-3225.27 70.4138 5872.02 
-3225.69 68.1894 5872.85 
-3225.34 69.3608 5872.63 
-3221.72 77.1479 5872.26 
-3224.1 73.2855 5871.67 
-3222.05 75.7225 5872.56 
-3225.07 71.8045 5871.53 
-3227.25 58.2465 5870.82 
-3226.78 59.1967 5871.15 
-3227.87 60.1322 5868.35 
-3227.87 58.3448 5869.6 
-3221.6 79.3399 5872.43 
-3212.9 91.3412 5897.61 
-3217.79 96.8082 5903.1 
-3215 97.4339 5901.84 
-3219.75 96.0297 5900.15 
-3210.99 90.1702 5895.09 
-3210.93 91.8637 5897.06 
-3212.85 93.1864 5898.24 
-3220.84 79.6862 5873.61 
-3221.49 79.0389 5872.87 
-3217.93 82.3557 5880.35 
-3215.25 84.4137 5885.3 
-3212.09 87.3457 5893.78 
-3214.16 85.769 5889.41 
-3212.05 86.2685 5894.04 
-3219.83 80.49 5875.58 
-3220.83 79.3201 5873.99 
-3213.57 106.616 5902.22 
-3207.09 116.978 5929.41 
-3211.84 120.045 5926.65 
-3211.84 121.112 5928.34 
-3237.18 32.0969 5884.42 
-3239.51 29.5715 5884.9 
-3237.94 30.7907 5885.56 
-3239.45 29.1816 5886.43 
-3230.28 41.395 5883.7 
-3234.04 35.9536 5884.95 
-3227.94 44.8445 5882.76 
-3227.66 46.6729 5880.47 
-3228.32 48.3222 5877.56 
-3228.58 51.5237 5874.15 
-3228.56 55.4485 5871.1 
-3226.63 60.1682 5871.5 
-3226.44 61.1968 5871.52 
-3226.15 64.9077 5871.36 
-3226.23 67.2491 5872.39 
-3223.86 71.7569 5871.88 
-3223.88 71.4616 5872.34 
-3223.8 71.3344 5872.91 
-3225.12 67.8966 5874.49 
-3224.85 68.9056 5873.71 
-3223.64 71.1549 5873.56 
-3221.69 76.7985 5872.53 
-3221.6 77.8147 5873.09 
-3224.01 72.0215 5871.39 
-3222.87 73.8229 5872.3 
-3221.74 76.4624 5873.2 
-3222.58 74.3336 5872.74 
-3227.91 55.6148 5871.81 
-3227.21 55.5652 5873.39 
-3227.88 52.7377 5874.26 
-3226.84 56.7194 5873.83 
-3218.2 95.1895 5898.67 
-3209.72 93.0329 5899.59 
-3209.07 92.0383 5898.26 
-3207.99 94.5023 5902.15 
-3215.83 95.4975 5900.12 
-3210.2 99.1464 5903.2 
-3215.67 98.8796 5907.45 
-3213.39 101.625 5903.85 
-3213.64 100.071 5904.94 
-3211.6 102.045 5903.52 
-3212.71 99.9188 5904.32 
-3210.65 101.633 5903.96 
-3211.63 99.8042 5903.79 
-3214.33 102.752 5902.32 
-3213.44 102.807 5902.87 
-3214.14 101.972 5903.34 
-3214.07 104.213 5902.14 
-3213.29 104.56 5902.86 
-3213.81 103.338 5902.37 
-3209.17 91.2759 5897.94 
-3217.78 81.4896 5880.17 
-3215.04 83.6899 5885.2 
-3214.12 84.8863 5889.19 
-3210.52 88.2056 5896.43 
-3209.02 90.6363 5898.5 
-3209.27 89.9667 5898.44 
-3212.2 85.4171 5894.22 
-3210.67 87.4222 5896.42 
-3220.05 79.5517 5875.71 
-3221.12 78.437 5874.13 
-3212.94 105.768 5903.84 
-3207.3 117.908 5930.8 
-3211 120.816 5929.2 
-3203.34 113.955 5931.28 
-3203.78 110.85 5924.06 
-3204.32 111.386 5923.61 
-3206.02 113.349 5923.98 
-3237.44 30.8844 5887.27 
-3239.03 29.2594 5887.78 
-3235.52 33.2801 5886.44 
-3231.47 38.2736 5887.03 
-3228.99 41.7297 5886.14 
-3227.63 44.2175 5884.25 
-3227.22 45.7896 5882.88 
-3227.2 47.2997 5880.58 
-3227.79 49.6306 5877.07 
-3226.6 57.9931 5874.07 
-3226.51 61.1283 5872.61 
-3226.12 64.1359 5872.8 
-3226.23 66.3683 5873.43 
-3225.77 67.0713 5874.33 
-3222.31 74.6516 5873.13 
-3221.96 75.5637 5873.99 
-3224.29 68.7047 5875.12 
-3224.01 68.9186 5876.79 
-3224.69 67.8067 5876.64 
-3223.12 71.8277 5874.32 
-3221.69 76.9564 5874.05 
-3226.98 51.613 5877.27 
-3227.34 50.554 5877.19 
-3226.5 51.7033 5878.78 
-3207.17 93.327 5902.16 
-3208.16 92.2782 5900.35 
-3208.38 91.811 5899.6 
-3205.51 95.9099 5904.74 
-3205.85 96.3363 5904.75 
-3206.73 96.023 5903.58 
-3209.22 98.8636 5903.33 
-3209.79 101.212 5905.16 
-3213 103.47 5903 
-3212.34 103.303 5903.88 
-3212.56 102.496 5903.24 
-3211.82 103.065 5904.77 
-3211.11 102.638 5905.53 
-3212.69 104.811 5904.05 
-3212.59 106.481 5904.52 
-3208.37 91.0189 5899.31 
-3217.58 80.9402 5880.84 
-3215.02 82.7627 5885.42 
-3214.28 84.0901 5888.96 
-3212.78 84.5738 5893.75 
-3209.36 89.2781 5898.58 
-3208.1 90.3528 5899.74 
-3208.31 89.9314 5899.67 
-3208.39 89.4439 5899.85 
-3211.86 85.4422 5895.71 
-3210.81 86.8068 5896.56 
-3209.4 88.6692 5898.8 
-3220.44 78.6384 5875.81 
-3212.62 107.834 5905.04 
-3212.25 105.206 5905.21 
-3213.05 110.379 5911.29 
-3205.44 112.278 5921.6 
-3208.52 115.894 5924.3 
-3203.82 110.484 5921.21 
-3205.85 117.058 5932.17 
-3210.22 120.425 5930.46 
-3201.17 112.645 5933.26 
-3203.08 109.951 5924.76 
-3203.06 109.507 5921.25 
-3209.91 116.511 5922.97 
-3237.77 31.0246 5898.59 
-3234.78 33.3514 5895.3 
-3234.9 33.942 5905.35 
-3237.56 30.3963 5892.27 
-3235.42 32.3134 5891.46 
-3237.47 30.325 5889.46 
-3235.59 32.4535 5888.72 
-3232.08 37.0507 5888.57 
-3227.64 42.4216 5889.13 
-3227.17 43.9438 5886.23 
-3226.68 45.1355 5885.15 
-3226.78 46.6812 5882.82 
-3226.71 47.9028 5881.04 
-3225.98 57.9834 5875.81 
-3225.86 52.3662 5880.4 
-3225.74 63.2622 5874.64 
-3225.24 66.5992 5876.15 
-3221.74 76.3891 5875.57 
-3221.25 77.5836 5875.56 
-3222.74 72.7938 5875.3 
-3223.65 68.4058 5880.58 
-3222.16 72.737 5877.05 
-3222.77 70.112 5880.79 
-3223.78 66.8892 5881.32 
-3226.12 48.4366 5882.28 
-3225.03 49.5684 5884.18 
-3207.21 92.1852 5902.06 
-3205.72 95.0805 5903.98 
-3208.03 91.3684 5900.22 
-3204.73 96.4223 5906.15 
-3206.46 98.8596 5908.25 
-3206.9 98.4405 5905.73 
-3203.97 95.9211 5906.73 
-3204.81 95.6194 5905.3 
-3208.51 98.7998 5903.9 
-3208.62 100.045 5904.94 
-3207.79 99.89 5906.56 
-3209.98 101.768 5908.4 
-3211.81 104.309 5906.14 
-3211.32 103.686 5907.21 
-3207.16 91.3231 5902 
-3217.54 80.1394 5881.4 
-3215.06 81.7869 5885.66 
-3214.25 83.4163 5889.34 
-3212.93 84.0602 5894.38 
-3208.42 88.7422 5900.27 
-3206.45 89.9867 5902.46 
-3206.75 90.671 5902.37 
-3206.16 89.3707 5902.78 
-3206.25 88.3833 5902.99 
-3211.51 85.651 5896.84 
-3210.09 87.3862 5898.1 
-3208.7 88.0099 5900.46 
-3212.01 106.397 5906.47 
-3208.35 104.447 5911.47 
-3211.53 106.195 5909.18 
-3208.99 107.44 5912.77 
-3210.8 110.405 5914.3 
-3212.01 106.548 5907.87 
-3206.43 112.953 5920.56 
-3204.41 110.67 5920.1 
-3203.49 109.5 5920.45 
-3205.51 116.935 5934.37 
-3208.01 117.863 5933.93 
-3201.57 113.935 5935.81 
-3198.66 110.671 5935.08 
-3202.28 108.901 5925.3 
-3202.57 108.662 5921.18 
-3202.8 108.515 5920.67 
-3212.54 115.363 5917.82 
-3211.09 114.742 5918.79 
-3210.18 115.994 5921.65 
-3231.64 37.4395 5906.71 
-3233.7 34.9797 5912.06 
-3232.01 36.534 5899.08 
-3231.37 37.0708 5894.02 
-3232.72 35.7918 5890.39 
-3228.31 41.1854 5890.51 
-3229.32 39.7076 5892.77 
-3226.69 43.3126 5891.39 
-3226.58 44.0694 5888.5 
-3226.06 45.2493 5887.18 
-3226.24 46.9791 5884.19 
-3224.72 53.7703 5884.04 
-3224.49 58.708 5882.6 
-3223.69 52.6852 5889.03 
-3224.9 63.401 5877.61 
-3224 65.1749 5881.57 
-3217.96 78.3623 5881.41 
-3217.69 79.2202 5881.56 
-3218.63 77.1532 5880.86 
-3221.13 68.001 5889.33 
-3219.51 73.6099 5884.59 
-3218.3 76.2406 5883.26 
-3220.01 70.2649 5890.56 
-3222.11 65.4791 5888.35 
-3225.18 47.7483 5886.14 
-3223.72 50.0264 5890.35 
-3223.49 51.4325 5890.08 
-3205.43 94.6607 5904.19 
-3204.59 98.293 5908.61 
-3203.99 97.7643 5908.71 
-3203.26 95.7006 5907.78 
-3203.59 95.0693 5906.65 
-3204.3 94.7616 5905.39 
-3204.72 93.5258 5904.79 
-3215.15 80.8987 5885.75 
-3214.13 82.7604 5889.9 
-3212.58 84.3158 5895.94 
-3213.34 83.1622 5894.43 
-3206.8 87.0249 5903.28 
-3206.22 86.243 5904.41 
-3204.16 91.926 5905.28 
-3203.41 90.1029 5905.92 
-3203.38 88.4225 5905.96 
-3209.77 87.1897 5899.26 
-3211.15 85.0472 5898.2 
-3206.04 85.099 5905.41 
-3208.63 86.1004 5901.96 
-3209.26 112.149 5917.35 
-3207.63 110.223 5916.81 
-3204.35 103.278 5913.84 
-3204.54 106.782 5916.1 
-3205.27 108.261 5917.41 
-3207.07 112.561 5919.65 
-3210.68 115.697 5920.44 
-3205.17 110.112 5919.54 
-3203.97 108.884 5919.75 
-3203.36 107.839 5918.95 
-3200.45 113.121 5939.13 
-3202.14 114.082 5938.49 
-3206.36 114.507 5937.53 
-3196.78 110.349 5941.15 
-3201.84 107.817 5925.03 
-3195.74 109.351 5939 
-3199.54 108.091 5931.57 
-3202.27 107.859 5920.73 
-3202.75 107.759 5919.42 
-3233.98 33.9231 5918.78 
-3231.72 35.6972 5920.62 
-3237.12 32.0182 5925.53 
-3231.71 36.6593 5917.09 
-3231.03 38.2024 5912.01 
-3228.97 40.7133 5907.16 
-3228.98 40.0825 5899.15 
-3227.87 41.4817 5896.79 
-3226.93 42.7746 5894.04 
-3225.43 45.0004 5894.07 
-3225.69 45.2506 5890.35 
-3225.38 46.3344 5887.8 
-3222.44 54.9793 5892.18 
-3222.96 60.4531 5888.22 
-3221.2 54.4473 5895.03 
-3215.34 80.0232 5885.78 
-3215.9 78.8232 5886.09 
-3219.99 68.4794 5893.69 
-3218.24 70.8614 5896.33 
-3215.69 77.7096 5890.32 
-3217.96 74.3049 5889.86 
-3216.26 74.8482 5895.75 
-3221.05 65.7194 5892.58 
-3223.74 49.105 5891.46 
-3220.99 54.0626 5896.66 
-3220.95 53.2969 5897.9 
-3203.74 97.745 5909.11 
-3203.58 102.874 5914.77 
-3202.69 94.6283 5908 
-3203.2 96.9596 5909.25 
-3203.14 94.0903 5906.66 
-3203.55 93.3233 5905.86 
-3214.2 81.8222 5889.95 
-3212.52 83.246 5896.77 
-3213.24 81.9317 5895.36 
-3214.44 80.6939 5890.52 
-3203.55 87.4069 5906.26 
-3203.16 91.5811 5906.17 
-3202.38 90.3115 5906.87 
-3202.86 89.0123 5906.45 
-3209.97 85.1417 5900.49 
-3211.31 83.1426 5899.26 
-3206.12 83.7587 5906.29 
-3203.73 85.6084 5907.24 
-3208.77 83.8681 5903.34 
-3203.68 106.615 5916.32 
-3195.17 109.118 5943.9 
-3196.83 110.005 5943.25 
-3199.48 111.178 5942.06 
-3206.09 110.654 5941.25 
-3191.9 106.686 5944.46 
-3190.73 105.809 5947.45 
-3201.57 106.549 5924.74 
-3202.37 105.792 5919.65 
-3195.94 109.023 5937.75 
-3198.94 105.899 5931.82 
-3203.01 105.868 5917.35 
-3233.38 33.8991 5924.65 
-3238.24 31.1532 5931.5 
-3229.64 38.2518 5920.79 
-3229.83 38.9898 5917.65 
-3229.57 39.8516 5915.32 
-3227.17 43.3441 5911.8 
-3225.99 44.5552 5904.87 
-3225.1 45.5083 5898.58 
-3223.04 48.9815 5897.14 
-3222.77 49.2424 5901.05 
-3224.08 47.9003 5892 
-3219.66 57.7418 5897.26 
-3221.6 60.8061 5892.44 
-3218.65 57.9224 5899.95 
-3214.73 79.4409 5891.27 
-3219 68.5122 5896.81 
-3217.55 70.3741 5898.89 
-3216.38 71.9702 5900.18 
-3213.28 80.1612 5896.29 
-3214.78 75.8588 5898.73 
-3219.7 62.7811 5896.41 
-3220.97 52.5054 5899.09 
-3218.16 57.3629 5901.95 
-3216.52 58.8017 5905.55 
-3203.11 101.692 5914.77 
-3202.34 94.5957 5909 
-3202.2 93.4114 5907.73 
-3202.73 97.3489 5910.51 
-3202.69 102.21 5915.93 
-3202.48 92.4365 5906.83 
-3212.23 81.6541 5897.79 
-3203.26 88.3246 5906.2 
-3203.61 86.6447 5906.75 
-3201.73 91.0993 5907.47 
-3202.44 89.6241 5906.88 
-3210.17 82.5924 5901.96 
-3211.49 81.1372 5900.92 
-3204.91 82.601 5908.18 
-3203.29 83.7093 5908.85 
-3202.89 84.3313 5908.8 
-3208.77 81.52 5904.97 
-3191.56 106.059 5947.78 
-3192.87 106.566 5947.52 
-3196.97 107.833 5945.85 
-3204.02 106.592 5945.54 
-3188.61 103.084 5948.3 
-3195.14 106.093 5938.72 
-3186.46 101.687 5951.69 
-3186.64 102.091 5952.04 
-3201.27 104.5 5924.02 
-3202.18 101.821 5917.47 
-3197.28 102.905 5934.63 
-3198.57 99.1837 5928.95 
-3229.95 36.9494 5923.57 
-3232.48 33.5005 5930.58 
-3227.86 41.0233 5919.34 
-3227.82 40.6716 5920.95 
-3226.36 44.1744 5915.24 
-3227.1 42.6821 5917.66 
-3222.68 49.5359 5907.21 
-3223.57 48.3138 5911.92 
-3218.62 55.6234 5903.78 
-3219.53 54.2789 5905.09 
-3220.05 53.523 5911 
-3216.24 62.8516 5903.26 
-3217.4 65.1219 5900.72 
-3215.04 61.9436 5906.34 
-3215.21 63.6211 5905.59 
-3216.01 68.2712 5902.81 
-3215.44 69.437 5903.71 
-3214.25 70.4311 5905.04 
-3213.6 76.012 5901.67 
-3212.25 80.0634 5899.26 
-3214.12 62.577 5908.06 
-3215.17 61.208 5910.1 
-3213.22 64.5597 5910.6 
-3201.83 93.8703 5909.04 
-3202.28 96.3044 5910.19 
-3201.59 92.5361 5908.09 
-3203.44 87.4813 5906.44 
-3202.95 88.6899 5906.53 
-3202.37 84.7608 5908.98 
-3201.15 91.8738 5908.25 
-3201.6 90.6814 5907.69 
-3202.16 89.9041 5908.25 
-3210.03 80.3522 5903.9 
-3211.6 77.553 5903.96 
-3205.52 81.1977 5908.8 
-3208.65 80.2339 5906.45 
-3203.51 82.2554 5909.92 
-3202.65 83.0964 5909.95 
-3202.19 82.9241 5910.63 
-3202.7 84.5277 5908.95 
-3203.4 86.2892 5907.16 
-3215.28 127.863 5864.16 
-3187.43 102.538 5952.11 
-3192.57 104.432 5950.01 
-3187.85 102.399 5952.58 
-3196.68 102.031 5951.44 
-3204.46 103.021 5948.83 
-3193.19 101.6 5941.62 
-3188.22 99.9886 5948.69 
-3184.94 98.0162 5953.92 
-3183.95 97.607 5955.42 
-3184.03 98.1843 5955.37 
-3200.87 101.605 5922.42 
-3201.72 99.1479 5916 
-3196.81 99.2692 5934.26 
-3195 99.1318 5938.51 
-3197.22 97.2116 5930.47 
-3198.64 96.8129 5926.09 
-3195.58 94.8317 5928.06 
-3228.53 37.8799 5924.44 
-3228.53 33.6807 5939.2 
-3233.99 31.6618 5939.52 
-3225.7 35.7727 5931.56 
-3238.73 29.9748 5940.56 
-3228.16 35.1731 5940.44 
-3232.15 34.948 5940.95 
-3225.2 45.4432 5917.91 
-3226 43.2959 5920.04 
-3226.43 41.8608 5921.82 
-3223.41 48.6188 5915.15 
-3223.66 41.3389 5941.07 
-3225.85 43.5548 5942.45 
-3233.88 37.9578 5942.43 
-3229.24 45.2704 5943.96 
-3217.14 58.1625 5912.11 
-3219.41 54.4959 5914.85 
-3214.44 65.3479 5908.24 
-3214.44 66.463 5906.68 
-3212.52 71.3233 5906.85 
-3213.34 67.464 5908.65 
-3213.89 65.9903 5909.92 
-3214.7 62.8423 5913.99 
-3213.26 66.2619 5911.55 
-3201.84 95.578 5910.12 
-3201.38 93.4451 5909.03 
-3201.96 86.1121 5908.44 
-3201.96 85.0876 5909.06 
-3202.14 89.1992 5907.44 
-3200.95 91.443 5908.42 
-3201.28 90.4232 5908.14 
-3210.55 76.9227 5906.18 
-3208.81 76.0662 5909.41 
-3204.63 81.1989 5910.06 
-3207.81 77.1053 5910.03 
-3209.52 76.017 5908.39 
-3203.24 81.6382 5910.97 
-3202.26 82.3798 5911.08 
-3183.89 98.5499 5955.79 
-3187.77 100.541 5954.73 
-3183.17 97.9884 5957.16 
-3201.95 99.0576 5953.12 
-3192.4 97.5743 5956.59 
-3190.07 98.0854 5945.75 
-3185.43 96.5443 5953.13 
-3184.23 96.5739 5954.95 
-3183.67 96.1525 5955.71 
-3183.27 96.1872 5956.3 
-3183.22 96.4108 5956.46 
-3200.96 98.7995 5921.66 
-3201.54 97.8198 5914.66 
-3195.81 95.6962 5930.98 
-3196.17 96.9497 5934.35 
-3194.44 96.4057 5937.96 
-3192.41 96.3797 5941.99 
-3200.87 96.5665 5922.21 
-3198.83 96.1113 5924.56 
-3195.58 93.8969 5926.43 
-3193.82 92.7329 5928.25 
-3226.91 38.5172 5925.45 
-3222.71 35.8195 5939.29 
-3221.83 37.3811 5940.05 
-3220.07 37.8149 5931.87 
-3220.19 40.1517 5939.8 
-3223.74 47.1754 5918.84 
-3221.43 51.1766 5917.02 
-3224.48 45.0895 5921.03 
-3225.28 42.778 5922.59 
-3224.72 52.2636 5945.81 
-3233.21 45.4988 5945.72 
-3228.09 50.4587 5948.63 
-3215.17 46.569 5940.84 
-3217.11 49.5652 5942.45 
-3221.26 50.4385 5943.83 
-3217.38 57.6584 5916.66 
-3210.97 71.4101 5909.48 
-3211.29 69.2439 5909.5 
-3212 68.1291 5910.06 
-3212.84 67.3709 5910.89 
-3214.31 63.2257 5916.77 
-3212.86 66.0591 5913.42 
-3211.98 66.4677 5912.12 
-3201.44 94.7698 5909.82 
-3201.07 93.0544 5909.19 
-3201.51 86.4226 5908.68 
-3201.04 90.1291 5908.51 
-3201.31 87.2893 5908.89 
-3200.74 91.1181 5908.66 
-3210.16 71.1827 5911.24 
-3211.12 71.1306 5910.4 
-3207.42 77.1663 5910.78 
-3206.32 78.6724 5911.08 
-3203.96 80.7861 5911.32 
-3209.11 72.0801 5911.5 
-3200.37 79.956 5912.89 
-3200.79 79.6369 5912.83 
-3183.04 96.4885 5956.79 
-3182.93 96.7102 5958.97 
-3182.51 95.8617 5957.52 
-3195.41 94.1733 5959.16 
-3202.96 95.6043 5956.18 
-3187.48 92.6108 5962.19 
-3183 94.8606 5960.27 
-3188.3 95.7966 5948.47 
-3184.95 95.9075 5953.79 
-3183.96 95.46 5955.23 
-3183.27 95.0736 5956.19 
-3182.8 95.0667 5956.88 
-3182.49 95.0522 5957.39 
-3200.92 97.3181 5920.55 
-3201.4 96.4225 5912.96 
-3195.14 94.1608 5931.56 
-3195.21 94.3933 5935.84 
-3191.6 94.6134 5943.11 
-3193.21 93.6815 5939.73 
-3199.48 95.3966 5923.49 
-3195.74 92.2405 5925.74 
-3201.46 95.3934 5921.51 
-3201.45 95.8178 5920.54 
-3194.07 90.9458 5927.56 
-3193.67 90.511 5928.73 
-3193.12 91.243 5929.13 
-3225.67 39.1707 5925.96 
-3217.84 37.5638 5939.08 
-3215.15 40.1453 5939.5 
-3213.36 42.9729 5939.14 
-3213.15 39.3557 5937.81 
-3219.55 38.5338 5930.66 
-3221.56 50.3474 5920.36 
-3217.92 56.15 5919.39 
-3222.21 48.5698 5921.56 
-3223.37 45.7711 5922.17 
-3224.43 43.3912 5923.26 
-3219.9 57.4781 5949.7 
-3217.06 59.1826 5946.73 
-3216.48 56.2357 5944.76 
-3225.54 53.176 5952.14 
-3232.94 46.8758 5951.34 
-3230.59 49.799 5956.06 
-3209.45 54.3778 5942.05 
-3208.42 50.791 5940.44 
-3210.6 58.1382 5943.59 
-3214.21 62.2079 5921.41 
-3210.89 68.4926 5910.96 
-3212 69.2007 5910.59 
-3211.32 67.3706 5911.39 
-3213.24 64.5538 5918.22 
-3212.04 66.4087 5914.94 
-3211.06 66.9411 5913.73 
-3200.89 92.7943 5909.43 
-3201.15 87.1736 5909.75 
-3200.54 90.8713 5908.97 
-3201.14 88.2297 5910.06 
-3210.96 69.8006 5911.47 
-3209.08 70.6225 5912.04 
-3208.57 71.0714 5911.8 
-3205.92 77.7079 5912.03 
-3207.75 73.0731 5912.28 
-3200.65 78.9201 5913.03 
-3201.39 78.8567 5912.88 
-3207.66 71.9157 5912.19 
-3199.59 79.5381 5913.34 
-3197.86 76.3225 5916.16 
-3198.12 76.1037 5915.64 
-3198.26 75.7226 5915.42 
-3182.01 94.7561 5958.11 
-3199.84 91.4019 5960.83 
-3188.26 89.8444 5964.49 
-3182.31 94.1603 5959.72 
-3187.21 95.1873 5950.06 
-3184.17 95.0925 5954.85 
-3183.47 94.7278 5955.84 
-3182.77 94.3201 5956.81 
-3182.43 94.3472 5957.35 
-3182.17 94.4856 5957.81 
-3201.1 96.5169 5919.59 
-3201.38 96.4269 5913.79 
-3193.78 91.9438 5930.66 
-3196.34 92.4765 5932.95 
-3194.17 92.0086 5938.7 
-3196.43 91.4873 5933.76 
-3191.83 93.0695 5943.13 
-3199.37 94.0747 5922.97 
-3194.87 89.9885 5926.24 
-3201.97 94.5196 5919.99 
-3199.38 92.8687 5922.38 
-3201.53 93.7286 5920.59 
-3201.81 95.4531 5919.18 
-3193.72 89.9302 5927.25 
-3196.68 89.1457 5930.27 
-3224.27 39.7967 5926.46 
-3211.2 41.1371 5939.44 
-3207.13 45.5979 5938.34 
-3207.25 48.1124 5939.06 
-3213.03 40.0825 5934.42 
-3206.62 41.8914 5938.97 
-3206.17 43.1072 5939 
-3217.67 39.515 5930.99 
-3218 55.2742 5921.73 
-3219.12 53.3706 5922.78 
-3214.76 60.3375 5923.3 
-3221.13 49.4367 5922.73 
-3222.48 45.954 5923.37 
-3223.46 43.786 5924.07 
-3211.73 64.1567 5949.21 
-3210.16 64.9252 5945.66 
-3210.56 63.0007 5944.33 
-3210.9 65.2268 5951.85 
-3217.79 59.8453 5953.27 
-3223.79 55.3697 5956.02 
-3224.06 56.5786 5963.24 
-3231.23 51.1476 5963.87 
-3209.95 58.8411 5940.11 
-3210.64 61.9817 5940.04 
-3209.63 56.7088 5939.17 
-3210.68 63.9589 5939.68 
-3213.18 62.74 5925.4 
-3213.2 60.6079 5928.7 
-3210.44 67.881 5912.54 
-3211.12 68.6775 5911.95 
-3212.64 65.1634 5919.05 
-3211.48 66.8471 5916.71 
-3210.26 67.6532 5914.72 
-3201.37 93.7074 5910.7 
-3201.41 85.1253 5911.07 
-3201.22 89.0143 5910.53 
-3200.99 91.4125 5909.81 
-3202.93 87.5235 5913.36 
-3209.05 69.9902 5912.55 
-3207.18 70.5404 5912.25 
-3207.77 70.0488 5912.61 
-3209.85 69.3275 5912.74 
-3205.05 71.1454 5912.46 
-3204.84 78.9171 5912.31 
-3205.68 73.7956 5913.5 
-3205.91 72.5669 5912.95 
-3198.54 75.5813 5914.86 
-3201.2 78.3551 5913.05 
-3198.95 75.6792 5914.24 
-3204.67 71.7409 5913.05 
-3197.68 76.7294 5916.5 
-3199.76 80.1349 5912.99 
-3197.08 75.7837 5917.77 
-3197.48 75.7008 5917.16 
-3197.71 75.3807 5916.74 
-3197.88 74.8565 5916.32 
-3182.66 93.708 5959.49 
-3182.01 94.4461 5958.25 
-3191.59 87.2354 5966.44 
-3200.46 87.8535 5964.06 
-3185.89 89.9273 5963.19 
-3186.25 94.4316 5951.49 
-3183.5 94.2982 5955.73 
-3182.95 94.1062 5956.52 
-3182.56 94.0837 5957.12 
-3182.27 94.2847 5957.61 
-3201.36 96.3007 5917.67 
-3192.3 91.4416 5942.79 
-3195.52 89.2633 5936.9 
-3196.14 90.3012 5935.28 
-3197.55 90.7194 5923.12 
-3193.83 89.598 5926.3 
-3195.39 89.4569 5924.77 
-3202.4 94.1114 5918.93 
-3202.11 90.6999 5920.27 
-3202.78 90.5628 5919.94 
-3200.55 91.0999 5921.01 
-3201.41 90.5314 5920.66 
-3202.51 94.5759 5917.93 
-3201.57 95.3052 5917.69 
-3196.69 87.4823 5927.53 
-3196.02 85.8283 5928.77 
-3222.77 40.4482 5926.96 
-3206.32 46.2014 5937.87 
-3209.99 54.7182 5936.15 
-3209.01 53.9051 5938.66 
-3210.43 41.0922 5935.31 
-3205.65 42.1861 5938.52 
-3206.53 44.559 5937.35 
-3206.4 45.0681 5937.31 
-3206.6 46.0694 5937.23 
-3217.33 40.5496 5930.32 
-3212.44 41.0195 5933.51 
-3214.57 58.7697 5926.29 
-3214.93 57.2663 5927 
-3217.21 54.5501 5925.37 
-3212.78 58.8062 5930.86 
-3220.88 48.3785 5923.92 
-3218.74 52.0444 5924.62 
-3222.04 45.1608 5924.8 
-3222.23 42.199 5925.92 
-3227.67 53.8801 5970.72 
-3209.23 65.6363 5946.97 
-3209.84 64.6897 5939.74 
-3209.17 65.357 5941.9 
-3211.08 65.6371 5955.09 
-3209.2 66.0711 5951.78 
-3217.59 60.9303 5958.08 
-3215.46 63.0291 5965.33 
-3219.78 59.7261 5970.12 
-3211.93 62.4713 5930.96 
-3210.99 63.2512 5933.22 
-3209.87 64.2491 5932.75 
-3211.82 59.8814 5933.45 
-3208.75 65.0365 5932.78 
-3212.19 65.25 5920.66 
-3209.91 68.3689 5913.45 
-3211.02 67.2293 5916.53 
-3211.53 66.7828 5918.12 
-3209.71 67.959 5914.87 
-3210.65 67.5098 5916.31 
-3201.45 95.5771 5913.91 
-3202.53 86.2825 5913.51 
-3201.67 84.5321 5913.16 
-3202.16 89.6457 5912.4 
-3201.63 94.3806 5912.84 
-3203.95 88.8713 5914.67 
-3205.29 88.3009 5918.37 
-3208.72 69.159 5913.32 
-3207.72 69.5177 5913.2 
-3203.32 71.6844 5913.8 
-3205.15 70.779 5914.04 
-3209.07 68.5828 5913.75 
-3203.3 70.8646 5912.65 
-3203.31 72.38 5914.3 
-3203.22 71.9279 5913.8 
-3202.59 77.7848 5913.2 
-3204.96 72.8805 5914.17 
-3203.95 72.5677 5914.11 
-3203.25 72.7792 5914.54 
-3198.33 74.5153 5915.54 
-3198.68 74.9524 5914.63 
-3199.25 75.4165 5914.02 
-3197.57 77.1994 5916.84 
-3196.76 75.8906 5918.18 
-3199.76 80.4721 5912.74 
-3195.85 74.9289 5919.49 
-3196.4 75.0083 5918.76 
-3196.79 74.7751 5918.21 
-3197.15 74.4127 5917.67 
-3197.45 73.9437 5917.14 
-3184.3 91.7022 5960.92 
-3182.15 94.1836 5958.1 
-3192.68 84.3739 5968.76 
-3188.08 87.3527 5965.23 
-3200.04 83.6555 5968.12 
-3185.53 93.6811 5952.61 
-3182.85 93.7872 5956.62 
-3183.15 93.6553 5956.16 
-3182.31 94.087 5957.51 
-3182.59 93.8813 5957.06 
-3192.46 90.0132 5943.06 
-3195.25 87.788 5937.63 
-3198.75 87.6506 5924.29 
-3203.29 92.9528 5917.99 
-3203.7 90.3378 5919.7 
-3202.02 86.6425 5922.55 
-3202.46 94.1718 5916.91 
-3203.8 92.3333 5917.03 
-3201.4 95.1353 5916.34 
-3197.95 84.8794 5923.98 
-3195.48 82.2079 5923.55 
-3195.06 81.1536 5923.28 
-3195.22 84.101 5929.9 
-3209.47 52.2077 5935.98 
-3206.28 42.581 5937.82 
-3208.72 42.2027 5935.82 
-3207.35 44.7419 5936.81 
-3209.42 50.3818 5935.05 
-3209.77 49.6964 5934.42 
-3213.16 41.6381 5932.4 
-3220.75 42.487 5926.77 
-3212.04 56.6898 5932.38 
-3212.24 55.6312 5931.83 
-3213.42 55.1406 5930.22 
-3220.33 47.6049 5925.16 
-3218.44 51.0162 5925.63 
-3213.37 53.8639 5930.47 
-3221.17 44.9544 5925.96 
-3223.44 56.9682 5976.88 
-3208.66 65.9098 5947.24 
-3208.2 66.1297 5942.79 
-3207.77 65.6758 5933.35 
-3207.7 66.0412 5936.59 
-3210.71 66.4207 5959.55 
-3209.26 66.7044 5955.85 
-3208.55 66.2586 5952 
-3208.25 67.9742 5967.64 
-3210 66.8773 5972.73 
-3215.84 62.5283 5976.05 
-3211.33 65.0095 5924.21 
-3209.85 65.7415 5925.99 
-3208.35 66.2154 5927.27 
-3211.23 67.1647 5917.71 
-3211.12 66.2678 5920.09 
-3208.86 68.2221 5914.6 
-3209.94 67.7433 5916.22 
-3202.25 85.0017 5912.77 
-3201.82 84.8773 5914.68 
-3202.61 86.5227 5918.41 
-3201.88 83.6347 5912.61 
-3202.03 91.8846 5912.95 
-3202.01 93.1865 5915.25 
-3203.04 92.0184 5915.43 
-3204.3 90.9651 5915.91 
-3205.19 89.2436 5916.89 
-3206.9 89.6985 5920.25 
-3204.6 87.916 5921.46 
-3207.87 68.7792 5913.93 
-3205.36 70.3676 5914.91 
-3202.41 72.6048 5914.99 
-3202.65 72.6227 5914.76 
-3203.05 72.0487 5915.38 
-3202.62 72.9796 5914.91 
-3202.62 76.4292 5913.71 
-3202.95 73.2851 5914.86 
-3202.71 73.195 5914.9 
-3197.83 73.6493 5916.32 
-3198.46 74.156 5915.31 
-3199.1 74.7051 5914.47 
-3199.54 75.4531 5913.75 
-3196.45 76.694 5918.84 
-3197.8 78.1501 5916.72 
-3199.69 80.6944 5912.52 
-3195.9 75.6485 5919.51 
-3195.38 73.95 5920.18 
-3194.91 74.3423 5920.89 
-3195.13 75.6089 5920.76 
-3195.88 73.6785 5919.44 
-3196.34 73.3282 5918.77 
-3197.14 73.0356 5917.59 
-3196.27 72.7239 5918.95 
-3188.43 86.861 5965.25 
-3184.87 90.9504 5961.23 
-3182.65 93.0743 5958.42 
-3192.55 82.6021 5969.81 
-3196.68 79.8875 5972.01 
-3183.77 93.2813 5955.22 
-3188.52 91.0704 5948.71 
-3182.82 93.5357 5956.63 
-3182.83 92.1303 5956.05 
-3182.22 93.1405 5957.28 
-3182.5 93.1993 5956.94 
-3193.94 87.4363 5941.06 
-3194.62 83.3177 5932.73 
-3205.2 90.4652 5918.97 
-3205.5 89.3893 5920.64 
-3201.09 84.8329 5918.52 
-3206.65 90.7508 5918.73 
-3205.98 90.7385 5917.2 
-3200.09 82.7657 5916.71 
-3197.29 83.0709 5922.22 
-3195.9 80.5732 5921.08 
-3195.5 79.7438 5921.16 
-3194.55 79.7974 5924.1 
-3195.09 78.5643 5921.39 
-3207.93 44.1217 5936.46 
-3209.67 42.8294 5935.08 
-3210.13 49.2435 5934.19 
-3212.79 43.1161 5932.45 
-3218.89 42.1723 5928.47 
-3219.84 46.4735 5926.41 
-3218.05 49.8235 5926.72 
-3213.48 52.7395 5930.62 
-3210.7 49.4317 5933.71 
-3218.57 43.2192 5928.17 
-3216.72 62.3811 5982.84 
-3224.46 57.0296 5984.61 
-3219.56 60.6273 5986.68 
-3227.45 55.2815 5989.21 
-3208.04 66.2173 5947.3 
-3207.32 66.7255 5942.91 
-3206.28 66.7682 5934.18 
-3206.54 66.4903 5930.31 
-3206.27 68.3478 5966.1 
-3207.47 67.7166 5961.46 
-3208.13 67.0451 5956.56 
-3206.05 68.0245 5962.02 
-3207.92 66.4073 5951.9 
-3202.56 69.6835 5973.79 
-3205.15 69.5142 5975.12 
-3205.37 69.8154 5978.23 
-3209.34 67.4044 5980.17 
-3210.02 66.5327 5921.74 
-3207.67 66.6783 5926.49 
-3209.1 66.8565 5922.16 
-3210.71 67.026 5919.16 
-3210.29 67.4954 5917.88 
-3208.54 68.2319 5915.43 
-3208.94 67.9791 5916.97 
-3201 83.2258 5914.6 
-3201.58 82.3826 5912.65 
-3206.7 69.3276 5915.1 
-3203.27 71.8245 5915.9 
-3204.07 71.2236 5916.36 
-3202.19 73.0653 5914.88 
-3202.04 73.0032 5914.96 
-3202.14 72.6551 5915.12 
-3202.26 73.2829 5914.87 
-3202.73 76.2016 5914.03 
-3201.98 74.714 5914.34 
-3201.38 74.1303 5914.48 
-3197.56 72.7792 5916.87 
-3198.21 73.3895 5915.94 
-3198.84 74.1834 5915.05 
-3199.27 74.4301 5914.57 
-3199.31 74.5405 5914.23 
-3196.55 77.8872 5919.01 
-3197.96 78.9563 5916.72 
-3199.56 80.8526 5912.4 
-3195.79 77.9856 5920.31 
-3195.56 76.7469 5920.37 
-3194.73 73.07 5921.38 
-3194.42 73.7573 5921.83 
-3194.52 75.6861 5921.88 
-3194.76 77.3548 5921.67 
-3195.29 72.9813 5920.55 
-3195.27 72.5113 5920.78 
-3196.56 72.2018 5918.62 
-3195.64 72.1613 5920.27 
-3191.54 83.1677 5968.48 
-3186.73 87.837 5962.95 
-3182.47 89.6427 5957.75 
-3197.62 77.1552 5974.36 
-3183.92 91.171 5954.36 
-3189.23 88.5837 5947.57 
-3182.31 90.8077 5956.17 
-3182.17 88.5864 5955.41 
-3182.45 88.3782 5954.94 
-3181.86 89.7556 5956.32 
-3193.84 85.1164 5940.31 
-3194.26 77.8577 5923.9 
-3194.29 81.201 5931.55 
-3197.8 81.4379 5919.49 
-3199.76 81.2403 5914.64 
-3200.6 81.7108 5913.82 
-3197.41 79.4875 5918.09 
-3196.35 79.0135 5919.66 
-3209.54 45.7509 5935.03 
-3210.58 46.3736 5934.11 
-3212.22 45.0352 5932.85 
-3217.73 44.4758 5928.49 
-3218.04 46.4754 5928.32 
-3218.43 48.3919 5927.26 
-3212.27 50.9759 5932.16 
-3213.17 49.9238 5931.64 
-3211.86 65.8411 5984.37 
-3214.17 64.3496 5987.15 
-3222.66 58.6416 5990.12 
-3207.33 66.2405 5948.09 
-3206.55 66.9356 5943.79 
-3205.49 66.9146 5935.36 
-3205.9 67.0443 5928.28 
-3204.16 67.4368 5930.03 
-3201.62 69.3619 5970.09 
-3201.98 69.5467 5972.07 
-3205.47 67.9789 5959.69 
-3202.86 68.7354 5964.6 
-3201.27 69.2672 5968.65 
-3205.95 67.3947 5956.34 
-3202.71 70.0834 5976.65 
-3200.5 70.1818 5975.8 
-3199.73 69.8487 5972.27 
-3199.24 69.8693 5973.38 
-3202.68 70.1988 5977.55 
-3202.45 70.2273 5977.88 
-3205.95 69.727 5981.65 
-3209.75 67.397 5919.72 
-3207.08 67.2379 5924.4 
-3208.35 67.5481 5921.13 
-3209.03 67.8378 5918.41 
-3207.37 68.8112 5916.4 
-3207.28 68.8479 5918.02 
-3205.5 70.1616 5916.39 
-3202.23 72.3903 5915.35 
-3202.74 71.9591 5915.93 
-3203.72 71.3107 5916.88 
-3201.16 73.688 5914.74 
-3201.26 73.3534 5914.96 
-3201.18 73.0134 5915.26 
-3201.23 73.9014 5914.6 
-3199.49 74.3252 5914.34 
-3197.27 72.0542 5917.55 
-3198.01 72.6406 5916.59 
-3198.73 73.6367 5915.45 
-3199.33 74.067 5914.79 
-3198.47 80.232 5914.94 
-3198.91 81.0798 5912.16 
-3193.99 73.0732 5922.71 
-3194.43 72.2636 5922.03 
-3194.04 75.5324 5923.2 
-3194.57 71.7955 5922.07 
-3195.75 71.6817 5920.28 
-3196.54 71.5822 5918.96 
-3194.9 71.5974 5921.73 
-3194.18 78.6251 5971.11 
-3189.53 82.5354 5965.78 
-3185.29 84.6494 5960.74 
-3181.6 86.4019 5956.19 
-3198.56 74.0174 5975.94 
-3183.71 88.4626 5953.35 
-3188.82 85.6469 5946.64 
-3181.59 86.5822 5955.32 
-3181.76 85.2776 5954.55 
-3182.18 85.0335 5953.83 
-3193.8 83.0781 5939.4 
-3193.99 78.9741 5929.89 
-3198.9 80.7595 5915.48 
-3197.01 81.0585 5914.54 
-3213.95 47.7958 5931.41 
-3204.73 70.8429 5984.45 
-3205.56 66.9906 5944.39 
-3205.66 66.2602 5949.27 
-3205.9 66.6816 5952.86 
-3204.62 67.0629 5936.39 
-3203.22 67.4848 5932.46 
-3205.33 67.6593 5926.09 
-3200.98 68.6381 5929.23 
-3199.45 69.5697 5969.62 
-3201.61 68.5836 5962.47 
-3199.4 69.2488 5966.62 
-3201.58 67.9061 5959.11 
-3200.39 70.3191 5977.01 
-3198.22 69.6402 5973.96 
-3198.44 69.4904 5969.66 
-3196.89 69.0534 5969.11 
-3196.21 68.9006 5969.88 
-3202.13 70.3304 5978.03 
-3198.82 70.0704 5975.43 
-3203.33 71.0006 5981.1 
-3208.37 68.0969 5919.58 
-3206.38 68.3173 5921.57 
-3206.75 68.8713 5919.73 
-3205.55 70.0657 5917.36 
-3205.02 70.2802 5918.21 
-3206.31 69.398 5919.09 
-3201.15 72.6264 5915.63 
-3201.05 72.1645 5916.23 
-3201.02 71.7107 5916.92 
-3203.85 71.075 5917.25 
-3199.4 73.735 5915.05 
-3199.08 73.0434 5916 
-3199.02 72.5216 5916.74 
-3197.61 71.771 5917.74 
-3198.7 73.1719 5915.83 
-3198.39 72.4567 5916.81 
-3195.08 81.9857 5912.28 
-3198.61 81.0745 5913.15 
-3193.72 71.8909 5923.26 
-3193.7 76.1169 5926.9 
-3193.45 74.4318 5926.48 
-3193.81 71.2705 5923.24 
-3194.16 71.108 5922.91 
-3194.87 71.0708 5921.98 
-3195.65 71.157 5920.67 
-3196.47 71.115 5919.55 
-3195.42 73.2467 5971.99 
-3191.65 77.3237 5967.77 
-3187.85 79.3992 5963.28 
-3183.7 81.5411 5958.37 
-3180.98 83.174 5954.88 
-3199.33 72.1848 5976.7 
-3183.95 85.9296 5951.9 
-3190.07 82.3824 5943.83 
-3181.18 82.9362 5954.32 
-3181.34 81.7535 5953.6 
-3181.61 80.5751 5952.66 
-3182.44 83.4482 5952.69 
-3193.87 81.1451 5937.72 
-3202.04 70.8902 5979.25 
-3204.45 66.9789 5944.97 
-3203.13 67.4566 5936.13 
-3201.66 66.4461 5952.14 
-3201.72 67.2007 5955.7 
-3200.84 68.2796 5932.82 
-3204.29 68.3068 5924.58 
-3205 68.6683 5921.9 
-3197.16 68.7154 5934.93 
-3197.54 68.9495 5931.06 
-3201.35 69.1389 5925.86 
-3199.3 69.55 5925.98 
-3197.57 69.1445 5967.08 
-3198.1 68.4068 5962.72 
-3196.4 68.5666 5964.71 
-3198.17 67.655 5959.01 
-3195.27 68.6822 5970.46 
-3195.11 68.3964 5965.39 
-3193.31 67.8641 5964.53 
-3193.37 67.967 5966.46 
-3200.17 70.693 5977.07 
-3194.91 68.7652 5970.48 
-3197.19 69.7963 5973.45 
-3204.72 69.6906 5919.57 
-3204.72 69.9324 5919.01 
-3204.41 70.1777 5918.59 
-3201.13 70.9405 5918 
-3198.81 71.8515 5917.67 
-3198.31 71.1094 5918.53 
-3201.11 71.4504 5917.25 
-3198.38 70.7304 5918.97 
-3198.38 71.9715 5917.49 
-3197.51 71.2628 5918.41 
-3193.16 72.5408 5926.26 
-3193.71 79.3433 5936.63 
-3193.44 76.5797 5933.76 
-3193.08 70.8171 5925.52 
-3193.5 70.8032 5924.51 
-3194.35 70.9437 5922.94 
-3195.13 70.6501 5921.8 
-3196.27 70.6676 5920.38 
-3195.75 70.7872 5972.07 
-3191.49 73.2209 5967.08 
-3187.3 75.9302 5962.17 
-3183.15 77.8492 5957.23 
-3180.55 79.7483 5953.87 
-3199.8 72.1185 5977.23 
-3184.22 83.2405 5950.36 
-3191.28 79.9275 5941.49 
-3180.75 79.2981 5953.34 
-3180.69 77.1277 5952.48 
-3181.4 77.5285 5951.59 
-3182.36 80.7481 5951.58 
-3201.6 71.1601 5978.92 
-3201.37 66.2737 5948.35 
-3201.76 67.6038 5941.45 
-3201.82 67.5918 5937.92 
-3199.77 68.0975 5935.42 
-3197.51 66.2518 5952.63 
-3197.82 66.9623 5955.86 
-3197.19 68.3102 5936.72 
-3201.68 69.3074 5923.49 
-3200.79 69.8487 5922.28 
-3195.27 68.6508 5937.82 
-3195.18 68.0015 5939.84 
-3196.72 68.7057 5930.35 
-3194.8 69.5681 5936.84 
-3199.03 69.2366 5925.38 
-3194.51 68.096 5963.51 
-3195.4 67.4269 5960.17 
-3193.72 67.4783 5961.89 
-3192.61 67.311 5961.54 
-3194.55 66.5977 5956.89 
-3191.88 67.5469 5966.04 
-3191.81 67.2394 5961.16 
-3189.88 66.6921 5959.81 
-3190.61 67.0235 5962.32 
-3199.76 70.8964 5976.73 
-3190.79 67.3326 5965.22 
-3193.61 68.5565 5968.9 
-3196.3 69.7316 5972.4 
-3201.33 70.1202 5920.69 
-3201.08 70.3916 5918.99 
-3201.42 70.1617 5919.77 
-3201.05 70.7625 5918.26 
-3197.67 70.0688 5919.86 
-3198.12 69.9584 5919.93 
-3198.14 71.402 5918.17 
-3197.31 70.7435 5919.22 
-3197.37 70.3498 5919.69 
-3193.13 74.137 5932.33 
-3192.94 78.529 5939.33 
-3193.25 77.208 5938.14 
-3192.87 71.9818 5931.21 
-3193.86 70.7314 5924.64 
-3192.66 69.9657 5929.67 
-3194.71 70.777 5923.12 
-3195.4 70.3099 5922.14 
-3196.09 70.2092 5921.28 
-3192.16 69.6045 5967.45 
-3196.31 70.6286 5972.7 
-3187.36 72.1856 5961.79 
-3181.56 75.4697 5954.94 
-3180.14 76.0394 5952.76 
-3200.24 72.0463 5977.7 
-3189.34 78.2702 5942.7 
-3183.83 80.9342 5949.71 
-3179.91 73.2739 5951.89 
-3180.49 73.9626 5951.34 
-3181.22 74.5179 5950.46 
-3182.12 77.8122 5950.6 
-3201.52 71.3454 5978.9 
-3198.22 65.94 5949.2 
-3200.23 67.5062 5942.68 
-3199.31 67.5627 5938.19 
-3196.85 67.7655 5939.59 
-3194.56 65.2319 5950.07 
-3194.46 65.9141 5953.63 
-3195.16 67.25 5941.7 
-3198.04 69.7441 5923.06 
-3193.95 68.4371 5939.43 
-3193.96 67.8019 5940.93 
-3193.84 67.1501 5942.56 
-3194.24 69.165 5936.42 
-3195.87 68.4091 5930.39 
-3197.93 68.8799 5926.23 
-3193.72 68.7144 5938.44 
-3197.73 69.4326 5923.73 
-3191.77 66.4296 5958.61 
-3190.2 66.3182 5959.1 
-3189.81 66.37 5959.01 
-3191.28 65.6027 5955.01 
-3188.79 66.4844 5961.42 
-3188.26 65.9762 5957.79 
-3187.4 65.9311 5957.84 
-3186.01 65.2929 5955.86 
-3201.23 71.4795 5978.59 
-3198.26 70.6632 5974.98 
-3187.2 66.0676 5960.55 
-3190.19 67.3699 5964.55 
-3193.3 68.7345 5968.6 
-3197.61 69.8384 5921.32 
-3196.38 70.0062 5921.39 
-3196.74 69.8721 5921.33 
-3192.98 75.3809 5937.66 
-3189.35 76.005 5941.66 
-3191.54 75.212 5939.28 
-3192.88 73.6718 5936.88 
-3194.74 70.1777 5925.06 
-3193.14 68.5269 5929.72 
-3192.76 68.9292 5929.61 
-3192.68 71.9036 5936.36 
-3195.62 70.2674 5923.52 
-3196.27 69.8831 5923.47 
-3189.64 68.2101 5964.12 
-3193.68 69.4125 5969.26 
-3197.53 70.8697 5974.2 
-3184.92 70.8179 5958.58 
-3181.02 71.5948 5953.78 
-3200.69 71.9716 5978.17 
-3184.22 78.5011 5948.13 
-3182.63 77.5477 5949.69 
-3179.63 69.2972 5951.65 
-3179.71 70.2734 5950.85 
-3180.39 70.9176 5950.09 
-3181.02 71.2384 5949.26 
-3181.78 74.22 5949.46 
-3196.55 65.9236 5948.73 
-3198.19 67.0417 5945.09 
-3197.53 67.512 5940.62 
-3195.6 67.1432 5942.69 
-3191.56 64.9143 5951.38 
-3191.15 64.5752 5949.03 
-3194.48 65.3313 5948.89 
-3193.92 66.9397 5943.46 
-3194.42 66.9723 5943.25 
-3192.89 68.7819 5939.83 
-3193 68.1652 5941.11 
-3192.93 67.5625 5942.42 
-3192.99 67.1438 5943.45 
-3193.59 68.5734 5936.25 
-3193.21 68.6502 5937.92 
-3195.23 68.363 5930.17 
-3197.22 69.0031 5925.97 
-3197.12 69.5123 5923.38 
-3188.28 65.3911 5956.62 
-3187.16 65.2634 5956.31 
-3186.73 65.2734 5956.14 
-3188.28 64.694 5953.31 
-3185.51 65.3803 5956.9 
-3184.51 64.5949 5954.23 
-3184.05 64.746 5954.25 
-3182.46 64.0001 5952.51 
-3201.07 71.654 5978.48 
-3194.27 69.3389 5969.91 
-3197.85 70.7541 5974.53 
-3186.77 66.1766 5960.19 
-3183.86 64.9369 5956.22 
-3189.87 67.5196 5964.23 
-3196.81 69.6213 5923.6 
-3190.89 72.8613 5938.93 
-3188.59 73.5484 5941.3 
-3191.33 71.7664 5938.19 
-3195.51 69.56 5925.7 
-3193.76 68.3889 5929.54 
-3192.32 70.3387 5936.42 
-3192.4 68.7675 5935.31 
-3190.7 69.6888 5938.01 
-3196.39 69.3073 5925.73 
-3186.33 67.1466 5959.87 
-3190.55 68.0529 5965.18 
-3200.87 71.8133 5978.32 
-3183.21 66.2898 5955.88 
-3184.06 76.1801 5947.22 
-3182.36 74.4318 5948.67 
-3180.39 64.8266 5952.18 
-3179.06 66.7943 5950.23 
-3179.69 67.2655 5949.5 
-3180.37 67.7642 5948.67 
-3181.4 70.2233 5948.21 
-3194.26 65.8917 5947.99 
-3196.62 66.796 5946.11 
-3195.66 66.7568 5946.33 
-3194.29 66.9883 5944.01 
-3188.51 64.0996 5950.12 
-3193 65.2058 5948.53 
-3190.71 64.8078 5948.37 
-3187.74 64.0013 5948.8 
-3193.46 67.0314 5944 
-3192.61 69.1545 5938.8 
-3191.75 69.0871 5940.22 
-3191.79 68.5627 5941.23 
-3191.89 68.0246 5942.22 
-3191.97 67.4604 5943.37 
-3192.4 67.2312 5944.02 
-3192.96 68.2191 5936.1 
-3192.45 68.7611 5937.71 
-3194.64 68.3223 5930.17 
-3185.28 64.2074 5953.61 
-3185.07 64.4042 5954.2 
-3183.72 64.1233 5953.23 
-3185.46 63.565 5950.31 
-3182.25 64.263 5952.91 
-3181.24 63.3805 5951.11 
-3180.7 63.5259 5951.1 
-3179.51 63.0502 5949.57 
-3186.93 66.5422 5960.49 
-3183.86 65.2186 5956.51 
-3180.76 63.8908 5952.22 
-3188.12 71.3474 5940.79 
-3189.69 70.2953 5939.04 
-3194.24 68.3244 5930.05 
-3191.32 68.916 5937.46 
-3192.48 68.1143 5935.65 
-3189.73 70.2045 5939.44 
-3190.51 69.7209 5938.77 
-3184.05 73.6059 5946.02 
-3182.82 73.8231 5947.68 
-3182.14 71.5069 5947.66 
-3178.67 64.0501 5948.34 
-3179.36 64.9461 5947.55 
-3179.91 65.4995 5946.71 
-3180.72 66.6815 5947.12 
-3181.79 68.7858 5946.95 
-3194.38 66.6939 5946.33 
-3192.94 66.5507 5946.06 
-3192.35 65.5562 5947.78 
-3190.61 65.2232 5947.63 
-3188.14 64.4433 5948.06 
-3185.35 63.7068 5948.42 
-3183.32 63.0567 5948.92 
-3191.57 66.4172 5945.84 
-3191.85 69.4548 5938.99 
-3190.5 68.9647 5941.48 
-3190.64 69.5098 5940.34 
-3190.6 68.4256 5942.4 
-3190.92 67.848 5943.27 
-3191.28 67.4209 5944.03 
-3190.61 66.33 5945.66 
-3191.9 68.7486 5937.4 
-3191.46 69.4929 5938.72 
-3182.31 63.0476 5950.66 
-3182.26 63.3004 5951.44 
-3182.02 63.3746 5951.44 
-3180.1 62.8823 5949.72 
-3179.31 63.2616 5949.93 
-3179.42 63.1892 5948.78 
-3179.01 63.4178 5948.85 
-3179.36 63.8659 5948.21 
-3187.76 70.5263 5940.88 
-3190.98 69.624 5938.78 
-3187.92 70.2525 5940.68 
-3189.82 70.2324 5939.67 
-3183.78 70.9657 5945.1 
-3182.68 70.7639 5946.49 
-3178.37 66.7318 5941.44 
-3178.73 64.2327 5947.47 
-3179.06 67.319 5941.04 
-3179.84 67.5171 5941.63 
-3181.01 67.1622 5944.57 
-3182.01 67.8754 5945.1 
-3188.66 64.8811 5947.45 
-3184.9 63.9521 5947.81 
-3182.32 63.2431 5948.4 
-3180.49 62.7678 5948.82 
-3190.78 69.8895 5939.5 
-3189.37 69.2502 5941.81 
-3189.49 68.456 5942.8 
-3189.38 69.8424 5940.81 
-3189.92 67.8942 5943.47 
-3190.38 67.5299 5943.91 
-3189.9 66.2806 5945.4 
-3190.09 70.1238 5939.66 
-3180.17 62.6327 5949.17 
-3179.86 62.8675 5948.92 
-3179.72 63.6145 5948.19 
-3179.67 64.3528 5947.58 
-3179.25 64.6296 5947.29 
-3178.95 64.7719 5946.68 
-3179.62 65.0879 5946.84 
-3188.21 70.3119 5940.53 
-3183.22 68.9836 5943.27 
-3182.59 68.467 5944.08 
-3178.13 69.6219 5934.74 
-3178.49 67.1323 5940.83 
-3178.96 69.7112 5935.62 
-3179.78 69.6744 5936.78 
-3181.24 68.2241 5941.91 
-3180.35 70.2303 5936.31 
-3180.91 70.6577 5936.1 
-3181.64 69.8711 5938.81 
-3186.5 64.5571 5947.24 
-3184.54 64.5598 5947.44 
-3182.61 63.952 5948.05 
-3181.01 63.6181 5948.38 
-3180.47 63.7342 5948.18 
-3180.11 63.4119 5948.31 
-3189.6 70.1954 5939.96 
-3188.53 69.3677 5941.78 
-3188.76 68.4918 5942.7 
-3187.81 66.9669 5944.55 
-3187.81 66.4299 5945.18 
-3188.34 70.194 5940.84 
-3188.9 66.4343 5945.1 
-3189.64 66.3056 5945.26 
-3188.37 70.3678 5940.46 
-3180.04 64.0557 5947.82 
-3180.02 64.8581 5947.23 
-3180.49 65.9093 5946.25 
-3179.18 67.0105 5942.24 
-3178.81 67.1194 5941.4 
-3180.08 67.5643 5942.17 
-3183.51 68.2784 5944.31 
-3181.83 71.0618 5936.45 
-3181.84 67.8103 5943.78 
-3181.31 66.442 5945.98 
-3177.94 72.2559 5928.66 
-3178.33 69.5217 5935.35 
-3178.8 72.1441 5930.02 
-3179.47 72.4887 5930.14 
-3180.09 73.0813 5929.66 
-3180.69 73.237 5930.14 
-3182.57 64.6851 5947.79 
-3181.45 64.4573 5947.91 
-3180.89 64.6942 5947.61 
-3180.4 64.3939 5947.68 
-3186.6 68.4308 5943.43 
-3187.08 68.0172 5943.75 
-3185.09 66.4108 5945.71 
-3183.35 65.3057 5947.15 
-3185.93 68.6362 5943.39 
-3184.63 68.2328 5944.05 
-3183.93 68.1702 5944.32 
-3180.39 65.1389 5947.12 
-3180.96 69.4758 5938.96 
-3179.07 69.9938 5935.44 
-3178.65 69.4632 5936.01 
-3180.04 70.5577 5935.38 
-3181.65 66.5422 5945.99 
-3177.7 74.9377 5922.42 
-3178.15 71.9327 5929.79 
-3178.54 74.6539 5924.13 
-3179.16 75.1141 5923.93 
-3179.56 75.7901 5922.99 
-3179.41 72.8769 5929.38 
-3181.81 65.1773 5947.42 
-3181.36 65.5255 5947.02 
-3180.78 65.3307 5947.08 
-3182.8 65.7717 5946.73 
-3183.1 66.7793 5945.72 
-3182.77 66.1433 5946.33 
-3181.82 66.4289 5946.16 
-3178.45 72.1726 5929.75 
-3177.46 77.6743 5916.05 
-3177.92 74.4656 5923.88 
-3178.25 77.114 5918.31 
-3178.43 78.1535 5916.27 
-3178.48 74.9126 5923.65 
-3177.73 76.9518 5918.1 
