-3396.36 463.408 3648.28 
-3396.73 463.518 3648.07 
-3393.45 462.856 3648.94 
-3395.77 463.464 3647.73 
-3395.43 463.381 3647.86 
-3395.03 463.27 3648.05 
-3394.72 463.197 3648.16 
-3396.11 463.547 3647.61 
-3393.88 462.988 3648.48 
-3394.28 463.131 3648.16 
-3394.7 463.268 3647.87 
-3392.38 463.069 3649.09 
-3392.96 463.02 3648.8 
-3397.06 463.585 3648.02 
-3397.36 463.65 3647.97 
-3397.7 463.734 3647.88 
-3398.32 463.935 3647.5 
-3387.38 460.425 3647.59 
-3386.99 459.816 3647.64 
-3386.64 459.26 3647.75 
-3387.32 460.686 3647.5 
-3387.82 461.462 3647.88 
-3388.76 462.783 3648.69 
-3388.29 462.408 3648.31 
-3388.9 462.914 3648.58 
-3388.98 463.031 3648.38 
-3389.05 463.14 3648.19 
-3389.11 463.268 3647.97 
-3389.43 463.239 3648.16 
-3389.52 463.36 3647.96 
-3389.88 463.32 3648.2 
-3396.68 453.648 3645.01 
-3397.44 452.64 3645.19 
-3397.42 453.385 3645.38 
-3396.61 454.322 3645.17 
-3395.64 455.207 3645.24 
-3396.45 454.926 3645.25 
-3394.1 455.083 3645.69 
-3388.41 459.091 3647.94 
-3388.36 459.093 3647.99 
-3388.28 458.693 3647.89 
-3388.47 459.014 3647.87 
-3388.01 459.353 3648.09 
-3387.01 459.431 3647.85 
-3386.66 459.294 3647.78 
-3388.59 457.754 3647.51 
-3388.6 458.197 3647.56 
-3391.52 456.161 3647.19 
-3388.74 458.313 3647.5 
-3392.17 455.784 3646.9 
-3388.46 458.845 3647.79 
-3388.51 458.995 3647.82 
-3393.67 455.68 3646.39 
-3401.65 463.798 3649.37 
-3400.76 463.842 3648.4 
-3401.37 463.808 3648.76 
-3399.07 464.058 3647.32 
-3398.87 464.062 3647.23 
-3399.42 464.019 3647.3 
-3399.7 463.998 3647.36 
-3399.73 464.008 3647.47 
-3399.98 463.993 3647.55 
-3400.3 463.969 3647.63 
-3400.48 463.947 3647.78 
-3400.43 463.905 3647.94 
-3400.47 463.825 3648.12 
-3402.5 449.624 3649.4 
-3402.72 446.549 3648.58 
-3402.94 450.283 3650.3 
-3403.12 450.899 3650.12 
-3403.57 445.744 3648.43 
-3403.87 453.032 3650 
-3403.56 452.35 3649.56 
-3402.58 452.039 3647.8 
-3402.31 452.201 3647.12 
-3403.1 452.371 3648.65 
-3404.81 456.157 3649.77 
-3404.88 456.574 3649.46 
-3398.8 452.427 3645.95 
-3398.11 452.461 3645.58 
-3399.43 452.946 3646.16 
-3399.9 452.44 3646.11 
-3400.8 452.491 3646.25 
-3401.95 452.4 3646.83 
-3401.66 452.714 3646.75 
-3406.13 443.528 3648.44 
-3406.97 443.271 3647.18 
-3404.76 444.256 3649.68 
-3409.27 442.444 3645.43 
-3408.22 442.681 3646.49 
-3407.76 442.847 3647.49 
-3413.9 441.15 3646.05 
-3418.9 439.75 3647.2 
-3419.51 439.708 3647.84 
-3418.19 439.915 3647.4 
-3413.87 441.098 3646.97 
-3422.78 432.181 3650.34 
-3430.45 419.336 3663.85 
-3431.36 416.386 3664.66 
-3429.28 421.612 3662.53 
-3425.8 427.175 3657.86 
-3428.09 423.442 3661.87 
-3422.82 437.653 3649.78 
-3422.29 433.784 3650.84 
-3422.61 439.224 3649.22 
-3420.75 439.438 3648.96 
-3421.84 439.423 3649.47 
-3420.54 439.735 3649.78 
-3419.79 439.836 3649.3 
-3400.52 436.086 3696.27 
-3408.48 445.246 3691.55 
-3410.53 439.305 3674.17 
-3411.89 434.284 3672.5 
-3407.27 441.207 3689.43 
-3412.99 430.838 3673.19 
-3414.63 429.498 3671.45 
-3413.8 424.979 3677.88 
-3412.72 436.989 3659.56 
-3414.4 435.42 3661.02 
-3409.79 438.925 3658.05 
-3415.45 432.761 3665.33 
-3416.39 433.503 3662.32 
-3408.12 441.008 3654.48 
-3407.65 442.195 3650.97 
-3407.05 442.87 3649.22 
-3411.39 434.512 3668.94 
-3413.22 433.079 3667.66 
-3402.14 463.71 3649.9 
-3402.67 463.588 3650.99 
-3403.27 463.198 3651.73 
-3404.66 458.654 3652.21 
-3404.25 461.862 3652.08 
-3402.6 448.992 3650.42 
-3390 463.424 3648.04 
-3390.34 463.396 3648.25 
-3390.66 463.407 3648.37 
-3390.97 463.379 3648.56 
-3391.27 463.339 3648.78 
-3391.68 463.219 3649.11 
-3396.5 463.696 3647.26 
-3396.59 463.653 3647.48 
-3396.66 463.589 3647.76 
-3397.03 463.697 3647.56 
-3397.25 463.709 3647.64 
-3393.47 462.992 3648.52 
-3395.89 463.603 3647.27 
-3396.21 463.668 3647.21 
-3395.45 463.472 3647.52 
-3395.1 463.387 3647.64 
-3393.96 463.095 3648.11 
-3394.36 463.262 3647.7 
-3394.68 463.334 3647.61 
-3395.11 463.486 3647.27 
-3392.09 463.238 3648.81 
-3392.58 463.18 3648.62 
-3393.07 463.166 3648.31 
-3397.73 463.815 3647.55 
-3398.14 463.918 3647.43 
-3398.77 464.059 3647.13 
-3386.75 459.919 3647.54 
-3386.35 459.277 3647.67 
-3387.22 460.965 3647.38 
-3386.74 460.333 3647.39 
-3387.7 461.782 3647.75 
-3388.52 462.942 3648.36 
-3388.08 462.673 3648.09 
-3388.66 463.041 3648.22 
-3388.68 463.169 3647.98 
-3388.79 463.29 3647.78 
-3388.83 463.418 3647.54 
-3389.18 463.399 3647.73 
-3389.26 463.523 3647.52 
-3389.6 463.484 3647.75 
-3397.25 454.053 3645.47 
-3398.05 453.127 3645.71 
-3398.05 453.862 3645.9 
-3397.15 454.861 3645.64 
-3395.17 455.774 3645.88 
-3396.64 455.559 3645.49 
-3388.35 459.273 3647.94 
-3387.98 459.493 3648.02 
-3388.01 459.406 3648.05 
-3386.73 459.53 3647.76 
-3386.41 459.347 3647.7 
-3388.6 459.095 3647.71 
-3388.55 459.109 3647.77 
-3389.68 457.923 3647.51 
-3393.01 456.296 3647.38 
-3392.37 456.762 3647.92 
-3388.65 459.152 3647.65 
-3388.37 459.331 3647.89 
-3394.66 456.41 3646.58 
-3401.87 463.738 3649 
-3401.13 463.755 3648.52 
-3399.25 464.023 3647.19 
-3399.69 463.915 3647.22 
-3400.03 463.828 3647.29 
-3400.08 463.963 3647.42 
-3400.37 463.934 3647.51 
-3400.69 463.858 3647.57 
-3400.62 463.915 3647.68 
-3400.61 463.852 3647.82 
-3400.56 463.806 3647.97 
-3400.65 463.745 3648.16 
-3405.17 457.487 3651.16 
-3405.21 458.696 3651.8 
-3405.37 459.804 3651.04 
-3405.37 458.855 3650.52 
-3404.56 456.4 3648.94 
-3404.12 455.784 3648.65 
-3403.86 455.613 3648.38 
-3403.51 455.277 3648.14 
-3405.04 457.31 3649.2 
-3404.39 461.524 3650.03 
-3404.87 460.379 3649.86 
-3404.55 460.731 3649.31 
-3398.72 453.027 3646.04 
-3399.93 453.748 3646.38 
-3399.26 453.578 3646.24 
-3400.5 453.207 3646.37 
-3401.35 453.206 3646.73 
-3403.44 456.273 3648.06 
-3403.2 456.535 3647.91 
-3409.37 442.24 3646.84 
-3408.7 442.275 3648.22 
-3408.08 442.385 3649.04 
-3419.06 439.707 3648.25 
-3415.45 440.647 3647.83 
-3418.44 439.689 3648.2 
-3410.93 441.791 3648.35 
-3423.76 429.621 3655.45 
-3430.09 419.966 3665.22 
-3428.98 421.735 3663.3 
-3426.34 426.136 3661.05 
-3427.69 423.755 3662.59 
-3423.61 439 3650.43 
-3422.4 434.318 3651.89 
-3423.52 436.933 3651.3 
-3422.8 439.379 3650.24 
-3421.6 439.536 3650.16 
-3422.29 439.145 3650.55 
-3421.09 439.319 3650.41 
-3420.24 439.481 3650.19 
-3419.31 439.626 3649.33 
-3401.28 435.858 3693.67 
-3406.81 442.125 3691.28 
-3405.64 442.945 3700.73 
-3407.64 444.666 3692.14 
-3405.55 442.57 3694.26 
-3412.16 433.43 3669.92 
-3418.32 427.633 3668.6 
-3419.82 424.849 3671.27 
-3411.77 438.269 3657.67 
-3417.38 437.727 3654.53 
-3418.23 436.916 3654.72 
-3419.16 436.589 3653.78 
-3410.04 440.152 3654.25 
-3421.41 427.19 3667.48 
-3422.69 428.195 3665.69 
-3420.15 431.426 3661.57 
-3419.3 435.193 3654.21 
-3409.11 441.638 3650.64 
-3402.5 463.651 3649.83 
-3403.09 463.3 3650.69 
-3403.73 462.746 3651.27 
-3404.8 461.146 3651.43 
-3389.72 463.583 3647.6 
-3390.08 463.55 3647.83 
-3390.4 463.549 3647.97 
-3390.73 463.547 3648.12 
-3391.08 463.506 3648.35 
-3391.55 463.386 3648.72 
-3396.67 463.843 3646.8 
-3396.91 463.851 3646.9 
-3396.99 463.783 3647.21 
-3397.57 463.885 3647.15 
-3397.35 463.866 3647.1 
-3397.7 463.858 3647.33 
-3393.65 463.112 3648.06 
-3395.82 463.658 3647.02 
-3396.24 463.828 3646.61 
-3396.4 463.811 3646.76 
-3395.47 463.568 3647.16 
-3394.16 463.26 3647.59 
-3394.57 463.437 3647.15 
-3394.85 463.474 3647.17 
-3395.59 463.69 3646.77 
-3395.29 463.638 3646.79 
-3392.05 463.391 3648.4 
-3392.57 463.317 3648.24 
-3392.84 463.38 3647.85 
-3393.28 463.264 3647.87 
-3398.52 464.052 3647.06 
-3398.23 464.008 3647.09 
-3398.94 463.994 3647.01 
-3399.21 463.964 3647.09 
-3386.09 459.317 3647.58 
-3386.41 459.879 3647.46 
-3387.09 461.188 3647.26 
-3386.57 460.544 3647.27 
-3386.15 459.952 3647.37 
-3387.49 461.983 3647.54 
-3388.37 463.101 3647.97 
-3388.18 463.041 3648.01 
-3387.41 462.316 3647.45 
-3387.89 462.964 3647.86 
-3388.32 463.239 3647.67 
-3388.5 463.316 3647.6 
-3388.45 463.459 3647.29 
-3388.57 463.564 3647.13 
-3388.9 463.548 3647.31 
-3388.98 463.664 3647.12 
-3389.32 463.663 3647.26 
-3397.74 454.457 3645.88 
-3398.62 453.642 3646.13 
-3398.36 454.679 3646.26 
-3398.71 454.355 3646.28 
-3397.76 454.999 3646.06 
-3397.29 455.598 3645.87 
-3396.63 456.211 3645.77 
-3387.93 459.591 3647.99 
-3386.55 459.633 3647.68 
-3386.13 459.389 3647.61 
-3388.43 459.405 3647.8 
-3388.36 459.425 3647.87 
-3389.99 458.248 3647.74 
-3388.59 459.296 3647.66 
-3394.16 457.065 3647.21 
-3393.3 457.623 3647.86 
-3388.37 459.552 3647.8 
-3387.89 459.673 3647.96 
-3396.33 456.899 3646.25 
-3401.66 463.666 3648.75 
-3402.29 463.622 3649.14 
-3401.11 463.665 3648.38 
-3399.63 463.746 3647.11 
-3400.08 463.504 3647.16 
-3400.42 463.411 3647.23 
-3400.4 463.708 3647.36 
-3400.7 463.61 3647.43 
-3400.74 463.751 3647.7 
-3400.79 463.59 3647.53 
-3400.7 463.734 3647.87 
-3400.68 463.69 3648.03 
-3404.23 462.158 3650.72 
-3404.6 461.417 3650.47 
-3404.39 460.571 3648.96 
-3404.08 460.649 3648.73 
-3404.02 460.119 3648.51 
-3403.96 461.699 3649.52 
-3403.79 462.443 3649.95 
-3403.57 462.172 3649.55 
-3403.76 461.5 3649.06 
-3399.69 454.358 3646.48 
-3400.46 454.387 3646.72 
-3400.91 453.821 3646.72 
-3399.17 454.157 3646.33 
-3402.66 456.47 3647.58 
-3403.11 457.019 3647.81 
-3403.56 460.302 3648.22 
-3403.31 460.077 3647.96 
-3410.7 441.536 3649.79 
-3415.71 440.46 3648.74 
-3417.9 439.541 3649.02 
-3418.84 439.318 3649.39 
-3412.84 440.793 3650.37 
-3423.06 429.794 3656.34 
-3425.6 427.262 3661.16 
-3429.75 420.561 3666.62 
-3428.94 421.753 3665.06 
-3428.17 422.645 3663.48 
-3427.25 425.018 3663.44 
-3422.61 439.015 3650.88 
-3423.54 438.427 3651.15 
-3421.34 432.236 3654.48 
-3421.74 438.925 3650.78 
-3421.77 438.693 3651.33 
-3420.99 438.873 3650.82 
-3420.04 439.103 3650.27 
-3427.3 423.807 3670.56 
-3423.48 422.497 3673.7 
-3427.71 421.108 3675.92 
-3425.84 425.267 3668.85 
-3416.74 438.324 3653.56 
-3411.98 439.333 3654.72 
-3420.13 438.527 3651.35 
-3420.49 438.397 3651.71 
-3421.14 438.537 3651.49 
-3411.49 440.647 3651.52 
-3425.98 426.142 3667.1 
-3425.84 426.768 3665.12 
-3423.16 430.129 3661.23 
-3420.21 432.207 3656.05 
-3421.53 437.353 3651.88 
-3402.9 463.382 3649.68 
-3403.54 462.897 3650.3 
-3389.51 463.738 3647.2 
-3389.83 463.701 3647.41 
-3390.13 463.697 3647.55 
-3390.43 463.701 3647.68 
-3390.73 463.699 3647.81 
-3391.05 463.647 3648.06 
-3391.45 463.534 3648.38 
-3397.28 464.048 3646.36 
-3397.15 464.056 3646.26 
-3397.42 464.051 3646.43 
-3397.19 463.924 3646.78 
-3397.35 463.945 3646.8 
-3397.99 464.078 3646.7 
-3398.04 464.064 3646.77 
-3397.92 464.088 3646.64 
-3398.13 464.043 3646.83 
-3398.26 464.039 3646.92 
-3393.81 463.233 3647.62 
-3395.95 463.785 3646.61 
-3396.69 464.052 3646.02 
-3396.83 464.054 3646.09 
-3397.02 464.054 3646.19 
-3394.32 463.418 3647.08 
-3394.81 463.613 3646.61 
-3395.04 463.626 3646.69 
-3395.79 463.832 3646.33 
-3395.46 463.779 3646.35 
-3391.85 463.571 3648.03 
-3392.32 463.496 3647.9 
-3392.7 463.535 3647.51 
-3393.27 463.411 3647.45 
-3398.71 463.959 3646.9 
-3399.12 463.699 3646.92 
-3399.48 463.584 3646.99 
-3385.8 459.354 3647.49 
-3386.95 461.384 3647.13 
-3386.46 460.819 3647.14 
-3386.05 460.259 3647.23 
-3385.48 459.32 3647.41 
-3385.76 459.811 3647.31 
-3386.83 461.582 3647.03 
-3388.05 463.19 3647.65 
-3387.8 463.168 3647.59 
-3386.84 461.953 3646.96 
-3387.47 462.835 3647.49 
-3387.97 463.325 3647.35 
-3388.2 463.401 3647.3 
-3388.03 463.568 3646.89 
-3388.26 463.62 3646.88 
-3388.24 463.768 3646.58 
-3388.58 463.691 3646.88 
-3388.96 463.81 3646.81 
-3388.68 463.787 3646.74 
-3389.2 463.847 3646.84 
-3398.44 455.491 3646.46 
-3398.94 455.257 3646.57 
-3399.25 454.841 3646.52 
-3398 456.014 3646.32 
-3397.46 456.443 3646.1 
-3386.41 459.752 3647.62 
-3385.82 459.563 3647.49 
-3385.85 459.416 3647.52 
-3387.93 459.812 3647.91 
-3387.84 459.757 3647.92 
-3390.21 458.655 3647.83 
-3388.56 459.408 3647.66 
-3388.34 459.668 3647.79 
-3395.51 457.609 3646.96 
-3394.18 458.265 3647.76 
-3387.94 459.912 3647.9 
-3397.47 457.237 3646.35 
-3401.6 463.383 3648.48 
-3402.16 463.35 3648.84 
-3402.71 463.229 3649.14 
-3401 463.446 3648.12 
-3399.91 463.352 3647.03 
-3400.29 463.133 3647.06 
-3400.63 463.035 3647.13 
-3400.72 463.315 3647.3 
-3400.82 463.311 3647.39 
-3400.82 463.435 3647.61 
-3400.78 463.549 3647.77 
-3400.87 463.264 3647.48 
-3400.79 463.479 3647.91 
-3403.42 461.537 3648.71 
-3403.49 461.058 3648.42 
-3403.29 461.904 3649.17 
-3403.27 462.947 3649.61 
-3403.21 462.717 3649.2 
-3403.11 462.435 3648.88 
-3399.8 455.13 3646.72 
-3400.4 454.922 3646.89 
-3402.08 456.647 3647.38 
-3401.89 456.958 3647.36 
-3402.49 456.9 3647.51 
-3403.11 459.797 3647.8 
-3403.04 461.201 3648.15 
-3402.74 461.097 3647.9 
-3402.74 460.613 3647.79 
-3415.18 440.044 3650.08 
-3415.4 439.477 3651.19 
-3415.69 439.255 3651.69 
-3419.21 438.824 3650.72 
-3425.41 428.621 3661.65 
-3429.39 421.193 3668.08 
-3428.36 422.336 3665.52 
-3427.45 424.533 3664.37 
-3428.14 423.021 3668.33 
-3427.37 424.33 3666.3 
-3415.85 438.847 3652.75 
-3389.48 463.881 3646.9 
-3389.81 463.844 3647.12 
-3390.13 463.847 3647.26 
-3390.44 463.859 3647.37 
-3390.87 463.811 3647.65 
-3391.31 463.703 3647.99 
-3398.06 464.154 3646.52 
-3398.07 464.143 3646.55 
-3398.01 464.163 3646.48 
-3397.59 464.067 3646.47 
-3398.09 464.132 3646.59 
-3398.06 464.134 3646.84 
-3398.11 464.088 3646.83 
-3398.1 464.12 3646.61 
-3398.11 464.151 3646.72 
-3398.06 464.155 3646.81 
-3398.5 463.858 3646.8 
-3398.16 463.926 3646.85 
-3393.84 463.339 3647.28 
-3396.12 463.908 3646.23 
-3396.5 464.066 3645.85 
-3397.04 464.13 3645.94 
-3397.5 464.149 3646.15 
-3397.5 464.136 3646.19 
-3398.05 464.171 3646.45 
-3394.1 463.447 3646.88 
-3394.59 463.599 3646.54 
-3395.12 463.808 3646.04 
-3395.3 463.805 3646.16 
-3395.83 463.918 3646.03 
-3396.34 464.058 3645.79 
-3395.68 463.926 3645.91 
-3391.71 463.739 3647.65 
-3392.16 463.678 3647.5 
-3392.58 463.685 3647.17 
-3393.07 463.587 3647.1 
-3393.56 463.502 3646.99 
-3398.88 463.611 3646.83 
-3399.31 463.413 3646.89 
-3399.69 463.238 3646.94 
-3386.18 460.891 3647.04 
-3385.79 460.324 3647.13 
-3385.13 459.482 3647.2 
-3385.21 459.354 3647.32 
-3385.5 459.395 3647.42 
-3386.21 461.23 3646.93 
-3387.68 463.31 3647.25 
-3387.49 463.216 3647.35 
-3387.14 462.802 3647.18 
-3386.64 462.099 3646.8 
-3386.17 461.525 3646.81 
-3387.61 463.451 3646.94 
-3387.89 463.463 3647.04 
-3387.68 463.592 3646.68 
-3387.69 463.725 3646.42 
-3387.96 463.733 3646.53 
-3387.91 463.884 3646.2 
-3388.05 463.959 3646.11 
-3388.37 463.875 3646.42 
-3388.6 463.939 3646.4 
-3388.87 463.977 3646.44 
-3389.15 464.005 3646.5 
-3398.85 455.781 3646.71 
-3398.54 456.321 3646.66 
-3399.52 455.515 3646.77 
-3399.29 455.857 3646.84 
-3398.06 456.762 3646.48 
-3386.29 459.861 3647.56 
-3385.62 459.687 3647.41 
-3384.95 459.324 3647.08 
-3385.49 459.485 3647.41 
-3386.78 459.96 3647.66 
-3390.02 459.071 3647.83 
-3388.43 459.629 3647.71 
-3387.95 459.984 3647.87 
-3396.27 457.965 3647.07 
-3394.21 458.628 3647.92 
-3386.83 460.058 3647.64 
-3397.56 457.926 3646.71 
-3398.06 457.476 3646.62 
-3401.56 463.052 3648.21 
-3402.16 463 3648.58 
-3402.68 462.911 3648.87 
-3401.14 463.118 3647.95 
-3400.04 463.031 3646.98 
-3400.46 462.849 3647.03 
-3400.82 463.027 3647.23 
-3400.75 462.783 3647.11 
-3400.89 463.03 3647.34 
-3400.89 463.134 3647.59 
-3400.84 463.299 3647.73 
-3400.94 462.991 3647.44 
-3401.01 463.129 3647.82 
-3402.87 461.765 3648.4 
-3402.97 462.035 3648.71 
-3402.67 462.565 3648.6 
-3400.12 455.777 3647.07 
-3400.37 455.389 3647.05 
-3401.7 457.249 3647.33 
-3402.59 459.882 3647.62 
-3402.35 459.835 3647.52 
-3402.88 459.81 3647.71 
-3402.48 460.546 3647.68 
-3402.45 461.907 3648.02 
-3402.16 461.912 3647.79 
-3402.21 461.443 3647.73 
-3428.86 422.133 3668.51 
-3389.47 464.022 3646.61 
-3389.81 463.98 3646.84 
-3390.11 464 3646.94 
-3390.59 463.943 3647.26 
-3390.8 463.98 3647.28 
-3391.2 463.866 3647.61 
-3398.03 464.196 3646.69 
-3398.1 464.178 3646.66 
-3398.02 464.17 3646.69 
-3398.11 464.16 3646.69 
-3398.05 464.216 3646.67 
-3397.97 464.17 3646.9 
-3397.99 464.018 3646.95 
-3398.05 463.947 3646.92 
-3398.02 464.179 3646.81 
-3398.45 463.674 3646.83 
-3398.11 463.743 3646.95 
-3397.08 464.146 3645.92 
-3397.49 464.163 3646.1 
-3398.06 464.205 3646.36 
-3398.09 464.196 3646.4 
-3398.06 464.183 3646.42 
-3398.08 464.217 3646.59 
-3394.47 463.638 3646.32 
-3394.04 463.531 3646.6 
-3394.92 463.798 3645.97 
-3395.7 464.057 3645.43 
-3395.79 464.045 3645.52 
-3396.16 464.069 3645.64 
-3396.71 464.131 3645.75 
-3395.99 464.072 3645.54 
-3391.69 463.89 3647.23 
-3392.2 463.837 3647.01 
-3392.73 463.787 3646.77 
-3393.22 463.698 3646.67 
-3393.65 463.639 3646.52 
-3398.76 463.442 3646.8 
-3399.1 463.286 3646.82 
-3399.45 463.133 3646.87 
-3399.77 462.945 3646.9 
-3385.32 460.27 3646.95 
-3385.19 459.904 3647.06 
-3385.36 460.582 3646.82 
-3387.36 463.369 3646.99 
-3386.99 463.049 3647.02 
-3387.17 463.314 3647.02 
-3386.49 462.275 3646.68 
-3385.68 461.439 3646.67 
-3385.44 460.961 3646.74 
-3387.27 463.498 3646.69 
-3387.37 463.595 3646.54 
-3387.38 463.73 3646.28 
-3387.37 463.875 3645.98 
-3387.65 463.879 3646.1 
-3387.64 464.041 3645.77 
-3387.87 464.101 3645.75 
-3388.23 464.048 3646.01 
-3388.51 464.089 3646.06 
-3388.79 464.133 3646.09 
-3389.09 464.152 3646.18 
-3399.06 456.292 3646.9 
-3398.88 456.866 3646.92 
-3398.47 457.026 3646.74 
-3399.89 456.194 3647.1 
-3399.53 456.485 3647.09 
-3385.72 459.958 3647.39 
-3385.64 459.828 3647.39 
-3385.1 459.555 3647.19 
-3384.37 458.898 3646.6 
-3384.65 459.472 3646.64 
-3385.34 459.899 3647.21 
-3388.39 459.744 3647.71 
-3389.67 459.423 3647.83 
-3388.03 460.029 3647.85 
-3386.98 460.163 3647.64 
-3397.07 458.339 3647.11 
-3394.67 458.891 3647.99 
-3386.21 460.147 3647.47 
-3385 459.937 3646.72 
-3398.05 458.096 3646.85 
-3398.44 457.591 3646.88 
-3401.58 462.715 3647.97 
-3402.11 462.673 3648.31 
-3401.38 462.746 3647.81 
-3400.2 462.765 3646.96 
-3400.52 462.57 3647.02 
-3400.87 462.796 3647.22 
-3400.71 462.646 3647.12 
-3400.95 462.759 3647.3 
-3401.09 462.92 3647.69 
-3401.1 462.783 3647.54 
-3401.05 462.714 3647.4 
-3402.57 462.256 3648.32 
-3401.46 457.516 3647.26 
-3401.23 457.852 3647.22 
-3402.18 459.753 3647.44 
-3402.05 460.972 3647.6 
-3401.87 460.455 3647.49 
-3401.85 460.554 3647.47 
-3401.92 461.623 3647.66 
-3402.04 462.338 3648.01 
-3401.84 462.098 3647.67 
-3401.79 462.338 3647.8 
-3389.71 464.13 3646.5 
-3389.38 464.17 3646.28 
-3390.35 464.076 3646.89 
-3390.01 464.155 3646.58 
-3390.62 464.134 3646.9 
-3391.09 464.028 3647.22 
-3397.95 464.228 3646.82 
-3397.98 464.206 3646.82 
-3397.96 464.253 3646.72 
-3397.95 464.241 3646.77 
-3397.92 464.207 3646.92 
-3397.91 464.048 3647 
-3398 463.767 3647.01 
-3397.93 463.818 3647.05 
-3398.41 463.481 3646.92 
-3398.08 463.546 3647.04 
-3397.17 464.167 3645.9 
-3397.51 464.178 3646.07 
-3398.05 464.216 3646.32 
-3398.09 464.242 3646.51 
-3398.1 464.226 3646.53 
-3398.02 464.248 3646.62 
-3394.17 463.655 3646.18 
-3394.68 463.791 3645.85 
-3395.04 463.92 3645.57 
-3395.57 464.061 3645.34 
-3396.44 464.155 3645.52 
-3396.45 464.141 3645.57 
-3396.46 464.126 3645.62 
-3396.8 464.153 3645.73 
-3391.51 464.061 3646.87 
-3392.02 463.994 3646.69 
-3392.5 463.951 3646.47 
-3393.06 463.854 3646.34 
-3393.62 463.782 3646.14 
-3398.83 463.219 3646.85 
-3399.27 462.992 3646.81 
-3399.62 462.76 3646.84 
-3399.96 462.687 3646.9 
-3384.56 459.606 3646.43 
-3384.78 460.138 3646.42 
-3387.01 463.455 3646.66 
-3386.83 463.295 3646.8 
-3386.45 462.581 3646.59 
-3385.64 461.676 3646.55 
-3385 460.681 3646.39 
-3386.99 463.607 3646.35 
-3387.09 463.713 3646.18 
-3387.08 463.862 3645.88 
-3387.07 464.002 3645.6 
-3387.36 464.023 3645.68 
-3387.27 464.188 3645.36 
-3387.54 464.208 3645.39 
-3387.87 464.227 3645.49 
-3388.17 464.2 3645.68 
-3388.46 464.236 3645.74 
-3388.73 464.29 3645.75 
-3389.04 464.3 3645.87 
-3399.37 457.057 3647.16 
-3398.87 457.46 3647.09 
-3400.97 458.168 3647.24 
-3400.71 458.519 3647.33 
-3385.14 459.71 3647.18 
-3384.2 458.854 3646.4 
-3384.31 459.327 3646.23 
-3384.16 458.925 3646.34 
-3384.52 459.21 3646.68 
-3387.87 460.154 3647.81 
-3388.32 459.893 3647.73 
-3388.37 459.885 3647.68 
-3390.32 459.58 3648.01 
-3385.62 460.332 3647.23 
-3386.59 460.278 3647.52 
-3386.38 460.233 3647.48 
-3397.52 458.966 3647.23 
-3398.07 458.61 3647.08 
-3394.76 459.242 3648.16 
-3384.79 460.21 3646.08 
-3384.57 460.295 3645.79 
-3384.27 460.055 3645.72 
-3383.96 459.454 3645.64 
-3398.46 458.069 3647.1 
-3401.49 462.528 3647.68 
-3400.34 462.496 3646.95 
-3400.57 462.492 3647.07 
-3400.79 462.602 3647.2 
-3400.99 462.487 3647.32 
-3401.31 462.346 3647.46 
-3401.47 462.412 3647.56 
-3401.91 459.957 3647.39 
-3401.58 460.148 3647.4 
-3401.62 461.689 3647.56 
-3401.45 461.344 3647.48 
-3401.53 460.897 3647.43 
-3401.62 462.029 3647.57 
-3389.36 464.304 3646 
-3389.66 464.284 3646.17 
-3390.27 464.24 3646.53 
-3389.94 464.296 3646.27 
-3390.56 464.286 3646.56 
-3390.95 464.186 3646.86 
-3397.85 464.258 3646.91 
-3397.87 464.236 3646.94 
-3397.92 464.28 3646.71 
-3397.85 464.288 3646.82 
-3397.86 464.27 3646.86 
-3397.85 464.131 3647.02 
-3397.86 463.857 3647.09 
-3397.95 463.568 3647.11 
-3397.88 463.622 3647.14 
-3398.46 463.258 3646.99 
-3398.08 463.346 3647.12 
-3397.21 464.187 3645.87 
-3397.6 464.207 3646.03 
-3397.63 464.197 3646.08 
-3398.09 464.228 3646.29 
-3398.09 464.258 3646.47 
-3398 464.269 3646.59 
-3394.61 463.839 3645.64 
-3394.16 463.761 3645.83 
-3395.23 464.056 3645.16 
-3395.41 464.079 3645.18 
-3395.86 464.132 3645.25 
-3396.24 464.154 3645.4 
-3396.8 464.191 3645.62 
-3397.13 464.202 3645.77 
-3396.9 464.176 3645.72 
-3391.35 464.23 3646.5 
-3391.82 464.147 3646.4 
-3392.31 464.124 3646.11 
-3392.79 464.028 3646.03 
-3393.25 463.953 3645.91 
-3393.72 463.915 3645.68 
-3398.91 463.004 3646.9 
-3399.33 462.732 3646.83 
-3399.69 462.478 3646.82 
-3400.02 462.468 3646.87 
-3384.35 459.644 3646.12 
-3384.17 459.171 3646.15 
-3384.65 460.327 3646.12 
-3386.7 463.465 3646.51 
-3386.74 463.586 3646.28 
-3386.43 463.264 3646.47 
-3386.32 462.791 3646.47 
-3385.76 462.057 3646.47 
-3385.06 461 3646.28 
-3385.26 461.528 3646.24 
-3386.73 463.735 3645.98 
-3386.84 463.84 3645.82 
-3386.72 464.019 3645.55 
-3387 464.178 3645.37 
-3386.75 464.159 3645.43 
-3386.83 464.373 3645.25 
-3387.15 464.382 3645.18 
-3387.53 464.348 3645.16 
-3387.81 464.378 3645.17 
-3388.11 464.345 3645.37 
-3388.35 464.387 3645.39 
-3388.78 464.443 3645.47 
-3388.51 464.45 3645.33 
-3389.06 464.442 3645.59 
-3400.2 459.327 3647.52 
-3400.52 458.951 3647.43 
-3399.76 459.479 3647.51 
-3401.14 460.5 3647.46 
-3400.74 460.55 3647.53 
-3383.8 458.532 3646.04 
-3383.69 458.783 3645.71 
-3383.42 458.28 3645.65 
-3387.95 460.221 3647.8 
-3386.95 460.316 3647.59 
-3388.31 460.035 3647.72 
-3390.43 459.865 3648.18 
-3385.66 460.507 3647.21 
-3385.56 460.784 3646.94 
-3385.22 460.769 3646.28 
-3385.92 460.707 3647.19 
-3398.59 460.385 3647.24 
-3399.02 460.146 3647.32 
-3399.37 459.779 3647.43 
-3393.35 460.06 3648.56 
-3395.43 459.171 3648.17 
-3384.86 460.769 3645.87 
-3384.59 460.669 3645.79 
-3384.58 460.428 3645.96 
-3384.32 459.85 3645.95 
-3384 459.318 3645.82 
-3400.31 462.237 3646.95 
-3400.76 462.39 3647.2 
-3400.56 462.3 3647.09 
-3401.06 462.104 3647.35 
-3401.31 461.999 3647.45 
-3401.24 461.133 3647.4 
-3401.12 461.465 3647.37 
-3389.38 464.437 3645.74 
-3389.65 464.44 3645.86 
-3389.97 464.418 3646.04 
-3390.26 464.393 3646.22 
-3390.46 464.448 3646.2 
-3390.85 464.357 3646.46 
-3397.75 464.291 3647 
-3397.77 464.263 3647.03 
-3397.79 464.178 3647.05 
-3397.9 464.301 3646.69 
-3397.82 464.313 3646.81 
-3397.74 464.321 3646.93 
-3397.77 464.3 3646.94 
-3397.8 463.924 3647.12 
-3397.81 463.651 3647.19 
-3397.9 463.36 3647.21 
-3397.83 463.437 3647.23 
-3398.55 463.027 3647.04 
-3398.11 463.161 3647.18 
-3397.54 464.217 3645.96 
-3398.08 464.253 3646.21 
-3398.09 464.241 3646.25 
-3398.11 464.262 3646.4 
-3398.04 464.287 3646.48 
-3397.98 464.289 3646.57 
-3395.1 464.071 3645.03 
-3394.58 463.902 3645.37 
-3394.24 463.879 3645.43 
-3395.75 464.149 3645.14 
-3395.97 464.15 3645.26 
-3396.52 464.185 3645.47 
-3397.07 464.222 3645.68 
-3397.39 464.231 3645.83 
-3397.6 464.233 3645.95 
-3391.31 464.384 3646.09 
-3391.82 464.28 3646.02 
-3392.25 464.289 3645.68 
-3392.77 464.168 3645.65 
-3393.3 464.086 3645.5 
-3393.8 464.039 3645.24 
-3399 462.783 3646.95 
-3399.33 462.5 3646.92 
-3399.78 462.239 3646.84 
-3400.11 462.229 3646.86 
-3383.84 458.88 3645.87 
-3384.89 460.918 3646.09 
-3386.46 463.669 3645.99 
-3386.4 463.536 3646.23 
-3386.23 463.359 3646.27 
-3385.85 462.762 3646.24 
-3385.79 462.495 3646.32 
-3385.68 462.202 3646.37 
-3385.24 461.727 3646.1 
-3384.96 461.201 3646.02 
-3386.53 463.941 3645.64 
-3386.4 463.838 3645.75 
-3386.31 464.15 3645.55 
-3386.38 464.264 3645.44 
-3386.52 464.365 3645.33 
-3386.43 464.533 3645.24 
-3386.75 464.55 3645.14 
-3387.17 464.533 3645.06 
-3387.44 464.532 3645.01 
-3387.71 464.56 3644.93 
-3388.03 464.494 3645.03 
-3388.2 464.574 3644.95 
-3388.51 464.586 3645.06 
-3388.79 464.596 3645.16 
-3389.11 464.572 3645.35 
-3400.39 460.699 3647.47 
-3400.06 460.682 3647.39 
-3400.88 461.201 3647.38 
-3400.62 461.099 3647.36 
-3387.99 460.334 3647.81 
-3387.23 460.36 3647.65 
-3386.13 460.899 3647.17 
-3388.24 460.169 3647.74 
-3388.34 460.261 3647.78 
-3390.46 460.216 3648.32 
-3385.67 460.907 3646.95 
-3385.75 461.22 3646.7 
-3385.55 461.285 3646.28 
-3385.27 461.376 3645.98 
-3385.84 461.247 3646.8 
-3396.88 460.134 3647.75 
-3399.38 461.333 3647.01 
-3399.02 461.503 3646.98 
-3399.72 461.011 3647.2 
-3393.28 460.423 3648.73 
-3384.94 461.09 3645.86 
-3384.88 461.262 3645.84 
-3400.34 462.173 3646.97 
-3400.88 461.97 3647.25 
-3400.64 461.934 3647.13 
-3400.97 461.603 3647.3 
-3389.37 464.59 3645.43 
-3389.69 464.57 3645.61 
-3390.03 464.544 3645.81 
-3390.25 464.586 3645.83 
-3390.7 464.526 3646.07 
-3397.67 464.329 3647.05 
-3397.65 464.298 3647.11 
-3397.69 464.203 3647.12 
-3397.73 464.001 3647.15 
-3397.89 464.32 3646.67 
-3397.8 464.334 3646.79 
-3397.71 464.344 3646.92 
-3397.64 464.352 3647.03 
-3397.75 463.709 3647.22 
-3397.77 463.4 3647.3 
-3397.82 463.207 3647.31 
-3397.93 463.088 3647.28 
-3398.82 462.714 3647.05 
-3398.38 462.908 3647.16 
-3398.09 464.266 3646.18 
-3398.1 464.292 3646.34 
-3398.11 464.277 3646.37 
-3398.02 464.306 3646.45 
-3397.94 464.316 3646.57 
-3394.94 464.072 3644.94 
-3395.47 464.137 3645.01 
-3394.41 463.967 3645.09 
-3395.82 464.164 3645.13 
-3396.24 464.18 3645.33 
-3396.76 464.214 3645.52 
-3397.6 464.255 3645.88 
-3397.28 464.247 3645.72 
-3398.09 464.289 3646.11 
-3398.06 464.278 3646.14 
-3391.75 464.433 3645.63 
-3391.18 464.54 3645.73 
-3392.18 464.458 3645.24 
-3392.63 464.322 3645.3 
-3393.1 464.263 3645.13 
-3393.56 464.166 3645.07 
-3393.92 464.18 3644.77 
-3394.18 464.083 3644.86 
-3399.08 462.439 3647.05 
-3399.49 462.197 3646.95 
-3400.13 462.022 3646.88 
-3399.82 462.066 3646.85 
-3386.14 463.675 3645.94 
-3386.17 463.808 3645.83 
-3386.09 463.174 3646.19 
-3385.9 463.018 3646.18 
-3385.4 462.11 3646.09 
-3385.46 462.372 3645.97 
-3385.13 461.777 3645.88 
-3386.22 464.043 3645.66 
-3386.15 463.938 3645.78 
-3386.21 464.159 3645.69 
-3386.26 464.281 3645.55 
-3386.32 464.414 3645.41 
-3386.45 464.675 3645.15 
-3386.34 464.521 3645.41 
-3386.39 464.641 3645.29 
-3386.51 464.786 3645.04 
-3386.83 464.675 3645.03 
-3386.99 464.762 3644.93 
-3387.32 464.71 3644.9 
-3387.45 464.8 3644.81 
-3387.82 464.682 3644.81 
-3388.24 464.702 3644.75 
-3387.9 464.799 3644.71 
-3388.49 464.739 3644.75 
-3388.87 464.712 3644.97 
-3389.12 464.736 3645.03 
-3400.47 461.422 3647.19 
-3400.24 461.067 3647.28 
-3399.95 461.197 3647.16 
-3400.73 461.617 3647.19 
-3387.68 460.475 3647.71 
-3387.2 460.46 3647.61 
-3386.25 461.185 3647.12 
-3386.09 461.572 3646.77 
-3385.98 461.464 3646.74 
-3388.17 460.458 3647.8 
-3389 460.635 3648.09 
-3391 460.582 3648.55 
-3385.8 461.843 3646.28 
-3385.8 461.725 3646.25 
-3385.23 461.611 3645.93 
-3385.89 462.078 3646.27 
-3396.35 460.163 3648.05 
-3398.74 462.065 3647.16 
-3398.52 461.708 3647.14 
-3399.6 461.629 3646.94 
-3399.2 462.024 3647.02 
-3399.16 461.617 3646.94 
-3392.83 461.043 3648.8 
-3394.19 460.713 3648.81 
-3400.44 461.857 3647.03 
-3389.43 464.718 3645.2 
-3389.78 464.681 3645.43 
-3389.99 464.727 3645.43 
-3390.31 464.701 3645.62 
-3390.65 464.678 3645.7 
-3397.57 464.361 3647.14 
-3397.58 464.275 3647.19 
-3397.6 464.049 3647.24 
-3397.66 463.963 3647.22 
-3397.68 463.738 3647.26 
-3397.85 464.348 3646.65 
-3397.8 464.349 3646.74 
-3397.72 464.37 3646.83 
-3397.7 464.361 3646.89 
-3397.61 464.378 3647.01 
-3397.55 464.383 3647.11 
-3397.7 463.481 3647.32 
-3397.71 463.207 3647.4 
-3397.76 463.109 3647.38 
-3397.85 462.923 3647.39 
-3398.18 462.819 3647.28 
-3398.61 462.648 3647.17 
-3398.11 464.302 3646.3 
-3398.01 464.324 3646.41 
-3397.93 464.336 3646.54 
-3394.83 464.09 3644.8 
-3395.38 464.141 3644.95 
-3394.66 464.079 3644.76 
-3396.34 464.197 3645.33 
-3395.73 464.169 3645.06 
-3396.1 464.19 3645.21 
-3396.8 464.229 3645.5 
-3397.1 464.243 3645.63 
-3397.65 464.27 3645.87 
-3398.1 464.301 3646.07 
-3397.56 464.276 3645.8 
-3398.12 464.323 3646.23 
-3398.07 464.323 3646.31 
-3391.5 464.596 3645.34 
-3391.02 464.723 3645.33 
-3392.3 464.612 3644.71 
-3392.66 464.456 3644.9 
-3391.88 464.61 3645.02 
-3393.01 464.388 3644.72 
-3393.59 464.286 3644.71 
-3394.44 464.166 3644.67 
-3393.99 464.278 3644.55 
-3394.61 464.083 3644.62 
-3398.81 462.405 3647.18 
-3399.9 461.708 3646.94 
-3400.21 461.564 3647.06 
-3386.07 463.591 3646.03 
-3386.25 463.57 3646.13 
-3386.11 463.786 3645.96 
-3386.27 462.753 3646.42 
-3386 462.621 3646.22 
-3386.25 461.839 3646.69 
-3386.52 461.402 3647.09 
-3385.68 462.835 3646.01 
-3385.94 462.271 3646.27 
-3385.39 462.021 3645.96 
-3386.17 464.045 3645.8 
-3386.18 463.889 3645.95 
-3386.23 464.141 3645.87 
-3386.24 464.268 3645.71 
-3386.29 464.394 3645.56 
-3386.45 464.788 3645.18 
-3386.32 464.505 3645.57 
-3386.37 464.623 3645.45 
-3386.41 464.733 3645.33 
-3386.6 464.894 3644.93 
-3386.49 464.908 3645.05 
-3386.66 465.012 3644.83 
-3387.03 464.914 3644.81 
-3387.16 465.017 3644.71 
-3387.54 464.913 3644.7 
-3388.09 464.884 3644.61 
-3387.71 465.001 3644.6 
-3388.62 464.829 3644.63 
-3388.25 464.953 3644.52 
-3388.84 464.89 3644.6 
-3389.16 464.86 3644.8 
-3387.7 460.756 3647.64 
-3390.86 460.966 3648.56 
-3388.82 460.878 3648.09 
-3387.77 460.983 3647.6 
-3397.04 460.694 3647.92 
-3398.31 462.324 3647.34 
-3398.36 462.578 3647.3 
-3398.04 462.012 3647.43 
-3392.27 461.494 3648.67 
-3393.53 461.384 3648.95 
-3394.85 461.088 3648.81 
-3389.55 464.815 3645.06 
-3390.1 464.847 3645.24 
-3389.81 464.862 3645.08 
-3390.48 464.841 3645.33 
-3397.48 464.381 3647.22 
-3397.5 464.228 3647.26 
-3397.53 464.002 3647.31 
-3397.54 463.756 3647.36 
-3397.61 463.756 3647.31 
-3397.63 463.508 3647.37 
-3397.82 464.368 3646.63 
-3397.75 464.377 3646.74 
-3397.63 464.39 3646.94 
-3397.63 464.388 3646.81 
-3397.54 464.405 3647.03 
-3397.49 464.411 3647.14 
-3397.42 464.409 3647.25 
-3397.65 463.257 3647.42 
-3397.59 463.019 3647.56 
-3397.69 462.948 3647.49 
-3397.74 462.859 3647.47 
-3397.95 462.659 3647.45 
-3397.91 464.355 3646.51 
-3397.98 464.348 3646.4 
-3395.11 464.132 3644.82 
-3395.42 464.143 3644.92 
-3395.12 464.064 3644.75 
-3396.55 464.216 3645.37 
-3395.91 464.101 3645.05 
-3396.28 464.153 3645.22 
-3397.02 464.182 3645.5 
-3397.26 464.256 3645.66 
-3398.1 464.312 3646.04 
-3398.12 464.332 3646.17 
-3397.79 464.181 3645.77 
-3398.04 464.291 3645.95 
-3398.02 464.339 3646.27 
-3391.41 464.758 3644.94 
-3390.93 464.89 3644.91 
-3391.82 464.767 3644.61 
-3392.25 464.787 3644.29 
-3392.66 464.687 3644.34 
-3392.82 464.572 3644.46 
-3393.22 464.503 3644.42 
-3393.51 464.392 3644.5 
-3394.5 464.177 3644.8 
-3394.7 464.243 3644.99 
-3394.68 464.211 3644.83 
-3394.76 464.058 3644.61 
-3394.12 464.297 3644.72 
-3386.34 463.084 3646.38 
-3386.54 463.519 3646.25 
-3386.58 463.051 3646.49 
-3386.63 461.677 3647.04 
-3386.34 463.955 3646.01 
-3386.72 463.541 3646.31 
-3386.88 463.606 3646.33 
-3386.27 464.282 3645.85 
-3386.94 463.824 3646.25 
-3386.82 463.995 3646.17 
-3386.27 464.393 3645.69 
-3386.44 464.846 3645.3 
-3386.48 464.923 3645.17 
-3386.3 464.44 3645.78 
-3386.33 464.588 3645.62 
-3386.39 464.741 3645.47 
-3386.54 465.034 3644.94 
-3386.53 465.042 3645.07 
-3386.6 465.162 3644.79 
-3386.78 465.125 3644.71 
-3386.96 465.22 3644.6 
-3387.33 465.116 3644.6 
-3387.85 465.098 3644.5 
-3387.47 465.21 3644.5 
-3388.46 465.011 3644.43 
-3388.04 465.158 3644.42 
-3388.9 465.016 3644.4 
-3388.55 465.12 3644.33 
-3389.27 464.95 3644.66 
-3390.53 461.263 3648.53 
-3388.8 461.111 3648.12 
-3387.89 461.107 3647.64 
-3386.78 462.004 3646.97 
-3397.32 461.052 3647.99 
-3397.72 462.602 3647.57 
-3397.63 462.035 3647.81 
-3391.94 461.965 3648.58 
-3390.65 461.615 3648.54 
-3393.03 461.723 3648.88 
-3393.97 461.817 3649.04 
-3395.64 461.683 3648.75 
-3397.32 461.393 3648.16 
-3389.55 464.945 3644.8 
-3389.76 465.011 3644.76 
-3390.07 464.98 3644.96 
-3390.39 464.995 3644.96 
-3397.41 464.219 3647.34 
-3397.42 464.003 3647.4 
-3397.4 463.787 3647.49 
-3397.35 463.569 3647.61 
-3397.56 463.504 3647.43 
-3397.57 463.26 3647.49 
-3397.74 464.347 3646.41 
-3397.62 464.345 3646.43 
-3397.57 464.357 3646.56 
-3397.5 464.384 3646.81 
-3397.41 464.341 3646.48 
-3397.33 464.353 3646.61 
-3397.37 464.391 3646.92 
-3397.31 464.416 3647.12 
-3397.23 464.331 3647.4 
-3397.35 463.11 3647.76 
-3397.31 462.902 3647.87 
-3397.54 462.773 3647.69 
-3397.83 464.342 3646.33 
-3397.88 464.323 3646.15 
-3395.62 463.987 3644.87 
-3395.33 463.872 3644.69 
-3396.76 464.076 3645.34 
-3396.08 463.891 3644.97 
-3396.37 463.983 3645.13 
-3397.33 463.907 3645.41 
-3397.56 464.043 3645.59 
-3398.02 464.299 3645.95 
-3398 464.321 3646.09 
-3397.81 464.184 3645.73 
-3391.35 464.927 3644.5 
-3390.83 465.053 3644.52 
-3391.92 464.904 3644.22 
-3392.79 464.779 3644.61 
-3393.23 464.65 3644.73 
-3393.49 464.54 3644.7 
-3393.83 464.412 3644.7 
-3394.51 464.201 3644.93 
-3394.73 464.283 3645.17 
-3394.95 464.346 3645.28 
-3394.78 464.282 3645.05 
-3394.75 464.241 3644.85 
-3394.93 463.959 3644.57 
-3394.1 464.31 3644.85 
-3394.28 464.213 3644.87 
-3386.84 463.003 3646.6 
-3386.89 462.181 3646.97 
-3387.04 462.196 3647.04 
-3387.22 463.367 3646.56 
-3387.1 463.004 3646.69 
-3386.89 464.109 3646.15 
-3387.5 463.638 3646.53 
-3387.5 463.212 3646.74 
-3387.66 463.705 3646.56 
-3386.45 464.898 3645.37 
-3386.5 465.012 3645.23 
-3386.36 464.556 3645.78 
-3386.86 464.257 3646.09 
-3386.37 464.711 3645.62 
-3386.42 464.855 3645.51 
-3386.57 465.156 3644.94 
-3386.55 465.145 3645.1 
-3386.62 465.275 3644.8 
-3386.67 465.291 3644.65 
-3386.74 465.417 3644.52 
-3387.09 465.324 3644.5 
-3387.62 465.302 3644.4 
-3387.21 465.419 3644.4 
-3388.19 465.24 3644.32 
-3387.82 465.366 3644.31 
-3389.06 465.093 3644.31 
-3388.66 465.235 3644.23 
-3388.29 465.353 3644.22 
-3389.37 465.068 3644.47 
-3388.98 461.345 3648.24 
-3388.17 461.208 3647.73 
-3397.33 462.428 3648 
-3390.58 461.958 3648.55 
-3391.56 462.378 3648.59 
-3392.55 462.183 3648.78 
-3389.21 461.577 3648.39 
-3393.54 462.052 3649.04 
-3394.44 462.285 3649.11 
-3395.81 462.2 3648.82 
-3397.14 461.812 3648.31 
-3389.56 465.152 3644.39 
-3389.89 465.128 3644.58 
-3390.26 465.141 3644.63 
-3397.17 464.131 3647.6 
-3397.14 463.926 3647.71 
-3397.11 463.712 3647.81 
-3396.96 463.538 3648.02 
-3397.15 463.418 3647.87 
-3397.38 463.329 3647.66 
-3397.62 464.301 3646.06 
-3397.53 464.304 3646.12 
-3397.36 464.28 3645.97 
-3397.39 464.308 3646.2 
-3397.2 464.281 3646.04 
-3397.22 464.31 3646.28 
-3397.06 464.314 3646.31 
-3397.18 464.349 3646.6 
-3397.08 464.398 3646.91 
-3396.97 464.382 3647.27 
-3396.92 464.217 3647.53 
-3397.09 463.215 3647.99 
-3397.05 463.015 3648.1 
-3397.05 462.681 3648.21 
-3397.7 464.295 3645.98 
-3397.76 464.279 3645.82 
-3395.8 463.793 3644.8 
-3395.58 463.668 3644.63 
-3396.8 463.912 3645.24 
-3396.31 463.702 3644.91 
-3396.56 463.801 3645.07 
-3397.11 463.745 3645.22 
-3397.23 463.815 3645.28 
-3397.38 463.936 3645.4 
-3397.59 464.053 3645.56 
-3397.88 464.284 3645.85 
-3397.68 464.184 3645.65 
-3391.19 465.132 3644.09 
-3391.62 465.024 3644.16 
-3390.71 465.21 3644.15 
-3392.44 464.9 3644.58 
-3393.14 464.792 3645.06 
-3393.45 464.654 3645.05 
-3393.73 464.51 3645 
-3393.94 464.401 3644.9 
-3394.55 464.22 3645.1 
-3394.68 464.277 3645.25 
-3394.93 464.363 3645.41 
-3394.77 464.329 3645.37 
-3394.97 464.332 3645.14 
-3395.37 464.315 3645.26 
-3395.32 464.31 3645.13 
-3395 464.311 3644.99 
-3394.8 464.184 3644.68 
-3394.2 464.249 3644.97 
-3394.55 464.254 3645.23 
-3387.21 462.22 3647.1 
-3387.84 462.233 3647.3 
-3387.36 462.288 3647.15 
-3387.72 463.843 3646.53 
-3387.72 463.284 3646.8 
-3388.09 462.486 3647.31 
-3387.81 462.364 3647.27 
-3387.94 463.424 3646.83 
-3386.48 465.007 3645.39 
-3386.52 465.123 3645.25 
-3386.49 464.646 3645.81 
-3386.99 464.352 3646.09 
-3387.65 463.999 3646.45 
-3386.4 464.825 3645.66 
-3386.45 464.969 3645.55 
-3386.6 465.258 3644.96 
-3386.58 465.257 3645.11 
-3386.65 465.374 3644.82 
-3386.67 465.398 3644.67 
-3386.82 465.536 3644.41 
-3386.73 465.534 3644.54 
-3387.45 465.49 3644.3 
-3387.12 465.583 3644.3 
-3387.93 465.471 3644.21 
-3387.56 465.585 3644.2 
-3388.93 465.251 3644.16 
-3389.25 465.201 3644.18 
-3388.29 465.502 3644.11 
-3388.6 465.409 3644.11 
-3387.98 465.6 3644.1 
-3388.65 461.379 3647.87 
-3390.25 462.226 3648.61 
-3389.21 461.724 3648.28 
-3391.12 462.723 3648.71 
-3392.03 462.643 3648.7 
-3393.05 462.402 3648.98 
-3393.88 462.464 3649.07 
-3394.6 462.651 3649.07 
-3396.78 462.182 3648.53 
-3395.45 462.649 3649.01 
-3389.27 465.335 3644.03 
-3389.58 465.274 3644.15 
-3389.86 465.269 3644.29 
-3390.19 465.286 3644.29 
-3396.86 464.034 3647.8 
-3396.85 463.84 3648.01 
-3396.75 463.65 3648.2 
-3396.61 463.466 3648.4 
-3396.85 463.339 3648.2 
-3397.5 464.259 3645.74 
-3397.38 464.255 3645.75 
-3397.2 464.23 3645.6 
-3397.16 464.248 3645.77 
-3397 464.234 3645.71 
-3396.98 464.274 3646 
-3396.71 464.345 3646.37 
-3396.84 464.383 3646.69 
-3396.72 464.419 3647.1 
-3396.65 464.272 3647.37 
-3396.62 464.107 3647.62 
-3396.79 463.139 3648.33 
-3396.77 462.89 3648.43 
-3397.57 464.24 3645.63 
-3397.54 464.165 3645.55 
-3396.06 463.61 3644.76 
-3395.14 463.863 3644.55 
-3395.93 463.476 3644.62 
-3396.66 463.496 3644.88 
-3396.87 463.613 3645.04 
-3397.02 463.697 3645.12 
-3397.13 463.813 3645.21 
-3397.25 463.929 3645.32 
-3397.47 464.052 3645.49 
-3391.21 465.244 3644.22 
-3391.76 465.119 3644.46 
-3392.25 464.998 3644.65 
-3390.55 465.348 3643.95 
-3392.93 464.899 3645.15 
-3393.28 464.744 3645.28 
-3393.5 464.624 3645.22 
-3393.72 464.499 3645.16 
-3393.94 464.373 3645.11 
-3394.01 464.345 3645 
-3394.74 464.337 3645.49 
-3394.9 464.384 3645.56 
-3395.19 464.351 3645.43 
-3395.46 464.278 3644.94 
-3395.45 464.316 3645.36 
-3395.69 464.276 3645.19 
-3395.81 464.249 3645.04 
-3395.52 464.287 3645.12 
-3395.66 464.258 3644.97 
-3395.02 464.297 3644.86 
-3395.69 464.074 3644.75 
-3394.21 464.259 3645.12 
-3394.57 464.286 3645.39 
-3389.47 461.904 3648.25 
-3388.09 463.677 3646.76 
-3388.47 462.634 3647.38 
-3389.74 462.169 3648.34 
-3388.56 462.846 3647.31 
-3388.6 463.113 3647.2 
-3386.5 465.113 3645.43 
-3386.55 465.223 3645.27 
-3387.54 464.265 3646.31 
-3387.06 464.534 3646.06 
-3387.91 464.043 3646.52 
-3386.62 464.824 3645.79 
-3386.48 465.024 3645.64 
-3386.63 465.374 3644.95 
-3386.59 465.354 3645.2 
-3386.62 465.391 3645.06 
-3386.68 465.494 3644.81 
-3386.7 465.492 3644.69 
-3386.83 465.679 3644.31 
-3386.77 465.66 3644.44 
-3386.74 465.615 3644.62 
-3387.2 465.695 3644.2 
-3386.88 465.798 3644.22 
-3387.63 465.695 3644.11 
-3387.27 465.802 3644.11 
-3388.96 465.381 3644.05 
-3388 465.749 3643.99 
-3388.31 465.654 3643.99 
-3388.65 465.524 3644.01 
-3387.68 465.821 3644 
-3389.9 462.393 3648.71 
-3390.81 463.018 3648.77 
-3391.65 463.026 3648.75 
-3392.62 462.86 3648.92 
-3393.37 462.624 3648.92 
-3394.06 462.755 3648.89 
-3394.8 462.898 3648.92 
-3396.41 462.567 3648.75 
-3395.65 462.942 3648.99 
-3388.89 465.562 3643.93 
-3389.23 465.491 3643.91 
-3389.56 465.419 3643.92 
-3389.84 465.404 3644.01 
-3390.12 465.461 3643.9 
-3396.4 463.952 3647.81 
-3396.6 463.889 3647.97 
-3396.52 463.711 3648.23 
-3396.35 463.519 3648.49 
-3396.26 463.346 3648.72 
-3396.54 463.265 3648.54 
-3397.34 464.191 3645.45 
-3397.21 464.199 3645.4 
-3396.99 464.135 3645.2 
-3397 464.191 3645.34 
-3396.95 464.201 3645.45 
-3396.67 464.223 3645.52 
-3396.72 464.267 3645.85 
-3396.49 464.333 3646.19 
-3396.51 464.423 3646.82 
-3396.32 464.401 3646.58 
-3396.41 464.375 3647.14 
-3396.35 464.218 3647.37 
-3396.31 464.073 3647.59 
-3396.48 463.045 3648.67 
-3397.32 464.097 3645.4 
-3397.32 464.026 3645.38 
-3396.47 463.392 3644.74 
-3395.23 463.85 3644.54 
-3395.45 463.702 3644.51 
-3396.31 463.271 3644.6 
-3396.63 463.481 3644.82 
-3396.82 463.585 3644.97 
-3396.92 463.703 3645.05 
-3397.05 463.837 3645.17 
-3390.98 465.358 3644.29 
-3391.56 465.29 3644.74 
-3391.96 465.172 3644.84 
-3392.49 465.041 3645.04 
-3392.93 464.938 3645.37 
-3393.21 464.772 3645.4 
-3393.51 464.593 3645.39 
-3393.74 464.472 3645.32 
-3393.99 464.34 3645.26 
-3394.24 464.283 3645.28 
-3394.92 464.386 3645.71 
-3394.88 464.397 3645.68 
-3395.21 464.36 3645.55 
-3396.18 463.85 3644.76 
-3396.12 463.789 3644.71 
-3395.51 464.319 3645.45 
-3395.75 464.279 3645.29 
-3396.03 464.231 3645.09 
-3396.41 463.977 3644.9 
-3396.23 463.942 3644.82 
-3395.84 464.239 3644.96 
-3395.02 464.295 3644.76 
-3395.97 463.733 3644.64 
-3395.83 463.762 3644.61 
-3396.5 463.466 3644.73 
-3394.59 464.316 3645.56 
-3388.65 463.443 3647.09 
-3389.68 462.546 3648.13 
-3389.73 462.62 3648.63 
-3389.36 463.013 3647.84 
-3386.5 465.171 3645.51 
-3386.55 465.286 3645.36 
-3388.63 463.762 3646.97 
-3388.59 464.058 3646.84 
-3388.4 464.466 3646.55 
-3388.54 464.286 3646.7 
-3388.17 464.616 3646.38 
-3387.61 464.929 3646.03 
-3387.86 464.772 3646.2 
-3386.67 465.512 3644.93 
-3386.62 465.45 3645.22 
-3386.65 465.503 3645.07 
-3386.72 465.614 3644.76 
-3386.82 465.802 3644.35 
-3386.79 465.737 3644.49 
-3386.77 465.73 3644.63 
-3386.94 465.911 3644.11 
-3386.87 465.917 3644.23 
-3387.34 465.908 3644.01 
-3386.99 466.016 3644.02 
-3387.74 465.947 3643.9 
-3388.07 465.879 3643.88 
-3388.5 465.695 3643.92 
-3387.41 466.02 3643.92 
-3391.02 463.345 3648.66 
-3389.73 462.925 3648.4 
-3391.89 463.319 3648.83 
-3392.69 463.179 3648.86 
-3393.3 462.902 3648.75 
-3394.06 462.983 3648.7 
-3394.79 463.104 3648.76 
-3396.22 463.153 3648.89 
-3395.61 463.164 3648.9 
-3388.61 465.774 3643.84 
-3388.97 465.661 3643.84 
-3389.31 465.595 3643.82 
-3389.6 465.561 3643.78 
-3389.99 465.554 3643.86 
-3390.75 465.454 3644.31 
-3396.03 463.952 3647.71 
-3396.11 463.836 3647.92 
-3396.29 463.763 3648.09 
-3396.19 463.6 3648.32 
-3395.91 463.491 3648.42 
-3395.96 463.377 3648.62 
-3395.83 463.272 3648.79 
-3397.08 463.985 3645.22 
-3397.06 464.078 3645.24 
-3396.87 463.988 3645.08 
-3396.56 464.042 3644.98 
-3396.69 464.12 3645.06 
-3396.72 464.171 3645.18 
-3396.34 464.242 3645.49 
-3396.38 464.295 3645.88 
-3396.12 464.377 3646.32 
-3396.16 464.428 3646.95 
-3395.95 464.444 3646.74 
-3396.11 464.277 3647.22 
-3396.02 464.101 3647.47 
-3397.13 463.945 3645.24 
-3396.45 463.362 3644.68 
-3395.42 463.87 3644.55 
-3395.84 463.638 3644.55 
-3396.7 463.589 3644.89 
-3396.82 463.715 3644.99 
-3396.92 463.832 3645.08 
-3391.41 465.377 3644.82 
-3392.17 465.233 3645.24 
-3392.6 465.094 3645.35 
-3392.81 464.991 3645.53 
-3393.08 464.836 3645.52 
-3393.36 464.667 3645.52 
-3393.61 464.517 3645.54 
-3393.84 464.403 3645.49 
-3394.04 464.344 3645.45 
-3394.32 464.324 3645.52 
-3394.62 464.35 3645.72 
-3394.88 464.408 3645.85 
-3395.39 464.354 3645.7 
-3395.41 464.342 3645.59 
-3396.68 463.699 3644.9 
-3396.6 463.593 3644.82 
-3395.82 464.283 3645.41 
-3396.16 464.225 3645.18 
-3396.86 463.902 3645.06 
-3396.67 463.763 3644.91 
-3389.36 463.476 3647.74 
-3389.73 463.195 3648.17 
-3387.26 465.105 3645.84 
-3386.54 465.299 3645.47 
-3386.59 465.413 3645.35 
-3389.62 463.76 3647.63 
-3389.96 464.073 3647.52 
-3390.21 464.408 3647.35 
-3390.05 464.591 3647.08 
-3389.89 464.743 3646.84 
-3386.7 465.624 3644.92 
-3386.79 465.561 3645.08 
-3386.75 465.486 3645.24 
-3386.77 465.713 3644.77 
-3386.84 465.839 3644.49 
-3386.91 465.903 3644.36 
-3386.95 465.769 3644.62 
-3387.07 466.006 3644.15 
-3387.01 465.956 3644.24 
-3387.11 466.083 3643.95 
-3387.75 465.946 3643.95 
-3388.01 465.902 3643.92 
-3388.31 465.846 3643.85 
-3388.34 465.828 3643.91 
-3387.58 465.958 3644.01 
-3390.44 463.537 3648.21 
-3391.44 463.643 3648.64 
-3392.15 463.616 3648.83 
-3392.81 463.422 3648.65 
-3393.52 463.097 3648.57 
-3394.22 463.26 3648.51 
-3395.1 463.295 3648.68 
-3388.83 465.756 3643.81 
-3388.56 465.798 3643.87 
-3388.86 465.726 3643.88 
-3389.12 465.7 3643.79 
-3389.41 465.646 3643.77 
-3390.02 465.547 3644.02 
-3390.93 465.48 3644.59 
-3395.74 463.954 3647.63 
-3395.82 463.79 3647.91 
-3395.94 463.659 3648.16 
-3395.58 463.553 3648.27 
-3395.44 463.476 3648.41 
-3395.29 463.408 3648.54 
-3396.83 463.821 3645.02 
-3396.29 464.22 3645.28 
-3396.06 464.328 3645.96 
-3395.98 464.294 3645.68 
-3395.87 464.289 3645.54 
-3395.66 464.452 3646.66 
-3395.8 464.399 3646.32 
-3395.88 464.335 3647.06 
-3395.64 464.378 3646.93 
-3395.83 464.169 3647.31 
-3392.06 465.313 3645.36 
-3391.52 465.417 3645.06 
-3392.53 465.152 3645.55 
-3392.66 465.069 3645.68 
-3392.95 464.895 3645.66 
-3393.25 464.716 3645.65 
-3393.55 464.536 3645.67 
-3393.91 464.411 3645.72 
-3394.23 464.395 3645.81 
-3394.37 464.366 3645.74 
-3394.65 464.386 3645.91 
-3394.85 464.427 3645.99 
-3395.23 464.386 3645.86 
-3395.57 464.343 3645.78 
-3387.05 465.268 3645.69 
-3389.34 464.875 3646.45 
-3387.23 465.324 3645.63 
-3387.5 465.35 3645.58 
-3390.83 463.838 3648.14 
-3391.06 464.178 3647.97 
-3391.22 464.468 3647.75 
-3390.88 464.673 3647.33 
-3390.52 464.86 3646.96 
-3386.97 465.605 3644.93 
-3387.08 465.452 3645.17 
-3387.29 465.47 3645.05 
-3387.56 465.357 3645.43 
-3387.09 465.66 3644.77 
-3387.22 465.772 3644.51 
-3387.3 465.831 3644.37 
-3387.41 465.634 3644.69 
-3387.32 465.928 3644.17 
-3387.29 466.01 3644.03 
-3387.51 465.827 3644.28 
-3388 465.857 3644.01 
-3388.27 465.808 3643.99 
-3388.53 465.753 3643.98 
-3388.81 465.697 3643.96 
-3387.62 465.887 3644.13 
-3387.87 465.855 3644.08 
-3391.63 463.92 3648.49 
-3392.3 463.862 3648.66 
-3393.35 463.381 3648.43 
-3392.78 463.756 3648.49 
-3393.94 463.454 3648.3 
-3394.72 463.449 3648.45 
-3389.15 465.666 3643.86 
-3389.19 465.609 3643.96 
-3389.43 465.613 3643.84 
-3389.93 465.508 3644.06 
-3390.96 465.527 3644.78 
-3395.53 463.783 3647.86 
-3395.58 464.062 3647.42 
-3395.42 463.906 3647.63 
-3395.56 463.656 3648.08 
-3395.04 463.645 3648.1 
-3394.82 463.569 3648.25 
-3395.71 464.361 3646.02 
-3395.43 464.436 3646.4 
-3395.35 464.429 3646.76 
-3395.58 464.218 3647.17 
-3395.34 464.282 3647 
-3392.06 465.364 3645.51 
-3392.35 465.251 3645.65 
-3391.57 465.474 3645.28 
-3392.47 465.164 3645.77 
-3392.81 464.957 3645.8 
-3393.15 464.76 3645.78 
-3393.44 464.589 3645.81 
-3393.8 464.45 3645.86 
-3394.19 464.477 3646.18 
-3394.32 464.449 3646.1 
-3394.7 464.457 3646.26 
-3394.79 464.433 3646.14 
-3394.82 464.447 3646.12 
-3395.15 464.409 3646.01 
-3395.41 464.385 3646.03 
-3389.53 464.994 3646.41 
-3389.64 465.127 3646.32 
-3391.82 464.158 3648.3 
-3391.76 464.582 3647.75 
-3392.07 464.355 3648.14 
-3391.52 464.74 3647.32 
-3390.55 465.004 3646.74 
-3391.48 464.873 3646.99 
-3387.39 465.542 3644.87 
-3387.84 465.349 3645.34 
-3388.11 465.335 3645.24 
-3387.71 465.43 3644.95 
-3389.31 465.306 3646.06 
-3387.6 465.654 3644.57 
-3387.63 465.723 3644.43 
-3387.66 465.52 3644.8 
-3387.85 465.532 3644.7 
-3387.8 465.767 3644.28 
-3388.28 465.768 3644.06 
-3388.57 465.705 3644.05 
-3388.82 465.658 3644.03 
-3389.23 465.556 3644.05 
-3387.95 465.791 3644.17 
