-3411.9 353.724 2693.63 
-3412.16 353.693 2693.87 
-3411.7 353.678 2693.85 
-3412.26 353.706 2693.69 
-3412 353.821 2692.63 
-3412.33 353.783 2692.91 
-3412.05 353.79 2692.92 
-3412.4 353.747 2693.24 
-3412.12 353.755 2693.25 
-3412.46 353.713 2693.57 
-3412.66 353.745 2693.18 
-3412.74 353.709 2693.53 
-3412.75 353.699 2693.66 
-3411.99 353.895 2691.89 
-3412.13 353.91 2691.73 
-3412.37 353.862 2692.11 
-3411.72 353.697 2694.2 
-3412.03 353.678 2694.29 
-3411.4 353.709 2694.3 
-3412.52 353.696 2693.75 
-3412.69 353.695 2693.78 
-3412.4 353.692 2693.86 
-3412.57 353.69 2693.89 
-3412.27 353.685 2694 
-3412.49 353.821 2692.48 
-3412.85 353.781 2692.78 
-3412.6 353.78 2692.85 
-3412.98 353.739 2693.15 
-3412.96 353.712 2693.44 
-3413.02 353.703 2693.57 
-3412.93 353.698 2693.69 
-3412.43 353.906 2691.8 
-3412.66 353.856 2692.1 
-3412.75 353.819 2692.43 
-3412.2 353.971 2691.5 
-3412.48 353.685 2694.01 
-3412.72 353.686 2693.87 
-3412.85 353.693 2693.82 
-3413.13 353.783 2692.68 
-3413.2 353.748 2693 
-3413.2 353.708 2693.43 
-3413.34 353.715 2693.3 
-3413.29 353.705 2693.5 
-3413.2 353.7 2693.62 
-3413.09 353.696 2693.73 
-3413 353.824 2692.32 
-3412.78 353.905 2691.92 
-3413.1 353.875 2692.12 
-3411.87 354.014 2691.24 
-3412.14 354.047 2691.21 
-3411.79 354.088 2690.95 
-3412.48 354.017 2691.42 
-3412.63 353.963 2691.66 
-3412.68 353.684 2694.03 
-3412.3 353.667 2694.33 
-3412.68 353.674 2694.19 
-3412.07 353.668 2694.55 
-3412.95 353.687 2693.96 
-3413.35 353.8 2692.49 
-3413.48 353.755 2692.85 
-3413.47 353.709 2693.39 
-3413.62 353.714 2693.28 
-3413.55 353.723 2693.15 
-3413.61 353.707 2693.44 
-3413.44 353.703 2693.55 
-3413.43 353.699 2693.65 
-3413.27 353.695 2693.75 
-3413.03 353.691 2693.85 
-3412.11 354.113 2690.96 
-3411.79 354.146 2690.75 
-3412.96 354.005 2691.61 
-3413.05 353.946 2691.85 
-3413.41 353.92 2692.06 
-3413.46 353.856 2692.3 
-3412.44 354.082 2691.18 
-3412.78 354.055 2691.38 
-3412.27 353.652 2694.66 
-3412.67 353.656 2694.46 
-3412.24 353.649 2694.86 
-3412.98 353.683 2694.05 
-3412.68 353.638 2694.72 
-3412.15 353.651 2694.66 
-3412.5 353.67 2694.21 
-3411.84 353.638 2693.32 
-3412.69 353.622 2693.11 
-3412.26 353.614 2692.4 
-3412.1 353.598 2692.78 
-3411.79 353.607 2691.69 
-3411.56 353.56 2691.75 
-3413.27 353.691 2693.85 
-3413.73 353.759 2692.76 
-3413.76 353.816 2692.54 
-3413.85 353.724 2693.06 
-3413.83 353.717 2693.18 
-3413.78 353.711 2693.32 
-3413.98 353.719 2693.2 
-3413.86 353.708 2693.41 
-3413.67 353.703 2693.53 
-3413.72 353.699 2693.62 
-3413.5 353.695 2693.74 
-3412.09 354.168 2690.76 
-3413.18 354.061 2691.48 
-3413.39 353.987 2691.81 
-3413.81 353.878 2692.33 
-3413.77 353.938 2692.1 
-3412.45 354.14 2690.97 
-3412.81 354.111 2691.19 
-3413.04 353.678 2694.08 
-3413.28 353.684 2694.01 
-3413.23 353.689 2694.04 
-3412.32 352.609 2700.7 
-3412.71 352.329 2702.11 
-3412.63 352.786 2699.56 
-3413.08 353.668 2694.3 
-3412.78 353.628 2694.88 
-3413.3 353.675 2694.2 
-3413.21 353.657 2694.46 
-3413 352.624 2700.33 
-3412.6 353.298 2696.74 
-3412.82 353.657 2694.08 
-3413.28 353.644 2694.11 
-3413.3 353.344 2696.24 
-3413.61 353.681 2694.01 
-3412.99 353.669 2693.1 
-3413.51 353.69 2693.84 
-3413.35 353.688 2693.92 
-3414.08 353.742 2692.93 
-3414.05 353.787 2692.73 
-3414.1 353.862 2692.47 
-3414.09 353.741 2693.03 
-3414.04 353.733 2693.24 
-3414.15 353.77 2693.03 
-3413.91 353.709 2693.49 
-3414.06 353.748 2693.27 
-3413.95 353.72 2693.55 
-3413.76 353.696 2693.71 
-3413.68 353.692 2693.79 
-3412.46 354.19 2690.8 
-3411.97 354.21 2690.57 
-3412.24 354.216 2690.64 
-3411.74 354.196 2690.55 
-3411.58 354.222 2690.27 
-3412.8 354.173 2690.96 
-3413.15 354.131 2691.22 
-3413.51 354.103 2691.44 
-3413.56 354.041 2691.67 
-3413.85 353.993 2691.93 
-3414.07 353.92 2692.26 
-3414.07 353.989 2692.01 
-3413.3 353.68 2694.1 
-3413.47 353.683 2694.02 
-3413.48 353.687 2693.94 
-3412.37 353.384 2696.68 
-3413.09 351.985 2703.86 
-3412.26 353.639 2695.24 
-3412.1 353.428 2696.48 
-3413.08 353.628 2694.86 
-3412.67 353.616 2695.14 
-3413.49 353.68 2694.09 
-3413.51 353.677 2694.16 
-3413.5 353.671 2694.27 
-3412.94 353.279 2696.73 
-3413.27 352.826 2699.11 
-3413.38 352.181 2702.64 
-3413.6 353.471 2695.51 
-3413.65 352.866 2698.75 
-3413.75 353.724 2693.82 
-3413.72 353.68 2694.14 
-3413.48 353.658 2694.47 
-3413.19 353.717 2692.99 
-3412.52 353.662 2692.4 
-3412.71 353.707 2692.3 
-3412.04 353.652 2691.68 
-3412.19 353.692 2691.57 
-3411.58 353.647 2690.97 
-3413.68 353.689 2693.87 
-3414.25 353.802 2692.75 
-3414.22 353.848 2692.56 
-3414.26 353.941 2692.23 
-3414.27 353.814 2692.8 
-3414.21 353.802 2693.02 
-3414.3 353.832 2692.83 
-3414.07 353.761 2693.33 
-3414.21 353.812 2693.08 
-3414.11 353.785 2693.34 
-3414.03 353.756 2693.5 
-3413.92 353.713 2693.66 
-3413.84 353.698 2693.77 
-3412.03 354.247 2690.46 
-3412.28 354.265 2690.48 
-3412.54 354.235 2690.66 
-3412.85 354.23 2690.78 
-3413.13 354.199 2690.98 
-3413.47 354.168 2691.19 
-3413.83 354.155 2691.35 
-3413.87 354.099 2691.56 
-3413.93 354.05 2691.76 
-3414.1 354.063 2691.75 
-3414.2 353.992 2692.04 
-3414.25 354.078 2691.74 
-3411.84 354.263 2690.23 
-3412.06 354.287 2690.2 
-3413.67 353.683 2694.02 
-3413.66 353.686 2693.94 
-3412.6 353.615 2695.29 
-3412.61 353.607 2695.42 
-3413.03 353.61 2695.12 
-3413.7 353.681 2694.08 
-3413.62 352.384 2701.43 
-3413.82 351.782 2704.68 
-3413.71 353.078 2697.73 
-3413.04 353.597 2695.31 
-3414.01 352.15 2702.58 
-3413.87 353.771 2693.6 
-3413.86 353.717 2693.96 
-3413.26 353.76 2692.71 
-3412.66 353.74 2691.91 
-3412.51 353.762 2691.47 
-3411.91 353.704 2691 
-3411.93 353.742 2690.69 
-3413.87 353.706 2693.81 
-3414.4 353.87 2692.54 
-3414.36 353.92 2692.34 
-3414.34 354.041 2691.9 
-3414.44 354.022 2691.99 
-3414.44 353.888 2692.58 
-3414.41 353.883 2692.7 
-3414.35 353.867 2692.84 
-3414.21 353.822 2693.14 
-3414.38 353.882 2692.87 
-3414.25 353.842 2693.14 
-3414.17 353.816 2693.3 
-3414.1 353.794 2693.44 
-3413.98 353.743 2693.61 
-3412.7 354.272 2690.58 
-3412.48 354.295 2690.43 
-3412.99 354.271 2690.68 
-3413.41 354.231 2690.95 
-3413.78 354.211 2691.14 
-3414 354.231 2691.13 
-3414.03 354.173 2691.34 
-3414.08 354.126 2691.53 
-3414.22 354.146 2691.49 
-3414.37 354.174 2691.43 
-3414.42 354.125 2691.62 
-3411.65 354.149 2689.94 
-3412.28 354.314 2690.17 
-3411.79 354.149 2689.87 
-3413.85 353.707 2693.93 
-3413.83 353.695 2693.91 
-3413.5 351.64 2705.63 
-3413.29 352.414 2701.65 
-3413.94 351.269 2707.51 
-3412.83 352.83 2699.53 
-3412.81 353.409 2696.5 
-3414.23 351.465 2706.28 
-3413.14 353.31 2696.97 
-3413.99 353.816 2693.37 
-3413.98 353.761 2693.74 
-3413.25 353.794 2692.38 
-3413.16 353.82 2692 
-3412.47 353.794 2691.1 
-3414.02 353.763 2693.61 
-3413.95 353.741 2693.75 
-3414.55 353.932 2692.36 
-3414.51 353.978 2692.17 
-3414.54 354.121 2691.66 
-3414.61 354.077 2691.84 
-3414.64 353.969 2692.29 
-3414.57 353.946 2692.45 
-3414.53 353.937 2692.58 
-3414.53 353.947 2692.63 
-3414.39 353.883 2692.98 
-3414.5 353.942 2692.74 
-3414.32 353.879 2693.07 
-3414.37 353.891 2692.96 
-3414.23 353.845 2693.25 
-3414.15 353.82 2693.42 
-3412.75 354.318 2690.44 
-3413.23 354.278 2690.73 
-3413.08 354.321 2690.53 
-3413.78 354.269 2690.93 
-3413.5 354.28 2690.8 
-3413.97 354.282 2690.94 
-3414.12 354.318 2690.85 
-3414.14 354.255 2691.08 
-3414.19 354.209 2691.26 
-3414.33 354.234 2691.21 
-3414.47 354.265 2691.13 
-3414.53 354.215 2691.33 
-3412.49 354.342 2690.13 
-3411.71 354.081 2689.72 
-3412.11 354.214 2689.88 
-3413.69 352.091 2703.29 
-3414.39 350.901 2709.38 
-3414.21 351.85 2704.34 
-3414.03 352.374 2701.5 
-3412.29 353.815 2690.61 
-3412.88 353.878 2691 
-3412.07 353.838 2690.09 
-3412.92 353.845 2691.38 
-3412.42 353.891 2690.21 
-3414.07 353.855 2693.14 
-3414.08 353.795 2693.57 
-3413.51 353.868 2692.14 
-3414.67 354.021 2692.06 
-3414.65 354.213 2691.36 
-3414.71 354.17 2691.53 
-3414.78 354.115 2691.75 
-3414.8 354.049 2692 
-3414.74 354.016 2692.2 
-3414.69 354.005 2692.33 
-3414.71 354.014 2692.41 
-3414.63 353.991 2692.54 
-3414.6 353.99 2692.63 
-3414.46 353.933 2692.84 
-3414.48 353.944 2692.86 
-3414.37 353.901 2693.05 
-3414.27 353.868 2693.23 
-3412.92 354.356 2690.35 
-3413.3 354.359 2690.46 
-3413.4 354.32 2690.63 
-3413.7 354.317 2690.74 
-3413.9 354.339 2690.71 
-3413.97 354.334 2690.75 
-3414.07 354.364 2690.67 
-3414.26 354.328 2690.85 
-3414.27 354.398 2690.6 
-3414.17 354.389 2690.61 
-3414.32 354.297 2690.98 
-3414.46 354.338 2690.87 
-3414.6 354.31 2691 
-3414.71 354.302 2691.06 
-3412.02 354.135 2689.71 
-3412.36 354.252 2689.86 
-3413.48 353.901 2691.79 
-3413.63 353.943 2691.65 
-3413.2 353.934 2691.02 
-3412.79 353.943 2690.33 
-3412.52 353.974 2690 
-3412.15 353.922 2689.89 
-3414.22 353.9 2693 
-3414.28 353.933 2692.78 
-3414.81 354.277 2691.18 
-3414.86 354.208 2691.44 
-3414.95 354.163 2691.62 
-3414.91 354.089 2691.91 
-3414.87 354.073 2692.05 
-3414.83 354.075 2692.09 
-3414.8 354.06 2692.27 
-3414.73 354.037 2692.42 
-3414.58 354.047 2692.23 
-3414.46 354.007 2692.41 
-3414.4 353.973 2692.61 
-3413.12 354.386 2690.31 
-3413.4 354.407 2690.32 
-3413.6 354.361 2690.54 
-3413.85 354.371 2690.59 
-3414 354.399 2690.53 
-3414.12 354.433 2690.44 
-3414.24 354.456 2690.39 
-3414.36 354.466 2690.4 
-3414.4 354.397 2690.64 
-3414.55 354.429 2690.57 
-3414.61 354.384 2690.74 
-3414.74 354.391 2690.75 
-3414.85 354.38 2690.82 
-3411.37 353.9 2688.88 
-3411.51 353.948 2688.84 
-3411.53 353.891 2688.98 
-3411.66 353.926 2688.95 
-3411.79 353.922 2689.01 
-3411.68 353.882 2689.05 
-3411.84 353.905 2689.11 
-3411.72 353.898 2689.16 
-3412.48 354.246 2689.78 
-3412.96 354.404 2690.06 
-3413.68 353.989 2691.31 
-3413.16 353.993 2690.46 
-3413.02 354.03 2690.18 
-3412.68 354.035 2689.97 
-3412.24 354.002 2689.75 
-3412.62 354.078 2689.83 
-3412.17 354.051 2689.6 
-3414.96 354.373 2690.88 
-3414.94 354.296 2691.15 
-3415.03 354.261 2691.29 
-3415.12 354.23 2691.43 
-3415.04 354.147 2691.73 
-3415.01 354.137 2691.85 
-3415.03 354.15 2691.89 
-3414.92 354.107 2692.08 
-3414.77 354.121 2691.87 
-3414.69 354.087 2692.06 
-3413.88 354.036 2691.2 
-3413.18 354.432 2690.03 
-3413.6 354.444 2690.25 
-3413.71 354.4 2690.44 
-3413.97 354.443 2690.36 
-3413.88 354.426 2690.4 
-3414.08 354.475 2690.28 
-3414.19 354.495 2690.26 
-3414.31 354.504 2690.3 
-3414.49 354.473 2690.44 
-3414.43 354.511 2690.36 
-3414.62 354.479 2690.5 
-3414.72 354.45 2690.59 
-3414.84 354.447 2690.66 
-3414.96 354.433 2690.74 
-3412.79 354.303 2689.78 
-3412.29 354.15 2689.62 
-3413.62 354.061 2690.63 
-3413.11 354.084 2690.14 
-3413.06 354.129 2690.01 
-3412.13 354.094 2689.48 
-3411.81 354.106 2689.24 
-3411.7 354.043 2689.31 
-3411.66 354.144 2689.07 
-3411.34 354.073 2689.01 
-3415.08 354.369 2690.93 
-3415.08 354.423 2690.82 
-3415.16 354.344 2691.04 
-3415.24 354.311 2691.17 
-3415.3 354.265 2691.36 
-3415.17 354.199 2691.59 
-3415.17 354.202 2691.66 
-3415.04 354.208 2691.52 
-3414.92 354.165 2691.72 
-3413.95 354.11 2690.72 
-3413.42 354.467 2689.99 
-3413.79 354.496 2690.12 
-3413.82 354.452 2690.29 
-3414.03 354.519 2690.14 
-3413.94 354.484 2690.21 
-3414.15 354.537 2690.17 
-3414.25 354.529 2690.24 
-3414.36 354.542 2690.28 
-3414.56 354.521 2690.42 
-3414.49 354.555 2690.33 
-3414.68 354.535 2690.46 
-3414.74 354.498 2690.54 
-3414.85 354.498 2690.6 
-3414.95 354.483 2690.67 
-3415.07 354.47 2690.75 
-3411.49 354.057 2688.62 
-3411.66 354.075 2688.65 
-3411.59 354.01 2688.75 
-3411.91 354.072 2688.86 
-3412.11 353.988 2688.98 
-3412.05 353.944 2689.09 
-3411.92 353.94 2689.03 
-3412.13 353.987 2689.24 
-3412.32 354.09 2689.43 
-3411.92 353.971 2689.3 
-3412.09 354.057 2689.46 
-3412.59 354.207 2689.62 
-3413.07 354.342 2689.74 
-3413.53 354.125 2690.32 
-3413.53 354.184 2690.2 
-3413.08 354.177 2689.92 
-3412.6 354.128 2689.71 
-3412.8 354.193 2689.71 
-3412.31 354.153 2689.47 
-3412.1 354.182 2689.27 
-3415.22 354.416 2690.9 
-3415.19 354.464 2690.82 
-3415.3 354.385 2690.99 
-3415.38 354.352 2691.09 
-3415.35 354.306 2691.18 
-3415.11 354.257 2691.23 
-3414.26 354.157 2690.8 
-3414.65 354.213 2690.9 
-3413.96 354.178 2690.49 
-3413.62 354.497 2689.92 
-3413.9 354.517 2690.09 
-3413.76 354.524 2689.88 
-3413.97 354.557 2690.05 
-3414.08 354.574 2690.09 
-3414.21 354.596 2690.13 
-3414.27 354.568 2690.2 
-3414.38 354.578 2690.24 
-3414.61 354.576 2690.36 
-3414.54 354.611 2690.28 
-3414.46 354.597 2690.26 
-3414.81 354.545 2690.51 
-3414.73 354.583 2690.42 
-3414.94 354.536 2690.59 
-3415.05 354.516 2690.68 
-3415.17 354.51 2690.75 
-3411.91 354.054 2688.68 
-3411.94 354.042 2688.79 
-3411.85 354.011 2688.86 
-3412.27 353.979 2689.09 
-3413.21 354.334 2689.61 
-3412.76 354.182 2689.45 
-3412.79 354.234 2689.59 
-3413.41 354.23 2690.02 
-3413.87 354.269 2690.24 
-3413.99 354.232 2690.4 
-3412.17 354.29 2689.09 
-3411.74 354.256 2688.87 
-3411.93 354.22 2689.08 
-3415.31 354.468 2690.88 
-3415.37 354.432 2690.96 
-3415.29 354.515 2690.81 
-3415.44 354.395 2691.01 
-3415.41 354.334 2690.98 
-3414.87 354.306 2690.81 
-3414.44 354.249 2690.65 
-3414.38 354.203 2690.71 
-3413.8 354.528 2689.8 
-3413.87 354.547 2689.77 
-3414.06 354.614 2690.03 
-3414.16 354.628 2690.06 
-3414.28 354.651 2690.09 
-3414.34 354.614 2690.17 
-3414.63 354.623 2690.31 
-3414.46 354.643 2690.2 
-3414.58 354.658 2690.24 
-3414.89 354.584 2690.5 
-3414.71 354.635 2690.34 
-3414.81 354.617 2690.42 
-3415.1 354.557 2690.65 
-3415.01 354.576 2690.58 
-3415.21 354.558 2690.71 
-3411.62 354.119 2688.06 
-3411.86 354.041 2688.07 
-3411.49 354.165 2688.32 
-3411.7 354.108 2688.35 
-3412.42 353.981 2688.89 
-3412.83 354.125 2689.1 
-3412.46 353.959 2688.68 
-3412.96 354.076 2688.62 
-3412.94 354.113 2688.86 
-3412.6 353.953 2688.43 
-3413.24 354.291 2689.36 
-3412.57 354.087 2689.27 
-3414.38 354.301 2690.5 
-3414.11 354.333 2690.26 
-3413.6 354.293 2690.01 
-3413.11 354.254 2689.77 
-3413.34 354.319 2689.79 
-3412.85 354.282 2689.54 
-3412.37 354.252 2689.3 
-3412.61 354.315 2689.32 
-3412.01 354.329 2688.89 
-3415.41 354.508 2690.83 
-3415.43 354.458 2690.87 
-3415.45 354.367 2690.7 
-3415.41 354.539 2690.72 
-3415.32 354.562 2690.76 
-3415.44 354.294 2690.66 
-3414.88 354.342 2690.68 
-3413.97 354.6 2689.81 
-3413.69 354.39 2689.19 
-3413.3 354.268 2689.13 
-3414.03 354.604 2689.74 
-3414.21 354.672 2690.02 
-3414.3 354.699 2690.03 
-3414.39 354.664 2690.13 
-3414.68 354.679 2690.27 
-3414.54 354.696 2690.17 
-3415.03 354.616 2690.53 
-3414.92 354.632 2690.46 
-3414.78 354.659 2690.34 
-3414.86 354.668 2690.37 
-3415.15 354.602 2690.62 
-3415.28 354.605 2690.68 
-3412.07 353.987 2688.33 
-3412.4 353.918 2688.02 
-3412.35 353.931 2688.24 
-3412.06 353.983 2688.21 
-3412.64 353.925 2688.02 
-3412.27 353.949 2688.45 
-3412.64 353.937 2688.22 
-3413.48 354.286 2688.95 
-3413.09 354.071 2688.38 
-3413.47 354.229 2688.65 
-3414.6 354.357 2690.45 
-3413.84 354.359 2690.02 
-3414.39 354.368 2690.19 
-3413.58 354.384 2689.8 
-3413.08 354.345 2689.56 
-3412.44 354.359 2689.11 
-3412.19 354.395 2688.87 
-3412.57 354.418 2689.07 
-3415.41 354.424 2690.33 
-3415.43 354.397 2690.48 
-3415.37 354.245 2690.29 
-3415.43 354.287 2690.22 
-3415.39 354.589 2690.68 
-3415.4 354.468 2690.26 
-3414.13 354.658 2689.79 
-3413.83 354.405 2689 
-3414.41 354.702 2690.09 
-3414.21 354.685 2689.77 
-3414.38 354.737 2690.03 
-3414.8 354.706 2690.29 
-3414.68 354.722 2690.21 
-3414.62 354.75 2690.14 
-3414.5 354.735 2690.09 
-3415.13 354.646 2690.55 
-3415.02 354.659 2690.47 
-3414.95 354.681 2690.4 
-3414.91 354.71 2690.34 
-3415.25 354.646 2690.61 
-3415.36 354.641 2690.65 
-3412.09 353.918 2687.26 
-3412.17 353.905 2687.36 
-3411.74 354.05 2687.58 
-3412.13 353.923 2687.54 
-3411.83 354.028 2687.7 
-3411.93 354.003 2687.83 
-3412.26 353.899 2687.58 
-3412.2 353.918 2687.75 
-3412.47 353.895 2687.49 
-3412.2 353.926 2687.88 
-3412.44 353.902 2687.65 
-3412.52 353.909 2687.75 
-3412.69 353.899 2687.45 
-3412.84 353.907 2687.53 
-3412.7 353.916 2687.8 
-3412.97 353.944 2687.83 
-3413.03 354.003 2688.1 
-3413.6 354.226 2688.43 
-3413.89 354.412 2688.91 
-3415.28 354.205 2689.95 
-3414.2 354.367 2689.9 
-3415.17 354.173 2689.63 
-3413.27 354.408 2689.55 
-3412.84 354.376 2689.34 
-3413.75 354.41 2689.67 
-3412.97 354.436 2689.29 
-3412.76 354.469 2689.04 
-3412.28 354.452 2688.8 
-3411.89 354.444 2688.57 
-3411.81 354.373 2688.67 
-3415.4 354.322 2689.81 
-3415.41 354.299 2689.97 
-3415.42 354.198 2689.73 
-3415.39 354.543 2690.32 
-3415.38 354.373 2689.77 
-3414.3 354.727 2689.79 
-3413.99 354.454 2688.94 
-3414.46 354.772 2690.02 
-3414.81 354.749 2690.24 
-3414.92 354.754 2690.29 
-3414.74 354.78 2690.16 
-3414.66 354.804 2690.09 
-3414.55 354.777 2690.06 
-3415.11 354.691 2690.48 
-3415.23 354.686 2690.54 
-3415.03 354.703 2690.42 
-3415 354.729 2690.36 
-3415.34 354.688 2690.59 
-3415.38 354.614 2690.34 
-3412.42 353.872 2687.05 
-3412.42 353.887 2687.35 
-3412.63 353.891 2687.31 
-3412.87 353.889 2687.15 
-3412.98 353.898 2687.27 
-3413.2 353.927 2687.35 
-3413.08 353.934 2687.59 
-3413.73 354.238 2688.28 
-3413.42 354.096 2687.99 
-3413.56 354.099 2687.78 
-3415.28 354.11 2689.28 
-3414.57 354.233 2689.36 
-3413.5 354.413 2689.37 
-3414.37 354.227 2689.08 
-3413.41 354.386 2689.03 
-3412.72 354.46 2688.75 
-3413.53 354.297 2688.54 
-3412.3 354.497 2688.63 
-3411.9 354.503 2688.45 
-3411.56 354.461 2688.32 
-3415.4 354.181 2689.41 
-3415.38 354.222 2689.32 
-3415.37 354.467 2689.91 
-3415.37 354.254 2689.21 
-3415.37 354.352 2689.48 
-3414.39 354.764 2689.79 
-3414.08 354.5 2688.97 
-3414.56 354.813 2690.02 
-3414.87 354.795 2690.21 
-3415.01 354.798 2690.28 
-3415.05 354.762 2690.35 
-3414.78 354.833 2690.11 
-3414.66 354.845 2690.03 
-3415.11 354.739 2690.41 
-3415.18 354.722 2690.46 
-3415.29 354.733 2690.51 
-3415.36 354.699 2690.43 
-3415.36 354.588 2689.98 
-3415.36 354.511 2689.87 
-3412.26 353.872 2687 
-3412.53 353.863 2686.79 
-3412.66 353.868 2686.84 
-3412.7 353.876 2686.96 
-3412.68 353.883 2687.14 
-3412.48 353.879 2687.16 
-3413.14 353.89 2687.02 
-3412.94 353.879 2686.91 
-3413.33 353.921 2687.13 
-3413.77 354.091 2687.4 
-3413.63 354.077 2687.56 
-3413.91 354.298 2688.27 
-3413.99 354.314 2688.19 
-3415.31 354.053 2688.91 
-3414.35 354.176 2688.7 
-3415.22 354.009 2688.54 
-3414.32 354.126 2688.32 
-3413.57 354.227 2688.11 
-3413.1 354.303 2688.07 
-3414.49 354.021 2687.79 
-3412.37 354.454 2688.23 
-3411.71 354.532 2688.25 
-3411.34 354.492 2688.1 
-3415.38 354.097 2688.91 
-3415.36 354.138 2688.81 
-3415.36 354.398 2689.44 
-3415.35 354.283 2689.05 
-3415.35 354.181 2688.73 
-3414.48 354.798 2689.78 
-3414.18 354.54 2688.97 
-3414.91 354.837 2690.17 
-3415.15 354.828 2690.31 
-3415.14 354.784 2690.36 
-3415.03 354.84 2690.23 
-3414.75 354.876 2690.03 
-3414.86 354.878 2690.09 
-3414.56 354.827 2689.77 
-3415.21 354.764 2690.43 
-3415.32 354.771 2690.45 
-3415.35 354.678 2690.14 
-3415.34 354.544 2689.61 
-3415.35 354.467 2689.49 
-3412.11 353.856 2686.31 
-3412.18 353.847 2686.39 
-3411.86 353.955 2686.66 
-3412.15 353.874 2686.8 
-3412.32 353.847 2686.59 
-3412.4 353.857 2686.73 
-3412.22 353.846 2686.49 
-3412.03 353.903 2686.72 
-3412.54 353.85 2686.53 
-3412.65 353.856 2686.59 
-3412.78 353.862 2686.64 
-3412.87 353.871 2686.76 
-3413.12 353.872 2686.65 
-3413.21 353.882 2686.81 
-3413.5 353.924 2686.9 
-3413.86 354.097 2687.27 
-3414.15 354.368 2688.12 
-3414.05 354.328 2688.12 
-3414.25 354.557 2688.91 
-3415.21 353.953 2688.14 
-3415.36 354.027 2688.46 
-3415.17 353.904 2687.76 
-3414.31 353.997 2687.42 
-3413.75 354.096 2687.42 
-3413.02 354.247 2687.59 
-3415.31 353.86 2687.47 
-3415.14 353.82 2687.15 
-3412.14 354.446 2687.9 
-3415.35 354.067 2688.35 
-3415.34 354.338 2689.03 
-3415.33 354.214 2688.59 
-3415.33 354.094 2688.23 
-3414.98 354.881 2690.15 
-3415.11 354.877 2690.23 
-3415.23 354.873 2690.29 
-3415.29 354.84 2690.36 
-3415.24 354.804 2690.39 
-3414.63 354.853 2689.76 
-3414.83 354.916 2690.02 
-3414.94 354.92 2690.06 
-3414.32 354.575 2688.86 
-3415.33 354.798 2690.37 
-3415.34 354.705 2690.05 
-3415.33 354.601 2689.67 
-3415.32 354.472 2689.17 
-3415.33 354.409 2689.1 
-3411.76 353.98 2686.55 
-3412.02 353.876 2686.24 
-3412.41 353.836 2686.31 
-3412.47 353.843 2686.41 
-3412.36 353.823 2686.06 
-3412.48 353.83 2686.15 
-3412.73 353.845 2686.32 
-3412.85 353.854 2686.43 
-3413 353.864 2686.55 
-3413.28 353.864 2686.39 
-3413.48 353.869 2686.38 
-3413.36 353.876 2686.59 
-3413.58 353.911 2686.69 
-3413.99 354.148 2687.3 
-3414.44 354.636 2688.94 
-3414.31 354.472 2688.34 
-3415.34 353.962 2688.01 
-3415.18 353.764 2686.76 
-3414.54 353.867 2686.8 
-3413.84 354.009 2686.92 
-3412.89 354.217 2687.22 
-3415.33 353.972 2687.8 
-3415.31 353.863 2687.23 
-3415.32 354.288 2688.65 
-3415.31 354.192 2688.22 
-3415.32 354.112 2688.09 
-3415.31 353.995 2687.65 
-3415.07 354.919 2690.15 
-3415.19 354.924 2690.2 
-3415.32 354.838 2690.16 
-3415.29 354.908 2690.23 
-3415.33 354.759 2690.06 
-3414.71 354.893 2689.79 
-3414.77 354.9 2689.74 
-3415.06 354.962 2690.08 
-3414.95 354.964 2690.02 
-3415.32 354.653 2689.68 
-3415.32 354.548 2689.33 
-3415.31 354.357 2688.72 
-3415.31 354.449 2688.9 
-3411.94 353.896 2686.16 
-3412.22 353.82 2686 
-3412.65 353.837 2686.19 
-3412.64 353.823 2685.9 
-3412.8 353.83 2685.96 
-3412.93 353.838 2686.05 
-3412.98 353.847 2686.22 
-3413.12 353.857 2686.33 
-3413.41 353.856 2686.14 
-3413.58 353.861 2686.16 
-3413.7 353.904 2686.46 
-3413.99 354.093 2687 
-3414.22 354.339 2687.82 
-3414.55 354.679 2688.92 
-3415.24 353.702 2686.35 
-3415.29 353.801 2686.76 
-3414.96 353.709 2686.17 
-3414.02 353.912 2686.47 
-3413.27 354.068 2686.65 
-3412.33 354.302 2687.13 
-3415.3 353.91 2687.2 
-3415.3 354.267 2688.32 
-3415.3 354.18 2687.96 
-3415.3 354.081 2687.76 
-3415.29 353.99 2687.33 
-3415.19 354.971 2690.14 
-3415.28 354.939 2690.12 
-3415.3 354.817 2689.82 
-3415.31 354.712 2689.66 
-3414.86 354.952 2689.79 
-3415.02 355 2690.01 
-3415.13 355.008 2690.05 
-3415.31 354.57 2689.22 
-3415.3 354.35 2688.48 
-3415.29 354.46 2688.7 
-3411.61 354.014 2686.27 
-3411.92 353.899 2686.05 
-3412.24 353.812 2685.82 
-3412.48 353.815 2685.82 
-3412.75 353.811 2685.64 
-3412.91 353.819 2685.7 
-3413.05 353.826 2685.75 
-3413.2 353.832 2685.81 
-3413.19 353.842 2685.99 
-3413.23 353.85 2686.13 
-3413.47 353.847 2685.94 
-3413.69 353.853 2685.94 
-3413.92 353.898 2686.07 
-3413.81 353.898 2686.25 
-3414.06 354.098 2686.88 
-3414.14 354.132 2686.87 
-3414.27 354.333 2687.67 
-3414.45 354.54 2688.4 
-3414.68 354.757 2689.06 
-3415.27 353.769 2686.4 
-3415.28 353.878 2686.85 
-3415.01 353.648 2685.81 
-3415.26 353.679 2685.97 
-3414.19 353.812 2685.99 
-3413.04 354.074 2686.42 
-3412.19 354.267 2686.72 
-3411.52 354.478 2687.37 
-3415.28 354.23 2687.94 
-3415.29 354.099 2687.59 
-3415.28 354.009 2687.19 
-3415.28 354.954 2689.93 
-3415.24 355.019 2690.09 
-3415.28 354.844 2689.63 
-3415.28 354.738 2689.31 
-3415.29 354.69 2689.34 
-3415.29 354.592 2689.11 
-3414.94 354.985 2689.79 
-3414.99 354.989 2689.72 
-3415.18 355.052 2690.03 
-3415.28 354.336 2688.2 
-3415.28 354.538 2688.74 
-3415.27 354.424 2688.33 
-3411.83 353.917 2685.86 
-3412.12 353.822 2685.75 
-3411.82 353.928 2686 
-3412.4 353.796 2685.55 
-3412.57 353.804 2685.6 
-3412.76 353.786 2685.5 
-3412.67 353.778 2685.45 
-3412.55 353.78 2685.45 
-3413.09 353.805 2685.61 
-3413.22 353.813 2685.65 
-3413.41 353.837 2685.8 
-3413.35 353.819 2685.69 
-3413.56 353.831 2685.76 
-3413.66 353.841 2685.82 
-3413.83 353.837 2685.81 
-3414.23 354.151 2686.84 
-3414 353.841 2685.87 
-3414.16 353.985 2686.32 
-3414.36 354.374 2687.69 
-3414.44 354.399 2687.65 
-3414.6 354.637 2688.58 
-3415.26 353.845 2686.48 
-3415.25 353.772 2686.13 
-3415.27 353.926 2686.82 
-3415.2 353.586 2685.49 
-3415.24 353.692 2685.78 
-3414.9 353.593 2685.32 
-3413.93 353.823 2685.75 
-3413.12 353.998 2685.98 
-3413.68 353.606 2685.1 
-3413.13 353.702 2685.24 
-3412.24 354.195 2686.29 
-3412.43 353.897 2685.54 
-3411.42 354.389 2686.63 
-3415.27 354.212 2687.64 
-3415.27 354.114 2687.42 
-3415.26 354.004 2686.94 
-3415.26 354.999 2689.83 
-3415.26 354.859 2689.41 
-3415.26 354.731 2689.04 
-3415.27 354.618 2688.86 
-3415.08 355.041 2689.78 
-3414.8 354.791 2688.99 
-3415.24 355.082 2689.99 
-3415.26 354.313 2687.89 
-3415.26 354.481 2688.29 
-3415.23 354.342 2687.78 
-3411.71 353.954 2685.84 
-3412.06 353.808 2685.49 
-3412.18 353.801 2685.55 
-3412.31 353.77 2685.39 
-3412.45 353.767 2685.38 
-3412.59 353.761 2685.36 
-3412.71 353.759 2685.36 
-3412.82 353.767 2685.41 
-3412.98 353.797 2685.56 
-3413.07 353.784 2685.51 
-3413.19 353.791 2685.55 
-3413.31 353.8 2685.6 
-3413.48 353.814 2685.67 
-3413.42 353.794 2685.58 
-3413.7 353.804 2685.66 
-3413.75 353.818 2685.73 
-3414.06 353.845 2685.88 
-3414.48 354.244 2687.13 
-3414.55 354.406 2687.63 
-3414.34 354.06 2686.56 
-3414.63 354.615 2688.4 
-3414.75 354.666 2688.45 
-3411.45 353.95 2685.67 
-3411.79 353.737 2685.26 
-3411.69 353.86 2685.53 
-3411.27 353.968 2685.67 
-3415.25 353.88 2686.39 
-3415.06 353.668 2685.48 
-3415.23 353.617 2685.46 
-3415.15 353.522 2685.03 
-3415.07 353.609 2685.28 
-3415.09 353.565 2685.14 
-3414.93 353.503 2684.93 
-3414.37 353.534 2684.99 
-3414.29 353.079 2684.24 
-3414.55 353.23 2684.45 
-3413.99 352.929 2684.07 
-3413.5 352.94 2684.1 
-3412 353.886 2685.5 
-3411.64 353.861 2685.45 
-3413.49 352.696 2683.74 
-3413.02 352.691 2683.74 
-3415.25 354.216 2687.4 
-3415.25 354.107 2687.14 
-3415.23 353.983 2686.66 
-3415.18 354.834 2689.05 
-3415.15 354.984 2689.48 
-3415.18 354.923 2689.31 
-3415.16 354.653 2688.5 
-3415.17 354.742 2688.76 
-3415.18 354.582 2688.28 
-3415.25 354.596 2688.57 
-3415.17 355.072 2689.76 
-3414.89 354.841 2689.05 
-3415.24 354.477 2688.08 
-3415.25 354.423 2687.97 
-3415.18 354.217 2687.17 
-3415.19 354.36 2687.6 
-3415.19 354.294 2687.39 
-3412.5 353.748 2685.3 
-3412.63 353.744 2685.29 
-3412.77 353.744 2685.3 
-3412.88 353.751 2685.34 
-3412.95 353.771 2685.44 
-3413.07 353.766 2685.42 
-3413.19 353.771 2685.45 
-3413.31 353.78 2685.5 
-3413.63 353.79 2685.59 
-3413.51 353.762 2685.46 
-3413.55 353.776 2685.51 
-3413.99 353.773 2685.62 
-3414.14 353.834 2685.85 
-3414.75 354.36 2687.51 
-3414.79 354.495 2687.92 
-3414.84 354.636 2688.35 
-3414.46 354.089 2686.66 
-3413.48 352.706 2683.66 
-3413.29 352.511 2683.42 
-3412.58 352.665 2683.71 
-3415.18 353.887 2686.16 
-3415.17 353.794 2685.88 
-3414.91 353.57 2685.13 
-3414.64 353.537 2684.94 
-3414.47 353.565 2685 
-3414.68 353.566 2685.06 
-3414.74 353.512 2684.88 
-3414.84 353.482 2684.81 
-3414.64 353.443 2684.69 
-3414.35 353.346 2684.52 
-3414.09 353.195 2684.31 
-3414.01 352.958 2684.05 
-3413.78 352.793 2683.82 
-3415.24 354.081 2686.87 
-3415.17 354.135 2686.92 
-3415.24 354.143 2687.08 
-3415.2 353.983 2686.44 
-3415.23 353.983 2686.53 
-3414.83 354.312 2687.37 
-3415.18 354.5 2688.02 
-3414.9 354.287 2687.3 
-3415.21 354.447 2687.83 
-3414.94 354.086 2686.7 
-3414.88 353.951 2686.28 
-3415.01 354.287 2687.31 
-3414.89 354.123 2686.8 
-3412.18 353.706 2685.09 
-3412.24 353.731 2685.2 
-3412.02 353.731 2685.21 
-3412.18 353.751 2685.29 
-3412.29 353.749 2685.29 
-3412.39 353.732 2685.22 
-3412.53 353.729 2685.21 
-3412.71 353.726 2685.21 
-3412.83 353.715 2685.17 
-3412.91 353.732 2685.25 
-3412.98 353.75 2685.34 
-3413.07 353.731 2685.26 
-3413.09 353.749 2685.35 
-3413.29 353.761 2685.42 
-3413.19 353.75 2685.36 
-3413.84 353.76 2685.53 
-3413.43 353.75 2685.38 
-3413.67 353.731 2685.38 
-3413.85 353.737 2685.45 
-3414.27 353.795 2685.74 
-3414.21 353.785 2685.71 
-3414.41 353.948 2686.23 
-3414.62 354.166 2686.91 
-3413.07 352.328 2683.19 
-3411.35 353.102 2684.31 
-3413.61 352.944 2683.93 
-3413.36 352.882 2683.81 
-3413.19 352.715 2683.6 
-3413.02 352.514 2683.36 
-3412.3 352.63 2683.52 
-3411.95 353.711 2685.13 
-3412.15 353.683 2684.98 
-3411.89 353.694 2685.05 
-3414.98 353.779 2685.77 
-3414.84 353.617 2685.26 
-3414.51 353.587 2685.09 
-3414.27 353.59 2685.03 
-3414.16 353.572 2684.93 
-3414.38 353.55 2684.91 
-3414.44 353.526 2684.85 
-3414.52 353.503 2684.78 
-3414.34 353.493 2684.69 
-3414.12 353.412 2684.53 
-3413.82 353.221 2684.26 
-3413.84 353.041 2684.09 
-3415.2 354.079 2686.73 
-3414.91 353.894 2686.11 
-3415.01 353.894 2686.12 
-3414.64 354.09 2686.68 
-3414.79 354.128 2686.81 
-3414.74 353.927 2686.2 
-3414.51 353.724 2685.55 
-3414.57 353.707 2685.51 
-3414.66 353.95 2686.26 
-3412.32 353.714 2685.13 
-3412.45 353.709 2685.11 
-3412.59 353.711 2685.13 
-3412.69 353.702 2685.1 
-3412.8 353.694 2685.07 
-3412.92 353.694 2685.08 
-3412.98 353.713 2685.17 
-3413.23 353.702 2685.15 
-3413.31 353.719 2685.24 
-3413.38 353.736 2685.32 
-3414.04 353.741 2685.52 
-3413.68 353.711 2685.31 
-3413.9 353.714 2685.38 
-3414.1 353.719 2685.46 
-3414.35 353.763 2685.66 
-3414.57 353.961 2686.28 
-3413.49 353.108 2684.07 
-3413.21 353 2683.89 
-3412.96 352.722 2683.55 
-3412.24 352.828 2683.71 
-3411.77 353.678 2684.99 
-3411.87 353.655 2684.88 
-3412.01 353.668 2684.92 
-3412.32 353.671 2684.93 
-3412.31 353.693 2685.03 
-3414.71 353.665 2685.39 
-3414.78 353.621 2685.27 
-3414.56 353.605 2685.16 
-3414.3 353.61 2685.11 
-3414.02 353.621 2685.07 
-3414.02 353.597 2684.98 
-3414.18 353.544 2684.84 
-3413.8 353.588 2684.89 
-3413.96 353.565 2684.85 
-3414.2 353.519 2684.75 
-3414.04 353.503 2684.65 
-3413.88 353.446 2684.51 
-3413.62 353.306 2684.3 
-3414.64 353.68 2685.43 
-3414.43 353.741 2685.6 
-3414.18 353.695 2685.39 
-3414.2 353.671 2685.31 
-3414.32 353.648 2685.26 
-3412.43 353.687 2685.01 
-3412.56 353.688 2685.02 
-3412.69 353.68 2684.99 
-3412.84 353.674 2684.98 
-3413.05 353.666 2684.97 
-3413.15 353.685 2685.07 
-3413.55 353.668 2685.11 
-3413.62 353.686 2685.2 
-3413.79 353.693 2685.27 
-3414 353.692 2685.33 
-3412.2 353.007 2683.87 
-3413.35 353.276 2684.2 
-3412.94 352.913 2683.74 
-3413.08 353.138 2684 
-3414.37 353.627 2685.19 
-3414.13 353.635 2685.16 
-3413.8 353.614 2684.98 
-3413.76 353.64 2685.07 
-3413.93 353.542 2684.76 
-3413.56 353.61 2684.9 
-3413.5 353.591 2684.82 
-3413.7 353.568 2684.79 
-3413.86 353.525 2684.68 
-3413.74 353.509 2684.58 
-3413.59 353.473 2684.47 
-3413.93 353.674 2685.24 
-3414.08 353.655 2685.22 
-3412.6 353.663 2684.91 
-3412.47 353.667 2684.92 
-3412.74 353.658 2684.9 
-3412.97 353.647 2684.88 
-3413.32 353.636 2684.93 
-3413.42 353.654 2685.03 
-3413.84 353.657 2685.15 
-3412.2 353.152 2683.99 
-3411.7 353.582 2684.56 
-3411.47 353.603 2684.68 
-3413.08 353.336 2684.2 
-3413.31 353.474 2684.4 
-3412.82 353.096 2683.89 
-3412.52 353.644 2684.82 
-3412.38 353.649 2684.83 
-3413.57 353.632 2684.99 
-3413.63 353.549 2684.7 
-3413.28 353.615 2684.84 
-3413.19 353.597 2684.75 
-3413.4 353.573 2684.72 
-3413.56 353.531 2684.61 
-3413.42 353.515 2684.52 
-3412.65 353.64 2684.81 
-3412.89 353.629 2684.79 
-3412.23 353.286 2684.08 
-3411.94 353.567 2684.47 
-3412.79 353.303 2684.09 
-3412.98 353.487 2684.34 
-3413.13 353.517 2684.44 
-3412.57 353.622 2684.72 
-3413.33 353.556 2684.64 
-3412.8 353.611 2684.7 
-3413.1 353.579 2684.66 
-3413.27 353.538 2684.56 
-3412.19 353.55 2684.37 
-3412.14 353.574 2684.48 
-3412.28 353.41 2684.17 
-3412.71 353.484 2684.27 
-3412.82 353.526 2684.39 
-3413.05 353.537 2684.49 
-3412.36 353.592 2684.56 
-3412.43 353.58 2684.51 
-3412.49 353.604 2684.62 
-3412.32 353.566 2684.44 
-3412.63 353.576 2684.52 
-3412.72 353.593 2684.61 
-3412.45 353.536 2684.32 
-3412.53 353.555 2684.42 
-3413.02 353.561 2684.57 
-3412.34 353.505 2684.23 
-3412.83 353.548 2684.47 
