-3447.58 76.5658 3664.62
-3449.09 74.7199 3664.18
-3447.82 75.1746 3661.51
-3448.42 74.7808 3662.29
-3450.75 75.2855 3666.11
-3449.26 77.7579 3666.81
-3450.54 74.2391 3663.53
-3449.8 75.098 3662.25
-3448 75.6223 3660.95
-3449.8 75.9365 3661.55
-3452.36 73.9382 3666.73
-3451.6 75.0221 3667.72
-3452.04 74.1921 3665.57
-3451.32 73.9501 3665.38
-3450.72 73.8172 3664.12
-3451.46 75.3941 3669.77
-3450.45 74.9312 3674.64
-3447.5 76.0108 3676.38
-3450.39 74.7225 3662.99
-3450.97 75.1728 3663.2
-3450.71 75.8266 3662.35
-3452.82 74.1407 3668.75
-3451.75 74.6659 3664.67
-3452.94 73.7268 3682.7
-3451.7 76.0059 3681.81
-3453.51 73.8747 3672.47
-3453.48 73.6118 3675.07
-3454.07 73.1872 3682.04
-3456.01 76.266 3697.18
-3450.15 76.7932 3661.2
-3452.85 74.9475 3667.06
-3453.54 74.2167 3671.39
-3453.27 74.9199 3669.3
-3452.58 75.2374 3665.73
-3451.39 75.0365 3663.8
-3456.14 74.7607 3693.97
-3456.09 74.7655 3692.03
-3455.9 74.2709 3692.79
-3456.37 76.743 3697.67
-3456.39 75.4942 3691.87
-3455.24 73.1541 3685.67
-3454.12 75.0323 3684.44
-3454.74 73.6835 3679.99
-3455.64 73.5414 3686.7
-3456.13 75.6601 3696.75
-3454.18 77.0445 3694.96
-3450.76 76.5407 3661.89
-3452.96 75.5155 3666.55
-3453.27 75.3815 3668.31
-3454.82 73.5054 3681.54
-3454.11 74.5406 3672.24
-3452.24 75.9497 3664.09
-3451.61 76.0525 3663.16
-3455.82 74.2101 3689.48
-3455.91 74.5592 3688.51
-3456.1 76.8019 3699.12
-3456.93 76.5159 3692.96
-3455.93 75.0712 3686.96
-3455.65 73.1018 3687.64
-3453.04 77.2497 3683.72
-3455.73 74.2445 3686.21
-3455.86 74.7152 3697.11
-3455.81 74.083 3694.04
-3453.93 76.3086 3693.28
-3454.71 81.0436 3667.06
-3454.4 80.7889 3666.21
-3454.04 81.022 3665.52
-3454.75 81.7512 3668.18
-3451.17 77.4556 3661.75
-3453.67 75.3795 3669.96
-3455.08 74.4187 3680.88
-3454.18 74.1096 3673.46
-3452.54 75.7197 3665.12
-3456.26 76.8508 3701.87
-3457.4 77.351 3694.33
-3456.48 76.1904 3689.16
-3456.05 75.7098 3686.47
-3455.73 73.6205 3688.66
-3454 77.1895 3685.26
-3454.78 75.4656 3687.25
-3455.28 73.9467 3697.73
-3455.65 73.6257 3692.15
-3454.58 76.1845 3690.99
-3455.17 80.7675 3672.04
-3454.65 80.7138 3668.01
-3451.57 76.6515 3662.71
-3452.29 76.683 3663.53
-3454.22 75.341 3671.58
-3452.95 76.0141 3665.98
-3452.85 76.7195 3664.78
-3455.56 73.2114 3689.73
-3457.79 77.7247 3701.75
-3457.36 77.4111 3693.33
-3456.36 76.4312 3686.64
-3455.21 75.094 3680.17
-3459.83 78.9938 3711.53
-3454.89 75.1219 3688.64
-3454.15 77.3585 3687.77
-3454.98 74.852 3689.93
-3454.08 77.8141 3690.05
-3454.45 79.8834 3666.92
-3454.23 80.0778 3665.5
-3455.12 80.0261 3671.76
-3456.71 80.9571 3680.77
-3454.52 79.8987 3668.43
-3454.2 79.4429 3667.55
-3453.58 80.0738 3664.35
-3452.15 77.3814 3662.9
-3452.79 77.0337 3664.1
-3453.33 76.327 3666.78
-3453.72 76.1265 3668.82
-3453.31 76.9238 3665.86
-3458.59 78.3204 3703.25
-3458.03 78.2579 3696.07
-3456.91 77.2435 3689.16
-3456.15 76.6427 3684.18
-3455.22 75.5763 3678.64
-3454.13 77.4089 3688.96
-3454.15 79.0713 3665.67
-3455.26 79.2405 3673.36
-3456.8 80.2069 3681.35
-3458.15 80.8657 3689.96
-3455.07 78.6839 3672.89
-3454.33 79.1401 3668.42
-3452.76 79.1325 3662.4
-3451.88 77.9653 3662.23
-3452.85 77.7578 3663.62
-3453.26 77.5962 3664.63
-3454.13 76.9203 3669.38
-3458.83 78.8418 3702.53
-3458.01 78.3679 3694.94
-3456.59 77.5142 3685.61
-3455.7 76.5516 3680.6
-3460.02 79.5777 3709.82
-3454.1 79.063 3664.92
-3456.67 79.3639 3680.82
-3457.96 80.0841 3689.49
-3459.16 80.6994 3698.06
-3455.01 78.0602 3673.37
-3456.65 78.7463 3681.67
-3454.01 78.8632 3667.04
-3454.4 78.5099 3669.14
-3451.16 78.374 3661.18
-3452.59 78.383 3662.87
-3453.03 79.6621 3663.53
-3453.72 77.2076 3667.16
-3454.77 75.8027 3673.87
-3453.84 77.9051 3666.31
-3453.52 77.6863 3665.34
-3458.97 79.2596 3701.91
-3457.89 78.5155 3693.36
-3455.36 76.6161 3677.19
-3457.87 79.3932 3690.71
-3455.33 77.3873 3676.07
-3456.53 77.85 3683.99
-3454.11 78.3378 3667.81
-3454.62 77.4358 3671.55
-3453.36 78.981 3663.78
-3459.09 79.7158 3700.68
-3457.93 78.9015 3692.63
-3459.16 80.0815 3699.64
