77.9626 -1827.7 1933.89
77.062 -1828.19 1934.01
79.0682 -1826.79 1932.1
76.8933 -1827.82 1934.43
77.0977 -1827.39 1934.79
76.7299 -1826.86 1935.85
76.409 -1826.71 1936.48
76.2482 -1826.77 1936.87
80.7042 -1828.88 1926.45
78.3432 -1828.67 1927.84
78.1174 -1828.23 1928.01
78.1126 -1827.81 1928.2
77.0704 -1828.43 1929.03
80.075 -1828.33 1926.85
82.9064 -1835.27 1941.73
83.0579 -1834.92 1942
69.2514 -1814.51 1937.72
68.5732 -1813.67 1936.6
68.0988 -1813.49 1936.3
68.2501 -1814.47 1931.6
68.3711 -1814.34 1931.3
68.1793 -1814.54 1931.18
68.2239 -1814.53 1931.87
68.0714 -1814.73 1932.12
68.1851 -1815.12 1932.96
68.2451 -1815.04 1930.3
66.2211 -1815.61 1929.11
68.2798 -1814.74 1930.7
68.4589 -1814.46 1930.93
69.2621 -1813.87 1930.91
68.7703 -1814.73 1930.46
68.5511 -1815.04 1930.25
68.368 -1815.94 1929.61
69.1163 -1814.76 1930.25
68.8681 -1814.33 1930.76
69.0415 -1813.92 1931
68.8645 -1813.58 1931.46
72.6123 -1808.09 1932.83
72.3904 -1807.73 1932.59
72.0461 -1808.12 1932.59
71.9128 -1808.26 1932.29
70.9285 -1810.58 1932.71
70.5747 -1810.97 1932.04
68.6463 -1813.82 1931.94
68.7338 -1813.61 1931.82
68.5753 -1813.97 1931.72
74.1151 -1816.94 1933.64
72.322 -1816.25 1934.54
72.9946 -1808.82 1933.21
72.3164 -1811.83 1933.78
72.7656 -1812.14 1933.75
72.7433 -1808.66 1933.27
72.5805 -1808.54 1933.18
80.6715 -1827.34 1926.73
80.8086 -1827.66 1926.26
81.1277 -1828.54 1926.11
81.5338 -1829.86 1925.74
79.9838 -1827.4 1927.23
80.3089 -1827.42 1926.92
81.9954 -1829.96 1923.86
81.8194 -1829.91 1924.35
81.6509 -1829.62 1924.12
81.7176 -1829.72 1924.37
81.4703 -1830.27 1924.12
82.5102 -1833.69 1924.11
82.6691 -1833.16 1924.41
82.5237 -1832.62 1924.5
82.3163 -1832.54 1924.18
82.726 -1831.36 1924.66
82.9788 -1832.75 1924.27
82.6908 -1831.52 1925.3
82.2078 -1830.65 1924.65
81.9477 -1830.28 1923.87
82.1102 -1830.27 1923.6
82.3755 -1830.09 1923.87
83.0913 -1830.58 1923.97
74.5911 -1834.51 1913.74
73.6513 -1835.87 1913.65
72.6839 -1836.57 1914.23
75.4297 -1834.21 1914.48
74.5666 -1834.37 1914.08
68.3047 -1835.7 1918.45
68.8125 -1835.84 1918.24
72.9402 -1836.41 1914.79
73.0144 -1836.41 1915.06
73.2145 -1836.42 1915.11
72.8893 -1836.4 1914.44
55.1874 -1827.19 1903.93
54.9577 -1826.6 1903.66
53.0488 -1823.42 1906.1
54.3361 -1825.23 1904.38
52.0598 -1823.51 1904.26
52.3941 -1823.48 1904.99
53.0459 -1822.87 1907.03
51.9138 -1822.59 1906.52
52.6683 -1824.19 1903.45
52.3478 -1820.88 1908.74
50.6475 -1821.61 1907.03
51.5198 -1818.72 1910.37
50.9935 -1818.53 1910.11
53.6799 -1821.97 1908.22
52.9203 -1821.26 1908.62
56.8878 -1823.33 1908.45
57.6381 -1824.09 1907.19
57.9078 -1824.68 1904.92
57.6359 -1824.35 1904.4
57.571 -1824.11 1904.28
55.9402 -1822.96 1908.26
55.6725 -1822.04 1901.72
55.9229 -1822.98 1902.07
55.3529 -1822.63 1901.24
56.0414 -1823.23 1902.54
55.3645 -1822.75 1908.24
54.8525 -1822.53 1908.21
54.4199 -1822.21 1908.3
54.1174 -1822.08 1908.3
56.5348 -1820.12 1903.52
57.4624 -1820.95 1905.51
55.8107 -1817.14 1903.99
55.1324 -1821.65 1901.22
55.7292 -1819.73 1902.52
55.7361 -1818.12 1903.3
58.9553 -1822.5 1907.96
58.647 -1822.55 1907.69
59.0484 -1822.3 1908.24
58.435 -1822.55 1907.63
59.4768 -1821.46 1909.19
58.1716 -1822.35 1907.37
58.0604 -1822.37 1906.86
82.024 -1829.57 1925.11
81.9081 -1829.78 1924.87
81.5145 -1830.31 1924.6
81.7243 -1830.77 1925.19
82.1267 -1831 1925.46
81.9748 -1830.76 1925.58
82.249 -1830.32 1925.3
82.5243 -1830.11 1924.42
82.2642 -1829.87 1924.14
73.1331 -1813.02 1910.14
71.723 -1815.61 1908.41
71.3477 -1818.28 1907.29
69.8351 -1822.09 1907.13
69.2929 -1827.86 1906.63
58.0598 -1822.09 1909.27
58.3971 -1820.87 1911.31
58.1018 -1821.86 1909.55
58.7168 -1821.93 1908.49
69.1179 -1834.89 1905.55
53.0586 -1809.32 1921.08
52.9996 -1810.81 1920.28
53.3085 -1810.2 1920.7
53.209 -1810.39 1920.34
56.1856 -1816.29 1914.11
53.6531 -1811.29 1917.56
53.5584 -1810.73 1917.14
54.5561 -1812.57 1914.61
53.794 -1809.42 1915.56
53.7621 -1809.6 1915
53.5373 -1809.75 1916.11
53.6706 -1809.14 1916.08
53.5809 -1810.09 1916.51
53.5675 -1812.26 1917.91
53.5754 -1813.25 1918.06
53.5799 -1813 1918.35
53.2206 -1814.45 1918.57
53.5681 -1813.97 1918.43
52.7215 -1814.39 1918.45
51.7256 -1814.28 1918.36
51.6861 -1813.75 1918.8
51.488 -1813.23 1919.08
51.4779 -1812.74 1919.21
51.5405 -1812.29 1919.23
52.5939 -1811.49 1919.74
52.5543 -1811.05 1919.72
58.0905 -1819.2 1913.17
57.6138 -1818.53 1913.46
57.1283 -1818.05 1913.68
56.3107 -1816.87 1913.55
58.363 -1821.42 1910.29
58.3255 -1819.88 1912.44
58.0015 -1819.51 1912.67
79.2217 -1825.36 1941.55
80.2729 -1829.57 1935.06
79.0617 -1828.91 1934.23
78.8382 -1828.65 1934.12
77.5985 -1827.12 1935.65
78.1939 -1827.57 1934.34
78.8586 -1828.18 1933.93
76.684 -1826.88 1937.09
76.0942 -1826.86 1937.77
76.7514 -1826.48 1939.29
78.3242 -1825.54 1940.78
84.1029 -1835.45 1942.89
83.8086 -1835.91 1942.87
85.0661 -1832.41 1942.67
84.5784 -1834.94 1943.03
84.9392 -1832.95 1942.72
85.0146 -1832.82 1942.79
84.0676 -1834.21 1942.46
84.5208 -1833.99 1942.7
83.5344 -1834.05 1941.67
83.5673 -1833.85 1941.4
83.6359 -1833.89 1941.83
83.8148 -1833.88 1942.06
81.7981 -1838.05 1939.83
80.654 -1837.4 1937.6
81.3665 -1838.27 1938.87
81.5782 -1838.41 1939.67
80.4917 -1834.85 1936.45
83.6894 -1834.14 1942.17
82.7071 -1821.28 1949.8
83.0223 -1821.27 1949.83
83.3589 -1821.85 1949.79
83.734 -1821.62 1949.94
79.8877 -1825.8 1945.83
79.461 -1824.14 1944.02
78.8533 -1823.38 1943.8
79.6657 -1823.82 1943.19
79.8843 -1824.03 1942.98
79.9802 -1826.03 1943.71
80.1181 -1828.62 1943.05
80.3545 -1831.05 1942
79.8128 -1825.8 1943.01
79.9162 -1825.99 1943.32
80.532 -1830.96 1943.2
80.8445 -1830.53 1945.58
80.6951 -1830.89 1944.28
80.0085 -1824.39 1942.59
79.9951 -1824.53 1942.39
79.96 -1824.65 1942.25
80.0068 -1824.77 1942.07
79.882 -1825.04 1941.93
52.0992 -1821.51 1907.87
49.7493 -1821.45 1906.6
50.0848 -1821.83 1906.17
50.0413 -1822.08 1905.36
49.6529 -1821.98 1905.58
49.5339 -1822.6 1905.09
50.4355 -1822.43 1905.05
50.6266 -1822.48 1905.1
49.1802 -1822.73 1903.94
51.8657 -1823.61 1899.75
52.5456 -1823.56 1899.13
50.4111 -1809.97 1907.85
50.8545 -1810.27 1907.84
50.883 -1810.43 1908.01
51.5063 -1811.74 1907.66
50.2389 -1810.45 1908.83
49.9407 -1810.31 1909.17
49.9294 -1810.45 1909.21
40.3725 -1806.3 1912.32
40.5619 -1806.28 1912.8
42.0242 -1806.59 1911.91
40.3785 -1806.07 1912.81
40.6176 -1806.08 1912.82
40.1349 -1806.07 1912.81
47.2347 -1806.45 1915.53
42.2756 -1804.49 1917.96
45.4871 -1805.49 1916.67
47.3002 -1806.35 1914.24
48.7463 -1807.03 1913.99
41.9692 -1806.29 1912.79
48.9203 -1806.88 1915.21
49.6848 -1807.21 1914.61
49.8101 -1807.32 1914.52
49.6374 -1807.37 1914.15
49.5285 -1807.55 1913.79
52.0771 -1810.22 1906.3
52.4436 -1810.26 1905.75
52.7395 -1810.3 1905.32
41.67 -1805.99 1913.08
41.058 -1804.91 1916.01
52.983 -1810.42 1904.92
52.7462 -1810.72 1904.37
53.082 -1810.71 1904.55
53.1039 -1810.59 1904.72
50.2496 -1812.03 1903.49
52.0752 -1811.93 1903.97
52.4835 -1811.12 1904.2
45.6582 -1812.07 1901.66
52.9905 -1824.44 1897.37
45.4334 -1815.1 1903.68
49.853 -1814.97 1908.38
51.0481 -1813.32 1908.22
50.5658 -1815.37 1908.35
49.7923 -1815.96 1908.27
46.5433 -1815.91 1905.27
48.4362 -1816.45 1907.22
49.9691 -1810.97 1909.47
50.0162 -1810.62 1909.83
50.6251 -1810.58 1909.29
50.2192 -1810.38 1909.8
45.332 -1814.87 1903.05
83.5562 -1832.87 1926.89
106.731 -1834.56 1941.62
109.942 -1831.56 1941.87
110.027 -1832.55 1943.17
111.17 -1830.53 1942.49
111.58 -1829.85 1941.08
112.301 -1830.04 1942.84
107.107 -1829.28 1936.36
106.861 -1828.59 1937.06
106.993 -1830.23 1936.81
105.908 -1832.82 1936.29
106.554 -1832.75 1936.62
106.778 -1832.18 1936.76
106.849 -1830.12 1937.03
105.167 -1832.37 1937.11
104.977 -1832.17 1937.68
104.897 -1831 1938.22
105.972 -1829.86 1938.18
106.411 -1828.99 1937.06
106.648 -1828.66 1937.66
106.691 -1829 1938.16
105.38 -1832.77 1936.5
105.216 -1832.56 1936.83
75.8002 -1834.72 1914.9
75.4161 -1834.42 1914.93
74.8117 -1835.39 1915.31
75.1554 -1834.19 1914.85
74.9109 -1834.18 1914.57
84.6596 -1833.31 1924.14
84.3439 -1832.39 1924.37
84.6205 -1833.55 1924.49
84.2614 -1831.99 1924.07
83.6949 -1831.04 1923.89
83.7719 -1831.3 1924.09
82.0088 -1831.85 1924.48
81.6785 -1831.29 1924.57
68.6282 -1836.08 1918.28
73.3381 -1836.4 1915.21
73.6845 -1836.29 1915.1
74.5668 -1835.3 1915.24
68.4893 -1835.91 1917.95
83.6358 -1834.33 1925.44
83.7289 -1833.8 1925.36
84.1234 -1834.47 1925.05
84.1534 -1834.05 1924.98
83.5119 -1833.55 1925.21
83.0979 -1832.76 1925.56
97.1899 -1846.8 1930.31
99.4462 -1845.62 1927.38
100.735 -1844.39 1927.34
98.0842 -1846.9 1927.59
96.7735 -1848.05 1928.27
100.797 -1844.4 1927.06
97.2025 -1847.33 1928.81
82.7608 -1835.56 1942.56
83.2125 -1835.16 1942.38
83.6526 -1835.28 1942.6
82.7366 -1835.38 1942.47
83.1043 -1834.92 1942.22
105.24 -1836.79 1943.05
106.368 -1836.83 1943.46
107.999 -1836.06 1943.92
109.434 -1835.88 1944.32
111 -1832.76 1944.68
111.557 -1833.24 1944.7
111.46 -1834.2 1944.49
106.47 -1837.26 1943.58
106.108 -1837.88 1943.61
84.6157 -1826.75 1931.85
84.5619 -1826.03 1932.62
84.4947 -1826.14 1932.65
84.3655 -1827.54 1930.85
82.9237 -1819.89 1931.95
82.7614 -1819.36 1931.75
83.4417 -1823.24 1930.46
83.1041 -1822 1930.73
83.1654 -1821.82 1931.02
82.9341 -1820.91 1931.2
81.9955 -1816.94 1931.53
82.3532 -1819.22 1931.09
81.8212 -1817.07 1931.2
81.8101 -1817.79 1930.84
84.1539 -1825.61 1932.77
84.2421 -1825.77 1932.79
84.326 -1825.96 1932.81
84.0346 -1825.42 1932.74
84.121 -1825.09 1932.39
83.9834 -1824.16 1932.19
82.8832 -1819.83 1932.14
83.2841 -1824.26 1929.86
83.3177 -1823.21 1930.2
85.125 -1832.45 1928.29
85.1651 -1832.42 1928.11
84.0187 -1828.19 1928.93
84.467 -1831.24 1928.01
84.2452 -1831.36 1927.78
83.15 -1832.97 1924.55
82.8965 -1834.14 1924.34
84.441 -1832.92 1924.57
83.5507 -1834.2 1924.88
83.4326 -1833.98 1924.84
83.1217 -1830.67 1924.37
83.217 -1832.06 1925.8
83.0943 -1831.79 1925.55
96.4719 -1848.62 1930.2
96.9855 -1847.26 1931.42
96.5079 -1848.41 1929.23
96.853 -1848.04 1927.88
96.8206 -1848.13 1927.54
96.9035 -1848.1 1927.29
97.0329 -1847.94 1927.34
96.6642 -1850.38 1925.39
98.7158 -1850.93 1924.11
96.6766 -1849.68 1925.87
96.7606 -1848.4 1926.96
97.8579 -1847.94 1925.95
97.7455 -1848.26 1925.95
100.581 -1847.51 1923.79
101.067 -1847.28 1923.5
100.998 -1847.31 1923.67
100.622 -1846.4 1924.87
100.947 -1844.64 1926.9
100.929 -1844.45 1927.1
100.891 -1845.06 1926.57
100.949 -1844.35 1927.14
100.506 -1845.44 1926.02
101.057 -1844.18 1927
100.927 -1844.34 1926.86
112.499 -1832.5 1944.97
112.121 -1833.32 1944.5
111.278 -1834.93 1944.34
112.654 -1831.65 1944.73
113.557 -1830.28 1943.98
114.028 -1830.64 1944.48
114.363 -1830.27 1944.3
112.078 -1830.87 1943.59
113.737 -1829.2 1943.74
111.707 -1830.39 1940.96
112.42 -1828.75 1942.04
112.363 -1828.09 1942.28
112.254 -1827.88 1942.49
109.01 -1836.52 1944.3
107.917 -1837.39 1944.11
108.748 -1837.57 1944.44
96.5591 -1845.77 1935.25
96.5 -1846 1935.3
96.5526 -1846.05 1934.97
96.3192 -1846.54 1934.82
96.3306 -1846.59 1934.59
96.7189 -1846.15 1933.93
97.9593 -1837.93 1948.95
97.5968 -1838.07 1948.88
98.8893 -1837.67 1949.1
99.4143 -1838.08 1949.04
96.8329 -1839.56 1949.02
96.9084 -1839.48 1949.06
97.6511 -1838.35 1948.95
97.619 -1838.61 1949.01
97.6023 -1838.86 1949.07
97.4304 -1839.06 1949.09
97.0663 -1839.4 1949.11
97.3796 -1839.32 1949.15
97.2668 -1839.51 1949.16
99.5079 -1837.77 1948.89
97.4241 -1839.64 1949.1
96.6464 -1840.33 1949.04
97.0036 -1840.03 1948.91
97.0978 -1839.81 1949.05
97.8857 -1839.51 1949.11
99.1065 -1838.64 1949.01
98.4685 -1839.5 1949.18
99.9818 -1838.25 1948.73
98.2394 -1839.93 1949.22
99.123 -1839.18 1948.97
100.504 -1838.08 1948.35
99.8948 -1838.58 1948.73
99.8378 -1838.86 1948.73
100.325 -1838.9 1948.47
99.8077 -1839.09 1948.72
100.152 -1839.04 1948.57
100.346 -1839.08 1948.44
100.44 -1838.59 1948.38
100.629 -1837.23 1948.28
100.533 -1838.2 1948.31
100.599 -1837.81 1948.26
100.746 -1837.27 1948.24
100.226 -1837.78 1948.6
100.744 -1837.69 1948.14
100.824 -1837.58 1948.09
96.476 -1812 1960.13
97.6892 -1810.56 1960.87
97.4703 -1811.08 1960.62
97.9577 -1810.8 1960.44
97.9556 -1811.23 1960.02
97.7357 -1811.44 1959.99
97.5516 -1811.73 1959.91
97.3458 -1811.81 1959.94
97.6459 -1811.6 1959.94
96.8618 -1812.27 1959.85
96.4058 -1812.77 1959.78
96.3298 -1813.11 1959.66
96.7323 -1812.66 1959.88
95.1884 -1808.99 1964.65
95.9227 -1809.26 1965.69
94.0959 -1825.74 1965.63
94.0962 -1825.51 1965.45
94.0861 -1825.29 1965.37
95.1246 -1808.86 1964.73
93.7097 -1833.45 1970.74
96.6721 -1809.52 1966.79
97.8047 -1809.53 1968.82
96.9459 -1809.32 1967.53
96.4654 -1809.29 1966.73
97.2877 -1808.75 1968.93
96.0605 -1808.29 1966.87
95.6021 -1808.47 1965.96
95.206 -1808.57 1965.24
95.1063 -1808.73 1964.89
108.44 -1794.52 1973.76
107.096 -1798.2 1973.69
109.495 -1791.58 1975.12
109.923 -1791.59 1976.5
109.444 -1792.67 1976.81
108.127 -1794.62 1977.41
106.734 -1797.07 1977.11
106.455 -1797.12 1977.22
106.374 -1798.33 1976.94
106.134 -1799.35 1973.75
106.502 -1798.94 1973.84
106.219 -1800.32 1976.29
106.431 -1799.4 1976.45
106.024 -1800.04 1974.79
98.6331 -1779.99 1977.77
98.544 -1778.86 1978.29
98.5659 -1779.94 1976.04
98.2126 -1778.11 1978.44
97.6329 -1777.3 1978.41
97.8439 -1777.5 1978.43
97.7898 -1777.7 1978.11
97.4307 -1776.47 1980.15
97.2799 -1777.23 1978.09
94.4213 -1776.9 1983.1
94.6483 -1774.15 1985.6
93.0274 -1775.2 1983.78
93.2111 -1773.85 1984.3
97.6566 -1767.26 1989.73
101.055 -1762.23 1992.61
101.809 -1764.9 1993.13
99.9863 -1765.1 1992.3
84.8413 -1774.57 1980.12
85.9831 -1774.14 1979.35
87.7282 -1769.98 1979.12
88.3769 -1766.32 1980.27
88.7391 -1765.97 1980.4
90.0286 -1770.14 1978.89
89.367 -1766.67 1980.02
89.0761 -1765.91 1980.43
91.3095 -1774.63 1977.33
91.3705 -1775.59 1976.56
93.9498 -1776.69 1975.26
92.3375 -1775.81 1976.53
91.7678 -1775.63 1976.68
98.5008 -1778.87 1975.49
98.3978 -1779.52 1975.28
98.5289 -1779.26 1975.63
98.2944 -1778.46 1975.32
98.0424 -1778.13 1975.17
96.9977 -1777.6 1975.09
97.8413 -1777.78 1975.5
97.5646 -1777.64 1975.57
98.0733 -1777.96 1975.57
98.5302 -1779.46 1976.68
81.0705 -1830.71 1946.62
80.915 -1830.74 1945.8
82.2198 -1837.08 1944.02
82.1085 -1835.54 1944.71
81.9529 -1838.75 1941.87
81.6917 -1838.78 1940.47
82.9552 -1835.31 1941.5
83.1694 -1834.84 1941.66
83.2211 -1834.77 1941.5
80.9887 -1831.42 1945.54
80.9119 -1831.15 1945.34
81.231 -1832.99 1944.94
81.4758 -1834.28 1944.25
80.9142 -1832.17 1944.4
78.4757 -1827.19 1929.71
79.7349 -1827.09 1927.94
78.6286 -1827.3 1928.75
79.5195 -1827.68 1927.33
77.0135 -1828.36 1929.49
78.1537 -1828.01 1933.51
78.093 -1828.68 1933.77
77.953 -1829.24 1933.86
77.6026 -1827.64 1935.47
77.2486 -1826.02 1937.08
77.7782 -1829.75 1933.85
77.9041 -1829.63 1933.91
76.3115 -1826.68 1937.07
76.5118 -1826.53 1937.06
76.576 -1826.49 1937.31
77.0331 -1826.16 1937.49
76.7855 -1826.34 1937.55
78.2876 -1827.98 1933.65
78.5211 -1828.03 1933.77
76.0974 -1826.84 1937.2
80.4106 -1827.83 1926.64
79.6369 -1828.09 1927.13
80.0028 -1827.73 1926.91
83.0833 -1834.94 1941.82
83.2914 -1834.52 1942.01
83.5508 -1834.5 1942.26
69.7766 -1815.62 1938.54
69.5201 -1815.47 1936.33
69.2739 -1814.82 1935.82
69.1933 -1814.77 1935.32
67.2903 -1813.71 1935.58
68.7185 -1814.88 1935.03
68.6248 -1814.1 1931.42
68.6998 -1814.1 1931.11
68.437 -1814.38 1932.12
68.7454 -1815.18 1933.74
69.305 -1814.66 1933.62
69.2286 -1814.1 1932.86
68.982 -1813.73 1932.29
68.8596 -1813.77 1931.25
72.3411 -1808.34 1932.97
72.1038 -1808.39 1932.89
71.097 -1810.66 1933.04
70.8738 -1810.58 1932.38
70.7039 -1816.53 1935.16
71.0265 -1815.66 1934.7
70.9057 -1816.18 1934.96
72.0522 -1811.46 1933.74
70.5913 -1814.92 1934.41
71.624 -1811.11 1933.6
71.7693 -1811.46 1933.71
71.4821 -1810.83 1933.46
81.9186 -1830.04 1924.33
81.5839 -1830.95 1924.67
82.5521 -1833.87 1924.12
82.6874 -1833.43 1924.36
82.91 -1833.11 1924.75
82.4027 -1832.05 1924.98
83.0145 -1831.91 1925.81
82.6145 -1831.77 1925.49
82.5204 -1831.42 1925.63
82.2488 -1830.62 1925.25
73.7329 -1835.73 1913.96
73.86 -1835.6 1914.34
73.185 -1836.36 1914.86
73.1482 -1836.27 1914.59
73.3602 -1836.28 1914.75
73.53 -1836.27 1914.89
51.929 -1823.18 1905.11
51.0064 -1822.75 1904.29
51.721 -1822.71 1903.68
51.6013 -1822.96 1905.27
51.0734 -1822.28 1906.4
52.9874 -1824.51 1902.45
51.2186 -1822.73 1903.8
52.1873 -1819.58 1909.82
51.9183 -1818.91 1910.31
50.6417 -1821.97 1906.49
50.1008 -1821.51 1906.77
51.1528 -1818.09 1910.99
51.4314 -1817.96 1911.41
53.7331 -1821.7 1908.5
53.2578 -1821.27 1908.71
52.6154 -1819.83 1909.7
57.0537 -1823.2 1908.12
56.3925 -1822.84 1908.45
57.2929 -1824.36 1905.3
58.2184 -1825.26 1905.23
56.2293 -1823.51 1904.12
56.07 -1823.3 1903.41
55.9144 -1822.68 1908.42
55.5636 -1822.76 1901.74
55.4286 -1822.89 1902.68
55.575 -1822.71 1903.56
55.2787 -1822.53 1908.37
54.7951 -1822.28 1908.38
54.3724 -1821.94 1908.52
54.0316 -1821.77 1908.54
56.7791 -1819.36 1905.6
55.5202 -1816.13 1904.32
55.1083 -1815.95 1903.65
55.1285 -1815.56 1903.99
54.6753 -1821.56 1900.89
55.1536 -1818.57 1902.43
54.847 -1816.11 1903.23
58.717 -1822.42 1907.87
58.8728 -1822.2 1908.14
58.1899 -1822.44 1907.65
58.3613 -1822.53 1907.85
57.7954 -1821.94 1907.1
57.3384 -1822.07 1908.28
57.5994 -1821.54 1906.72
81.8373 -1830.9 1925.17
81.7898 -1831.02 1924.97
82.1045 -1831.17 1925.25
74.2659 -1813.17 1910.13
72.9063 -1816.49 1908.57
73.074 -1818.5 1907.69
71.3952 -1822.73 1907.73
70.5044 -1822.62 1907.38
70.5843 -1831.37 1906.8
57.9842 -1822.35 1909.11
57.4829 -1821.86 1910.03
57.9234 -1820.78 1911.31
58.3535 -1821.34 1910.22
58.5607 -1822.22 1908.2
53.1265 -1809.37 1920.95
52.8823 -1810.47 1919.75
53.4041 -1809.74 1920.56
53.3003 -1809.9 1920.11
53.4941 -1811.73 1917.59
53.4408 -1810.94 1917.32
53.5717 -1810.46 1917.21
55.1572 -1816.45 1912.28
53.6502 -1809.87 1914.42
53.6769 -1809.47 1916.09
53.5727 -1808.26 1915.46
53.4583 -1808.26 1915.06
53.5228 -1809.04 1916.4
53.3149 -1808.49 1917.09
53.4668 -1810.23 1916.95
53.5058 -1809.37 1916.72
53.4802 -1812.64 1917.71
53.5488 -1814 1918.04
53.5038 -1813.46 1917.81
53.4908 -1814.67 1918.47
53.1159 -1814.77 1918.26
52.877 -1814.92 1918.07
52.028 -1814.83 1917.95
51.4349 -1811.87 1919.05
57.5298 -1818.83 1913.03
57.0236 -1818.05 1913.38
57.5041 -1820.53 1911.36
57.1162 -1820.01 1911.53
79.3212 -1825.21 1941.43
80.2615 -1830.57 1935.43
78.869 -1829.27 1934.21
79.3009 -1829.35 1934.52
78.5522 -1828.49 1933.9
78.6435 -1829.01 1934.05
76.82 -1826.32 1939.14
76.0455 -1826.9 1937.38
78.0927 -1825.51 1940.29
78.5571 -1825.37 1940.75
84.1569 -1835.22 1942.82
85.1432 -1833.44 1943.07
85.2382 -1832.75 1943.04
84.8749 -1834.02 1943.02
84.6478 -1834.17 1942.86
84.0021 -1834.76 1942.59
83.4176 -1834.28 1941.9
80.9162 -1838.15 1938.31
79.3062 -1837.8 1936.92
81.5384 -1838.77 1939.35
81.2748 -1838.64 1938.87
81.425 -1838.87 1940.14
79.6912 -1835.83 1936.25
82.7101 -1821.16 1949.9
83.5914 -1821.29 1949.98
83.7625 -1821.71 1949.94
79.7183 -1824.89 1942.78
79.135 -1824.12 1942.75
79.6077 -1824.17 1942.72
79.8601 -1824.37 1942.57
79.5537 -1825.12 1942.08
79.6178 -1825.01 1942.22
79.9172 -1827.48 1943.19
80.1073 -1830.92 1940.65
80.3821 -1831.39 1941.81
80.1984 -1831.5 1940.55
80.5407 -1831.32 1942.87
80.7409 -1831.16 1944.28
79.7713 -1824.6 1942.27
79.7874 -1824.67 1942.19
79.7062 -1824.77 1941.91
79.6987 -1824.83 1941.78
79.6795 -1824.94 1941.76
50.4137 -1822.05 1906.14
51.4282 -1822.2 1905.52
51.3626 -1822.51 1905.24
51.468 -1821.81 1905.76
49.2197 -1822.29 1904.03
51.5173 -1822.59 1904.58
50.9091 -1822.69 1904.91
52.3189 -1823.34 1899.77
52.8425 -1823.36 1899.4
51.6723 -1822.75 1900.4
51.7754 -1810.29 1906.76
52.499 -1810.51 1906.12
52.4494 -1810.68 1906.41
52.6692 -1810.99 1906.42
50.2442 -1811.3 1908.78
50.2812 -1812.12 1909.07
52.0774 -1812.97 1907.36
52.5147 -1812.02 1906.8
52.9657 -1813.58 1907.05
52.9688 -1813.47 1907.55
50.0518 -1810.95 1908.96
49.9721 -1810.93 1909.15
40.8891 -1804.4 1918.4
42.6893 -1804.03 1919.43
44.098 -1804.32 1918.75
45.0624 -1804.9 1917.53
47.0683 -1805.7 1915.06
41.8657 -1805.88 1913.45
48.4576 -1806.08 1915.15
49.0678 -1807.07 1914.17
49.2356 -1807.6 1913.53
49.5272 -1807.03 1915.29
49.8346 -1807.23 1914.81
49.8249 -1807.17 1914.98
50.0681 -1807.33 1914.65
49.8328 -1807.43 1914.31
49.5522 -1807.62 1913.73
49.8264 -1807.5 1914.16
52.7939 -1810.48 1905.71
52.9132 -1810.37 1905.5
53.0797 -1810.46 1905.17
40.6815 -1804.74 1915.86
40.7846 -1805.06 1914.67
40.5295 -1804.71 1917.31
53.1664 -1810.7 1904.91
53.0574 -1811.12 1904.49
53.1595 -1811.22 1904.65
53.2433 -1810.9 1904.74
50.5982 -1812.58 1903.75
52.1827 -1814.02 1904.34
52.4647 -1813.5 1904.09
52.4497 -1812.92 1903.95
52.3912 -1811.95 1904.17
52.8056 -1813.06 1903.81
52.7553 -1812.81 1903.9
45.6938 -1812.74 1901.89
50.2336 -1813.04 1903.77
51.5843 -1814.41 1907.31
51.4808 -1812.39 1908.02
50.331 -1816.03 1908.06
49.5864 -1816.74 1908.21
47.8203 -1816.99 1906.86
47.2491 -1817.17 1906.39
49.9803 -1811.29 1909.42
49.9649 -1810.86 1909.89
49.911 -1811.14 1909.83
49.9589 -1811.02 1909.72
49.9796 -1810.6 1910.33
50.1733 -1810.38 1910.18
50.9864 -1810.55 1909.28
50.4527 -1810.27 1909.96
43.5109 -1814.66 1900.33
45.4065 -1814.36 1902.76
45.4812 -1815.84 1903.74
46.0947 -1816.31 1904.71
46.8261 -1816.34 1905.26
83.058 -1832.08 1925.81
111.369 -1831.59 1943.96
112.461 -1828.8 1942.16
106.821 -1828.26 1937.63
105.687 -1833.07 1936.37
106.359 -1832.8 1936.83
106.529 -1831.57 1937.22
106.738 -1830.22 1937.29
106.772 -1828.59 1937.83
105.103 -1832.65 1937.56
105.167 -1832.76 1937.28
104.903 -1832.39 1938.1
104.754 -1831.06 1938.8
105.714 -1829.96 1938.81
106.771 -1828.96 1938.73
106.953 -1828.5 1938.38
105.203 -1832.84 1937.01
105.196 -1833.12 1937.16
105.36 -1833.2 1936.76
74.3273 -1835.27 1915.02
74.0839 -1835.36 1914.7
81.9808 -1831.28 1924.97
83.2313 -1833.77 1924.72
83.211 -1833.37 1924.92
82.8546 -1832.59 1925.27
99.4021 -1845.8 1926.86
98.0636 -1847 1927.19
96.7778 -1848.18 1927.53
83.6144 -1835.01 1942.47
111.921 -1832.25 1944.84
83.6347 -1826.01 1932.29
84.3352 -1826.25 1932.93
83.6852 -1826.04 1932.96
84.034 -1828.59 1929.62
83.7847 -1826.2 1930.83
83.1677 -1825.95 1931.52
82.1824 -1816.66 1931.94
83.0541 -1822.17 1930.5
82.6069 -1820.86 1930.49
82.7737 -1820.9 1930.83
82.0425 -1818.9 1930.74
81.8798 -1816.17 1931.69
81.9779 -1816.01 1932.02
81.6595 -1817.49 1930.72
81.7169 -1816.55 1931.21
83.9191 -1825.53 1932.97
84.034 -1825.68 1932.94
84.0489 -1825.94 1933.07
84.1495 -1826.31 1933.18
83.8784 -1825.3 1932.85
83.9685 -1824.9 1932.5
83.5561 -1823.75 1932.72
82.7309 -1819.69 1932.52
82.7577 -1819.45 1932.31
82.0863 -1816.29 1932.24
82.8814 -1823.85 1929.67
83.1331 -1823.02 1930.07
83.1331 -1825.06 1929.67
82.8798 -1821.98 1930.28
84.4681 -1832.41 1927.61
84.446 -1832.11 1927.66
84.0424 -1829.54 1928.26
83.6196 -1826.71 1929.27
83.8921 -1831.19 1927.57
83.8179 -1829.74 1927.98
82.7304 -1833.92 1924.26
96.7654 -1848.24 1927.27
96.9062 -1848.23 1926.95
98.3156 -1847.4 1925.79
100.483 -1846.96 1923.8
100.885 -1846.81 1923.57
100.928 -1847.05 1923.66
100.579 -1846.2 1924.86
100.831 -1846.75 1923.75
101.001 -1844.84 1926.35
101.043 -1844.26 1926.95
101.055 -1844.88 1926.38
100.831 -1845.22 1926.11
100.443 -1845.43 1925.91
101.189 -1844.02 1926.77
101.126 -1844.09 1926.8
99.9899 -1845.47 1926.23
114.164 -1830.24 1944.33
114.448 -1829.82 1944.43
113.748 -1828.18 1944.04
112.47 -1828.33 1942.39
112.371 -1827.72 1942.55
112.398 -1827.07 1942.72
112.204 -1827.32 1942.64
96.7017 -1845.51 1934.97
96.639 -1845.73 1935.17
96.695 -1845.76 1934.89
96.3602 -1846.4 1934.76
96.8241 -1845.88 1933.9
97.8833 -1838.24 1948.96
98.4994 -1838.54 1949.15
99.1205 -1839.03 1949.29
97.165 -1839.69 1949.1
98.0224 -1838.49 1949.05
97.889 -1838.61 1949.07
97.8561 -1838.81 1949.1
97.6825 -1839.06 1949.13
97.5977 -1839.29 1949.18
97.5246 -1839.56 1949.22
97.4319 -1839.86 1949.16
97.5186 -1839.77 1949.2
96.8709 -1840.51 1949
97.3685 -1839.95 1949.14
97.9042 -1839.67 1949.22
97.845 -1839.9 1949.31
97.7807 -1839.96 1949.32
98.4193 -1839.98 1949.15
97.8219 -1839.91 1949.32
98.1455 -1839.96 1949.25
98.8214 -1839.76 1949.03
100.469 -1838.71 1948.34
98.7779 -1839.97 1949.03
99.8032 -1839.3 1948.71
99.0073 -1839.99 1948.95
100.136 -1839.28 1948.55
100.349 -1839.3 1948.41
100.537 -1838.92 1948.26
100.603 -1838.38 1948.23
100.159 -1838.2 1948.55
100.756 -1838.2 1948.1
100.97 -1837.78 1947.94
100.86 -1838.1 1948.02
97.7626 -1810.72 1960.76
97.5854 -1811.27 1960.41
98.0817 -1810.64 1960.59
98.1209 -1811.27 1959.93
97.929 -1811.41 1959.94
97.7648 -1811.65 1959.86
97.6056 -1811.86 1959.81
97.0372 -1812.45 1959.73
96.565 -1813.22 1959.5
96.8997 -1812.74 1959.73
95.9425 -1809.15 1965.9
98.0545 -1809.4 1969.15
97.019 -1808.89 1968
96.035 -1808.92 1966.35
96.4817 -1808.74 1967.23
95.762 -1808.97 1965.81
97.2023 -1808.54 1968.95
96.2005 -1808.08 1967.29
95.6989 -1808.32 1966.27
108.751 -1793.13 1973.93
107.011 -1798.09 1973.93
109.815 -1791.59 1976.4
109.831 -1790.93 1976.13
108.383 -1794.43 1977.15
109.467 -1792.54 1976.59
106.858 -1797.52 1976.67
106.568 -1798.27 1976.64
106.267 -1799.47 1975.09
106.107 -1799.85 1974.96
106.469 -1798.92 1975.06
106.467 -1799.55 1976.2
98.4571 -1778.9 1976.97
98.3797 -1778.45 1977
98.1572 -1778.1 1976.95
97.5337 -1777.6 1977.86
97.9722 -1777.85 1976.85
97.1565 -1776.26 1979.72
97.0493 -1777.26 1977.75
96.977 -1777.02 1978.26
94.6885 -1777.44 1982.52
94.9278 -1777.32 1981.81
97.3446 -1777.54 1977.54
93.3735 -1776.05 1982.96
93.748 -1776.85 1982.32
94.76 -1770.28 1986.6
92.9049 -1775.14 1980.49
92.3592 -1773.9 1981.16
91.8157 -1770.98 1981.68
92.1412 -1770.24 1983.17
93.2226 -1769.35 1984.9
95.7436 -1763.57 1988.96
98.383 -1763.83 1991.18
102.255 -1761.73 1992.89
107.874 -1761.27 1996.6
101.353 -1763.42 1992.96
99.9942 -1764.19 1992.88
84.92 -1773.92 1980.89
87.5612 -1769.52 1979.49
86.2885 -1773.23 1979.77
88.0405 -1766.24 1980.55
88.3665 -1765.88 1980.65
88.7103 -1765.66 1980.76
90.3923 -1769.97 1979.14
89.7781 -1766.65 1980.2
89.4915 -1766.06 1980.42
89.2292 -1765.68 1980.72
88.9235 -1765.52 1980.92
91.7644 -1774.36 1977.91
90.6342 -1769.66 1979.45
91.9534 -1775.24 1977.25
95.3807 -1777.02 1975.64
92.7028 -1776.03 1976.54
92.5237 -1775.8 1977.11
98.6106 -1778.98 1975.93
98.5343 -1778.63 1975.86
98.3468 -1778.26 1975.74
97.7871 -1777.67 1976.8
97.5766 -1777.57 1976.69
82.0035 -1836.75 1943.69
81.6544 -1835.58 1943.34
81.7301 -1837.59 1942.4
81.4733 -1839.2 1940.4
80.809 -1831.64 1944.19
80.7088 -1831.53 1943.69
81.1054 -1833.51 1943.63
81.2316 -1834.56 1942.77
80.7446 -1832.36 1943.31
78.2541 -1828.94 1933.84
78.3776 -1828.37 1933.77
78.1404 -1829.54 1933.94
77.729 -1827.49 1935.95
77.2944 -1825.95 1937.5
78.0391 -1829.75 1933.9
76.3091 -1826.7 1937.33
76.5721 -1826.5 1937.66
77.0282 -1826.14 1937.91
76.9719 -1826.1 1938.22
70.1582 -1817.12 1937.99
70.0405 -1817.18 1936.59
69.818 -1816.15 1935.67
69.5481 -1815.43 1935.57
69.3829 -1815.07 1935.22
69.1643 -1815.13 1934.91
69.4051 -1815.11 1934.96
68.8529 -1815.13 1934.75
67.9555 -1815.03 1933.14
66.0287 -1814.87 1932.25
68.9812 -1815.15 1933.97
69.2077 -1814.96 1933.89
70.0032 -1814.17 1933.81
69.5912 -1814.62 1933.9
69.8603 -1813.85 1933.41
71.318 -1810.71 1933.27
70.646 -1817.21 1935.36
70.5967 -1816.11 1934.97
70.2003 -1816.3 1935.25
70.324 -1816.18 1935.1
70.3628 -1815.46 1934.7
70.4928 -1814.55 1934.21
70.1448 -1814.98 1934.45
70.1716 -1814.65 1934.19
70.2505 -1814.34 1934.01
82.9335 -1833.54 1924.54
51.0672 -1822.74 1904.38
52.2669 -1822.67 1903.61
53.4886 -1822.67 1903.05
53.2352 -1822.69 1902.97
52.7114 -1822.71 1903.11
51.0426 -1822.61 1905.56
51.1404 -1822.71 1904.42
51.695 -1822.71 1903.48
52.4017 -1819.14 1910.23
51.8933 -1818.14 1911.71
52.183 -1818.88 1910.38
53.4923 -1821.34 1908.71
53.6837 -1821.38 1908.76
53.0381 -1820.61 1909.18
52.9821 -1819.51 1910.05
52.979 -1818.49 1911.4
56.569 -1822.63 1908.64
56.9941 -1823.58 1906.86
56.1764 -1823.41 1905.28
55.6382 -1822.76 1904.39
55.6838 -1822.81 1905.1
56.1381 -1822.63 1908.31
55.6987 -1822.54 1908.17
54.4311 -1822.72 1902.33
54.6902 -1823.17 1901.58
54.4159 -1822.67 1902.68
54.8383 -1822.62 1903.39
54.9357 -1822.57 1904.28
55.1911 -1822.35 1908.29
54.8789 -1822.09 1908.57
54.581 -1821.92 1908.61
54.2891 -1821.64 1908.74
54.015 -1821.53 1908.73
56.4504 -1818.79 1906.05
55.1026 -1815.19 1904.49
55.5352 -1816.17 1904.72
55.4468 -1816.08 1905.09
54.8762 -1814.85 1904.2
54.7024 -1814.98 1903.52
54.7665 -1814.82 1903.83
54.2568 -1821.45 1900.68
54.7154 -1818.39 1902.19
54.5457 -1815.94 1903.05
53.825 -1814.15 1903.7
58.5209 -1822.37 1908.01
57.7304 -1822.4 1908.71
57.6028 -1822.24 1908.53
56.8632 -1821.19 1907.9
57.1139 -1821.71 1908.09
56.6266 -1821.68 1909.38
56.4283 -1821.4 1909.12
57.0039 -1822.04 1909.39
75.4013 -1813.33 1910.62
74.1472 -1816.62 1909.05
74.7311 -1818.73 1908.12
72.5237 -1822.89 1908.18
71.1914 -1829.09 1907.76
57.8491 -1822.42 1908.94
57.4436 -1822.09 1909.79
57.1665 -1821.62 1910.1
53.3356 -1809.29 1921.29
53.7959 -1809.4 1920.34
53.8145 -1809.47 1920.81
54.4298 -1808.69 1919.9
53.3973 -1811.87 1917.37
53.2645 -1811.18 1916.95
53.3822 -1810.59 1917.03
56.4525 -1819.04 1911.92
54.7413 -1817.75 1910.65
56.1477 -1820.55 1910.35
53.3193 -1810.33 1913.75
51.7102 -1815.86 1910.82
51.6519 -1815.99 1910.9
52.9099 -1807.7 1916.45
53.0245 -1807.66 1915.57
52.8749 -1806.32 1918.26
53.1368 -1808.95 1917.08
52.9574 -1808.53 1917.63
53.1682 -1809.76 1916.78
53.3632 -1810.39 1916.84
53.1567 -1810.12 1916.79
53.128 -1809.29 1916.96
53.396 -1812.75 1917.43
53.7451 -1814.64 1918.18
53.7047 -1814.08 1917.89
53.5607 -1813.41 1917.62
53.3635 -1815.08 1918.02
51.8559 -1815.65 1917.05
56.8928 -1821.53 1909.95
56.6124 -1821.19 1910
78.9187 -1825.19 1940.94
79.414 -1825.02 1941.35
79.9915 -1830.91 1935.45
79.0011 -1829.63 1934.39
78.4831 -1828.78 1933.89
78.6233 -1829.4 1934.07
77.059 -1826.09 1939.1
76.3275 -1826.69 1937.63
77.3868 -1825.72 1939.34
78.1437 -1825.47 1940.21
78.4606 -1825.33 1940.51
80.3601 -1838.29 1938
78.7456 -1838.23 1936.75
81.486 -1839.19 1939.13
81.3703 -1839.16 1939.67
81.0451 -1838.76 1938.78
81.2408 -1839.37 1939.86
79.3546 -1835.66 1936.09
83.6324 -1821.35 1950.04
79.7299 -1827.27 1942.39
79.4391 -1825.03 1941.77
79.905 -1830.98 1939.36
80.0093 -1831.82 1939.04
80.3481 -1831.81 1941.15
80.2195 -1831.79 1940.38
80.0404 -1832.1 1938.95
80.5382 -1831.64 1942.52
79.4695 -1826.21 1941.53
79.4761 -1824.91 1941.48
52.5386 -1822.47 1906.11
52.1597 -1822.54 1905.36
49.6668 -1821.76 1904.5
50.262 -1821.05 1905.4
51.7064 -1821.54 1906.09
52.8549 -1822.27 1906.6
50.0371 -1821.56 1902.84
52.3269 -1822.75 1904.48
50.6234 -1821.2 1902.25
50.8624 -1822.09 1901.39
52.3969 -1822.74 1900.05
52.9337 -1822.71 1899.86
52.9909 -1810.72 1905.76
53.1518 -1811.04 1905.82
53.1096 -1811.39 1905.97
52.7448 -1811.27 1906.43
50.1118 -1811.79 1909.24
50.1002 -1811.47 1909.19
50.5149 -1812.67 1909.11
50.0628 -1812.21 1909.49
52.4109 -1813.35 1907.04
52.7105 -1812.48 1906.89
52.9403 -1811.7 1906.24
52.7499 -1811.88 1906.51
53.2751 -1814.33 1908.68
53.425 -1815.18 1908.75
53.0255 -1813.82 1906.86
53.0344 -1813.63 1908.39
52.8094 -1812.99 1907.65
40.6591 -1804.42 1918.43
42.8156 -1803.99 1920.13
44.0771 -1803.81 1919.79
44.3526 -1803.95 1919.46
44.801 -1804.17 1918.97
45.3999 -1804.57 1918.13
48.5448 -1806.37 1916.22
47.1249 -1804.94 1916.08
44.1941 -1805.62 1914.36
43.6518 -1805.23 1914.87
42.5136 -1805.58 1914.05
40.7805 -1805.61 1913.73
40.8362 -1805.42 1913.97
48.0685 -1805.19 1916.18
48.6381 -1805.59 1916.34
48.5583 -1806.18 1916.16
49.3289 -1807.16 1914.26
50.3072 -1807.29 1914.93
49.7919 -1807.54 1914.15
50.1046 -1807.44 1914.42
50.0152 -1807.22 1914.92
50.2285 -1807.33 1914.68
53.15 -1810.59 1905.47
53.1562 -1810.78 1905.13
40.2223 -1804.48 1915.83
40.4235 -1805.12 1914.46
40.2731 -1804.63 1917.53
53.2744 -1811.25 1905.02
52.5878 -1812.09 1904.36
52.7646 -1812.24 1904.55
53.1956 -1811.38 1904.8
52.4461 -1814.3 1904.22
51.8311 -1814.57 1904.55
51.8807 -1814.69 1904.46
53.4383 -1814.84 1903.31
53.2027 -1815.54 1903.16
52.8514 -1812.78 1904
53.7223 -1814.66 1903.3
53.181 -1813.38 1903.8
53.2118 -1813.29 1903.9
46.5384 -1813.43 1902.77
50.5467 -1813.75 1904.12
45.3219 -1813.55 1902.15
53.9041 -1820.92 1900.8
46.3095 -1816.81 1905.28
45.6558 -1818.05 1906.04
51.506 -1814.74 1906.97
51.8055 -1812.48 1907.69
52.118 -1813.23 1907.03
52.1302 -1813.81 1906.58
51.5139 -1811.07 1908.68
50.0811 -1816.37 1907.63
51.237 -1815.02 1906.84
48.5563 -1817.39 1907.67
49.3327 -1816.86 1907.5
47.3058 -1817.36 1906.57
48.1164 -1817.55 1907.44
48.0998 -1817.68 1907.52
49.9017 -1811.37 1909.6
49.9133 -1810.89 1910.22
49.7959 -1811.33 1910.1
49.8785 -1811.31 1909.78
49.7812 -1811.02 1910.51
49.8039 -1810.74 1910.81
49.8639 -1810.51 1910.96
50.1583 -1810.4 1910.56
50.4163 -1810.13 1910.55
51.0182 -1810.25 1909.91
51.3968 -1810.87 1909.48
50.7623 -1810.1 1910.03
44.1803 -1814.06 1901.13
45.6661 -1814.3 1902.88
47.8053 -1814.89 1904.29
45.7361 -1818.18 1906.12
50.8708 -1814.99 1905.55
48.705 -1816.66 1906.54
47.396 -1817.67 1906.96
46.6438 -1817.84 1906.4
47.1042 -1817.84 1906.8
105.532 -1833.38 1936.53
106.144 -1833.08 1936.99
106.281 -1831.63 1937.48
106.34 -1830.54 1937.77
106.564 -1830.13 1937.56
106.697 -1828.96 1938.13
106.867 -1828.77 1938.56
105.139 -1833.01 1937.66
105.013 -1833.01 1938.12
105.15 -1833.19 1937.51
104.818 -1832.59 1938.53
104.574 -1831.2 1939.29
106.395 -1828.93 1939.31
106.769 -1828.78 1939.1
106.95 -1828.68 1938.93
105.18 -1833.42 1937.36
105.335 -1833.64 1937.04
98.8651 -1846.39 1926.62
97.4367 -1847.67 1926.97
98.2434 -1847.02 1926.54
96.7426 -1848.28 1927.18
82.6908 -1825.88 1932.75
82.7266 -1825.89 1932.09
83.6277 -1826.23 1933.3
82.8302 -1825.93 1933.37
83.7489 -1829.42 1928.69
83.4842 -1826.36 1930.13
82.5922 -1825.83 1930.9
82.1998 -1825.76 1931.56
82.4945 -1820.92 1930.19
81.554 -1819.14 1929.82
81.6525 -1818.92 1930.14
81.757 -1818.7 1930.39
81.792 -1815.73 1931.78
81.817 -1815.63 1932.2
81.8739 -1815.77 1932.42
81.4599 -1817.25 1930.43
81.4777 -1817.76 1930.26
81.6491 -1815.79 1931.38
81.4125 -1816.39 1930.7
83.71 -1825.46 1933.12
83.8273 -1825.67 1933.13
83.7756 -1826.05 1933.4
83.901 -1826.4 1933.48
83.4718 -1826.39 1933.62
83.628 -1824.76 1932.93
83.1076 -1823.35 1933.22
82.5814 -1819.66 1932.73
82.1521 -1816.63 1932.37
81.7288 -1815.97 1932.7
82.5833 -1823.83 1929.51
82.966 -1823.02 1929.93
81.8442 -1820.15 1929.64
82.9342 -1825.06 1929.5
83.4224 -1826.5 1929.2
83.483 -1829.86 1927.95
83.7683 -1831.57 1927.35
83.762 -1831.05 1927.53
83.5511 -1829.86 1927.67
83.3455 -1828.34 1928.17
83.2262 -1826.32 1929.15
97.5695 -1847.64 1926.7
98.7 -1847.02 1925.7
100.609 -1846.55 1923.73
100.788 -1846.48 1923.69
100.521 -1846.01 1924.81
100.753 -1846.47 1923.83
101.125 -1844.16 1926.81
101.073 -1844.77 1926.24
100.476 -1845.37 1925.82
100.698 -1845.17 1925.8
101.13 -1844.63 1926.13
101.294 -1843.93 1926.44
101.245 -1843.93 1926.64
101.071 -1844.57 1926.19
100.352 -1845.46 1925.18
99.3838 -1846.19 1925.79
114.992 -1828.64 1945.11
113.962 -1827.31 1944.37
111.966 -1826.03 1942.45
96.7961 -1845.23 1935.03
96.8284 -1845.43 1934.8
96.8551 -1845.53 1934.22
98.6326 -1838.92 1949.26
99.2297 -1839.2 1949.21
98.7075 -1839.12 1949.3
98.4835 -1839.18 1949.29
98.0479 -1839.13 1949.21
97.8768 -1839.26 1949.22
97.7326 -1839.48 1949.25
97.876 -1839.77 1949.3
97.8484 -1839.85 1949.31
98.4293 -1839.99 1949.15
98.2017 -1839.9 1949.24
100.341 -1839.48 1948.39
98.745 -1840.04 1949.04
99.7055 -1839.61 1948.72
99.0396 -1840.07 1948.93
100.092 -1839.53 1948.55
100.37 -1839.65 1948.36
100.454 -1839.29 1948.26
100.347 -1839.06 1948.33
99.6547 -1839.07 1948.81
100.852 -1837.92 1948.04
101.027 -1837.94 1947.88
100.907 -1838.22 1947.97
97.8573 -1811.15 1960.37
97.8925 -1810.63 1960.8
97.6268 -1811.58 1960.15
98.2354 -1810.54 1960.68
98.2874 -1811.18 1959.9
98.13 -1811.54 1959.75
97.9524 -1811.58 1959.81
97.7789 -1811.88 1959.71
97.1562 -1812.63 1959.62
97.6142 -1812.07 1959.67
96.7814 -1813.16 1959.43
96.9145 -1813.15 1959.38
97.2331 -1812.46 1959.74
98.288 -1809.24 1969.47
96.9065 -1808.43 1968.19
97.0673 -1808.25 1968.84
108.747 -1793.23 1974.03
109.66 -1790.62 1974.92
109.324 -1791.25 1974.71
106.9 -1797.99 1975.07
108.511 -1794.18 1974.29
109.62 -1791.65 1976.11
109.803 -1790.67 1976.15
108.61 -1794.15 1976.89
107.04 -1797.68 1976.27
109.272 -1792.86 1976.41
109.482 -1791.9 1976.05
106.686 -1798.69 1976.18
96.2976 -1776.54 1978.97
96.6121 -1777.25 1977.54
95.4314 -1776.84 1980.76
97.0332 -1777.49 1977.1
93.9833 -1777.39 1982.15
94.4663 -1777.55 1981.58
93.2412 -1776.24 1980.23
93.6043 -1776.95 1980.01
92.5468 -1775.35 1978.04
92.2475 -1774.3 1978.46
91.1642 -1769.42 1980.21
91.9871 -1772.1 1981.2
97.3138 -1758.86 1990.91
99.2105 -1762.97 1991.95
100.533 -1760.51 1992.32
102.976 -1754.98 1993.64
85.4399 -1773.77 1980.97
87.519 -1769.13 1979.82
87.812 -1766.49 1980.77
86.2389 -1772.71 1980.18
87.3443 -1769.21 1980.12
88.0446 -1765.94 1980.91
88.3782 -1765.67 1980.95
88.6259 -1765.47 1981.14
90.2401 -1766.62 1980.57
89.9536 -1766.12 1980.72
89.6288 -1765.77 1980.84
89.248 -1765.49 1981.05
88.9303 -1765.4 1981.28
90.9816 -1769.97 1979.63
92.0927 -1775 1977.78
92.3964 -1775.47 1977.59
94.4047 -1777.32 1978.32
93.8391 -1777.2 1979.53
93.1498 -1776.23 1976.93
95.7903 -1777.26 1976.95
97.1978 -1777.5 1976.39
92.9989 -1776.07 1977.78
81.5307 -1836.18 1942.24
81.5084 -1838.15 1941.36
80.5672 -1832.02 1942.39
80.7172 -1833.07 1942.4
81.0184 -1834.65 1941.66
78.4238 -1829.22 1933.91
78.4919 -1829.75 1934.08
78.2815 -1829.82 1933.99
78.1334 -1829.31 1935.09
77.383 -1826.21 1937.74
77.4989 -1825.58 1939.27
77.5666 -1826.5 1938.04
70.1409 -1817.48 1935.74
69.8663 -1816.03 1935.28
70.1621 -1816.58 1935.52
69.7457 -1815.61 1935.1
69.5541 -1815.36 1935.15
69.5469 -1815.15 1935.06
69.3713 -1815.21 1934.74
69.1436 -1815.17 1934.56
69.5124 -1815.19 1934.67
69.6312 -1815.16 1934.96
68.7008 -1815.23 1934.46
67.9686 -1815.05 1932.91
66.6594 -1814.96 1932.29
69.1886 -1815.12 1934.12
69.5345 -1814.83 1934.07
69.9047 -1814.57 1934.06
70.306 -1815.88 1934.96
70.047 -1815.92 1935.08
70.0555 -1815.24 1934.74
69.8593 -1814.87 1934.37
52.3088 -1822.59 1903.84
53.3159 -1822.64 1903.68
54.161 -1822.62 1903.61
53.5362 -1822.71 1902.7
52.7724 -1822.71 1902.92
50.1168 -1816.1 1916.12
53.6215 -1821.02 1909.03
53.2528 -1820.58 1909.26
53.5056 -1819.64 1910.06
54.0956 -1818.48 1910.75
52.6878 -1817.87 1912.85
51.6847 -1817.18 1914.53
56.5088 -1822.62 1908.45
56.5689 -1823.71 1906.31
55.8345 -1823 1906.36
55.4251 -1822.57 1906.04
54.9284 -1822.52 1905.18
55.1585 -1822.44 1907.07
53.7157 -1822.71 1902.54
54.0968 -1822.58 1904.43
54.5864 -1821.96 1908.28
54.3522 -1822.31 1907.62
54.8147 -1821.79 1908.8
54.5787 -1821.73 1908.77
54.2829 -1821.43 1908.91
54.0155 -1821.32 1908.91
55.8909 -1818.77 1907.59
54.5328 -1815.78 1907.35
55.1471 -1815.42 1904.95
54.7174 -1814.67 1904.84
53.939 -1814.07 1904.55
53.9411 -1814.04 1904.28
53.9496 -1814 1904.06
53.8657 -1814.01 1903.88
53.7346 -1814.2 1903.56
53.3125 -1813.5 1903.97
57.3343 -1822.05 1909.71
57.208 -1822 1909.61
55.0549 -1818.42 1909.62
55.2366 -1818.52 1909.18
56.7718 -1821.56 1909.64
56.2098 -1821.05 1909.78
55.9886 -1820.76 1909.64
75.4345 -1817.41 1909.37
76.0123 -1812.01 1912.73
75.6337 -1818.87 1908.5
73.6308 -1822.43 1908.46
72.2465 -1831.68 1908
72.897 -1830.35 1908.86
54.0062 -1808.97 1922.08
52.5091 -1809.92 1918.9
52.954 -1809.05 1918.49
53.6818 -1808.4 1918.74
55.552 -1807.59 1919.53
54.6641 -1808.79 1920.52
53.3024 -1812.08 1917.13
53.2203 -1811.38 1916.82
53.2485 -1810.63 1916.75
54.7517 -1817.87 1910.22
53.4067 -1815.53 1910.37
52.3614 -1809.96 1913.01
51.9542 -1814.06 1910.68
52.8078 -1809.28 1917.53
52.8034 -1808.97 1917.79
52.9261 -1808.83 1917.56
52.9038 -1808.55 1917.98
53.1799 -1809.32 1919.34
52.8342 -1809.81 1916.76
52.7981 -1809.54 1917.16
53.1975 -1810.33 1916.56
52.9275 -1810.03 1916.57
53.4583 -1812.83 1917.2
53.9153 -1814.77 1918.04
53.5562 -1815.23 1917.89
53.8267 -1814.19 1917.74
53.6571 -1813.48 1917.45
52.9817 -1815.25 1917.79
52.4027 -1815.89 1916.89
56.9127 -1821.65 1909.77
79.1658 -1825.56 1940.82
78.8369 -1825.51 1940.39
79.3213 -1825.92 1941.2
80.1081 -1832.43 1935.96
79.5359 -1831.39 1935.25
79.0064 -1830.16 1934.51
77.9218 -1825.44 1939.6
78.4566 -1825.55 1940.06
80.0266 -1838.45 1937.92
78.0457 -1838.05 1936.41
81.1786 -1839.3 1939.4
81.1155 -1839.03 1938.91
81.1973 -1839.15 1939.25
81.231 -1838.98 1940.05
80.6961 -1838.91 1938.72
78.9295 -1835.98 1935.9
79.7408 -1831.33 1937.97
79.8797 -1832.36 1937.78
80.391 -1832.16 1941.19
80.2307 -1832.42 1940.11
80.1143 -1832.33 1939.33
79.9537 -1832.81 1938.28
53.4081 -1822.49 1906.31
53.0102 -1822.55 1905.39
50.0799 -1820.82 1904.78
50.4291 -1820.47 1903.59
50.6562 -1820.81 1905.65
51.6119 -1821.06 1906.29
52.9049 -1821.86 1906.87
53.786 -1822.41 1907.11
50.7563 -1820.32 1902.81
53.1844 -1822.59 1904.53
51.4352 -1820.34 1902.02
51.4932 -1816.9 1903.89
52.8311 -1821.25 1900.71
53.5288 -1820.62 1900.89
52.4022 -1817.29 1902.78
52.9165 -1816.89 1902.67
53.1882 -1811.62 1905.63
53.2571 -1810.99 1905.43
53.1713 -1811.92 1905.82
49.9714 -1811.56 1909.38
49.8965 -1811.89 1909.63
49.8266 -1811.6 1909.71
50.3044 -1813.13 1911
50.5613 -1813.18 1909.54
49.8325 -1812.5 1911.11
52.3257 -1813.85 1908.3
52.8396 -1813.47 1906.36
52.7735 -1813.24 1906.22
52.5096 -1812.41 1907.04
52.7057 -1812.57 1906.51
52.921 -1812.51 1906.16
53.5473 -1815.04 1909.78
53.2795 -1814.43 1909.45
53.4746 -1815.51 1908.46
53.7206 -1815.97 1909.9
53.05 -1813.61 1906.12
52.6832 -1812.99 1908.24
53.0027 -1813.85 1908.95
52.3698 -1812.15 1907.61
40.4523 -1804.45 1918.39
40.6109 -1804.17 1919.18
43.0483 -1804.01 1920.57
44.1672 -1803.71 1919.96
44.4462 -1803.74 1919.57
44.7973 -1803.91 1919.21
45.2358 -1804.14 1918.76
45.806 -1804.41 1918.23
49.6199 -1807.36 1914.24
46.0925 -1804.35 1916.69
43.7282 -1804.84 1915.48
41.0887 -1805.49 1914.41
40.2189 -1805.22 1914.07
48.1727 -1804.82 1917.07
48.5058 -1805.69 1917.3
48.1754 -1805.89 1917.01
50.4027 -1807.32 1914.78
53.2672 -1811.37 1905.31
39.9739 -1804.61 1915.7
52.9097 -1812.35 1904.76
53.1697 -1811.81 1905.31
52.9843 -1812.86 1904.12
53.0454 -1812.92 1904.3
52.4564 -1814.6 1904.04
51.8691 -1814.83 1904.41
51.6381 -1814.84 1904.78
51.8154 -1814.48 1904.78
51.5378 -1815.1 1904.79
53.2698 -1813.26 1904.01
49.6702 -1813.83 1904.23
48.9849 -1814.5 1904.35
51.7305 -1814.45 1904.76
51.9267 -1814.27 1904.71
52.3879 -1813.75 1906
51.8193 -1811.43 1908.43
51.8772 -1812.14 1907.73
52.0766 -1811.94 1907.6
52.4028 -1813.15 1906.6
52.4829 -1813.3 1906.14
51.9601 -1811.77 1909.44
50.839 -1815.53 1906.64
51.0908 -1815.19 1906.67
52.2362 -1814.05 1905.56
48.0736 -1817.69 1907.51
48.4202 -1817.23 1907.27
49.4212 -1816.8 1906.93
48.0776 -1817.82 1907.6
47.9597 -1817.83 1907.5
47.8626 -1817.85 1907.44
49.4691 -1811.6 1912.14
49.743 -1811.6 1910.09
49.568 -1811.86 1911.78
49.4478 -1811.37 1912.57
49.5463 -1811.14 1912.85
49.6973 -1810.9 1913.12
49.8154 -1810.3 1911.37
50.0361 -1810.28 1910.97
50.5997 -1809.97 1910.54
50.1838 -1809.98 1911.29
49.953 -1810.08 1911.46
51.7485 -1811.87 1910.23
50.7219 -1809.79 1910.52
51.3226 -1811.06 1910.52
51.7522 -1814.38 1904.97
51.0095 -1815.19 1905.9
51.9606 -1814.21 1905.11
47.7811 -1817.55 1907.15
47.2584 -1817.86 1906.95
47.5286 -1817.76 1907.11
105.671 -1833.69 1936.54
105.439 -1833.85 1936.9
105.948 -1832.65 1937.49
106.008 -1831.83 1937.75
106.11 -1830.63 1938.11
106.433 -1829.12 1938.33
106.511 -1828.67 1939.01
106.747 -1828.47 1939.12
105.102 -1833.4 1938.08
105.137 -1833.38 1937.79
104.802 -1832.9 1938.8
104.939 -1833.38 1938.63
105.129 -1833.67 1937.82
104.462 -1831.83 1939.52
105.866 -1829.07 1939.64
106.16 -1828.95 1939.53
106.656 -1828.13 1939.23
105.163 -1833.71 1937.54
105.155 -1833.99 1937.71
105.306 -1834.11 1937.35
98.1004 -1847.19 1926.48
99.1609 -1846.6 1925.54
81.7284 -1825.74 1933.02
81.8867 -1825.74 1932.32
82.7175 -1826.07 1933.72
81.9497 -1825.8 1933.67
83.2496 -1827.34 1928.74
83.2858 -1826.19 1929.69
82.6845 -1825.65 1930.05
82.0625 -1825.38 1930.91
82.3347 -1825.36 1930.24
81.7239 -1825.38 1931.69
81.1163 -1817.9 1929.62
81.323 -1817.96 1929.95
81.6585 -1815.26 1932
81.5456 -1815.06 1931.47
81.5681 -1815.02 1932.31
81.6987 -1815.5 1932.71
81.1214 -1816.97 1929.93
81.4181 -1815.63 1930.89
81.161 -1816.14 1930.28
83.5725 -1825.73 1933.44
83.3613 -1824.85 1933.35
83.4626 -1826.14 1933.84
83.6572 -1826.52 1933.78
83.1155 -1826.49 1933.97
82.3418 -1826.13 1934.03
82.9088 -1823.76 1933.62
82.6339 -1822.48 1933.58
82.3708 -1819.63 1932.89
81.7932 -1816.45 1932.8
81.51 -1815.82 1933.02
82.3759 -1823.97 1929.35
82.7592 -1823.26 1929.76
82.6854 -1822.28 1929.88
82.0309 -1820.64 1929.62
80.8192 -1817.98 1929.1
80.8391 -1819.15 1928.4
82.6703 -1824.85 1929.37
82.8673 -1825.48 1929.37
83.2952 -1829.86 1927.54
100.45 -1846.24 1924.13
100.695 -1846.18 1924.01
100.398 -1845.76 1924.88
100.456 -1845.89 1924.46
99.314 -1839.34 1949.13
99.0638 -1839.39 1949.19
98.8174 -1839.45 1949.23
98.6372 -1839.53 1949.24
98.4305 -1839.6 1949.26
98.1623 -1839.64 1949.27
97.9653 -1839.7 1949.31
98.266 -1839.85 1949.22
98.511 -1839.95 1949.12
100.065 -1839.89 1948.52
98.7947 -1839.99 1949.02
99.6884 -1839.85 1948.71
99.1835 -1840.08 1948.88
99.0347 -1840 1948.94
100.674 -1838.69 1948.09
99.5685 -1839.68 1948.82
99.7296 -1840.02 1948.69
100.923 -1838.23 1947.92
99.4238 -1839.81 1948.91
99.3242 -1839.69 1948.98
97.8299 -1811.74 1959.89
98.0591 -1811.59 1959.87
98.1025 -1811.14 1960.22
98.1326 -1810.66 1960.61
98.0106 -1811.95 1959.55
97.9451 -1811.81 1959.67
97.8264 -1812.12 1959.53
97.6665 -1812.21 1959.55
97.3017 -1812.53 1959.52
97.3817 -1812.6 1959.44
97.1094 -1813.07 1959.33
97.5258 -1812.39 1959.61
109.616 -1790.7 1975.05
109.419 -1790.97 1975.08
108.333 -1794.85 1976.53
109.101 -1792.51 1975.37
95.804 -1776.65 1978.78
95.0031 -1777.16 1980.35
90.5512 -1766.61 1981.02
90.7245 -1766.63 1981.47
85.7737 -1773.54 1981.08
87.6707 -1766.75 1980.98
87.7882 -1766.25 1981.07
87.2389 -1769.04 1980.58
86.8355 -1769.86 1981.12
88.2941 -1765.59 1981.23
87.9457 -1765.83 1981.24
88.6183 -1765.39 1981.47
90.2072 -1766.05 1981.17
89.6861 -1765.62 1981.17
89.3176 -1765.49 1981.34
88.9468 -1765.4 1981.56
94.589 -1777.51 1979.24
95.109 -1777.02 1978.9
81.3456 -1836.56 1941.28
80.5012 -1833.04 1941.36
80.7734 -1834.61 1940.56
78.7278 -1830.71 1934.48
78.42 -1830.01 1935.23
69.8668 -1815.41 1934.95
68.9671 -1815.25 1934.3
69.3084 -1815.16 1934.36
69.7352 -1815.16 1934.87
69.5575 -1815.01 1934.32
69.7623 -1815.11 1934.67
65.3683 -1814.85 1929.79
70.0977 -1815.71 1934.97
53.7285 -1820.84 1909.21
53.6258 -1820.5 1909.44
53.6697 -1819.34 1909.32
54.0514 -1818.89 1909.61
53.6843 -1818.21 1912.2
54.2886 -1818.08 1912.34
53.7808 -1817.07 1909.13
54.1902 -1817.57 1911.33
52.4734 -1815.58 1906.29
53.2439 -1817.9 1912.92
52.5575 -1816.51 1915.86
54.7009 -1822.48 1906.03
53.9931 -1822.54 1905.17
54.359 -1822.45 1906.78
54.0994 -1821.58 1908.3
52.8914 -1821.47 1907.1
54.8001 -1821.53 1908.99
54.5017 -1821.47 1908.96
54.0686 -1821.06 1909.14
54.5095 -1814.81 1905.68
53.5457 -1814.74 1908.07
53.4142 -1815.3 1909.48
54.1938 -1816.32 1909.37
53.9067 -1815.95 1909.59
53.5792 -1813.9 1905.13
53.1945 -1813.36 1904.46
53.2978 -1813.5 1904.26
53.2052 -1813.62 1904.99
53.3633 -1813.55 1904.07
53.0375 -1815.16 1910.01
75.7318 -1816.89 1910
75.4336 -1821.2 1909.45
75.0482 -1821.79 1908.91
75.93 -1813.37 1911.87
76.7528 -1809.51 1919.27
74.3164 -1822.35 1908.63
73.6903 -1830.74 1909.26
55.2696 -1808.26 1922.13
51.9266 -1810.31 1918.54
52.2486 -1809.64 1918.37
52.8085 -1809.07 1918.08
53.2256 -1808.39 1918.25
53.4261 -1807.78 1918.24
53.4318 -1809.21 1919.22
56.0925 -1807.58 1920.12
53.3354 -1812.15 1916.93
53.1261 -1810.64 1916.45
53.1869 -1811.41 1916.6
51.4157 -1813.62 1910.51
52.4398 -1814.59 1910.39
52.372 -1809.65 1917.48
52.5816 -1809.41 1917.78
53.0894 -1809.77 1919.77
52.4256 -1809.86 1917.1
52.6697 -1810.01 1916.7
52.9862 -1810.24 1916.32
52.7157 -1810.23 1916.34
53.5585 -1812.85 1917.1
53.7692 -1815.28 1917.88
54.0418 -1814.9 1917.9
52.9084 -1816.44 1916.08
53.7593 -1813.62 1917.36
53.9155 -1814.23 1917.58
79.1877 -1828.6 1938.13
79.4342 -1829.28 1938.49
78.9084 -1827.84 1938.26
79.7304 -1832 1935.54
79.3723 -1835 1935.91
78.9231 -1830.72 1935.54
79.2287 -1831.29 1935.7
78.3576 -1827.6 1937.76
80.0961 -1838.58 1938.14
79.1026 -1838.51 1937.35
