92.0771 -1981.23 2571.6 
88.2758 -1980.05 2571.63 
88.2467 -1979.8 2571.62 
91.6178 -1980.8 2571.53 
91.7067 -1980.96 2571.54 
90.7856 -1980.48 2571.35 
91.1385 -1979.98 2571.41 
90.4779 -1979.73 2571.27 
90.8981 -1980.65 2571.39 
91.7278 -1980.5 2571.59 
91.587 -1980.36 2571.57 
86.9656 -1986 2571.9 
89.899 -1984.53 2571.86 
84.256 -1987.3 2571.3 
82.8572 -1985.61 2570.64 
83.8369 -1984.1 2571.06 
82.3371 -1980.93 2570.89 
81.3842 -1979 2570.93 
85.0613 -1977.43 2572.24 
85.8253 -1977.84 2572.3 
87.3544 -1978.71 2572.06 
88.2744 -1979.6 2571.63 
94.9903 -1982.58 2572.51 
94.8746 -1982.95 2572.38 
95.0175 -1982.43 2572.73 
95.0448 -1982.27 2572.65 
94.4313 -1983.34 2572.09 
94.0084 -1983.69 2571.98 
92.9069 -1984.03 2572.04 
91.9083 -1983.97 2571.78 
92.3514 -1983.95 2571.89 
91.9132 -1981.13 2571.58 
93.286 -1980.63 2571.96 
92.5763 -1981.27 2572.14 
91.8071 -1981.15 2571.81 
94.9962 -1982.07 2572.51 
94.6656 -1981.88 2572.68 
93.5178 -1981.49 2572.5 
96.2061 -1964.38 2573.37 
96.0475 -1965.68 2573.31 
96.3833 -1966.1 2573.87 
95.3989 -1961.78 2572.36 
94.8008 -1961.65 2570.96 
94.4888 -1962.61 2570.72 
96.1782 -1967.45 2574.08 
96.1783 -1967.09 2574.01 
96.2743 -1966.59 2573.99 
91.8332 -1969.23 2570.03 
91.874 -1969.76 2570.42 
92.8458 -1968.04 2570.75 
91.9929 -1970.13 2570.83 
87.5405 -1972.51 2570.9 
86.4557 -1973.45 2571.44 
90.0787 -1971.21 2570.57 
89.3918 -1971.77 2570.66 
89.3863 -1972.08 2570.7 
89.0956 -1971.84 2570.84 
87.0433 -1971.97 2570.96 
87.1737 -1972.09 2570.92 
88.6038 -1971.47 2570.97 
88.1074 -1970.69 2571.26 
86.7428 -1971.97 2570.96 
93.3799 -1963.8 2568.64 
93.7819 -1963.91 2569.58 
91.9568 -1963.76 2567.68 
91.8714 -1961.23 2567.74 
91.9989 -1965.29 2567.56 
91.9121 -1963.53 2567.43 
92.8979 -1961.39 2568.42 
91.4286 -1961.62 2564.47 
91.7994 -1960.97 2567.29 
91.7521 -1961.07 2566.65 
91.6952 -1960.93 2566 
91.5923 -1961.07 2565.55 
91.5011 -1962.32 2564.84 
91.6811 -1962.81 2565.98 
91.8546 -1963.19 2567.12 
91.9044 -1963.81 2567.3 
94.2569 -1966.88 2571.85 
94.1 -1962.87 2569.88 
94.9436 -1961.32 2572.17 
94.6467 -1960.9 2571.25 
85.7755 -1973.6 2572.12 
85.782 -1973.37 2571.96 
85.8569 -1973.12 2571.8 
86.1435 -1972.75 2571.65 
85.7688 -1972.74 2571.17 
87.1189 -1971.24 2571.38 
86.4461 -1972.32 2571.45 
86.0009 -1972.65 2571.16 
84.3948 -1975.07 2571.12 
83.4439 -1974.36 2569.28 
85.5094 -1974.82 2571.79 
80.2789 -1978.43 2570.45 
79.6654 -1978.06 2570 
80.0466 -1971.11 2561.14 
79.253 -1971.73 2561.32 
81.4409 -1974.55 2567.42 
80.1176 -1974.92 2565.94 
79.448 -1974.97 2564.65 
79.3782 -1975.63 2565.53 
78.8806 -1974.97 2563.26 
78.1729 -1974.41 2561.73 
76.4064 -1975.55 2560.04 
77.3872 -1973.54 2560.03 
80.8783 -1970.68 2560.74 
81.1533 -1970.62 2558.78 
81.2269 -1970.63 2558.34 
81.8562 -1969.7 2557.86 
81.9349 -1969.97 2558.21 
82.7384 -1970.48 2559.03 
83.6415 -1970.15 2558.51 
82.4392 -1969.64 2557.72 
86.3084 -1974.68 2571.94 
85.9682 -1976.85 2572.24 
83.8473 -1977.18 2571.71 
86.503 -1973.7 2571.57 
81.8005 -1969.01 2556.14 
81.0916 -1968.66 2555.17 
81.8326 -1969.28 2557.25 
80.7737 -1971.18 2558.01 
80.2578 -1971.51 2557.65 
79.7922 -1971.7 2557.24 
79.6296 -1971.52 2556.63 
78.3456 -1971.16 2555.88 
77.7791 -1971.5 2555.7 
76.1445 -1970.7 2557.17 
78.2988 -1967.69 2561.76 
77.7477 -1967.54 2561.02 
75.541 -1967.84 2558.43 
74.5268 -1968.39 2556.78 
75.1395 -1971.01 2556.41 
75.8218 -1971.26 2556.41 
76.4903 -1966 2563.39 
75.3661 -1966.31 2564.34 
75.7271 -1965.79 2563.76 
75.4264 -1966.8 2564.48 
75.9201 -1967.33 2564.12 
77.2247 -1968.91 2563.65 
76.83 -1968.4 2563.91 
76.624 -1968.19 2563.47 
76.2484 -1967.74 2563.7 
76.1191 -1968.51 2562.17 
74.0483 -1967.4 2560.42 
73.994 -1967.32 2559.94 
74.4173 -1967.4 2559.75 
74.8392 -1967.44 2559.72 
73.1434 -1966.17 2557.04 
72.9731 -1966.06 2555.94 
73.7479 -1966.61 2554.81 
73.2522 -1966.42 2555.8 
74.102 -1968.71 2553.64 
74.205 -1967.38 2554.79 
74.4295 -1968.23 2554.82 
73.6568 -1966.81 2558.9 
73.454 -1966.63 2559.54 
74.2737 -1966.54 2561.5 
73.9632 -1966.44 2562.11 
73.8153 -1966.56 2561.44 
74.6825 -1966.69 2561.83 
74.9177 -1967.1 2560.95 
74.4023 -1966.38 2562.5 
73.4297 -1966.48 2557.02 
73.5016 -1966.48 2557.2 
73.5585 -1966.77 2558.14 
73.6347 -1966.82 2558.57 
72.3613 -1966.12 2558.95 
71.8883 -1966.11 2559.38 
75.8719 -1965.01 2565.36 
76.4396 -1964.48 2565.06 
77.2263 -1963.67 2564.45 
76.6759 -1964.24 2564.69 
74.689 -1965.75 2565.09 
74.3868 -1965.94 2565.09 
73.658 -1966.17 2564.26 
72.7981 -1966.32 2561.18 
73.719 -1966.35 2562.93 
67.7877 -2007.68 2615.39 
68.7343 -2004.23 2614.2 
68.9072 -2001.76 2612.67 
68.848 -2001.07 2612.93 
68.8235 -2000.73 2612.97 
68.8673 -2001.24 2612.7 
68.8926 -2001.35 2612.55 
68.0887 -2014.52 2614.98 
68.975 -2016.71 2614.8 
69.191 -2016.48 2614.2 
68.8498 -2016.72 2615.18 
67.6353 -2015.63 2616.08 
68.6162 -2016.72 2615.44 
91.8951 -1977.73 2599.23 
88.0526 -1978.06 2597.71 
86.092 -1979.37 2598.23 
85.7948 -1979.88 2597.13 
85.1055 -1980.57 2597.32 
90.5319 -1978.67 2606.12 
91.0899 -1977.88 2600.69 
69.2871 -2000.26 2613.15 
69.0076 -2000.45 2613 
69.7729 -2000.11 2613.26 
70.3779 -1999.77 2613.21 
71.3134 -1999.78 2612.74 
69.8665 -1998.81 2611.5 
69.9618 -1999.03 2611.89 
71.9454 -1999.92 2611 
70.0099 -1998.89 2611.06 
74.4679 -1999.77 2610.9 
73.983 -2000.5 2610.75 
73.5794 -2000.66 2610.94 
72.1206 -2000.31 2610.65 
74.9239 -1997.81 2608.96 
74.832 -1995.7 2607.9 
75.3216 -1995.61 2607.58 
75.8368 -1995.92 2607.16 
74.5279 -2002.35 2609.47 
75.5314 -1997.19 2611.34 
74.9657 -1996.49 2610.12 
75.7793 -1994.92 2607.71 
76.2733 -1994.47 2607.68 
77.6881 -1996.34 2611.18 
78.1682 -1994.94 2609.32 
78.0896 -1993.6 2607.44 
80.0162 -1992.99 2606.92 
81.5305 -1993.27 2608.25 
80.5379 -1992.49 2605.79 
82.1596 -1993.16 2608.68 
80.6041 -1990.75 2607.51 
79.2382 -1989.79 2609.24 
78.1102 -1989.36 2610.8 
81.0338 -1990.56 2607.02 
81.2362 -1991.1 2606.73 
77.9979 -1989.18 2611.06 
77.966 -1989.59 2610.98 
77.9793 -1989.13 2611.53 
81.7582 -1992.53 2605.5 
81.6476 -1992.36 2605.78 
81.3502 -1991.97 2606.38 
81.223 -1991.95 2606.32 
77.8633 -1988.13 2610.44 
77.9717 -1988.82 2610.55 
77.6659 -1984.89 2608.22 
78.0925 -1987.36 2609.45 
78.0983 -1985.72 2607.49 
77.8739 -1984.35 2606.06 
77.9715 -1984.83 2606.12 
77.7663 -1984.06 2606.21 
77.7545 -1983.63 2606.23 
78.5351 -1983.03 2605.24 
82.1607 -1981.31 2601.73 
88.8778 -1978.52 2605.11 
88.9472 -1977.69 2599.78 
73.8145 -1968.13 2548.75 
75.2028 -1967.41 2547.15 
73.5962 -1968.62 2550.01 
73.5354 -1968.81 2550.33 
73.4091 -1969.12 2550.92 
74.0563 -1969.18 2553.4 
73.3905 -1968.53 2549.56 
72.4833 -1964.68 2557.94 
73.0065 -1966.08 2558.6 
72.9623 -1965.75 2558.44 
73.4606 -1965.51 2557.33 
74.5394 -1956.01 2551.24 
73.5396 -1956.27 2551.39 
73.4162 -1957.35 2554.47 
74.7008 -1961.33 2556.47 
74.3721 -1956.57 2551.09 
74.1426 -1963.58 2557.36 
74.157 -1964.81 2556.97 
75.5616 -1965.58 2537.23 
76.0831 -1965.28 2535.6 
77.2514 -1964.69 2532.79 
77.3321 -1963.2 2526.16 
77.1697 -1966.35 2541.69 
77.7585 -1966.75 2543.81 
77.6621 -1966.86 2544.46 
75.7021 -1965.91 2537.91 
77.055 -1966.86 2545.13 
76.4472 -1966.99 2545.74 
71.4755 -1963.87 2522.37 
71.0289 -1964.27 2522.48 
70.4079 -1964.68 2522.8 
71.9091 -1962.38 2521.64 
71.6039 -1961.87 2521.59 
72.4121 -1963.31 2522.11 
72.7041 -1962.45 2520.06 
72.3292 -1961.95 2519.82 
77.6441 -1961.67 2521.07 
76.9619 -1963.18 2526.02 
71.1747 -1959.04 2517.17 
71.2555 -1959.23 2517.78 
70.9301 -1959.36 2519.4 
71.2684 -1959.51 2518.7 
70.9034 -1959.93 2520.41 
71.5569 -1959.3 2516.41 
71.7829 -1959.85 2515.57 
79.7137 -1957.12 2506.3 
78.734 -1960.22 2516.33 
78.7052 -1958.46 2510.58 
68.1808 -1959.39 2508.42 
69.1914 -1961.07 2509.6 
77.1019 -1955.61 2501.12 
79.247 -1955.85 2502 
71.6532 -1960.59 2514.65 
71.3046 -1961.06 2513.92 
71.5422 -1960.98 2513.13 
72.024 -1960.59 2512.76 
70.3867 -1960.43 2509.63 
72.9453 -1959.24 2510.25 
73.2418 -1959.89 2512.34 
72.9754 -1960.05 2512.72 
84.833 -1925.65 2530.27 
85.0896 -1926.1 2531.71 
84.6022 -1925.51 2530.51 
84.9375 -1926.63 2532.85 
84.7396 -1925.9 2531.67 
84.256 -1925.35 2530.66 
84.0203 -1925.26 2530.45 
87.7682 -1934.75 2546.34 
87.821 -1935.17 2546.12 
87.8627 -1935.27 2546.02 
87.825 -1934.13 2546.69 
87.8327 -1934.74 2546.43 
87.8544 -1934.36 2546.63 
87.7291 -1933.88 2546.73 
87.9518 -1934.48 2546.49 
89.1242 -1935.48 2546.5 
88.8146 -1935.54 2546.29 
88.25 -1935.42 2546.07 
87.9908 -1935.24 2546.11 
89.5115 -1946.62 2531.01 
88.1765 -1947.09 2531.33 
91.6311 -1946.45 2531.32 
90.769 -1946.91 2531.05 
91.3246 -1946.7 2531.19 
92.0597 -1946.17 2531.47 
91.8901 -1946.35 2531.39 
91.1112 -1946.5 2531.17 
90.6079 -1946.66 2531.01 
91.7555 -1946.56 2531.3 
90.0867 -1947.08 2531.23 
89.4464 -1946.28 2531.11 
89.3583 -1946.92 2531.18 
89.622 -1945.53 2531.11 
89.3421 -1945.72 2531.11 
88.9462 -1946.13 2531.13 
87.8704 -1946.4 2531.18 
88.5401 -1946.51 2531.14 
85.8588 -1946.77 2531.31 
86.6379 -1947.53 2531.44 
83.1874 -1925.01 2529.6 
83.7787 -1925.13 2530.16 
83.0155 -1924.81 2529.13 
83.5303 -1925.7 2528.43 
83.3678 -1925.28 2528.95 
83.2015 -1925.04 2529.21 
85.8974 -1931.07 2525.6 
84.9494 -1929.88 2525.13 
77.0992 -1964.94 2563.71 
78.2443 -1965.28 2563.08 
76.5933 -1965.5 2563.22 
75.9975 -1958.23 2555.37 
78.2847 -1964 2560.11 
77.7932 -1966.21 2560.86 
77.7397 -1959.26 2556.32 
79.5969 -1960.5 2557.6 
75.6591 -1957.56 2554.78 
74.6504 -1956.09 2552 
74.7611 -1955.95 2552.47 
74.9473 -1956.48 2553.64 
75.4412 -1957.66 2554.63 
74.9699 -1955.95 2501.75 
75.0114 -1956.38 2502.86 
69.7495 -1957.95 2502.31 
69.0272 -1958.65 2507.05 
69.8111 -1959.11 2506.31 
71.0831 -1957.89 2503.52 
74.2982 -1956.71 2503.62 
68.1518 -1957.75 2508.19 
77.6004 -1956.01 2502.23 
68.0745 -1958.46 2509.06 
84.7132 -1925.91 2529.17 
84.7464 -1930.05 2525.85 
84.1428 -1928.28 2526.06 
60.1287 -1897.95 2626.11 
60.9023 -1898.32 2625.63 
61.1095 -1898.48 2625.64 
61.2255 -1898.44 2625.7 
61.3466 -1898.35 2625.72 
57.9465 -1896.18 2628.68 
58.5209 -1896.93 2627.56 
58.677 -1896.5 2628.55 
58.1084 -1896.3 2629.06 
58.7854 -1896.15 2628.98 
58.8287 -1896.47 2628.44 
59.3055 -1896.7 2626.99 
59.0129 -1896.42 2628.27 
59.2224 -1896.59 2627.46 
59.7202 -1897.06 2626.47 
59.2982 -1896.84 2626.83 
60.4927 -1898 2626.5 
60.1761 -1897.9 2626.48 
60.6215 -1898.09 2626.41 
60.9915 -1898.19 2626.08 
60.709 -1898.14 2626.23 
72.6139 -1871.1 2636.15 
69.5822 -1868.44 2637.6 
73.0618 -1871.64 2636.24 
69.3514 -1881.23 2622.09 
69.5038 -1881.53 2622.35 
69.6079 -1881.84 2622.67 
69.0526 -1880.92 2622.29 
68.536 -1880.6 2621.69 
68.6414 -1880.68 2621.68 
68.8066 -1880.85 2621.64 
69.0277 -1881.02 2621.7 
78.903 -1872.59 2642.51 
79.7476 -1875.04 2642.33 
78.5239 -1871.64 2642.88 
78.4336 -1871.18 2643.39 
78.9777 -1872.05 2643.1 
75.266 -1871.64 2638.88 
76.8875 -1871.35 2641.87 
76.5687 -1871.39 2641.75 
73.8379 -1872 2637.79 
73.542 -1871.96 2637.34 
73.1322 -1871.52 2636.69 
73.2068 -1871.71 2637.18 
77.3244 -1871.28 2642.38 
77.4093 -1870.58 2643.78 
86.2581 -1980.22 2593.67 
85.038 -1980.99 2597.1 
92.8312 -1984.05 2592.79 
90.58 -1979.84 2587.98 
87.6662 -1985.06 2597.45 
91.1907 -1973.76 2588.02 
91.8388 -1974.41 2588.49 
91.8316 -1973.42 2587.37 
92.4867 -1973.31 2586.63 
92.5826 -1973.38 2585.97 
93.1336 -1973.62 2584.84 
91.8084 -1975.72 2584.75 
87.3098 -1979.68 2583.99 
87.7195 -1979.66 2584.28 
86.7676 -1979.71 2583.64 
89.1849 -1979.41 2584.37 
91.6738 -1976.14 2583.51 
88.1273 -1979.65 2584.54 
89.0795 -1979.46 2584.21 
86.2698 -1979.75 2583.14 
86.1761 -1979.7 2582.17 
86.0331 -1980.07 2582.67 
85.189 -1981.87 2596.93 
85.1232 -1981.37 2596.9 
86.8514 -1986.76 2599.28 
82.7285 -1986.16 2601.4 
82.7434 -1983.52 2600.13 
86.5872 -1980.7 2581.58 
90.2043 -1981.01 2578.41 
94.3403 -1982.09 2574.23 
95.16 -1981.75 2573.55 
95.2401 -1981.93 2573.17 
95.0278 -1981.87 2573.09 
94.5822 -1981.74 2573.02 
88.5651 -1979.36 2575.24 
91.2289 -1980.74 2573.89 
92.5657 -1981.26 2572.9 
93.3172 -1981.39 2572.78 
87.7681 -1979.62 2572.7 
90.3174 -1979.34 2571.88 
88.7415 -1979.79 2571.83 
87.9497 -1979.75 2572.27 
88.3638 -1979.79 2572 
88.4323 -1972.66 2571.51 
87.4782 -1973.23 2571.89 
89.1408 -1972.09 2570.96 
88.0723 -1979.82 2572.9 
93.2102 -1961.01 2568.56 
93.8061 -1960.56 2568.86 
94.2201 -1960.52 2569.26 
93.6137 -1961.55 2568.61 
87.4214 -1974.96 2571.79 
86.5083 -1977.17 2572.41 
86.8293 -1976.24 2572.31 
88.4959 -1979.68 2571.51 
90.0616 -1979.09 2571.19 
89.606 -1979.51 2571.24 
88.769 -1979.83 2571.44 
96.6689 -1969.36 2574.23 
96.2984 -1969.74 2573.88 
96.2486 -1968.58 2574.03 
96.3014 -1968.44 2574.17 
96.2357 -1967.85 2574.18 
92.8808 -1979.93 2571.91 
92.6208 -1980.47 2571.79 
92.5743 -1980.33 2571.8 
93.6411 -1979.3 2572.15 
93.4178 -1978.93 2572.17 
90.4833 -1971.55 2570.95 
94.5009 -1969.95 2572.43 
89.9005 -1980.95 2571.78 
88.2713 -1980.15 2571.71 
88.0439 -1980.05 2571.99 
91.6223 -1981.49 2571.53 
91.934 -1981.04 2571.57 
88.5815 -1980.09 2571.55 
88.4233 -1979.87 2571.56 
90.212 -1980.19 2571.3 
90.9617 -1979.97 2571.52 
89.9191 -1979.68 2571.23 
92.1281 -1979.49 2571.82 
92.6233 -1979.83 2571.86 
87.9084 -1986.06 2572.22 
84.4964 -1988.2 2571.59 
90.2197 -1984.71 2572 
82.63 -1988.46 2570.79 
81.8406 -1986.56 2570.05 
82.2706 -1982.98 2570.35 
81.0667 -1983.99 2569.2 
80.3918 -1981.06 2570.12 
78.4412 -1979.87 2569.78 
78.3922 -1979.35 2569.8 
94.8618 -1982.79 2572.64 
94.6243 -1983.19 2572.48 
94.9387 -1982.58 2572.94 
95.0431 -1982.32 2572.93 
95.0732 -1982.22 2572.8 
95.1102 -1982.13 2572.68 
93.8137 -1983.75 2572.2 
94.2084 -1983.51 2572.37 
92.8738 -1984.18 2572.17 
91.4786 -1981.18 2571.83 
92.2399 -1981.21 2572.47 
91.7346 -1981.14 2572.11 
95.0826 -1981.98 2572.84 
96.4986 -1965.92 2573.96 
96.4191 -1965.69 2573.7 
95.5763 -1961.59 2572.47 
94.9344 -1961.31 2570.86 
94.3742 -1961.8 2570.05 
96.3078 -1967.42 2574.25 
96.289 -1967.13 2574.17 
96.2897 -1966.81 2574.11 
96.5534 -1966.06 2574.1 
93.0579 -1968.98 2571.15 
93.7477 -1968.09 2571.65 
94.1039 -1969.34 2572.03 
95.0033 -1966.95 2572.6 
89.1947 -1971.49 2570.79 
89.2213 -1971.55 2570.77 
88.6716 -1970.97 2571.11 
86.7544 -1971.51 2571.24 
86.4929 -1971.95 2570.95 
93.7465 -1962.94 2569.03 
91.8298 -1960.89 2567.56 
91.7947 -1960.84 2567.33 
91.7572 -1960.75 2567.1 
91.2863 -1961.13 2564.18 
91.7582 -1960.77 2567.05 
91.7155 -1960.71 2566.53 
91.6186 -1960.63 2565.85 
91.3989 -1960.92 2564.78 
91.7416 -1962.27 2566.58 
91.7133 -1960.55 2566.85 
94.0592 -1961.74 2569.24 
94.947 -1961 2571.82 
94.9538 -1960.54 2570.24 
87.5924 -1972.65 2571.7 
88.2663 -1971.89 2571.31 
88.7702 -1971.21 2571.03 
80.1091 -1977.27 2569.71 
80.2885 -1976.55 2569.01 
77.9378 -1978.87 2569.4 
77.3827 -1978.56 2568.78 
80.0604 -1970.86 2560.93 
80.8007 -1970.78 2559.46 
78.8936 -1971.97 2560.66 
79.1657 -1976.64 2567.9 
79.7798 -1975.71 2566.44 
79.4633 -1975.67 2566.1 
78.9263 -1976.28 2565.11 
79.0942 -1976.22 2566.04 
78.2062 -1977.11 2563.97 
78.1742 -1976.23 2562.79 
77.9471 -1978.44 2564.37 
76.4995 -1977.93 2562.17 
75.0298 -1977.32 2559.79 
74.7844 -1977.11 2558.68 
74.6605 -1976.15 2557.89 
74.492 -1974.8 2557.05 
75.7425 -1974.26 2558.08 
77.5107 -1973.14 2558.27 
78.1771 -1972.78 2558.83 
80.5571 -1971.31 2558.2 
82.1018 -1969.57 2557.44 
82.1428 -1969.88 2557.87 
83.4041 -1970.3 2558.17 
84.921 -1969.78 2557.35 
83.2924 -1969.3 2556.7 
86.7071 -1974.49 2571.91 
80.3727 -1967.91 2552.34 
80.8255 -1968.32 2553.61 
80.097 -1967.77 2552.18 
80.5415 -1968.2 2553.51 
80.6976 -1968.57 2555.6 
80.0546 -1968 2553.47 
81.5683 -1969.17 2557.27 
80.0219 -1971.65 2557.86 
79.5042 -1971.92 2557.47 
79.2469 -1971.8 2556.79 
77.4101 -1971.77 2555.62 
75.2614 -1971.4 2555.84 
75.7163 -1967.48 2558.79 
77.4707 -1967.06 2560.6 
73.9186 -1966.61 2556.8 
73.8631 -1966.77 2556.49 
74.7932 -1970.56 2555.35 
74.5536 -1968.91 2556.32 
73.4466 -1966.39 2556.26 
73.8156 -1966.93 2556.09 
75.0537 -1966.43 2563.92 
74.9785 -1966.06 2564.28 
75.0242 -1965.9 2564.42 
75.2864 -1966.83 2563.25 
75.4657 -1967.21 2562.44 
77.2091 -1968.83 2563.44 
76.2528 -1968.54 2561.99 
75.7093 -1967.64 2561.85 
76.7633 -1968.47 2562.92 
76.0531 -1968.12 2561.64 
74.4861 -1967.56 2560.35 
74.5679 -1967.5 2559.91 
75.0382 -1967.53 2559.87 
73.1675 -1966.17 2556.29 
73.6444 -1966.8 2555.91 
73.9419 -1967.22 2555.77 
74.2475 -1967.95 2556.13 
74.1363 -1967.67 2555.91 
73.5497 -1966.62 2558.82 
73.1618 -1966.53 2560.34 
74.126 -1966.33 2562.85 
73.909 -1966.21 2563.87 
74.5532 -1966.31 2562.93 
74.6953 -1966.31 2563.28 
74.8794 -1966.69 2562.3 
75.0787 -1967.08 2561.38 
74.1932 -1966.17 2564.02 
74.455 -1966.14 2564.1 
73.3508 -1966.14 2557.45 
73.6103 -1966.42 2556.6 
73.4168 -1966.4 2558.41 
72.0422 -1966.28 2559.68 
75.031 -1965.57 2565.03 
75.2859 -1965.46 2564.89 
76.6426 -1964.69 2563.93 
75.7187 -1965.31 2564.43 
75.4593 -1965.43 2564.7 
74.2169 -1965.99 2564.81 
68.8763 -2012.47 2613.95 
69.8696 -2008 2613.2 
69.1509 -2005.21 2613.72 
69.2817 -2002.39 2612.14 
69.0349 -2002.01 2612.36 
68.8187 -2000.4 2611.81 
68.9514 -2000.01 2611.25 
69.1121 -2000.64 2611.31 
68.796 -2000.07 2611.72 
68.8119 -1999.91 2611.76 
68.7666 -1999.85 2611.94 
68.8816 -1999.74 2611.96 
68.4558 -2014.07 2614.54 
70.075 -2014.93 2613.22 
69.2992 -2017.63 2613.61 
69.0622 -2017.4 2614.69 
70.2125 -2016.56 2611.29 
68.994 -2017.07 2615.24 
67.7606 -2015.62 2616.23 
68.586 -2016.85 2615.6 
69.0194 -2017.21 2615.43 
68.809 -2016.91 2615.51 
67.8757 -2015.5 2616.37 
81.7661 -1981.79 2601.36 
81.8029 -1982.16 2600.97 
69.1846 -1999.58 2611.99 
69.5745 -1999.35 2611.99 
69.633 -1999.1 2611.72 
69.5076 -1998.98 2611.43 
69.5968 -1998.76 2611.1 
69.8516 -1998.92 2610.64 
74.1766 -2002.29 2609.56 
73.353 -2002.03 2610.19 
73.1312 -2001.59 2610.6 
72.2683 -2000.69 2610.35 
70.5102 -1998.89 2610.02 
71.3552 -2000.46 2610.21 
75.9804 -1999.07 2607.15 
76.7652 -1998.08 2605.41 
76.8999 -1994.28 2606.73 
77.5006 -1994.37 2606.1 
72.8641 -2004.69 2610.17 
71.8491 -2008.14 2611.05 
73.7073 -2005.68 2608.99 
77.5297 -1993.33 2606.56 
78.5689 -1992.88 2606.59 
79.754 -1992.99 2607.03 
79.6294 -1993.05 2607.1 
83.093 -1992.15 2606.21 
79.4711 -1987.4 2606.32 
80.7028 -1989.08 2606.03 
78.7148 -1988.56 2609.09 
78.0832 -1989.08 2610.41 
80.9145 -1989.61 2605.94 
81.0336 -1991.69 2606.31 
78.3504 -1984.6 2605.28 
78.6587 -1983.79 2604.77 
78.9646 -1984.05 2604.28 
79.6983 -1986.68 2604.58 
78.6247 -1983.4 2604.9 
75.6029 -1967.74 2546.95 
73.9733 -1968.55 2549.12 
76.8434 -1967.12 2545.48 
73.9239 -1968.83 2549.82 
73.7027 -1969.35 2550.18 
73.7297 -1969.44 2552.19 
73.4582 -1969.67 2550.97 
74.5016 -1970.35 2554.56 
73.3474 -1965.86 2557.48 
74.7299 -1965.54 2556.76 
74.3008 -1966.73 2556.94 
74.6743 -1966.69 2556.94 
74.5204 -1956.36 2551.66 
73.5588 -1957.05 2552.14 
74.2154 -1957.04 2550.99 
74.7653 -1958.35 2555.07 
74.6222 -1957.86 2554.74 
74.5548 -1957.04 2553.19 
74.2283 -1957.22 2552.98 
77.0127 -1961.73 2557.29 
74.998 -1963.81 2557.51 
77.3335 -1959.5 2556.33 
76.2855 -1965.32 2535.57 
77.2265 -1964.68 2532.71 
75.7757 -1965.65 2537.09 
77.3926 -1966.49 2541.51 
77.8392 -1966.68 2543.39 
77.9873 -1966.84 2543.94 
77.7107 -1967.01 2544.68 
76.0966 -1966.21 2538.17 
75.9065 -1965.8 2537.19 
69.3534 -1964.66 2527.84 
72.4752 -1963.63 2523.22 
70.9845 -1964.39 2523.11 
70.9562 -1964.26 2525.08 
69.481 -1965.21 2522.93 
70.1483 -1964.48 2525.39 
71.9891 -1961.65 2520.27 
71.6023 -1961.37 2520.87 
71.2752 -1960.93 2520.99 
73.692 -1962.78 2521.39 
73.1962 -1962.56 2520.28 
72.9881 -1961.64 2517.95 
74.0418 -1961.72 2518.41 
72.7295 -1961.06 2517.16 
72.4163 -1960.91 2517.9 
77.089 -1961.68 2520.96 
76.1228 -1963.33 2526.34 
76.4716 -1963.36 2526.5 
76.687 -1964.59 2531.48 
71.599 -1959.38 2517.03 
71.5993 -1959.65 2518.02 
71.2623 -1960.36 2520.19 
72.0352 -1959.6 2516.27 
72.3543 -1959.93 2515.36 
78.2945 -1957.07 2505.94 
78.0228 -1960.24 2516.03 
77.3295 -1958.59 2510.75 
68.8519 -1960.35 2508.03 
69.2613 -1960.8 2508.88 
72.1107 -1960.82 2514.1 
71.6412 -1961.04 2513.54 
72.8619 -1960.39 2514.44 
73.2933 -1960.49 2514.84 
70.2059 -1960.09 2508.34 
72.6053 -1958.21 2506.69 
74.5851 -1958.54 2509.81 
75.0003 -1959.78 2513.53 
74.206 -1960.49 2515.19 
74.8345 -1960.45 2515.33 
84.6537 -1925.61 2529.55 
84.4752 -1925.44 2529.91 
84.4186 -1925.4 2530.58 
84.3022 -1925.35 2530.12 
84.152 -1925.27 2530.31 
87.8889 -1935.11 2546.2 
87.8691 -1934.04 2546.81 
87.9231 -1934.33 2546.73 
87.901 -1934.72 2546.53 
87.957 -1935.01 2546.35 
88.0905 -1934.43 2546.67 
89.3673 -1935.39 2546.75 
89.0525 -1935.44 2546.54 
88.545 -1935.36 2546.31 
88.1911 -1935.16 2546.32 
90.0511 -1946.63 2530.91 
89.9576 -1946.9 2531 
88.9183 -1947.17 2531.25 
87.793 -1947.63 2531.46 
90.6952 -1947.11 2531.05 
90.0703 -1947.25 2531.29 
91.2455 -1946.9 2531.11 
91.5512 -1946.75 2531.2 
91.3604 -1946.97 2531.1 
90.664 -1946.96 2530.96 
89.3479 -1946.1 2531.12 
88.993 -1946.72 2531.13 
89.1042 -1947.06 2531.23 
89.484 -1947.17 2531.28 
88.75 -1946.92 2531.17 
88.2219 -1946.81 2531.16 
85.4185 -1947.09 2531.39 
87.6135 -1946.52 2531.29 
88.0763 -1947.01 2531.23 
88.6075 -1947.11 2531.23 
86.4463 -1947.93 2531.53 
83.8008 -1925.08 2529.91 
84.1278 -1925.34 2529.53 
84.114 -1925.69 2528.96 
85.6445 -1931.44 2525.41 
85.7292 -1931.34 2524.88 
85.0362 -1930.16 2524.41 
75.126 -1965.78 2564.56 
75.597 -1958.11 2554.97 
77.1384 -1965.67 2560.25 
77.6929 -1963.84 2559.68 
75.9493 -1966.74 2558.98 
75.3282 -1958.06 2554.68 
77.9863 -1962.17 2557.84 
77.9104 -1963.06 2558.68 
74.7958 -1956.79 2553.44 
76.2841 -1956.43 2503.39 
74.5562 -1957.16 2505.53 
70.8089 -1959.47 2507.5 
76.9163 -1957.23 2506.27 
84.597 -1930.32 2525.51 
83.7809 -1928.91 2525.57 
60.1989 -1898.42 2626.19 
60.5033 -1898.36 2626.04 
60.7417 -1898.3 2625.9 
60.8856 -1898.24 2625.97 
58.5521 -1897.35 2627.16 
58.5458 -1896.91 2627.34 
58.4796 -1896.6 2628.28 
58.7654 -1896.72 2627.72 
58.4787 -1896.59 2628.72 
59.037 -1896.7 2627.29 
58.7803 -1896.82 2627.28 
59.5853 -1897.25 2626.5 
59.057 -1896.89 2626.95 
60.4782 -1898.22 2626.32 
60.159 -1898.27 2626.47 
60.6521 -1898.24 2626.1 
72.7164 -1871.05 2637.01 
72.4348 -1870.84 2636.32 
72.269 -1870.66 2636.39 
72.5782 -1871.01 2639.8 
71.3305 -1869.15 2640.13 
69.4107 -1881.35 2622.09 
69.4423 -1881.64 2622.27 
69.5566 -1881.9 2622.59 
69.0244 -1881 2622.28 
68.5283 -1880.61 2621.68 
69.705 -1882.09 2622.79 
68.6915 -1880.76 2621.66 
68.8646 -1880.94 2621.62 
69.0801 -1881.1 2621.68 
80.5045 -1873.98 2644.02 
80.6823 -1872.44 2644.74 
79.4298 -1872.42 2643.36 
80.2731 -1870.86 2644.9 
79.06 -1871.22 2643.84 
80.5169 -1870.41 2645.29 
79.2097 -1870.18 2644.96 
80.4921 -1871.52 2644.8 
75.0159 -1871.76 2639.15 
76.2993 -1871.46 2641.37 
73.6869 -1872.72 2640.07 
77.054 -1871.27 2642.5 
76.4533 -1871.46 2642.09 
76.7412 -1871.41 2642.25 
73.5406 -1872.68 2639.85 
73.3681 -1872.55 2639.69 
73.2039 -1872.27 2639.57 
73.0656 -1871.97 2639.51 
77.0277 -1870.94 2643.07 
78.142 -1870.56 2644.49 
79.0322 -1870.38 2644.69 
76.2487 -1870.18 2643.8 
75.8027 -1869.78 2644.14 
76.2677 -1869.73 2644.65 
75.8624 -1869.66 2644.49 
82.0053 -1982.54 2600.67 
95.0374 -1985.65 2593.24 
96.2073 -1983.04 2589.76 
91.681 -1980.51 2588.55 
92.2512 -1973.59 2587.98 
92.8038 -1975.05 2588.84 
93.0267 -1973.98 2588.79 
92.8365 -1973.44 2587.07 
93.3875 -1973.47 2585.7 
93.5206 -1973.39 2586.42 
93.3575 -1973.85 2585.02 
92.8742 -1974.82 2583.95 
87.3966 -1979.96 2583.98 
87.041 -1979.95 2583.73 
87.8136 -1979.84 2584.2 
88.196 -1979.83 2584.43 
86.608 -1980.07 2583.42 
91.3301 -1976.8 2582.39 
88.8653 -1979.67 2584.18 
90.8805 -1977.54 2581.71 
86.172 -1980.23 2583.07 
86.2179 -1980.61 2582.12 
86.0069 -1980.62 2582.86 
86.0198 -1980.56 2582.5 
82.3555 -1982.94 2600.34 
87.9896 -1988.63 2599.69 
95.1544 -1986.24 2593.74 
83.5881 -1990.12 2602.83 
80.6801 -1986.99 2603.58 
79.397 -1984.53 2603.77 
86.1876 -1983.7 2581.76 
86.1471 -1982.94 2582.05 
88.0635 -1981.48 2580.52 
92.4999 -1981.93 2576.36 
94.3612 -1982.6 2573.96 
95.0285 -1982.14 2573.55 
95.2259 -1982.13 2573.17 
95.1906 -1982.14 2572.91 
90.4711 -1980.7 2572.92 
88.0541 -1979.91 2572.57 
90.2462 -1979.62 2571.63 
88.6618 -1979.99 2571.68 
89.044 -1980 2571.5 
88.2785 -1979.96 2571.88 
88.1201 -1980.02 2572.28 
88.7698 -1972.04 2571.21 
90.2238 -1980.66 2572.45 
94.4884 -1960.93 2569.81 
89.2089 -1979.92 2571.32 
89.7591 -1979.89 2571.26 
88.8913 -1980.07 2571.44 
96.5437 -1969.07 2574.2 
96.5674 -1969.38 2574.24 
95.4076 -1969.43 2573.18 
96.3284 -1968.09 2574.32 
96.4663 -1968.84 2574.21 
96.483 -1968.57 2574.36 
96.3196 -1967.67 2574.31 
90.0779 -1980.72 2572.06 
89.8308 -1979.93 2571.36 
88.5547 -1985.79 2572.39 
85.2501 -1988.4 2572.15 
82.6204 -1989.53 2571.09 
90.3955 -1984.92 2572.16 
88.812 -1985.74 2572.45 
81.8314 -1988.93 2570.15 
81.2275 -1986.94 2569.49 
79.8926 -1983.56 2568.47 
79.6385 -1986.62 2567.4 
79.8197 -1984.7 2568.13 
79.5014 -1981.6 2569.33 
77.5704 -1980.41 2569.04 
77.6306 -1979.95 2569.28 
77.416 -1979.51 2569.14 
94.6752 -1983.01 2572.86 
94.3185 -1983.5 2572.8 
95.0042 -1982.39 2573.22 
94.7233 -1982.8 2573.21 
93.4862 -1984.18 2572.61 
92.6508 -1984.49 2572.46 
93.8612 -1983.98 2572.74 
91.4359 -1981.13 2572.11 
91.5603 -1981.12 2572.41 
96.5969 -1965.94 2574.07 
95.9261 -1966.62 2573.48 
95.9339 -1961.31 2572.63 
95.3076 -1961.21 2571.24 
96.4111 -1967.51 2574.41 
96.3908 -1967.2 2574.32 
96.3769 -1966.9 2574.25 
94.011 -1968.77 2572.09 
95.261 -1967.45 2573.06 
95.2231 -1969.03 2573.14 
91.7031 -1960.5 2566.66 
91.1454 -1960.83 2563.92 
91.4536 -1960.71 2565.34 
91.6495 -1960.31 2566.24 
91.3789 -1960.38 2565.09 
91.6677 -1960.42 2566.54 
96.2731 -1960.52 2571.55 
77.3396 -1978.17 2568.38 
76.8851 -1979.16 2568.56 
76.5335 -1979.07 2568.02 
76.8121 -1978.62 2568.13 
80.1259 -1971.15 2559.74 
80.493 -1970.88 2559.81 
79.9947 -1971.68 2558.39 
79.9524 -1971.7 2558.12 
79.1671 -1972 2559.46 
76.8294 -1978.4 2567.87 
76.9431 -1978.16 2567.68 
78.531 -1976.93 2567.56 
79.3794 -1975.98 2566.61 
79.1452 -1976.06 2566.38 
79.2755 -1976.6 2566.06 
78.579 -1977.26 2565.11 
79.4013 -1977.81 2566.23 
79.2632 -1976.19 2566.5 
79.6058 -1976.32 2566.5 
78.4677 -1978.21 2565.07 
78.5423 -1979.26 2565.46 
79.0265 -1979 2565.9 
75.7325 -1979.98 2561.68 
77.3611 -1979.25 2564.33 
75.1723 -1978 2560.89 
73.888 -1979.2 2561.32 
73.6661 -1979.21 2560.71 
74.3708 -1977.91 2559.13 
74.1037 -1978 2557.9 
74.2208 -1977.12 2557.57 
73.9134 -1978.51 2558.47 
74.0256 -1976.35 2557.06 
74.124 -1975.54 2556.98 
72.5436 -1974.36 2555.36 
72.8178 -1973.99 2555.35 
74.5124 -1972.94 2555.55 
74.9245 -1974.26 2557.11 
76.3929 -1972.8 2556.6 
76.8054 -1972.97 2557.36 
79.1606 -1972.14 2557.88 
78.6877 -1972.27 2557.31 
79.5283 -1971.97 2558.33 
82.2464 -1969.52 2557.1 
82.346 -1970.07 2558.04 
82.3293 -1969.77 2557.49 
84.2891 -1970.12 2557.19 
85.5775 -1969.34 2556.1 
82.2898 -1968.93 2555.57 
80.0804 -1967.74 2552.46 
80.4585 -1967.83 2552.22 
80.6426 -1968.12 2552.82 
79.8556 -1967.78 2552.45 
79.8248 -1967.8 2552.21 
79.7205 -1967.65 2552.22 
80.3769 -1968.5 2556.02 
79.5548 -1967.84 2553.8 
79.0635 -1967.66 2554 
81.763 -1969.19 2557.13 
79.5279 -1971.94 2557.78 
79.2286 -1972.06 2557.44 
78.8074 -1972.05 2556.82 
77.0778 -1972 2555.55 
75.3107 -1971.51 2555.44 
74.7059 -1971.03 2554.74 
75.2455 -1967.45 2560.48 
76.5975 -1968.7 2562.03 
74.9855 -1967.72 2560.34 
75.493 -1967.81 2560.13 
75.108 -1967.66 2559.86 
76.2741 -1968.5 2561.42 
75.4335 -1967.94 2560.43 
74.4876 -1965.95 2564.78 
74.7295 -1965.91 2564.74 
70.9017 -2003.26 2611.25 
69.8618 -2003.04 2611.92 
69.4193 -2000.8 2610.93 
68.9033 -1999.49 2611.23 
69.1586 -2000.1 2610.82 
68.919 -1999.25 2610.84 
68.9573 -1999.48 2611.52 
68.8486 -1999.55 2611.39 
71.4768 -2011.21 2610.95 
68.8113 -2021.42 2612.35 
69.0495 -2018.86 2613.76 
69.0689 -2017.66 2614.88 
69.1234 -2021.84 2610.81 
70.3747 -2018.23 2609.27 
70.8998 -2014.6 2607.34 
70.7869 -2014.37 2608.09 
71.0474 -2012.23 2607.47 
72.0885 -2009.73 2609.39 
69.0788 -2017.82 2615.16 
68.6542 -2016.86 2615.73 
69.0327 -2017.24 2615.66 
68.742 -2016.8 2615.87 
69.2642 -1999.29 2611.61 
69.1005 -1999.11 2611.16 
69.3972 -1998.92 2611.21 
69.3274 -1998.79 2610.79 
69.3926 -1998.82 2610.33 
73.111 -2003.27 2609.99 
72.0393 -2001.65 2610.2 
71.8507 -2001.96 2610.41 
72.1775 -2001.29 2610.15 
70.3719 -2000.25 2610.36 
76.0078 -2001.28 2606.73 
76.2587 -2002.25 2604.04 
77.7957 -1997.73 2604.43 
76.6972 -2003.12 2603.07 
82.0288 -1992.6 2605.53 
79.0254 -1992.95 2605.5 
78.9092 -1994.08 2605.03 
71.5583 -2002.52 2610.63 
75.3442 -2003.42 2606.35 
78.7872 -1992.26 2606.31 
79.0173 -1992.12 2606.22 
78.5575 -1992.81 2606.06 
80.7231 -1988.84 2604.75 
80.5306 -1990.51 2605.02 
80.7927 -1990.35 2605.78 
80.3158 -1990.15 2605.18 
80.2776 -1991.49 2605.35 
80.789 -1992.34 2605.23 
81.0066 -1989.34 2604.33 
75.8601 -1967.97 2546.84 
77.3871 -1967.29 2545.14 
74.2112 -1968.86 2549.16 
73.5255 -1969.92 2550.23 
74.1492 -1969.26 2549.39 
74.1421 -1970.31 2553.68 
73.5342 -1970.16 2552.25 
73.4698 -1969.62 2551.57 
73.2958 -1969.84 2551.21 
74.4045 -1970.94 2554.22 
74.8419 -1964.94 2557.66 
75.1306 -1965.63 2558.09 
75.0523 -1958.12 2554.66 
75.2558 -1963.92 2557.94 
76.4272 -1965.4 2535.74 
77.1632 -1964.8 2533.73 
77.4487 -1966.67 2541.41 
77.9756 -1966.7 2543.19 
78.3594 -1966.99 2544.17 
78.5212 -1966.78 2543.48 
76.1009 -1966.35 2538.02 
76.011 -1965.87 2537.18 
67.865 -1968.2 2533.86 
70.7113 -1964.41 2528.01 
69.1357 -1965.3 2525.01 
72.5107 -1963.98 2525.87 
74.1283 -1963.57 2526.06 
74.5892 -1962.76 2522.77 
70.9986 -1964.81 2527.88 
72.044 -1960.79 2518.74 
71.6869 -1960.5 2519.25 
74.6919 -1962.25 2520.45 
75.4595 -1960.52 2515.76 
72.8313 -1960.11 2515.44 
72.4772 -1960.04 2516.2 
75.9881 -1962.39 2523.15 
75.7409 -1963.51 2526.83 
77.3263 -1960.59 2516.79 
75.6447 -1964.73 2531.58 
76.1904 -1964.69 2531.68 
77.1538 -1964.76 2533.75 
71.8898 -1959.7 2517.23 
72.171 -1959.97 2516.98 
76.2819 -1958.94 2511.58 
75.5537 -1959.43 2512.76 
75.4331 -1957.7 2507.47 
87.9726 -1934.18 2546.86 
88.2189 -1934.37 2546.86 
88.0266 -1934.71 2546.65 
88.2408 -1934.67 2546.79 
88.3255 -1935.04 2546.53 
89.5974 -1935.28 2547.03 
89.2643 -1935.34 2546.78 
88.7245 -1935.27 2546.52 
89.5872 -1947.34 2531.17 
88.4792 -1947.71 2531.44 
87.5959 -1948.1 2531.57 
86.5872 -1947.93 2531.54 
90.8513 -1947.19 2531.02 
90.0559 -1947.43 2531.35 
91.2179 -1947.17 2531.01 
90.9048 -1947.34 2531.01 
90.2605 -1947.4 2531.06 
89.4191 -1947.37 2531.36 
88.9954 -1947.2 2531.28 
85.4307 -1947.09 2531.44 
85.6247 -1947.62 2531.48 
87.6343 -1947.28 2531.33 
88.2492 -1947.41 2531.33 
88.7641 -1947.36 2531.34 
85.4371 -1931.58 2524.81 
75.3322 -1965.83 2558.66 
75.5345 -1964.79 2558.65 
59.4142 -1898.26 2626.66 
59.995 -1898.42 2626.43 
60.338 -1898.33 2626.25 
58.508 -1897.77 2626.93 
58.7647 -1897.22 2626.93 
58.8683 -1897.01 2626.97 
59.4454 -1897.49 2626.55 
72.9399 -1871.7 2639.76 
72.3777 -1870.7 2640.93 
72.3488 -1872.43 2641.9 
72.4877 -1872.73 2641.85 
72.8213 -1869.49 2642.79 
72.2602 -1869.93 2641.3 
69.3923 -1881.43 2622.03 
69.4571 -1881.97 2622.47 
69.3825 -1881.72 2622.18 
68.8267 -1881.26 2622.12 
68.6123 -1880.74 2621.66 
68.625 -1880.71 2621.66 
69.6501 -1882.28 2622.71 
68.7562 -1880.86 2621.63 
68.9152 -1881.02 2621.6 
69.1353 -1881.19 2621.67 
73.8953 -1872.71 2640.35 
74.3306 -1872.52 2640.67 
75.9426 -1871.58 2640.99 
76.0975 -1871.65 2641.94 
73.4922 -1873.45 2641.82 
73.3045 -1873.38 2641.49 
73.6459 -1873.3 2641.77 
76.7901 -1871.31 2642.58 
76.6952 -1871.06 2642.99 
76.3842 -1871.51 2642.45 
73.0659 -1873.22 2641.55 
72.7719 -1873.01 2641.68 
76.4877 -1870.61 2643.42 
77.2123 -1870.25 2644.69 
78.1788 -1870.54 2645 
78.8213 -1870.37 2645.23 
81.1752 -1869.68 2646.11 
75.9595 -1870.18 2643.72 
75.5234 -1869.46 2644.49 
75.5884 -1869.62 2644.27 
75.3923 -1869.67 2644.29 
75.6018 -1869.86 2644.03 
76.2082 -1869.83 2645.43 
75.9164 -1869.56 2645 
75.6178 -1869.33 2644.8 
97.2624 -1984.57 2590.39 
99.8195 -1981.98 2589.89 
99.4384 -1983.63 2590.26 
92.6669 -1978.63 2589.32 
97.228 -1977.65 2590.44 
99.7574 -1977.37 2590.62 
93.246 -1973.59 2588.15 
93.7813 -1974.91 2589.28 
93.8616 -1973.96 2588.9 
94.0661 -1974.7 2589.26 
93.8384 -1973.55 2587.45 
93.4872 -1974.13 2585.64 
93.4771 -1974.52 2584.9 
93.9139 -1974.27 2587.01 
93.1366 -1975.34 2584 
92.1206 -1976.23 2582.72 
87.6366 -1980.06 2584.08 
86.9719 -1980.4 2583.78 
88.1128 -1979.97 2584.32 
88.8108 -1979.79 2584.12 
86.4636 -1980.56 2583.44 
90.2115 -1978.21 2581.7 
91.7032 -1977.08 2582.39 
86.0241 -1980.93 2583.21 
85.7432 -1982.4 2583.38 
85.5514 -1982.66 2584.06 
87.9463 -1989.72 2599.99 
94.84 -1986.8 2594.45 
81.7351 -1989.75 2603.86 
83.9518 -1991.33 2603.27 
86.2089 -1985.02 2581.69 
85.6194 -1983.61 2583.55 
87.329 -1986.61 2578.62 
87.3169 -1988.2 2580.12 
88.301 -1982.43 2580.24 
86.8213 -1984.8 2580.29 
92.244 -1982.42 2576.3 
94.1441 -1983.01 2573.93 
94.6251 -1982.69 2573.5 
96.455 -1969.05 2574.25 
96.3977 -1968.28 2574.42 
96.4041 -1967.8 2574.45 
95.9699 -1968.71 2573.92 
86.1574 -1988.25 2572.84 
83.2221 -1990.3 2572.67 
83.4549 -1990.89 2573.83 
83.073 -1990.99 2573.36 
90.4905 -1985.16 2572.38 
89.144 -1985.55 2572.55 
88.7481 -1986.12 2572.72 
81.6677 -1989.52 2570.23 
80.9425 -1989.67 2568.62 
78.6752 -1985 2566.68 
78.1806 -1984.18 2566.54 
78.2843 -1982.08 2568.29 
79.6067 -1989.8 2566.79 
76.2128 -1985.38 2563.87 
77.3253 -1988.65 2564.94 
76.4059 -1981.3 2567.24 
76.1254 -1980.92 2567.14 
76.9863 -1980.11 2568.68 
76.6772 -1979.71 2568.36 
94.4406 -1983.21 2573.21 
93.9845 -1983.65 2573.38 
93.66 -1984.04 2573.2 
94.4371 -1983.02 2573.48 
93.0476 -1984.5 2573.02 
92.3914 -1984.85 2572.78 
96.648 -1966.14 2574.25 
96.5342 -1966.27 2574.03 
96.568 -1967.58 2574.57 
96.507 -1967.27 2574.48 
96.4684 -1967.01 2574.39 
94.9359 -1968.54 2573.01 
95.3333 -1967.77 2573.25 
96.4358 -1966.82 2574.11 
90.9149 -1960.26 2563.41 
91.1926 -1960.65 2564.55 
91.4493 -1960.4 2565.51 
91.4674 -1959.97 2565.77 
75.872 -1980.18 2567 
75.8086 -1979.92 2566.86 
76.3359 -1978.97 2567.51 
75.784 -1979.68 2566.65 
79.4525 -1971.99 2557.96 
75.9172 -1979.06 2566.36 
75.8633 -1979.24 2566.47 
76.6243 -1978.3 2567.1 
78.1107 -1977.11 2567.26 
79.0186 -1976.3 2566.67 
78.7981 -1976.43 2566.5 
79.8384 -1977.81 2566.7 
79.8722 -1976.85 2566.78 
78.8742 -1978 2565.7 
79.9624 -1978.85 2567.01 
79.3334 -1978.7 2566.16 
79.5696 -1979.2 2566.56 
79.8923 -1976.58 2566.96 
79.4272 -1977.07 2566.91 
80.0561 -1976.48 2567.03 
78.4557 -1979.47 2565.44 
79.2438 -1980.12 2566.4 
79.2558 -1979.69 2566.28 
76.5497 -1979.92 2563.51 
75.3947 -1981.52 2561.35 
75.4284 -1980.65 2561.12 
74.9087 -1982.32 2560.4 
74.9145 -1982.16 2560.34 
75.4684 -1978.56 2561.8 
75.564 -1979.72 2561.45 
75.4434 -1979.28 2560.71 
75.3633 -1979.74 2560.71 
77.4421 -1979.52 2564.43 
74.3843 -1979.43 2562.83 
72.9552 -1980.55 2562.48 
74.0908 -1980.1 2563.68 
72.5827 -1980.69 2561.75 
73.2093 -1979.68 2560.13 
73.6893 -1979.31 2557.43 
73.5832 -1979.74 2556.36 
73.5273 -1979.15 2555.85 
73.7305 -1977.19 2556.39 
72.9144 -1980.22 2559.35 
73.7506 -1976.11 2556.56 
72.4187 -1974.87 2555.36 
71.1315 -1973.89 2554.1 
71.429 -1973.45 2554.31 
72.3971 -1972.43 2554.02 
76.5513 -1972.1 2555.7 
74.2404 -1971.67 2554.46 
79.102 -1972.12 2557.47 
82.4019 -1969.56 2556.87 
82.4632 -1969.9 2557.51 
82.4871 -1970.08 2557.91 
83.991 -1970.1 2557.17 
85.6863 -1969.59 2556.41 
86.3744 -1969.4 2555.99 
86.0282 -1969.34 2555.94 
84.4434 -1968.94 2554.74 
84.3963 -1969 2555.14 
81.4934 -1968.57 2554.3 
80.0962 -1967.74 2552.77 
79.6895 -1967.59 2552.51 
80.582 -1967.81 2552.54 
80.5037 -1967.91 2552.14 
79.0158 -1967.64 2553.8 
79.7682 -1967.88 2552.19 
78.9737 -1967.73 2553.69 
79.6656 -1967.78 2552.14 
79.4738 -1967.56 2552.31 
79.3372 -1967.87 2554.58 
81.1674 -1969.13 2557.62 
80.0355 -1968.44 2556.56 
78.8938 -1967.69 2554.62 
78.4018 -1967.58 2555.38 
78.2041 -1967.52 2555.53 
81.9907 -1969.13 2556.72 
75.0032 -1971.69 2555.25 
74.5448 -1971.17 2554.59 
69.8358 -2000.69 2610.64 
69.3771 -1999.82 2610.54 
68.878 -1999 2610.63 
72.4288 -2016.23 2617.48 
72.2312 -2015.44 2617.34 
72.2925 -2015.71 2617.46 
68.9984 -2018.52 2614.66 
70.536 -2023.78 2608.29 
69.7159 -2020.85 2610.04 
70.4436 -2019.31 2608.96 
71.8655 -2015.16 2605.89 
71.1247 -2014.99 2606.94 
71.7392 -2010.79 2604.94 
72.4854 -2012.11 2604.16 
71.7888 -2010.49 2606.64 
72.1157 -2009.09 2604.11 
74.4348 -2005.54 2606.41 
69.2557 -2017.18 2615.87 
69.2942 -2016.99 2616.05 
69.1298 -2016.26 2616.1 
70.3072 -2000.64 2610.45 
75.6078 -2004.07 2604.18 
76.1723 -2003.8 2603.17 
78.32 -2000.68 2602.72 
81.3273 -1994.46 2603.8 
79.0722 -1995.43 2604.45 
77.7809 -2004.56 2603.27 
76.6892 -2004.85 2603.03 
80.2067 -1993.5 2604.67 
83.978 -1992.08 2605.95 
81.2275 -1991.55 2604.78 
81.1005 -1992.57 2605.03 
82.0032 -1992.02 2604.58 
75.9883 -1968.18 2546.72 
77.7813 -1967.33 2544.81 
73.6403 -1970.17 2549.48 
73.1902 -1970.1 2550.91 
74.0554 -1969.55 2549 
76.1699 -1968.32 2546.39 
73.9268 -1970.96 2553.61 
73.5028 -1971.11 2553.13 
73.164 -1970.54 2551.91 
74.1894 -1971.35 2553.99 
76.5927 -1965.49 2536.01 
77.412 -1966.83 2541.26 
78.1498 -1966.77 2542.9 
79.0148 -1966.91 2543.68 
78.9803 -1966.72 2543.01 
75.9642 -1966.5 2538.1 
76.0805 -1965.94 2537.2 
71.1455 -1966.02 2531.21 
70.6961 -1968.46 2537.84 
70.0886 -1970.66 2543.63 
74.5517 -1963.44 2526.01 
74.1209 -1966.02 2534.9 
76.1435 -1960.44 2515.79 
75.5142 -1961.9 2519.82 
75.0258 -1963.3 2525.84 
75.3948 -1962.75 2524.16 
76.3595 -1961.53 2519.15 
75.4197 -1963.64 2527.16 
75.0198 -1964.73 2531.17 
76.8419 -1960.32 2515.75 
76.4025 -1964.87 2533.61 
76.9683 -1964.78 2533.8 
88.4178 -1934.62 2546.93 
88.7155 -1934.6 2547.19 
88.8611 -1935.18 2546.7 
89.1454 -1947.78 2531.36 
88.0253 -1948.13 2531.55 
87.4338 -1948.07 2531.54 
87.5288 -1947.55 2531.39 
90.4995 -1947.48 2531.21 
89.9332 -1947.62 2531.44 
91.0094 -1947.42 2530.97 
90.5416 -1947.66 2531.25 
90.7712 -1947.71 2531.07 
89.7871 -1947.98 2531.27 
89.211 -1947.45 2531.38 
88.3267 -1947.77 2531.44 
88.992 -1947.73 2531.49 
89.1575 -1947.59 2531.44 
59.3169 -1897.75 2626.55 
59.0613 -1897.94 2626.58 
72.1976 -1872.01 2642.35 
72.2138 -1872.7 2642.56 
72.594 -1872.99 2642.26 
73.45 -1868.93 2643.41 
72.4742 -1871.33 2642.72 
69.3407 -1881.54 2621.95 
69.4017 -1882.07 2622.4 
69.3251 -1881.84 2622.11 
68.8449 -1881.86 2622.18 
68.6578 -1881.22 2621.75 
68.8666 -1881.32 2621.68 
69.173 -1881.28 2621.64 
74.7367 -1872.41 2641.16 
73.9738 -1873.26 2642.02 
74.9229 -1872.49 2641.83 
76.0729 -1871.74 2642.58 
74.841 -1872.62 2642.81 
74.8372 -1872.6 2642.42 
73.3746 -1873.53 2641.93 
73.7747 -1873.42 2642.12 
73.5369 -1873.58 2642.26 
73.1811 -1873.39 2641.92 
76.4748 -1871.33 2642.78 
76.21 -1870.77 2643.36 
76.2032 -1871.19 2643.11 
72.9198 -1873.22 2642.25 
77.4885 -1870.61 2645.36 
76.6339 -1870.14 2645.64 
78.2923 -1870.4 2645.44 
79.7399 -1869.9 2645.94 
81.4683 -1869.48 2646.42 
75.734 -1870.55 2643.68 
75.5826 -1870.12 2643.92 
75.3464 -1869.12 2644.76 
75.2764 -1869.47 2644.51 
75.3955 -1869.5 2644.44 
75.1097 -1869.8 2644.29 
75.2428 -1869.97 2644.13 
75.8427 -1869.44 2645.53 
74.7935 -1872.03 2646.75 
74.6417 -1872.45 2647.08 
76.0121 -1871.25 2647.36 
75.6881 -1869.35 2645.08 
75.5051 -1869.15 2645.2 
97.5547 -1985.2 2590.98 
97.9482 -1985.01 2590.3 
102.342 -1980.19 2590.22 
102.209 -1981.96 2590.42 
100.464 -1983.68 2590.25 
98.6425 -1985.07 2590.17 
94.0258 -1977.51 2590.28 
93.3554 -1975.97 2590.18 
96.6265 -1975.37 2591.09 
103.119 -1976.66 2590.95 
99.9998 -1975.43 2591.14 
94.1044 -1973.69 2588.43 
93.2491 -1975.27 2590.4 
94.2837 -1974.37 2589 
93.4054 -1975.42 2590.11 
94.2246 -1974.17 2588.06 
93.2903 -1975.06 2584.95 
93.3491 -1975.15 2585.83 
93.3648 -1975.66 2584.27 
93.8542 -1975.25 2587.09 
94.1786 -1974.78 2587.75 
92.4974 -1976.6 2583.28 
87.99 -1980.11 2584.2 
87.306 -1980.5 2583.98 
86.6214 -1980.98 2583.75 
88.797 -1979.86 2584.03 
89.7651 -1978.64 2581.62 
86.1764 -1981.29 2583.66 
90.9897 -1977.83 2582.01 
85.4109 -1982.91 2584.69 
85.166 -1985.6 2586.33 
84.9549 -1985.58 2586.76 
84.8436 -1985.53 2587.12 
87.3958 -1991.08 2600.07 
92.036 -1988.83 2597.11 
95.0556 -1987.15 2594.55 
82.5069 -1992.74 2604.51 
83.6614 -1991.9 2604.37 
84.6265 -1992.14 2603.15 
85.7537 -1985.56 2584.44 
87.3237 -1987.84 2580.9 
87.5036 -1987.3 2577.79 
87.6306 -1985.79 2578.62 
88.1282 -1986.41 2577.39 
87.3438 -1988.69 2579.02 
87.0626 -1989.87 2582.85 
87.0749 -1988.48 2584.13 
87.1393 -1989.14 2583.6 
88.202 -1983.45 2580.3 
89.437 -1981.99 2579.61 
89.8767 -1982.72 2577.68 
92.2651 -1983.04 2575.69 
94.2355 -1983.29 2573.65 
96.562 -1967.81 2574.6 
95.9033 -1968.06 2573.95 
85.9811 -1989.03 2573.83 
85.51 -1990.77 2576.62 
85.557 -1991.55 2577.36 
82.1425 -1991.14 2571.93 
83.7941 -1991.77 2574.89 
90.6017 -1985.33 2572.7 
89.4233 -1985.32 2572.73 
89.0455 -1985.93 2572.86 
81.5061 -1989.88 2569.99 
81.71 -1992.29 2570.69 
81.2164 -1993.46 2569.35 
80.932 -1994.93 2569.24 
79.6826 -1994.27 2567.24 
75.7629 -1984.79 2563.61 
77.0362 -1982.7 2566.58 
74.0725 -1983.73 2562.98 
77.6689 -1992.64 2565.09 
75.0603 -1985.84 2562.7 
73.9145 -1985.4 2561.49 
73.9902 -1986.02 2561.39 
74.9397 -1991.95 2562.66 
75.024 -1990.04 2562.97 
75.3343 -1987.32 2563.34 
73.9339 -1982.27 2564.1 
75.9531 -1980.56 2567.07 
73.7794 -1981.87 2564.16 
93.1939 -1984.15 2573.69 
93.4971 -1983.8 2573.91 
92.5946 -1984.6 2573.3 
92.0735 -1985 2573.05 
96.7129 -1966.28 2574.39 
96.7295 -1966.05 2574.19 
96.8825 -1967.49 2574.82 
96.9264 -1967.4 2574.73 
96.7598 -1967.25 2574.63 
96.8461 -1966.29 2574.47 
96.3078 -1967.34 2574.15 
96.715 -1966.47 2574.32 
90.6968 -1959.79 2563.08 
91.2414 -1959.62 2565.16 
91.1638 -1960.48 2564.34 
73.9189 -1981.46 2564.42 
73.6403 -1981.09 2564.02 
73.5859 -1981.31 2564.06 
74.9318 -1980.38 2565.32 
75.8589 -1979.38 2566.58 
75.2161 -1980.06 2565.62 
76.0893 -1978.79 2566.44 
75.4949 -1979.38 2565.57 
75.1174 -1979.73 2565.16 
74.9885 -1979.97 2565.1 
76.2042 -1978.67 2566.38 
77.1749 -1977.84 2566.58 
78.488 -1976.8 2566.63 
80.084 -1977.79 2567.04 
80.219 -1978.69 2567.21 
80.3284 -1977.47 2567.5 
79.812 -1979.3 2567.09 
80.1257 -1979.05 2567.34 
80.5566 -1977.96 2568.1 
80.4018 -1978.48 2567.83 
80.3815 -1979.52 2567.84 
79.9004 -1979.48 2567.43 
80.5991 -1977.54 2568.07 
78.1421 -1979.52 2565.09 
78.9635 -1980.25 2566.17 
79.6701 -1979.82 2567.01 
77.0457 -1979.96 2564.12 
76.0076 -1980.62 2562.62 
74.6317 -1983.04 2560.25 
74.9139 -1982.85 2560.95 
75.3183 -1980.99 2560.92 
74.8682 -1982.02 2560.16 
75.517 -1979.34 2560.73 
74.606 -1982.6 2559.71 
74.4867 -1983.04 2559.56 
74.6324 -1982.36 2559.55 
75.5366 -1979.32 2561.94 
74.6369 -1979.21 2562.68 
75.4435 -1980.21 2561.21 
75.1829 -1979.51 2560.02 
75.3576 -1979.17 2560.29 
75.1809 -1980.24 2560.4 
75.0487 -1979.91 2559.81 
77.797 -1979.74 2564.76 
74.9455 -1979.76 2564.76 
75.135 -1979.46 2564.53 
75.1036 -1979.57 2564.85 
73.4383 -1980.82 2563.55 
72.4437 -1981.05 2562.06 
73.8646 -1980.4 2563.8 
72.075 -1981.33 2561.07 
72.5604 -1981.06 2558.7 
73.1838 -1981.09 2556.41 
73.1126 -1981.84 2555.49 
73.0081 -1981.86 2554.93 
72.584 -1982.05 2553.16 
72.4682 -1978.78 2553.04 
73.4285 -1976.75 2555.85 
71.8962 -1981.69 2560.56 
72.2017 -1975.43 2555.08 
70.9134 -1974.35 2553.8 
70.6871 -1974.04 2553.41 
70.966 -1973.59 2553.77 
71.0203 -1973.11 2553.62 
72.0677 -1972.14 2553.28 
73.7468 -1971.61 2553.68 
82.568 -1969.79 2557.04 
82.4799 -1969.36 2556.45 
83.8769 -1970.03 2557.13 
85.7337 -1969.48 2556.19 
86.2704 -1969.34 2555.53 
85.9933 -1969.24 2555.28 
86.0739 -1969.34 2555.81 
86.1768 -1969.37 2555.87 
86.1136 -1969.31 2555.47 
84.6363 -1968.99 2554.77 
83.0892 -1968.7 2554.23 
82.7864 -1968.51 2553.38 
83.445 -1968.68 2553.85 
80.6396 -1968.02 2552.36 
79.7761 -1967.6 2552.82 
79.4156 -1967.46 2552.51 
80.2327 -1967.74 2553.09 
80.6876 -1967.85 2552.34 
78.2444 -1967.5 2555.17 
79.5421 -1967.94 2552.49 
77.7373 -1967.48 2555.8 
78.2502 -1967.67 2554.74 
79.6805 -1968 2552.07 
79.5193 -1967.75 2552.21 
79.2926 -1967.5 2552.4 
78.7767 -1967.73 2555.24 
78.3323 -1967.62 2555.76 
80.8688 -1969.08 2557.81 
81.6338 -1969.07 2556.89 
80.4726 -1968.92 2557.8 
79.0237 -1967.92 2555.78 
77.4863 -1967.45 2557.13 
77.3805 -1967.39 2557.09 
77.2684 -1967.33 2556.98 
72.2752 -2016.13 2617.27 
72.145 -2016.71 2617.19 
71.5218 -2015.26 2617.2 
71.8842 -2015.44 2617.24 
71.9652 -2015.82 2617.22 
72.0571 -2016.17 2617.1 
69.7704 -2025.94 2608.11 
70.1154 -2026.39 2607.28 
71.1996 -2021.73 2608.17 
73.2744 -2021.39 2606.28 
73.3643 -2020.33 2606.54 
71.5981 -2020.57 2608.12 
71.9736 -2019.52 2607.94 
72.3349 -2018.31 2607.21 
72.733 -2016.27 2605.63 
73.7294 -2016.22 2604.58 
73.4866 -2014.67 2603.86 
72.6997 -2008.66 2603.13 
72.7337 -2008.33 2603.15 
72.8653 -2013.15 2603.78 
75.0137 -2011.72 2601.48 
73.447 -2010.48 2602.54 
73.5114 -2008.3 2601.96 
73.7442 -2014.23 2603.58 
73.7014 -2014.58 2603.69 
72.4225 -2009.24 2605.66 
72.4283 -2008.43 2603.97 
72.5149 -2008.39 2603.66 
74.0296 -2006.75 2605.8 
74.1853 -2006.52 2603.61 
70.7485 -2016.75 2616.57 
75.1914 -2005.86 2602.59 
77.3784 -2005.2 2600.66 
80.8518 -1999.21 2601.99 
79.1741 -2003.36 2602.43 
84.2584 -1997 2601.5 
83.6084 -1992.88 2604.02 
82.4608 -1992.7 2605.07 
78.4972 -2004.69 2602.76 
79.7466 -2004.18 2603.05 
81.3135 -1992.77 2604.83 
78.1356 -1967.36 2544.54 
71.6619 -1971.62 2549.86 
73.5455 -1970.3 2548.03 
76.561 -1968.31 2545.83 
76.6199 -1968.46 2545.53 
71.8137 -1971.72 2551.69 
71.8202 -1972.02 2552.59 
76.6834 -1965.57 2536.25 
77.1468 -1966.96 2540.7 
78.1511 -1966.89 2542.56 
79.4606 -1966.72 2542.71 
79.5691 -1966.89 2543.33 
75.8279 -1966.09 2537.29 
73.5622 -1969.08 2543.37 
75.2356 -1967.96 2541.57 
69.0632 -1971.59 2544.69 
69.695 -1971.32 2544.79 
72.179 -1971.09 2546.16 
68.8977 -1971.89 2544.91 
74.0575 -1965.02 2531.61 
75.7686 -1967.39 2540.45 
74.5406 -1964.78 2531.12 
75.8763 -1965.59 2535.57 
88.7638 -1948.2 2531.55 
89.8902 -1947.77 2531.5 
89.9372 -1947.98 2531.57 
90.651 -1948 2531.19 
89.4893 -1948.34 2531.48 
89.4055 -1947.86 2531.55 
72.1611 -1872.34 2642.75 
72.2168 -1873 2642.67 
72.1474 -1872.6 2642.88 
72.307 -1872.09 2643 
72.678 -1873.04 2642.47 
73.6638 -1869.85 2643.52 
72.6398 -1871.21 2643.15 
75.0826 -1869.07 2644.65 
75.2535 -1868.78 2645.29 
77.3849 -1868.81 2649.44 
69.2826 -1881.64 2621.87 
69.3496 -1882.2 2622.35 
68.9896 -1882.5 2622.25 
69.2574 -1881.9 2622 
69.023 -1882.5 2622.27 
68.4643 -1882.06 2622.07 
69.1501 -1881.45 2621.64 
69.0293 -1881.87 2621.87 
73.9152 -1873.33 2642.64 
75.9801 -1871.75 2642.99 
74.8831 -1872.58 2643.11 
73.8986 -1873.3 2643.39 
73.2302 -1873.45 2642.26 
73.7071 -1873.52 2642.54 
73.6029 -1873.64 2642.88 
73.289 -1873.47 2642.69 
75.8271 -1871.07 2643.41 
75.6946 -1871.69 2643.28 
72.8254 -1873.13 2642.75 
73.021 -1873.29 2642.45 
76.9094 -1870.41 2646.02 
77.8163 -1870.46 2645.86 
74.9843 -1872.04 2646.72 
79.7095 -1869.86 2646.36 
81.1045 -1869.45 2646.92 
81.8219 -1869.16 2646.45 
75.41 -1870.51 2643.92 
75.2228 -1871.23 2643.66 
75.2661 -1870.19 2644.09 
73.9794 -1870.19 2643.83 
74.1493 -1870.36 2643.96 
74.1364 -1870.67 2644.04 
76.8836 -1870.15 2648.19 
76.6763 -1875.04 2651.07 
72.4944 -1873.58 2645.58 
74.9888 -1874.69 2649.37 
77.7237 -1875.35 2652.45 
76.6069 -1874.52 2650.48 
97.7415 -1985.96 2592.1 
98.524 -1985.53 2590.91 
98.7158 -1985.4 2590.47 
105.105 -1979.05 2590.61 
104.139 -1981.05 2590.51 
102.227 -1982.93 2590.32 
99.7739 -1984.97 2590.13 
99.2962 -1985.54 2590.32 
93.9786 -1975.75 2590.92 
97.6914 -1974.32 2591.31 
94.3922 -1975.05 2591.34 
95.4462 -1974.26 2591.48 
105.725 -1976.3 2591.07 
102.627 -1975.31 2591.21 
100.595 -1974.03 2591.41 
93.7415 -1975.44 2589.96 
93.3993 -1975.55 2589.81 
93.872 -1975.64 2591.33 
93.6389 -1975.52 2589.61 
93.1155 -1975.79 2584.75 
93.6873 -1976.84 2587.3 
93.8809 -1976.39 2587.88 
92.5293 -1976.76 2583.74 
93.9087 -1975.77 2589.55 
91.5683 -1977.58 2582.93 
87.7693 -1980.43 2584.12 
88.7765 -1979.93 2583.95 
