331.964 815.634 2982.87
331.541 813.759 2984.17
331.625 813.72 2983.69
331.696 813.469 2983.27
331.935 813.71 2982.46
332.264 814.07 2980.54
332.285 813.886 2980.45
332.524 813.632 2979.41
332.438 813.682 2979.67
332.415 813.835 2979.56
332.775 814.054 2978.57
366.49 808.794 2970.22
366.582 808.567 2971.74
366.806 808.067 2971.96
366.77 807.895 2972.35
367.471 809.729 2964.36
366.995 809.207 2966.1
367.222 809.304 2965.32
367.562 809.658 2964.25
366.859 809.064 2966.89
366.497 808.942 2968.27
366.495 808.777 2968.85
316.549 819.205 2954.21
315.504 819.606 2953.85
315.057 819.591 2952.25
314.905 819.45 2950.49
318.717 818.016 2954.99
316.851 819.025 2954.74
318.95 817.251 2956.52
318.379 817.141 2957.48
319.313 817.482 2955.57
318.463 818.125 2955.14
318.131 817.22 2957.82
318.39 817.323 2960.1
318.048 817.271 2958.4
314.902 819.455 2949.93
315.391 819.587 2948.61
333.027 814.608 2955.75
335.092 815.497 2956
335.207 815.731 2955.86
334.528 815.994 2955.46
333.088 816.935 2953.3
334.568 816.621 2954.65
334.996 816.378 2955.17
335.259 816.134 2955.55
335.267 815.959 2955.7
334.601 814.229 2956.42
335.547 815.278 2956.23
335.879 815.139 2956.4
335.309 815.193 2956.23
336.246 815.132 2956.46
365.596 803.895 2976.45
365.717 804.186 2976.03
366.586 807.24 2973.38
366.573 806.757 2973.66
366.022 805.999 2974.74
365.947 805.079 2975.2
365.876 804.46 2975.57
367.185 806.922 2972.45
367.127 806.548 2972.9
365.724 802.725 2975.5
366.382 803.198 2974.32
366.782 803.109 2973.48
365.756 803.786 2975.97
365.897 803.82 2975.55
366.979 802.064 2971.74
367.359 802.757 2970.43
367.322 803.014 2970.57
367.453 802.622 2970.27
366.61 801.946 2973.23
367.233 806.445 2964.14
366.832 805.809 2965.65
367.464 802.935 2970.12
367.367 803.802 2969.06
366.986 804.525 2968.04
366.7 805.264 2966.9
367.348 803.716 2969.57
366.714 805.559 2966.31
367.45 803.317 2969.93
366.765 805.837 2965.83
367.256 806.575 2963.98
257.661 853.62 3009
257.716 853.11 3007.56
258.11 852.851 3007.22
261.531 853.069 3012.35
264.603 852.804 3012.46
268.452 852.515 3013.94
292.24 837.854 3011.28
291.236 837.346 3008.66
290.59 836.814 3006.58
289.89 836.736 3004.5
290.002 836.616 3004.48
290.074 836.028 3004.06
290.985 834.991 3006.1
288.459 835.84 3000.77
288.531 835.682 3000.8
289.395 836.472 3002.7
288.896 832.797 3002.81
289.379 836.585 3002.85
286.971 831.368 2999.9
286.466 830.931 2998.84
286.254 830.51 2998.06
286.07 830.396 2997.55
285.961 830.207 2996.9
286.858 828.825 2995.03
286.135 829.83 2996.38
287.484 828.112 2994.26
288.187 827.547 2993.84
290.674 826.016 2993.17
292.602 824.945 2993.1
292.892 824.737 2992.7
293.226 824.463 2992.59
293.857 823.497 2991.88
295.546 822.555 2988.56
295.989 822.725 2987.52
296.221 822.664 2987.14
296.186 822.777 2986.38
297.896 821.403 2983.45
299.072 820.407 2979.92
298.669 820.329 2975.62
297.703 821.02 2973.89
296.676 821.529 2973.02
295.507 821.893 2971.96
292.864 821.984 2968.97
290.057 821.875 2965.16
290.125 821.588 2963.93
294.015 823.035 2990.68
294.087 822.949 2990.2
294.163 822.944 2989.78
294.259 822.908 2989.61
294.396 822.927 2989.2
294.705 822.784 2989.02
295.399 822.712 2988.32
290.07 821.327 2961.78
290.503 821.252 2961.01
291.026 821.232 2960.9
289.715 821.455 2962.43
292.36 821.328 2960.66
295.232 821.283 2962.39
302.007 821.021 2966.77
291.343 821.282 2960.55
316.638 818.889 2972.81
315.499 819.445 2966.06
318.237 817.983 2963.7
300.425 821.964 2963.86
299.401 823.519 2960.51
299.375 823.79 2959.96
299.708 823.879 2959.77
300.115 823.951 2959.53
300.721 823.879 2959.45
303.805 823.085 2961.5
303.798 823.074 2960.98
304.327 822.852 2960.66
310.553 820.878 2960.93
313.367 820.162 2962.24
315.639 819.029 2960.63
316.709 818.896 2963.02
332.632 814.251 2978.75
332.193 814.986 2981.35
332.371 814.655 2979.57
332.173 814.062 2981.39
331.89 813.975 2982.62
332.436 814.574 2979.3
332.374 813.944 2979.65
331.537 814.082 2984.25
331.893 814.738 2982.84
331.672 815.013 2983.85
331.598 814.169 2983.94
332.231 813.95 2980.91
332.238 813.989 2980.64
366.754 808.303 2971.53
366.575 808.624 2970.15
366.979 807.794 2971.69
367.144 807.232 2972.1
367.278 809.212 2965.33
367.632 809.56 2964.22
367.581 809.621 2964.24
366.837 808.886 2967.19
366.565 808.811 2968.1
366.544 808.674 2968.65
366.686 808.384 2970.15
315.97 819.416 2954.43
314.651 819.818 2953.91
314.318 819.69 2955.57
314.182 819.809 2952.17
314.131 819.653 2950.24
315.688 819.152 2955.93
316.925 818.956 2954.92
315.134 819.424 2955.71
318.611 817.448 2956.32
318.096 817.333 2957.13
317.87 817.38 2957.44
318.187 818.188 2955.37
316.451 818.168 2957.88
317.133 818.179 2960.55
316.638 818.099 2958.45
314.29 819.673 2949.64
314.022 820.023 2948.49
333.604 816.96 2953.48
335.624 815.659 2956.01
335.149 816.668 2954.8
335.544 816.342 2955.38
335.672 816.124 2955.67
335.643 815.87 2955.87
335.956 815.501 2956.22
336.263 815.439 2956.33
366.528 806.102 2973.97
367.138 806.126 2973.12
367.045 805.896 2973.38
366.596 805.314 2974.12
366.579 804.816 2974.23
366.091 804.342 2975.02
367.282 806.526 2972.41
367.235 806.3 2972.8
366.069 803.839 2975.06
366.615 804.271 2974.16
367.071 804.478 2973.44
367.15 804.58 2973.26
367.232 804.472 2973.01
366.94 803.062 2972.93
366.621 802.187 2973.33
367.018 802.329 2971.67
367.252 803.102 2970.93
367.404 803.034 2970.29
367.329 803.451 2970.56
367.393 803.409 2970.18
367.306 803.941 2969.24
366.941 804.651 2968.25
366.655 805.302 2967.12
366.643 805.505 2966.68
367.288 803.972 2969.65
367.357 803.69 2969.89
366.668 805.734 2966.28
366.722 805.958 2965.84
367.257 806.686 2963.89
255.94 853.467 3005.8
255.847 853.081 3004.75
255.746 852.844 3003.89
257.867 852.51 3005.55
256.172 852.66 3003.84
259.963 852.6 3007.97
263.652 852.459 3008.68
267.271 852.395 3011.09
269.25 852.306 3013.68
291.785 838.36 3012.07
290.861 837.576 3008.68
289.582 836.895 3004.53
289.802 836.815 3004.64
289.215 836.797 3003.06
289.283 836.657 3002.78
289.992 835.817 3003.86
288.489 835.449 3000.66
290.336 834.728 3005.05
288.343 835.963 3000.69
287.342 835.081 2998.38
287.13 835.133 2997.99
288.301 832.77 3002
286.856 831.585 2999.83
288.23 836.107 3000.71
286.39 831.139 2998.94
286.179 830.821 2998.29
286.104 830.546 2997.83
285.913 830.456 2997.3
285.872 830.31 2996.85
285.926 830.12 2996.56
286.626 829.118 2995.14
287.195 828.37 2994.15
287.58 828.068 2993.52
287.998 827.685 2993.47
289.135 826.87 2992.95
290.941 825.841 2992.71
292.368 825.07 2992.55
292.859 824.794 2992.14
292.623 824.95 2992.36
293.311 824.374 2992.1
293.094 824.624 2991.84
293.775 823.569 2991.54
295.781 822.881 2987.46
295.916 822.852 2987.17
295.875 822.983 2986.76
296.245 822.804 2985.74
297.139 822.025 2984.15
298.081 821.308 2982.34
298.792 820.786 2981.49
298.639 821.074 2980.31
298.561 821.102 2981.14
298.903 820.52 2978.71
298.391 820.775 2976.1
297.55 821.537 2975.16
296.912 821.699 2974.11
295.499 822.149 2972.78
292.961 822.302 2969.95
290.067 822.199 2966.29
289.341 822.049 2964.64
289.589 821.656 2963.31
293.929 823.15 2990.46
293.989 823.108 2989.97
294.241 823.019 2989.3
294.157 823.11 2989.28
294.058 823.122 2989.58
294.376 823.075 2988.89
294.611 822.973 2988.64
295.133 822.956 2988.05
289.626 821.491 2961.4
290.128 821.329 2961.03
289.373 821.579 2962.04
290.396 821.317 2960.62
290.835 821.317 2960.45
291.811 821.423 2960.07
292.651 821.495 2960.14
295.229 821.54 2961.6
291.311 821.415 2960.08
296.844 822.124 2961.4
298.221 823.52 2960.06
298.204 824.17 2959
297.926 824.069 2959.12
298.46 824.286 2958.78
298.828 824.32 2958.67
299.264 824.313 2958.53
299.636 824.292 2958.23
300.859 823.891 2958.88
301.457 823.668 2958.8
302.121 823.326 2958.74
304.31 822.135 2958.42
306.763 821.448 2958.87
307.338 820.824 2957.05
311.276 820.138 2958.19
313.685 819.556 2958.97
314.734 819.116 2958.3
367.158 807.257 2971.67
367.303 806.657 2972.05
367.296 809.129 2965.38
367.679 809.475 2964.24
367.191 808.993 2965.83
366.748 808.629 2967.66
366.606 808.624 2968.21
366.592 808.481 2968.74
366.802 808.036 2970.23
312.569 820.025 2955.81
311.093 820.451 2953.75
313.204 819.664 2957.89
314.302 819.329 2957.6
311.011 820.244 2951.58
310.896 820.136 2949.77
313.417 819.842 2949.71
316.149 818.974 2955.88
315.009 819.053 2957.25
316.742 818.095 2957.17
316.864 818.163 2956.77
317.648 818.077 2956.09
316.745 818.026 2957.55
312.57 820.438 2947.66
335.914 815.783 2956.01
367.247 805.764 2972.96
367.169 805.482 2973.23
367.047 804.909 2973.51
367.31 806.166 2972.38
367.278 806.04 2972.7
367.211 805.085 2973.12
367.278 804.868 2972.88
367.315 804.442 2972.67
367.163 803.231 2972.17
367.315 803.747 2971.8
367.368 804.1 2971.57
367.393 804.509 2971.4
367.336 803.823 2970.27
367.258 804.202 2969.38
366.917 804.742 2968.45
366.605 805.388 2967.27
366.587 805.588 2966.8
367.272 804.313 2969.72
367.302 803.985 2969.91
366.611 805.847 2966.36
366.672 806.08 2965.86
367.286 806.808 2963.74
255.349 855.524 3008.62
255.676 853.943 3006.33
253.154 854.506 3002.77
254.907 853.165 3003.21
253.134 854.359 3002.28
255.292 852.866 3002.83
257.321 852.411 3004.22
256.101 852.644 3003.02
258.824 852.286 3005.12
261.161 852.239 3005.75
264.498 852.087 3005.58
262.561 852.152 3004.01
267.698 852.088 3009.68
269.436 852.004 3012.25
290.959 838.624 3011.67
290.387 837.778 3008.65
289.369 836.971 3004.49
287.841 836.394 3000.8
287.87 836.274 3000.55
288.069 836.229 3000.67
289.811 835.639 3003.49
288.515 835.229 3000.7
287.527 834.935 2998.75
289.981 834.775 3004.39
288.21 833.009 3001.83
286.959 835.327 2997.97
287.31 834.745 2998.07
287.111 834.831 2997.52
286.873 834.952 2997.06
286.965 834.902 2997.19
286.554 831.584 2999.4
286.812 835.547 2998.09
286.159 831.201 2998.61
286.095 830.822 2998.11
285.846 830.607 2997.4
285.897 830.763 2997.64
285.81 830.434 2996.93
285.851 830.227 2996.49
286 829.965 2996.22
286.549 829.21 2995
287.108 828.517 2993.82
287.603 828.132 2993.17
288.332 827.501 2992.89
289.228 826.832 2992.6
291.01 825.836 2992.4
292.434 825.091 2992.2
292.629 825.011 2991.93
292.906 824.818 2991.72
293.3 824.362 2991.71
293.205 824.526 2991.47
293.685 823.668 2991.18
295.748 823.003 2987.12
295.55 823.085 2987.33
295.736 823.137 2986.72
295.63 823.149 2987.05
296.024 823.027 2985.82
296.942 822.321 2983.49
297.081 822.126 2983.62
297.836 821.642 2981.98
298.264 821.584 2980.73
298.005 822.152 2979.93
298.252 821.685 2979.14
298.207 821.43 2977.44
297.503 822.082 2976.58
296.708 822.497 2975.59
295.987 822.342 2974.01
294.214 822.602 2972
291.121 822.655 2968.62
289.874 822.451 2966.73
289.063 822.498 2965.62
288.815 822.295 2964.42
289.188 821.796 2962.95
293.836 823.288 2990.32
293.853 823.345 2989.91
293.985 823.25 2989.59
294.322 823.194 2988.71
294.178 823.182 2989.09
294.151 823.23 2989.07
294.068 823.279 2989.2
294.486 823.174 2988.36
294.889 823.223 2987.78
289.267 821.647 2961.48
289.85 821.425 2960.79
289.572 821.548 2960.93
290.037 821.398 2960.46
289.043 821.765 2962.1
290.466 821.418 2960.23
290.864 821.468 2960.01
291.938 821.602 2959.64
292.994 821.676 2959.87
291.301 821.561 2959.7
295.822 822.459 2960.24
295.515 822.767 2959.65
297.439 823.926 2959.21
297.923 824.515 2958.38
297.618 824.433 2958.52
297.277 824.305 2958.68
298.281 824.65 2958.1
298.79 824.547 2957.99
299.044 824.553 2957.79
299.727 824.331 2957.83
299.211 824.564 2957.57
300.094 824.194 2957.72
301.082 823.766 2958.05
300.292 824.061 2957.29
303.079 822.443 2957.71
300.914 823.744 2957.49
302.23 822.729 2957.09
303.545 821.654 2955.94
304.667 821.261 2956.04
305.048 821.051 2955.36
307.096 820.71 2955.87
310.762 820.201 2957.09
367.189 807.063 2971.33
367.297 806.686 2971.67
367.355 806.118 2971.98
367.713 809.392 2964.23
366.968 808.726 2966.82
367.378 809.037 2965.2
366.758 808.412 2967.69
366.659 808.45 2968.15
366.621 808.268 2968.68
366.672 808.112 2969.29
366.901 807.649 2970.28
308.258 820.634 2955.21
308.208 821.001 2953.31
308.295 821.019 2952.69
308.905 820.572 2951.02
308.356 820.416 2948.72
310.493 820.208 2949.05
308.345 820.489 2947.89
310.187 820.352 2948.26
367.322 805.405 2972.68
367.288 805.297 2972.89
367.355 805.422 2972.36
367.348 804.793 2972.53
367.373 804.915 2971.06
367.311 804.235 2970.04
366.906 804.883 2968.69
366.576 805.416 2967.52
366.535 805.689 2966.88
366.524 805.627 2967.21
367.282 804.546 2970.1
366.907 805.03 2968.9
366.563 805.953 2966.44
366.61 806.151 2966.07
366.703 806.226 2965.62
367.28 806.899 2963.76
251.655 858.393 3007.14
253.794 855.566 3005.83
253.046 854.852 3003.33
249.673 856.812 3001.48
250.359 856.176 3001.02
252.695 854.533 3001.54
254.707 853.154 3002.49
252.552 854.567 3001.08
250.617 855.845 3000.43
254.739 853.101 3002.04
255.345 852.822 3002.55
256.573 852.505 3003.18
258.103 852.298 3004.24
255.004 852.962 3001.99
255.71 852.714 3002.45
260.33 852.228 3004.4
262.001 852.198 3003.95
264.779 851.975 3005.15
262.223 852.178 3002.88
261.246 852.411 3002.76
261.271 852.442 3002.36
268.092 851.778 3008.67
271.095 851.13 3012.37
287.178 840.832 3015.5
288.742 839.597 3012.92
289.528 837.968 3008.35
289.133 837.059 3004.52
287.612 836.436 3000.7
286.368 835.533 2997.36
286.592 835.343 2997.42
289.405 835.145 3002.81
288.786 835.238 3001.26
288.021 834.712 2999.9
287.615 834.654 2998.93
287.33 834.581 2998.07
287.97 833.074 3001.39
286.507 831.817 2999.34
286.706 835.132 2997.08
287.108 834.63 2997.36
287.01 834.595 2996.99
286.982 834.655 2996.93
286.736 834.759 2996.41
286.934 834.616 2996.66
286.81 834.577 2996.14
286.133 831.376 2998.62
285.97 831.022 2998.06
285.78 830.691 2997.23
285.815 830.954 2997.61
285.76 830.458 2996.71
285.8 830.325 2996.49
285.929 830.084 2996.16
286.512 829.33 2994.86
287.012 828.695 2993.71
287.281 828.561 2993.23
287.84 828.073 2992.71
288.359 827.595 2992.52
289.084 826.988 2992.35
289.415 826.778 2992.25
291.063 825.863 2992.14
292.405 825.17 2991.97
292.546 825.169 2991.66
292.763 825.013 2991.55
293.094 824.716 2991.42
292.945 824.968 2991.26
293.335 824.311 2991.38
293.286 824.429 2991.16
293.191 824.618 2991.18
293.612 823.773 2990.84
295.445 823.27 2987.19
295.658 823.271 2986.59
295.552 823.284 2986.95
296.034 823.103 2985.48
296.821 822.522 2983.39
297.537 822.225 2981.34
297.697 821.91 2981.59
297.925 822.196 2980.33
297.651 822.641 2980.27
297.715 822.653 2979.63
297.554 822.973 2980.01
297.609 822.945 2979.08
297.666 822.589 2978.49
297.499 822.426 2977.48
296.916 822.849 2976.68
296.173 823.016 2975.41
295.722 822.84 2974.47
294.234 823.065 2972.75
290.555 823.747 2969.49
289.465 822.708 2966.72
288.442 822.78 2965.25
288.732 822.971 2966.18
288.379 822.669 2964.71
288.73 822.185 2963.43
293.873 823.439 2989.63
293.573 823.894 2990.53
294.005 823.386 2989.22
294.367 823.306 2988.38
294.273 823.255 2988.7
294.209 823.313 2988.75
294.137 823.383 2988.8
294.872 823.396 2987.66
289.061 821.77 2961.59
289.321 821.67 2961.05
289.762 821.5 2960.52
289.53 821.609 2960.61
290.045 821.508 2960.14
288.848 821.931 2962.35
290.501 821.58 2959.8
290.798 821.606 2959.65
291.57 821.748 2959.38
292.288 821.838 2959.32
293.109 821.891 2959.52
291.011 821.718 2959.42
295.109 822.941 2959.24
292.876 822.033 2959.23
296.766 824.018 2958.89
297.893 824.739 2958.07
297.596 824.687 2958.19
297.217 824.64 2958.29
296.623 824.374 2958.51
298.031 824.843 2957.81
298.405 824.738 2957.77
298.664 824.759 2957.52
298.857 824.748 2957.34
299.492 824.476 2957.43
298.969 824.734 2957.16
299.707 824.388 2956.99
301.22 823.148 2955.86
301.549 823.014 2956.34
302.807 821.992 2955.72
303.548 821.541 2955.24
304.137 821.317 2955.42
304.315 821.194 2954.82
304.99 821.002 2954.71
367.225 806.717 2971.02
367.326 806.401 2971.49
367.726 809.264 2964.14
367.344 808.909 2965.39
367.002 808.552 2966.7
366.777 808.268 2967.62
366.678 808.235 2968.25
366.661 807.983 2968.87
366.741 807.783 2969.41
366.985 807.15 2970.22
307.334 820.82 2954.43
305.256 820.946 2954.43
307.49 821.121 2953.23
307.596 821.222 2952.79
307.449 821.316 2952.37
308.016 821.078 2952.17
308.243 820.681 2950.58
307.741 820.554 2948.62
367.334 805.337 2970.84
366.538 805.593 2967.64
366.505 805.89 2966.88
366.485 805.828 2967.28
366.941 806.113 2969.62
366.926 805.271 2969.21
366.556 805.717 2967.95
366.53 806.115 2966.49
366.597 806.215 2966.12
366.687 806.32 2965.64
367.315 807.085 2963.74
367.312 807.026 2963.69
245.408 861.205 3002.94
250.242 858.033 3004.23
246.744 858.976 3001.18
245.056 857.811 2997.41
246.642 857.274 2998.43
249.115 856.481 2999.81
252.56 854.563 3000.73
250.658 855.778 2999.91
249.301 856.308 2999.49
254.281 853.388 3001.26
252.533 854.563 3000.56
257.145 852.431 3003.19
256.085 852.635 3002.44
254.654 853.2 3001.28
255.211 852.908 3001.82
259.575 852.315 3003.71
261.205 852.367 3003.17
264.993 851.865 3004.89
262.103 852.158 3002.34
259.856 852.883 3000.89
259.409 853.059 3000.84
259.767 852.868 3001.62
259.434 853.021 3001.13
268.203 851.598 3008.09
270.367 850.899 3010.07
286.237 840.895 3014.7
286.329 840.299 3013.4
287.82 838.923 3010.1
288.177 837.275 3004.81
288.774 837.138 3004.56
287.296 836.506 3000.59
285.81 835.655 2996.93
286.376 835.091 2996.29
286.023 835.216 2996.04
286.555 834.922 2996.32
289.081 834.771 3002.31
287.843 834.474 2999.67
287.556 834.44 2998.92
287.317 834.401 2998.08
287.13 834.432 2997.42
287.882 833.515 3000.84
286.511 832.03 2999.17
286.159 831.565 2998.67
287.026 834.358 2996.98
286.975 834.371 2996.7
286.942 834.471 2996.6
286.626 834.64 2995.67
286.853 834.444 2996.12
286.832 834.437 2995.68
285.932 831.256 2998.03
285.736 830.666 2996.92
285.753 830.878 2997.31
285.799 831.101 2997.57
285.739 830.545 2996.6
285.838 830.281 2996.29
285.78 830.407 2996.39
285.974 830.083 2995.97
286.416 829.612 2994.96
286.999 828.861 2993.5
287.174 828.741 2993.17
287.508 828.445 2992.81
288.379 827.87 2992.12
289.091 827.171 2992
289.472 826.836 2991.99
291.062 825.933 2991.88
292.403 825.269 2991.72
292.719 825.172 2991.31
292.54 825.336 2991.33
293.1 824.857 2991.1
292.93 825.135 2991.02
293.258 824.526 2990.91
293.168 824.771 2990.89
295.424 823.43 2986.99
295.52 823.438 2986.64
295.779 823.372 2985.79
296.389 823.01 2984.45
296.775 822.678 2983.22
296.414 822.933 2984.53
297.371 822.523 2981.2
297.455 823 2980.31
297.237 822.754 2981.17
297.506 823.366 2979.59
297.347 823.411 2980.22
297.368 823.736 2979.93
297.015 825.012 2979.86
297.009 824.605 2978.94
297.305 823.128 2978.11
297.136 823.062 2977.51
296.702 823.396 2976.9
296.289 823.279 2975.91
295.266 824.66 2975.41
295.124 823.356 2974.21
293.315 824.448 2972.99
292.298 825.071 2972.58
288.855 825.228 2969.57
290.613 825.646 2971.76
288.95 823.914 2967.81
288.201 825.109 2968.53
288.264 823.134 2965.74
288.098 822.983 2965.02
288.446 823.86 2967.05
288.195 822.765 2964.29
288.542 822.266 2962.98
293.572 823.985 2990.25
293.888 823.54 2989.34
294.022 823.534 2988.9
294.296 823.429 2988.34
294.801 823.516 2987.62
294.149 823.484 2988.59
289.143 821.768 2961.2
288.803 821.953 2961.93
289.374 821.704 2960.65
289.764 821.578 2960.25
289.575 821.661 2960.32
290.169 821.624 2959.86
290.609 821.7 2959.5
291.31 821.88 2959.18
291.987 822.025 2959.06
290.854 821.861 2959.26
294.795 823.09 2958.96
293.034 822.255 2959.01
292.378 822.16 2958.96
296.233 824.044 2958.71
297.706 824.938 2957.9
297.375 824.907 2957.98
296.634 824.688 2958.25
297.04 825.029 2957.97
296.089 824.631 2958.25
295.963 824.243 2958.49
297.864 824.979 2957.72
298.143 824.906 2957.65
298.378 824.867 2957.49
298.624 824.861 2957.27
299.227 824.644 2956.95
298.631 824.925 2957.05
298.883 824.85 2956.85
300.562 823.629 2955.74
299.267 824.643 2956.61
302.612 822.051 2954.83
302.983 821.821 2955.05
303.745 821.386 2954.64
304.263 821.187 2954.23
304.695 821.086 2954.16
367.714 809.109 2964.07
367.706 808.991 2964.1
367.209 808.542 2965.81
366.816 808.137 2967.25
366.688 807.978 2967.94
366.665 807.87 2968.52
366.706 807.597 2968.97
306.515 820.984 2953.83
305.241 820.983 2954.1
306.903 821.322 2952.97
307.098 821.357 2952.78
306.987 821.499 2952.4
307.307 821.389 2952.11
306.856 821.587 2952.09
307.702 821.166 2951.81
307.85 820.806 2950.49
307.327 820.717 2948.81
366.471 805.917 2967.48
366.478 806.096 2967.03
366.626 806.644 2968.53
366.49 806.017 2967.79
366.515 806.281 2966.57
366.603 806.388 2966.04
367.382 807.296 2963.59
367.422 807.493 2963.6
366.68 806.544 2965.71
243.778 859.287 2997.9
242.99 857.886 2994.69
243.712 857.557 2995.23
245.596 857.197 2996.95
245.932 856.976 2996.79
250.987 855.636 2999.61
250.39 855.901 2999.35
249.391 856.23 2999.21
246.078 856.852 2996.55
252.257 854.762 3000.2
252.313 854.768 2999.96
253.942 853.657 3000.77
256.646 852.556 3002.58
255.642 852.818 3001.8
254.86 853.141 3001.2
254.1 853.61 3000.66
258.764 852.443 3003.07
260.081 852.645 3002.4
265.122 851.738 3004.64
261.817 852.142 3001.83
259.27 853.03 3000.16
258.021 853.755 2999.54
257.932 853.845 2999.66
258.008 853.773 2999.89
258.96 853.1 3001.18
258.411 853.467 3000.43
267.7 851.503 3007.03
269.673 850.815 3008.72
273.328 849.504 3011.58
284.435 841.703 3014.45
284.42 841.079 3013.56
283.26 840.192 3011.23
283.47 839.52 3009.91
284.498 838.683 3008.01
286.593 837.258 3003.72
286.733 836.536 3000.31
285.064 835.782 2996.49
285.563 835.323 2995.59
286.212 834.944 2995.43
286.418 834.796 2995.53
286.022 835.003 2995.14
287.612 834.239 2999.29
287.363 834.224 2998.52
287.136 834.19 2997.45
287.188 834.106 2997.8
287.047 834.181 2997.09
287.351 833.285 2999.87
286.453 832.158 2998.9
286.102 831.667 2998.45
287.011 834.128 2996.54
287.016 834.087 2996.79
286.869 834.319 2996.08
286.915 834.192 2996.12
286.786 834.467 2995.24
286.563 834.647 2995.11
286.914 834.289 2995.78
286.932 834.288 2995.35
285.894 831.392 2997.86
285.731 830.971 2997.22
285.726 830.796 2996.82
285.798 831.208 2997.44
285.734 830.644 2996.49
285.784 830.444 2996.28
285.895 830.244 2996.07
286.528 829.533 2994.53
287.144 828.944 2993.01
287.335 828.769 2992.77
287.882 828.399 2992.3
288.486 828.06 2991.75
289.104 827.362 2991.69
289.601 826.848 2991.77
289.555 826.985 2991.61
291.094 826.016 2991.64
292.349 825.42 2991.49
292.74 825.363 2990.97
292.532 825.576 2990.96
292.339 825.607 2991.16
293.097 825.037 2990.84
292.936 825.326 2990.8
293.03 825.203 2990.77
293.283 824.651 2990.69
293.2 824.987 2990.7
295.278 823.605 2986.9
295.42 823.694 2986.53
295.77 823.501 2985.56
296.423 823.113 2984.18
296.752 822.84 2983.03
297.158 822.983 2981.08
296.945 825.635 2981.01
297.107 823.187 2981
297.228 824.019 2980.32
297.058 823.406 2981.08
296.926 825.714 2981.48
296.941 825.549 2981.68
296.322 827.785 2982.35
296.367 827.783 2982.85
296.883 824.627 2978.44
296.266 827.608 2981.59
296.586 825.897 2978.85
296.712 824.717 2978.01
296.45 824.72 2977.38
296.057 824.705 2976.61
295.622 824.744 2975.95
295.471 826.217 2976.93
295.982 825.984 2977.44
294.456 824.72 2974.46
295.864 826.247 2977.53
294.734 826.278 2976.13
293.775 826.545 2975.63
288.543 825.589 2969.98
287.935 825.404 2968.86
289.145 827.047 2973.35
292.83 827.394 2976.45
287.934 824.926 2967.73
287.717 825.216 2967.97
288.006 823.285 2965.57
288.07 823.878 2966.49
287.933 823.12 2964.94
287.831 824.667 2967.14
288.051 822.857 2963.8
287.866 823.104 2964.42
288.535 822.184 2962.48
293.594 824.079 2989.99
293.927 823.662 2988.98
294.103 823.697 2988.49
294.729 823.643 2987.56
294.276 823.645 2988.2
288.771 822.015 2961.69
289.008 821.872 2961.17
289.294 821.774 2960.62
289.49 821.736 2960.32
289.91 821.648 2959.95
289.69 821.746 2960.01
290.318 821.71 2959.59
290.536 821.822 2959.33
291.16 822.01 2959.06
291.736 822.107 2958.94
290.739 822.021 2959.09
292.888 822.394 2958.83
294.569 823.302 2958.71
292.057 822.263 2958.77
297.54 825.058 2957.78
297.272 825.142 2957.79
296.481 824.99 2958.02
296.866 825.264 2957.82
297.083 825.269 2957.73
295.758 824.706 2958.17
295.731 824.443 2958.33
296.112 824.992 2958.03
294.322 823.479 2958.52
297.923 825.055 2957.59
297.645 825.122 2957.66
298.152 825.003 2957.46
298.353 824.969 2957.27
298.999 824.788 2956.66
298.382 825.053 2957.06
298.573 825.03 2956.83
298.807 824.987 2956.55
299.466 824.462 2955.86
301.034 823.253 2955.04
298.966 824.826 2956.43
302.849 821.954 2954.32
303.343 821.616 2954.44
303.814 821.356 2954.19
304.139 821.255 2953.92
304.606 821.148 2953.86
367.702 808.819 2963.98
367.112 808.242 2965.95
367.7 808.679 2963.92
366.649 807.269 2966.87
366.57 807.123 2967.34
366.549 807.007 2967.77
366.56 806.861 2968.08
305.008 821.072 2953.81
305.953 821.143 2953.47
306.371 821.49 2952.76
306.587 821.554 2952.58
306.705 821.565 2952.44
306.515 821.73 2952.08
307.193 821.443 2951.86
306.676 821.735 2951.8
306.392 821.882 2951.84
307.483 820.979 2950.43
307.114 821.445 2951.46
306.992 820.879 2948.74
306.998 820.816 2948.26
366.458 806.191 2967.42
366.478 806.339 2967.03
366.552 806.567 2966.43
367.575 808.116 2963.72
366.733 806.79 2965.73
237.729 864.09 2996.27
239.876 862.356 2995.91
241.825 861.477 2997.95
243.07 859.088 2996.42
242.379 858.146 2994.07
242.395 857.918 2993.77
242.439 857.802 2993.45
242.793 857.65 2993.91
243.771 857.32 2994.79
243.728 857.223 2994.38
250.982 855.703 2999.21
251.207 855.512 2999.6
250.427 855.909 2998.92
249.196 856.24 2998.64
246.214 856.775 2996.32
243.887 857.124 2994.31
252.321 854.857 2999.62
251.349 855.504 2999.27
256.189 852.734 3001.91
255.339 853.006 3001.3
254.436 853.455 3000.69
254.82 853.26 3000.9
253.737 853.971 3000.12
252.294 855.009 2999.26
257.954 852.659 3002.28
259.094 852.912 3001.69
264.719 851.574 3003.85
260.534 852.404 3000.65
258.467 853.306 2999.39
257.511 854.01 2999.09
256.323 854.821 2998.24
256.441 854.729 2998.24
256.302 854.852 2998.29
257.204 854.175 2999.43
256.223 854.866 2998.35
258.156 853.405 3000.7
257.588 853.873 2999.9
265.724 851.31 3004.48
269.292 850.65 3007.94
274.599 848.509 3011.53
282.746 842.565 3013.95
281.109 841.09 3011.07
281.199 840.341 3010.18
278.708 838.764 3006.17
277.463 839.015 3005.95
279.248 838.331 3005.39
281.408 837.679 3004.02
284.181 836.638 3000.28
284.732 836.041 2997.25
284.349 835.633 2994.93
285.011 835.464 2995.05
285.664 835.127 2994.68
286.306 834.814 2994.88
286.221 834.862 2994.49
287.306 833.927 2998.77
287.219 833.993 2998.2
287.085 833.911 2997.3
287.05 833.992 2997.06
287.106 833.851 2997.69
287.07 833.224 2999.24
286.415 832.269 2998.59
286.121 831.812 2998.25
287.008 833.995 2995.98
287.059 833.875 2996.15
287.043 833.889 2996.41
287.018 833.911 2996.7
286.971 834.14 2995.82
286.796 834.473 2994.81
287.009 834.279 2994.92
286.553 834.639 2994.57
286.983 833.773 2995.48
287.15 834.123 2994.97
285.923 831.54 2997.76
285.749 831.058 2997.05
285.727 830.88 2996.65
285.824 831.311 2997.3
285.772 830.766 2996.35
285.77 830.573 2996.24
285.924 830.284 2995.92
285.869 830.427 2995.96
286.426 829.782 2994.66
287.061 829.132 2993.07
287.39 829.104 2992.43
287.42 828.91 2992.48
287.753 828.681 2992.14
288.223 828.599 2991.62
288.977 827.895 2991.33
289.198 827.522 2991.41
289.658 827.053 2991.42
291.162 826.122 2991.39
291.201 826.273 2991.15
292.88 825.628 2990.6
292.704 825.715 2990.72
292.461 825.776 2990.89
293.144 825.216 2990.55
293.102 825.711 2990.3
293.045 825.39 2990.57
293.344 824.865 2990.5
293.265 825.131 2990.43
295.154 823.811 2986.84
295.364 823.921 2986.44
295.763 823.715 2985.39
296.351 823.292 2984.18
296.738 823.042 2982.78
296.731 826.832 2982.63
296.413 827.633 2983.19
296.808 823.556 2982.12
296.852 823.818 2981.87
296.941 825.29 2981.88
296.741 823.215 2982.57
296.732 826.733 2982.9
296.725 826.526 2983.19
296.801 826.337 2982.89
296 828.732 2983.25
295.859 829.06 2983.13
295.909 829.044 2983.41
295.961 828.967 2983.67
295.996 828.819 2983.8
296.22 827.349 2980.73
295.813 828.884 2982.66
296.403 826.021 2978.34
296.289 825.851 2977.85
295.513 826.536 2977.41
295.891 826.478 2977.88
296.188 826.271 2978.13
295.948 827.209 2979.55
294.849 826.674 2976.83
294.423 827.464 2977.95
287.537 826.586 2971.48
286.711 826.284 2970.23
287.643 825.627 2969.14
287.566 825.42 2968.27
290.48 828.551 2976.6
285.948 827.696 2972.29
284.725 827.166 2970.62
293.099 828.394 2978.42
287.604 825.082 2967.43
287.318 825.371 2967.62
287.849 823.318 2965.24
287.78 823.958 2965.98
287.792 824.535 2966.78
287.57 824.966 2966.92
287.886 823.07 2963.86
287.779 823.224 2964.54
288.019 822.912 2963.36
288.607 822.192 2961.93
293.646 824.226 2989.75
293.993 823.85 2988.64
294.182 823.947 2988.21
294.707 823.917 2987.43
294.689 823.791 2987.51
288.791 822.074 2961.34
289.183 821.885 2960.64
289.417 821.812 2960.3
289.58 821.832 2960.01
290.039 821.763 2959.64
289.846 821.872 2959.66
290.275 821.814 2959.4
290.421 821.953 2959.18
291.07 822.18 2958.93
291.603 822.183 2958.85
290.694 822.157 2958.99
292.642 822.483 2958.67
291.907 822.338 2958.7
297.365 825.216 2957.68
296.627 825.363 2957.81
296.972 825.432 2957.67
297.173 825.354 2957.61
294.109 823.614 2958.39
295.67 824.909 2958.05
294.023 823.732 2958.32
296.106 825.262 2957.86
292.662 822.605 2958.61
297.956 825.145 2957.43
297.721 825.2 2957.53
297.445 825.279 2957.57
298.167 825.097 2957.25
298.253 825.167 2957.06
298.428 825.17 2956.83
298.627 825.117 2956.56
298.848 824.961 2956.29
299.249 824.629 2955.67
299.666 824.298 2954.97
301.102 823.268 2954.7
303.041 821.903 2953.94
303.452 821.568 2954.1
303.845 821.372 2953.93
304.17 821.297 2953.72
366.856 807.443 2966.05
304.828 821.192 2953.57
304.39 821.276 2953.61
305.549 821.335 2953.15
306.251 821.722 2952.35
306.121 821.619 2952.59
306.347 821.764 2952.18
306.238 821.95 2951.93
306.685 821.689 2951.62
306.202 822.084 2951.58
306.262 821.997 2951.4
306.075 822.153 2951.69
307.022 821.205 2950.2
306.564 821.723 2951.22
306.717 821.008 2948.47
306.801 820.935 2948.11
306.769 820.973 2947.77
234.652 866.045 2996.54
238.743 862.958 2994.75
239.566 862.309 2994.97
240.898 861.199 2995.15
241.557 860.717 2995.64
242.239 859.244 2995.06
242.061 858.358 2993.76
242.131 858.092 2993.55
242.206 857.922 2993.36
242.423 857.737 2993.29
242.269 857.847 2993.19
242.563 857.653 2993.41
242.935 857.511 2993.76
243.051 857.382 2993.48
242.774 857.513 2993.34
250.982 855.769 2998.87
250.449 855.946 2998.64
249.309 856.23 2998.25
246.188 856.718 2996.1
244.018 857.065 2994.22
243.23 857.321 2993.48
251.349 855.596 2998.96
255.897 852.915 3001.43
255.15 853.19 3000.92
254.429 853.568 3000.44
252.429 855.113 2998.94
251.465 855.618 2998.77
257.356 852.937 3001.55
258.326 853.137 3001.26
261.203 852.018 3000.78
258.289 853.186 2998.93
256.381 854.614 2997.89
256.391 854.691 2998.04
253.964 856.08 2996.3
253.615 856.236 2996.34
254.651 855.707 2996.56
253.953 856.084 2996.66
256.045 854.928 2998.32
255.68 855.052 2998.23
253.685 856.169 2996.7
257.122 853.871 2999.93
257.001 854.135 2999.53
255.271 855.208 2998.1
265.58 850.951 3003.94
261.642 851.65 3000.75
269.033 850.21 3007.17
272.254 849.032 3009.74
276.48 847.194 3011.92
280.207 844.891 3013.51
279.782 841.719 3010.68
276.348 840.218 3006.73
277.065 839.57 3006.49
272.991 837.865 3001.65
273.525 837.508 3001.25
272.743 838.307 3002.18
275.649 837.381 3001.67
278.022 836.642 2999.62
280.058 836.043 2997.06
283.555 835.909 2995.85
283.104 835.741 2994.06
284.355 835.505 2993.93
285.118 835.308 2994.16
285.865 835.024 2994.12
286.46 834.797 2994.09
286.65 834.652 2994.17
286.805 833.049 2998.54
287.129 833.779 2998.14
287.032 833.832 2996.93
287.036 833.764 2997.23
287.062 833.71 2997.7
286.177 831.995 2998.06
287.086 833.973 2995.71
287.108 833.84 2995.85
287.098 833.717 2996
287.058 833.714 2996.28
287.028 833.715 2996.52
287.036 834.411 2994.23
287.128 834.276 2994.52
287.59 834.312 2993.43
287.169 834.029 2995.15
287.714 834.029 2993.76
287.73 834.17 2993.44
285.977 831.682 2997.66
285.779 831.125 2996.86
285.791 831.022 2996.5
285.865 831.389 2997.11
285.817 830.863 2996.2
285.827 830.598 2996
286.397 830.012 2994.67
285.896 830.464 2995.83
287.11 829.346 2992.9
287.29 829.245 2992.56
287.675 829.228 2991.87
287.553 829.345 2992.05
287.677 828.953 2992.03
287.918 828.9 2991.73
288.302 828.878 2991.31
288.651 828.329 2991.26
289.463 827.717 2991.02
289.564 827.36 2991.21
291.218 826.463 2990.91
292.85 825.877 2990.4
292.561 825.963 2990.55
293.263 825.5 2990.23
293.368 825.366 2990.14
293.093 826.395 2989.84
293.406 826.588 2989.45
293.441 824.973 2990.18
293.421 825.215 2990.1
295.264 824.071 2986.55
295.318 824.201 2986.31
295.859 823.875 2985.11
296.267 823.551 2984.28
296.503 823.32 2983.64
296.411 827.512 2983.61
296.031 828.619 2983.98
296.521 823.825 2983.63
296.351 823.694 2984.04
296.857 824.77 2982.32
296.723 824.735 2983.21
296.786 826.077 2983.15
296.691 826.379 2983.45
296.33 827.372 2983.97
295.737 830.117 2983.62
295.586 830.22 2983.38
295.831 830.069 2984
295.873 829.96 2984.26
295.885 829.887 2984.47
296.125 827.203 2980.03
295.712 828.825 2982.28
295.607 829.305 2982.78
295.637 827.299 2979.12
295.193 827.362 2978.61
295.567 828.712 2981.75
295.278 828.604 2981.08
294.379 828.355 2979.54
284.93 826.757 2970.12
284.687 826.575 2969.48
286.096 826.142 2969.33
287.097 825.647 2968.4
287.047 825.598 2967.77
287.283 829.094 2974.79
289.874 831.536 2979.17
292.937 828.971 2979.09
284.644 828.384 2971.95
283.984 827.49 2970.41
283.528 827.313 2969.66
284.032 826.954 2969.61
287.246 825.353 2967.26
287.414 825.184 2967.07
286.979 825.553 2967.33
287.632 824.066 2965.67
287.707 823.411 2964.86
287.617 824.662 2966.49
287.58 824.857 2966.76
287.334 825.171 2966.7
287.722 823.297 2964.23
288.181 822.745 2962.82
287.712 823.348 2963.97
288.634 822.269 2961.57
293.71 824.368 2989.44
294.025 824.09 2988.48
294.176 824.162 2988.14
294.722 824.077 2987.36
289.004 822.04 2960.84
289.334 821.944 2960.33
289.496 821.896 2960.06
289.628 821.971 2959.77
290.135 821.903 2959.36
289.881 821.989 2959.49
290.405 822.06 2959.13
291.077 822.338 2958.8
291.496 822.282 2958.76
290.675 822.244 2958.95
291.689 822.413 2958.65
292.376 822.601 2958.59
296.635 825.569 2957.69
296.899 825.591 2957.59
297.093 825.505 2957.55
297.286 825.415 2957.51
293.888 823.84 2958.27
295.615 825.255 2957.89
292.327 822.704 2958.53
296.339 825.637 2957.68
297.854 825.29 2957.35
298.039 825.219 2957.23
297.585 825.34 2957.46
298.158 825.277 2957.03
298.332 825.296 2956.79
298.509 825.24 2956.56
298.76 825.086 2956.29
298.648 825.175 2956.43
299.115 824.756 2955.5
299.458 824.482 2954.81
299.679 824.397 2954.54
301.353 823.229 2954.27
302.911 822.094 2953.79
303.381 821.725 2953.7
303.619 821.5 2953.92
303.971 821.4 2953.66
304.488 821.364 2953.36
304.198 821.384 2953.49
305.35 821.473 2952.99
306.129 821.926 2952.08
306.025 821.864 2952.24
305.921 821.769 2952.45
306.073 822.1 2951.89
305.977 822.306 2951.29
305.81 822.431 2951.41
306.272 821.947 2951.08
306.025 822.22 2951.01
305.844 822.395 2951.64
306.693 821.367 2949.91
306.561 821.106 2948.31
306.624 821.083 2947.84
229.54 868.594 2991.93
232.569 866.943 2993.32
235.362 865.762 2995.23
236.277 865.16 2995.65
233.769 866.391 2993.3
236.95 864.606 2995.64
238.399 863.232 2994.27
239.779 861.984 2993.74
240.556 861.313 2994.29
240.382 861.412 2993.43
241.067 860.809 2994.5
241.329 860.38 2994.34
241.854 859.268 2994.29
241.623 859.3 2993.76
241.91 858.266 2993.26
242.004 858.084 2993.2
242.022 858.04 2992.98
242.507 857.667 2993.24
242.349 857.759 2993.08
242.178 857.874 2992.92
242.142 857.916 2993.02
242.888 857.477 2993.12
242.65 857.574 2993.06
242.442 857.68 2993.03
250.955 855.853 2998.6
250.316 856.054 2998.29
249.395 856.273 2997.92
246.761 856.716 2996
244.132 857.062 2994.08
243.451 857.259 2993.53
243.093 857.408 2993.15
255.616 853.131 3000.96
255.01 853.369 3000.57
254.42 853.712 3000.17
252.661 855.183 2998.69
252.468 855.996 2997.69
251.299 855.832 2998.4
256.205 853.418 3000.52
257.251 853.558 3000.46
258.154 852.96 2998.49
256.386 854.348 2997.52
256.319 854.555 2997.67
253.077 856.25 2994.87
252.052 856.677 2994.02
251.357 856.951 2993.45
250.999 857.122 2993.4
252.455 856.702 2995.79
250.36 857.322 2992.83
253.359 856.269 2996.76
252.701 856.478 2996.74
252.126 856.796 2995.81
256.551 854.125 2999.52
255.941 854.758 2998.66
255.684 854.814 2998.62
253.201 856.143 2997.17
264.327 850.496 3002.29
260.762 851.551 2999.74
268.341 849.641 3005.96
273.193 847.604 3009.28
278.906 844.194 3011.76
275.471 841.211 3006.89
271.484 839.109 3002.21
272.041 838.584 3002.08
270.206 837.445 2999.36
270.332 837.23 2999.01
271.067 836.893 2998.7
269.735 837.739 2999.45
272.98 836.74 2998.92
274.036 836.305 2997.16
279.358 835.801 2995.09
274.055 836.106 2995.9
280.458 835.795 2993.78
282.842 835.735 2993.3
284.261 835.511 2993.53
285.224 835.281 2993.65
286.127 834.988 2993.64
286.753 834.743 2993.62
287.169 834.61 2993.39
286.63 832.852 2998.04
286.993 833.681 2996.79
286.988 833.632 2997.08
286.96 833.532 2997.43
287.165 833.874 2995.5
287.151 833.974 2995.32
287.146 833.739 2995.68
287.15 833.621 2995.7
287.113 833.592 2995.93
287.08 833.544 2996.12
287.019 833.513 2996.36
287.504 834.512 2993.17
287.239 836.202 2990.28
287.803 835.388 2989.98
287.014 836.876 2989.43
287.741 833.933 2993.83
288.139 834.343 2991.4
288.098 834.651 2990.74
286.006 831.754 2997.45
285.873 831.306 2996.7
285.889 831.176 2996.36
285.976 831.604 2996.95
285.936 831.076 2996.07
285.885 830.794 2995.95
286.454 830.096 2994.51
285.93 830.607 2995.67
287.402 829.437 2992.31
287.245 829.553 2992.63
287.9 829.525 2991.4
287.775 829.58 2991.6
287.845 829.202 2991.62
287.666 829.664 2991.8
288.057 829.148 2991.41
288.311 829.232 2991.12
288.57 828.849 2991.08
289.263 828.102 2990.92
291.185 827.035 2990.47
291.207 826.702 2990.68
292.689 826.299 2990.15
293.556 826.213 2989.48
293.584 825.756 2989.66
292.865 827.12 2989.55
293.26 827.693 2988.97
293.823 827.742 2988.3
293.509 827.98 2988.58
293.573 825.019 2989.78
293.585 825.303 2989.75
295.491 824.24 2985.85
294.764 824.448 2987.19
294.737 824.273 2987.29
296.203 823.972 2984.39
296.037 828.397 2984.24
295.882 829.836 2984.66
296.581 824.829 2983.74
296.668 825.919 2983.7
296.578 826.333 2983.91
296.276 827.156 2984.22
295.96 828.013 2984.64
295.848 829.717 2984.88
295.788 829.737 2985.12
295.53 831.331 2984.11
295.65 831.26 2984.33
295.356 830.374 2983.12
295.361 831.35 2983.79
295.426 831.655 2984.18
295.733 831.185 2984.61
295.751 831.179 2984.85
295.75 831.148 2985.06
295.431 829.312 2982.36
294.865 828.553 2980.42
295.215 829.19 2981.82
294.756 829.206 2981.19
294.227 829.088 2980.42
284.15 826.689 2969.14
284.613 826.453 2968.99
285.677 826.1 2968.66
286.551 825.782 2967.87
286.678 825.726 2967.42
285.595 831.923 2976.26
287.302 834.369 2980.24
290.94 833.223 2981.7
293.243 831.108 2981.36
283.617 830.371 2972.98
283.59 827.993 2970.58
283.159 827.77 2969.83
283.563 827.071 2969.22
283.105 827.416 2969.22
286.991 825.481 2966.96
287.281 825.31 2966.78
286.752 825.636 2967
287.51 824.163 2965.37
287.43 824.802 2966.06
287.618 823.487 2964.48
287.426 825.019 2966.52
287.38 825.008 2966.22
287.22 825.297 2966.34
287.087 825.434 2966.45
288.22 822.774 2962.56
287.682 823.43 2963.8
287.553 823.648 2964.2
288.478 822.583 2961.8
288.819 822.232 2961.1
293.805 824.611 2989.09
294.131 824.383 2988.17
289.252 822.085 2960.4
289.524 822.045 2959.93
289.745 822.097 2959.58
290.14 822.013 2959.27
290.028 822.099 2959.3
290.334 822.145 2959.12
290.601 822.29 2958.96
290.862 822.405 2958.8
291.35 822.451 2958.64
292.003 822.644 2958.54
296.796 825.759 2957.55
297.027 825.814 2957.45
297.052 825.648 2957.45
297.195 825.574 2957.39
297.408 825.484 2957.41
293.788 823.992 2958.21
295.892 825.7 2957.74
293.777 824.222 2958.16
296.662 825.907 2957.53
297.877 825.424 2957.2
298.031 825.374 2957.09
297.649 825.442 2957.35
298.16 825.418 2956.89
298.332 825.409 2956.66
298.43 825.326 2956.6
298.646 825.221 2956.3
298.466 825.358 2956.47
298.798 825.058 2955.99
299.096 824.821 2955.39
299.257 824.708 2954.77
299.389 824.611 2954.6
299.656 824.507 2954.32
299.93 824.363 2954.18
301.397 823.413 2953.83
303.2 821.961 2953.53
302.799 822.319 2953.55
303.643 821.646 2953.45
303.821 821.499 2953.59
304.231 821.523 2953.23
304.035 821.49 2953.39
305.053 821.691 2952.79
305.982 822.052 2952.04
305.865 822.013 2952.16
305.706 821.976 2952.28
305.877 822.303 2951.84
305.784 822.474 2951.01
305.327 822.974 2951.23
305.495 822.858 2951.04
306.088 822.112 2950.75
306.43 821.537 2949.74
305.92 822.319 2950.57
305.89 822.386 2950.87
305.228 822.939 2951.49
306.445 821.26 2948.47
306.502 821.191 2947.94
230.612 867.954 2991.12
232.005 867.126 2991.49
235.763 865.763 2993.62
236.239 865.436 2994.49
236.383 865.566 2993.36
236.618 865.199 2994.44
236.734 864.866 2995.13
233.191 866.541 2991.43
234.409 866.13 2992.52
238.303 863.353 2993.99
240.105 861.701 2993
240.751 861.051 2993.96
240.472 861.312 2992.88
240.736 860.97 2993.43
241.032 860.632 2993.83
241.117 860.382 2993.54
241.504 859.307 2993.34
241.809 858.492 2993.26
241.84 858.232 2992.9
241.762 858.44 2993.01
241.991 858.045 2992.76
241.834 858.212 2992.7
242.309 857.772 2992.94
242.09 857.954 2992.72
242.268 857.815 2992.83
242.75 857.562 2992.89
242.555 857.641 2992.88
242.435 857.721 2992.89
250.826 855.991 2998.28
250.767 856.56 2997.04
249.581 856.394 2997.49
246.991 856.701 2995.93
244.294 857.047 2994.01
243.625 857.257 2993.4
243.255 857.374 2993.14
242.892 857.523 2992.87
255.114 853.507 3000.29
254.526 853.863 2999.91
253.142 855.381 2998.21
251.488 856.312 2997.46
255.167 854.942 2998.51
255.591 853.951 2999.7
256.268 854.101 2999.53
257.719 852.58 2997.64
256.485 854.018 2997.34
252.388 856.347 2993.88
253.008 855.924 2994.27
250.64 857.026 2992.03
250.247 857.174 2991.51
249.917 857.329 2991.34
249.914 857.477 2992.92
249.927 857.413 2991.05
249.65 857.453 2990.98
252.098 856.765 2996.1
252.124 856.603 2996.69
251.613 856.863 2996.08
250.548 857.334 2994.59
249.2 857.634 2992.19
262.277 849.7 2999.71
258.434 850.743 2996.75
267.316 848.436 3004.19
270.819 846.979 3006.68
275.967 844.342 3009.32
272.747 842.686 3005.59
270.277 839.863 3001.86
268.506 838.866 2999.63
269.161 838.248 2999.6
269.025 837.453 2998.47
269.079 837.181 2997.93
269.687 836.971 2997.97
270.397 836.675 2997.61
268.431 837.927 2998.58
270.316 836.578 2996.97
275.662 835.699 2994.52
271.35 836.475 2996.18
273.967 836.055 2994.82
276.427 835.679 2993.94
278.925 835.795 2993.15
281.086 835.856 2992.62
284.049 835.584 2993.13
285.227 835.335 2993.23
286.477 835.012 2993.13
286.046 835.171 2993.04
286.953 835.083 2992.54
287.339 835.31 2991.68
287.187 835.149 2992.15
286.489 832.644 2997.64
286.962 833.472 2996.6
286.9 833.349 2996.88
286.459 832.556 2997.22
287.57 833.743 2994.41
287.599 833.85 2994.28
287.179 833.803 2995.47
287.196 833.69 2995.44
287.197 833.535 2995.51
287.562 833.491 2994.54
287.143 833.463 2995.72
287.071 833.359 2995.99
286.998 833.289 2996.22
287.029 836.485 2990.19
286.725 837.269 2989.41
286.793 837.294 2989.25
286.944 837.089 2989.13
287.333 836.318 2989.03
287.552 835.995 2988.15
287.986 835.32 2988.84
288.382 834.528 2989.55
288.379 834.779 2989.04
288.21 834.097 2991.42
288.484 833.844 2990.33
288.471 834.157 2989.95
286.005 831.494 2996.46
286.046 831.326 2996.06
286.468 832.443 2996.71
285.978 830.87 2995.76
286.062 831.106 2995.77
286.682 830.169 2994.06
287.509 829.7 2992.03
288.004 829.826 2991.23
288.062 829.439 2991.23
288.134 829.668 2991.09
287.873 829.882 2991.45
287.791 829.983 2991.59
288.314 829.471 2991
288.527 829.312 2990.91
288.664 829.011 2990.93
289.097 828.616 2990.8
291.013 827.452 2990.31
294.105 827.469 2988.06
293.84 826.217 2988.99
292.853 827.899 2989.14
290.64 827.858 2990.32
293.172 828.398 2988.66
293.801 828.413 2988.08
294.361 828.676 2987.4
293.864 825.64 2989.05
294.122 826.566 2988.31
294.807 824.642 2987.07
295.628 824.405 2985.6
296.333 824.914 2984.38
295.738 831.054 2985.19
296.449 826.025 2984.36
296.1 826.978 2984.7
295.701 829.502 2985.36
295.688 831.145 2985.36
295.619 831.102 2985.56
295.533 831.819 2984.59
295.665 831.499 2984.63
295.042 830.555 2982.78
295.211 831.59 2983.73
295.26 831.889 2984.1
295.325 832.067 2984.5
295.655 831.624 2984.88
295.679 831.41 2985.02
295.676 831.249 2985.2
294.651 830.771 2982.44
294.156 830.859 2981.97
283.767 826.808 2968.89
284.183 826.56 2968.75
284.51 826.382 2968.51
285.388 826.087 2967.95
286.392 825.822 2967.25
285.14 833.175 2977.15
287.928 834.877 2981.5
287.064 835.247 2980.97
286.314 835.077 2979.87
290.774 833.783 2982.3
293.703 833.015 2983.53
293.98 832.43 2983.12
282.924 830.714 2972.6
283.154 832.327 2974.67
282.996 828.4 2970.36
282.816 827.823 2969.46
283.275 827.156 2968.91
282.871 827.503 2968.94
286.896 825.569 2966.64
286.58 825.732 2966.82
287.291 824.994 2965.59
287.427 824.277 2965.06
287.25 825.184 2965.74
287.189 825.343 2965.92
286.965 825.632 2965.86
286.902 825.636 2966.24
287.836 823.333 2963.27
287.532 823.771 2963.98
287.378 824.41 2964.71
288.263 823.03 2962.15
287.873 823.432 2963.04
288.79 822.379 2961.09
293.94 824.999 2988.72
294.204 825.273 2988.13
289.17 822.259 2960.46
289.483 822.165 2959.96
289.673 822.194 2959.65
289.95 822.208 2959.35
290.233 822.221 2959.14
290.514 822.323 2958.99
290.894 822.468 2958.78
291.495 822.593 2958.57
292.206 822.9 2958.44
296.976 825.974 2957.41
297.2 825.978 2957.31
297.171 825.773 2957.32
297.366 825.684 2957.24
297.601 825.588 2957.26
295.613 825.881 2957.78
295.972 826.506 2957.66
293.521 824.221 2958.18
291.955 822.903 2958.46
296.719 826.424 2957.47
297.842 825.562 2957.1
298.035 825.538 2956.94
298.154 825.572 2956.75
298.259 825.496 2956.68
298.379 825.472 2956.49
298.573 825.332 2956.26
298.708 825.194 2955.96
298.509 825.436 2956.29
299.017 824.923 2955.32
299.221 824.847 2954.57
299.398 824.721 2954.38
299.519 824.614 2954.36
299.675 824.599 2954.16
299.85 824.495 2954.08
300.053 824.418 2953.94
301.44 823.648 2953.33
303.396 821.906 2953.36
302.723 822.684 2953.09
303.839 821.631 2953.29
304.058 821.669 2953.12
304.835 821.887 2952.67
305.609 822.452 2951.87
305.437 822.468 2951.98
305.241 822.443 2952.1
305.721 822.606 2950.68
305.433 822.984 2950.76
305.255 823.198 2950.84
305.044 823.302 2951.11
305.069 823.406 2950.87
306.133 821.822 2949.47
306.238 821.705 2949.63
306.049 821.946 2949.32
305.708 822.613 2950.25
304.929 823.123 2951.52
304.838 823.443 2951.15
306.371 821.355 2948.25
229.991 868.398 2990.78
231.901 867.261 2990.67
232.487 866.917 2990.96
236.282 865.661 2992.98
236.877 865.333 2993.39
236.871 865.494 2992.93
236.631 865.593 2992.86
237.005 865.108 2993.7
236.878 864.896 2994.51
233.663 866.403 2991.07
235.033 865.971 2992.19
238.232 863.497 2993.69
239.61 862.196 2992.9
240.198 861.676 2992.67
240.444 861.39 2992.38
240.752 860.873 2992.9
240.809 860.771 2992.55
240.967 860.588 2993.23
241.006 860.441 2992.89
241.417 859.354 2992.88
241.696 858.578 2992.94
241.742 858.36 2992.74
241.902 858.134 2992.53
241.847 858.182 2992.59
241.749 858.35 2992.59
241.69 858.473 2992.68
241.959 858.093 2992.48
242.108 857.952 2992.61
242.405 857.736 2992.82
242.257 857.833 2992.71
242.539 857.686 2992.67
242.487 857.698 2992.75
249.914 856.843 2996.39
250.217 857.315 2995.18
246.437 856.82 2995.26
247.081 856.854 2995.42
244.06 857.184 2993.55
243.41 857.363 2993.08
243.047 857.508 2992.82
242.644 857.692 2992.58
254.674 854.611 2998.95
255.881 853.921 2996.42
253.057 855.614 2994.04
251.056 856.641 2992.12
250.685 856.797 2991.67
250.326 857.087 2991.23
250.093 857.208 2990.95
249.955 857.299 2991.04
249.739 857.419 2990.81
249.282 857.596 2990.74
249.598 857.536 2990.7
249.706 857.509 2990.55
250.377 857.348 2994.83
248.047 857.853 2992.8
247.769 857.863 2991.52
248.926 857.663 2990.63
259.76 848.679 2996.35
261.782 847.304 2997.97
264.197 847.831 3000.73
255.608 851.679 2994.67
258.014 849.35 2995.07
254.09 850.884 2992.36
265.454 844.276 3000.06
269.199 842.314 3002.37
267.466 840.429 2999.64
268.04 838.45 2998.75
266.829 840.038 2998.62
268.37 837.606 2998.02
268.337 837.386 2997.43
268.797 837.085 2997.22
269.437 836.813 2997.25
269.563 836.691 2996.75
267.945 838.056 2998.15
270.017 836.586 2996.55
269.794 836.641 2996.21
274.924 835.733 2993.84
271.409 836.51 2995.49
273.54 836.099 2994.19
275.391 835.712 2993.53
276.433 835.845 2992.88
