203.005 956.41 3385.64
202.301 948.54 3385.4
202.316 948.176 3384.96
202.285 948.072 3385.19
202.339 947.832 3385.07
202.37 948.858 3385.57
202.441 947.584 3384.98
202.737 947.012 3385.25
202.658 947.37 3384.73
202.757 947.185 3384.84
203.673 945.813 3385.05
204.565 945.027 3383.62
205.002 944.199 3383.74
205.455 942.74 3383.44
205.804 941.859 3381.99
205.975 941.6 3381.93
208.421 936.399 3386.75
208.626 934.795 3391.25
208.722 935.84 3389.54
208.769 935.431 3389.94
208.638 935.82 3388.51
206.716 941.009 3380.77
207.442 940.436 3380.07
207.808 939.803 3379.39
208.009 938.891 3378.41
208.264 937.51 3377.9
209.586 934.582 3377.67
210.633 932.424 3376.28
209.168 935.563 3376.96
210.679 932.441 3375.89
209.158 935.784 3379.97
209.328 935.749 3382.2
209.211 935.733 3383.06
209.051 936.031 3383.2
208.722 936.011 3384.5
208.812 935.818 3384.36
207.648 940.388 3379.28
207.468 940.532 3379.73
207.454 940.681 3379.39
208.466 936.044 3386.14
208.519 935.769 3385.93
208.532 933.744 3392.41
208.647 933.074 3392.5
208.565 933.447 3392.35
208.754 932.687 3392.63
209.031 931.958 3393.06
209.324 931.331 3393.26
209.761 930.712 3393.35
211.056 929.303 3393.88
212.749 927.133 3394.34
212.339 927.755 3393.68
212.651 927.354 3393.98
213.249 925.811 3394.51
213.728 924.51 3394.9
213.938 924.093 3394.86
214.141 923.805 3394.71
215.001 923.033 3394.05
215.705 922.479 3392.26
215.124 923.194 3389.38
215.171 923.126 3388.37
215.783 922.668 3388.72
216.444 922.119 3389.15
217.604 920.709 3390.7
218.443 919.787 3391.27
219.107 919.765 3390.3
218.719 919.909 3390.49
219.506 919.658 3390.07
220.497 919.956 3388.06
221.737 920.036 3386.92
222.635 919.98 3387.27
221.33 920.199 3386.55
224.989 920.032 3389.69
227.722 920.309 3392.17
228.031 920.291 3392.83
228.487 920.266 3393.44
227.054 920.248 3391.86
228.762 920.219 3393.65
229.067 920.083 3394.19
229.024 920.176 3393.86
228.491 919.246 3395.46
228.412 919.113 3395.67
228.586 919.222 3395.45
229.045 919.619 3394.99
229.387 919.999 3394.38
229.244 920.042 3394.29
229.513 919.942 3394.5
228.449 919.068 3395.7
228.46 918.981 3395.82
228.535 919.047 3395.63
228.283 918.693 3396.33
228.353 918.79 3396.19
228.442 918.857 3395.99
228.505 918.928 3395.82
228.213 918.588 3396.48
227.913 917.036 3396.26
227.408 915.747 3394.39
226.756 914.378 3391.62
226.596 913.736 3390.71
227.896 917.488 3396.46
226.857 912.41 3388.5
226.967 912.272 3388.8
226.764 913.134 3390.19
226.918 912.96 3390.43
227.648 911.901 3390.67
228.317 910.858 3390.99
228.027 917.869 3396.4
228.092 918.122 3396.38
228.245 918.563 3396.41
228.187 918.348 3396.32
229.262 907.935 3388.47
228.573 908.06 3385.2
229.726 906.66 3383.39
228.649 909.706 3391.34
228.803 909.05 3390.69
228.872 908.544 3388.35
228.494 909.765 3389.24
232.265 904.433 3383.26
231.542 904.835 3382.88
231.748 904.717 3382.68
233.957 903.943 3383.39
232.409 904.389 3382.82
235.242 903.703 3382.76
235.541 903.686 3381.85
236.297 903.352 3381.07
237.706 903.14 3379.05
231.272 905.074 3382.74
202.819 964.94 3384.3
202.916 963.88 3384.53
202.853 955.33 3382.82
202.338 954.698 3380.47
202.172 954.738 3380.14
202.019 954.721 3379.79
201.95 954.708 3379.5
201.902 954.833 3379.37
201.974 954.696 3379.62
201.872 954.877 3379.08
201.809 955.16 3379.07
203.377 961.098 3381.16
203.315 960.528 3380.99
203.188 960.232 3381.3
201.857 955.588 3379
201.834 955.298 3378.91
201.97 956.273 3379.26
201.896 955.868 3379.04
202.604 958.686 3380.89
202.139 956.901 3379.55
205.098 954.97 3391.9
205.185 954.898 3391.91
205.251 954.707 3392.08
205.243 954.803 3391.95
205.256 954.581 3392.22
205.324 954.488 3392.22
205.302 954.377 3392.26
205.288 954.292 3392.26
205.339 954.225 3392.13
205.276 953.613 3391.69
205.331 953.836 3391.83
205.412 954.072 3391.92
205.433 954.165 3391.93
204.742 952.496 3390.77
203.594 950.845 3388.73
205.222 953.322 3391.3
202.627 949.432 3386.28
202.442 949.028 3385.72
204.861 955.171 3391.82
205.01 955.037 3391.94
204.657 955.378 3391.52
204.252 955.755 3390.9
203.509 956.217 3389.21
203.352 956.335 3386.76
203.5 956.147 3386.06
203.138 955.119 3382.91
202.349 948.499 3385.07
202.38 948.158 3384.71
202.374 947.938 3384.74
202.468 947.718 3384.65
202.424 948.757 3385.14
202.622 947.522 3384.53
203.278 946.652 3384.42
203.261 946.932 3383.95
203.228 947.108 3383.7
204.328 945.744 3382.41
204.94 944.718 3382.2
205.371 943.187 3382.41
205.188 944.242 3382.07
205.367 943.037 3383.13
205.651 942.159 3382.01
205.767 941.977 3381.71
205.978 941.691 3381.55
208.656 934.522 3391.16
208.802 935.117 3389.99
208.652 935.578 3388.01
208.83 935.098 3389.56
206.688 941.137 3380.49
207.774 940.09 3378.98
208.022 939.156 3378.08
208.307 937.662 3377.56
209.13 935.732 3376.76
210.811 932.177 3377.1
212.21 929.291 3376.39
212.609 928.465 3376.22
209.954 934.046 3375.78
210.396 933.2 3375.73
211.078 931.896 3375.34
211.474 930.895 3375.3
212.499 928.721 3375.88
209.911 934.799 3379.88
209.478 935.465 3381.29
210.642 932.763 3377.88
209.575 935.42 3382.27
209.416 935.498 3382.85
208.921 935.548 3384.26
209.061 935.283 3384.14
208.591 935.458 3385.93
208.683 935.306 3385.56
207.561 940.714 3379.07
206.683 941.214 3380.26
206.709 941.293 3380.08
207.384 940.948 3379.3
208.71 935.31 3387.75
208.632 933.233 3392.13
208.719 932.836 3392.33
208.693 934.254 3391.09
208.971 932.066 3392.66
209.324 931.328 3392.98
209.814 930.584 3392.92
211.053 929.2 3393.51
211.166 929.04 3393.19
212.843 926.93 3393.77
212.38 927.679 3393.21
212.647 927.296 3393.48
213.263 925.834 3394.11
213.755 924.494 3394.53
213.936 924.199 3394.39
214.699 923.44 3393.84
215.27 923.087 3392.72
215.106 923.261 3390.69
214.746 923.531 3388.13
215.405 922.91 3387.67
214.396 923.213 3385.26
214.522 923.044 3384.92
216.007 922.529 3387.6
216.596 922.162 3388.17
217.012 921.778 3388.94
218.267 920.622 3389.56
219.291 920.625 3388.01
220.096 920.141 3387.93
220.809 920.309 3386.79
221.147 920.316 3386.24
222.033 920.089 3386.25
223.081 919.983 3386.51
225.684 920.117 3389.35
221.505 920.232 3385.84
228.314 920.349 3392.32
228.588 920.307 3393.12
228.972 920.27 3393.46
229.283 920.128 3394.09
229.233 920.212 3393.81
229.144 919.578 3395.04
228.657 919.191 3395.46
229.242 919.552 3395.06
229.657 919.898 3394.6
229.454 920.078 3394.21
229.598 920.01 3394.36
229.746 919.965 3394.45
228.735 919.165 3395.47
228.61 919.013 3395.61
228.826 919.135 3395.49
228.393 918.769 3396.12
228.315 918.665 3396.28
228.542 918.884 3395.8
228.473 918.819 3395.95
228.641 918.962 3395.64
227.844 917.139 3395.92
227.27 915.871 3394.09
226.59 914.504 3391.56
226.53 913.995 3390.76
226.742 912.649 3388.42
227.957 917.533 3396.16
226.906 910.985 3384.68
227.059 910.709 3385.14
227.09 912.089 3388.91
227.304 910.226 3385.39
227.727 911.038 3388.89
228.438 910.232 3390.31
228.059 917.895 3396.2
228.16 918.148 3396.15
228.359 918.662 3396.18
228.297 918.542 3396.25
228.293 918.391 3396.06
228.252 908.524 3385.5
227.729 908.524 3382.92
227.979 908.256 3382.46
229.002 907.384 3382.6
230.387 906.009 3382.93
227.838 909.123 3385.39
231.979 904.626 3382.44
231.24 905.141 3382.23
231.393 905.016 3382.08
231.5 904.988 3381.87
233.687 904.123 3382.62
232.251 904.543 3382.24
234.886 904.007 3381.8
235.265 904.078 3380.91
236.413 903.743 3379.77
235.749 905.029 3378.16
236.1 905.03 3377.28
230.431 905.982 3382.41
202.42 954.5 3380.32
202.187 954.423 3379.78
202.068 954.482 3379.57
202.004 954.516 3379.4
201.936 954.683 3379.17
201.968 954.586 3379.29
201.869 954.93 3378.83
201.903 954.776 3378.9
203.61 960.272 3379.92
203.292 959.923 3380.52
201.892 955.418 3378.74
201.916 955.652 3378.82
201.889 955.07 3378.7
201.953 956.086 3379.02
202.15 956.691 3379.23
201.978 955.865 3378.84
202.728 958.36 3380.04
205.212 954.946 3391.77
205.168 954.995 3391.77
205.116 955.027 3391.82
205.271 954.856 3391.81
205.313 954.614 3392.09
205.312 954.735 3391.92
205.424 954.574 3392.09
205.462 954.462 3392.02
205.371 954.386 3392.12
205.367 954.297 3392.1
205.471 954.241 3391.89
205.428 953.61 3391.4
205.454 953.803 3391.62
205.5 953.969 3391.72
205.551 954.078 3391.69
205.574 954.165 3391.69
203.614 950.872 3388.4
205.059 952.805 3390.49
203.83 951.11 3388.39
205.488 953.372 3390.84
202.798 949.64 3386.05
202.576 949.21 3385.57
202.504 948.954 3385.21
205.075 955.085 3391.81
204.904 955.233 3391.65
204.571 955.539 3391.08
204.833 955.368 3391.3
204.044 955.92 3390.18
203.374 956.349 3387.77
204.83 955.853 3387.73
205.318 955.229 3386.92
203.471 954.795 3382.8
202.433 948.305 3384.62
202.463 948.001 3384.45
202.589 948.124 3384.18
202.518 947.841 3384.37
203.413 947.088 3383
202.5 948.511 3384.62
203.176 947.274 3383.58
203.937 946.386 3382.47
203.891 946.591 3382.29
204.754 945.346 3381.5
205.17 944.452 3381.69
205.422 943.238 3381.93
205.613 942.348 3381.75
205.48 943.267 3381.57
205.759 942.053 3381.44
205.997 941.745 3381.2
208.868 934.793 3389.99
208.906 934.842 3389.45
207.766 940.263 3378.69
207.603 940.686 3378.9
208.053 939.398 3377.84
208.334 937.918 3377.31
209.223 935.846 3376.4
210.058 934.145 3375.33
213.251 927.4 3377.76
212.873 928.292 3377.69
213.768 926.372 3377.99
213.932 926.118 3377.85
213.512 926.701 3376.42
210.5 933.285 3375.32
211.167 931.969 3374.99
211.532 930.922 3375.03
212.648 928.499 3375.69
210.184 934.676 3380.97
211.054 932.478 3378.67
212.25 932.868 3382.24
209.932 935.053 3381.83
212.116 930.101 3377.59
209.854 935.091 3382.76
209.565 935.265 3383.08
209.185 935.089 3384.12
208.836 934.972 3385.31
208.98 934.75 3385.21
208.749 935.048 3385.86
208.793 935.062 3387.55
207.51 940.953 3379.09
205.984 941.834 3380.99
206.747 941.385 3379.93
206.041 941.854 3380.74
207.395 941.182 3379.21
208.732 932.938 3392
208.753 933.998 3391.02
208.854 932.402 3392.33
209.158 931.723 3392.55
209.649 930.846 3392.62
210.43 929.93 3392.38
211.45 928.746 3392.77
212.915 926.865 3393.33
212.462 927.652 3392.67
212.687 927.318 3392.9
213.306 925.8 3393.78
213.515 925.868 3392.73
214.043 924.629 3393.27
214.381 923.965 3393.58
214.741 923.996 3392.44
214.897 923.758 3391.79
214.611 924.061 3390.05
214.513 923.908 3388.53
213.899 923.658 3384.9
213.966 923.413 3384.51
214.847 922.841 3385.01
213.596 923.28 3382.96
213.681 923.134 3382.68
215.232 922.637 3385.03
216.641 922.196 3387.38
215.678 922.459 3385.2
217.22 921.923 3387.63
217.242 921.814 3388.25
217.778 921.492 3388.34
218.593 921.454 3387.18
219.781 921.009 3386.55
220.435 920.558 3386.65
220.822 920.44 3386.35
220.955 920.468 3385.88
221.241 920.347 3385.59
221.908 920.114 3385.33
222.378 920.034 3385.8
224.603 919.883 3386.09
223.069 919.742 3383.56
226.988 920.195 3389.88
221.402 920.272 3385
228.838 920.341 3392.55
228.831 920.327 3393.02
229.299 920.285 3393.49
229.139 920.327 3393.14
229.459 920.165 3393.99
229.457 920.23 3393.78
229.786 919.853 3394.68
229.348 919.546 3395.06
229.863 919.812 3394.71
229.879 919.918 3394.55
229.654 920.062 3394.25
229.631 920.131 3394.07
229.833 920.022 3394.33
229.955 919.978 3394.42
229.438 919.522 3395.06
228.901 919.094 3395.52
229.491 919.452 3395.1
228.41 918.738 3396.08
228.555 918.85 3395.77
228.665 918.921 3395.6
228.485 918.783 3395.92
228.924 919.037 3395.53
227.912 917.328 3395.64
227.283 916.051 3393.96
227.213 915.988 3393.55
226.531 914.701 3391.5
226.479 914.218 3390.73
226.668 912.874 3388.42
226.731 911.486 3383.53
228.027 917.657 3395.95
226.707 910.978 3382.04
226.911 910.109 3383.17
227.054 909.656 3383.07
227.233 909.297 3383.18
228.118 917.948 3395.97
228.226 918.176 3395.89
228.404 918.648 3396.07
228.455 918.724 3395.98
228.341 918.376 3395.8
228.416 918.577 3395.93
227.478 908.863 3383.06
227.468 908.794 3382.21
227.735 908.498 3382.09
228.09 908.167 3382.01
228.901 907.498 3382.05
231.759 904.84 3381.82
231.127 905.317 3381.9
230.45 906.034 3381.99
231.197 905.305 3381.7
231.622 905.018 3381.59
231.38 905.25 3381.47
233.424 904.346 3381.99
231.997 904.768 3381.75
234.462 904.432 3380.94
235.047 904.378 3380.34
235.128 904.757 3379.47
234.962 905.68 3378.16
235.035 905.911 3377.61
235.531 905.533 3377.37
236.177 905.191 3376.2
202.289 954.228 3379.62
202.589 954.287 3380.15
202.176 954.332 3379.43
202.043 954.432 3379.25
201.979 954.507 3379.08
201.954 954.589 3378.98
201.939 954.678 3378.87
201.918 954.829 3378.72
201.97 954.722 3378.73
203.517 959.506 3379.57
202.038 955.492 3378.57
202.018 955.664 3378.68
201.963 955.24 3378.6
201.962 954.952 3378.59
202.13 956.424 3378.97
202.039 956.066 3378.87
202.84 958.121 3379.45
202.088 955.907 3378.72
205.34 954.942 3391.66
205.297 954.987 3391.64
205.259 955.023 3391.66
205.199 955.054 3391.71
205.393 954.869 3391.75
205.41 954.682 3391.97
205.47 954.808 3391.84
205.591 954.598 3391.95
205.563 954.72 3391.95
205.495 954.334 3391.89
205.62 954.448 3391.8
205.603 954.269 3391.69
205.585 953.699 3391.28
205.62 953.875 3391.46
205.657 953.973 3391.44
205.699 954.078 3391.43
205.739 954.227 3391.5
203.92 951.149 3388.09
205.289 952.897 3390.19
205.663 953.529 3390.85
205.621 953.246 3390.36
202.927 949.647 3385.65
202.716 949.32 3385.36
202.617 948.941 3384.9
205.237 955.087 3391.67
205.077 955.187 3391.59
204.641 955.604 3390.83
204.982 955.356 3391.22
204.162 955.991 3389.77
203.697 956.214 3388.73
204.974 955.935 3388.37
206.337 955.326 3388.76
206.339 955.54 3389.37
206.283 954.125 3386.24
203.569 954.497 3382.25
206.723 954.254 3387.26
206.428 954.89 3387.92
202.673 948.268 3384.08
202.69 947.975 3383.98
203.518 947.66 3382.68
203.603 947.435 3382.49
203.503 947.144 3382.77
203.551 947.222 3382.61
204.503 946.053 3381.03
204.316 946.165 3381.34
202.687 948.481 3384.22
204.402 945.993 3381.4
204.911 945.231 3381.18
205.202 944.533 3381.39
205.362 944.108 3381.47
205.622 942.353 3381.53
205.582 943.114 3381.29
205.759 942.184 3381.23
208.934 934.514 3389.92
208.981 934.611 3389.43
207.688 940.668 3378.64
207.527 941.003 3378.95
208.102 939.756 3377.68
208.398 938.158 3377.07
208.535 937.591 3377.01
209.022 936.68 3376.49
209.649 935.308 3375.72
209.998 934.536 3375.15
210.201 934.269 3374.88
210.642 933.352 3374.93
213.972 926.193 3379.27
213.706 926.82 3379.19
212.981 928.492 3378.33
214.191 925.814 3379.4
214.214 925.707 3377.84
214.418 925.461 3379.07
213.759 926.383 3376.23
211.26 932.063 3374.73
211.542 931.187 3374.71
211.72 930.612 3374.86
212.468 928.985 3375.36
213.54 926.826 3375.9
210.599 934.404 3382.05
212.238 933.132 3382.82
212.473 933.164 3383.66
212.319 932.041 3380.88
212.858 931.01 3380.52
213.823 931.896 3384.2
213.805 932.227 3384.82
210.307 934.654 3382.64
213.305 930.387 3380.8
209.996 934.857 3383.16
209.693 935.06 3383.28
209.263 934.934 3384.15
209.099 934.612 3385.14
208.919 934.752 3385.76
209.097 934.511 3385.68
208.881 934.857 3387.29
209.023 934.628 3388.96
206.718 941.571 3379.86
206.063 942.047 3380.63
205.858 942.253 3380.95
207.431 941.321 3379.08
208.849 933.732 3390.98
208.884 932.502 3392.08
209.115 931.989 3392.15
209.524 931.144 3392.39
210.335 930.192 3391.95
210.886 929.587 3391.72
211.66 928.622 3392.2
212.689 927.744 3391.81
212.936 927.62 3391.36
213.043 927.217 3391.92
213.356 927.534 3390.04
213.157 927.798 3390.25
213.735 926.142 3391.08
214.32 924.847 3391.68
214.414 924.671 3391.05
214.048 925.287 3390.13
214.241 924.465 3388.47
213.78 923.901 3385.08
213.408 923.491 3382.94
213.41 923.326 3382.56
213.913 922.976 3382.63
213.447 923.231 3382.35
213.523 923.137 3382.25
214.239 922.834 3382.77
216.995 922.073 3386.94
215.855 922.386 3384.68
218.347 921.749 3386.41
218.47 921.585 3386.92
219.978 921.045 3386.08
220.044 921.098 3385.62
220.966 920.496 3385.41
221.688 919.887 3382.98
226.188 919.876 3387.06
228.079 920.224 3390.54
221.383 919.668 3381.01
222.905 919.594 3381.79
224.719 919.525 3383.22
224.589 919.514 3382.45
221.048 920.428 3384.8
221.265 919.987 3382.79
229.038 920.329 3392.26
229.432 920.324 3393.11
229.607 920.264 3393.53
229.643 920.193 3393.83
229.966 919.86 3394.61
229.892 919.763 3394.73
230.049 919.807 3394.66
230.039 919.918 3394.49
229.843 920.085 3394.17
229.788 920.141 3393.98
230.023 920.045 3394.23
230.094 919.973 3394.35
229.921 919.71 3394.75
229.516 919.344 3395.17
229.959 919.657 3394.77
228.561 918.815 3395.76
228.682 918.887 3395.57
228.928 918.976 3395.44
229.53 919.252 3395.17
227.894 917.378 3395.15
228.009 917.557 3395.55
227.206 916.024 3393.29
226.521 914.757 3391.07
226.477 914.362 3390.65
226.643 913.021 3388.29
226.753 911.873 3384.38
226.51 912.467 3381.96
226.495 912.141 3381.5
228.094 917.766 3395.72
226.781 910.667 3381.59
226.961 909.825 3382.56
226.552 911.677 3380.95
226.444 912.105 3381.04
227.15 909.35 3382.41
227.319 909.036 3382.46
228.179 917.994 3395.7
228.291 918.201 3395.63
228.514 918.718 3395.86
228.55 918.772 3395.79
228.429 918.367 3395.57
228.47 918.527 3395.72
228.534 918.689 3395.81
227.51 908.775 3381.79
227.298 909.122 3381.96
227.741 908.505 3381.76
227.955 908.305 3381.68
228.803 907.649 3381.58
230.508 906.085 3381.61
230.575 906.142 3381.3
231.575 905.218 3381.25
231.849 905.006 3381.35
231.471 905.457 3381.03
231.226 905.508 3381.22
233.166 904.58 3381.46
233.068 904.799 3381.03
234.376 904.759 3380.23
234.337 905.217 3379.54
234.49 905.766 3378.56
233.964 907.237 3377.25
234.501 907.036 3376.84
234.925 906.753 3376.55
235.328 905.947 3376.93
236.038 905.427 3375.98
202.331 954.206 3379.35
202.458 954.167 3379.59
202.726 954.165 3380.12
202.153 954.32 3379.21
202.1 954.378 3379.02
202.035 954.442 3378.98
202.029 954.511 3378.83
202.09 954.64 3378.67
201.977 954.824 3378.62
202.014 954.746 3378.61
202.051 954.686 3378.59
202.025 954.657 3378.65
203.737 959.028 3378.7
202.135 955.724 3378.56
202.17 955.529 3378.44
202.075 955.292 3378.49
202.032 955.011 3378.5
202.887 957.777 3379
202.161 956.21 3378.77
202.19 956.02 3378.65
205.521 955.01 3391.55
205.562 954.962 3391.63
205.474 955.046 3391.55
205.415 955.078 3391.57
205.606 954.914 3391.71
205.647 954.852 3391.81
205.746 954.656 3391.79
205.722 954.781 3391.88
205.76 954.385 3391.59
205.778 954.537 3391.67
205.73 953.723 3391.06
205.753 953.833 3391.1
206.175 954.143 3390.96
206.208 954.326 3391.15
206.234 954.501 3391.31
204.231 951.418 3388.14
203.167 949.828 3385.58
205.637 952.88 3389.52
206.104 953.594 3390.27
206.233 953.124 3388.97
202.827 949.287 3385.04
202.997 949.443 3385.01
202.781 948.853 3384.5
205.271 955.176 3391.49
205.417 955.131 3391.52
204.602 955.775 3390.39
204.962 955.495 3390.91
205.188 955.305 3391.23
205.128 955.879 3389.66
204.993 955.954 3389.04
206.268 955.636 3389.72
206.687 954.826 3388.27
206.52 955.479 3389.63
206.586 955.353 3389.39
206.484 955.57 3390.07
204.07 954.359 3382.64
206.379 953.879 3385.93
206.693 953.974 3386.69
206.878 954.052 3387.23
206.934 954.01 3387.66
202.909 948.385 3383.78
203.797 947.555 3382.28
203.249 947.665 3383.12
204.477 946.568 3380.9
203.905 947.033 3382.05
204.309 946.617 3381.2
204.538 946.281 3380.8
204.483 946.156 3380.94
204.526 946.179 3380.81
204.599 945.856 3381.07
204.732 945.785 3380.87
204.719 945.95 3380.76
202.98 948.535 3383.84
205.042 945.166 3380.93
205.321 944.379 3381.18
205.309 944.334 3381.31
205.416 943.949 3381.35
205.695 943.027 3381.06
209.024 934.3 3389.84
209.121 934.309 3389.43
207.657 941.18 3378.66
207.763 940.834 3378.47
208.183 940.223 3377.54
208.47 938.45 3376.9
208.647 937.822 3376.69
209.184 936.78 3376.14
209.807 935.463 3375.33
210.07 934.73 3374.88
210.285 934.492 3374.57
210.437 934.252 3374.46
210.406 934.012 3374.71
210.891 933.442 3374.43
211.362 932.133 3374.52
214.041 926.047 3379.67
213.864 926.462 3379.62
213.891 926.317 3379.92
213.727 926.914 3379.73
213.532 927.765 3379.65
213.613 929.905 3381.14
214.245 925.698 3379.67
214.429 925.381 3379.35
214.393 925.451 3377.89
214.572 925.184 3379.02
214.603 925.13 3379.2
214.1 926.058 3376.07
214.203 925.82 3376.53
211.753 931.013 3374.46
211.974 930.54 3374.5
212.828 928.645 3375.05
212.782 928.516 3375.25
213.767 926.627 3375.72
210.83 934.249 3382.71
212.339 933.345 3384.03
213.607 932.502 3384.83
213.68 932.612 3385.53
213.55 932.622 3385.04
214.173 931.478 3384.52
214.234 931.753 3385.27
214.007 932.233 3385.57
214.291 931.821 3385.78
210.461 934.461 3383.29
210.937 934.165 3383.1
214.338 931.12 3384.53
210.272 934.565 3383.46
209.669 934.575 3384.24
209.471 934.736 3384.17
209.191 934.508 3385.09
209.285 934.361 3385.65
209.144 934.44 3387.24
209.032 934.594 3385.79
208.993 934.649 3387.25
209.343 934.241 3387.22
209.175 934.402 3388.79
206.729 941.77 3379.77
205.869 942.858 3380.8
207.362 941.479 3379.08
208.951 933.466 3390.99
209.09 933.113 3391.03
209.931 930.829 3391.89
210.999 929.666 3391.18
212.05 928.673 3390.94
211.923 928.583 3391.5
212.97 928.062 3390.28
213.396 927.726 3389.51
213.266 927.927 3389.62
213.512 927.222 3389.9
213.506 927.647 3389.35
213.143 928.133 3389.74
214.069 925.491 3390.85
213.781 926.388 3389.94
213.908 926.001 3389.13
214.025 925.051 3388.22
213.548 924.397 3384.92
213.618 924.13 3384.82
213.367 923.684 3383.18
213.279 923.394 3382.17
213.277 923.525 3382.49
213.416 923.242 3382.06
213.766 923.036 3382.25
213.511 923.167 3382
213.652 923.107 3381.89
214.527 922.713 3382.69
214.034 922.91 3382.31
218.007 922.002 3385.13
216.332 922.306 3384.28
219.303 921.606 3385.56
218.608 921.972 3384.18
219.986 921.172 3385.15
218.868 921.893 3383.98
220.742 920.605 3385.13
220.903 919.756 3380.73
225.448 919.53 3384.45
227.274 919.932 3388.26
228.945 920.204 3391.2
221.206 919.674 3380.41
220.644 919.76 3380.14
222.712 919.596 3381.25
224.564 919.54 3381.95
224.818 919.481 3382.47
224.905 919.468 3382.96
224.827 919.468 3382.03
220.989 920.075 3382.7
220.676 920.243 3382.76
220.547 919.919 3380.76
229.399 920.284 3392.45
229.65 920.282 3393.18
229.791 920.225 3393.57
229.874 920.163 3393.82
230.133 919.863 3394.54
230.057 919.751 3394.7
230.221 919.803 3394.59
230.205 919.908 3394.37
229.978 920.101 3394.03
230.111 920.033 3394.13
230.077 920.082 3393.99
230.086 919.694 3394.73
230.013 919.603 3394.79
230.143 919.647 3394.73
228.68 918.851 3395.57
228.918 918.913 3395.36
229.522 919.19 3395.12
230.041 919.535 3394.78
228.051 917.561 3394.94
228.089 917.723 3395.31
227.221 916.064 3393.04
226.59 914.879 3390.95
226.62 913.606 3388.9
226.657 913.827 3389.01
226.606 913.343 3388.74
226.84 912.643 3386.12
226.806 912.34 3384.73
226.656 912.667 3382.78
226.457 913.329 3381.83
226.276 913.007 3381.13
226.26 912.707 3380.8
226.904 910.354 3381.26
226.657 911.399 3380.74
227.031 909.635 3382.09
226.503 911.814 3380.43
226.36 912.167 3380.56
226.135 912.596 3380.12
227.159 909.399 3381.74
228.217 917.96 3395.44
228.365 918.165 3395.47
228.63 918.768 3395.65
228.652 918.808 3395.61
228.568 918.515 3395.52
228.528 918.275 3395.38
228.613 918.707 3395.65
227.508 908.825 3381.53
227.334 909.09 3381.59
227.729 908.579 3381.39
227.926 908.456 3381.07
229.021 907.56 3381.27
230.646 906.262 3380.99
228.963 907.802 3380.74
228.68 907.913 3380.95
231.795 905.258 3381.02
232.887 905.1 3380.62
230.718 906.439 3380.7
231.708 905.579 3380.75
232.792 905.456 3380.21
233.974 905.929 3378.83
233.293 907.32 3377.85
233.187 908.344 3376.78
202.485 954.132 3379.27
202.327 954.216 3379.13
202.634 954.132 3379.58
202.936 954.125 3380.21
204.308 954.257 3382.59
202.227 954.296 3378.98
202.131 954.407 3378.88
202.175 954.354 3378.92
202.065 954.579 3378.66
202.172 954.429 3378.78
202.125 954.502 3378.71
202.056 954.857 3378.52
202.107 954.745 3378.52
202.107 954.625 3378.55
202.162 954.675 3378.48
203.712 958.251 3378.29
202.258 955.804 3378.46
202.243 955.38 3378.36
202.36 955.669 3378.34
202.128 955.143 3378.4
202.117 954.961 3378.41
202.85 957.313 3378.69
202.89 957.001 3378.48
202.349 956.08 3378.53
205.978 955.14 3391.34
206.029 955.082 3391.4
206.078 955.027 3391.46
205.933 955.196 3391.29
205.857 955.354 3391.39
206.132 954.976 3391.5
206.179 954.926 3391.53
206.23 954.859 3391.51
206.288 954.794 3391.42
206.281 954.735 3391.43
206.245 954.643 3391.42
206.129 953.762 3390.51
206.161 953.982 3390.76
206.688 954.288 3390.58
206.686 954.51 3390.86
206.502 954.036 3390.45
206.732 954.688 3391.02
206.816 954.827 3391.07
204.404 951.352 3387.54
203.293 949.721 3385.11
206.16 952.824 3388.36
204.639 951.312 3386.98
206.4 953.371 3389.24
206.598 953.573 3389.34
206.544 953.9 3390.19
206.624 952.812 3387.59
206.749 953.018 3387.85
206.652 953.17 3388.32
202.97 948.951 3384.34
203.198 949.234 3384.43
205.723 955.381 3391.06
205.812 955.319 3391.15
205.306 955.769 3390.16
205.507 955.609 3390.6
205.605 955.485 3390.86
206.127 955.669 3390.3
206.214 955.674 3390.05
206.776 954.771 3388.35
207.008 953.862 3388.13
206.663 955.249 3389.28
206.581 955.489 3389.98
206.629 955.411 3389.72
206.554 955.545 3390.3
206.378 955.589 3390.36
206.04 953.993 3385.24
206.38 953.779 3385.56
206.602 953.844 3386.28
206.687 953.839 3386.36
206.941 953.952 3386.96
207.114 953.866 3387.43
207.294 953.671 3387.96
207.107 953.633 3388.06
203.763 947.786 3382.47
204.589 946.873 3380.93
204.628 946.574 3380.72
204.677 946.284 3380.57
204.706 946.159 3380.57
204.77 946.028 3380.61
205.186 945.105 3380.72
204.851 945.737 3380.69
204.925 945.808 3380.55
203.244 948.6 3383.58
203.881 947.847 3382.38
205.486 944.322 3380.95
205.493 943.843 3381.18
205.443 943.889 3381.28
209.146 934.083 3389.83
209.357 933.969 3389.38
209.282 934.148 3389.3
209.211 934.128 3389.47
207.798 941.376 3378.4
208.889 940.863 3376.29
208.968 939.411 3376.08
209.226 938.388 3375.66
210.054 936.913 3374.65
209.957 935.511 3375.06
210.227 934.829 3374.58
210.908 934.978 3373.57
211.075 934.557 3373.47
211.526 933.077 3373.68
214.008 926.046 3379.97
213.791 926.668 3380.02
213.806 926.492 3380.36
213.838 926.289 3380.39
213.699 927.296 3380.11
214.066 929.05 3382.02
213.889 929.425 3381.62
214.423 925.25 3379.63
214.193 925.726 3379.99
214.601 924.971 3379.46
214.668 925.161 3378.03
214.761 924.912 3379.12
214.788 924.801 3379.38
214.418 925.738 3376.04
214.433 925.57 3376.61
212.276 931.417 3373.59
212.479 931.002 3373.61
212.96 928.666 3374.85
213.803 926.775 3375.47
214.302 926.08 3375.67
212.395 933.371 3384.59
213.568 932.753 3385.81
213.847 932.446 3385.54
213.777 932.58 3386.17
214.429 931.389 3385.47
214.242 931.979 3386.42
214.013 932.323 3386.12
214.466 931.538 3386.15
210.679 934.28 3383.61
211.112 934.038 3383.6
214.552 930.638 3384.72
214.543 930.987 3385.32
210.407 934.364 3383.8
209.869 934.412 3384.37
209.463 934.269 3385.41
209.68 934.148 3385.42
209.372 934.328 3385.5
209.514 934.093 3387.07
209.393 934.105 3388.69
209.701 933.864 3388.71
206.543 942.457 3379.96
206.027 942.837 3380.57
205.711 943.516 3380.93
205.602 943.841 3381
207.493 941.637 3378.85
209.434 932.417 3391.11
209.306 933.779 3389.87
210.973 929.889 3390.86
211.278 929.585 3390.66
212.08 928.83 3390.52
212.909 928.316 3389.94
213.383 927.897 3389.31
213.216 928.281 3389.41
213.303 928.122 3389.34
213.667 927.051 3389.23
213.581 927.729 3389.03
213.497 927.971 3389.01
212.993 928.441 3389.56
213.821 926.408 3388.7
213.89 925.594 3387.97
213.484 924.665 3384.95
213.111 924.363 3382.9
213.25 924.015 3383.1
213.2 923.74 3382.6
213.291 923.386 3381.98
213.144 923.569 3382.01
213.142 923.627 3382.12
213.437 923.253 3381.86
213.71 923.05 3381.82
213.499 923.094 3381.86
213.648 923.114 3381.66
214.306 922.811 3382.33
214.841 922.643 3382.61
213.976 922.947 3381.92
217.542 922.271 3383.21
217.852 922.388 3382.54
217.938 922.235 3382.96
216.465 922.331 3383.69
218.161 922.303 3382.5
218.331 922.179 3382.79
219.097 921.761 3383.73
219.814 921.245 3384.05
218.752 921.96 3382.67
218.423 922.208 3382.26
220.581 919.847 3380.08
225.675 919.378 3383.9
225.106 919.406 3383
227.398 919.786 3387.73
229.292 920.126 3391.35
221.202 919.696 3380.07
220.837 919.785 3379.67
220.579 919.872 3379.51
222.778 919.605 3380.91
224.456 919.578 3381.61
224.878 919.506 3381.59
224.96 919.426 3382.26
225.036 919.409 3381.71
220.405 920.421 3382.75
220.127 920.14 3380.39
220.3 919.991 3380.04
229.658 920.215 3392.6
229.787 920.231 3393.19
229.944 920.187 3393.58
230.044 920.131 3393.84
230.306 919.835 3394.41
230.206 919.744 3394.68
230.356 919.739 3394.57
230.41 919.767 3394.43
230.189 920 3394.09
230.145 920.073 3393.88
230.132 920.094 3393.76
230.268 919.695 3394.67
230.157 919.59 3394.69
230.27 919.638 3394.61
228.899 918.864 3395.34
229.516 919.131 3395.06
230.033 919.453 3394.72
230.158 919.526 3394.61
228.169 917.653 3394.87
228.222 917.796 3395.16
227.335 916.228 3393.02
226.67 914.959 3390.79
226.727 914.045 3389.09
226.907 913.016 3386.17
227.004 913.392 3386.68
226.928 913.011 3384.67
226.844 913.228 3383.59
226.798 913.91 3382.95
227.091 915.189 3383.4
226.288 914.178 3381.4
226.161 913.558 3380.97
225.04 914.14 3378.5
225.168 914.407 3378.97
224.974 913.958 3378.18
226.783 911.22 3380.39
227.067 910.074 3380.97
226.989 910.867 3380.35
227.241 909.353 3381.31
226.235 912.236 3379.85
226.353 911.972 3379.83
226.647 911.523 3380.01
224.924 913.776 3377.8
225.159 913.374 3377.88
228.377 918.009 3395.32
228.814 918.747 3395.41
228.842 918.796 3395.39
228.873 918.83 3395.36
228.765 918.662 3395.41
228.725 918.471 3395.32
228.53 918.072 3395.23
228.719 918.271 3395.17
227.374 909.115 3381.22
227.577 908.837 3381.12
227.78 908.661 3380.87
227.991 908.547 3380.63
229.097 907.866 3380.46
228.205 908.536 3380.33
230.807 906.696 3380.34
229.256 908.012 3380.13
231.567 905.868 3380.52
232.666 905.902 3379.78
231.991 907.011 3379.15
232.383 908.089 3377.84
232.649 908.27 3377.43
233.081 908.589 3376.55
231.53 908.566 3377.86
202.454 954.172 3379.04
202.641 954.114 3379.27
202.838 954.113 3379.53
203.187 954.128 3380.2
204.407 954.182 3382.09
205.972 954.069 3384.72
202.389 954.238 3378.88
202.294 954.306 3378.85
202.246 954.363 3378.8
202.183 954.539 3378.59
202.238 954.447 3378.66
202.172 954.848 3378.41
202.216 954.746 3378.42
202.229 954.598 3378.49
202.272 954.663 3378.4
203.879 957.908 3377.99
202.453 955.961 3378.39
202.261 955.156 3378.32
202.421 955.496 3378.27
203.064 956.265 3378.1
202.207 954.948 3378.35
202.963 956.697 3378.3
203.695 957.474 3378.02
206.488 955.307 3391.02
206.536 955.248 3391.09
206.582 955.19 3391.16
206.632 955.13 3391.17
206.435 955.37 3390.94
206.33 955.422 3390.91
206.681 955.072 3391.17
206.701 955.017 3391.18
206.744 954.97 3391.17
206.769 954.906 3391.15
206.692 954.071 3390.28
206.82 954.226 3390.32
206.769 954.417 3390.61
206.758 954.606 3390.83
206.843 954.787 3390.95
206.873 954.901 3391.03
203.47 949.543 3384.58
204.762 951.163 3386.37
206.441 952.538 3387.18
206.695 953.676 3389.37
206.683 953.293 3388.53
206.949 952.773 3387.16
206.897 952.917 3387.43
206.906 952.618 3386.96
206.931 953.018 3387.61
206.79 953.157 3388.09
203.395 948.777 3383.62
203.675 948.986 3383.62
206.296 955.491 3390.77
206.155 955.556 3390.68
206.101 955.63 3390.49
206.916 954.482 3388.55
207.406 953.673 3388.27
207.532 953.806 3388.37
206.697 955.36 3389.72
206.62 955.515 3390.27
206.639 955.455 3389.96
206.508 955.523 3390.46
206.32 955.558 3390.54
206.563 953.811 3385.32
206.726 953.742 3385.82
206.855 953.851 3386.39
207.085 953.916 3386.88
207.193 953.866 3387.26
207.543 953.744 3387.73
207.711 953.789 3388.07
204.731 946.916 3380.81
204.852 946.621 3380.5
204.905 946.402 3380.35
204.75 946.357 3380.48
204.921 946.258 3380.32
204.899 946.154 3380.39
204.932 946.029 3380.43
205.035 945.805 3380.41
205.334 945.068 3380.54
205.661 944.296 3380.73
205.475 945.043 3380.41
204.168 947.743 3382.01
204.18 948.069 3382.3
205.735 943.853 3380.78
209.566 933.823 3389.15
209.58 933.628 3389.55
207.866 941.659 3378.33
209.118 941.234 3375.92
209.79 940.078 3374.53
210.169 940.309 3373.58
209.87 939.189 3374.47
210.17 938.588 3373.99
210.776 937.225 3373.36
210.446 935.61 3374.24
211.689 935.116 3372.43
211.862 934.187 3372.62
212.638 932.353 3372.47
212.227 933.352 3372.52
213.94 926.066 3380.36
213.733 926.964 3380.24
213.759 926.776 3380.57
213.705 926.479 3380.75
213.755 926.222 3380.7
213.754 927.527 3380.58
214.182 928.937 3382.6
214.665 930.15 3384.97
214.552 924.887 3379.71
214.401 925.246 3379.84
214.249 925.542 3380.16
214.039 925.841 3380.36
214.732 924.762 3379.55
214.927 924.944 3377.92
214.989 924.691 3379.11
215.024 924.622 3379.34
214.928 924.626 3379.52
214.77 925.502 3375.95
214.767 925.352 3376.38
214.758 925.254 3376.73
213.014 931.585 3372.49
212.959 929.645 3374.13
213.175 931.22 3372.62
213.939 926.965 3375.14
214.3 926.31 3375.38
214.72 925.765 3375.57
212.313 933.431 3385.04
213.37 932.918 3385.94
213.628 932.738 3386.23
213.931 932.43 3386.47
213.709 932.627 3386.53
214.54 931.217 3385.83
214.324 931.71 3386.75
214.102 932.157 3386.62
214.497 931.401 3386.36
211.003 934.039 3384.07
214.658 930.564 3385.28
214.666 930.774 3385.79
210.201 934.15 3384.67
209.849 934.062 3385.41
209.704 933.971 3386.91
209.934 933.835 3386.84
210.015 933.617 3388.77
209.867 933.79 3388.45
209.966 933.504 3389.17
206.856 942.375 3379.6
206.21 943.37 3380.33
205.915 943.628 3380.58
205.781 943.517 3380.8
207.539 942.212 3378.89
210.237 931.152 3391
209.458 933.243 3390.3
211.371 929.718 3390.3
212.121 928.955 3390.14
213.395 928.197 3389.06
213.288 928.377 3389.15
213.212 928.478 3389.18
212.996 928.618 3389.32
213.676 927.47 3388.74
213.751 927.087 3388.49
213.69 927.897 3388.62
213.631 928.139 3388.66
212.187 929.084 3389.85
213.814 926.738 3388.11
213.813 926.175 3387.67
213.476 925.111 3385.05
213.078 924.694 3383
213.142 923.99 3382.66
213.037 924.335 3382.56
213.067 923.813 3382.11
213.051 923.973 3382.25
213.393 923.298 3381.75
213.212 923.473 3381.85
213.079 923.739 3381.93
213.116 923.641 3381.82
213.831 923.054 3381.58
213.704 923.11 3381.54
213.561 923.192 3381.6
213.641 923.189 3381.45
214.139 922.927 3381.76
214.443 922.837 3382.05
214.839 922.722 3382.3
216.283 922.431 3382.99
217.391 922.427 3382.71
217.568 922.618 3382.01
217.74 922.803 3381.3
217.999 922.696 3381.26
219.902 920.768 3382.3
219.054 921.726 3382.37
218.658 922.069 3382
217.972 922.923 3380.25
220.263 920.033 3379.43
225.473 919.281 3382.62
225.127 919.392 3382.53
226.063 919.265 3384
227.406 919.605 3387.16
229.154 919.999 3390.49
229.765 920.074 3392.03
220.97 919.79 3379.5
221.289 919.727 3379.82
220.697 919.921 3379.1
220.347 920.045 3379.1
222.911 919.633 3380.61
224.433 919.609 3381.26
224.794 919.585 3381.39
225.136 919.476 3381.53
225.005 919.55 3381.38
225.167 919.357 3381.85
225.266 919.395 3381.65
219.918 920.283 3380.25
220.001 920.166 3379.7
220.12 920.093 3379.47
229.906 920.099 3392.62
229.942 920.184 3393.29
230.062 920.136 3393.63
230.3 919.922 3394.14
230.4 919.683 3394.5
230.463 919.727 3394.37
230.396 919.858 3394.15
230.209 920.046 3393.85
230.235 920.021 3393.7
230.107 920.097 3393.47
230.255 919.574 3394.55
230.376 919.618 3394.45
229.504 919.066 3395
230.02 919.363 3394.67
230.159 919.451 3394.53
230.259 919.51 3394.46
228.366 917.848 3395.07
228.262 917.748 3394.79
227.465 916.377 3393.02
226.771 915.092 3390.78
226.826 914.306 3389.21
227.176 913.864 3387.29
227.093 913.453 3385.39
227.249 913.835 3386.37
227.229 913.999 3384.75
227.233 914.429 3384.18
228.583 916.822 3386.73
227.629 916.651 3384.58
229.285 917.929 3388.21
225.993 916.167 3381.14
224.056 914.899 3376.56
224.007 914.66 3376.19
224.143 915.18 3376.98
225.032 916.133 3379.13
226.917 911.131 3379.96
227.246 909.941 3380.6
227.131 910.787 3379.98
225.35 913.045 3377.85
225.564 912.719 3377.8
226.458 911.752 3379.59
226.786 911.339 3379.74
223.999 914.483 3375.88
224.031 914.328 3375.61
229.391 918.783 3394.83
229.454 918.903 3394.9
229.486 918.998 3394.96
229.329 918.67 3394.78
229.276 918.532 3394.69
228.482 917.926 3394.98
228.696 918.102 3394.98
229.224 918.373 3394.5
227.488 909.056 3380.83
227.699 908.836 3380.7
227.91 908.718 3380.49
228.456 908.54 3380.08
228.092 908.797 3380.13
229.696 908.384 3379.4
228.824 908.929 3379.4
231.682 908.127 3378.28
231.725 908.806 3377.28
229.417 909.259 3378.61
229.966 909.253 3378.07
202.64 954.14 3379.06
202.845 954.119 3379.31
203.281 954.133 3379.69
203.608 954.141 3380.4
204.737 954.146 3382.16
206.134 954.078 3384.41
202.453 954.266 3378.75
202.546 954.207 3378.81
202.377 954.322 3378.72
202.33 954.385 3378.67
202.304 954.495 3378.56
202.289 954.863 3378.33
202.312 954.746 3378.33
202.34 954.576 3378.44
202.388 954.65 3378.34
204.153 956.925 3377.48
203.989 957.265 3377.67
203.036 956.476 3378.17
202.435 955.286 3378.22
202.278 955.025 3378.32
203.113 956.04 3378.04
203.729 957.014 3377.84
203.877 956.792 3377.72
203.812 956.533 3377.75
206.58 955.3 3390.96
206.544 955.357 3390.88
206.617 955.246 3391.03
206.668 955.187 3391.06
206.715 955.126 3391.08
206.463 955.443 3390.78
206.531 955.413 3390.77
206.777 955.048 3391.1
206.832 954.979 3391.08
206.81 953.807 3389.43
206.868 954.341 3390.37
206.945 953.952 3389.49
206.842 954.515 3390.58
206.821 954.698 3390.81
206.888 954.857 3390.93
206.864 954.938 3390.97
203.892 949.419 3384.05
204.983 951.053 3385.91
205.457 951.15 3385.7
206.866 952.405 3386.7
206.738 953.399 3388.67
206.814 953.271 3388.29
207.051 952.852 3387.22
207.12 952.623 3386.87
207.124 952.459 3386.65
206.932 953.139 3387.86
207.094 952.981 3387.41
204.418 948.228 3382.29
204.653 948.461 3382.4
206.477 955.488 3390.63
207.023 954.495 3388.74
206.77 955.273 3389.64
207.57 953.932 3388.48
207.916 953.799 3388.09
206.689 955.454 3390.1
206.745 955.361 3389.89
206.573 955.498 3390.47
206.656 955.487 3390.39
206.869 953.885 3385.25
207.041 953.792 3385.78
207.021 953.825 3386.24
207.213 953.881 3386.68
207.159 953.838 3386.97
207.394 953.771 3387.35
207.688 953.7 3387.68
207.784 953.787 3387.93
208.054 953.791 3387.89
204.904 946.988 3380.7
205.033 946.75 3380.44
205.106 946.507 3380.24
205.106 946.345 3380.18
205.123 946.213 3380.19
205.084 946.076 3380.27
205.149 945.86 3380.26
205.623 945.09 3380.25
205.872 944.096 3380.55
206.044 944.141 3380.35
204.945 947.241 3380.9
209.921 933.235 3389.68
208.104 942.127 3378.15
209.303 941.653 3375.76
210.227 940.697 3373.6
210.027 939.724 3373.92
210.284 939.859 3373.15
210.47 940.49 3372.82
210.514 940.08 3372.44
210.266 938.95 3373.62
211.487 936.394 3372.18
212.085 934.183 3372.17
212.898 934.174 3370.28
213.447 932.276 3371.01
213.881 926.018 3380.68
213.751 927.123 3380.67
213.727 926.897 3380.95
213.58 926.307 3381.02
213.662 926.121 3380.96
213.777 927.512 3381.02
214.21 928.743 3383.02
214.729 929.826 3385.54
214.753 930.31 3385.64
214.686 924.728 3379.71
214.393 925.046 3380.04
214.54 924.799 3379.94
214.255 925.245 3380.3
214.06 925.611 3380.47
214.87 924.595 3379.68
215.114 924.796 3377.78
215.204 924.544 3378.95
215.287 924.471 3379.2
215.177 924.481 3379.44
215.072 924.467 3379.66
215.176 925.175 3376.05
215.075 925.424 3375.71
215.044 925.176 3376.29
215.026 925.079 3376.61
213.888 931.431 3371.08
213.529 930.852 3372.54
213.392 930.09 3373.45
213.505 928.311 3374.6
214.349 926.871 3374.86
213.98 927.187 3374.91
214.361 926.523 3375.13
214.67 926.108 3375.22
215.023 925.787 3375.28
212.083 933.481 3385.35
213.176 932.995 3386.29
213.436 932.86 3386.28
213.55 932.757 3386.47
214.095 932.203 3386.78
213.86 932.43 3386.75
213.559 932.622 3386.85
213.425 932.756 3386.74
214.641 930.932 3386.22
214.222 931.647 3387.12
214.411 931.43 3386.88
214.131 931.975 3386.95
214.545 931.166 3386.57
211.04 933.941 3384.49
214.737 930.46 3386.3
214.756 930.257 3386.09
210.438 933.646 3386.55
211.407 933.502 3386.05
210.176 933.724 3386.72
210.08 933.654 3388.32
210.481 933.432 3388.1
210.396 933.419 3388.46
210.329 933.331 3388.86
210.289 933.193 3389.24
206.879 942.751 3379.67
206.116 943.678 3380.36
206.494 943.412 3380.09
207.308 942.864 3379.33
207.856 942.618 3378.69
209.832 932.469 3390.68
210.618 930.941 3390.64
211.435 929.896 3390.02
210.336 932.755 3389.76
211.509 929.691 3390.05
213.435 928.514 3388.88
213.547 928.364 3388.72
213.246 928.654 3389
212.182 929.252 3389.68
212.911 928.899 3389.16
213.784 927.618 3388.3
213.805 927.224 3388
213.805 928.185 3388.32
213.864 928.05 3388.22
213.749 928.346 3388.38
213.827 926.746 3387.6
213.786 926.395 3386.95
213.429 925.517 3384.83
213.088 925.056 3383.03
213.02 924.67 3382.65
213.008 924.212 3382.28
212.985 924.587 3382.31
213.054 923.911 3381.91
213.019 924.115 3382.04
213.47 923.271 3381.53
213.313 923.372 3381.65
213.191 923.527 3381.68
213.071 923.836 3381.72
213.123 923.707 3381.64
213.984 923.106 3381.32
213.827 923.135 3381.36
214.049 923.013 3381.5
213.733 923.209 3381.29
213.583 923.271 3381.36
214.36 922.916 3381.63
214.732 922.865 3381.75
214.862 922.795 3382
216.152 922.565 3382.45
217.314 922.572 3382.26
217.018 922.923 3381.46
217.051 923.323 3380.51
216.693 923.497 3380.37
216.354 923.947 3379.35
216.459 924.072 3378.36
217.361 923.587 3378.83
219.671 920.931 3381.77
218.954 921.801 3381.42
218.703 922.081 3381.52
218.151 922.824 3380.03
217.782 923.367 3378.31
218.09 923.066 3378.55
217.948 923.165 3378.61
220.17 920.125 3379.09
220.028 920.194 3379.21
225.8 919.147 3382.63
225.254 919.36 3382.06
225.431 919.331 3382.17
226.283 919.094 3383.95
227.928 919.553 3387.69
229.596 919.909 3390.96
221.002 919.844 3379.23
221.399 919.793 3379.46
220.376 920.112 3378.84
220.655 920.034 3378.86
220.162 920.224 3378.9
223.021 919.675 3380.33
224.536 919.649 3380.99
224.77 919.622 3381.22
224.926 919.598 3381.22
225.364 919.453 3381.5
225.201 919.516 3381.38
225.133 919.561 3381.21
225.35 919.35 3381.72
225.376 919.374 3381.66
225.496 919.406 3381.57
219.796 920.391 3380.07
219.869 920.279 3379.76
219.896 920.281 3379.42
230.021 920.101 3392.98
229.991 919.885 3391.91
230.256 920.018 3393.88
230.483 919.645 3394.3
230.476 919.709 3394.28
230.382 919.864 3394.01
230.319 919.973 3393.88
230.312 919.973 3393.75
230.303 919.932 3393.54
230.181 920.006 3393.36
230.352 919.553 3394.4
230.462 919.579 3394.26
230.015 919.283 3394.62
230.161 919.364 3394.46
230.283 919.454 3394.36
230.389 919.507 3394.26
228.372 917.79 3394.6
227.611 916.531 3393.06
226.913 915.293 3390.96
226.971 914.624 3389.41
227.292 914.217 3387.73
227.676 914.69 3387.39
227.516 914.386 3385.8
227.709 914.681 3386.8
228.762 916.402 3387.54
228.851 916.694 3387.53
229.101 917.239 3387.9
230.006 918.261 3389.94
228.255 917.689 3386.05
229.414 918.305 3388.53
230.088 918.525 3390.14
226.45 917.526 3382.45
225.758 917.425 3380.97
225.484 917.536 3380.43
223.794 915.052 3375.89
223.778 914.883 3375.61
223.827 914.681 3375.52
224.062 915.31 3376.78
224.806 916.327 3378.65
225.299 917.438 3379.97
227.07 911.004 3379.7
227.315 910.584 3379.92
227.461 909.807 3380.28
227.348 910.731 3379.63
224.156 914.145 3375.48
225.587 912.617 3377.43
226.616 911.553 3379.35
226.943 911.216 3379.36
223.884 914.504 3375.4
223.914 914.433 3375.04
230.025 919.154 3394.52
230.044 919.092 3394.4
230.017 919.209 3394.56
230.011 918.94 3394.21
229.825 918.557 3393.9
228.625 917.989 3394.7
229.153 918.231 3394.3
229.735 918.332 3393.6
227.669 909.039 3380.46
227.822 908.93 3380.32
228.513 909.133 3379.46
228.166 909.349 3379.63
229.096 909.421 3378.71
228.724 909.68 3378.85
231.801 909.037 3376.67
230.276 909.275 3377.62
229.342 909.491 3378.38
229.475 909.586 3377.99
202.885 954.135 3379.15
203.465 954.163 3379.58
203.912 954.139 3380.32
205.496 954.13 3382.71
202.513 954.35 3378.63
202.586 954.306 3378.65
202.712 954.227 3378.84
202.452 954.378 3378.61
202.413 954.439 3378.56
202.412 954.516 3378.47
202.43 954.78 3378.27
202.459 954.905 3378.25
202.359 954.964 3378.29
202.499 954.604 3378.35
202.595 954.768 3378.24
204.095 956.543 3377.5
203.176 955.795 3377.97
202.436 955.151 3378.24
203.85 956.231 3377.67
204.13 956.22 3377.44
206.662 955.299 3390.87
206.624 955.349 3390.81
206.616 955.402 3390.68
206.698 955.239 3390.95
206.75 955.155 3390.96
206.778 955.092 3391.01
206.579 955.459 3390.59
206.823 955.014 3390.98
206.841 953.501 3388.72
206.987 954.426 3390.29
207.06 954.354 3390.12
207.052 954.08 3389.52
206.935 953.58 3388.74
206.957 953.674 3388.88
206.936 954.58 3390.52
206.894 954.749 3390.74
206.894 954.893 3390.87
206.879 954.976 3390.85
204.454 949.138 3383.33
205.621 950.547 3384.78
206.949 952.006 3386.24
207.24 952.252 3386.37
208.339 951.988 3385.93
206.845 953.361 3388.44
206.957 953.232 3388.03
207.218 952.707 3386.94
207.301 952.507 3386.64
207.374 952.378 3386.47
207.07 953.131 3387.73
207.282 952.847 3387.09
207.195 953.032 3387.44
205.189 947.399 3380.88
205.486 947.699 3381.04
207.158 954.506 3388.87
206.847 955.232 3389.74
206.768 955.371 3390.01
207.55 954.001 3388.64
208.01 953.822 3388.15
206.739 955.451 3390.31
206.673 955.437 3390.51
207.358 953.895 3385.61
208.299 954.126 3385
207.246 953.829 3386.24
207.407 953.854 3385.89
207.316 953.816 3386.64
207.262 953.762 3387.03
207.564 953.679 3387.42
207.747 953.672 3387.74
207.664 953.622 3387.55
207.83 953.753 3387.88
208.298 953.761 3387.78
207.957 953.747 3387.79
205.222 947.063 3380.53
205.229 946.861 3380.38
205.319 946.633 3380.2
205.365 946.467 3380.1
205.284 946.312 3380.07
205.311 946.142 3380.05
205.234 946.053 3380.13
205.315 945.852 3380.1
205.781 945.128 3380.11
206.283 944.145 3380.15
210.604 932.902 3389.3
208.392 942.891 3378.11
209.316 942.146 3376.02
210.36 941.221 3373.65
210.566 940.908 3372.91
210.395 939.441 3372.94
210.908 940.052 3370.39
210.789 940.813 3371.99
210.7 940.399 3371.84
211.107 940.642 3369.42
210.52 938.695 3372.97
211.589 936.994 3371.33
212.656 935.029 3370.14
212.997 936.115 3368.51
213.376 934.765 3368.86
214.466 933.165 3368.62
215.447 931.412 3368.48
213.789 925.862 3380.85
213.742 927.163 3381.09
213.657 926.944 3381.35
213.612 926.625 3381.17
213.25 925.716 3381.64
213.282 925.507 3381.49
213.351 925.339 3381.36
213.805 927.655 3381.5
213.749 927.359 3381.54
214.18 928.435 3383.4
214.651 929.389 3385.47
214.704 929.508 3386.1
214.758 929.914 3386.16
214.724 924.602 3379.86
214.383 924.867 3380.25
214.537 924.663 3380.12
214.097 925.215 3380.57
214.21 924.875 3380.51
213.891 925.495 3380.72
214.92 924.432 3379.83
215.461 924.629 3377.74
215.462 924.408 3378.9
215.346 924.369 3379.4
215.472 924.327 3379.24
215.261 924.346 3379.65
215.075 924.31 3379.83
215.33 924.94 3376.48
215.562 924.945 3376.19
215.491 925.127 3375.83
215.33 925.402 3375.5
214.237 930.988 3371.06
215.985 931.1 3367.94
215.342 929.063 3372.53
214.237 930.203 3372.32
214.048 928.325 3374.15
215.547 928.656 3372.74
215.252 928.59 3373.05
214.94 927.617 3373.93
214.752 926.35 3374.95
215.281 927.088 3374.06
215.195 926.04 3374.92
215.308 925.672 3375.21
212.866 933.096 3386.39
213.301 932.879 3386.59
213.02 932.98 3386.64
213.965 932.069 3387.16
213.922 932.247 3387.07
213.702 932.448 3387.01
213.198 932.73 3387.1
213.36 932.584 3387.2
213.099 932.861 3386.9
214.615 930.82 3386.76
214.701 930.569 3386.52
214.061 931.848 3387.22
214.299 931.447 3387.22
214.472 931.212 3386.97
214.743 930.039 3386.51
214.712 930.163 3386.71
210.875 933.324 3387.72
212.062 933.114 3387.05
211.052 933.184 3388.07
210.698 933.309 3388.29
211.028 933.088 3388.45
211.025 932.967 3388.72
206.974 943.295 3379.72
206.465 943.721 3380.09
206.961 943.714 3379.76
207.516 943.46 3379.31
207.743 943.22 3379.03
208.364 943.524 3378.51
210.321 932.623 3389.91
210.679 931.979 3390
210.684 932.362 3389.73
210.922 930.851 3390.23
211.557 930.007 3389.78
211.201 932.573 3389
211.302 932.337 3389.12
213.417 928.788 3388.75
213.61 928.765 3388.54
213.704 928.555 3388.43
213.126 928.944 3388.89
212.272 929.413 3389.49
212.358 929.613 3389.3
213.919 927.916 3387.95
213.918 927.641 3387.75
213.885 927.297 3387.42
214.273 928.939 3387.65
214.2 929.055 3387.8
214.329 928.8 3387.46
214.124 929.256 3387.89
213.836 926.847 3387.09
213.765 926.596 3386.2
213.41 925.855 3384.41
213.101 925.352 3382.97
213.024 924.804 3382.64
212.955 924.497 3382.03
212.972 924.768 3382.21
213.052 924.027 3381.75
212.951 924.351 3381.93
213.428 923.341 3381.44
213.32 923.45 3381.52
213.321 923.608 3381.46
213.235 923.743 3381.48
213.106 923.975 3381.56
213.155 923.836 3381.51
213.937 923.184 3381.2
214.238 923.152 3381.12
214.112 923.209 3381.07
214.245 923.04 3381.35
213.85 923.249 3381.15
213.704 923.304 3381.19
213.537 923.353 3381.28
214.632 922.953 3381.47
