165.678 1089.29 2400.69
165.197 1088.94 2395.45
163.92 1087.43 2396.21
163.535 1086.88 2396.47
165.069 1088.27 2400.29
163.207 1086.36 2396.46
164.416 1088.04 2393.32
163.023 1086.39 2394.42
163.721 1086.73 2397.88
165 1088.55 2389.22
163.613 1086.93 2392.74
165.928 1090.03 2387.3
162.618 1085.8 2394.63
163.186 1086.2 2392.13
164.895 1087.71 2400.54
162.419 1085.41 2395.07
164.043 1087.05 2386.86
163.788 1086.47 2388.89
165.982 1090.56 2385.01
168.571 1094.6 2383.06
164.275 1087.97 2384.8
162.79 1085.58 2392.16
162.53 1085.22 2392.54
162.315 1085.39 2394.19
163.445 1086.22 2397.62
162.17 1085.05 2394.65
163.358 1085.52 2387.86
163.21 1085.99 2384.71
163.223 1085.28 2388.87
168.89 1095.77 2380.74
166.181 1092.11 2382.06
164.807 1090.34 2381.77
165.716 1092.62 2379.65
164.045 1089.61 2380.79
163.739 1089.09 2380.61
164.701 1087.3 2400.32
162.836 1084.76 2389.92
162.219 1085.17 2393.69
162.951 1085.84 2396.52
162.85 1084.75 2386.14
163.484 1088.7 2380.15
162.828 1085.46 2383.21
168.869 1095.97 2377.62
166.196 1093.33 2378.71
164.429 1091.09 2379.17
164.685 1091.61 2378.34
163.984 1090.6 2378.65
163.74 1086.26 2398.36
167.94 1094.92 2373.73
169.739 1096.71 2370.74
162.329 1084.9 2392.99
162.866 1085.3 2396.6
162.98 1084.54 2387.61
163.065 1084.75 2388.24
162.412 1084.16 2384.42
163.376 1088.64 2379.65
162.676 1085.05 2382.86
165.549 1092.65 2377.48
164.391 1091.27 2377.79
163.961 1090.72 2377.88
163.636 1090.14 2378.37
165.475 1092.31 2375.1
166.176 1092.51 2369.2
162.389 1084.43 2392.23
162.729 1084.15 2389.41
162.239 1084.81 2395.23
162.021 1084.49 2393.77
162.017 1084.51 2394.49
162.22 1084.39 2393.13
162.654 1084.32 2385.78
164.838 1091.56 2375.65
163.541 1090.05 2377.64
164.585 1086.77 2400.16
166.844 1092.88 2362.92
164.728 1090.88 2370.52
164.762 1090.72 2367.05
162.882 1084.12 2387.29
163.294 1088.22 2379.25
163.019 1086.26 2380.92
164.869 1091.02 2373.41
164.555 1091.26 2376.04
164.834 1091.15 2374.42
164.156 1090.64 2376.43
163.408 1089.74 2378.07
166.83 1092.56 2360.46
165.737 1091.34 2363.72
165.755 1091.11 2361.86
166.052 1091.49 2360.44
164.25 1090.23 2370.39
163.517 1089.27 2368.11
162.35 1083.78 2392.74
162.377 1084.01 2391.84
162.137 1084.19 2394.9
162.001 1084.01 2394.18
162.213 1083.77 2393.37
162.9 1083.57 2387.88
162.883 1083.92 2388.26
162.259 1083.66 2384.41
163.247 1087.73 2379.36
162.653 1084.76 2382.19
164.199 1090.08 2371.29
164.591 1090.69 2375.12
163.364 1088.28 2378.52
166.679 1092.03 2359.54
165.781 1090.78 2359.44
164.522 1090.32 2366.46
165.24 1090.33 2363.31
165.153 1089.94 2361.61
165.334 1090.14 2359.8
162.393 1083.51 2392.02
162.474 1083.35 2390.65
162.28 1083.59 2394.32
162.577 1082.97 2392.46
162.503 1083.75 2385.56
162.306 1083.73 2383.41
162.212 1083.29 2383.83
163.09 1086.28 2380.39
163.967 1089.71 2371.02
163.964 1090.07 2376.53
163.501 1089.4 2377.6
166.269 1091.01 2358.6
165.736 1090.4 2358.78
165.273 1089.73 2358.93
164.157 1089.63 2366.14
164.622 1089.57 2364.38
164.9 1089.54 2363.15
163.158 1088.75 2368.3
162.693 1083.53 2389.2
162.46 1083.8 2395.02
162.414 1083.28 2393.6
162.78 1083.69 2386.86
162.512 1083.2 2385.54
162.356 1083.62 2382.9
162.727 1084.51 2381.67
164.629 1090.48 2373.43
164.662 1090.6 2374.26
164.56 1090.18 2374.53
163.62 1088.8 2377.43
163.523 1088.36 2377.84
165.76 1090.05 2358.17
163.811 1089.2 2366.54
164.687 1089.15 2363.44
164.354 1089.28 2364.94
164.981 1089.41 2359.77
164.812 1089.24 2361.65
162.866 1088.26 2368.43
163.239 1088.84 2367.48
162.812 1084.71 2396.26
162.528 1083.02 2391.03
162.658 1082.92 2393.3
162.607 1082.7 2391.52
162.941 1084.51 2381.13
163.357 1087.68 2378.83
163.728 1089.2 2370.9
164.002 1089.16 2376.59
164.376 1090.22 2375.62
164.552 1089.89 2374.97
165.322 1089.44 2358.31
165.212 1089 2358.04
165.011 1089.08 2358.75
164.44 1088.97 2364.16
164.673 1088.83 2360.38
163.088 1088.4 2369.18
162.894 1088.43 2367.74
162.834 1083.58 2387.36
162.832 1083.22 2386.54
162.332 1083.11 2383.02
163.285 1086.68 2379.6
163.631 1087.15 2378.27
164.016 1089.38 2371.99
164.568 1090.01 2374.05
164.384 1089.37 2375.91
164.071 1088.63 2376.63
164.73 1088.51 2359.42
162.811 1082.94 2389.18
162.252 1083.01 2384.53
162.285 1082.72 2383.95
162.422 1082.59 2383.28
163.674 1087.65 2377.66
164.46 1089.72 2373.63
164.637 1089.58 2374.48
164.521 1089.48 2375.37
165.563 1089.23 2357.64
164.881 1088.47 2358.6
164.464 1088.58 2363.74
164.098 1089 2365.57
164.561 1088.56 2361.96
162.785 1087.72 2368.16
162.769 1087.94 2367.71
162.547 1083.19 2382.36
163.225 1084.45 2380.63
164.555 1089.18 2373.71
163.913 1087.54 2377.2
164.73 1089.32 2374.93
164.59 1088.2 2360.05
164.611 1088.59 2363.12
163.593 1086.36 2378.99
163.47 1085.8 2379.63
163.959 1088.86 2372.12
164.693 1088.91 2375.66
164.357 1087.94 2376.47
164.942 1088.96 2374.63
164.886 1087.97 2358.33
165.033 1088.4 2357.91
163.51 1088.68 2366.58
164.301 1088.48 2364.37
164.15 1088.64 2365.1
162.797 1082.68 2385.54
162.473 1082.49 2384.38
162.756 1083.38 2381.86
162.998 1083.45 2381.38
162.77 1082.74 2382.33
163.999 1086.09 2378.48
163.907 1085.36 2379.3
163.134 1087.95 2369.4
164.95 1088.9 2375.2
165.057 1088.38 2375.61
163.936 1087.08 2377.4
164.99 1088.71 2374.19
164.758 1088.01 2359.12
164.496 1088.35 2360.82
163.909 1088.58 2365.77
164.467 1088.03 2362.03
164.573 1088.06 2363.08
162.996 1088.24 2367.21
162.594 1082.31 2383.92
163.866 1086.76 2378.02
164.077 1085.66 2378.84
164.034 1088.36 2372.05
165.146 1087.85 2375.82
164.789 1087.33 2376.43
165.246 1088.5 2374.99
164.228 1088.07 2365.39
164.294 1086.87 2377.1
165.24 1088.24 2373.93
163.402 1088.13 2366.57
163.361 1087.65 2369.81
164.236 1086.41 2377.75
164.476 1087.79 2361.16
164.691 1087.75 2363.56
164.413 1087.97 2364.47
162.973 1087.31 2367.9
163.563 1087.89 2370.81
164.304 1087.93 2371.97
165.345 1087.81 2373.21
164.781 1087.69 2359.54
164.943 1087.54 2363.12
163.308 1087.37 2369.25
163.851 1087.46 2370.4
164.623 1087.55 2371.58
164.749 1087.53 2362.17
163.576 1087.61 2366.73
163.926 1088.07 2365.97
164.779 1087.43 2364.33
164.525 1087.48 2365.33
163.021 1087.67 2367.2
162.982 1087.48 2368.57
164.825 1087.21 2370.66
164.95 1087.05 2370.09
164.296 1087.65 2365.83
164.814 1087.14 2366
163.311 1087.25 2367.47
163.298 1087.09 2368.38
164.866 1086.95 2369.45
164.773 1087.13 2366.51
164.222 1087.39 2366.33
163.709 1087.02 2367.88
163.822 1087.26 2367
163.606 1087.05 2368.81
164.711 1086.9 2368.06
164.255 1087.03 2367.49
