171.875 891.505 2508.59
171.969 891.005 2508.89
171.745 891.21 2509.03
172.18 890.742 2508.71
172.395 890.49 2508.57
174.175 887.578 2503.7
174.183 887.896 2501.79
173.998 888.113 2500.77
173.825 888.215 2500.05
172.803 888.757 2498.75
178.191 886.454 2501.21
176.646 886.864 2500.56
177.941 886.591 2500.9
175.918 886.979 2497.32
177.184 886.643 2498.66
176.747 886.805 2499.57
171.044 890.148 2497.48
171.931 889.261 2497.75
172.513 888.401 2494.72
173.241 888.04 2495.12
176.714 886.649 2497.08
177.204 886.551 2497.74
171.115 890.102 2496.77
172 888.996 2495.5
172.199 888.583 2494.51
177.529 886.488 2498.35
178.59 886.261 2501.45
178.666 886.156 2501.63
178.841 886.096 2501.56
179.174 885.689 2502.16
179.492 885.329 2502.56
179.162 885.813 2501.85
179.781 884.872 2503.18
179.877 884.773 2503.18
169.784 883.719 2512.74
169.198 883.893 2512.97
168.902 883.871 2513.14
180.271 883.532 2504.82
180.101 883.707 2504.56
180.026 883.875 2504.09
179.996 884.321 2503.6
179.962 884.697 2503.14
180.429 883.314 2505.13
180.473 883.188 2505.18
180.396 883.358 2504.71
180.257 883.43 2504.19
180.136 884.036 2503.53
179.728 885.091 2499.37
179.698 885.034 2500.06
179.905 884.747 2502.25
179.68 884.804 2498.78
179.569 884.646 2498.6
179.69 884.95 2498.81
179.723 885.017 2499.06
179.72 885.124 2499.24
179.419 884.538 2498.36
160.531 918.222 2514.84
159.943 918.224 2513.68
162.142 914.586 2515.45
159.496 916.972 2512.29
163.712 912.294 2517.3
162.519 910.952 2515.81
162.621 910.619 2515.79
161.699 909.61 2514.44
161.42 909.751 2514.27
161.193 910.001 2514.18
161.839 909.411 2514.38
163.876 909.163 2515.65
162.051 909.123 2514.28
165.755 908.747 2516.39
167.033 907.844 2515.32
166.972 907.902 2514.73
166.894 908.138 2514.04
166.616 908.55 2513.06
166.207 908.924 2512.37
166.053 909.012 2512.2
165.931 909.437 2511.35
165.939 909.165 2512
165.918 909.495 2511.36
165.477 910.051 2510.48
165.05 910.34 2509.9
164.673 910.583 2509.35
164.519 910.656 2509.19
165.729 909.933 2510.77
165.464 910.122 2510.52
164.284 910.691 2508.86
164.13 910.837 2508.56
163.819 910.701 2507.97
164.073 910.959 2508.35
163.933 910.972 2508.09
164.331 910.709 2508.95
164.336 910.761 2508.97
172.736 877.478 2490.56
172.965 877.275 2489.87
173.179 876.854 2488.2
173.116 877.172 2489.21
173.249 876.787 2488.24
172.543 878.729 2491.87
172.623 879.003 2492.02
172.482 878.165 2491.49
172.47 878.496 2491.67
172.435 878.315 2491.47
172.486 877.969 2491.19
172.515 877.854 2490.98
172.561 877.758 2490.96
172.636 877.643 2490.86
172.459 878.113 2491.29
173.085 879.589 2492.58
172.717 879.207 2492.16
174.087 882.857 2492.74
173.499 880.903 2492.57
173.694 882.319 2492.27
178.371 884.422 2497.03
177.145 884.266 2495.69
174.885 883.592 2493.51
178.653 884.632 2497.34
179.212 884.639 2498.05
173.144 876.682 2486.14
173.174 876.588 2486.44
173.259 876.643 2485.97
173.184 876.586 2486.81
173.216 876.572 2487.05
173.521 876.625 2485.65
173.386 876.623 2485.82
173.927 877.115 2484.8
174.389 877.634 2483.92
174.248 877.927 2483.57
174.301 877.993 2483.28
174.546 877.908 2482.96
174.918 877.578 2481.49
175.367 877.106 2480.67
174.684 877.903 2482.34
174.5 878.027 2482.63
175.555 877.006 2480.22
175.328 877.139 2480.41
175.92 876.878 2479.84
175.609 877.011 2480.04
175.931 877.017 2479.57
176.541 877.555 2478.24
177.217 877.961 2477.04
176.673 878.655 2476.74
177.191 878.418 2476.26
175.66 879.415 2476.91
175.61 879.586 2476.63
176.224 879.263 2476.16
177.282 878.374 2476.1
177.608 878.025 2475.15
177.538 878.172 2475.5
176.872 878.819 2475.02
176.95 878.789 2475.32
176.03 879.481 2474.84
177.573 877.988 2474.92
175.945 879.568 2475.33
176.044 879.485 2475.66
176.112 879.393 2475.94
177.526 877.923 2474.67
176.345 878.985 2474.3
175.731 878.885 2473.33
176.026 878.133 2472.86
176.099 877.937 2472.71
176.033 877.95 2472.5
175.788 878.293 2472.59
175.849 878.259 2472.71
175.935 878.057 2472.33
175.895 878.102 2472.47
176.079 877.929 2472.19
176.661 877.895 2471.63
176.601 878.009 2471.54
176.151 877.997 2471.91
176.069 878.03 2471.98
176.271 877.992 2471.79
176.108 878.092 2471.84
176.057 877.984 2472.08
176.371 878.016 2471.69
176.675 878.208 2471.37
177.125 878.643 2470.98
177.376 879.422 2470.58
176.489 878.163 2471.5
177.132 880.37 2470.26
176.719 880.4 2470.54
176.445 881.066 2470.4
176.318 881.487 2470.28
176.238 881.758 2470.18
175.988 882.269 2470.09
175.664 882.604 2470.27
175.567 883.064 2470.27
175.367 883.653 2470.35
175.124 884.262 2470.57
174.931 884.613 2470.83
174.826 885.026 2470.98
174.726 886.167 2471.5
174.668 887.033 2471.92
174.575 887.728 2471.88
174.514 887.861 2471.86
174.428 888.034 2471.82
174.433 888.006 2471.74
174.07 888.55 2471.58
173.684 889.104 2471.2
173.685 889.115 2471.29
174.631 887.36 2471.95
174.586 887.582 2472
174.535 887.752 2471.99
173.571 889.408 2471.06
173.615 889.309 2471.21
173.332 889.452 2470.22
173.212 889.383 2469.92
173.14 889.185 2469.84
173.53 889.773 2470.73
173.478 889.809 2470.52
173.423 889.734 2470.36
173.543 889.635 2470.85
173.553 889.687 2470.92
172.544 888.5 2469.05
172.858 888.974 2469.36
171.254 887.55 2467.75
171.316 887.432 2467.88
163.035 910.219 2506.69
163.699 910.882 2507.76
161.982 909.667 2504.68
162.232 908.109 2505.89
161.853 909.122 2504.75
162.326 906.243 2506.64
161.725 909.447 2504.15
161.6 904.148 2505.15
161.618 904.356 2505.14
161.491 903.809 2504.8
162.329 903.666 2506.85
163.284 902.877 2508.77
163.338 902.529 2508.87
163.372 902.133 2509.18
163.286 901.627 2509.04
162.999 900.147 2509.26
162.684 898.905 2509.15
162.657 898.583 2509.22
162.672 898.421 2509.31
162.759 898.295 2509.53
162.842 898.093 2509.69
162.781 898.038 2509.52
162.817 897.9 2509.53
162.794 897.807 2509.4
162.768 897.742 2509.24
162.775 897.708 2509.11
162.814 897.652 2509.01
163.341 897.011 2509.37
162.856 897.613 2508.89
164.729 893.478 2511.93
164.561 893.782 2511.57
164.593 894.516 2511.02
164.532 895.193 2510.64
164.475 895.366 2510.5
163.407 896.957 2509.26
164.516 895.452 2510.3
164.294 895.742 2510.15
163.478 896.903 2509.16
165.462 892.374 2512.52
166.036 891.533 2513
166.037 891.295 2513.23
166.132 891.038 2513.36
166.331 890.693 2513.41
168.377 884.238 2513.47
168.549 883.946 2513.38
167.669 885.656 2513.97
166.911 886.813 2514.51
166.808 887.393 2514.44
166.714 889.118 2513.89
166.615 890.31 2513.43
171.415 884.563 2512.1
169.532 883.934 2512.83
171.629 886.337 2512.11
170.692 884.766 2512.39
169.777 887.363 2512.98
170.928 887.732 2512.4
169.187 887.841 2513.16
168.798 888.318 2513.22
167.171 888.565 2513.82
167.23 889.59 2513.41
167.246 890.215 2513.06
168.764 890.234 2512.31
167.396 891.79 2511.86
168.045 891.398 2511.68
168.67 891.532 2510.99
169.136 891.898 2510.27
168.84 892.098 2510.3
169.019 892.277 2510.02
170.162 892.989 2508.78
171.719 892.71 2507.88
172.003 892.514 2507.73
172.678 890.173 2508.37
173.12 889.754 2507.47
173.838 888.25 2505.24
174.056 887.764 2504.17
173.444 889.22 2506.8
172.75 890.22 2507.94
172.23 892.276 2507.62
172.104 891.323 2508.3
172.262 890.949 2508.43
172.415 890.621 2508.27
174.089 888.112 2501.77
173.932 888.333 2501.01
173.78 888.465 2500.34
173.553 888.543 2499.81
171.994 889.562 2498.55
170.301 891 2497.67
178.376 886.45 2500.83
178.559 886.334 2501.14
178.002 886.585 2500.54
178.303 886.434 2500.16
170.12 891.121 2497.31
172.357 888.386 2494.17
172.875 888.054 2494.41
175.319 887.051 2495.83
178.358 886.043 2498.09
178.615 886.093 2498.79
178.607 886.212 2499.57
170.806 890.42 2496.61
169.827 891.44 2497.07
169.738 891.56 2496.83
171.578 889.582 2495.84
171.388 889.934 2495.96
171.887 889.016 2495.03
172.083 888.641 2494.2
178.775 886.216 2501.19
178.764 886.194 2501.42
178.974 886.005 2501.38
179.548 885.269 2502.49
179.247 885.772 2501.78
179.725 885.037 2502.66
169.006 884.119 2513.07
168.69 884.138 2513.25
180.309 883.499 2504.64
180.126 883.711 2504.28
180.084 884.197 2503.56
180.043 884.258 2503.57
180.014 884.643 2503.11
179.767 885.012 2502.45
180.242 883.533 2504.22
180.122 884.085 2503.51
180.181 883.701 2504.12
180.059 884.557 2503.02
180.072 884.487 2503.07
179.709 885.138 2499.43
179.673 885.215 2499.19
179.673 885.248 2499.34
179.692 885.101 2500.69
179.549 884.849 2498.56
179.436 884.696 2498.38
179.674 885.114 2498.95
179.609 885.059 2498.67
160.447 918.49 2514.77
160.041 918.712 2513.96
157.998 917.903 2510.3
159.583 915.726 2512.07
162.28 914.074 2515.58
162.067 911.761 2515.44
162.256 911.24 2515.59
161.03 910.385 2514.16
160.771 910.791 2514
161.452 909.347 2513.93
161.155 909.518 2513.79
160.854 909.865 2513.71
160.617 910.203 2513.58
161.585 909.134 2513.84
163.967 908.963 2515.44
162.118 908.88 2514.04
165.666 908.615 2516.08
164.013 908.785 2515.2
165.652 908.438 2515.7
165.666 908.341 2515.43
166.704 908.007 2515
166.849 907.967 2514.73
166.805 908.191 2514.05
166.559 908.564 2513.13
166.253 908.907 2512.51
166.014 909.033 2512.25
165.755 909.958 2510.8
165.876 909.182 2512.01
165.877 909.545 2511.38
165.775 909.975 2510.84
165.05 910.4 2509.94
164.653 910.639 2509.36
164.475 910.759 2509.16
164.338 910.819 2508.99
165.456 910.167 2510.55
165.411 910.17 2510.39
165.084 910.426 2510.05
164.204 910.839 2508.72
164.148 910.988 2508.55
164.142 911.097 2508.43
164.075 911.125 2508.26
163.851 911.112 2507.92
164.23 910.902 2508.79
172.889 877.364 2489.91
172.643 877.598 2490.59
173.125 876.917 2488.18
173.094 876.713 2487.15
173.039 877.268 2489.2
173.052 876.996 2488.12
172.476 878.684 2491.7
172.574 879.022 2491.89
172.674 879.261 2492.05
172.419 878.448 2491.46
172.422 878.275 2491.24
172.479 877.953 2490.99
172.447 878.077 2491.05
172.554 877.801 2490.71
172.592 877.703 2490.66
172.852 879.553 2492.22
173.817 883.238 2492.41
173.523 882.705 2492.01
173.477 882.043 2491.97
173.184 880.651 2492.17
173.342 882.311 2491.73
177.584 884.627 2496.12
175.299 884.184 2493.87
179.03 884.811 2497.81
178.238 884.825 2496.86
173.068 876.739 2486.25
173.08 876.806 2486.04
173.174 876.737 2485.94
173.114 876.642 2486.54
173.087 876.694 2486.76
173.414 876.71 2485.6
173.248 876.748 2485.77
173.722 877.248 2484.82
174.005 877.882 2483.92
173.756 878.336 2483.57
173.889 878.439 2483.17
174.237 878.246 2482.94
174.597 877.866 2481.53
175.113 877.289 2480.69
174.379 878.195 2482.31
174.189 878.37 2482.64
175.318 877.193 2480.2
175.132 877.31 2480.45
175.615 877.084 2479.86
175.366 877.223 2480.03
175.759 877.19 2479.54
176.329 877.934 2477.98
176.54 878.603 2476.99
175.746 879.18 2477.13
175.481 879.612 2476.98
175.524 879.437 2477.15
175.453 879.805 2476.39
175.298 879.881 2476.78
177.027 878.673 2475.04
176.17 879.253 2474.48
176.116 879.358 2474.63
176.002 879.515 2475.08
175.102 880.195 2474.64
175.326 879.971 2474.36
175.078 880.186 2474.31
175.3 879.983 2476.18
174.83 880.409 2475.47
175.424 879.703 2473.95
175.529 879.099 2473.24
175.334 879.227 2473.03
175.713 878.381 2472.46
175.189 879.403 2473.02
175.908 878.124 2472.18
175.748 878.316 2472.32
176.311 878.16 2471.63
175.975 878.178 2471.9
175.897 878.22 2471.98
175.916 878.155 2472.05
176.188 878.15 2471.74
175.953 878.253 2471.84
176.464 878.445 2471.39
176.291 878.317 2471.56
176.774 879.073 2471.02
176.111 879.888 2471.07
175.748 880.516 2471.07
175.792 881.993 2470.43
175.795 882.254 2470.28
175.477 883.077 2470.36
175.447 882.818 2470.42
175.307 883.437 2470.46
175.142 883.947 2470.57
175.086 884.202 2470.63
174.957 884.316 2470.79
174.802 884.683 2471
174.782 884.895 2471.04
174.67 886.006 2471.58
174.736 884.982 2471.13
174.644 886.987 2471.98
174.619 887.295 2472.01
174.441 887.945 2471.99
174.404 888.058 2471.91
174.013 888.628 2471.68
173.636 889.231 2471.37
174.576 887.504 2472.08
174.525 887.672 2472.12
174.482 887.794 2472.09
174.432 887.912 2472.07
173.549 889.557 2471.09
173.576 889.448 2471.27
173.334 889.62 2470.14
173.261 889.64 2469.89
173.158 889.432 2469.71
173.531 889.972 2470.66
173.562 889.904 2470.79
173.435 889.952 2470.33
173.464 890.01 2470.48
173.431 889.914 2470.13
173.508 890.046 2470.8
173.542 889.809 2470.97
172.473 888.677 2468.79
171.211 887.694 2467.57
172.836 889.136 2469.15
163.66 911.034 2507.53
162.7 910.75 2505.24
161.972 910.993 2503.16
161.778 910.853 2502.69
162.015 908.123 2505.29
161.719 909.004 2504.41
162.3 907.014 2506.08
161.6 909.195 2503.96
161.816 905.26 2505.25
161.617 910.547 2502.45
161.531 910.364 2502.2
160.902 903.553 2502.65
160.8 903.812 2502.17
161.013 903.293 2503.05
162.308 903.315 2506.55
161.194 903.149 2503.69
163.078 902.71 2507.93
163.193 902.328 2508.1
163.256 902.187 2508.42
163.282 901.952 2508.76
163.207 901.365 2508.83
162.924 899.973 2509.06
162.597 898.474 2508.96
162.658 898.89 2508.92
162.622 898.307 2509.06
162.666 898.239 2509.29
162.656 898.117 2509.2
162.698 897.973 2509.24
162.671 897.907 2509.09
162.66 897.88 2508.96
162.685 897.805 2508.89
162.715 897.801 2508.75
162.894 897.597 2508.74
162.76 897.783 2508.61
164.725 893.671 2511.62
164.744 894.472 2510.94
164.691 895.116 2510.53
164.613 895.275 2510.46
162.929 897.598 2508.6
164.419 895.677 2510.04
164.73 895.276 2510.28
164.599 895.441 2510.18
163.556 896.877 2509.03
162.988 897.586 2508.5
165.557 892.363 2512.41
166.171 891.376 2513
166.257 891.092 2513.19
166.491 890.736 2513.25
166.394 891.11 2513.02
167.283 887.042 2514.22
168.037 885.648 2513.69
167.152 887.592 2514.17
166.894 889.936 2513.46
166.846 890.719 2513.01
169.437 884.062 2512.86
170.193 885.594 2512.71
169.793 886.907 2512.98
168.508 885.699 2513.43
169.24 884.173 2512.97
167.795 887.03 2513.88
167.482 887.45 2514.01
166.656 891.293 2512.65
166.92 892.686 2511.46
167.718 892.272 2511.32
168.042 894.089 2509.81
167.817 894.428 2509.67
165.556 893.612 2511.21
165.345 893.748 2511.2
168.307 891.799 2511.06
168.259 892.404 2510.67
168.776 893.195 2509.72
169.008 894.029 2509.08
170.406 893.72 2508.17
171.488 893.48 2507.52
168.882 893.923 2509.27
172.071 893.473 2507
172.372 893.4 2506.7
172.847 890.208 2507.61
173.292 889.709 2506.86
173.721 888.474 2506.08
173.819 889.038 2503.68
173.971 888.394 2501.87
173.853 888.858 2501.87
173.569 889.676 2505.9
172.463 892.008 2507.44
172.568 893.2 2506.58
172.366 891.12 2508.05
172.556 890.628 2507.93
173.846 888.688 2501.17
173.75 888.767 2500.7
173.595 888.896 2500.35
173.169 888.987 2499.64
173.337 889.275 2500.22
171.601 890.075 2498.65
170.008 891.574 2498.1
169.908 891.542 2497.81
169.689 891.665 2497.4
178.596 886.341 2500.7
172.187 888.426 2493.83
172.396 888.16 2493.8
172.968 887.752 2493.96
175.063 887.01 2495.33
177.889 886.041 2497.33
178.987 885.832 2498.63
178.873 885.958 2498.82
178.912 886.001 2499.37
178.814 886.177 2500.68
169.622 891.991 2495.63
170.574 890.666 2496.54
171.065 890.244 2496.09
169.444 891.983 2497.03
169.469 891.906 2496.82
169.317 892.484 2495.23
169.38 892.093 2496.59
169.424 892.358 2495.08
171.526 889.569 2495.52
171.794 889.099 2494.67
171.33 889.894 2495.58
171.167 890.143 2495.86
171.911 888.887 2494.24
172.023 888.639 2493.84
179.019 886.001 2500.66
179.203 885.874 2501.37
179.37 885.641 2501.67
179.467 885.495 2501.7
179.997 884.696 2502.86
179.599 885.256 2500.56
179.496 885.441 2500.23
179.624 885.229 2498.97
179.607 885.43 2499.1
179.599 885.399 2499.31
179.42 885.077 2498.4
179.384 884.884 2498.31
179.608 885.15 2498.76
179.437 885.222 2498.49
159.493 919.42 2512.96
158.934 919.553 2512.14
158.257 919.202 2510.98
157.122 919.328 2509.2
156.824 918.308 2508.47
157.931 915.73 2509.7
158.19 915.895 2510.18
158.731 915.134 2510.8
159.403 913.28 2511.95
159.711 913.469 2512.4
161.429 914.271 2514.46
161.628 912.311 2514.94
160.564 911.617 2513.8
160.405 911.225 2513.6
160.448 910.531 2513.51
161.147 909.296 2513.54
160.785 909.649 2513.44
160.568 909.96 2513.34
160.293 910.315 2513.17
160.093 910.85 2513.01
161.698 908.942 2513.67
161.35 909.098 2513.51
162.144 908.764 2513.86
163.871 908.66 2514.88
163.811 908.575 2514.66
165.613 908.304 2515.19
163.802 908.513 2514.48
165.95 908.201 2515.21
166.295 908.119 2515.1
166.475 908.383 2513.76
166.479 908.099 2514.79
166.695 908.239 2514.05
166.427 908.584 2513.14
166.185 908.899 2512.57
165.967 909.059 2512.28
165.45 910.184 2510.6
165.799 909.243 2511.93
165.808 909.58 2511.38
165.716 910.009 2510.87
165.42 910.205 2510.64
164.643 910.691 2509.4
164.502 910.809 2509.21
164.306 910.905 2508.95
164.342 910.927 2509.03
165.074 910.484 2510.08
164.631 910.739 2509.44
164.172 910.992 2508.64
164.188 911.16 2508.53
164.169 911.286 2508.37
164.215 911.315 2508.47
164.018 911.272 2508.1
164.073 911.511 2507.91
163.874 911.311 2507.73
164.221 911.023 2508.76
172.848 877.44 2489.88
172.976 876.85 2487.02
172.991 877.389 2489.11
172.988 877.094 2488.09
172.486 878.893 2491.69
172.417 878.621 2491.45
172.55 879.253 2491.73
172.648 879.406 2491.89
172.774 879.618 2492.04
172.391 878.444 2491.22
172.408 878.274 2491.06
172.512 877.911 2490.74
172.427 878.166 2490.92
172.457 878.018 2490.9
172.47 878.035 2490.69
172.751 877.654 2489.86
172.809 877.534 2489.87
173.644 883.902 2492.27
173.348 883.218 2491.82
173.118 882.662 2491.38
173.231 881.928 2491.51
173.254 881.517 2491.72
172.921 880.357 2491.78
173.058 882.144 2491.2
177.362 884.992 2495.92
175.356 884.649 2493.95
179.037 884.996 2497.87
178.297 885.021 2496.98
172.991 876.898 2486.11
173.011 876.773 2486.38
173.115 876.857 2485.87
172.997 876.794 2486.62
173.32 876.827 2485.54
173.209 876.911 2485.6
173.558 877.367 2484.84
173.749 878.039 2484.03
173.494 878.236 2484.07
173.451 878.806 2483.29
173.788 878.693 2482.89
174.346 878.166 2481.49
174.799 877.598 2480.74
173.985 878.602 2482.33
173.74 878.821 2482.58
175.13 877.403 2480.17
174.885 877.614 2480.43
175.435 877.278 2479.84
175.178 877.5 2479.92
175.553 877.42 2479.5
175.868 878.361 2477.98
175.528 879.278 2477.36
175.417 878.567 2478.25
175.348 879.59 2477.29
175.23 879.807 2477.14
175.339 879.439 2477.49
175.08 880.166 2476.6
174.898 880.357 2477.1
175.211 879.985 2474.13
174.837 880.416 2474.44
174.881 880.277 2474.02
175.094 880 2473.85
174.616 880.621 2475.47
175.324 879.063 2472.56
174.948 879.793 2473.01
174.468 880.708 2473.86
174.409 880.864 2475.34
175.741 878.366 2472.19
175.289 879.141 2472.47
175.663 878.448 2472.28
176.136 878.306 2471.67
175.825 878.413 2471.93
175.796 878.404 2472.01
175.699 878.485 2472.14
175.999 878.285 2471.77
175.823 878.558 2471.83
176.172 878.535 2471.54
176.015 878.536 2471.65
175.343 881.329 2471.06
175.575 879.644 2471.58
175.212 881.824 2470.98
174.971 882.997 2470.85
174.797 883.446 2470.94
174.99 883.967 2470.75
174.806 884.338 2470.94
174.672 884.78 2471.21
174.603 885.891 2471.67
174.579 887.068 2472.1
174.573 886.842 2472.05
174.593 887.287 2472.09
174.355 888.117 2471.98
174.365 888.058 2472.07
173.949 888.716 2471.78
173.599 889.316 2471.46
174.443 887.693 2472.23
174.521 887.505 2472.18
174.589 887.413 2472.09
174.43 887.818 2472.19
174.379 887.964 2472.16
173.54 889.712 2471.12
173.53 889.609 2471.31
173.397 889.983 2469.86
173.214 889.642 2469.64
173.077 889.494 2469.3
173.49 890.087 2470.6
173.528 890.061 2470.71
173.472 890.179 2470.33
173.498 890.176 2470.13
173.491 890.257 2470.44
173.498 890.034 2470.89
173.503 890.117 2470.73
173.521 889.923 2470.99
172.455 888.858 2468.58
172.733 889.202 2468.73
163.671 911.135 2507.13
163.893 911.433 2507.42
163.505 911.714 2505.46
163.639 912.966 2504.26
162.812 912.92 2502.84
162.677 913.014 2502.42
161.914 911.952 2501.8
161.629 911.491 2501.3
161.896 907.965 2504.87
161.594 908.818 2504.07
162.112 906.895 2505.11
161.543 909.169 2503.77
162.08 906.512 2504.98
161.415 905.198 2503.32
161.476 911.238 2500.85
161.466 910.252 2501.98
161.398 910.919 2500.57
160.596 903.233 2501.09
160.563 903.613 2501
160.603 903.981 2501.1
160.695 902.969 2501.36
162.17 902.95 2505.93
160.965 902.741 2502.26
163.032 902.387 2507.46
163.129 902.226 2507.7
163.197 901.974 2507.85
163.238 901.951 2508.31
163.247 901.742 2508.65
163.189 901.358 2508.59
162.893 899.886 2508.86
162.563 898.465 2508.79
162.577 898.273 2508.88
162.597 898.662 2508.7
162.602 898.096 2508.98
162.604 898.037 2508.89
162.645 897.897 2508.79
162.613 897.991 2508.82
162.651 897.921 2508.66
162.686 897.903 2508.58
162.818 897.779 2508.49
162.741 897.889 2508.45
164.897 893.602 2511.57
164.822 895.09 2510.37
164.936 894.384 2510.88
162.882 897.77 2508.37
164.619 895.517 2510.02
163.673 896.854 2508.9
164.831 895.245 2510.17
163.058 897.573 2508.39
162.991 897.707 2508.29
165.634 892.512 2512.16
166.203 891.555 2512.75
166.438 891.388 2512.73
166.468 893.799 2510.72
168.203 893.73 2509.96
168.068 894.501 2509.49
169.584 894.083 2508.55
167.5 894.783 2509.48
165.443 894.949 2510.1
164.941 895.059 2510.26
165.215 895.177 2509.95
165.016 895.317 2509.92
171.869 893.944 2506.72
171.81 893.595 2507.13
172.214 893.904 2506.41
172.492 893.799 2506.18
173.075 890.212 2506.9
173.751 888.984 2505.84
173.78 889.208 2505.03
173.646 890.675 2503.7
173.642 890.814 2502.99
173.589 890.891 2502.56
173.154 890.448 2506.38
173.315 891.381 2505.58
173.494 890.412 2505.2
173.682 889.822 2505.22
172.795 892.865 2506.47
172.706 891.716 2507.18
172.688 893.41 2506.22
172.745 890.681 2507.48
173.489 891.026 2502.25
173.379 891.207 2502.05
173.229 891.469 2501.96
173.012 889.849 2500.23
171.605 890.396 2499.04
172.997 891.761 2501.83
170.067 891.679 2498.38
169.652 892.068 2498.05
169.643 891.931 2497.78
169.471 892.07 2497.37
171.933 888.467 2493.45
172.113 888.167 2493.39
172.693 887.587 2493.42
175.198 886.765 2495.07
174.979 886.652 2494.69
177.675 885.961 2496.89
178.918 885.764 2498.36
179.308 885.633 2498.79
179.16 885.789 2498.89
179.174 885.821 2499.22
170.271 891.127 2496.2
169.592 892.253 2494.77
169.543 892.536 2493.39
170.991 890.386 2495.91
169.332 892.169 2497.03
169.281 892.232 2496.66
169.201 892.315 2496.8
169.259 892.726 2494.73
169.383 892.772 2493.58
169.45 892.66 2493.22
171.567 889.463 2495.11
171.73 889.218 2494.59
171.758 889.211 2494.33
171.803 888.998 2493.98
171.174 890.145 2495.64
171.4 889.788 2495.34
171.843 888.76 2493.61
179.232 885.802 2500.33
179.374 885.646 2500.07
179.508 885.531 2499.27
179.571 885.293 2498.88
179.552 885.465 2499.05
179.097 885.202 2498.04
179.486 885.26 2498.63
179.125 885.38 2498.2
159.979 919.799 2513.71
159.331 919.987 2512.75
159.661 920.347 2513.17
160.004 920.34 2513.59
158.974 920.297 2512.36
158.386 919.827 2511.45
157.446 919.725 2509.91
156.715 919.748 2508.58
156.396 919.036 2507.77
156.881 916.928 2508.31
157.757 915.582 2509.29
158.635 914.89 2510.6
159.124 913.333 2511.45
158.475 914.701 2510.21
160.05 911.266 2513.08
160.647 913.296 2513.65
160.763 909.524 2513.21
160.961 909.246 2513.15
160.53 909.892 2513.1
160.146 910.443 2512.76
159.792 911.133 2512.44
159.121 912.846 2511.4
161.818 908.778 2513.52
161.443 908.904 2513.32
161.152 909.054 2513.19
162.131 908.676 2513.67
162.178 908.603 2513.54
163.844 908.462 2514.34
165.511 908.306 2514.98
162.309 908.551 2513.48
165.931 908.213 2514.98
166.235 908.169 2514.77
166.294 908.512 2513.5
166.08 908.879 2512.62
165.849 909.001 2512.43
166.185 908.517 2513.56
165.832 909.118 2512.2
165.996 908.99 2512.44
165.066 910.516 2510.13
165.719 909.603 2511.44
165.695 909.978 2510.95
165.395 910.216 2510.69
165.016 910.544 2510.17
164.505 910.861 2509.25
164.35 910.984 2509.05
164.288 911.036 2508.9
164.61 910.798 2509.46
164.497 910.907 2509.29
164.194 911.134 2508.61
164.228 911.32 2508.54
164.24 911.494 2508.36
164.198 911.53 2508.18
164.252 911.476 2508.46
164.237 911.758 2507.96
164.063 911.655 2507.62
164.215 911.833 2507.78
164.203 911.116 2508.68
164.238 911.134 2508.76
172.92 876.944 2486.98
172.94 877.526 2489.06
172.921 877.224 2488.01
172.45 878.987 2491.53
172.389 878.679 2491.17
172.497 879.342 2491.5
172.78 880.219 2491.49
172.383 878.402 2491
172.371 878.555 2490.97
172.408 878.313 2490.87
172.683 877.809 2489.81
172.433 878.252 2490.67
172.63 877.993 2489.86
172.893 877.66 2489.03
175.137 885.021 2493.83
173.33 884.715 2492.09
172.966 884.028 2491.44
172.696 882.537 2490.61
171.975 884.359 2489.91
173.023 881.724 2491.03
173.09 881.238 2491.45
172.864 881.971 2490.73
177.388 885.306 2496.04
178.484 885.175 2497.25
172.928 876.925 2486.27
172.905 877.087 2486.05
172.987 877.021 2485.92
173.105 876.996 2485.69
173.051 876.935 2485.89
172.918 876.893 2486.54
173.411 877.478 2484.88
173.279 877.543 2484.99
173.249 878.357 2484.26
172.767 879.942 2483.04
173.61 878.946 2482.79
174.117 878.451 2481.45
174.542 877.944 2480.68
173.734 878.928 2482.17
173.609 879.08 2482.23
173.043 880.298 2481.82
174.853 877.795 2480.08
174.584 877.999 2480.38
175.176 877.783 2479.51
174.837 877.963 2479.83
175.131 878.715 2478.48
174.818 878.205 2479.5
174.669 880.534 2477.79
175.186 879.617 2477.57
174.538 880.821 2477.64
175.275 879.29 2477.77
175.169 879.471 2477.77
174.476 880.963 2477.14
173.735 882.057 2477.72
174.371 880.846 2473.84
174.224 881.071 2474.42
174.257 880.995 2474.67
174.049 881.435 2476.19
175.307 879.136 2472.36
174.669 880.315 2472.64
174.315 880.949 2473.71
175.894 878.563 2471.73
175.431 879.128 2472.07
175.451 879.279 2471.94
175.414 879.06 2472.16
175.064 879.673 2472.33
175.377 879.747 2471.74
174.873 881.683 2471.41
174.399 883.193 2471.36
174.316 883.477 2471.44
174.614 883.887 2471.13
174.472 884.12 2471.29
174.192 884.658 2471.8
174.469 885.771 2471.82
174.498 886.839 2472.14
174.507 887.091 2472.19
174.545 887.253 2472.16
174.469 887.013 2472.22
174.505 887.42 2472.21
173.884 888.786 2471.87
174.293 888.168 2472.13
173.572 889.338 2471.57
174.391 887.57 2472.31
174.312 887.861 2472.32
174.304 887.758 2472.36
174.319 887.95 2472.26
174.265 888.106 2472.23
173.501 889.89 2471.1
173.448 889.832 2471.24
173.465 889.603 2471.46
173.539 890.269 2469.87
173.303 889.871 2469.51
173.438 890.12 2469.64
173.194 889.769 2469.12
173.484 890.203 2470.59
173.591 890.455 2470.26
173.596 890.423 2470.13
173.614 890.423 2470
173.624 890.573 2470.31
173.567 890.458 2470.48
173.466 890.035 2470.99
173.464 890.171 2470.81
173.51 890.31 2470.64
172.993 889.629 2468.48
164.351 912.275 2506.78
163.961 911.892 2506.28
164.498 912.439 2507.02
164.492 913.131 2505.61
164.654 913.083 2506.05
164.046 913.607 2504.42
163.291 913.636 2503.07
162.553 913.051 2501.99
163.39 914.082 2502.83
163.268 914.076 2502.44
161.801 911.932 2501.34
161.605 911.616 2500.93
161.578 908.621 2503.96
161.846 907.873 2504.56
161.989 907.13 2504.34
161.496 909.203 2503.53
161.499 908.996 2503.56
161.618 907.377 2500.9
161.645 907.599 2501.11
161.581 907.049 2500.91
161.25 905.2 2502.1
161.304 906.496 2499.97
160.678 904.323 2501.04
161.485 911.333 2500.45
161.41 911.084 2500.41
161.5 909.582 2502.65
161.439 910.173 2501.4
161.326 910.275 2500.52
161.365 909.995 2498.76
161.324 909.246 2498.33
160.544 903.165 2500.52
160.524 903.438 2500.5
160.581 902.911 2500.67
160.534 903.806 2500.52
160.58 904.07 2500.56
160.649 902.702 2500.84
162.21 902.744 2505.82
161.3 902.732 2503.52
162.925 902.366 2507.06
160.744 902.514 2500.97
160.987 902.435 2501.89
163.091 902.08 2507.15
163.179 902.006 2507.44
163.241 901.791 2507.54
163.247 901.658 2507.78
163.215 901.744 2508.05
163.217 901.603 2508.34
163.195 901.276 2508.3
163.15 901.03 2508.62
162.889 899.773 2508.68
162.65 898.931 2508.63
162.56 898.406 2508.72
162.573 898.24 2508.8
162.582 898.493 2508.62
162.585 898.152 2508.74
162.605 898.038 2508.69
162.624 898.035 2508.57
162.665 897.995 2508.45
162.801 897.9 2508.31
162.711 898.003 2508.31
164.839 895.394 2509.97
164.902 895.177 2510.17
162.905 897.825 2508.21
163.867 896.734 2508.87
163.166 897.559 2508.26
163.076 897.64 2508.26
163.119 897.672 2508.15
163.008 897.778 2508.12
166.479 894.769 2509.87
167.758 894.862 2509.28
169.458 894.356 2508.38
166.765 895.955 2508.43
165.972 895.859 2508.84
164.812 896.228 2508.86
164.447 896.408 2508.85
164.142 896.56 2508.86
171.683 894.359 2506.45
172.081 894.286 2506.15
172.344 894.189 2505.93
172.501 894.063 2505.78
172.706 893.67 2505.93
173.537 891.148 2504.61
173.535 892.109 2504.05
173.522 891.993 2504.35
173.488 892.295 2503.82
173.384 892.487 2503.51
173.118 891.402 2506.37
172.934 891.535 2506.81
173.16 892.506 2505.84
173.224 892.628 2505.31
173.394 892.177 2504.95
172.869 893.183 2506.09
172.968 892.643 2506.21
173.23 892.778 2503.32
173.099 892.872 2502.94
172.914 892.973 2502.68
171.652 891.004 2499.7
172.633 892.063 2501.57
170.302 891.71 2498.78
172.612 893.099 2502.33
169.997 892.129 2498.73
169.651 892.337 2498.34
169.489 892.471 2498.13
169.427 892.317 2497.76
169.226 892.402 2497.01
169.238 892.447 2497.28
171.695 887.457 2492
171.795 888.586 2493.29
171.839 887.516 2492.29
172.165 887.473 2492.67
172.741 886.99 2492.82
174.961 886.436 2494.45
177.271 885.88 2496.28
178.791 885.627 2497.97
179.202 885.594 2498.55
179.419 885.623 2499.04
179.465 885.402 2498.77
179.346 885.682 2499.2
170.457 891.552 2495
169.724 892.125 2494.77
170.554 891.206 2495.59
170.844 890.904 2495.49
169.618 892.452 2493.23
169.429 892.705 2492.51
171.03 890.797 2495.25
171.168 890.253 2495.59
169.181 892.853 2494.91
169.13 892.514 2496.6
169.066 892.69 2496.67
169.305 892.938 2493.51
169.267 893.023 2493.25
169.361 892.823 2493.08
169.319 892.868 2492.57
171.644 889.409 2494.62
171.703 889.361 2494.2
171.731 889.07 2493.78
171.314 890.027 2495.32
171.476 889.724 2494.92
171.742 888.78 2493.37
171.729 888.92 2493.54
178.547 885.358 2497.41
179.213 885.467 2498.43
178.588 885.507 2497.59
159.406 920.718 2512.91
160.495 921.702 2513.94
158.15 921.457 2511.83
157.856 921.126 2511.38
158.458 921.876 2512.25
157.424 920.923 2510.72
156.973 920.965 2510.06
156.886 920.059 2509.07
156.543 920.268 2508.49
156.414 920.127 2508.1
156.161 919.31 2507.26
156.284 918.084 2507.29
156.827 916.745 2508.12
157.634 915.508 2508.95
158.361 914.582 2509.85
158.965 912.941 2511
160.622 909.62 2512.9
160.746 909.423 2512.79
160.974 909.159 2512.94
160.302 910.065 2512.64
159.771 910.959 2512.11
158.972 912.728 2510.87
161.449 908.827 2513.11
161.839 908.682 2513.34
161.148 908.992 2513.01
161.91 908.628 2513.26
163.928 908.424 2514.2
162.369 908.527 2513.4
165.487 908.305 2514.79
162.024 908.587 2513.22
165.895 908.256 2514.68
166.04 908.328 2514.27
166.021 908.576 2513.49
165.701 909.017 2512.4
165.643 909.169 2512.07
165.566 908.965 2512.51
165.533 909.048 2512.31
164.594 910.836 2509.5
165.663 909.619 2511.46
165.426 910.175 2510.79
165.407 910.141 2510.88
164.954 910.56 2510.2
164.552 910.853 2509.54
164.379 911.023 2509.11
164.32 911.129 2508.97
164.273 911.194 2508.83
164.477 910.94 2509.33
164.365 911.046 2509.17
164.228 911.265 2508.63
164.273 911.543 2508.48
164.253 911.694 2508.13
164.269 911.64 2508.3
164.28 911.924 2507.87
164.593 912.528 2507.39
164.566 912.509 2507.21
164.24 911.26 2508.7
172.86 877.045 2486.9
172.903 876.949 2486.76
172.853 877.381 2487.92
172.413 878.953 2491.2
172.394 878.715 2490.87
172.449 879.192 2491.23
172.645 880.037 2490.99
172.694 880.147 2491.23
172.99 881.225 2491.11
172.86 880.921 2490.94
172.396 878.461 2490.8
172.846 877.821 2489.03
172.886 877.717 2489.16
172.572 878.25 2489.91
172.426 878.374 2490.58
172.42 878.535 2490.6
172.771 878.03 2489.03
172.818 877.919 2489.07
172.85 877.745 2488.78
174.911 885.45 2493.77
172.953 885.496 2492.03
172.694 884.848 2491.37
172.018 883.088 2489.53
172.525 882.297 2490.13
172.725 881.866 2490.34
171.742 885.247 2489.87
172.213 885.299 2490.94
170.939 886.552 2488.96
170.473 885.283 2487.81
170.653 886.677 2488.55
170.615 883.82 2487.49
172.845 881.686 2490.55
172.911 881.484 2490.7
177.202 885.572 2495.94
172.847 877.158 2486.16
172.863 877.027 2486.41
172.855 877.279 2485.97
172.932 877.189 2485.83
173.037 877.12 2485.69
173.17 877.599 2485.12
173.181 878.275 2484.57
172.97 878.88 2484.19
172.376 880.106 2483.6
171.843 881.057 2483.38
172.126 881.223 2482.56
172.487 881.324 2481.5
173.924 878.702 2481.39
174.296 878.285 2480.62
173.851 878.928 2481.22
173.278 879.963 2481.65
172.522 881.466 2480.84
173.006 880.948 2480.53
174.44 878.201 2480.29
174.512 878.207 2479.99
174.508 878.391 2479.69
174.945 878.801 2478.66
174.463 878.569 2479.55
174.935 880.067 2477.83
174.303 880.945 2478.26
173.55 882.159 2478.43
173.461 882.355 2478.23
174.957 879.942 2477.94
175.148 879.264 2478.03
174.959 879.786 2478.13
173.791 881.887 2476.38
173.369 882.591 2478.02
173.551 882.322 2476.5
174.619 880.504 2472.56
174.261 881.124 2473.6
173.343 883.01 2475.93
174.895 880.317 2472.07
174.79 880.338 2472.28
174.971 880.449 2471.83
174.693 881.869 2471.59
174.176 883.216 2471.66
174.194 883.369 2471.62
174.166 883.76 2471.64
174.098 883.633 2471.73
173.926 884.394 2472.08
174.104 885.887 2472.32
173.341 885.328 2473.06
173.215 886.315 2473.36
174.418 886.783 2472.23
174.376 887.051 2472.33
174.402 887.233 2472.33
174.447 887.373 2472.28
174.461 887.227 2472.26
173.747 888.9 2471.97
173.423 889.617 2471.59
174.067 888.377 2472.22
174.25 887.645 2472.44
174.279 887.454 2472.44
174.18 887.962 2472.43
174.22 888.052 2472.33
174.154 887.849 2472.51
174.047 888.298 2472.34
173.442 889.982 2471.13
173.378 889.905 2471.31
173.641 890.447 2469.83
173.593 890.347 2469.53
173.479 890.171 2469.36
173.496 890.195 2469.05
173.693 890.649 2470.1
173.697 890.595 2469.97
173.664 890.712 2470.37
173.708 890.749 2470.2
173.573 890.574 2470.54
173.427 890.097 2471.03
173.432 890.195 2470.89
173.462 890.407 2470.7
164.915 913.285 2506.51
164.938 913.248 2506.81
164.859 913.471 2506.11
164.197 913.895 2504.47
164.899 913.703 2505.98
163.544 914.391 2502.87
162.488 913.064 2501.62
163.13 914.011 2502.05
163.469 914.417 2502.62
163.368 914.413 2502.27
161.763 911.982 2500.95
161.604 911.668 2500.56
161.547 908.593 2503.63
161.5 908.78 2503.55
161.766 907.814 2504.02
161.83 907.416 2503.31
161.793 907.357 2502.71
161.513 909.275 2502.61
161.347 908.028 2498.42
161.295 907.826 2497.93
161.7 907.758 2501.72
161.479 908.704 2500.44
161.331 909.156 2499.55
161.321 909.189 2499
161.029 906.354 2498.05
160.975 905.35 2500.59
160.79 904.819 2500.03
161.508 910.526 2498.62
161.439 910.288 2498.64
161.435 909.879 2501.31
161.367 909.229 2496.79
161.299 908.261 2496.62
161.385 909.056 2496.37
161.394 908.441 2496.07
161.02 906.67 2496.81
160.522 903.244 2500.14
160.54 902.996 2500.25
160.527 903.576 2500.31
160.525 903.482 2499.96
160.576 902.775 2500.41
160.539 903.707 2500.12
160.715 904.448 2499.62
160.623 902.593 2500.48
162.196 902.462 2505.41
161.154 902.329 2502.31
163.032 902.037 2506.82
160.861 902.28 2501.05
160.73 902.39 2500.63
163.259 901.822 2507.16
163.214 901.688 2506.91
163.324 901.839 2507.29
163.348 901.606 2507.48
163.279 901.479 2507.87
163.397 901.449 2507.61
163.222 901.474 2508.09
163.326 901.356 2508.01
163.282 901.178 2508.18
163.184 900.951 2508.44
162.902 899.675 2508.49
162.637 898.822 2508.52
162.564 898.375 2508.66
162.568 898.296 2508.62
162.593 898.457 2508.51
162.578 898.372 2508.56
162.594 898.196 2508.57
162.622 898.142 2508.46
162.651 898.095 2508.35
162.859 897.925 2508.11
162.778 898.001 2508.17
162.705 898.084 2508.22
162.947 897.868 2508.04
163.351 897.496 2508.14
163.22 897.609 2508.11
163.225 897.678 2508
163.101 897.75 2508.03
163.033 897.853 2507.97
167.041 895.933 2508.29
167.947 894.868 2509.14
167.844 895.033 2509.01
168.668 894.553 2508.81
170.461 894.455 2507.36
165.65 897.2 2507.45
166.12 897.057 2507.38
164.118 897.35 2507.84
164.919 897.277 2507.64
163.796 897.349 2507.99
163.548 897.423 2508.05
171.776 894.549 2506.13
172.123 894.472 2505.86
172.346 894.365 2505.67
172.487 894.234 2505.47
172.72 893.866 2505.58
172.872 893.375 2505.8
173.423 892.549 2504.23
173.411 892.356 2504.64
173.352 892.763 2503.94
173.163 893.125 2503.95
173.057 892.935 2505.79
173.035 893.136 2505.52
173.221 892.879 2504.96
173.023 893.266 2503.52
172.904 893.295 2503.09
172.696 893.35 2502.72
171.595 892.282 2500.61
170.311 892.056 2499.13
171.462 893.657 2501.37
171.18 894.085 2501.4
170.013 893.229 2499.39
169.674 893.337 2498.97
169.437 893.462 2498.62
169.332 892.706 2497.95
169.208 892.656 2497.57
169.064 892.795 2496.94
169.074 892.838 2497.2
171.492 888.19 2492.39
171.444 887.21 2491.28
171.836 886.203 2491
172.333 885.924 2491.56
171.664 888.706 2493.14
172.576 886.325 2492.12
174.852 886.158 2494.12
177.143 885.738 2496
170.424 891.748 2494.34
171.067 891.384 2493.9
171.017 891.612 2493.37
169.725 892.329 2493.39
171.173 891.295 2493.8
169.336 892.766 2492.06
169.127 893.022 2492.06
169.1 893.014 2491.83
171.169 890.697 2495.04
171.265 891.149 2493.85
171.273 890.58 2494.76
168.938 893.558 2494.94
168.687 894.431 2494.26
168.913 893.424 2496.27
168.778 894.273 2493.77
168.751 894.309 2493.51
169.194 893.099 2492.71
169.046 893.212 2492.21
171.605 889.584 2494.46
171.652 889.564 2494.11
171.686 889.243 2493.8
171.655 889.002 2493.42
171.376 890.457 2494.47
171.473 890.361 2494.1
171.647 888.844 2493.23
159.887 922.97 2513.59
157.312 922.157 2511.19
156.899 921.955 2510.61
157.793 922.645 2511.8
156.488 921.867 2509.98
156.35 921.707 2509.63
156.679 920.963 2509.53
156.461 921.058 2509.16
156.357 920.481 2508.16
156.285 921.169 2508.83
156.301 920.222 2507.76
156.219 920.057 2507.46
156.032 919.487 2506.92
155.892 918.669 2506.54
155.854 918.978 2506.45
156.198 917.996 2507.04
156.259 917.715 2507.05
156.854 916.48 2507.99
157.561 915.417 2508.67
158.231 914.526 2509.42
160.389 909.831 2512.57
160.812 909.308 2512.63
160.518 909.68 2512.38
160.999 909.099 2512.75
159.891 910.663 2512.02
158.872 912.826 2510.5
158.893 912.702 2510.35
161.605 908.735 2513.02
161.204 908.935 2512.86
161.799 908.655 2513
164.025 908.403 2514.05
162.435 908.505 2513.31
162.105 908.559 2513.17
165.556 908.314 2514.57
165.801 908.342 2514.36
165.766 908.515 2513.72
165.705 908.745 2513.06
165.393 908.969 2512.48
165.505 909.184 2512.04
165.594 909.648 2511.47
165.337 909.077 2512.23
165.391 909.217 2512
164.454 910.942 2509.38
164.901 910.546 2510.24
165.323 910.146 2510.9
164.855 910.536 2510.28
164.48 910.893 2509.54
164.408 910.964 2509.4
164.337 911.114 2509.07
164.302 911.271 2508.88
164.3 911.211 2508.99
164.268 911.32 2508.77
164.348 911.057 2509.22
164.272 911.144 2509.09
164.27 911.466 2508.58
164.297 911.732 2508.34
164.307 911.691 2508.46
164.298 911.911 2507.98
164.285 911.794 2508.16
164.635 912.584 2507.47
165.027 913.35 2507.03
164.947 913.177 2507.15
164.945 913.206 2507.02
164.274 911.43 2508.67
172.802 877.159 2486.77
172.801 877.559 2487.94
172.754 877.379 2486.97
172.416 878.936 2490.93
172.431 878.792 2490.62
172.604 879.818 2490.74
172.793 880.695 2490.66
172.854 881.142 2490.63
172.839 880.871 2490.43
172.814 877.847 2488.66
172.575 878.641 2489.92
172.717 878.16 2489.09
172.742 878.562 2489.11
172.785 878.061 2488.73
172.757 878.363 2488.81
174.772 885.846 2493.85
172.102 882.614 2489.38
171.562 883.099 2488.62
172.493 881.943 2489.68
172.667 881.659 2489.96
172.757 881.403 2490.04
171.913 885.521 2490.55
171.445 886.086 2489.77
170.576 887.527 2489.02
170.291 887.617 2488.59
169.927 886.28 2487.37
169.169 885.859 2486.13
169.378 887.556 2487.3
168.785 886.281 2485.83
170.734 883.311 2487.34
172.808 881.232 2490.24
172.799 877.238 2486.43
172.791 877.384 2486.17
172.876 877.857 2485.57
172.961 877.766 2485.4
173.065 877.671 2485.26
173.042 878.433 2484.76
172.617 879.554 2484
172.852 878.892 2484.52
172.173 880.315 2483.82
171.75 881.03 2483.68
171.652 881.259 2483.47
172.004 881.542 2482.19
172.263 881.704 2481.1
174.277 878.36 2480.45
174.189 878.432 2480.54
173.839 879.151 2480.81
174.232 878.451 2480.33
173.396 880.199 2480.67
172.173 881.906 2480.95
172.563 881.642 2480.62
173.189 880.923 2480.18
173.591 880.197 2480.25
174.364 878.319 2480.14
174.321 878.491 2479.93
174.316 878.666 2479.73
174.769 878.967 2478.79
174.352 878.775 2479.51
174.189 880.998 2478.46
173.439 882.199 2478.62
173.344 882.463 2478.49
173.252 882.694 2478.41
174.887 879.661 2478.36
173.638 881.058 2479.31
173.211 882.973 2478.06
174.297 881.142 2473.3
174.542 880.744 2472.51
174.506 880.731 2472.63
173.488 882.917 2474.85
173.139 883.691 2476.56
172.822 884.638 2475.67
172.923 884.358 2474.9
172.994 884.213 2474.62
174.684 880.683 2472.21
174.756 880.741 2472.02
174.575 880.796 2472.36
174.617 880.631 2472.42
174.518 882.496 2471.63
174.741 881.345 2471.82
174.075 883.237 2471.86
174.014 883.542 2471.86
173.798 883.891 2472.38
173.854 884.237 2472.19
173.84 884.036 2472.24
173.609 884.803 2472.65
173.724 886.462 2472.87
174.213 886.897 2472.47
173.158 885.222 2473.29
172.837 886.746 2473.91
173.018 885.599 2473.51
172.896 886.502 2473.78
173.004 887.275 2473.75
173.152 887.458 2473.56
173.697 887.143 2472.98
174.187 887.213 2472.54
173.549 889.086 2472.06
173.324 889.726 2471.66
173.306 889.939 2471.42
173.309 889.279 2472.2
173.696 887.726 2472.99
173.695 887.916 2472.95
173.707 887.503 2472.99
174.018 888.147 2472.49
173.678 888.101 2472.87
173.606 888.492 2472.65
173.383 890.074 2471.16
173.321 890.078 2471.28
173.768 890.649 2469.77
173.767 890.594 2469.53
174.228 891.124 2468.97
173.756 890.527 2469.2
174.101 890.944 2468.64
173.786 890.764 2469.9
173.746 890.777 2470.05
173.64 890.783 2470.4
173.724 890.85 2470.28
173.769 890.899 2470.15
173.524 890.649 2470.56
173.391 890.24 2470.97
173.407 890.322 2470.83
173.394 890.433 2470.79
165.003 913.526 2506.49
165.041 913.501 2506.76
165.055 913.75 2506.35
164.268 914.075 2504.5
165.024 913.851 2506.16
163.644 914.595 2502.93
163.535 914.632 2502.56
162.514 913.156 2501.32
163.122 914.043 2501.75
163.237 914.298 2501.92
163.383 914.573 2502.05
163.435 914.637 2502.2
161.797 912.061 2500.63
161.606 911.599 2500.25
161.597 908.605 2502.41
161.685 908.027 2503.39
160.858 905.563 2497.65
160.916 905.207 2499.07
161.617 910.613 2498.2
161.45 909.471 2496.54
161.814 909.269 2494.55
161.022 906.46 2496.04
161.233 907.406 2496.64
161.51 907.994 2495.21
161.617 909.191 2495.51
161.517 908.715 2495.54
160.773 905.327 2495.86
160.781 905.108 2495.19
160.526 903.254 2499.91
160.551 902.952 2500.06
160.69 904.105 2499.27
160.691 903.851 2499.15
160.587 902.759 2500.12
160.868 904.81 2498.57
160.619 902.596 2500.13
160.674 902.446 2500.4
162.204 902.251 2505.06
161.115 902.105 2501.67
163.096 901.839 2506.5
160.876 902.185 2500.83
160.771 902.266 2500.5
163.44 901.522 2507.05
163.426 901.504 2506.84
163.425 901.472 2506.54
163.46 901.512 2507.25
163.474 901.444 2507.4
163.415 901.301 2507.74
163.505 901.281 2507.46
163.477 901.154 2507.55
163.368 901.186 2507.91
163.29 900.91 2508.04
163.205 900.68 2508.22
162.922 899.552 2508.31
162.634 898.684 2508.36
162.59 898.263 2508.48
162.604 898.427 2508.34
162.593 898.321 2508.42
162.619 898.189 2508.39
162.66 898.15 2508.26
162.856 898.019 2508.01
162.935 897.954 2507.96
162.77 898.077 2508.1
162.721 898.149 2508.13
163.371 897.58 2507.99
163.179 897.783 2507.91
163.414 897.657 2507.87
163.006 897.928 2507.88
166.952 896.317 2507.79
166.299 897.112 2507.21
168.094 895.304 2508.2
170.281 894.739 2507.01
171.463 894.622 2506.32
164.796 897.608 2507.37
165.732 897.654 2507
165.947 897.521 2506.99
163.556 897.526 2507.89
163.743 897.574 2507.74
171.501 894.81 2506.02
171.889 894.687 2505.78
172.122 894.612 2505.61
172.277 894.508 2505.46
172.444 894.374 2505.1
172.64 894.047 2505.15
172.893 893.527 2505.34
173.158 893.132 2504.48
172.814 893.704 2504.12
172.855 893.68 2504.62
172.718 893.739 2503.58
172.53 893.812 2503.17
170.973 894.417 2501.53
170.366 894.109 2500.38
170.513 893.018 2499.93
170.043 894.513 2500.29
169.707 894.675 2499.94
169.654 894.889 2500.16
169.86 894.36 2499.86
169.56 894.365 2499.37
169.342 894.52 2498.99
169.139 894.55 2498.55
169.209 893.597 2498.19
169.015 893.712 2497.73
168.89 893.828 2497.3
168.865 893.727 2496.83
171.381 888.453 2492.39
171.205 887.844 2491.51
171.301 887.225 2490.95
171.687 886.188 2490.66
170.516 892.029 2492.74
170.995 891.725 2492.82
171.198 891.502 2493.25
171.144 891.556 2493.24
170.915 892.062 2491.73
169.482 892.633 2492.08
169.557 892.538 2492.36
171.314 891.367 2493.32
171.25 891.485 2493.14
169.118 892.975 2491.55
168.885 893.183 2491.28
168.889 893.217 2491.46
168.967 893.224 2491.93
168.888 893.26 2491.66
168.738 893.438 2491.76
171.359 891.123 2493.6
168.481 894.709 2495.59
168.187 895.508 2495.8
167.974 895.979 2495.32
168.596 894.604 2496.28
168.693 894.319 2493.2
167.984 896.076 2494.55
168.456 894.668 2493.14
168.741 893.505 2491.96
171.504 890.378 2493.81
171.523 890.419 2493.52
171.659 889.507 2493.81
171.629 889.244 2493.57
171.577 889.15 2493.34
171.511 888.922 2493
171.401 891.166 2493.33
171.397 891.213 2493.04
159.791 924.086 2513.64
157.046 922.449 2510.93
156.811 922.213 2510.59
156.437 922.12 2510.01
159.122 923.939 2513.05
157.609 922.82 2511.62
156.253 921.953 2509.61
156.154 921.819 2509.29
156.16 921.267 2508.55
156.26 920.607 2507.92
156.018 921.859 2508.92
156.223 920.523 2507.55
156.178 920.249 2507.37
155.94 919.654 2506.69
155.724 919.146 2506.13
155.805 918.59 2506.27
155.721 918.921 2506.06
156.254 917.621 2506.87
155.762 918.523 2506.04
156.864 916.323 2507.79
157.546 915.292 2508.44
158.145 914.475 2509.09
159.977 910.489 2511.83
160.748 909.386 2512.38
160.121 910.287 2511.66
160.379 909.886 2511.88
161.041 909.053 2512.62
158.903 912.657 2510.17
158.135 914.392 2508.84
161.368 908.835 2512.79
161.246 908.921 2512.61
161.526 908.777 2512.7
162.018 908.584 2513
164.101 908.412 2513.84
162.523 908.503 2513.2
165.585 908.379 2514.22
165.486 908.545 2513.59
165.47 908.774 2512.96
165.188 908.98 2512.43
165.14 909.148 2512.09
165.509 909.692 2511.44
165.283 909.287 2511.91
165.399 909.735 2511.4
164.315 911.098 2509.25
164.424 910.921 2509.55
165.255 910.138 2510.93
164.802 910.529 2510.3
164.399 910.917 2509.61
164.333 911.057 2509.35
164.279 911.4 2508.81
164.248 911.316 2508.92
164.216 911.245 2509.02
164.297 911.513 2508.68
164.211 911.164 2509.14
164.309 911.64 2508.56
164.309 911.926 2508.16
164.324 911.882 2508.31
164.34 911.857 2508.43
164.672 912.647 2507.56
164.378 912.059 2508.01
164.986 913.235 2507.21
165.139 913.623 2506.84
165.097 913.466 2507.06
172.746 877.765 2487.86
172.709 877.565 2487.05
172.751 877.393 2486.69
172.587 879.527 2490.39
172.59 879.096 2490.03
172.796 880.462 2490.2
172.822 880.761 2489.93
172.782 879.795 2489.3
172.748 879.479 2489.41
172.731 877.985 2487.93
172.713 878.878 2487.82
172.092 882.214 2488.88
172.367 881.535 2488.64
172.537 881.224 2488.92
172.62 880.851 2488.9
172.729 880.661 2489.29
171.393 886.547 2490.05
170.755 887.495 2489.35
170.385 888.356 2489.35
170.103 888.493 2488.95
169.817 888.508 2488.46
168.625 887.103 2486.05
169.096 888.635 2487.54
168.38 888.216 2486.33
168.828 885.643 2485.48
168.235 888.646 2486.34
168.034 888.294 2485.8
169.356 883.955 2485.31
170.876 882.936 2487.18
172.742 877.493 2486.54
172.761 877.48 2486.3
172.818 877.957 2485.78
172.755 878.088 2485.95
172.877 878.573 2485
172.823 878.629 2485.32
172.501 879.661 2484.33
172.768 878.925 2484.97
172.141 880.305 2484.17
171.901 880.767 2483.93
171.71 881.055 2483.97
171.475 881.33 2483.81
171.413 881.51 2483.46
171.707 881.777 2482.3
171.787 882.061 2481.37
173.9 879.279 2480.37
174.185 878.612 2480.1
170.596 882.901 2481.94
172.193 882.098 2480.73
170.589 882.776 2482.12
173.82 880.102 2479.78
173.958 879.403 2480.03
174.21 878.73 2479.86
174.249 878.846 2479.65
174.156 879.527 2479.43
174.542 879.449 2478.92
173.323 882.168 2478.86
173.239 882.506 2478.67
173.112 882.848 2478.69
173.146 883.077 2478.4
174.287 880.254 2478.91
172.514 882.119 2480.27
173.049 882.154 2479.37
173.138 883.252 2478.03
174.32 881.468 2472.98
173.856 882.776 2473.56
174.427 881.515 2472.49
173.141 884.02 2474.26
172.874 884.58 2478.08
172.486 886.255 2477.47
172.582 885.304 2476.29
172.515 885.302 2474.89
172.661 884.895 2474.72
172.694 884.834 2474.47
174.624 881.408 2472.03
174.526 881.504 2472.22
174.361 882.628 2471.86
173.792 883.741 2472.46
174.059 883.177 2471.94
173.562 884.443 2472.8
173.116 884.603 2473.45
173.264 884.907 2473.14
172.829 885.61 2473.78
172.687 886.903 2474.16
172.979 887.716 2473.8
172.852 887.752 2473.99
173.112 887.8 2473.59
173.222 890.044 2471.47
173.239 890.211 2471.28
173.105 888.813 2473.02
