138.584 882.734 1883.33
138.314 883.137 1885.52
138.08 883.385 1884.66
138.226 883.131 1883.11
136.906 884.872 1886.59
137.59 884.375 1887.14
137.698 883.864 1884.62
137.054 885.17 1887.96
136.858 885.887 1890.73
137.803 883.838 1883.66
136.94 885.576 1888.99
137.264 885.53 1890.94
136.871 886.223 1894.04
137.389 885.554 1893.83
136.177 889.197 1917.07
136.667 888.108 1919.75
137.172 884.665 1885.24
137.899 883.677 1883.06
136.675 885.631 1887.81
136.699 886.003 1890.11
136.62 886.696 1895.56
137.044 886.122 1895.75
137.357 886.755 1921.98
135.704 889.657 1918.5
134.357 891.226 1918.55
134.337 891.228 1918.03
135.117 890.157 1916.28
135.976 889.342 1916.21
135.026 890.066 1919.75
136.703 887.824 1920.61
137.096 887.093 1921.3
136.068 888.446 1920.69
136.127 888.311 1922.13
136.549 887.937 1921.46
137.353 884.671 1884.25
136.696 885.199 1885.98
136.581 885.348 1886.71
138.005 884.001 1882.55
136.358 886.848 1893.32
136.251 887.206 1895.19
137.784 886.628 1935.81
137.873 886.341 1934.46
138.221 885.626 1932.91
137.701 886.048 1932.14
138.425 885.396 1928.84
136.408 888.111 1924.69
136.674 887.74 1923.28
134.099 891.417 1919.17
134.217 891.229 1917.54
133.869 891.329 1916.25
134.244 890.888 1915.79
135.087 889.948 1915.22
134.867 889.783 1914.31
136.209 888.194 1913.65
135.125 889.534 1920.71
134.091 891.055 1920.39
135.359 889.135 1920.94
135.437 889.025 1921.54
136.121 888.325 1923.31
136.123 887.287 1893.1
136.583 887.055 1896.46
138.019 886.44 1937.42
136.395 887.579 1934.57
137.2 887.149 1935.35
136.894 887.088 1934.27
136.956 886.824 1933.46
136.551 887.144 1932.39
137.576 886.177 1931.58
137.653 886.13 1930.74
137.788 886.269 1929.46
137.464 886.746 1925.09
136.105 888.484 1925.46
136.942 887.573 1925.78
135.037 889.793 1923.43
134.814 889.924 1921.14
134.258 890.752 1921.87
133.494 891.963 1917.21
134.091 890.738 1914.53
135.045 889.425 1913.58
135.619 889.346 1914.87
136.486 887.844 1913.32
135.468 888.97 1922.28
136.826 885.719 1885.32
136.47 886.408 1889.85
137.433 885.034 1883.82
136.328 887.465 1896.07
137.253 888.391 1944.63
137.378 887.724 1938.96
136.555 888.263 1937.51
136.018 887.922 1934.3
136.096 887.487 1933.33
136.585 887.168 1931.83
137.418 886.719 1929.96
137.361 887.015 1928.12
137.05 887.604 1926.71
135.764 888.998 1924.97
136.49 888.21 1926.15
134.459 890.491 1922.38
135.065 889.657 1922.02
134.448 890.093 1913.49
135.16 889.288 1913.09
136.957 886.023 1884.9
136.663 886.063 1888.67
136.081 887.366 1892.46
135.954 887.768 1894.22
137.338 888.169 1944.16
136.772 888.478 1941.02
136.456 889.247 1942.39
137.075 887.993 1940.27
136.888 888.269 1939.66
136.167 889.285 1939.29
136.32 888.932 1939.79
135.536 889.677 1938.2
135.793 889.822 1939.39
135.117 889.428 1935.43
136.029 888.442 1935.94
135.637 887.976 1932.73
135.148 888.642 1932.91
135.221 888.549 1932.32
136.953 887.862 1927.13
136.934 887.472 1929.76
135.698 889.192 1925.49
133.798 891.252 1921.65
133.501 891.688 1921.37
133.575 891.974 1918.26
133.937 891.214 1911.85
134.908 889.828 1912.26
135.567 888.818 1912.7
136.562 885.666 1886.31
135.993 887.698 1894.73
136.183 888.01 1895.99
135.863 888.606 1899.71
137.04 888.367 1943.35
136.762 888.634 1944.03
135.905 889.709 1940.58
136.092 889.811 1943.01
135.857 890.088 1942.59
135.004 890.262 1937.61
134.454 890.097 1934.65
135.537 890.322 1939.72
134.541 889.693 1933.46
134.81 889.14 1932.61
136.466 887.495 1931.01
137.156 887.196 1929.4
136.081 888.012 1931.02
136.325 888.546 1926.5
133.458 891.975 1919.6
133.446 892.142 1911.8
133.608 892.124 1910.07
134.376 890.923 1910.97
135.584 889.279 1911.49
135 890.215 1911.05
135.042 890.359 1910.3
135.65 889.452 1907.44
135.684 889.605 1908.87
136.682 885.913 1885.77
135.935 888.031 1892.9
135.892 888.302 1894.54
136.177 886.983 1890.4
135.979 888.054 1895.28
135.67 888.571 1900.57
135.674 889.116 1899.38
134.313 890.132 1933.55
137.173 887.34 1927.74
134.499 890.517 1923.46
135.296 889.828 1925.49
133.214 892.365 1916.72
133.226 892.102 1914.98
133.463 891.978 1912.55
133.804 891.714 1909.5
134.011 891.46 1910.39
134.883 890.297 1908.99
134.3 891.069 1910.23
134.663 890.18 1906.5
135.027 889.789 1905.6
135.585 889.072 1905.27
135.907 888.476 1902.88
135.871 888.443 1903.96
135.379 889.08 1904.53
136.536 886.071 1887.6
136.589 886.46 1888.34
136.355 886.831 1889.59
136.813 886.758 1886.67
136.085 887.702 1891.24
135.605 888.772 1901.34
135.421 888.982 1900.43
135.844 890.183 1943.48
135.468 890.608 1942.68
135.301 890.474 1939.1
134.283 890.489 1935.11
134.683 889.528 1932.23
137.184 887.471 1928.8
137.034 887.999 1928.88
135.766 888.522 1931.09
133.632 891.431 1922.14
134.59 890.545 1924.01
133.193 892.463 1919.46
133.211 892.307 1920.68
133.285 892.469 1913.31
133.331 892.579 1910.87
133.441 892.389 1909.67
133.454 891.863 1908.27
134.105 891.141 1908.95
134.442 890.699 1909.45
134.415 890.618 1908.42
134.205 890.449 1905.91
134.342 890.231 1905.34
136.221 887.688 1890.39
136.632 886.959 1888.41
135.522 888.935 1902.7
135.321 889.245 1901.86
135.274 890.224 1899.34
135.311 889.212 1901.21
134.931 889.659 1902.69
135.318 889.396 1900.02
135.575 890.605 1943.23
135.547 890.348 1940.91
135.213 890.87 1939.74
134.057 890.978 1935.17
136.069 889.02 1926.42
136.732 888.364 1927.12
134.475 889.997 1932.38
133.317 892.582 1912.02
133.432 892.613 1910.18
133.211 892.256 1908.51
133.818 891.269 1907.79
133.403 891.566 1907.21
134.172 890.633 1907.01
133.766 890.943 1906.83
136.45 887.359 1889.26
136.021 888.695 1893.43
135.036 889.909 1901.11
133.941 890.759 1905.27
135.342 890.904 1941.18
135.068 890.91 1938.76
134.722 890.814 1937.53
134.349 890.649 1936.27
136.77 888.064 1929.63
135.57 889.086 1931.06
136.462 888.345 1930.13
134.3 890.295 1932.88
133.554 891.974 1922.25
134.464 891.102 1924.1
133.183 892.492 1917.66
133.167 892.75 1908.75
133.07 892.105 1907.62
135.123 889.665 1900.47
135.103 890.682 1899.66
134.68 890.116 1902.79
133.483 891.402 1906.54
133.252 891.876 1906.75
134.594 891.333 1937.47
134.071 890.578 1934.1
134.158 891.162 1936.26
136.587 888.839 1929.96
135.657 889.551 1930.85
134.758 889.908 1931.82
134.221 891.618 1923.6
133.385 892.182 1921.55
133.18 892.876 1918.09
133.297 893.185 1912.28
132.922 892.638 1907.61
135.374 891.432 1941.14
135.876 889.628 1926.41
135.155 890.472 1925.58
135.073 890.308 1931.27
135.954 890.177 1930.48
134.724 890.561 1931.72
134.423 890.63 1932.35
134.262 890.941 1932.78
134.013 891.967 1923.09
134.98 891.203 1925.15
133.403 893.142 1910
133.512 893.841 1910.27
132.969 892.289 1907
134.856 890.477 1901.75
133.714 891.35 1905.44
133.142 892.486 1906.43
135.48 891.18 1942.75
135.086 891.299 1939.12
134.011 891.014 1933.83
134.132 891.031 1933.27
134.23 891.662 1936.21
134.527 891.091 1932.14
134.267 891.536 1933.02
133.651 892.485 1921.93
133.395 892.651 1921.18
133.315 893.083 1919.84
133.403 893.623 1912.88
133.409 894.065 1909.17
133.253 893.467 1908.78
134.614 890.642 1902.75
133.732 891.918 1905.29
135.216 891.652 1939.5
134.819 891.815 1937.92
134.14 891.557 1935.66
134.11 891.535 1934.49
135.256 891.028 1925.71
135.243 890.792 1931.12
134.947 891.52 1931.74
134.51 891.743 1932.54
134.137 892.464 1922.88
135.103 891.696 1925.05
134.928 892.127 1924.47
134.061 892.801 1922.36
133.614 893.168 1920.9
133.236 892.792 1920.26
133.474 893.57 1916.44
133.701 894.949 1910.09
133.363 894.163 1908.37
134.973 890.488 1900.72
134.22 890.778 1904.18
133.801 894.714 1907.24
133.743 894.042 1906.5
134.564 892.275 1936.3
134.176 891.647 1933.81
134.449 892.05 1933.29
134.395 892.138 1934.31
135.61 890.906 1926.16
133.832 893.115 1921.49
133.859 893.633 1920.47
133.686 893.599 1919.71
133.632 893.765 1917.19
132.951 892.895 1907.07
134.871 891.231 1902.53
134.613 891.282 1903.35
134.375 891.436 1904.01
133.532 894.552 1907.9
133.222 893.322 1906.73
134.507 892.32 1935.52
134.678 892.543 1933.81
133.353 892.999 1906.13
133.768 893.576 1906.01
133.955 892.316 1904.94
134.848 891.668 1903.1
