135.675 1040.66 2113.26
136.635 1041.81 2110.29
136.533 1041.7 2110.61
134.851 1041.86 2115.68
134.876 1041.73 2115.66
134.832 1041.7 2115.79
134.933 1041.48 2115.55
134.798 1041.38 2115.9
134.849 1041.54 2115.78
134.714 1041.18 2116.02
135.029 1041.03 2114.94
134.973 1041.51 2115.43
135.284 1040.64 2113.94
135.094 1040.69 2114.39
135.027 1040.36 2114.42
135.165 1040.53 2114.16
134.266 1040.91 2116.56
133.888 1041.15 2117.05
134.547 1040.74 2116.14
134.711 1040.86 2115.92
132.955 1039.71 2117.37
131.794 1039.23 2118.26
133.863 1039.51 2116.38
134.414 1040.49 2116.22
131.288 1038.87 2118.78
131.561 1039.02 2118.43
131.657 1037.67 2122.47
130.926 1037.83 2121.36
130.769 1037.88 2120.14
130.794 1037.79 2120.92
130.749 1037.72 2120.63
130.737 1037.67 2120.32
130.778 1037.76 2120.2
130.764 1037.89 2119.79
130.803 1038.08 2119.64
130.77 1037.79 2119.95
130.894 1038.31 2119.43
130.95 1038.39 2119.25
131.086 1038.57 2118.99
133.407 1034.11 2128.27
133.66 1033.98 2128.84
133.864 1033.98 2129.28
134.254 1034.16 2129.94
132.638 1037.22 2123.9
133.107 1035.36 2126.07
132.699 1037.05 2123.93
132.962 1036.3 2124.81
132.849 1036.7 2124.27
132.795 1036.79 2124.02
132.73 1036.94 2123.85
133.232 1034.51 2127.18
133.308 1034.12 2127.8
133.287 1034.31 2127.43
132.457 1037.3 2123.53
153.479 1064.2 2088.65
153.573 1063.69 2090.35
153.558 1063.29 2092.38
153.641 1062.56 2086.38
153.617 1062.69 2086.62
153.514 1063.06 2086.62
153.412 1063.79 2087.32
153.1 1064.36 2087.31
153.577 1063.44 2087.32
153.688 1062.4 2086.49
153.717 1062.18 2086.43
153.373 1064.34 2088.01
153.467 1064.24 2088.22
153.546 1064.14 2088.52
152.203 1060.73 2071.41
151.808 1059.35 2070.68
151.067 1058.05 2070.79
150.081 1056.11 2069.38
152.31 1061.59 2078.14
151.74 1060.65 2075.29
152.379 1061.47 2079.51
151.134 1059.09 2074.19
149.697 1055.43 2071.52
148.53 1052.48 2068.72
148.636 1052.86 2068.36
148.691 1053.11 2065.66
149.192 1054.13 2065.96
152.384 1061.26 2079.87
152.523 1061.25 2080.25
152.477 1061.01 2080.3
152.942 1058.61 2081.03
152.896 1058.25 2080.79
152.856 1057.77 2079.97
152.71 1056.97 2079.25
152.725 1057.23 2078.9
152.719 1057.55 2078.69
152.975 1060.3 2081.34
152.474 1060.66 2080.46
152.821 1059.94 2081.12
152.718 1059.68 2080.93
152.955 1058.99 2081.31
152.911 1058.83 2081.01
152.829 1057.37 2081.38
153.423 1059.88 2085.34
153.675 1060.54 2085.39
152.823 1057.56 2082.29
152.495 1056.41 2079.19
153.598 1060.93 2086.46
153.695 1061.66 2087.54
153.748 1061.89 2087.37
153.781 1062.18 2087.44
153.794 1062.42 2087.42
150.84 1062.36 2098.84
150.772 1062.54 2098.95
150.924 1062.21 2098.77
150.885 1062.75 2099.52
150.733 1063.25 2100.1
150.486 1063.49 2100.36
150.612 1063.43 2100.5
153.481 1063.18 2092.8
152.946 1062.87 2094.1
151.83 1061.94 2097.16
151.37 1061.76 2098.28
151.47 1061.67 2098.11
151.32 1061.84 2098.43
151.274 1061.92 2098.56
151.12 1062.06 2098.68
150.274 1059.3 2104.05
150.641 1060.28 2103.76
150.694 1060.06 2103.52
150.503 1059.45 2103.57
150.709 1059.81 2103.26
149.902 1058.22 2103.23
149.476 1056.94 2102.46
149.441 1056.31 2102.06
148.879 1053.42 2101.58
146.948 1048.99 2102.63
145.012 1047.49 2104.87
145.088 1047.28 2104.69
144.846 1047.65 2105.09
145.029 1048.02 2104.97
144.8 1048.05 2105.18
145.655 1049.38 2104.16
144.683 1048.16 2105.27
150.855 1063.21 2100.39
150.998 1063.04 2100.29
151.446 1062.11 2100.65
151.405 1062.31 2100.52
151.436 1061.86 2100.97
151.343 1061.44 2101.51
151.077 1060.72 2102.56
151.288 1062.59 2100.25
151.392 1062.37 2100.32
151.163 1062.75 2100.08
138.602 1046.29 2108.34
138.605 1045.42 2108.52
140.754 1045.34 2107.69
140.781 1045.69 2107.64
140.743 1045.08 2107.69
137.611 1042.6 2109.35
140.799 1044.63 2107.59
141.015 1045.01 2107.53
138.052 1042.62 2109.03
142.319 1049.8 2105.46
144.937 1050.51 2104.22
141.329 1049.15 2106.03
139.356 1047.57 2107.44
139.158 1046.4 2108.03
145.306 1049.43 2104.43
137.228 1042.05 2109.62
136.793 1041.72 2110.01
136.377 1041.51 2111.07
136.115 1040.81 2112.11
136.03 1039.19 2112.83
135.947 1039.24 2112.98
135.701 1039.56 2113.35
136.576 1041.6 2110.36
136.709 1041.53 2110.07
136.395 1041.36 2110.97
136.48 1041.39 2110.59
134.886 1041.27 2115.65
134.949 1040.71 2115.04
134.816 1041.07 2115.78
135.148 1040.19 2114.1
134.927 1039.95 2114.5
134.851 1040.38 2115.15
134.539 1039.7 2115.45
134.734 1040.07 2115.29
132.489 1038.9 2117.49
134.243 1039.39 2115.76
133.813 1038.35 2115.7
131.36 1038.76 2118.6
131.559 1038.85 2118.35
131.623 1037.58 2122.34
130.95 1037.69 2121.24
130.866 1037.75 2121.07
130.782 1037.7 2120.8
130.797 1037.6 2120.58
130.798 1037.65 2120.08
130.826 1037.57 2120.29
130.839 1037.96 2119.55
130.801 1037.81 2119.71
130.908 1038.12 2119.37
130.8 1037.74 2119.86
130.967 1038.25 2119.21
131.096 1038.42 2118.95
131.237 1038.59 2118.74
133.444 1033.98 2128.26
133.683 1033.85 2128.76
133.88 1033.85 2129.2
134.216 1034 2129.85
134.86 1034.26 2130.73
132.547 1037.11 2123.63
133.132 1035.24 2125.93
132.893 1036.54 2124.26
133.027 1036.14 2124.76
132.803 1036.74 2123.86
132.602 1036.97 2123.59
133.219 1034.42 2126.96
133.362 1033.91 2127.87
133.32 1034.18 2127.33
132.363 1037.2 2123.26
153.629 1063.93 2088.72
153.648 1063.54 2090.42
153.615 1063.17 2092.32
153.786 1062.78 2087.39
153.756 1062.95 2087.41
153.687 1063.2 2087.38
153.532 1064.09 2088.11
153.647 1063.88 2088.13
153.736 1063.67 2088.11
153.799 1062.61 2087.41
153.654 1064 2088.44
152.826 1059.79 2067.38
152.627 1059.24 2067.07
151.861 1058.25 2067.51
149.716 1055 2065.56
152.112 1061.17 2076.66
152.243 1061.3 2078.22
152.272 1061.19 2079.38
152.274 1061.1 2079.69
151.215 1059.14 2074.48
149.846 1055.66 2071.97
148.53 1052.38 2069.05
147.518 1049.65 2066.17
147.488 1049.26 2066.77
147.928 1051.08 2064.79
152.328 1061 2079.94
152.33 1060.79 2080.08
152.861 1058.49 2080.75
152.843 1058.1 2080.44
152.84 1057.85 2079.82
152.761 1057.96 2078.99
152.676 1057.85 2078.51
152.503 1056.87 2078.04
152.4 1056.45 2078.19
152.439 1057.16 2077.45
152.411 1057.54 2077.19
152.393 1060.52 2080.37
152.39 1060.32 2080.33
152.658 1059.48 2080.74
152.618 1059.36 2080.51
151.612 1054.71 2078.31
152.295 1057.79 2085.19
152.444 1059.04 2087.59
153.423 1060.79 2087.36
153.083 1060.83 2090.83
151.532 1054.68 2079.4
151.476 1055.35 2082.17
151.309 1054.18 2077.13
151.369 1054.44 2076.63
153.583 1061.59 2088.52
153.719 1062.44 2089.29
153.559 1062.07 2091.12
153.627 1062.35 2090.97
153.705 1062.62 2090.38
153.739 1062.84 2090.14
153.839 1063.04 2088.5
150.967 1062.32 2099.05
150.998 1062.14 2098.88
151.115 1062.49 2099.59
150.982 1062.97 2100.04
150.809 1063.22 2100.22
153.525 1063.06 2092.75
153.01 1062.74 2094.05
151.941 1061.78 2097.04
151.407 1061.59 2098.38
151.367 1061.67 2098.52
151.506 1061.46 2098.28
151.292 1061.81 2098.69
151.166 1061.97 2098.86
150.977 1060.24 2102.62
150.3 1058.58 2102.47
150.88 1059.3 2101.19
151.225 1059.85 2100.35
149.655 1057.02 2102.05
149.65 1056.55 2101.63
149.011 1053.46 2101.32
148.369 1050.56 2101
146.833 1048.64 2102.56
145.196 1047.12 2104.42
143.482 1046.1 2105.98
143.352 1046.32 2106.21
143.595 1045.93 2105.71
143.547 1046.85 2106.12
143.346 1046.95 2106.29
144.537 1048.24 2105.37
143.546 1047.28 2106.15
151.466 1062.15 2100.43
151.487 1061.87 2100.58
151.484 1061.6 2100.77
151.437 1061.23 2101.04
151.351 1060.8 2101.33
151.25 1062.32 2099.66
151.338 1062.13 2099.71
151.411 1061.92 2099.73
138.999 1045.95 2108.25
140.871 1046.11 2107.54
142.715 1046.73 2106.74
142.674 1046.93 2106.72
141.041 1044.55 2107.39
140.627 1044.03 2107.51
137.633 1042.03 2109.23
143.834 1049.17 2105.31
144.478 1050.22 2104.53
144.922 1049.4 2104.69
141.243 1048.04 2106.66
141.073 1047.01 2107.24
140.766 1046.45 2107.52
143.761 1047.69 2105.96
136.983 1041.6 2109.72
136.274 1041.21 2111.46
136.136 1040.5 2112.18
136.072 1039.06 2112.72
135.982 1036.15 2113.36
136.063 1036.02 2113.27
135.928 1036.02 2113.44
135.351 1039.67 2113.72
135.833 1036.46 2113.49
136.562 1041.34 2110.24
136.696 1041.24 2109.86
136.304 1041 2111.19
136.31 1041.24 2111.35
136.159 1039.92 2112.19
136.449 1041.15 2110.49
136.306 1040.8 2110.95
135.018 1039.7 2114.23
134.797 1039.4 2114.57
134.579 1038.85 2114.71
133.128 1038.34 2116.7
132.283 1038.73 2117.65
134.041 1037.94 2115.14
133.355 1037.91 2116.16
131.478 1038.63 2118.41
131.588 1037.5 2122.21
130.845 1037.64 2120.88
130.956 1037.59 2120.99
131.599 1037.41 2122.09
130.849 1037.56 2120.71
130.861 1037.51 2120.46
130.826 1037.61 2120.01
130.867 1037.52 2120.16
130.875 1037.84 2119.48
130.924 1037.98 2119.34
130.862 1037.74 2119.61
131.036 1038.11 2119.08
130.83 1037.67 2119.87
130.882 1037.67 2119.69
131.121 1038.28 2118.89
131.28 1038.42 2118.66
133.477 1033.91 2128.2
133.716 1033.75 2128.65
133.891 1033.73 2129.1
134.167 1033.85 2129.69
134.587 1033.94 2130.25
133.177 1035.16 2125.83
132.924 1036.47 2124.14
133.084 1036.01 2124.69
132.7 1036.85 2123.6
132.905 1036.56 2123.9
132.794 1036.71 2123.75
132.414 1037.03 2123.26
133.261 1034.38 2126.78
133.374 1034.01 2127.36
133.429 1033.89 2127.73
133.343 1034.18 2127.04
153.727 1063.76 2088.63
153.691 1063.44 2090.4
153.65 1063.06 2092.29
153.724 1063.34 2090.45
153.843 1063.29 2088.37
153.799 1063.48 2088.16
153.727 1063.83 2088.36
153.792 1063.63 2088.39
151.973 1060.76 2076.28
152.152 1061.04 2077.02
152.216 1061.01 2078.29
152.232 1060.98 2079.3
152.264 1060.96 2079.7
150.312 1056.63 2072.93
151.468 1059.54 2075.07
149.414 1054.39 2071.29
148.79 1052.95 2069.83
148.031 1050.53 2068.08
146.312 1046.99 2065.07
146.534 1047.6 2064.74
146.337 1046.85 2065.46
146.518 1046.96 2065.91
147.565 1049.22 2067.09
147.56 1048.99 2067.18
146.272 1047.24 2063.31
152.247 1060.75 2079.71
152.308 1060.54 2080.08
152.561 1059.28 2080.21
152.785 1058.27 2080.37
152.801 1058.08 2079.71
152.499 1058.74 2078.08
152.338 1059.01 2077.35
152.382 1057.94 2076.99
152.238 1056.89 2076.6
152.129 1056.5 2076.69
151.47 1054.93 2076.22
152.258 1057.11 2076.56
152.284 1057.61 2076.52
152.361 1060.23 2080.17
152.3 1060.15 2079.86
149.974 1051.85 2077.78
150.383 1052.4 2076.26
151.201 1056.18 2086.07
150.644 1054.47 2083.9
152.148 1058.95 2090.28
153.408 1061.62 2091.1
152.904 1060.8 2093.05
151.554 1057.95 2094.12
150.282 1053.1 2080.93
150.006 1051.26 2074.6
150.027 1051.24 2075.03
150.426 1052.66 2074.93
153.544 1062.11 2092.31
153.507 1061.95 2092.13
153.63 1062.4 2092
153.674 1062.75 2092.19
153.743 1063.05 2090.53
153.758 1063.25 2090.29
151.092 1062.09 2099.07
153.538 1062.89 2092.78
153.077 1062.59 2093.94
152.006 1061.58 2097
151.497 1061.4 2098.46
151.428 1061.54 2098.56
151.313 1061.73 2098.83
151.566 1061.13 2098.33
151.212 1061.9 2099.05
151.403 1060.36 2100.05
150.685 1057.51 2098.89
151.403 1059.87 2098.85
151.594 1059.15 2097.64
149.66 1055.64 2100.79
149.108 1053.49 2101.07
148.577 1050.82 2100.62
148.143 1049.89 2100.8
146.6 1048.15 2102.39
144.862 1046.55 2104.26
143.506 1045.56 2105.46
141.423 1044.35 2106.92
141.017 1043.75 2106.86
151.461 1061.68 2099.76
151.493 1061.35 2099.82
151.501 1061.05 2099.88
151.479 1060.69 2099.89
151.308 1061.74 2099.07
151.393 1061.55 2099.07
142.565 1047.07 2106.74
137.972 1041.94 2108.79
137.072 1041.4 2109.47
144.6 1049.4 2104.89
143.538 1047.81 2106.05
142.365 1047.21 2106.77
142.629 1047.37 2106.61
136.067 1036.15 2113.17
135.78 1034.88 2113.67
135.805 1035.08 2113.59
135.928 1034.86 2113.56
135.915 1035 2113.45
135.761 1035.1 2113.64
134.879 1039.08 2114.34
135.144 1038.99 2113.98
135.723 1037.1 2113.54
135.665 1035.02 2113.75
135.713 1034.8 2113.74
136.481 1040.94 2109.91
136.409 1040.95 2110.25
136.738 1040.97 2109.5
136.203 1040.47 2111.51
136.183 1040 2112.03
136.082 1036.31 2113.06
136.325 1040.74 2110.6
136.175 1040.43 2111.19
132.756 1038.24 2117.11
132.838 1038.1 2116.96
133.03 1038.01 2116.69
133.286 1037.73 2116.17
132.15 1038.45 2117.71
134.68 1038.29 2114.49
134.137 1037.54 2114.96
133.715 1036.97 2115.29
133.478 1037.01 2115.58
131.451 1038.42 2118.42
131.043 1037.5 2120.98
130.929 1037.5 2120.73
131.605 1037.35 2121.97
132.367 1037.03 2123.03
130.86 1037.52 2120.61
130.918 1037.45 2120.51
130.908 1037.46 2120.27
130.866 1037.57 2119.97
130.908 1037.48 2120.07
130.968 1037.78 2119.37
131.02 1037.9 2119.2
131.1 1038 2119.01
130.989 1037.65 2119.47
131.214 1038.19 2118.75
131.291 1038.08 2118.68
130.919 1037.59 2119.76
131.029 1037.55 2119.54
131.388 1038.23 2118.51
133.584 1033.8 2128.31
133.82 1033.65 2128.69
133.912 1033.65 2129.01
133.992 1033.74 2129.38
134.407 1033.76 2129.9
135.159 1033.97 2130.83
133.227 1035.09 2125.73
133.011 1036.31 2124.11
133.158 1035.86 2124.62
132.616 1036.85 2123.35
132.946 1036.5 2123.88
132.963 1036.47 2123.74
132.867 1036.58 2123.42
132.765 1036.72 2123.42
133.35 1034.28 2126.6
133.445 1033.9 2127.23
133.417 1034.08 2126.87
133.554 1033.78 2127.95
153.768 1063.61 2088.7
153.665 1062.93 2092.29
153.798 1063.49 2088.83
153.823 1063.49 2088.54
152.011 1060.51 2076.5
152.141 1060.73 2077.12
152.206 1060.69 2078.25
152.214 1060.72 2079.4
151.181 1058.73 2074.55
150.013 1054.76 2072.67
149.169 1053.57 2070.95
151.873 1059.98 2076.04
148.806 1052.71 2069.96
148.162 1050.66 2068.49
145.275 1044.63 2064.18
144.902 1044.35 2061.86
146.283 1046.14 2065.9
145.33 1044.41 2064.66
147.652 1048.77 2067.55
152.258 1060.44 2079.84
152.509 1059.21 2079.85
152.267 1060.01 2079.55
152.732 1058.33 2079.55
152.533 1058.68 2078.3
152.263 1059.66 2078.54
152.228 1059.98 2077.41
152.224 1059.95 2078.41
152.226 1059.03 2076.82
152.063 1060.16 2076.72
152.155 1060.35 2077.19
152.135 1058.93 2076.46
152.038 1056.71 2076.09
151.219 1054.83 2075.44
152.16 1057.08 2076.24
152.188 1057.75 2076.21
152.137 1057.29 2076.14
152.192 1060.45 2079.46
152.199 1060.24 2079.37
149.893 1050.94 2075.29
149.362 1050.13 2076.04
149.329 1050.68 2079.02
150.001 1052.62 2081.38
148.641 1048.92 2076.99
150.969 1055.84 2086.9
150.362 1053.98 2084.49
151.135 1056.82 2090.87
153.07 1061.27 2093.22
152.101 1059.33 2095.33
150.502 1055.91 2096.12
150.299 1054.39 2092.64
149.585 1050.34 2073
148.522 1047.13 2070.99
149.225 1049.09 2073.25
150.357 1052.83 2074.47
149.701 1051.05 2072.88
153.579 1062.37 2092.54
153.115 1061.72 2093.68
153.08 1061.5 2093.58
153.568 1062.66 2092.73
153.094 1062.14 2093.91
153.076 1062.37 2093.99
152.087 1061.4 2096.87
151.5 1061.13 2098.65
151.451 1061.43 2098.76
151.385 1061.6 2098.83
151.648 1060.84 2098.19
151.545 1060.78 2098.54
151.511 1060.37 2098.82
151.825 1058.85 2096.42
152.267 1059.93 2095.6
150.87 1057.07 2097.51
149.636 1054.88 2099.84
151.462 1059.8 2098.52
151.801 1059.8 2097.51
152.236 1060.21 2096.56
152.149 1059.79 2096.47
148.91 1052.18 2100.6
148.844 1050.94 2098.95
148.706 1050.32 2098.55
148.42 1049.87 2099.11
147.822 1049.04 2099.73
146.334 1047.56 2101.77
144.21 1045.32 2103.43
143.113 1044.72 2104.93
140.266 1042.88 2106.81
137.558 1041.44 2108.87
151.445 1061.3 2099.04
151.476 1060.98 2098.98
151.518 1060.68 2098.86
135.982 1034.96 2113.34
135.87 1034.6 2113.64
135.814 1034.49 2113.72
135.939 1034.67 2113.48
135.996 1034.58 2113.32
135.618 1036.79 2113.68
135.122 1038.33 2114.02
135.535 1034.91 2113.88
135.651 1034.66 2113.82
135.748 1034.39 2113.79
136.304 1040.6 2109.93
136.48 1040.61 2109.51
136.241 1040.58 2110.29
137.249 1041.01 2108.83
136.094 1040.05 2111.63
136.109 1037.29 2112.73
136.124 1037.97 2112.48
135.982 1035.04 2113.25
136.131 1040.39 2110.79
136.023 1040.07 2111.34
132.613 1037.9 2117.17
132.827 1037.77 2116.89
133.191 1037.41 2116.19
132.049 1038.24 2117.79
134.346 1037.21 2114.7
133.571 1036.95 2115.45
133.624 1036.38 2115.3
133.76 1036.21 2115.17
133.447 1036.41 2115.5
131.024 1037.43 2120.75
131.114 1037.42 2120.94
131.617 1037.29 2121.84
132.381 1037.04 2122.81
132.559 1036.88 2123.13
130.971 1037.39 2120.39
131.011 1037.39 2120.61
130.956 1037.4 2120.17
130.927 1037.53 2119.88
130.954 1037.45 2119.99
131.112 1037.74 2119.12
131.181 1037.83 2118.95
131.254 1037.94 2118.79
131.121 1037.63 2119.24
131.931 1038.07 2117.93
131.86 1037.94 2118.05
131.061 1037.47 2119.64
131.169 1037.5 2119.33
133.804 1033.63 2128.5
133.995 1033.54 2128.92
134.015 1033.6 2129.1
134.274 1033.65 2129.61
135.045 1033.77 2130.54
133.29 1034.99 2125.63
133.088 1036.2 2123.99
133.264 1035.72 2124.59
132.959 1036.47 2123.33
133.138 1036.25 2123.62
133 1036.43 2123.56
132.789 1036.63 2123.17
132.681 1036.75 2123.16
133.455 1034.17 2126.42
133.535 1033.97 2126.61
133.529 1033.89 2126.86
133.641 1033.81 2126.76
133.577 1033.78 2127.38
133.811 1033.61 2128.27
133.761 1033.66 2127.67
152.208 1060.29 2078.32
152.195 1060.49 2079.19
150.446 1056.2 2073.28
151.289 1058.78 2074.81
149.486 1053.27 2071.72
150.354 1053.65 2073.95
151.104 1055.54 2074.59
149.981 1053.17 2072.96
148.873 1052.48 2070.17
151.85 1059.61 2075.95
148.299 1050.7 2068.84
147.85 1049.29 2067.9
144.787 1043.87 2061.98
145.077 1044.07 2063.93
147.375 1047.77 2067.36
146.008 1045.19 2065.79
145.311 1043.89 2064.9
145.43 1043.79 2065.22
145.107 1043.75 2064.24
148.046 1047.94 2068.65
152.472 1059.13 2079.07
152.046 1058.68 2076.17
151.903 1056.79 2075.69
151.203 1055.21 2075.04
152.03 1057.61 2075.84
151.998 1057.2 2075.79
148.771 1048.3 2074.05
148.924 1049.62 2080.06
149.747 1052.01 2081.74
148.225 1047.86 2077.38
147.546 1045.54 2073.57
150.122 1053.19 2086.32
150.772 1055.22 2089.52
150.807 1055.46 2091.38
149.947 1054.51 2095.21
149.718 1054.6 2097.48
149.69 1053.73 2094.89
150.576 1054.28 2090.41
150.047 1052.76 2089.13
149.722 1052.38 2090.52
149.255 1051.6 2091.6
149.643 1052.81 2093.65
148.499 1047.27 2070.25
148.277 1046.48 2070.13
147.743 1045 2069.89
146.888 1043.15 2068.4
146.632 1042.53 2068.38
148.368 1046.74 2071.35
150.146 1052.89 2073.72
149.63 1051.28 2072.28
149.085 1049.54 2070.84
153.129 1061.93 2093.74
152.446 1060.58 2095.62
152.47 1060.89 2095.8
152.457 1061.12 2095.88
152.679 1061.79 2094.97
152.425 1061.37 2095.92
151.975 1060.92 2097.38
151.613 1060.58 2098.36
151.976 1060.66 2097.37
151.56 1060.37 2098.49
149.473 1053.84 2097.22
149 1052.01 2099.43
151.884 1060.3 2097.55
149.13 1050.81 2096.88
149.144 1050.56 2096.04
148.613 1049.26 2094.55
148.801 1049.6 2094.34
149.017 1050.27 2096.21
148.304 1048.82 2094.98
147.499 1047.97 2096.26
144.21 1044.69 2101.25
141.185 1041.35 2102.52
141.066 1040.69 2101.09
139.718 1041.18 2104.85
136.034 1034.71 2113.2
135.91 1034.39 2113.53
135.877 1034.23 2113.62
135.836 1034.14 2113.76
135.955 1034.28 2113.41
136.011 1034.15 2113.29
135.987 1034.37 2113.17
135.441 1036.63 2113.85
134.586 1036.45 2114.49
135.58 1034.52 2113.91
135.379 1034.67 2114.03
135.355 1035.06 2113.97
135.661 1034.25 2113.9
136.092 1040.03 2109.43
136.008 1040.16 2109.93
136.673 1040.43 2108.91
136.024 1040.28 2110.31
136.025 1039.61 2111.63
136.108 1037.59 2112.5
135.994 1035.07 2113.14
136.04 1034.74 2113.11
135.935 1040.04 2110.85
135.91 1039.78 2111.26
132.507 1037.76 2117.28
132.648 1037.59 2117.16
132.796 1037.55 2116.87
133.138 1037.12 2116.2
133.522 1035.89 2115.4
133.689 1035.67 2115.22
133.874 1035.61 2115.03
133.423 1035.91 2115.5
131.114 1037.34 2120.76
131.175 1037.36 2121
131.642 1037.24 2121.7
132.27 1037.02 2122.52
132.554 1036.93 2122.89
131.086 1037.33 2120.55
131.065 1037.33 2120.34
131.046 1037.33 2120.12
131.03 1037.37 2119.96
131.037 1037.43 2119.81
131.649 1037.54 2118.55
131.695 1037.63 2118.42
131.757 1037.72 2118.28
131.812 1037.83 2118.16
131.666 1037.47 2118.66
132.542 1037.63 2117.33
132.447 1037.57 2117.56
131.209 1037.38 2119.47
131.697 1037.39 2118.78
134.055 1033.48 2128.76
134.184 1033.53 2129.27
134.211 1033.44 2129.08
134.376 1033.56 2129.61
134.683 1033.56 2129.97
133.385 1034.87 2125.55
133.21 1036.02 2124.02
133.389 1035.57 2124.56
133.075 1036.38 2123.22
132.829 1036.59 2123.08
133.262 1036.19 2123.37
133.335 1035.89 2124.03
133.263 1036.08 2123.65
132.675 1036.75 2123.04
133.569 1034.1 2126.23
133.67 1033.91 2126.39
133.773 1033.68 2126.91
133.742 1033.74 2126.67
133.785 1033.81 2126.4
133.887 1033.7 2126.48
134.018 1033.5 2128.03
134.154 1033.41 2128.62
134.074 1033.5 2127.25
151.066 1057.99 2074.38
151.057 1056.5 2074.22
150.932 1055.87 2074.13
149.094 1051.78 2070.61
149.422 1051.43 2071.39
149.554 1051.42 2071.88
148.657 1051.5 2069.58
151.395 1058.55 2075.05
148.692 1050.58 2069.56
144.766 1043.51 2062.26
147.531 1046.76 2067.88
146.457 1044.77 2066.63
145.734 1042.84 2065.98
145.228 1043.33 2064.81
145.497 1042.27 2065.57
144.725 1043.18 2062.24
145.057 1043.13 2064.2
148.597 1048.97 2069.75
149.017 1050.2 2070.25
148.135 1047.07 2069.2
147.872 1046.12 2068.62
147.705 1045.95 2068.34
151.913 1058.45 2075.84
151.542 1057.77 2075.11
151.314 1057 2074.63
147.512 1044.9 2071.36
149.52 1051.28 2082.9
148.899 1049.46 2083.54
148.359 1047.42 2081.62
148.506 1048.46 2080.29
147.951 1046.54 2078.43
147.328 1044.94 2074.03
147.45 1044.81 2076.39
146.748 1043.43 2072.38
145.966 1041.65 2070.96
146.384 1042.21 2069.81
148.884 1049.66 2086.17
149.493 1053.01 2094.87
149.066 1050.52 2089.17
149.274 1051.69 2092.41
148.823 1050.41 2090.71
149.499 1052.35 2094.14
149.313 1051.34 2094.58
148.732 1048.25 2070.52
148.256 1046.89 2069.61
148.014 1045.97 2069.09
147.19 1043.92 2068.48
146.568 1042.38 2068.73
145.967 1041.33 2066.85
145.763 1040.76 2066.74
145.565 1040.19 2066.75
145.673 1040.51 2067.42
149.072 1049.92 2070.56
148.686 1048.54 2070.22
152.283 1060.71 2096.66
149.355 1053.4 2097.23
149.197 1051.7 2097.36
149.25 1050.92 2096.01
148.887 1049.8 2093.86
148.078 1047.09 2090.03
147.842 1046.84 2090.62
148.307 1047.73 2090.28
147.424 1046.52 2091.47
144.541 1044.81 2097.63
143.765 1043.57 2095.42
142.584 1042.53 2099.06
141.374 1040.8 2097.76
138.387 1037.44 2101.66
139.182 1037.98 2100.46
136.549 1039.07 2106.29
136.851 1037.98 2104.05
136.05 1034.31 2113.13
135.943 1034.09 2113.53
135.915 1034.04 2113.7
135.758 1034.12 2113.88
135.865 1034.03 2113.82
136.02 1034.04 2113.44
136.068 1034.07 2113.17
136.13 1034.01 2113.32
134.723 1035.4 2114.4
135.467 1034.4 2114.04
134.774 1034.58 2114.47
134.673 1034.85 2114.47
135.559 1034.21 2114.03
134.813 1038.21 2108.12
134.433 1037.97 2108.62
135.755 1039.71 2109.81
135.228 1038.36 2107.44
135.664 1039.67 2110.22
135.941 1039.05 2111.71
136.061 1037 2112.59
136.019 1037.05 2112.5
136.003 1035.04 2113.04
136.01 1034.72 2113
136.172 1034.29 2113.16
135.762 1039.64 2110.97
135.533 1039.39 2110.57
135.679 1039.28 2111.18
132.812 1037.5 2116.9
132.744 1037.43 2117.1
133.083 1037.01 2116.31
133.332 1036.33 2115.65
133.37 1035.88 2115.58
133.352 1036.09 2115.53
133.548 1035.49 2115.33
133.801 1035.2 2115.07
134.015 1035.19 2114.89
133.448 1035.63 2115.47
131.171 1037.27 2120.67
131.197 1037.29 2120.9
131.695 1037.18 2121.61
132.327 1036.96 2122.47
132.538 1036.86 2122.78
131.191 1037.27 2120.49
131.181 1037.27 2120.3
131.112 1037.3 2119.92
131.22 1037.26 2120.08
131.173 1037.33 2119.69
132.278 1037.24 2118.12
132.324 1037.34 2117.96
132.378 1037.46 2117.77
132.321 1037.18 2118.22
132.643 1037.41 2117.32
132.587 1037.31 2117.52
131.703 1037.22 2119.07
131.682 1037.32 2118.92
132.315 1037.12 2118.4
134.291 1033.36 2128.92
134.399 1033.47 2129.47
134.362 1033.38 2129.19
134.79 1033.45 2129.94
135.849 1033.78 2131.25
133.516 1034.75 2125.46
133.553 1035.45 2124.48
133.175 1036.34 2123.06
132.85 1036.58 2122.97
132.677 1036.73 2122.94
133.377 1035.96 2123.73
133.393 1036.09 2123.35
133.528 1035.69 2124.03
133.723 1034.02 2126.06
133.881 1033.82 2126.14
134.277 1033.38 2126.59
134.105 1033.55 2126.44
133.961 1033.71 2126.24
134.147 1033.53 2126.19
134.278 1033.35 2128.16
134.387 1033.28 2128.73
134.66 1033.16 2127.15
134.68 1033.13 2126.63
146.805 1044.14 2067.41
145.98 1042.04 2066.54
145.372 1042.05 2065.24
145.682 1041.38 2065.98
144.776 1042.98 2062.58
145.272 1041.97 2064.91
148.402 1047.74 2069.91
147.906 1045.91 2068.8
147.083 1044.22 2067.93
147.759 1046.02 2082.75
147.41 1045.58 2084.81
148.302 1047.17 2081.19
147.963 1046.08 2080.5
147.575 1044.91 2079.55
148.235 1047.42 2080.13
146.709 1042.93 2073.85
146.94 1043.05 2076.4
146.008 1041.3 2072.97
144.773 1038.7 2070.95
144.492 1038.39 2069.2
145.059 1039.42 2068.22
148.526 1048.4 2089.44
148.134 1047.58 2085.91
148.362 1047.67 2087.73
149.361 1052.64 2095.24
148.816 1049.93 2089.57
149.011 1050.53 2093.09
148.672 1049.42 2090.4
149.338 1051.51 2095.14
147.119 1043.96 2068.18
146.016 1041.59 2066.78
145.726 1040.96 2066.21
145.591 1040.41 2066.15
145.437 1039.87 2066.09
145.298 1039.34 2066.04
145.265 1039.38 2066.65
149.284 1052.93 2096.89
149.279 1052.03 2095.99
148.023 1046.29 2087.83
147.104 1044.42 2087.08
147.371 1044.96 2086.8
146.426 1043.15 2086.65
145.261 1041.24 2086.78
144.967 1043.88 2092.5
145.451 1042.35 2088.46
142.617 1042.64 2096.93
141.823 1040.16 2093.09
140.893 1039.45 2095.43
141.048 1038.81 2092.63
140.304 1038.8 2098.06
136.137 1036.99 2103.8
138.486 1036.44 2099.6
137.066 1035.5 2101.73
136.922 1034.22 2100.79
133.492 1036.02 2106.08
133.025 1035.15 2105.56
136.213 1033.92 2113.26
136.047 1034.17 2112.98
135.985 1033.97 2113.65
136.059 1033.93 2113.57
135.953 1033.94 2113.78
135.786 1034.05 2113.92
135.921 1033.93 2113.87
136.144 1033.91 2113.46
136.183 1033.95 2113.23
136.169 1033.93 2113.15
136.22 1033.84 2113.35
134.843 1034.32 2114.5
134.045 1034.55 2115
134.007 1034.87 2114.93
135.558 1034.03 2114.11
134.898 1034.09 2114.57
132.747 1035.67 2107.18
133.965 1037.53 2108.91
132.251 1035.39 2108.06
134.139 1037.77 2109.36
134.153 1037.78 2109.63
135.848 1038.71 2111.73
135.956 1037.13 2112.39
135.928 1035 2112.9
135.855 1035.19 2112.75
136.037 1034.33 2112.97
135.976 1034.41 2112.92
135.905 1034.61 2112.87
135.931 1034.8 2112.92
135.396 1038.99 2110.83
133.803 1037.32 2109.75
133.887 1037.34 2110.02
135.455 1038.77 2111.17
133.131 1036.51 2116.18
132.757 1037.2 2117.21
132.864 1037.27 2116.95
133.365 1035.38 2115.55
133.473 1035.3 2115.39
133.639 1035.07 2115.22
133.833 1034.79 2115.08
131.268 1037.22 2120.75
131.78 1037.12 2121.49
132.39 1036.9 2122.45
131.297 1037.21 2120.5
131.326 1037.21 2120.28
131.752 1037.1 2119.5
131.743 1037.14 2119.25
131.351 1037.21 2120.05
132.477 1037.21 2117.87
132.425 1037.12 2118.05
132.538 1037.28 2117.7
132.401 1037.05 2118.22
132.701 1037.05 2117.43
132.281 1037.03 2118.64
132.414 1036.96 2118.39
134.541 1033.25 2128.98
134.729 1033.36 2129.66
134.64 1033.28 2129.3
135.363 1033.43 2130.34
135.999 1033.68 2131.23
133.686 1034.63 2125.37
133.743 1035.37 2124.28
133.884 1034.5 2125.28
133.782 1035.94 2122.95
133.575 1036.23 2122.57
133.003 1036.51 2122.86
132.634 1036.77 2122.72
132.779 1036.66 2122.7
133.562 1035.86 2123.6
134.27 1035.28 2123.74
133.944 1033.82 2125.95
134.108 1033.59 2126.07
134.352 1033.36 2126.23
134.605 1033.19 2126.32
134.507 1033.33 2125.95
134.51 1033.21 2128.28
134.691 1033.16 2128.62
134.987 1032.99 2127.5
134.992 1032.98 2126.66
134.892 1033.04 2126.32
145.927 1041.63 2066.51
145.541 1041.1 2065.59
145.696 1041.12 2066.04
145.028 1042.22 2063.65
145.457 1041.14 2065.25
147.256 1044.21 2080.46
146.651 1043.29 2084.02
147.546 1045.47 2086.34
146.501 1042.02 2076.82
145.389 1039.5 2074.21
143.895 1036.62 2070.65
143.457 1035.75 2069.41
143.409 1035.09 2072.05
143.866 1036.96 2068.5
144.644 1038.37 2067.58
148.014 1046.79 2086.53
148.064 1046.39 2087.44
145.569 1040.73 2065.7
145.503 1040.22 2065.7
145.444 1039.93 2065.43
145.376 1039.53 2065.53
145.218 1038.93 2065.54
144.586 1037.93 2066.8
145.729 1041.28 2083.27
143.535 1037.43 2084.26
143.082 1037.24 2085.97
142.852 1038.87 2088.71
140.744 1038.05 2092.45
140.805 1038.97 2094.49
140.624 1038.15 2092.99
140.681 1039.19 2097.16
140.772 1039.02 2096.38
141.918 1037.41 2088.7
140.481 1038.45 2097.15
140.176 1038.22 2097.71
135.759 1036.2 2103.54
133.005 1034.7 2105.12
140.002 1037.95 2097.84
139.075 1036.14 2097.87
137.54 1033.44 2098.07
137.293 1033.82 2099.25
136.926 1033.64 2100.24
134.547 1034.43 2103.53
135.846 1030.97 2099.83
134.841 1031.25 2101.24
132.513 1034.96 2106.29
132.405 1034.46 2105.78
136.136 1033.92 2113.04
136.189 1033.84 2113.12
136.097 1034.01 2112.98
136.067 1034.16 2112.97
136.052 1033.84 2113.71
136.122 1033.78 2113.6
136.047 1033.81 2113.79
135.834 1033.88 2114.05
136.032 1033.77 2113.95
136.059 1033.78 2113.85
136.181 1033.73 2113.5
136.215 1033.82 2113.22
136.239 1033.65 2113.42
134.177 1034.29 2115.02
133.86 1034.59 2115.18
134.949 1033.86 2114.66
134.328 1034.08 2115
132.123 1034.9 2107.31
132.301 1035.57 2108.57
131.816 1034.61 2107.77
131.791 1034.76 2108.32
132.323 1035.6 2108.97
135.68 1038.25 2111.76
135.857 1036.96 2112.3
135.847 1034.82 2112.8
135.76 1034.8 2112.68
135.75 1035.2 2112.58
136.003 1034.19 2112.9
135.914 1034.3 2112.82
135.814 1034.55 2112.76
133.744 1037.04 2110.16
131.959 1035.09 2109.15
135.511 1038.44 2111.41
133.671 1036.81 2110.29
133.088 1036.19 2116.27
133.388 1035.16 2115.53
132.834 1036.88 2117.13
133.511 1034.98 2115.36
133.661 1034.81 2115.24
131.411 1037.16 2120.7
131.914 1037.04 2121.35
132.333 1036.91 2122.31
131.414 1037.15 2120.44
131.465 1037.16 2120.18
131.891 1036.98 2119.69
132.362 1036.83 2119.48
132.482 1036.8 2119.34
132.386 1036.91 2119.03
132.604 1037.04 2117.85
132.656 1037.02 2117.63
132.53 1036.96 2118.07
132.559 1036.87 2118.26
132.789 1036.75 2117.38
132.453 1036.88 2118.73
132.597 1036.8 2118.51
134.859 1033.12 2128.88
134.918 1033.14 2129.16
135.162 1033.29 2129.92
135.095 1033.18 2129.57
137.038 1033.31 2131.16
138.35 1032.92 2131.18
138.134 1033.04 2131.24
134.738 1034.58 2124.18
134.315 1035.17 2123.87
134.458 1034.24 2124.94
134.186 1033.77 2125.75
134.024 1035.63 2123.32
134.731 1035.19 2123.17
134.081 1035.93 2122.37
134.857 1035 2123.45
133.331 1036.42 2122.29
133.923 1036.12 2122.08
132.663 1036.77 2122.47
133.137 1036.56 2122.14
135.398 1034.39 2123.6
135.289 1034.29 2123.87
134.374 1033.54 2125.82
134.761 1033.17 2126.03
135.185 1033.4 2125.17
135.463 1033.21 2125.25
135.945 1032.74 2128.21
136.021 1032.64 2126.75
136.087 1032.63 2127.41
136.045 1032.66 2126.35
135.927 1032.79 2125.96
135.782 1032.98 2125.54
145.489 1040.89 2065.31
144.887 1042.4 2062.91
145.421 1041.11 2064.94
145.26 1041.55 2064.41
145.643 1040.68 2080.09
144.345 1037.69 2076.93
143.8 1036.36 2074.02
142.827 1033.92 2069.08
142.097 1031.77 2070.7
142.995 1034.55 2073.61
142.292 1032.69 2073.94
143.238 1034.94 2068.41
145.474 1040.38 2065.38
145.456 1039.87 2065.08
145.457 1040.19 2065.11
145.41 1039.47 2065.07
145.561 1038.89 2064.19
145.195 1037.79 2064.58
144.529 1037.45 2066.32
142.666 1035.03 2081.42
142.485 1036.32 2086.19
142.262 1034.72 2083.17
141.766 1036.82 2088.54
140.983 1037.32 2091.09
140.533 1037.53 2092.6
140.529 1037.81 2092.92
140.68 1038.43 2094.64
141.441 1035.88 2093.94
140.703 1038.47 2096.59
141.042 1035.91 2095.09
140.187 1037.85 2097.39
133.208 1033.42 2104.24
132.546 1034.07 2105.22
140.728 1035.88 2095.6
139.429 1034.4 2096.28
137.423 1031.04 2095.97
136.864 1031.31 2097.27
136.83 1030.21 2096.18
136.506 1030.99 2098.1
135.89 1028.96 2098.08
135.151 1026.45 2097.02
134.181 1028.04 2099.83
133.098 1031.42 2103.3
133.575 1028.7 2101.34
132.052 1034.36 2106.5
132.026 1033.93 2106.03
132.205 1033.58 2105.46
136.158 1033.83 2113
136.198 1033.78 2113.08
136.244 1033.7 2113.17
136.061 1033.99 2112.91
136.091 1033.71 2113.72
136.168 1033.64 2113.6
136.088 1033.67 2113.81
135.992 1033.67 2114.13
135.1 1033.71 2114.69
136.111 1033.62 2113.93
136.089 1033.54 2114.12
136.309 1033.62 2113.33
136.311 1033.6 2113.24
136.389 1033.49 2113.56
136.519 1033.44 2113.48
133.938 1034.39 2115.24
134.103 1034.17 2115.2
133.702 1034.62 2115.35
134.329 1033.94 2115.12
131.872 1034.94 2108.69
131.72 1034.01 2106.99
131.568 1034.1 2107.72
131.495 1034.29 2108.62
131.476 1034.14 2108.24
131.815 1034.83 2108.93
135.54 1037.68 2111.78
135.72 1036.46 2112.27
135.733 1034.49 2112.63
135.641 1034.75 2112.51
135.592 1035.04 2112.38
135.992 1034.05 2112.82
135.865 1034.18 2112.71
132.048 1035.08 2109.47
131.751 1034.65 2109.18
135.297 1037.96 2111.44
134.013 1036.71 2110.74
133.602 1036.56 2110.39
132.023 1034.85 2109.63
133.212 1035.83 2116.15
133.35 1035.18 2115.67
133.436 1034.98 2115.59
133.562 1034.78 2115.45
132.885 1036.61 2117.13
131.583 1037.08 2120.62
132.365 1036.84 2121.05
132.388 1036.88 2122.08
131.515 1037.09 2120.32
131.923 1036.93 2119.91
132.439 1036.72 2119.67
132.586 1036.66 2119.64
132.713 1036.62 2119.47
132.609 1036.75 2119.02
132.754 1036.68 2117.68
132.672 1036.82 2117.97
132.688 1036.72 2118.19
132.734 1036.63 2118.42
132.915 1036.46 2117.33
132.717 1036.68 2118.81
136.003 1032.84 2128.95
136.112 1032.95 2129.56
136.513 1033.12 2130.37
137.8 1032.91 2130.69
138.849 1032.83 2131.64
138.233 1032.54 2130.43
137.899 1032.73 2130.4
137.983 1032.52 2130
138.851 1032.44 2131.16
134.973 1033.62 2125.13
135.787 1033.64 2124.1
135.111 1034.87 2123.05
135.418 1034.5 2123.35
134.009 1036.06 2122.02
134.781 1035.22 2122.68
133.768 1036.25 2121.88
133.022 1036.65 2121.97
133.601 1036.37 2121.64
135.786 1033.99 2123.46
135.799 1033.78 2123.82
136.222 1033.35 2124.14
136.652 1032.91 2124.8
137.029 1032.42 2128.13
137.025 1032.37 2127.39
136.98 1032.5 2128.51
136.953 1032.4 2126.52
136.943 1032.51 2125.83
145.459 1040.71 2065.11
144.834 1042.42 2062.43
145.411 1040.96 2064.68
145.133 1041.86 2063.75
145.396 1041.04 2064.41
142.895 1034.72 2076.31
141.215 1029.42 2069.92
141.763 1030.7 2068.51
141.702 1032.03 2078.1
140.556 1028.71 2075.06
143.141 1034.43 2068.16
142.253 1031.69 2068.12
145.481 1039.84 2064.77
145.471 1040.3 2064.7
145.431 1040.58 2064.81
145.658 1039.32 2064.03
145.838 1038.82 2063.13
145.383 1037.53 2063.64
144.04 1035.94 2066.58
144.464 1034.71 2064.92
144.421 1034.99 2065.28
142.437 1035.89 2085.59
142.342 1035.79 2085.99
142.36 1035.25 2084.86
142.114 1034.36 2083.38
141.202 1030.88 2078.45
141.848 1033.24 2081.52
142.265 1035.84 2086.52
140.87 1037.09 2091.33
142 1035.85 2087.46
140.477 1037.3 2092.9
140.637 1037.92 2094.15
140.84 1038.45 2095.75
141.065 1037.25 2094.96
141.186 1036.52 2094.87
141.329 1035.94 2094.35
141.253 1036.21 2094.54
141.496 1035.29 2093.88
141.656 1034.46 2093.31
141.772 1034.81 2092.65
141.759 1034.46 2092.68
142.09 1034.71 2091.45
142.066 1034.26 2091.45
142.476 1034.55 2090.43
142.483 1034.3 2090.27
141.398 1034.26 2093.74
141.556 1034.29 2093.43
141.584 1034.38 2093.45
141.076 1033.96 2094.05
139.099 1032.35 2095.12
140.986 1033.61 2093.87
139.09 1031.32 2093.93
137.55 1029.82 2094.47
137.106 1029.81 2095.31
137.098 1029.52 2095.01
136.625 1029.73 2096.22
136.842 1029.22 2095.3
136.034 1028.37 2097.19
136.251 1030.12 2097.73
135.207 1025.53 2096.01
136.018 1027.17 2096.17
135.653 1026.32 2096.02
134.349 1024.95 2096.81
134.232 1023.91 2096.15
134.455 1023.97 2095.84
132.499 1025.01 2098.96
132.953 1027.76 2101.52
131.856 1025.33 2100.19
132.803 1030.48 2103.26
133.02 1028.61 2102.25
132.495 1027.9 2102.69
131.893 1033.18 2105.79
131.748 1033.58 2106.43
132.396 1030.53 2103.89
136.209 1033.7 2113.01
136.237 1033.67 2113.09
136.277 1033.62 2113.18
136.136 1033.8 2112.9
136.17 1033.57 2113.75
136.443 1033.42 2113.72
136.231 1033.49 2113.91
135.321 1033.57 2114.69
134.492 1033.77 2115.1
136.249 1033.43 2114.06
135.467 1033.43 2114.73
136.193 1033.35 2114.27
136.515 1033.45 2113.36
136.498 1033.43 2113.26
137.044 1032.96 2114.06
137.141 1032.88 2114.05
136.94 1033.06 2113.6
133.841 1034.35 2115.39
134.024 1034.11 2115.37
133.687 1034.51 2115.49
134.241 1033.86 2115.31
131.489 1033.58 2107.27
131.383 1033.78 2108.01
131.33 1033.81 2108.39
131.473 1034.21 2108.87
135.251 1036.95 2111.72
135.517 1035.95 2112.16
133.912 1036.28 2110.83
135.756 1034.17 2112.57
135.608 1034.5 2112.44
135.455 1034.45 2112.24
135.294 1034.86 2112.07
136.074 1033.85 2112.8
135.936 1033.93 2112.67
131.578 1034.26 2109.25
131.408 1033.97 2108.97
132.231 1034.91 2109.83
131.742 1034.27 2109.54
131.513 1034.01 2109.28
133.226 1035.73 2116.28
133.441 1034.91 2115.7
133.571 1034.64 2115.59
131.999 1036.91 2120.29
132.811 1036.73 2121.74
133.361 1036.47 2121.45
133.064 1036.53 2120.85
132.611 1036.67 2120.16
132.452 1036.72 2119.91
132.618 1036.63 2119.86
132.786 1036.55 2119.77
132.829 1036.54 2119.29
132.918 1036.48 2119.64
132.976 1036.25 2117.51
132.79 1036.56 2117.97
132.835 1036.43 2118.32
132.856 1036.47 2118.71
133.308 1035.49 2116.36
132.913 1036.42 2119.18
137.164 1032.58 2129.1
137.354 1032.77 2129.92
137.552 1032.57 2129.49
138.307 1032.24 2130.05
137.953 1032.3 2129.49
137.62 1032.41 2129.19
137.69 1032.25 2128.94
138.979 1032.21 2131.16
138.038 1032.06 2129.17
138.24 1032.06 2129.6
136.738 1033.25 2123.78
135.81 1034.07 2123.29
133.974 1036.1 2121.77
133.808 1036.23 2121.67
134.15 1035.94 2121.94
134.582 1035.41 2122.39
135.426 1034.57 2122.93
136.362 1033.73 2123.05
133.635 1036.32 2121.39
135.804 1033.92 2123.34
136.058 1033.66 2123.62
136.813 1032.99 2124.29
137.02 1032.56 2125.48
137.246 1032.3 2127.73
137.327 1032.38 2128.65
137.276 1032.33 2128.24
137.234 1032.29 2126.96
137.247 1032.32 2126.24
145.268 1041.48 2062.68
145.44 1040.66 2064.48
145.368 1041.32 2063.23
145.522 1040.86 2063.58
145.624 1040.44 2063.74
139.969 1026.21 2068.47
140.341 1027.08 2066.96
139.399 1025.52 2072.49
141.603 1029.88 2067.67
140.561 1027.33 2066.4
140.424 1028.62 2076.86
139.05 1025.48 2075.31
138.124 1022.98 2074.08
142.853 1033.19 2067.98
142.978 1031.91 2066.69
142.539 1030.7 2066.45
145.677 1039.73 2063.97
145.671 1040.09 2063.88
145.863 1039.33 2063.25
144.447 1034.41 2064.54
144.049 1034.97 2066.24
143.523 1033.56 2066.77
144.045 1033.24 2065.31
144.085 1033.71 2065.66
142.298 1035.53 2086.11
142.302 1035.17 2085.29
142.251 1034.62 2084.48
142.106 1033.63 2084.75
141.769 1032.95 2082.97
141.152 1030.78 2078.72
140.624 1029.23 2077.69
140.521 1028.87 2077.43
141.752 1032.4 2080.67
141.781 1033 2081.75
140.85 1036.87 2091.45
140.544 1037.01 2092.48
141.82 1035.81 2088.19
142.436 1034.57 2088.25
142.361 1034.61 2087.26
140.49 1037.07 2092.91
140.518 1037.01 2092.61
140.75 1037.17 2093.99
141.216 1036.17 2094.16
141.602 1035.32 2093.17
141.763 1034.96 2092.67
141.805 1033.89 2092
142.065 1034.96 2091.39
142.446 1034.75 2090.49
142.134 1034.01 2091.15
142.52 1034.68 2089.94
142.435 1033.97 2088.91
142.48 1034.18 2090
142.365 1033.85 2089.89
140.843 1033.32 2093.6
141.455 1033.99 2093.35
140.918 1033.01 2093.18
139.207 1030.48 2091.57
141.117 1032.62 2091.65
137.585 1028.87 2092.18
137.293 1029.35 2094.27
136.833 1028.95 2094.95
137.042 1029.16 2094.67
136.327 1029.02 2096.66
136.475 1028.21 2095.6
136.123 1027.2 2095.89
134.788 1023.99 2095.08
134.283 1022.74 2095.34
135.45 1025.55 2095.44
132.372 1023.88 2098.1
133.883 1023.84 2096.55
134.092 1022.64 2095.68
133.81 1022.54 2096.06
130.394 1022.7 2099.33
131.3 1025.28 2101.16
131.95 1027.13 2102.98
129.906 1022.71 2100.11
132.18 1028.32 2103.56
131.731 1027.57 2103.98
131.612 1032.91 2106.37
132.111 1030.91 2104.52
136.286 1033.54 2113
136.353 1033.49 2113.09
136.354 1033.51 2113.16
136.177 1033.54 2112.85
136.48 1033.38 2113.87
136.956 1033.02 2114.09
136.477 1033.27 2114.17
136.528 1033.32 2114.02
134.529 1033.66 2115.2
136.401 1033.19 2114.41
135.591 1033.27 2114.85
134.73 1033.5 2115.23
136.918 1033.07 2113.44
136.875 1033.03 2113.27
137.482 1032.55 2114.85
137.6 1032.48 2114.89
137.45 1032.57 2114.28
137.706 1032.42 2114.88
137.322 1032.72 2113.84
133.843 1034.24 2115.52
134.073 1033.94 2115.48
133.963 1034.07 2115.55
133.692 1034.4 2115.61
134.248 1033.77 2115.42
131.363 1033.18 2107.42
131.277 1033.31 2108.06
131.245 1033.43 2108.35
131.307 1033.79 2108.63
133.834 1035.85 2110.87
135.148 1035.9 2111.82
132.195 1034.64 2109.89
135.659 1034.09 2112.42
135.837 1033.74 2112.51
135.247 1034.18 2112.02
135.498 1033.93 2112.23
134.997 1035.01 2111.8
134.949 1034.43 2111.77
136.015 1033.54 2112.65
131.35 1033.79 2109.02
131.238 1033.63 2108.66
131.429 1033.71 2109.21
131.552 1033.76 2109.36
131.767 1034.09 2109.6
131.333 1033.66 2109.05
133.485 1034.77 2115.75
133.562 1034.55 2115.73
133.672 1034.34 2115.73
132.786 1036.57 2120.05
133.293 1036.4 2120.77
132.96 1036.47 2119.96
133.025 1036.38 2119.57
133.027 1036.43 2119.78
133.421 1035.14 2116.86
133.393 1035.26 2116.51
132.976 1036.18 2117.72
132.908 1036.27 2118.04
133 1036.19 2118.59
132.99 1036.32 2118.92
133.043 1036.26 2119.18
133.508 1034.67 2115.86
133.082 1036.28 2119.48
137.911 1032.15 2129.1
137.78 1032.09 2128.75
137.531 1032.24 2128.6
137.619 1032.17 2128.45
139.12 1032 2131.26
138.088 1031.88 2128.99
138.181 1031.76 2129.09
137.84 1032 2128.61
137.902 1031.91 2128.54
136.736 1033.17 2123.95
137.326 1032.65 2124.54
137.5 1032.22 2126.18
133.956 1036.08 2121.55
133.779 1036.22 2121.39
134.128 1035.94 2121.66
134.272 1035.81 2121.79
134.599 1035.39 2122.14
135.182 1034.69 2122.73
136.204 1033.86 2122.9
137.048 1033.16 2123.14
137.279 1032.39 2125.75
137.374 1032.25 2127.63
137.433 1032.24 2128.14
137.398 1032.23 2126.7
145.751 1040.26 2062.75
145.814 1040.05 2062.93
145.862 1039.86 2063.11
139.031 1024.26 2068.28
138.786 1023.62 2064.68
137.695 1021.5 2070.43
141.962 1029.24 2065.69
141.384 1027.53 2063.91
139.727 1024.65 2062.85
139.716 1027.03 2076.16
138.62 1024.4 2075.48
137.505 1021.57 2075.14
136.813 1019.43 2073.61
143.771 1032.89 2065.79
143.547 1031.9 2065.31
143.222 1030.97 2065.03
145.886 1039.58 2063.16
143.874 1032.44 2064.79
143.717 1031.72 2063.85
142.28 1035.06 2085.7
142.371 1034.28 2086.74
142.052 1032.93 2085.97
141.761 1032.02 2081.83
141.671 1032.02 2083.35
141.744 1031.59 2082.38
141.027 1030.42 2078.8
141.496 1031.61 2079.9
140.614 1029.22 2077.9
139.817 1027.21 2076.61
140.461 1028.57 2077.66
141.485 1031.47 2080.06
141.474 1036.23 2089.41
140.905 1036.67 2091.38
140.617 1036.65 2092.34
140.569 1036.84 2092.4
142.474 1034.49 2088.88
141.893 1035.44 2088.34
142.305 1034.63 2088.19
140.524 1036.83 2092.86
140.836 1036.42 2093.49
141.272 1035.82 2093.9
141.605 1035.35 2092.85
142.022 1035.15 2091.33
142.301 1033.8 2090.27
142.069 1033.79 2091.45
142.425 1034.94 2090.44
142.497 1034.86 2089.52
142.505 1034.56 2089.22
141.933 1032.67 2086.72
142.046 1033.19 2089.51
141.091 1033.02 2092.83
140.415 1030.8 2087.86
139.347 1029.13 2085.85
141.848 1033.02 2090.03
136.845 1028.25 2093.19
137.105 1027.79 2091.09
137.838 1027.67 2088.46
136.858 1028.72 2094.55
136.476 1027.95 2095.26
135.615 1025.74 2095.17
134.938 1023.94 2094.47
134.487 1022.76 2094.83
134.145 1021.41 2094.66
133.754 1020.94 2095.08
133.786 1021.41 2095.5
132.061 1023.17 2097.91
130.181 1022.11 2099.1
132.982 1021.74 2096.71
132.746 1020.62 2096.49
132.255 1020.36 2096.98
129.718 1022 2099.67
130.77 1024.99 2102.02
129.551 1022.6 2100.76
131.285 1026.51 2103.8
129.402 1021.97 2100.24
132.127 1028.8 2103.95
131.879 1028.26 2104.23
131.386 1027.15 2104.47
131.513 1032.46 2106.51
131.927 1031.3 2105.04
136.832 1032.99 2113.13
136.787 1032.94 2113.02
136.715 1032.89 2112.88
136.929 1033 2114.22
137.237 1032.69 2114.69
136.667 1033.06 2114.43
136.831 1033.02 2114.32
134.454 1033.61 2115.39
135.747 1033.16 2114.95
134.813 1033.39 2115.3
137.291 1032.68 2113.62
137.278 1032.48 2113.32
137.333 1032.55 2113.53
137.399 1032.59 2114.99
137.712 1032.51 2115.67
137.816 1032.47 2115.63
137.919 1032.42 2115.58
137.541 1032.42 2114.25
137.741 1032.36 2114.75
137.957 1032.38 2115.49
137.602 1032.42 2114.27
133.824 1034.15 2115.68
134.096 1033.87 2115.58
133.963 1033.98 2115.7
134.238 1033.72 2115.54
131.43 1032.31 2106.82
131.285 1032.91 2107.65
131.228 1032.91 2108.13
131.219 1033.19 2108.4
133.781 1035.4 2110.91
132.082 1034.31 2109.87
135.72 1033.59 2112.35
136.559 1032.81 2112.7
135.085 1033.94 2111.83
135.412 1033.59 2112.06
133.663 1034.8 2110.9
133.496 1034.16 2110.81
133.531 1033.65 2110.8
131.232 1033.47 2108.77
131.43 1033.51 2109.2
131.316 1033.42 2109
131.516 1033.62 2109.35
131.536 1033.48 2109.32
133.629 1034.41 2115.84
133.795 1034.14 2115.82
133.413 1036.3 2120.68
133.143 1036.33 2120
133.103 1036.32 2119.74
133.422 1035.17 2117.54
133.6 1034.5 2115.99
133.545 1034.58 2115.9
133.501 1035.25 2118.55
133.048 1036.17 2118.89
133.152 1036.04 2119.15
133.147 1036.16 2119.42
133.163 1036.18 2119.59
133.149 1036.24 2119.7
137.702 1032.1 2128.33
137.577 1032.14 2127.9
139.23 1031.71 2131.29
138.202 1031.53 2129.01
137.921 1031.81 2128.37
138.006 1031.68 2128.53
137.769 1032 2128.09
137.832 1031.91 2128.06
137.456 1032.49 2124.82
137.633 1032.09 2126.97
137.587 1032.13 2127.14
133.868 1036.09 2121.23
134.086 1035.92 2121.4
134.296 1035.75 2121.55
134.182 1035.88 2121.55
134.376 1035.67 2121.67
134.661 1035.23 2121.96
135.035 1034.69 2122.53
135.402 1034.45 2122.62
136.18 1033.87 2122.74
136.853 1033.32 2122.78
136.997 1033.18 2122.92
137.188 1032.98 2123.28
137.494 1032.19 2127.55
137.96 1021.88 2065.92
139.44 1024.07 2062.15
137.685 1021.11 2064.5
136.61 1018.76 2071.03
136.791 1019.25 2067.73
136.32 1018.62 2069.29
142.823 1029.79 2064.01
142.228 1028.41 2062.53
138.741 1024.56 2075.83
137.704 1021.97 2075.49
137.096 1020.27 2075.56
136.492 1018.84 2075.55
137.428 1020.26 2076.6
135.952 1017.34 2073.67
135.709 1016.58 2072.31
143.209 1030.54 2063.99
141.544 1031.79 2083.66
141.665 1031.15 2080.72
141.682 1030.24 2081
141.689 1030.03 2080.71
141.682 1031.39 2082.58
141.662 1030.34 2081.31
140.938 1029.16 2079.15
140.626 1029.09 2078.18
139.818 1027.06 2076.88
141.448 1031.27 2080.01
141.001 1036.49 2091.32
141.335 1036.43 2090.07
140.69 1036.45 2092.34
140.586 1036.58 2092.64
142.442 1034.7 2088.8
141.914 1035.47 2088.61
141.456 1036.22 2089.78
142.303 1035.04 2088.9
140.617 1036.51 2092.74
140.688 1036.4 2092.75
140.985 1036.11 2093.14
141.383 1035.68 2093.22
141.224 1035.86 2093.71
141.586 1035.36 2092.63
141.641 1035.35 2091.95
141.938 1035.32 2091.26
142.268 1035.21 2090.62
142.369 1035.12 2090.43
142.431 1035.1 2090.02
142.371 1035.18 2089.69
141.461 1031.93 2086.86
141.53 1031.83 2083.89
141.279 1031.39 2084.21
141.478 1031.71 2083.89
138.034 1027.45 2086.56
141.185 1030.94 2083.5
139.775 1029.13 2084.05
140.968 1030.78 2083.96
138.362 1027.55 2085.01
136.507 1027.76 2093.53
136.221 1026.97 2092.53
136.751 1027.02 2090.89
137.529 1026.96 2088.17
136.098 1026.82 2094.81
135.607 1025.44 2093.28
135.589 1025.15 2092.83
134.942 1022.97 2093.45
134.896 1021.91 2092.66
134.818 1021.5 2092.31
133.831 1020.63 2094.46
132.225 1019.88 2096.61
132.267 1019.6 2096.19
131.996 1022.74 2097.74
130.168 1021.89 2098.98
129.686 1021.68 2099.47
129.756 1021.52 2099.3
132.874 1021.74 2096.81
131.336 1020.02 2097.96
131.193 1019.55 2097.94
131.003 1019.58 2098.19
131.166 1019.28 2097.76
129.331 1021.6 2100.03
130.313 1024.65 2102.85
129.268 1022.54 2101.54
129.048 1021.82 2100.9
130.178 1024.62 2103.51
129.061 1021.55 2100.51
131.965 1029.03 2104.62
132.091 1029.76 2104.41
131.72 1028.23 2104.74
131.111 1026.53 2104.68
131.087 1026.32 2104.25
131.777 1031.24 2105.45
137.281 1032.37 2113.21
137.266 1032.31 2113.13
137.226 1032.22 2113.01
137.084 1032.76 2114.73
136.702 1032.98 2114.67
136.842 1032.91 2114.64
136.959 1032.8 2114.8
134.536 1033.5 2115.5
135.921 1033.04 2115.09
134.989 1033.24 2115.46
134.772 1033.35 2115.5
137.449 1032.52 2113.71
137.431 1032.28 2113.36
137.46 1032.39 2113.55
137.24 1032.67 2115.03
137.607 1032.56 2115.73
138.057 1032.49 2116.42
138.195 1032.41 2116.42
138.248 1032.39 2116.31
138.288 1032.36 2116.19
138.008 1032.33 2115.46
138.363 1032.3 2116.18
137.649 1032.34 2114.26
138.064 1032.28 2115.45
134.109 1033.82 2115.69
133.933 1033.99 2115.84
134.362 1033.59 2115.61
134.237 1033.68 2115.68
131.687 1031.16 2105.76
131.398 1031.82 2106.83
131.298 1032.35 2107.51
131.232 1032.62 2108.28
131.274 1032.18 2107.75
131.218 1032.88 2108.29
131.23 1033.02 2108.51
132.067 1034.09 2109.88
131.66 1033.52 2109.5
136.145 1032.53 2112.25
136.393 1032.73 2112.53
137.171 1031.91 2112.83
136.916 1031.83 2112.56
135.01 1033.4 2111.69
135.024 1031.66 2111.15
132.147 1033.7 2109.94
132.191 1033.23 2109.9
133.686 1032.97 2110.77
132.433 1033 2110.04
131.271 1033.01 2108.7
131.361 1033.13 2109.03
131.433 1033.08 2109.13
131.322 1032.85 2108.83
131.608 1033.22 2109.37
133.734 1034.24 2115.93
133.5 1036.17 2120.58
133.595 1036.06 2120.53
133.72 1034.47 2116.78
133.657 1034.39 2116.01
133.531 1035.3 2119.13
133.755 1034.59 2118.12
133.217 1035.97 2119.43
