209.212 1080.21 3798.62
208.779 1079.58 3797.83
210.717 1064.88 3790.7
210.633 1064.87 3789.61
210.481 1064.88 3788.23
210.099 1064.28 3785.29
210.1 1062.38 3783.5
209.795 1056.58 3782.6
210.016 1056.32 3781.54
208.019 1052.45 3782.35
209.759 1055.84 3781.83
208.691 1053.95 3782.12
209.658 1054.84 3781.32
208.721 1053.64 3781.93
208.96 1050.86 3781.46
208.978 1050.19 3781.48
208.478 1048.73 3782.11
208.854 1051.82 3781.56
208.797 1052.72 3781.64
209.605 1047.76 3781.79
210.228 1049.49 3780.89
209.657 1053.56 3780.86
209.547 1054.18 3781.16
209.751 1063.7 3781.94
209.77 1063.69 3780.76
209.762 1064.2 3780.25
209.806 1064.96 3779.53
210.648 1066.29 3775.52
210.28 1066.08 3777.31
209.875 1065.57 3779.42
210.975 1063 3798.99
209.765 1064.44 3797.98
212.275 1062.06 3797.98
212.537 1061.76 3798.1
212.716 1062.19 3796.16
211.934 1063.2 3794.26
211.923 1063.26 3793.73
211.795 1063.39 3792.97
210.735 1064.96 3791.95
208.515 1069.27 3797.59
208.403 1068.01 3797.75
209.014 1065.83 3797.21
209.278 1065.26 3797.24
208.784 1066.31 3797.37
209.643 1064.66 3797.52
208.641 1066.92 3797.22
208.481 1067.41 3797.56
215.038 1087.13 3807.37
214.797 1086.74 3806.92
214.394 1086.15 3805.87
213.155 1084.62 3803.15
216.235 1102.55 3809.34
214.263 1096.95 3806.2
213.624 1093.94 3805.57
214.84 1091.72 3809.19
215.208 1090.47 3810.35
215.257 1089.64 3809.89
215.493 1088.64 3807.94
215.583 1087.88 3805.59
215.649 1088.21 3805.46
215.449 1087.5 3805.18
215.191 1087.17 3804.52
208.851 1076.47 3797.4
208.392 1077.61 3796.96
209.356 1074.98 3797.48
209.362 1074.16 3797.52
208.304 1078.29 3796.9
208.348 1078.52 3797.05
208.309 1078.08 3796.94
208.432 1078.81 3797.22
208.348 1077.83 3796.81
208.561 1079.14 3797.3
209.342 1073.52 3797.35
209.375 1073.96 3797.23
208.983 1071.76 3797.28
211.121 1082.27 3799.23
209.576 1080.6 3798.27
209.196 1080.18 3798.19
208.851 1079.64 3797.45
210.4 1065.79 3791.74
210.362 1066.07 3790.1
210.382 1065.8 3788.22
210.092 1064.92 3785.09
209.784 1064.09 3782.56
208.812 1053.22 3781.71
209.158 1049.88 3781.43
209.446 1048.98 3781.52
209.768 1064.61 3781.27
210.413 1066.53 3777.13
210.782 1066.72 3775.44
210.003 1066.21 3779.11
210.022 1065.72 3782.64
210.094 1064.14 3797.43
211.006 1063.04 3798.32
210.06 1064.27 3797.12
212.181 1062.23 3797.69
211.803 1063.29 3794.72
211.802 1063.22 3795.24
212.552 1062.41 3795.89
210.871 1064.43 3793.98
210.811 1064.72 3793.04
210.438 1065.46 3792.93
208.578 1069.11 3797.18
208.452 1068.06 3797.33
209.564 1065.65 3795.85
209.774 1065.21 3795.93
210.007 1064.81 3796
209.298 1066.43 3795.9
209.433 1066.05 3795.82
210.373 1064.4 3795.82
208.576 1067.54 3797.13
209.213 1066.93 3795.93
214.819 1086.7 3803.45
213.826 1085.39 3801.4
212.553 1083.73 3798.54
214.74 1105.23 3804.95
213.628 1101.7 3803.24
213.002 1096.84 3802.57
213.593 1092.92 3805.48
212.623 1094.43 3802.35
214.848 1091.01 3808.99
215.122 1090.17 3809.51
215.462 1089.09 3807.37
215.499 1088.84 3807.66
215.644 1088.46 3805.26
215.459 1087.92 3804.06
215.391 1087.66 3804.12
215.389 1088.21 3803.58
215.045 1087.31 3802.94
214.278 1086.27 3800.98
208.83 1076.38 3797.22
208.446 1077.44 3796.77
209.332 1075.07 3797.08
209.373 1074.4 3797.1
208.352 1078.24 3796.73
208.397 1078.49 3796.73
208.324 1078 3796.77
208.435 1078.65 3796.83
208.522 1078.88 3796.84
208.372 1077.73 3796.68
208.611 1079.16 3796.97
209.418 1073.71 3796.85
209.012 1071.54 3796.94
210.685 1081.67 3798.1
211.386 1082.07 3796.82
209.247 1080.12 3797.5
208.845 1079.46 3796.94
210.171 1066.65 3792.57
210.16 1066.26 3793.37
210.267 1066.92 3790.4
210.372 1066.43 3787.89
210.104 1065.52 3784.72
210.192 1066.78 3778.85
210.61 1067.03 3777.06
211.015 1067.31 3775.34
210.11 1066.51 3780.17
210.381 1066.73 3784.22
210.431 1066.77 3787.23
210.656 1064.02 3796.01
211.41 1063.09 3796.88
211.056 1064.09 3794.43
210.475 1065.08 3794.01
210.281 1065.45 3794
210.076 1065.9 3794.13
209.124 1071.44 3796.6
208.615 1068.38 3796.93
209.953 1066.39 3794.3
209.166 1067.69 3795.96
209.802 1066.95 3794.6
213.02 1084.5 3798.35
211.927 1082.84 3796.37
211.547 1082.18 3796.1
215.925 1108.13 3806.12
213.211 1106.39 3800.2
212.075 1104.28 3798.43
212.611 1101.21 3800.5
212.774 1099.44 3800.46
212.622 1097.13 3800.79
212.692 1093.61 3802.64
213.627 1092.33 3805.48
212.346 1094.51 3801.07
212.318 1095.33 3800.38
214.723 1090.82 3808.43
214.989 1090.29 3808.79
215.403 1089.25 3807.17
215.518 1088.81 3804.69
215.457 1088.53 3804.03
214.886 1087.5 3802
214.881 1088 3801.8
214.519 1089.23 3800.95
214.205 1089.12 3799.8
213.759 1086.09 3799.07
212.133 1083.5 3795.48
208.9 1076.35 3796.77
208.507 1077.31 3796.57
209.357 1074.95 3796.78
209.406 1074.47 3796.75
208.432 1078.49 3796.61
208.351 1077.93 3796.63
208.416 1078.24 3796.55
208.505 1078.7 3796.57
208.419 1077.61 3796.56
208.682 1079.05 3796.6
209.478 1073.91 3796.48
210.154 1080.93 3797.22
210.84 1081.21 3796.12
210.924 1081.09 3795.36
209.251 1079.95 3797.03
208.995 1079.49 3796.62
209.985 1066.94 3793.74
210.057 1067.82 3792.99
210.293 1067.64 3790.11
210.427 1067.34 3779.14
210.928 1067.76 3777.26
210.649 1067.59 3782.84
210.633 1067.46 3786.75
210.43 1068.2 3789.54
212.333 1069.47 3774.41
209.52 1070.95 3795.76
209.63 1073.05 3796.02
209.538 1073.73 3796.29
209.175 1068.85 3795.94
209.686 1067.96 3794.91
209.869 1067.7 3794.25
211.508 1082.21 3794.79
211.2 1081.49 3795
216.505 1110.16 3805.87
212.589 1107.25 3797.69
210.625 1105 3793.68
210.377 1102.98 3793.91
210.1 1103.79 3792.76
212.045 1101.26 3798.73
212.334 1100.16 3798.46
212.602 1098.74 3799.07
212.508 1099.19 3798.06
212.411 1097.11 3799.36
212.475 1093.7 3801.64
212.759 1093.08 3802.83
213.741 1091.77 3805.54
212.231 1094.75 3799.87
212.192 1095.37 3799.29
212.348 1096.95 3798.14
214.81 1090.38 3807.72
215.307 1089.46 3806.96
215.448 1089.02 3804.66
214.65 1089.57 3801.75
214.555 1089.49 3801.25
213.646 1086.6 3798.37
213.504 1088.6 3797.57
213.526 1091.2 3797.59
213.238 1090.94 3796.47
211.881 1083.61 3794.37
211.05 1081.41 3793.25
210.981 1081.03 3793.74
208.946 1076.3 3796.39
208.613 1077.26 3796.37
209.366 1074.87 3796.52
209.441 1074.44 3796.53
208.509 1078.55 3796.44
208.526 1078.67 3796.48
208.429 1077.93 3796.45
208.489 1077.61 3796.42
208.522 1078.25 3796.34
208.658 1078.86 3796.38
208.897 1079.24 3796.38
210.592 1080.88 3796.04
209.898 1080.35 3796.47
210.612 1080.62 3795.31
210.683 1080.5 3794.82
210.88 1080.77 3794.65
209.8 1079.96 3795.98
210.089 1068.86 3793.05
209.865 1068.64 3794.27
211.296 1068.94 3781.73
212.2 1069.94 3779.49
211.866 1070.04 3785.49
210.848 1068.1 3786.93
210.631 1068.85 3789.38
210.263 1069.7 3792.93
213.63 1071.67 3777.99
209.946 1072.02 3795.33
210.373 1071.7 3794.43
210.215 1070.67 3794.08
209.807 1069.42 3794.72
209.589 1073.82 3796.13
209.786 1073.35 3795.81
209.498 1074.4 3796.34
210.988 1080.95 3794.28
216.71 1111.56 3804.48
214.115 1109.28 3799.9
211.516 1107.27 3794.21
210.247 1105.5 3791.77
209.032 1103.27 3789.06
209.95 1102.26 3792.83
208.838 1102.4 3788.98
208.648 1101.56 3788.67
210.556 1101.82 3794.47
211.94 1100.95 3797.92
212.32 1099.02 3795.8
212.563 1097.51 3794.6
212.543 1098.02 3796.79
212.849 1095.69 3794.51
212.549 1093.3 3802.02
212.392 1093.83 3800.96
212.632 1092.96 3802.1
212.948 1092.47 3803.19
213.974 1091.21 3805.7
212.387 1095.89 3796.67
212.397 1095.36 3796.92
212.352 1096.41 3797.13
215.207 1089.56 3806.29
214.786 1089.62 3802.44
213.791 1091.35 3799.06
213.996 1090.88 3800.22
213.592 1092.02 3797.51
212.179 1087.47 3794.07
212.842 1091.38 3794.56
213.187 1093.63 3794.17
213.094 1093.12 3793.69
211.033 1082.48 3792.21
210.704 1080.91 3792.13
210.685 1080.28 3792.84
210.748 1080.24 3793.57
209.032 1076.24 3796.14
208.682 1077.31 3796.22
209.414 1074.74 3796.33
208.685 1078.8 3796.27
208.696 1078.58 3796.19
208.559 1077.94 3796.23
208.583 1077.69 3796.24
208.699 1078.2 3796.07
208.844 1079.03 3796.18
209.648 1079.67 3795.8
210.379 1080.38 3795.52
210.456 1080.07 3794.9
210.641 1080.16 3794.52
210.787 1080.34 3794.16
210.276 1079.93 3795.21
210.037 1069.55 3793.96
213.134 1071.61 3781.64
211.757 1070.13 3787.65
212.53 1071.55 3786.29
213.343 1072.19 3782.26
210.737 1069.82 3790.57
210.448 1070.44 3793.04
213.902 1072.28 3779.62
213.662 1071.66 3775.1
210.135 1072.93 3795.31
211.118 1073.17 3794.14
211.364 1072.95 3793.63
210.56 1071.23 3793.65
209.677 1074 3795.94
209.559 1074.37 3796.14
210.046 1073.54 3795.51
209.886 1074.02 3795.67
216.034 1111.74 3801.77
212.807 1108.76 3796.34
210.187 1106.11 3790.57
210.654 1106.98 3791.01
209.074 1103.79 3788.33
208.311 1101.87 3787.03
208.215 1101.92 3786.25
208.632 1101.01 3788.62
208.206 1101.31 3786.98
208.19 1100.89 3786.94
211.317 1101.03 3795.94
209.653 1101.17 3791.67
212.078 1099.66 3795.91
212.138 1096.4 3790.14
212.316 1095.72 3789.81
212.854 1095.06 3792.1
213.009 1094.57 3794.88
213.542 1092.56 3798.04
212.447 1093.54 3801.04
212.564 1094.86 3796.82
212.634 1092.84 3801.67
212.85 1092.41 3802.6
213.175 1091.98 3803.43
214.051 1090.95 3805.37
214.686 1090.38 3806.98
215.03 1089.78 3806.02
214.796 1089.74 3802.85
214.119 1090.64 3801.16
213.92 1091.36 3800.31
213.492 1092.8 3798.08
212.071 1090.84 3791.82
210.313 1087.62 3788.9
210.221 1084.6 3789.53
212.452 1093.54 3789.62
212.445 1092.84 3790.44
212.482 1094.71 3789.56
212.402 1094.23 3789.07
210.247 1080.64 3790.32
210.485 1079.68 3791.81
210.549 1079.45 3792.4
210.653 1079.46 3793.19
210.655 1079.66 3793.48
210.644 1079.71 3793.86
209.109 1076.19 3795.97
208.759 1077.35 3796.06
209.488 1074.65 3796.14
209.397 1079.02 3795.66
209.458 1079.35 3795.73
209.395 1078.75 3795.57
208.797 1077.96 3795.97
208.813 1077.59 3795.97
209.406 1078.55 3795.52
209.546 1078.1 3795.43
210.147 1079.54 3795.11
210.347 1079.59 3794.81
210.496 1079.64 3794.53
210.639 1079.84 3794.27
211.567 1070.75 3789.54
212.373 1072.48 3790.51
212.694 1072.09 3786.91
212.572 1072.84 3790.42
212.884 1072.31 3784.3
213.436 1072.63 3782.75
213.936 1072.57 3780.8
211.501 1072.02 3792.32
214.146 1072.75 3779.88
213.941 1072.28 3776.15
213.954 1072.52 3772.67
210.934 1073.57 3794.58
211.897 1074.04 3793.63
211.654 1074.19 3794.03
212.05 1073.74 3793.17
212.204 1073.47 3792.6
211.494 1072.52 3792.98
209.65 1074.52 3795.92
210.799 1074.49 3794.93
210.791 1073.99 3794.86
210.05 1074.41 3795.54
209.842 1074.58 3795.73
216.041 1112.11 3800.57
212.787 1109.12 3795.29
220.774 1116.52 3804.31
209.532 1105 3788.59
210.823 1107.35 3790.74
209.902 1105.91 3788.81
208.498 1102.75 3786.14
208.024 1101.19 3785.9
208.002 1101.31 3785.29
208.166 1101.87 3785.34
208.605 1100.45 3788.07
208.246 1100.5 3786.83
207.95 1100.84 3785.74
207.924 1100.55 3785.71
210.14 1100.6 3792.32
211.776 1099.39 3794.31
211.804 1096.73 3789.43
211.754 1095.7 3786.76
211.568 1096.08 3786.86
212.322 1095.22 3789.09
211.922 1095.19 3786.38
212.8 1094.03 3797.92
212.725 1092.62 3801.57
212.973 1092.12 3802.38
213.196 1091.8 3802.99
214.473 1090.32 3804.65
214.226 1090.46 3801.87
213.905 1091.03 3801.39
213.831 1091.53 3800.52
210.648 1089.48 3787.99
211.774 1092.53 3787.34
208.566 1086 3784.64
208.004 1084.71 3783.6
208.752 1082.92 3785.76
211.897 1093.54 3786.19
211.984 1094.08 3786.4
211.992 1094.63 3786.15
209.067 1080.18 3786.64
210.273 1079.27 3790.79
210.492 1078.91 3791.84
210.619 1078.86 3792.82
210.645 1079.03 3793.54
210.61 1079.31 3793.87
210.572 1079.42 3794.24
209.195 1076.08 3795.86
210.202 1079.21 3794.91
210.139 1078.94 3794.94
210.085 1078.77 3795
208.999 1077.59 3795.81
209.55 1077.94 3795.39
209.351 1076.03 3795.74
210.16 1078.43 3794.92
210.404 1079.31 3794.62
210.504 1079.18 3794.4
212.386 1073.31 3791.94
212.755 1072.45 3787.45
212.672 1073.35 3790.91
212.92 1072.52 3784.45
212.905 1072.62 3784.8
212.51 1073.73 3792.08
213.465 1072.93 3782.99
213.997 1072.89 3781.18
214.08 1073.1 3781.06
214.231 1073 3779.72
214.085 1072.73 3776.44
214.122 1073.09 3776.09
214.009 1073.18 3772.62
211.546 1074.52 3794.24
211.856 1074.51 3793.88
212.083 1074.29 3793.48
212.217 1073.98 3793.06
212.342 1073.77 3792.6
210.735 1074.9 3794.98
211.493 1075.02 3794.37
211.653 1074.85 3794.17
209.919 1074.8 3795.58
216.139 1112.41 3799.53
212.646 1109.2 3794.03
224.242 1121.86 3802.22
226.329 1125.74 3800.54
219.831 1115.55 3801.42
221.149 1116.41 3800.63
222 1117.89 3800.77
221.23 1116.33 3799.51
208.656 1103.08 3785.85
210.823 1107.41 3790.02
210.29 1106.69 3789.11
209.34 1104.57 3786.87
207.921 1100.91 3785.1
208.037 1101.41 3784.82
208.013 1100.99 3784.71
208.246 1102.02 3784.92
208.274 1100.13 3786.64
208.784 1099.97 3787.84
207.978 1100.3 3785.79
207.874 1100.61 3785.02
207.912 1100.34 3785.07
210.475 1099.74 3791.69
211.357 1097.4 3789.24
211.319 1096.7 3787.53
211.631 1095.84 3785.65
211.786 1095.51 3785.42
211.429 1096.21 3785.96
211.17 1096.66 3786.71
211.78 1095.87 3782.88
211.77 1095.88 3783.46
212.451 1093.71 3800.15
213.044 1093.81 3797.75
213.624 1092.32 3799.66
213.078 1092.9 3800
213.357 1091.7 3801.73
213.588 1091.28 3802.26
214.097 1090.67 3803.42
211.252 1091.6 3786.35
209.214 1088.02 3784.3
208.238 1086.15 3783.3
211.687 1093.1 3785.08
207.617 1084.8 3782.26
207.622 1083.39 3782.57
207.364 1083.81 3781.67
211.979 1094.1 3783.85
211.889 1093.68 3783.65
212.028 1094.18 3783.34
212.019 1094.3 3782.47
208 1080.5 3783.09
209.461 1078.81 3787.91
210.444 1078.4 3791.14
210.62 1078.46 3792.25
210.685 1078.6 3793.25
210.713 1078.37 3792.9
210.606 1078.89 3793.89
210.628 1078.59 3793.74
210.553 1079.07 3794.16
210.384 1079.01 3794.63
210.339 1078.81 3794.68
210.306 1078.61 3794.73
209.203 1077.26 3795.65
209.629 1077.6 3795.35
210.246 1077.96 3794.87
210.164 1077.6 3795.03
209.59 1076.04 3795.54
210.337 1078.1 3794.73
210.481 1078.89 3794.4
212.817 1072.77 3787.71
212.9 1072.71 3785.22
212.731 1073.84 3791.17
212.581 1073.98 3792.06
212.998 1072.83 3784.32
212.369 1074.11 3792.78
213.486 1073.12 3783.12
213.992 1073.45 3781.88
214.144 1073.27 3780.85
214.273 1073.25 3779.62
214.14 1073.51 3776.34
213.95 1074.32 3773.04
212.102 1074.68 3793.56
211.879 1074.83 3793.87
212.255 1074.46 3793.23
210.277 1076.11 3795.12
211.352 1075.3 3794.45
211.628 1075.18 3794.19
211.783 1075.14 3793.98
216.375 1112.64 3798.84
212.828 1109.42 3793.45
222.349 1120.52 3797.63
222.489 1121.96 3794.62
228.495 1128.97 3798.36
224.583 1125.07 3793.67
220.25 1115.26 3799.23
218.834 1114.47 3799.49
220.727 1115.32 3798.58
221.487 1117.66 3798.54
221.087 1116.17 3798.35
220.955 1115.35 3798.08
208.558 1102.74 3785.01
211.194 1107.85 3790.07
210.589 1107.05 3788.66
210.162 1106.33 3788.12
208.984 1103.58 3785.37
207.967 1100.68 3784.69
208.046 1101.19 3784.44
208.144 1101.61 3784.55
207.992 1100.89 3784.51
208.274 1102.09 3784.59
208.104 1100.04 3785.9
208.685 1099.57 3786.69
209.052 1099.57 3787.81
208.019 1100.05 3785.09
207.992 1100.4 3784.76
207.949 1100.21 3784.91
210.247 1099.09 3789.86
210.079 1098.47 3787.99
210.069 1098.1 3786.94
211.451 1096.29 3784.67
211.619 1096.21 3783.87
211.53 1096.61 3783.09
211.176 1096.58 3786.11
211.161 1096.61 3785.25
210.037 1097.96 3786.38
211.612 1095.14 3780.28
211.348 1097.93 3781.33
211.437 1097.24 3780.96
211.364 1092.32 3784.56
210.084 1089.79 3784.4
208.074 1086.33 3781.86
207.634 1085.29 3781.78
211.657 1092.95 3783.18
207.326 1084.3 3781.25
207.381 1082.46 3781.56
207.188 1083.34 3780.71
207.272 1082.35 3780.88
211.942 1093.25 3782.08
212.055 1093.2 3781.38
211.847 1092.91 3781.93
212.016 1093.54 3780.6
212.139 1093.06 3780.53
207.788 1080 3782.02
208.398 1078.33 3784.15
209.561 1078.14 3787.97
210.625 1077.74 3791.17
210.736 1077.96 3791.99
210.811 1077.99 3792.89
210.752 1078.28 3793.57
210.709 1078.45 3793.6
210.85 1077.97 3793.35
210.538 1078.78 3794.18
210.583 1078.49 3794.05
210.633 1078.32 3793.97
210.696 1078.2 3793.89
210.468 1078.69 3794.47
210.437 1078.37 3794.57
210.351 1078.35 3794.68
210.479 1077.61 3794.76
210.839 1076.34 3794.68
210.465 1078.02 3794.59
210.557 1077.71 3794.6
212.826 1073.17 3788.35
212.87 1072.89 3785.47
212.999 1072.92 3784.47
212.706 1074.22 3791.46
212.561 1074.29 3792.24
212.409 1074.4 3792.84
213.519 1073.26 3783.15
214.021 1073.61 3781.84
214.167 1073.5 3780.91
214.255 1073.46 3779.81
214.105 1073.93 3776.53
213.843 1075.15 3773.53
212.204 1074.86 3793.36
211.979 1075.1 3793.68
212.358 1074.77 3793
211.544 1075.44 3794.23
211.751 1075.45 3793.96
216.166 1112.42 3797.7
213.504 1109.97 3793.72
221.04 1119.22 3794.97
219.53 1118.68 3789.76
220.668 1120.58 3789.15
231.764 1132.43 3798.24
226.129 1127.03 3793.22
222.646 1123.4 3788.56
219.971 1114.73 3798.46
220.505 1114.93 3798.2
218.658 1114.18 3798.71
220.865 1115.05 3797.79
220.937 1116.54 3797.44
220.663 1117.95 3795.27
220.904 1115.63 3797.65
220.81 1115.23 3797.39
208.621 1102.71 3784.56
212.915 1109.35 3792.06
210.886 1107.34 3788.68
209.681 1105.03 3786.49
209.934 1105.31 3786.4
209.034 1103.32 3784.55
207.982 1100.66 3784.44
207.951 1100.5 3784.61
208.204 1101.52 3784.21
208.122 1101.06 3784.12
207.943 1100.9 3784.36
208.405 1101.94 3784.15
208.485 1102.32 3784.35
208.147 1099.82 3785.15
208.687 1099.4 3786.12
208.09 1099.95 3784.84
207.955 1100.36 3784.61
208.015 1100.12 3784.72
211.268 1096.7 3784.29
211.374 1096.86 3783.56
211.284 1097.78 3782.31
209.818 1098.11 3785.84
210.918 1096.97 3784.89
209.652 1098.25 3785.37
208.529 1099.41 3785.55
211.242 1095.88 3778.73
211.418 1094.29 3778.17
211.045 1094.48 3775.81
211.217 1098.5 3781.67
211.368 1097.98 3780.48
211.266 1098.57 3781.09
211.213 1096.52 3778.64
211.33 1092.25 3783.29
209.733 1089.36 3782.91
207.983 1086.14 3780.81
207.54 1085.22 3780.77
207.341 1084.63 3780.84
211.656 1092.64 3782.34
207.187 1083.8 3780.31
207.184 1082.51 3780.14
207.173 1083.01 3779.86
207.423 1081.17 3780.86
212.072 1092.82 3781.03
212.21 1092.72 3780.31
211.864 1092.5 3781.37
212.058 1092.47 3780.85
212.042 1093.35 3780.05
212.193 1092.84 3779.91
212.381 1092.45 3779.73
207.993 1078.58 3782.34
208.371 1077.75 3783.98
209.516 1077.66 3787.56
210.676 1077.33 3790.85
211.07 1077.14 3791.8
210.939 1077.48 3792.39
211.041 1077.38 3793.28
211.034 1077.35 3793
210.776 1078.07 3793.74
210.922 1077.67 3793.55
210.526 1078.44 3794.33
210.609 1078.18 3794.2
210.71 1078.03 3794.05
210.862 1077.66 3793.84
210.546 1078.11 3794.44
211.065 1076.39 3794.43
210.654 1077.73 3794.42
211.237 1076.39 3794.2
212.787 1073.43 3788.31
212.814 1073.12 3785.69
213.014 1073.05 3784.44
212.876 1073.17 3784.88
213.544 1073.4 3783.17
212.506 1074.69 3792.39
212.685 1074.43 3791.37
214.027 1073.75 3781.85
214.106 1073.72 3781.32
214.192 1073.7 3780.3
214.046 1074.23 3776.7
213.663 1075.58 3774.45
213.79 1076.3 3772.92
212.099 1075.17 3793.46
212.244 1075.11 3793.19
211.89 1075.45 3793.71
211.879 1075.33 3793.78
212.355 1075.04 3792.81
216.98 1112.96 3797.66
218.657 1117.28 3789
218.321 1117.51 3786.33
217.584 1116.23 3785.69
219.747 1119.7 3785.84
232.082 1132.18 3794.19
228.113 1129.02 3793.88
223.783 1124.81 3788.71
221.4 1121.96 3785.73
220.457 1114.68 3797.7
219.839 1114.46 3797.84
220.807 1114.82 3797.64
218.679 1113.91 3797.88
220.841 1114.95 3797.27
220.652 1116.44 3796.53
220.729 1115.92 3797.08
220.138 1116.89 3794.47
218.496 1116.56 3789.3
220.756 1115.36 3797.12
220.818 1114.92 3796.97
208.704 1102.61 3784.19
211.498 1108.01 3789.48
213.876 1110.06 3792.77
210.793 1106.77 3787.62
210.08 1105.18 3785.87
209.366 1103.63 3784.37
209.03 1102.98 3784.02
208.036 1100.67 3784.25
208.004 1100.54 3784.32
208.263 1101.25 3783.88
208.372 1101.61 3783.91
208.187 1100.87 3783.9
208.103 1100.77 3784.06
208.085 1100.65 3784.11
208.633 1102.34 3784.08
208.607 1101.93 3783.82
208.245 1099.7 3784.84
208.399 1099.49 3785.16
208.143 1099.9 3784.62
208.014 1100.4 3784.28
207.984 1100.26 3784.54
208.051 1100.11 3784.51
211.017 1097.1 3784.24
211.116 1097.39 3783.62
211.221 1097.63 3782.97
211.156 1098.29 3782.28
211.111 1098.19 3782.63
209.509 1098.41 3785.04
210.664 1097.4 3784.45
208.486 1099.39 3784.99
211.035 1094.94 3775.81
211.469 1093.93 3777.81
211.104 1093.87 3775.35
211.049 1094.25 3774.84
211.036 1093.9 3774.56
211.147 1098.99 3781.71
211.216 1098.95 3781.35
211.391 1098.52 3780.33
211.214 1096.84 3778.24
211.316 1099.1 3780.98
211.367 1092.2 3782.58
209.891 1089.66 3782.24
208.013 1086.03 3780.08
209.784 1089.38 3781.47
207.503 1085.03 3780.15
207.273 1084.23 3780.19
211.619 1092.27 3781.78
207.247 1083.5 3779.66
207.218 1082.23 3779.63
207.296 1081.46 3780.13
207.245 1082.5 3779.37
207.589 1080.15 3780.74
212.27 1092.32 3780.31
212.334 1092.41 3780.11
212.501 1092.25 3779.71
211.868 1092.15 3780.99
212.041 1092.07 3780.57
212.173 1092.23 3780.45
212 1093.26 3779.57
212.198 1092.77 3779.61
212.37 1092.38 3779.51
212.522 1092.1 3779.49
208.074 1078.02 3782.41
208.323 1077.34 3783.42
208.568 1077.28 3784.42
209.71 1077.17 3787.69
210.852 1077 3790.84
211.968 1075.43 3790.18
211.757 1076.12 3791.93
211.708 1076.26 3792.47
211.694 1076.29 3792.89
211.617 1076.35 3793.25
210.684 1077.86 3794.31
210.789 1077.7 3794.13
211.519 1076.35 3793.61
211.389 1076.38 3793.94
212.739 1073.73 3788.47
212.688 1073.4 3786.17
212.712 1073.45 3785.19
213.008 1073.27 3784.38
213.544 1073.55 3783.17
212.859 1073.35 3784.61
212.473 1074.93 3792.32
212.467 1075.04 3792.02
212.642 1074.66 3791.31
214.008 1073.89 3781.93
214.041 1073.92 3781.63
214.132 1073.93 3780.57
214.024 1074.36 3777.36
213.922 1074.6 3777.57
213.383 1075.95 3775.49
213.457 1076.56 3774.02
212.035 1075.38 3793.47
212.122 1075.42 3793.25
212.219 1075.37 3792.89
212.302 1075.3 3792.57
216.708 1112.41 3796.31
218.259 1113.59 3797.5
217.491 1115.82 3786.16
218.042 1117.13 3784.73
217.437 1116.08 3784.65
217.03 1115.1 3784.75
217.048 1115.23 3784.21
219.321 1119.02 3784.12
230.207 1130.6 3793.29
230.575 1129.34 3789.22
230.688 1129.7 3790.27
225.428 1126.55 3790.1
222.558 1123.46 3786.22
220.603 1120.65 3783.97
220.438 1114.51 3797.33
220.744 1114.57 3797.36
220 1114.23 3797.27
220.936 1114.63 3797.29
219.273 1113.79 3797.24
220.93 1114.52 3797.02
220.897 1114.54 3796.88
220.634 1115.51 3796.73
220.548 1115.94 3796.25
220.709 1115.41 3796.98
219.967 1116.14 3794.26
218.209 1115.78 3788.95
217.15 1114.98 3785.73
220.778 1114.85 3796.79
220.96 1114.41 3796.68
208.83 1102.56 3783.93
213.334 1109.44 3791.36
211.599 1107.77 3788.71
210.83 1106.48 3787.05
210.183 1104.6 3784.89
209.622 1103.7 3784.15
209.279 1103.13 3783.83
209.074 1102.72 3783.73
208.076 1100.53 3784.12
208.501 1101.5 3783.66
208.339 1101.11 3783.73
208.249 1100.78 3783.81
208.341 1100.91 3783.7
208.161 1100.69 3783.93
208.162 1100.58 3783.93
208.841 1102.32 3783.76
208.755 1101.77 3783.51
208.3 1099.64 3784.72
208.281 1099.69 3784.59
208.169 1099.91 3784.47
208.037 1100.29 3784.29
208.106 1100.43 3784.08
208.079 1100.13 3784.33
210.863 1097.6 3783.91
210.92 1097.94 3783.48
211.065 1098.02 3783.06
211.071 1098.81 3782.14
211.008 1098.66 3782.51
209.36 1098.58 3784.81
208.47 1099.41 3784.82
209.263 1098.72 3784.66
210.425 1097.83 3784.23
211.063 1095.03 3775.24
211.517 1093.65 3777.32
211.167 1093.7 3775.39
211.257 1093.42 3774.57
211.212 1093.54 3774.28
211.078 1094.4 3774.39
211.154 1093.89 3773.99
211.207 1093.64 3773.93
211.253 1099.28 3781.32
211.16 1099.39 3781.6
211.112 1099.23 3781.83
211.441 1099.24 3780.5
211.389 1097.88 3778.37
211.276 1097.25 3778.16
211.362 1099.54 3781.07
211.206 1091.61 3781.8
209.728 1089.13 3780.9
208.112 1086.02 3779.57
207.628 1085.08 3779.72
207.36 1084.25 3779.73
211.603 1091.86 3781.25
207.316 1083.3 3779.33
207.278 1081.47 3779.52
207.435 1080.66 3780.01
207.351 1082.43 3779.01
207.337 1081.64 3779.17
207.769 1079.14 3780.98
212.217 1091.97 3780.27
212.376 1091.99 3780.02
212.509 1092.08 3779.8
212.596 1091.97 3779.6
211.888 1091.73 3780.58
212.054 1091.82 3780.43
212.122 1092.95 3779.06
212.422 1092.3 3779.21
212.333 1092.46 3779.02
212.535 1092.13 3779.24
213.103 1091.5 3778.78
213.097 1091.6 3778.63
208.22 1077.44 3782.7
208.673 1076.94 3784.36
208.462 1076.95 3783.43
209.983 1076.69 3787.76
211.793 1075.37 3789.31
212.501 1074.23 3788.32
212.173 1074.23 3786.68
212.486 1073.8 3786.51
212.45 1075.13 3791.67
212.271 1075.41 3792.37
212.592 1074.39 3789.6
212.556 1073.64 3785.59
212.737 1073.54 3784.71
213.512 1073.69 3783.19
212.917 1073.58 3784.33
213.992 1074 3781.55
213.914 1074.02 3782.03
213.818 1074.75 3778.25
213.992 1074.11 3781.12
213.022 1076.28 3776.47
212.771 1077.19 3775.62
212.512 1078.91 3774.32
213.125 1079.43 3771.99
213.008 1080.67 3771.3
212.915 1081.22 3771.19
212.451 1082 3771.99
213.483 1082.27 3769.6
217.53 1112.69 3796.16
214.63 1110.21 3792.34
218.785 1113.53 3797.08
217.99 1116.82 3783.77
217.181 1115.43 3783.91
216.845 1114.51 3784.55
216.847 1114.61 3783.96
216.893 1114.61 3783.54
219.173 1118.67 3783.26
228.161 1128.93 3791.56
230.16 1129.09 3789.95
228.103 1125.73 3785.17
224.031 1125.15 3787.61
222.596 1123.44 3785.48
221.511 1121.78 3784.16
220.171 1119.77 3782.85
220.787 1114.29 3797.12
220.626 1114.13 3797.07
221.009 1114.35 3797.08
220.374 1114.02 3797.07
220.048 1113.86 3797.05
219.448 1113.69 3797.04
221.192 1114.21 3796.87
221.092 1114.29 3796.81
221.224 1114.19 3796.64
220.586 1115.17 3796.47
220.732 1115.03 3796.72
220.665 1115.03 3796.58
220.446 1115.39 3795.96
218.204 1115.23 3789.16
219.759 1115.62 3793.65
217.078 1114.53 3785.85
216.752 1114.23 3784.87
220.775 1114.6 3796.51
220.906 1114.44 3796.56
221.388 1114.08 3796.46
221.218 1114.21 3796.44
212.21 1108.11 3789.02
211.65 1107.06 3787.57
210.943 1104.98 3785.05
210.463 1104.49 3784.58
209.926 1103.68 3783.89
209.54 1103.27 3783.73
209.35 1102.85 3783.55
209.115 1102.47 3783.52
208.606 1101.36 3783.5
208.487 1101.07 3783.56
208.361 1100.79 3783.68
208.282 1100.66 3783.78
208.498 1100.92 3783.54
208.204 1100.46 3783.91
208.982 1102.03 3783.4
208.949 1101.62 3783.26
208.439 1099.45 3784.64
208.303 1099.69 3784.48
208.223 1099.92 3784.33
208.119 1100.29 3784.13
208.18 1100.14 3784.15
210.597 1097.99 3783.86
210.766 1098.33 3783.35
210.933 1098.44 3782.93
211.01 1099.19 3782.16
210.902 1099.03 3782.53
209.236 1098.82 3784.49
210.212 1098.27 3784.05
211.14 1095.4 3775.17
211.16 1094.74 3774.2
211.605 1093.37 3776.92
211.234 1093.47 3775.16
211.297 1093.33 3774.8
211.35 1093.25 3774
211.389 1093.15 3774.32
211.269 1093.43 3773.93
211.194 1094.09 3773.73
211.285 1093.81 3773.46
211.238 1093.7 3773.69
211.313 1093.46 3773.63
211.175 1099.56 3781.53
211.029 1099.55 3781.86
210.994 1099.43 3782.01
211.459 1099.77 3780.89
211.516 1098.47 3778.54
211.634 1099.76 3780.27
211.281 1095.69 3774.88
211.352 1099.89 3781.28
211.24 1099.7 3781.44
211.3 1091.47 3781.32
209.982 1089.43 3780.7
208.606 1086.69 3779.31
208.169 1085.71 3779.12
207.763 1084.94 3779.28
207.542 1084.23 3779.28
211.731 1091.53 3780.64
207.39 1083.15 3779.11
207.427 1080.61 3779.54
207.559 1080.03 3779.92
207.53 1082.38 3778.72
207.446 1081.66 3778.88
207.414 1080.84 3779.21
208.025 1078.13 3781.61
212.398 1091.76 3779.98
212.488 1091.78 3779.86
212.314 1091.73 3780.08
212.583 1091.86 3779.75
213.103 1091.41 3778.9
212.051 1091.39 3780.12
212.217 1091.59 3780.1
212.201 1092.78 3778.43
212.322 1092.54 3778.67
213.074 1091.77 3778.28
213.043 1091.85 3778.08
213.027 1091.9 3777.82
213.098 1091.67 3778.47
213.628 1091.02 3777.94
213.704 1091.07 3777.55
213.638 1091.24 3777.47
208.414 1077.05 3782.87
208.887 1076.6 3784.45
208.636 1076.69 3783.5
210.483 1076.17 3788
210.47 1075.78 3786.89
211.781 1074.69 3786.95
211.861 1074.52 3786.28
212.19 1074.13 3785.8
212.437 1073.82 3785.48
213.311 1082.7 3770.18
215.417 1087.72 3770.21
215.433 1087.45 3770.57
212.606 1073.68 3784.92
212.768 1073.73 3784.37
213.464 1073.79 3783.17
213.372 1073.88 3783.19
213.865 1074.11 3781.93
213.701 1074.85 3778.72
213.887 1074.21 3781.43
212.921 1076.18 3777.12
212.453 1077.08 3776.68
211.88 1079.36 3775.92
211.808 1081.18 3774.01
211.726 1081.71 3773.8
211.627 1082.22 3773.81
212.056 1082.64 3772.8
211.13 1083.22 3774.8
212.449 1082.67 3772.02
216.746 1111.62 3794.3
218.575 1113.1 3796.45
213.593 1109.05 3790.31
219.465 1113.54 3796.79
217.374 1115.6 3783.44
218.537 1117.21 3782.78
216.954 1114.54 3783.13
216.77 1114.32 3783.84
216.734 1114.18 3783.96
216.818 1114.28 3783.39
216.914 1114.32 3783.1
219.715 1118.86 3782.28
229.546 1128.32 3789.27
226.373 1127.25 3789.36
227.982 1125.59 3785.44
224.53 1121.22 3779.5
224.811 1121.65 3780.75
223.468 1124.47 3786.24
222.379 1122.95 3784.7
221.207 1120.87 3782.83
220.41 1119.78 3782.34
221.013 1114.18 3796.99
221.139 1114.16 3796.95
221.069 1114.09 3796.92
220.883 1114.06 3796.96
221.301 1114.1 3796.86
220.641 1113.95 3796.96
220.119 1113.73 3796.86
221.486 1113.99 3796.71
221.403 1114.06 3796.65
221.619 1113.9 3796.45
220.622 1114.75 3796.26
220.565 1114.87 3796.16
220.738 1114.62 3796.37
220.459 1114.88 3795.67
217.991 1114.65 3788.51
217.111 1114.21 3786.02
219.896 1114.94 3793.73
218.31 1114.5 3789.26
216.839 1113.88 3785.03
216.674 1114.01 3784.16
221.083 1114.31 3796.37
221.009 1114.32 3796.26
221.771 1113.73 3796.21
221.544 1113.92 3796.25
221.413 1113.99 3796.2
212.708 1107.84 3788.44
212.507 1105.48 3785.45
212.064 1104.27 3784.01
210.35 1103.87 3783.89
211.636 1103.58 3783.3
210.099 1103.37 3783.49
209.727 1103.19 3783.51
209.625 1102.87 3783.35
209.406 1102.53 3783.3
209.223 1102.19 3783.24
208.805 1101.32 3783.31
208.731 1101.06 3783.35
208.443 1100.75 3783.59
208.317 1100.53 3783.76
208.722 1100.88 3783.35
208.205 1100.31 3783.98
209.218 1101.86 3783.13
209.19 1101.53 3783.07
208.457 1099.48 3784.49
208.394 1099.69 3784.32
208.331 1099.94 3784.13
208.29 1100.15 3783.98
210.413 1098.41 3783.73
210.554 1098.69 3783.35
210.773 1098.83 3782.93
210.8 1099.43 3782.37
210.728 1099.32 3782.63
209.19 1098.93 3784.36
209.249 1099.03 3784.19
211.242 1094.9 3773.96
211.326 1094.28 3773.43
211.763 1093.12 3776.87
211.436 1093.15 3774.91
211.482 1093 3773.95
211.514 1093.07 3773.52
211.4 1093.28 3773.54
211.465 1093.06 3774.48
211.578 1092.91 3774.35
211.357 1094 3773.27
211.336 1093.57 3773.41
211.451 1093.73 3773.07
211.424 1093.4 3773.28
211.512 1093.29 3773.19
211.13 1099.94 3781.75
210.829 1099.66 3782.23
211.004 1099.91 3781.96
211.577 1100.09 3780.89
211.649 1098.68 3778.09
211.783 1100.19 3780.27
211.879 1099.36 3778.31
211.642 1096.74 3775.04
211.484 1095.36 3773.8
211.459 1100.39 3781.38
211.277 1100.15 3781.57
211.372 1091.23 3780.84
210.159 1089.54 3780.42
208.988 1087.09 3779.13
208.697 1086.28 3778.79
208.32 1085.38 3778.66
207.983 1084.67 3778.77
207.652 1083.98 3778.96
211.675 1091.2 3780.38
211.959 1091.15 3780.04
207.565 1082.85 3778.74
207.548 1080.14 3779.59
207.545 1080.29 3779.33
207.814 1079.01 3780.48
207.651 1082.02 3778.51
207.496 1081.17 3778.81
207.51 1080.64 3779.01
208.314 1077.39 3782.21
212.954 1091.09 3779.07
213.014 1091.21 3779.05
213.071 1091.32 3778.99
212.894 1090.97 3779.09
213.574 1090.95 3778.18
212.815 1090.86 3779.11
212.731 1090.75 3779.13
212.309 1092.64 3778
212.937 1092.02 3777.5
213.721 1091.26 3776.95
213.742 1091.27 3776.46
213.565 1091.46 3776.28
213.657 1091.37 3776.3
213.881 1090.75 3777.23
213.809 1090.73 3777.56
213.885 1090.83 3776.9
213.814 1091.05 3776.93
208.655 1076.73 3782.92
209.155 1076.26 3784.4
208.76 1076.53 3783.45
210.534 1075.53 3786.19
211.92 1074.39 3785.24
210.749 1075.25 3785.63
212.153 1074.18 3785.19
212.45 1073.91 3784.83
212.587 1073.78 3784.67
213.498 1083.2 3769.99
211.871 1083.55 3773.36
212.528 1083.56 3772.19
215.368 1087.24 3770.65
215.563 1087.71 3770.93
215.433 1087.76 3771.04
215.385 1087.56 3771.26
215.286 1088.3 3769.96
213.295 1073.97 3783.18
212.665 1073.88 3784.27
213.774 1074.22 3781.9
213.596 1074.89 3779.31
212.694 1076.14 3777.73
212.273 1076.82 3777.37
213.43 1075.02 3779.48
212.015 1077.44 3777.16
211.564 1079.65 3776.45
211.165 1081.97 3775.34
210.999 1082.66 3775.27
211.113 1083.71 3774.8
210.706 1083.1 3775.62
210.621 1083.46 3775.58
218.158 1112.28 3795.09
214.754 1109.59 3791.18
219.241 1113.24 3796.46
219.864 1113.36 3796.46
220.209 1113.6 3796.65
217.323 1115.12 3782.88
220.116 1117.73 3780.62
219.2 1116.51 3781.06
217.156 1114.41 3782.65
217.085 1114.29 3782.72
216.794 1114.09 3783.35
216.736 1113.89 3783.58
216.941 1114.14 3782.95
220.509 1118.43 3780.73
229.132 1127.87 3788.88
227.181 1124.69 3784.66
227.95 1127.58 3788.89
223.939 1124.77 3786.23
225.422 1122.53 3781.99
222.68 1119.13 3778.45
222.507 1118.54 3777.34
222.816 1118.86 3776.3
222.929 1119.69 3779.49
222.787 1123.32 3784.73
221.855 1121.78 3783.38
221.392 1119.67 3781.14
220.941 1119.14 3780.99
221.215 1114.04 3796.85
221.42 1113.96 3796.74
221.144 1113.96 3796.82
221.259 1113.94 3796.78
221.046 1113.98 3796.86
220.805 1113.89 3796.84
221.72 1113.82 3796.51
221.659 1113.82 3796.59
221.985 1113.61 3796.32
221.943 1113.6 3796.21
220.678 1114.47 3795.82
220.904 1114.21 3795.92
220.749 1114.4 3795.93
220.953 1114.28 3796.11
220.721 1114.26 3795.32
217.218 1113.77 3786.22
217.029 1113.68 3785.62
220.23 1114.23 3793.88
218.384 1114.2 3789.22
216.787 1113.69 3784.63
216.724 1113.7 3783.91
221.373 1113.92 3796.04
221.318 1113.87 3795.9
221.852 1113.5 3795.93
222.295 1112.74 3795.73
222.32 1112.71 3795.65
221.762 1113.48 3795.8
213.534 1106.57 3786.82
215.274 1108.21 3789.21
215.383 1106.11 3786.05
214.18 1104.65 3784.04
213.184 1103.43 3782.7
211.303 1103.26 3783.07
212.562 1103.02 3782.46
209.994 1102.97 3783.23
211.043 1102.89 3782.85
209.694 1102.61 3783.17
209.523 1102.23 3783.08
209.044 1101.27 3783.13
209.005 1101.04 3783.15
208.496 1100.63 3783.57
208.295 1100.31 3783.85
208.389 1100.44 3783.7
209.048 1100.88 3783.12
208.745 1100.7 3783.36
209.501 1101.86 3782.96
209.434 1101.57 3782.95
208.51 1099.7 3784.14
208.427 1099.97 3783.94
208.417 1100.15 3783.81
210.205 1098.69 3783.72
210.365 1099.01 3783.34
210.61 1099.15 3782.96
210.65 1099.69 3782.55
210.485 1099.47 3782.86
209.245 1099.12 3784.1
211.527 1094.44 3773.05
211.574 1094.85 3773.18
211.492 1094.17 3773.01
211.627 1092.9 3774.87
211.933 1092.85 3776.49
211.638 1092.89 3773.57
211.678 1092.8 3773.92
211.605 1093.12 3773.15
212.196 1092.7 3772.59
211.798 1092.67 3774.25
211.495 1093.96 3772.96
211.537 1093.53 3772.95
212.195 1093.77 3772
212.192 1094.09 3771.96
211.63 1093.34 3772.88
212.208 1093 3772.32
211.184 1100.4 3781.79
211.018 1100.27 3782
210.878 1100.04 3782.17
210.748 1100.07 3782.34
211.612 1100.54 3781.18
211.793 1100.73 3780.99
212.036 1100.75 3780.41
212.134 1099.78 3778.13
213.241 1098.44 3773.09
212.765 1096.55 3772.07
212.461 1095.62 3771.96
211.372 1100.6 3781.61
211.589 1100.86 3781.46
211.419 1090.83 3780.28
210.321 1089.49 3780.08
209.342 1087.32 3778.89
210.378 1089.17 3779.64
210.229 1086.66 3777.42
209.875 1085.93 3777.23
209.485 1085.34 3777.33
209.199 1084.69 3777.38
207.808 1083.74 3778.63
211.806 1090.97 3780.06
212.632 1090.61 3779.13
207.788 1082.79 3778.43
207.63 1079.79 3779.62
207.635 1080.01 3779.22
208.13 1078.25 3780.97
207.849 1082.21 3778.29
207.631 1081.43 3778.51
207.606 1080.97 3778.68
207.626 1080.51 3778.82
207.57 1080.32 3778.99
208.493 1077.13 3782.22
213.561 1090.74 3778.22
213.523 1090.59 3778.22
213.551 1090.86 3778.24
213.436 1090.43 3778.27
213.744 1090.64 3777.76
213.329 1090.25 3778.26
213.202 1090.2 3778.35
213.107 1091.84 3775.99
213.619 1091.31 3774.84
214.058 1090.65 3774.97
213.906 1090.99 3776.29
213.942 1090.92 3775.11
213.896 1091.1 3776.03
213.787 1091.13 3775.07
213.94 1090.49 3777.12
214.164 1090.01 3775.44
214.167 1090.18 3775.22
213.875 1090.39 3777.31
214.166 1090.37 3775.12
208.859 1076.57 3782.78
209.009 1076.33 3783.22
209.207 1076.15 3783.91
210.725 1075.19 3784.99
210.778 1075.12 3784.39
211.966 1074.34 3784.64
212.232 1074.17 3784.45
212.363 1074.01 3784.65
212.552 1074.01 3784.24
213.252 1083.67 3770.94
214.613 1085.37 3769.9
210.901 1084.33 3775.18
212.498 1084.18 3772.6
211.226 1084.74 3774.86
215.307 1086.99 3770.5
215.298 1087.3 3771.27
215.399 1088.2 3770.7
215.396 1088.31 3771.02
215.436 1088.12 3771.24
215.434 1087.95 3771.5
215.267 1087.64 3771.72
215.349 1087.8 3771.64
215.269 1088.52 3770.49
213.716 1091.17 3769.47
213.497 1092.32 3769.63
213.502 1091.77 3770.19
213.453 1092.09 3770.05
213.236 1074.08 3783.11
213.657 1074.35 3781.79
213.329 1075.04 3779.81
212.444 1075.94 3778.57
212.114 1076.45 3778.23
211.814 1076.74 3778.24
211.625 1077.13 3778.07
211.241 1079.49 3777.06
211.005 1078.6 3778
210.809 1082.26 3775.86
210.244 1083.98 3776.04
210.488 1082.72 3776.08
210.307 1083.18 3776.14
210.081 1083.61 3776.29
219.77 1112 3794.85
219.607 1113.04 3796.15
217.802 1110.47 3792.68
220.513 1113.69 3796.42
220.615 1112.62 3795.71
220.954 1113.88 3796.54
218.55 1115.33 3781.25
221.465 1117.91 3778.72
221.293 1117.33 3778.21
220.871 1116.64 3778.41
218.798 1114.67 3780.58
217.399 1114.27 3782.28
217.181 1114.01 3782.52
216.822 1113.74 3783.14
216.912 1113.86 3782.92
216.773 1113.57 3783.47
217.107 1113.67 3782.57
221.774 1118.64 3779.46
226.993 1124.56 3784.74
224.212 1121.33 3781.27
226.604 1126.26 3787.35
223.603 1124.11 3785.26
222.032 1118.57 3778.8
221.973 1117.87 3777.6
221.9 1117.59 3776.56
222.369 1119.41 3779.86
221.796 1117.07 3774.13
222.772 1121.56 3782.49
221.839 1120.29 3781.49
222.797 1120.09 3780.56
221.442 1113.86 3796.67
221.624 1113.78 3796.57
221.184 1113.85 3796.7
221.285 1113.8 3796.69
221.394 1113.77 3796.64
221.542 1113.7 3796.55
221.106 1113.86 3796.63
221.939 1113.61 3796.37
221.829 1113.63 3796.42
222.227 1112.81 3795.77
222.23 1112.78 3795.86
220.897 1114.09 3795.61
220.951 1113.88 3795.26
220.823 1114.15 3795.44
221.165 1113.76 3795.51
221.205 1113.91 3795.83
221.358 1113.61 3795.53
220.944 1113.8 3795
217.336 1113.41 3786.16
217.002 1113.44 3785.31
220.195 1113.85 3793.19
218.547 1113.85 3789.19
221.024 1113.51 3794.58
216.814 1113.44 3784.45
216.805 1113.38 3783.96
221.69 1113.42 3795.62
221.606 1113.4 3795.49
222.336 1112.69 3795.57
222.492 1112.32 3795.64
222.734 1112.18 3795.43
222.794 1112.23 3795.62
222.34 1112.67 3795.47
222.332 1112.66 3795.37
217.68 1108.45 3789.68
216.85 1106.87 3786.95
214.323 1104.23 3783.25
213.045 1102.99 3782.11
212.214 1102.66 3782.28
212.594 1102.64 3782.01
210.718 1102.59 3782.77
211.796 1102.38 3782.28
210.5 1102.29 3782.7
210.388 1102 3782.62
209.309 1101.32 3783.01
209.854 1101.06 3782.74
208.576 1100.45 3783.53
208.482 1100.27 3783.67
209.76 1100.87 3782.81
208.972 1100.65 3783.2
209.67 1100.67 3782.9
210.285 1101.75 3782.6
210.126 1101.53 3782.63
208.602 1099.77 3783.94
208.612 1099.97 3783.77
208.654 1100.1 3783.63
210.031 1098.99 3783.62
210.089 1099.31 3783.32
210.303 1099.38 3783.1
210.613 1100.01 3782.47
210.505 1099.73 3782.7
210.312 1099.65 3782.88
209.295 1099.29 3783.89
212.292 1095.03 3771.96
212.209 1094.62 3771.94
212.168 1094.37 3771.99
211.839 1092.68 3774.72
212.53 1092.24 3775.44
212.256 1092.45 3773.08
212.235 1092.57 3772.76
212.289 1092.37 3773.49
212.192 1092.85 3772.44
212.84 1092.53 3771.74
213.034 1092.19 3771.86
212.96 1092.1 3772.19
212.417 1092.24 3773.98
212.224 1093.44 3772.09
212.973 1093.68 3770.74
212.869 1093.26 3771.19
212.886 1094.29 3770.82
212.219 1093.2 3772.21
212.941 1092.59 3771.39
212.787 1092.97 3771.53
211.039 1100.46 3781.99
211.219 1100.67 3781.83
210.881 1100.3 3782.17
210.74 1100.35 3782.26
211.826 1101.01 3781.24
212.038 1101.1 3780.9
212.358 1101.19 3780.32
212.437 1100.27 3778.1
214.282 1100.1 3772.65
215.21 1099.83 3769.87
214.626 1097.78 3768.69
213.837 1096.15 3769.31
213.404 1095.31 3769.89
211.409 1101.01 3781.75
211.711 1101.31 3781.58
211.561 1090.63 3779.99
211.259 1088.47 3778.22
212.388 1088.14 3776.82
213.016 1086.22 3773.6
212.839 1087.98 3775.99
211.543 1085.17 3774.67
212.897 1085.02 3772.62
208.938 1083.98 3777.49
212.454 1090.39 3779.11
213.079 1090.08 3778.38
208.737 1083.29 3777.61
207.74 1079.46 3779.69
207.654 1080.13 3778.93
207.786 1079.69 3779.29
208.312 1078.03 3780.9
207.814 1081.73 3778.3
207.743 1081.16 3778.44
207.751 1080.72 3778.6
207.783 1080.31 3778.69
208.726 1076.98 3781.98
213.678 1090.47 3777.87
213.564 1090.22 3777.89
213.512 1090.04 3777.82
213.822 1090.28 3777.38
213.419 1089.92 3777.83
213.279 1089.88 3777.97
213.23 1091.64 3772.89
213.521 1091.29 3772.16
214.661 1089.47 3771.87
214.327 1089.84 3773.3
214.837 1089.13 3771.92
214.14 1090.3 3771.69
214.116 1089.84 3775.6
214.422 1089.2 3773.65
214.403 1089 3773.72
214.418 1089.41 3773.51
214.398 1089.56 3773.34
214.052 1089.63 3775.65
209.246 1076.37 3782.34
209.158 1076.28 3782.86
209.471 1075.96 3783.49
209.612 1075.91 3783.02
210.891 1075.08 3783.84
212.163 1074.33 3784.11
212.956 1074.3 3783.08
213.141 1074.2 3783.03
213.549 1084.11 3770.72
213.245 1084.27 3771.52
214.536 1085.55 3770.56
215.115 1087 3771.46
215.217 1087.06 3771.26
215.265 1086.95 3770.76
215.189 1087.42 3771.73
215.339 1088.47 3770.93
214.917 1088.78 3772.24
214.867 1088.97 3772.12
214.941 1088.61 3772.39
214.925 1088.44 3772.49
214.853 1088.15 3772.65
214.903 1088.3 3772.56
215.085 1088.84 3770.23
214.473 1089.65 3769.89
213.881 1090.64 3769.58
213.523 1091.43 3770.93
213.404 1091.78 3770.84
213.352 1092.63 3770.22
213.458 1093.12 3769.59
213.359 1092.06 3770.67
213.356 1092.27 3770.48
213.039 1075.12 3780.19
212.386 1075.66 3779.28
210.967 1076.03 3780.42
210.638 1076.41 3780.21
209.836 1077.18 3780.13
210.744 1076.92 3779.45
210.518 1077.34 3779.41
210.69 1081.84 3776.25
210.715 1080.13 3777.4
210.12 1082.77 3776.51
210.399 1082.17 3776.44
209.847 1083.34 3776.63
220.31 1112.38 3795.41
220.968 1111.74 3794.71
220.483 1111.04 3793.53
221.151 1113.17 3796.04
220.908 1112.89 3795.95
221.407 1112.14 3795.34
221.263 1111.86 3794.92
221.25 1113.16 3796.1
220.696 1115.9 3778.27
221.531 1117.25 3777.4
221.229 1116.59 3777.48
218.115 1114.31 3781.48
220.825 1115.41 3777.89
220.61 1115.03 3778.16
220.002 1114.06 3778.61
218.955 1113.61 3780.05
217.989 1113.85 3781.55
218.126 1113.48 3781.21
218.112 1113.21 3781.21
216.89 1113.41 3783.09
217.009 1113.49 3782.78
216.874 1113.22 3783.48
217.95 1113.06 3781.46
225.723 1123.39 3783.71
224.583 1122 3782.17
226.271 1125.58 3786.47
223.563 1122.82 3783.65
221.589 1116.99 3776.68
221.575 1116.72 3775.9
221.715 1113.6 3796.45
221.34 1113.12 3796.15
221.43 1113.09 3796.19
221.539 1113.04 3796.16
221.644 1113.02 3796.1
221.769 1113.03 3796.05
222.157 1112.85 3795.94
222.006 1112.96 3795.98
222.356 1112.33 3795.57
222.216 1112.35 3795.49
221.173 1113.62 3795.21
221.178 1113.46 3794.85
221.443 1113.3 3795.13
221.556 1113.24 3795.17
221.644 1113.21 3795.26
217.504 1113.13 3786.15
217.153 1113.2 3785.37
216.948 1113.19 3784.63
218.714 1113.48 3789.04
220.358 1113.48 3792.7
220.947 1113.34 3794.05
221.29 1113.22 3794.33
216.96 1113.08 3783.98
222.312 1112.65 3795.25
222.308 1112.63 3795.13
222.994 1112.13 3795.37
222.739 1112.09 3795.17
223.032 1111.97 3795
223.02 1112.05 3795.23
223.169 1112 3794.94
219.881 1110.13 3792.07
217.018 1106.47 3785.96
219.998 1109.87 3791.46
215.308 1104.51 3782.94
213.567 1103.07 3781.78
213.009 1102.68 3781.63
212.158 1102.36 3782.06
212.399 1102.23 3781.74
212.718 1102.34 3781.5
211.481 1102.13 3782.28
211.843 1102.13 3782.08
211.283 1101.82 3782.21
211.061 1101.54 3782.25
210.002 1101.33 3782.67
210.565 1100.96 3782.43
210.419 1100.52 3782.51
210.582 1100.63 3782.38
208.832 1100.43 3783.35
208.697 1100.24 3783.51
209.564 1100.44 3783.02
210.319 1100.34 3782.62
210.816 1101.24 3782.33
209.336 1099.53 3783.65
209.385 1099.73 3783.48
209.479 1099.94 3783.3
210.096 1099.6 3783.09
210.437 1099.93 3782.64
210.585 1100.24 3782.41
210.211 1099.86 3782.88
213.238 1094.88 3770.07
213.07 1094.52 3770.38
213.103 1091.83 3772.45
213.111 1092.29 3771.42
213.216 1091.86 3771.92
213.244 1091.93 3771.52
213.287 1093.21 3770.12
213.241 1093.75 3770.04
213.166 1092.94 3770.62
213.018 1092.74 3771.1
213.225 1092.44 3770.78
211.026 1100.73 3782.05
210.857 1100.52 3782.15
211.256 1101 3781.9
212.015 1101.33 3781.2
212.304 1101.46 3780.85
212.762 1101.72 3780.36
212.869 1100.78 3777.91
214.977 1101.18 3772.89
215.885 1101.53 3770.82
211.487 1101.31 3781.78
212.059 1101.65 3781.41
211.79 1101.65 3781.72
212.147 1090.02 3779.04
212.861 1089.76 3778.27
213.083 1089.59 3777.87
213.308 1088.64 3776.17
213.615 1087.61 3774.16
214.087 1087.12 3773.05
214.153 1085.8 3771.67
208.702 1082.7 3777.65
207.882 1079.88 3778.93
207.942 1079.45 3779.35
208.215 1078.56 3780.22
208.998 1076.97 3781.48
207.874 1081.42 3778.26
207.894 1080.96 3778.37
207.935 1080.52 3778.47
207.978 1080.17 3778.63
213.714 1090.17 3777.57
213.815 1089.35 3776.11
213.731 1089.03 3775.88
213.947 1089.49 3775.87
213.555 1088.8 3775.93
213.409 1091.59 3771.54
214.358 1088.82 3773.81
214.24 1088.62 3773.94
209.324 1076.5 3781.83
209.714 1075.92 3782.65
209.463 1076.16 3782.36
209.766 1076.06 3782.04
211.095 1075.08 3783.28
212.659 1074.82 3781.93
212.911 1074.4 3782.93
212.367 1074.26 3783.96
214.424 1085.72 3771.1
214.921 1087 3771.84
215.043 1087.26 3771.86
214.722 1087.97 3772.79
213.257 1092.09 3771.13
213.456 1094.22 3769.49
211.188 1075.74 3780.8
208.787 1078.28 3779.97
209.966 1077.52 3779.87
210.499 1079.33 3778.16
210.3 1081.61 3776.89
209.692 1082.9 3776.9
210.028 1082.31 3776.79
221.208 1111.58 3794.4
221.182 1111.24 3793.71
221.502 1112.17 3795.37
221.522 1111.87 3794.94
221.512 1111.62 3794.44
221.568 1112.22 3795.41
221.126 1115.96 3777.45
221.396 1116.52 3776.84
220.943 1115.02 3777.69
221.083 1115.43 3777.42
220.732 1114.48 3777.89
220.139 1113.63 3778.34
219.407 1113.15 3779.08
219.035 1113.2 3779.84
219.348 1112.89 3779.13
219.335 1112.6 3779.16
217.52 1112.86 3782.24
217.074 1113.05 3783.03
217.893 1112.86 3781.61
217.104 1112.93 3783.19
219.095 1112.44 3779.63
221.524 1116.5 3775.83
221.942 1112.99 3796
221.632 1112.26 3795.44
221.664 1112.33 3795.52
221.748 1112.33 3795.5
221.817 1112.36 3795.53
221.885 1112.43 3795.58
222.073 1112.37 3795.48
222.522 1112.15 3795.19
222.345 1112.16 3795.17
221.408 1113.24 3794.87
221.382 1113.19 3794.54
222.419 1112.55 3794.53
222.543 1112.52 3794.8
222.397 1112.58 3794.99
217.202 1113.01 3785.04
217.437 1112.84 3785.43
217.687 1112.74 3785.76
217.121 1112.92 3784.61
217.213 1112.81 3784.1
218.886 1113.02 3788.5
221.244 1112.89 3792.77
220.101 1112.46 3789.22
221.714 1112.76 3793.51
221.824 1112.79 3793.97
217.202 1112.8 3783.43
223.255 1111.92 3794.56
223.222 1111.98 3794.61
223.305 1111.85 3794.55
223.214 1111.92 3794.85
222.824 1111.96 3794.85
223.08 1111.87 3794.71
223.299 1111.82 3794.64
223.336 1111.76 3794.49
223.226 1111.87 3794.32
218.593 1107.68 3787.42
219.857 1109.36 3790.41
221.52 1111.05 3793.13
221.473 1111.3 3793.7
216.762 1105.34 3783.06
214.054 1103 3781.05
213.16 1102.46 3781.13
212.054 1101.98 3781.77
212.391 1101.89 3781.33
212.703 1101.99 3781.01
211.68 1101.89 3781.98
211.486 1101.6 3781.93
211.243 1101.35 3782.04
211.002 1101.1 3782.2
210.764 1100.82 3782.28
209.516 1100.2 3783.14
210.302 1100.14 3782.71
213.408 1102.2 3780.27
213.531 1101.37 3777.69
215.797 1102.52 3774.28
216.381 1102.63 3772.21
216.823 1102.98 3770.61
214.345 1087.41 3772.98
208.712 1082.22 3777.69
208.051 1079.67 3779
208.047 1081.24 3778.17
208.099 1080.86 3778.24
208.151 1080.39 3778.42
208.103 1079.96 3778.71
214.132 1088.4 3774
214.528 1087.7 3772.91
210.119 1075.76 3782.26
211.707 1075.18 3781.96
208.775 1078.65 3779.64
210.185 1078.83 3778.79
210.208 1080.82 3777.4
209.864 1081.93 3777.1
209.561 1082.38 3777.19
221.695 1111.94 3795.04
221.747 1111.7 3794.62
221.956 1111.55 3794.13
221.781 1111.98 3795.07
221.192 1115.72 3777.17
221.354 1116.08 3776.74
221.181 1115.05 3777.26
221.251 1113.12 3777.34
221.396 1113.88 3777.15
221.31 1115.51 3776.77
221.33 1115.13 3776.86
221.127 1113.19 3777.47
220.462 1113.1 3777.99
219.623 1112.89 3778.73
219.608 1112.65 3778.76
219.463 1112.34 3779.01
218.374 1112.27 3781.07
219.066 1112.13 3779.8
218.04 1112.3 3781.76
219.262 1112.17 3779.37
217.622 1112.43 3782.7
221.078 1110.23 3773.7
221.485 1116.17 3774.98
221.484 1116.16 3775.89
221.643 1111.58 3774.45
221.863 1112.62 3774.5
221.845 1112.05 3795.13
221.94 1112.09 3795.16
222.029 1112.15 3795.22
222.095 1112.22 3795.3
222.608 1111.99 3794.91
222.324 1112.03 3795.01
222.005 1112.74 3794.29
222.779 1112.15 3793.84
222.913 1112.07 3794.02
223.105 1112.03 3794.3
217.352 1112.73 3784.86
217.938 1112.41 3785.36
