332.98 761.557 2013.9
332.439 762.838 2014.06
332.56 762.075 2013.44
332.773 761.996 2013.94
332.971 760.192 2013.65
333.02 760.667 2013.66
333.014 760.863 2013.55
332.977 761.035 2013.38
332.992 760.439 2013.51
332.933 759.981 2013.57
332.965 760.259 2013.41
332.977 760.232 2013.26
333.057 760.212 2012.99
333.015 760.309 2013.1
333.059 760.394 2012.83
332.958 760.839 2012.87
332.989 760.678 2012.98
332.712 761.389 2012.47
332.918 761.059 2012.79
332.548 762.359 2011.48
332.832 762.088 2010.61
332.416 762.418 2011.96
332.382 762.272 2012.2
333.737 761.898 2008.38
334.063 761.275 2007.93
332.395 762.121 2012.6
332.429 762.044 2012.69
332.333 762.259 2012.56
334.145 761.154 2007.67
333.987 759.369 2008.14
333.846 758.718 2006.71
334.294 761.628 2007.07
334.015 759.815 2008.27
333.687 759.023 2003.64
334.151 759.276 2000.38
334.354 759.032 2000.26
334.342 758.552 2000.78
334.008 759.488 2000.71
334.549 758.455 2000.59
334.804 758.329 2000.38
333.688 759.658 2002.64
333.66 759.685 2002.41
333.672 759.689 2002.16
333.728 759.75 2001.81
333.829 759.63 2001.34
335.116 758.112 2000.16
335.331 758.606 1999.25
334.99 758.83 1999.58
336.81 757.836 1998.2
336.805 756.844 2000
337.168 757.138 1998.9
338.38 757.525 1996.06
337.527 755.652 1999.75
337.172 756.594 1999.63
337.245 756.887 1999.15
337.964 756.781 1998.03
337.417 756.277 1999.53
337.489 756.064 1999.57
337.99 756.56 1998.26
337.539 755.811 1999.61
351.3 752.183 1985.06
349.782 752.388 1986.36
348.902 751.96 1986.63
348.085 751.779 1987.28
348.42 751.696 1986.87
349.39 751.576 1985.81
348.733 751.146 1985.85
348.344 750.867 1985.93
347.863 749.939 1985.53
348.023 750.698 1986.16
347.58 749.788 1985.89
347.691 749.875 1985.76
339.367 756.785 1992.29
339.404 756.642 1992.43
339.328 756.889 1992.21
339.403 756.029 1991.66
339.426 756.542 1992.59
339.105 757.186 1992.08
338.993 757.293 1992.06
338.713 757.141 1991.12
339.227 757.485 1993.14
339.291 757.43 1993.24
339.352 757.312 1993.22
338.685 757.55 1992.08
337.8 757.605 1990.93
338.255 757.736 1992.01
338.525 757.628 1992.03
336.945 757.997 1991.19
335.849 758.671 1992.08
334.377 759.636 1992.89
333.557 760.135 1992.06
333.032 760.412 1992.57
320.975 761.872 1986.91
323.783 760.266 1990.32
321.421 760.233 1990.04
320.727 760.361 1989.75
320.57 760.974 1988.66
320.277 761.643 1987.54
321.5 760.141 1990.58
320.895 762.048 1985.81
320.093 762.001 1986.54
318.787 762.066 1986.34
347.425 751.37 1987.69
347.641 751.341 1987.43
347.921 751.456 1987.21
347.254 751.352 1987.95
347.028 751.101 1988.44
347.081 750.992 1988.25
347.144 751.003 1987.97
347.216 751.047 1987.83
347.103 750.939 1988.08
319.92 762.026 1985.58
318.682 761.95 1985.24
316.855 760.741 1983.12
318.458 761.631 1984.4
314.62 761.018 1983.51
316.104 762.072 1985.36
324.437 759.395 1983.01
322.431 759.017 1982.39
322.936 758.995 1982.53
321.092 758.525 1981.87
319.636 758.311 1981.34
320.38 758.16 1981.5
318.944 758.617 1981.31
324.591 758.142 1983.06
324.403 757.067 1983.02
323.826 756.5 1982.8
317.465 759.573 1981.86
318.053 758.994 1981.38
323.413 756.372 1982.65
321.709 756.254 1981.5
321.655 756.107 1981.38
320.944 756.793 1981.04
320.667 756.868 1980.87
322.644 755.985 1982.17
321.868 756.393 1981.68
322.956 756.299 1982.42
320.201 756.797 1980.39
320.256 756.921 1980.59
317.31 759.66 1976.54
317.565 759.619 1976.23
317.741 759.511 1976.07
317.835 759.565 1975.81
316.771 758.917 1980.29
317.489 758.611 1980.31
315.961 759.215 1980.71
314.615 759.421 1980.53
314.526 759.489 1980.87
314.351 759.452 1980.21
313.286 759.646 1979.87
310.902 759.879 1979.95
310.428 760.027 1979.73
310.913 760.137 1979.36
311.045 760.286 1979.08
315.202 760.475 1977.54
315.893 760.321 1977.28
316.621 760.976 1976.36
316.229 761.099 1976.52
316.871 760.88 1976.25
314.271 760.596 1977.83
313.751 760.393 1978.24
310.485 760.473 1978.96
317.841 758.492 1980.47
318.875 757.769 1980.42
347.486 750.078 1986.36
347.186 750.389 1987.35
347.12 750.335 1987.51
347.296 750.493 1987.18
337.808 754.674 1999.07
337.635 755.66 1999.45
337.725 755.52 1999.29
337.959 754.634 1998.78
338.632 753.409 1997.64
339.387 753.729 1996.41
339.377 752.728 1996.31
339.54 752.559 1995.94
339.669 752.405 1995.59
339.687 752.257 1995.45
339.708 752.373 1995.32
339.708 752.278 1995.18
339.721 752.438 1995.01
339.705 752.356 1994.7
339.562 752.882 1993.57
339.413 754.3 1992.72
339.375 755.131 1992.15
298.197 772.032 2026.07
295.983 771.788 2024.15
296.174 770.924 2021.86
296.114 770.34 2020.1
301.057 769.3 2020.17
304.269 768.587 2019.74
305.3 768.749 2020.61
304.855 768.439 2019.7
309.063 769.586 2023.3
307.743 769.324 2022.39
307.931 769.258 2022.44
309.48 769.327 2023.68
309.218 769.418 2023.41
309.149 769.494 2023.35
310.253 768.814 2024.71
310.45 768.166 2025.19
309.328 769.269 2023.51
305.73 768.732 2020.85
306.056 768.638 2020.94
306.325 768.685 2021.16
306.606 768.76 2021.4
306.688 766.023 2023.3
306.532 765.946 2023.14
306.885 766.223 2023.41
307.184 766.411 2023.58
306.371 765.868 2022.96
306.471 765.998 2023.01
308.398 767.11 2024.1
309.693 767.907 2024.67
309.052 768.544 2023.57
306.306 765.823 2022.8
306.26 765.852 2022.62
306.225 765.868 2022.44
306.46 766.017 2021.29
306.661 766.349 2020.41
306.253 765.798 2022.07
306.635 766.45 2020.14
306.514 766.695 2019.87
306.259 765.916 2022.17
306.317 767.287 2019.7
306.438 767.092 2019.95
306.194 767.514 2019.52
306.057 767.543 2019.09
305.85 767.717 2019.04
305.919 767.747 2019.37
304.895 768.065 2018.35
304.975 768.068 2018.62
305.257 768.007 2018.96
305.661 767.815 2018.96
304.658 768.194 2018.19
304.379 768.547 2017.3
304.557 768.723 2016.35
304.811 768.625 2016.09
304.962 768.526 2015.82
304.85 768.512 2015.5
305.05 768.361 2015.44
304.848 768.429 2015.2
304.649 768.569 2015.31
301.216 768.981 2014.67
303.407 768.878 2015.15
304.018 768.88 2015.84
304.634 768.657 2015.68
299.846 768.882 2013.61
299.343 768.965 2013.07
298.661 769.198 2012.36
298.06 769.488 2011.8
297.12 769.742 2010.12
296.967 770.034 2010.56
297.06 769.444 2009.33
297.693 768.207 2008.8
298.083 767.894 2008.89
298.053 767.125 2007.95
298.089 766.933 2007.63
298.423 766.549 2007.34
296.809 770.248 2010.87
297.529 769.778 2011.58
296.598 770.434 2011.2
299.596 765.509 2006.55
301.029 764.487 2006.09
303.487 763.677 2006.43
305.833 762.738 2006.05
306.369 762.353 2005.62
306.623 761.799 2004.84
306.931 761.176 2003.82
306.856 761.284 2004.11
307.037 761.097 2003.58
306.885 761.181 2003.33
306.976 761.215 2002.69
305.54 762.302 2002.81
307.989 761.856 2000.71
307.374 761.258 2001.95
307.11 761.446 2001.88
306.893 761.455 2002.15
308.188 762.804 1999.02
307.853 763.016 1998.83
307.914 763.156 1998.39
308.146 763.244 1997.68
308.368 763.318 1996.28
308.859 763.34 1994.8
308.323 764.089 1992.99
309.03 763.996 1992.51
312.258 763.171 1991.99
313.925 762.995 1991.38
314.507 762.962 1991
315.328 762.621 1991
315.654 762.491 1990.76
314.986 762.833 1990.74
316.499 762.016 1989.64
316.939 761.663 1990.36
318.308 760.721 1990.34
319.087 760.343 1990.58
319.53 760.223 1990.7
320.307 760.15 1990.63
318.574 760.588 1990.25
332.557 761.068 1994.65
332.459 761.295 1995.06
332.718 760.799 1994.11
332.609 760.679 1993.42
332.876 762.782 1997.07
332.989 763.167 1997.9
332.992 763.075 1997.64
333.154 763.139 1998.12
333.026 762.897 1997.33
332.773 762.077 1996.17
332.63 761.453 1995.38
332.897 763.302 1998.54
332.422 763.052 2002.01
332.398 763.075 2001.82
332.305 763.168 2001.49
332.238 763.175 2001.19
332.231 763.196 2000.96
332.531 763.261 2000.12
332.893 763.301 1998.98
332.974 763.272 1998.66
332.501 763.06 2002.16
334.291 763.869 2004.48
334.093 763.809 2004.23
333.49 763.418 2003.41
332.902 763.15 2002.7
332.782 763.135 2002.51
332.63 763.077 2002.31
334.454 764.06 2005.85
334.331 764.252 2006.17
334.09 764.55 2006.72
334.467 764.08 2005.42
334.523 763.99 2005.15
334.501 764.001 2005.04
334.501 763.942 2004.91
334.465 763.947 2004.76
334.401 763.795 2004.59
334.342 763.789 2004.48
332.812 764.488 2012.14
333.242 764.892 2011.16
333.312 764.915 2010.9
332.336 763.731 2013.28
332.451 763.94 2012.96
333.336 764.933 2010.61
332.387 763.029 2013.89
332.338 763.145 2013.75
332.34 763.478 2013.55
332.351 763.259 2013.63
333.454 764.895 2009.72
333.767 764.716 2007.86
333.83 764.599 2007.72
332.918 761.247 2013.32
332.876 761.279 2013.07
332.419 762.457 2013.44
332.645 761.614 2012.81
333.011 760.687 2013.44
333.004 760.867 2013.33
332.978 760.933 2013.14
332.938 761.085 2013.06
332.99 760.516 2013.32
333.008 760.502 2013.16
333.02 760.595 2013.05
333.01 760.753 2013.21
332.585 762.545 2011.27
332.876 762.299 2010.44
332.49 762.528 2011.69
332.374 763.057 2012.49
332.308 762.923 2012.94
332.311 762.98 2012.74
333.949 763.11 2007.42
334.352 762.905 2006.62
332.326 762.706 2013.25
332.369 762.593 2013.33
332.296 762.817 2013.13
334.427 762.822 2006.43
334.002 759.577 2008
334.144 760.214 2007.68
334.156 760.05 2007.39
333.998 759.39 2007.67
333.847 758.849 2006.32
333.692 759.29 2003.49
334.306 761.401 2006.92
334.47 762.467 2006.19
334.519 763.327 2006.13
334.571 763.136 2005.87
334.576 763.373 2005.85
333.688 759.788 2002.75
333.721 759.892 2002.97
334.003 759.6 2000.53
334.359 759.198 2000.09
334.156 759.454 2000.21
334.642 758.938 1999.97
333.725 759.954 2001.22
333.66 759.797 2002.53
333.63 759.803 2002.36
333.594 759.889 2002.14
333.628 759.921 2001.88
333.669 759.943 2001.63
335.238 758.768 1999.02
334.951 758.953 1999.38
336.057 758.212 1998.57
334.64 759.103 1999.76
337.714 757.883 1996.45
338.639 757.187 1996.19
338.806 757.703 1994.85
338.95 757.544 1994.9
339.113 756.88 1995.8
338.204 756.187 1998.19
338.017 756.382 1998.39
337.608 755.933 1999.4
339.062 756.527 1996.38
347.786 750.65 1986.46
347.581 750.654 1986.78
339.449 757.093 1993.55
339.401 757.231 1993.38
339.492 756.923 1993.68
339.438 756.162 1993.05
339.497 756.232 1994.08
339.115 757.618 1993.23
338.833 757.426 1992.06
338.991 757.701 1993.11
339.195 757.599 1993.51
339.303 757.425 1993.65
339.234 757.549 1993.81
339.353 757.308 1993.85
338.829 757.868 1993.35
338.643 757.946 1993.25
337.195 758.207 1992.29
338.22 758.099 1993.22
335.464 759.151 1993.58
336.945 758.564 1993.35
334.484 759.721 1994.31
333.912 760.2 1994.53
333.488 760.562 1994.63
333.298 760.638 1994.5
333.166 760.506 1993.65
333.409 760.237 1992.72
335.027 759.382 1994.18
318.777 761.841 1987.45
318.333 761.999 1987.08
319.998 760.288 1990
320.337 760.207 1990.27
319.825 760.415 1989.74
319.445 761.018 1988.81
318.955 761.655 1987.84
317.598 762.118 1986.1
317.567 762.105 1986.78
316.995 762.182 1986.69
347.318 751.102 1987.63
316.793 762.091 1985.65
316.617 759.596 1981.74
315.005 762.168 1985.39
316.548 761.888 1984.93
313.457 762.564 1985.91
312.251 762.519 1985.74
309.884 761.352 1984.2
309.199 760.621 1983.14
313.578 759.918 1981.79
315.476 759.71 1981.67
315.812 762.308 1986.13
315.217 762.487 1986.39
314.738 762.514 1986.19
323.322 758.8 1982.62
321.629 758.332 1981.95
322.121 758.129 1982.05
321.014 758.04 1981.65
319.62 757.913 1981.07
320.233 757.837 1981.27
320.721 757.782 1981.43
318.992 758.17 1980.96
323.607 757.913 1982.76
323.753 756.881 1982.83
317.506 759.065 1981.25
318.359 758.577 1981.05
323.308 756.659 1982.65
321.045 757.023 1981.27
320.919 757.016 1981.18
320.564 757.11 1981
320.084 757.165 1980.71
322.157 756.575 1981.92
321.279 757.18 1981.48
322.562 756.95 1982.23
318.957 757.901 1980.65
319.768 757.131 1980.44
317.108 760.763 1976.13
317.331 760.652 1975.97
316.991 758.965 1980.7
317.472 758.867 1980.87
315.869 759.357 1981.09
314.378 759.626 1981.23
310.176 759.839 1981.22
310.199 759.812 1980.89
310.138 759.909 1981.57
310.317 759.819 1980.54
307.952 759.989 1980.67
307.435 760.113 1980.53
307.521 760.244 1980.2
307.563 760.484 1979.82
315.645 761.408 1976.61
315.03 761.634 1976.69
316.513 762.188 1975.55
316.155 762.251 1975.72
311.381 760.76 1978.42
313.954 761.714 1976.98
311.137 762.02 1977.36
308.158 760.872 1979.13
318.049 758.568 1980.82
347.423 750.613 1987.01
297.179 773.668 2027.94
287.89 777.468 2028.12
290.648 776.561 2028.37
293.26 775.284 2027.75
337.813 755.539 1999.11
337.719 755.769 1999.25
338.768 754.324 1997.42
338.511 755.416 1997.89
339.583 753.469 1996.02
339.551 754.78 1996.19
339.324 755.475 1996.52
339.718 753.336 1995.69
339.776 753.218 1995.41
339.808 753.15 1995.14
339.827 753.128 1994.87
339.808 753.063 1994.52
339.731 752.98 1994.04
339.683 753.56 1993.46
339.668 754.223 1993.31
339.418 755.112 1992.88
297.551 773.123 2027.24
296.278 772.826 2025.92
295.105 772.216 2024.35
294.808 771.904 2023.13
293.893 772.477 2023.6
294.131 771.72 2021.86
291.515 771.546 2020.04
291.5 771.374 2019.58
291.346 771.282 2019.12
294.908 770.557 2019.38
296.002 770.206 2019.05
300.965 769.192 2019.69
304.31 768.435 2019.32
305.407 768.489 2020.27
304.902 768.256 2019.33
305.129 768.237 2019.59
305.382 768.277 2019.88
308.066 769.189 2022.47
306.721 768.601 2021.37
306.956 768.614 2021.54
308.216 768.994 2022.57
308.106 769.085 2022.47
309.943 768.812 2024.39
308.348 768.742 2022.72
308.287 768.872 2022.64
305.789 768.329 2020.36
306.124 768.363 2020.67
306.402 768.435 2020.98
306.651 766.152 2023.17
306.97 766.407 2023.39
308.276 767.233 2023.95
306.38 765.985 2022.87
306.485 766.192 2022.89
308.855 768.429 2023.46
307.468 768.11 2022.06
307.493 768.227 2022.06
306.311 765.961 2022.73
306.264 766.005 2022.56
306.275 766.064 2022.29
306.427 766.204 2021.47
306.62 766.455 2020.7
306.616 766.651 2020.49
306.603 766.784 2020.25
306.568 767.089 2020.32
306.45 766.405 2021.6
306.347 767.505 2019.98
306.458 767.383 2020.19
306.587 767.355 2020.47
306.039 767.723 2019.61
306.22 767.684 2019.98
305.792 767.898 2019.48
305.951 767.932 2019.88
304.533 768.243 2018.63
304.726 768.227 2018.94
305.508 768.013 2019.4
304.026 768.402 2018.49
303.808 768.73 2017.33
304.43 768.782 2016
303.979 768.911 2016.28
299.337 769.233 2015.63
303.02 769.033 2015.69
303.508 769.02 2016.12
299.153 768.982 2013.69
297.94 769.103 2014.7
298.759 769.068 2013.31
298.463 769.289 2012.46
297.859 769.599 2011.91
296.33 770.501 2010.14
296.234 770.134 2009.12
296.472 769.913 2009.05
296.131 770.779 2010.52
296.196 769.763 2008.26
296.512 769.434 2008.3
297.289 768.513 2008.53
297.797 767.261 2007.74
298.084 766.775 2007.3
298.612 766.243 2006.78
295.875 771.017 2010.83
297.364 769.89 2011.7
296.55 770.516 2011.33
295.804 771.108 2011.06
300.038 765.09 2006.16
301.19 764.362 2005.87
303.402 763.657 2006.1
305.417 762.907 2005.51
305.936 762.59 2005.53
306.402 761.916 2004.62
305.91 762.485 2004.85
306.706 761.328 2003.56
306.215 761.928 2004.17
306.047 761.984 2003.69
305.954 761.995 2002.94
306.404 761.762 2002.19
304.836 762.882 2002.57
304.325 763.237 2003.2
303.66 763.599 2003.65
303.339 763.805 2003.54
307.57 762.123 2000.53
306.472 762.056 2001.5
307.191 762.471 2000.25
306.072 762.205 2001.68
307.542 763.172 1998.82
307.684 763.274 1998.45
307.846 763.35 1997.88
307.987 763.425 1997.3
308.104 763.455 1996.18
307.875 763.928 1994.23
307.767 764.197 1993.43
306.829 765.114 1991.57
307.484 764.962 1991.43
309.761 764.811 1990.7
310.246 764.628 1990.85
308.334 764.606 1991.72
311.041 763.615 1991.93
313.924 763.209 1990.92
314.356 763.178 1990.63
314.813 763.003 1990.47
315.207 762.725 1990.77
315.185 762.805 1990.44
315.565 762.605 1990.36
315.046 763.246 1989.46
315.198 763.188 1988.91
315.988 762.487 1988.26
316.263 762.303 1988.11
317.284 761.508 1989.29
319.287 760.3 1990.4
318.802 760.504 1990.18
319.796 760.199 1990.48
317.525 761.388 1989.25
333.063 760.791 1994.55
332.763 761.078 1994.94
333.002 762.689 1996.97
333.068 763.125 1997.78
333.193 763.113 1997.98
333.122 762.959 1997.53
333.148 763.166 1998.29
333.135 762.781 1997.18
332.886 761.469 1995.55
332.974 762.051 1996.22
332.739 761.294 1995.24
332.532 762.979 2002.06
332.458 762.982 2001.93
332.499 763 2001.78
332.447 763.104 2001.6
332.379 763.121 2001.31
332.39 763.106 2001.01
332.659 763.197 2000.08
333.09 763.203 1998.84
333.149 763.187 1998.45
334.154 763.701 2004.19
333.54 763.301 2003.39
332.997 762.975 2002.68
332.884 763.041 2002.51
332.745 762.981 2002.3
332.634 762.954 2002.16
334.557 763.863 2005.7
334.527 763.973 2005.4
334.439 764.029 2006.1
333.959 764.427 2007.4
334.326 764.212 2006.32
334.516 763.824 2004.92
334.545 763.813 2005.09
334.467 763.814 2004.72
334.38 763.62 2004.43
334.298 763.626 2004.31
332.806 764.356 2012.05
333.285 764.817 2010.99
333.238 764.663 2010.97
333.309 764.871 2010.91
333.33 764.768 2010.62
333.353 764.852 2010.56
332.429 763.764 2012.97
332.354 763.54 2013.16
332.515 763.939 2012.73
333.459 764.794 2009.66
332.427 763.102 2012.26
332.93 762.906 2010.3
333.428 763.438 2008.75
333.566 763.336 2008.32
332.49 763.763 2012.7
332.424 763.615 2012.87
334.073 763.867 2007.15
334.447 763.501 2006.34
334.322 761.367 2006.64
334.158 759.914 2006.91
334.435 761.908 2006.03
333.85 758.962 2005.88
333.748 759.388 2003.72
333.758 759.865 2003.29
334.474 762.367 2005.99
334.59 763.034 2005.75
334.525 763.573 2006.08
334.599 763.318 2005.59
334.613 763.577 2005.67
333.638 759.971 2002.53
333.656 760.057 2002.72
333.726 760.215 2003.12
333.618 760.217 2000.75
334.391 759.321 1999.83
334.123 759.55 1999.98
333.999 759.758 2000.25
333.276 760.635 2001.02
333.602 760.077 2001.65
333.599 760.029 2002.28
333.576 759.955 2002
333.556 760.104 2001.99
333.524 760.169 2001.77
334.968 758.983 1999.11
334.73 759.167 1999.45
335.205 758.841 1998.85
335.818 758.449 1998.32
337.264 758.162 1996.43
338.693 757.888 1994.54
339.017 757.304 1995.23
339.033 757.664 1994.42
339.182 757.497 1994.42
339.226 757.318 1994.68
339.275 757.025 1995.03
339.213 756.675 1995.82
338.331 755.985 1998.1
339.228 756.376 1996.18
339.219 756.153 1996.4
339.42 757.159 1993.98
339.46 756.913 1994.24
339.566 755.956 1994.62
339.658 755.141 1994.19
339.7 754.909 1993.91
339.697 755.104 1994.55
338.972 757.799 1993.51
339.099 757.716 1993.65
339.177 757.629 1993.95
339.292 757.388 1994.22
339.233 757.495 1994.23
339.36 757.149 1994.44
338.609 758.038 1993.69
338.803 757.937 1993.75
338.269 758.163 1993.65
337.975 758.264 1993.6
336.945 758.631 1993.97
334.808 759.506 1994.67
334.305 759.877 1994.73
333.981 760.16 1994.78
333.367 760.796 1995.04
333.543 760.575 1995.05
333.206 760.864 1994.96
333.155 761.003 1995.16
333.088 760.899 1994.92
336.858 758.664 1994.47
335.197 759.285 1994.9
317.965 761.724 1988.13
317.778 761.911 1987.72
317.418 762.069 1987.34
319.696 760.255 1990.22
319.41 760.388 1989.92
318.698 761.076 1988.99
316.524 762.208 1986.26
316.875 762.174 1987.34
316.358 762.289 1987.17
316.768 759.249 1981.23
314.017 762.699 1986.31
313.261 762.934 1986.46
311.799 763.643 1986.95
310.507 763.28 1986.46
307.937 763.056 1986.35
303.381 763.223 1987.11
302.988 761.838 1985.41
301.91 761.705 1985.26
307.743 760.472 1982.9
310.342 760.022 1981.93
315.305 762.587 1986.8
315.938 762.393 1986.79
314.828 762.794 1986.95
314.46 762.781 1986.7
322.43 758.008 1982.18
321.348 757.73 1981.66
321.818 757.51 1981.83
320.942 757.44 1981.39
319.843 757.452 1980.81
320.407 757.366 1981.07
320.798 757.354 1981.28
322.949 757.473 1982.46
305.724 760.375 1982.29
305.288 760.525 1982.75
307.476 759.975 1981.04
305.917 760.296 1981.94
305.555 760.592 1983.04
305.274 760.445 1981.74
305.39 760.473 1981.46
305.311 760.573 1981.22
305.099 760.723 1981.04
305.341 760.833 1980.67
307.172 760.788 1979.6
305.125 761.141 1980.37
315.857 762.613 1975.55
314.763 762.843 1975.77
307.693 761.13 1979.03
312.236 763.218 1976.04
308.27 762.175 1977.94
307.643 763.513 1976.98
308.829 763.603 1976.45
293.424 774.784 2026.8
284.954 778.325 2028.87
282.786 778.248 2026.11
283.729 777.608 2024.5
287.838 777.075 2026.91
289.447 776.414 2026.83
284.269 778.642 2029.51
338.428 755.745 1998.01
339.674 754.501 1995.88
339.456 755.441 1996.23
339.244 755.916 1996.52
339.776 754.302 1995.53
339.86 754.165 1995.15
339.908 753.934 1994.76
339.916 754.013 1994.44
339.895 753.93 1994.1
339.655 754.682 1993.49
339.883 754.232 1994.17
293.398 773.579 2025.05
292.958 773.142 2023.93
292.953 772.449 2022.54
291.557 771.85 2020.7
289.23 771.946 2019.58
289.041 771.82 2019.12
289.117 771.722 2018.87
291.464 771.184 2018.66
289.042 771.669 2018.5
294.172 770.486 2017.48
293.638 770.685 2017.93
294.897 770.306 2017.51
296.97 769.856 2017.68
298.996 769.543 2018.9
303.988 768.455 2019
305.758 768.097 2019.88
307.141 768.515 2021.62
306.708 768.365 2021.22
306.5 768.256 2020.89
306.817 768.295 2021.27
307.366 768.396 2021.83
307.235 768.417 2021.67
307.367 768.306 2021.82
305.901 768.099 2020.16
306.151 768.119 2020.44
306.871 766.439 2023.26
306.62 766.285 2023.03
308.133 767.531 2023.57
306.402 766.173 2022.75
306.471 766.377 2022.7
306.569 766.428 2022.84
307.811 768.123 2022.5
307.404 767.964 2022.05
307.313 768.152 2021.79
307.167 767.794 2021.77
307.151 767.917 2021.66
306.34 766.138 2022.62
306.329 766.21 2022.42
306.498 766.581 2021.74
306.605 766.697 2020.88
306.639 766.958 2020.57
306.658 766.909 2020.79
306.682 767.277 2020.72
306.698 767.029 2021.07
306.324 767.726 2020.25
306.468 767.638 2020.36
306.64 767.671 2020.69
306.799 767.681 2020.96
306.093 767.87 2020.08
306.24 767.938 2020.37
303.153 768.642 2018.86
302.714 768.97 2017.48
301.147 769.294 2016.6
299.124 769.479 2017.03
297.108 769.455 2016.26
295.975 769.259 2015.22
302.918 769.104 2016.02
301.66 769.196 2017.26
297.561 769.11 2014.34
296.079 769.193 2014.9
297.198 769.148 2014.05
298.187 769.235 2012.97
297.876 769.445 2012.47
297.723 769.593 2012.18
297.391 769.847 2011.9
295.911 770.875 2010.33
295.895 770.448 2009.3
295.838 770.062 2008.21
295.642 771.132 2010.65
296.299 769.545 2007.97
295.998 769.837 2007.9
296.513 769.272 2007.91
297.041 768.429 2007.84
297.09 768.502 2008.13
297.681 767.337 2007.59
297.914 766.942 2007.25
298.127 766.651 2006.88
299.115 765.768 2006.26
298.337 766.404 2006.47
295.514 771.259 2010.87
295.335 771.381 2011.04
296.416 770.598 2011.48
295.7 771.163 2011.19
295.046 771.511 2011.27
300.522 764.724 2005.87
301.368 764.272 2005.69
303.208 763.694 2005.6
304.434 763.26 2004.43
304.555 763.149 2003.85
305.374 762.803 2004.54
305.086 762.783 2003.35
306.046 761.941 2003.23
304.173 763.452 2002.36
305.153 762.793 2001.81
302.964 764.044 2003.55
303.951 763.44 2003.96
302.543 763.924 2004.78
302.269 764.071 2004.61
301.965 764.234 2004.54
305.434 762.794 2001.42
305.91 762.701 2001.02
306.775 762.852 2000.02
305.111 762.874 2001.72
307.207 763.368 1998.89
307.397 763.411 1998.57
307.528 763.487 1998.23
307.639 763.527 1997.86
307.687 763.663 1997.32
307.442 764.062 1995.48
307.649 764.007 1994.46
306.649 764.901 1992.9
306.411 765.17 1992.02
306.436 765.363 1991.18
307.161 765.179 1990.96
309.563 765.065 1990.14
309.822 764.96 1990.33
311.927 764.878 1989.72
312.1 764.762 1989.84
311.25 764.161 1991.07
312.301 764.612 1989.98
313.178 763.933 1990.34
313.71 763.865 1990.06
314.19 763.692 1989.88
314.61 763.49 1989.7
313.912 764.208 1989.23
314.054 764.167 1989.1
314.981 763.392 1988.64
313.967 764.252 1988.99
315.931 762.478 1987.8
315.876 762.549 1988.04
315.739 762.661 1988.09
316.591 762.151 1988.01
316.176 762.342 1987.71
319.084 760.429 1990.06
317.828 761.269 1989.21
316.839 762.059 1987.98
333.175 763.059 1997.72
333.259 763.072 1997.93
333.292 763.072 1998.15
333.242 762.857 1997.44
333.216 762.665 1997.03
332.937 761.359 1995.47
333.089 762.015 1996.25
333.081 761.415 1995.64
332.927 761.17 1995.21
332.639 762.891 2002.04
332.591 762.886 2001.88
332.549 763.015 2001.58
332.513 763.07 2001.45
332.493 763.053 2001.18
332.567 763.006 2000.99
332.746 763.137 2000.08
333.244 763.113 1998.83
333.21 763.162 1998.57
333.308 763.088 1998.29
334.121 763.55 2004.05
333.594 763.168 2003.36
333.1 762.815 2002.72
333.045 762.767 2002.54
332.954 762.915 2002.46
332.829 762.885 2002.25
332.732 762.867 2002.12
334.602 763.693 2005.49
334.57 763.841 2005.34
334.557 763.782 2005.87
334.448 763.965 2006.19
333.95 764.342 2007.49
334.526 763.735 2004.93
334.51 763.662 2004.81
334.491 763.736 2004.75
334.564 763.638 2005.12
334.533 763.668 2004.93
334.435 763.635 2004.55
334.342 763.443 2004.29
334.197 763.431 2004.09
332.803 764.208 2011.94
333.159 764.495 2011.03
333.283 764.59 2010.56
333.222 764.433 2010.62
333.419 764.583 2009.66
333.434 764.707 2009.72
332.881 763.502 2010.91
332.793 763.99 2011.76
333.334 764.089 2009.65
333.564 764.107 2008.55
333.369 764.28 2009.64
333.673 764.104 2008.2
334.091 763.987 2007.15
334.464 762.149 2005.6
334.043 759.693 2005.86
334.615 763.191 2005.4
334.156 760.811 2004.84
334.226 761.47 2004.65
333.916 760.218 2003.82
333.87 760.496 2003.66
334.472 763.806 2006.2
334.565 763.664 2005.92
334.613 763.509 2005.38
333.574 760.205 2002.39
333.578 760.266 2002.58
333.606 760.34 2002.82
333.675 760.149 2002.86
333.675 760.576 2003.16
333.807 760.849 2003.51
333.398 760.554 2000.27
333.851 759.934 2000.12
334.303 759.466 1999.59
334.034 759.68 1999.68
334.039 759.665 1999.92
333.213 760.633 2001.57
332.984 760.968 2001.33
333.072 760.95 2000.72
333.16 760.852 2000.01
333.257 760.702 1999.96
333.29 760.708 2000.19
333.514 760.268 2002.11
333.191 760.671 2001.7
334.693 759.206 1999.26
334.759 759.169 1999.02
335.448 758.698 1998.51
335.092 758.937 1998.7
335.696 758.568 1998.17
335.791 758.552 1997.85
336.989 758.367 1996.13
338.401 758.035 1994.69
338.499 758.047 1994.34
338.678 758.007 1993.99
338.918 757.82 1994.11
339.13 757.658 1994.06
339.364 756.516 1995.62
339.384 756.213 1996.03
339.385 756.005 1996.15
339.424 756.769 1994.85
339.489 756.069 1995.47
339.718 754.934 1995.25
339.842 754.51 1994.59
339.841 754.453 1994.82
339.831 754.593 1994.41
339.874 754.345 1994.4
338.973 757.812 1993.84
338.409 758.141 1993.99
338.154 758.232 1993.94
334.601 759.616 1994.97
334.177 759.919 1995.07
333.968 760.112 1995.1
333.704 760.382 1995.15
333.385 760.834 1995.26
333.168 761.054 1995.38
333.47 760.651 1995.23
333.031 761.234 1995.43
336.31 758.728 1995.59
338.286 758.158 1994.39
334.647 759.356 1995.95
335.004 759.178 1995.98
318.235 761.154 1989.13
317.294 761.907 1988.07
317.025 762.088 1987.69
316.494 762.225 1987.65
316.036 762.409 1987.42
315.787 762.511 1987.27
313.924 763.018 1986.81
313.079 763.837 1987.43
312.633 763.802 1987.26
311.972 764.453 1987.79
310.74 764.378 1987.57
307.103 764.506 1988.14
303.653 765.283 1989.64
301.223 763.829 1988.1
298.882 762.729 1986.97
301.382 761.54 1984.91
298.182 762.443 1986.49
315.453 762.614 1987.13
315.021 762.851 1987.29
314.327 763.013 1987.04
314.692 763.001 1987.29
300.399 761.471 1984.15
300.191 761.545 1984.53
300.404 761.573 1984.79
304.624 760.575 1982.24
299.928 761.615 1983.66
299.584 761.641 1984.1
300.406 761.595 1983.15
299.299 761.948 1983.23
299.657 762.042 1982.75
299.602 762.263 1982.44
305.398 761.496 1979.79
300.639 762.429 1981.56
306.077 762.627 1978.4
304.851 764.375 1977.36
306.797 764.189 1976.59
308.336 764.198 1975.86
289.683 775.044 2024.44
281.871 778.67 2026.92
280.475 778.474 2024.03
281.138 777.869 2022.3
282.551 777.317 2022.41
285.071 776.912 2024
285.798 776.391 2023.54
282.945 778.856 2028.73
281.661 778.845 2027.21
339.554 755.284 1995.99
339.443 755.665 1996.13
339.614 755.251 1995.68
339.796 754.488 1995.32
339.861 754.271 1994.96
339.897 754.092 1994.69
339.886 754.214 1994.63
291.449 773.32 2022.75
291.059 772.167 2021
288.558 772.853 2020.5
287.72 772.963 2019.94
287.279 772.825 2019.2
287.809 772.19 2018.41
287.843 772.073 2018.01
291.034 771.237 2018.24
288.038 771.973 2017.72
293.597 770.653 2017.13
293.184 770.794 2017.44
293.961 770.507 2016.88
294.334 770.368 2017.02
295.539 770.122 2017.49
295.359 769.787 2016.45
294.892 769.882 2016.31
296.135 769.588 2016.34
306.942 768.218 2021.34
306.57 768.059 2020.79
306.721 768.034 2020.95
307.253 768.294 2021.66
307.074 768.162 2021.48
307.086 768.026 2021.54
306.762 766.496 2023.07
307.665 767.38 2023.2
306.403 766.336 2022.56
306.69 766.879 2022.23
306.818 767.005 2022.4
307.01 767.108 2022.59
307.479 767.834 2022.35
307.205 767.703 2022.04
306.989 767.703 2021.45
306.944 767.527 2021.57
306.989 767.475 2021.8
306.962 767.829 2021.36
306.562 766.694 2021.9
306.779 767.223 2021.35
306.725 767.202 2020.87
306.749 767.208 2021.06
306.842 767.582 2021.09
306.868 768.056 2021.16
306.928 767.96 2021.28
295.362 769.372 2015.34
295.403 769.297 2015.02
295.469 769.313 2015.18
295.624 769.251 2014.66
296.894 769.221 2013.84
295.381 769.308 2014.37
296.607 769.335 2013.59
297.449 769.553 2012.59
297.422 769.723 2012.22
296.312 769.446 2013.47
297.091 769.999 2011.92
295.482 770.718 2009.34
295.571 770.259 2008.25
295.681 770.074 2007.79
295.248 771.349 2010.69
296.154 769.628 2007.61
296.401 769.365 2007.56
295.925 769.837 2007.47
297.012 768.352 2007.52
296.505 769.216 2007.32
297.598 767.372 2007.44
297.874 766.936 2007.05
298.032 766.74 2006.72
298.795 765.99 2006.06
300.081 765.021 2005.89
298.228 766.474 2006.23
295.013 771.507 2010.95
294.329 771.785 2011.45
296.23 770.663 2011.62
294.499 771.668 2011.97
295.37 771.342 2011.36
293.791 771.974 2012.22
293.393 772.096 2012.34
301.121 764.383 2005.57
302.833 763.8 2005.04
303.829 763.794 2002.24
302.98 764.166 2003.24
301.773 764.43 2004.4
300.904 764.527 2005.49
300.733 764.66 2005.4
300.685 764.767 2005.23
304.671 763.285 2001.63
305.108 763.132 2001.32
306.312 763.255 1999.95
307.063 763.511 1998.87
306.565 764.122 1998.79
306.702 764.235 1998.46
306.915 764.228 1998.09
306.528 764.767 1997.62
306.046 765.379 1997.19
306.948 764.513 1996.77
305.902 765.612 1996.77
307.127 764.341 1995.12
305.925 765.391 1992.59
305.915 765.484 1991.91
306.111 765.439 1991.42
306.058 765.458 1991.06
306.812 765.311 1990.8
309.488 765.122 1989.93
312.198 764.871 1989.52
312.128 764.927 1989.35
312.765 764.688 1989.54
312.867 764.515 1989.77
313.375 764.364 1989.61
313.687 764.261 1989.47
313.762 764.264 1989.35
313.72 764.418 1989.09
313.514 764.536 1989.16
313.875 764.33 1988.82
314.823 763.486 1988.44
313.658 764.504 1988.94
315.735 762.587 1987.67
315.502 762.775 1987.9
333.281 762.978 1997.68
333.372 763.018 1998.12
333.416 762.984 1998.04
333.319 763.016 1997.86
333.368 762.799 1997.45
333.315 762.654 1997.1
333.195 761.378 1995.69
333.195 761.975 1996.28
332.723 762.803 2001.98
332.667 762.849 2001.76
332.634 762.911 2001.71
332.533 763.021 2001.46
332.563 763.019 2001.28
332.802 763.09 2000.09
332.621 762.947 2001.08
332.64 762.92 2000.9
333.248 763.074 1998.97
333.313 763.076 1998.66
333.288 763.113 1998.61
333.328 763.091 1998.42
333.412 763.005 1998.18
333.643 763.026 2003.35
333.083 762.606 2002.64
332.969 762.792 2002.32
333.002 762.635 2002.4
332.898 762.778 2002.17
332.83 762.773 2002.07
334.003 764.202 2007.35
333.604 764.537 2008.67
334.519 763.509 2004.83
334.487 763.502 2004.72
334.464 763.587 2004.62
334.541 763.474 2004.93
334.59 763.391 2005.16
334.399 763.397 2004.41
334.21 763.192 2004.08
333.682 762.878 2003.35
333.144 764.303 2010.8
333.406 764.436 2009.59
333.603 764.366 2008.58
333.56 764.233 2008.65
334.573 762.949 2005.2
334.567 763.121 2005.05
334.276 762.083 2004.56
334.504 762.892 2004.87
334.187 762.089 2004.25
333.441 760.423 2002.23
333.456 760.478 2002.42
333.508 760.504 2002.63
333.535 760.629 2002.87
333.558 760.948 2002.98
333.705 761.134 2003.29
334.094 762.134 2004
333.306 760.551 1999.83
333.543 760.306 1999.97
333.608 760.133 1999.75
333.926 759.821 1999.77
334.18 759.569 1999.41
333.933 759.787 1999.44
332.822 761.172 2001.43
332.926 761.108 2000.7
333.095 760.954 1999.98
333.108 760.908 1999.77
333.207 760.77 1999.86
333.129 760.665 1999.42
333.06 760.64 1999.1
333.114 760.537 1999.17
333.142 760.762 2001.86
332.81 761.229 2001.59
334.749 759.181 1998.81
334.13 759.602 1999.19
335.308 758.802 1998.35
335.027 758.972 1997.25
339.452 756.239 1995.63
339.482 755.959 1995.89
334.256 759.579 1995.95
333.923 760.085 1995.39
333.952 759.774 1996.04
333.778 760.287 1995.27
333.567 760.553 1995.32
333.255 761.05 1995.56
333.407 760.796 1995.43
333.219 761.206 1995.61
334.074 759.439 1997.05
315.403 762.739 1987.52
313.485 763.819 1987.59
312.523 764.55 1988.02
311.39 764.563 1987.82
311.997 764.643 1988.02
310.451 764.628 1987.88
307.679 764.813 1988.54
304.768 765.211 1989.61
304.309 765.597 1990.23
303.55 765.907 1990.47
302.659 765.66 1990.01
300.556 764.195 1988.52
297.908 763.132 1987.48
297.335 762.797 1986.99
297.946 762.205 1985.96
296.965 762.609 1986.58
315.078 762.964 1987.66
314.169 763.713 1987.92
313.862 763.787 1987.79
297.398 762.111 1985.05
297.037 762.265 1985.53
297.439 762.174 1985.64
296.927 762.292 1984.73
296.976 762.343 1984.39
296.489 762.436 1985.18
296.542 762.657 1984.11
296.154 762.699 1984.48
296.563 762.831 1983.8
297.11 762.993 1983.17
301.835 763.747 1979.61
301.93 765.997 1977.32
305.602 765.19 1975.84
282.763 778.984 2028.89
286.359 775.949 2023.25
287.402 774.792 2022.58
288.813 774.31 2022.65
288.109 775.243 2023.7
278.558 779.291 2024.81
277.856 778.864 2021.88
281.5 777.447 2021.45
283.718 776.426 2021.74
283.194 776.597 2021.35
284.536 775.987 2021.71
281.399 779.05 2027.47
282.376 779.016 2028.27
278.502 779.489 2025.47
290.336 772.948 2021.61
289.588 772.31 2020.4
286.516 774.25 2021.14
285.752 774.184 2020.33
285.33 774.16 2019.78
286.201 773.297 2018.78
285.791 773.34 2018.15
286.605 772.633 2017.49
286.709 772.533 2017.17
290.972 771.268 2017.9
288.328 771.874 2017.52
286.924 772.426 2016.94
293.519 770.71 2016.76
293.318 770.777 2016.96
292.956 770.894 2017.15
294.049 770.403 2016.61
293.672 770.646 2016.59
294.512 769.959 2016.13
294.809 769.547 2015.35
307.284 767.206 2022.9
306.605 766.763 2022.06
306.822 767.264 2021.6
306.852 767.471 2021.22
306.846 767.398 2021.39
295.165 769.372 2015.15
295.237 769.306 2014.75
295.029 769.393 2014.98
295.144 769.343 2014.48
295.15 769.403 2014.2
296.131 769.557 2013.31
297.092 769.805 2012.35
296.868 770.072 2012.01
295.099 769.478 2014.02
295.014 770.976 2009.47
294.948 770.508 2007.98
295.317 770.308 2007.82
295.535 770.08 2007.2
294.615 771.581 2010.75
296.063 769.689 2006.96
296.244 769.499 2007.05
295.811 769.87 2006.55
297.003 768.318 2007.16
297.718 767.129 2007.03
296.379 769.323 2006.55
296.552 769.097 2006.8
297.971 766.803 2006.57
298.489 766.247 2005.98
298.839 765.967 2005.86
299.608 765.383 2005.8
298.097 766.636 2006.2
294.001 771.843 2011.32
292.375 772.385 2012.64
292.321 772.434 2012.96
295.465 771.002 2011.96
294.75 771.533 2011.91
292.899 772.221 2013.05
292.851 771.878 2014.02
292.385 771.905 2014.69
292.358 772.417 2013.18
291.973 772.431 2013.72
291.891 772.507 2013.55
302.566 764.349 2003.5
302.594 764.512 2003.19
303.342 764.52 2001.94
301.595 764.583 2004.36
299.82 765.449 2005.21
299.62 765.44 2005.53
303.811 764.388 2001.35
304.24 764.25 2000.99
305.243 764.225 2000.05
306.119 764.327 1999.1
305.253 765.312 1998.91
304.943 765.801 1998.49
305.264 765.769 1998.05
304.843 766.503 1997.26
304.637 766.965 1996.36
305.425 766.184 1996.06
306.542 764.928 1995.19
304.892 766.832 1995.79
305.729 765.584 1993.06
305.297 765.869 1992.02
305.556 765.69 1991.85
305.816 765.553 1991.45
305.513 765.652 1991.14
305.933 765.49 1990.78
306.653 765.344 1990.52
309.121 765.187 1989.65
309.254 765.162 1989.8
312.042 764.978 1989.16
312.912 764.741 1989.29
312.957 764.789 1989.05
313.173 764.563 1989.44
313.489 764.48 1989.32
313.343 764.674 1988.98
313.226 764.664 1989.19
313.782 764.409 1988.64
313.599 764.552 1988.77
314.614 763.586 1988.25
313.267 764.72 1988.84
333.388 762.912 1997.68
333.483 762.955 1998.14
333.432 762.948 1997.91
333.483 762.74 1997.44
333.409 762.632 1997.13
333.307 761.358 1995.79
333.301 761.939 1996.32
332.785 762.697 2001.91
332.673 762.825 2001.73
332.578 762.951 2001.61
332.556 762.971 2001.4
332.616 762.921 2001.17
332.87 763.038 2000.04
332.682 762.851 2000.93
333.325 763.021 1998.86
333.363 763.039 1998.51
333.354 763.064 1998.43
333.438 763.003 1998.28
333.4 763.028 1998.27
332.996 762.459 2002.47
333.108 762.348 2002.62
332.913 762.637 2002.18
332.901 762.485 2002.28
332.885 762.644 2002.08
332.828 762.609 2001.98
334.474 763.308 2004.71
334.432 763.373 2004.54
334.526 763.204 2004.87
334.308 763.147 2004.23
333.705 762.415 2003.33
333.703 762.693 2003.33
334.469 762.983 2004.73
334.425 763.073 2004.58
333.094 760.874 2002.03
333.104 760.986 2002.2
333.177 761.06 2002.37
333.245 761.156 2002.53
333.324 761.658 2002.77
333.283 761.348 2002.66
334.003 762.177 2003.79
334.386 763.13 2004.42
333.187 760.452 1999.23
333.241 760.341 1999.1
333.324 760.2 1998.93
333.502 760.025 1998.88
333.784 759.946 1999.6
333.725 759.807 1998.73
332.759 761.398 2001.54
332.738 761.299 2001.35
332.849 761.293 2000.59
333.021 761.075 1999.91
333.019 760.736 1999.09
333.08 760.697 1999.28
333.016 760.432 1998.41
332.971 760.611 1998.67
333.005 760.471 1998.31
333.071 760.356 1998.5
333.023 760.407 1998.45
332.828 761.253 2001.74
332.771 761.413 2001.73
334.037 759.554 1998.48
334.36 759.341 1998.12
334.639 759.156 1997.71
333.738 759.65 1997.09
333.796 759.878 1996.18
333.762 760.217 1995.48
333.685 759.962 1996.27
333.588 759.789 1997.09
333.666 760.458 1995.46
333.503 760.702 1995.57
333.328 761.022 1995.68
333.32 761.184 1995.77
333.382 760.867 1995.63
333.853 759.545 1997.53
312.911 764.487 1988.1
312.491 764.698 1988.22
311.22 764.769 1988.08
311.969 764.752 1988.16
308.079 764.988 1988.83
305.15 765.408 1990.09
304.244 765.841 1990.63
303.14 766.551 1991.04
302.66 766.426 1990.74
302.019 765.995 1990.17
299.922 764.339 1988.68
297.336 763.399 1987.78
296.886 763.137 1987.41
296.544 762.942 1987.02
296.822 762.454 1986.19
296.074 762.803 1986.54
314.375 763.674 1988.09
313.295 764.435 1988.23
313.627 764.411 1988.45
313.341 764.534 1988.38
296.113 762.593 1985.65
296.204 762.666 1986.23
295.841 762.744 1986.02
295.657 762.787 1985.26
295.88 762.724 1984.9
295.593 762.806 1985.57
295.624 763.023 1984.38
295.511 762.962 1984.67
295.318 762.992 1984.96
295.783 763.163 1984.03
296.202 763.326 1983.46
298.755 764.25 1980.97
298.959 766.715 1978.59
298.994 767.361 1977.78
301.637 766.661 1976.63
282.642 779.098 2029
280.64 779.308 2027.25
286.248 775.239 2022.23
285.268 775.071 2021.11
276.075 779.547 2022.23
275.723 779.554 2021.63
278.139 778.678 2021.33
281.969 777.153 2021
283.753 776.195 2021.1
284.228 775.939 2021.25
283.046 776.57 2020.79
283.418 776.334 2020.85
278.026 779.684 2025.48
276.438 779.745 2023.48
284.884 775.014 2020.59
284.905 774.331 2019.55
285.055 774.119 2019.3
285.109 773.887 2018.47
284.852 774.186 2019.07
285.004 773.912 2018.19
285.702 773.195 2017.11
285.953 772.984 2016.79
286.234 772.806 2016.51
290.494 771.419 2017.47
287.974 772.051 2016.92
287.052 772.414 2016.57
286.288 772.844 2016.12
293.413 770.787 2016.36
293.26 770.853 2016.58
292.944 770.968 2016.72
292.318 771.138 2017.02
293.833 770.514 2016.34
294.316 770.003 2015.96
293.609 770.664 2016.13
294.447 769.689 2015.33
294.666 769.561 2015.15
294.894 769.439 2014.69
294.57 769.59 2014.9
294.83 769.484 2014.37
294.907 769.491 2014.19
295.94 769.675 2013.21
294.891 769.575 2013.98
296.502 770.098 2012.23
294.751 769.563 2014.16
294.314 771.241 2009.48
293.998 770.843 2007.9
294.783 770.474 2007.36
295.099 770.339 2007.4
295.101 770.266 2006.75
295.49 770.113 2004.41
293.486 771.542 2009.82
293.662 771.865 2011.05
296.244 769.441 2006.07
296.05 769.637 2006.03
296.013 769.756 2004.92
297.103 768.162 2006.72
297.716 767.13 2006.74
296.487 769.193 2006.01
296.649 768.934 2006.32
297.855 766.944 2006.37
298.491 766.307 2005.74
298.151 766.603 2006
298.871 766.001 2005.65
290.782 772.674 2012.8
292.472 772.337 2012.4
290.254 772.809 2013.2
290.13 772.852 2013.39
290.05 772.819 2013.73
294.815 771.282 2012.24
292.967 771.876 2013.77
292.114 771.911 2014.96
292.754 771.471 2015.12
292.762 771.346 2015.62
292.687 771.253 2016.03
291.678 771.969 2015.26
291.449 772.515 2014.02
289.817 772.81 2014
300.298 765.628 2004.33
302.178 765.096 2003.01
301.624 765.227 2003.54
301.978 765.649 2002.61
302.562 765.503 2001.77
303.065 765.287 2001.19
298.903 766.071 2005.36
298.946 766.579 2004.51
303.351 765.325 2000.77
304.426 765.268 1999.78
303.875 765.716 1999.72
304.829 765.685 1998.84
304.244 766.436 1998.29
304.327 766.838 1997.42
304.261 767.16 1996.7
304.22 767.292 1995.98
304.715 767.005 1995.64
304.982 766.778 1995.32
305.529 766.067 1995.13
305.246 766.261 1993.99
304.854 766.48 1992.9
304.685 766.551 1992.43
305.204 765.906 1991.7
305.494 765.719 1991.53
305.198 765.845 1991.36
305.043 765.803 1991.06
305.511 765.555 1990.63
306.362 765.352 1990.29
308.998 765.186 1989.48
311.838 765.011 1988.95
312.814 764.851 1988.9
313.517 764.55 1988.59
313.173 764.726 1988.71
312.717 764.863 1988.76
333.477 762.847 1997.68
333.525 762.923 1998.09
333.514 762.88 1997.9
333.57 762.74 1997.59
333.546 762.666 1997.32
333.419 761.957 1996.43
332.758 762.614 2001.78
332.67 762.737 2001.54
332.592 762.889 2001.44
332.662 762.834 2001.11
332.944 762.966 1999.99
332.725 762.771 2000.9
333.363 762.974 1998.86
333.404 762.988 1998.53
333.475 762.963 1998.29
332.924 762.247 2002.35
332.86 762.492 2002.06
332.817 762.412 2002.12
332.803 762.305 2002.2
332.83 762.474 2001.96
332.777 762.483 2001.83
333.904 762.258 2003.6
332.851 761.356 2001.9
332.871 761.49 2002.04
332.919 761.937 2002.22
332.822 761.906 2002.08
333.204 760.174 1998.34
333.165 760.198 1998.2
333.37 759.994 1998.15
333.56 759.803 1997.95
333.751 759.638 1997.74
332.756 761.599 2001.49
332.74 761.536 2001.67
332.773 761.465 2001.29
332.869 761.45 2000.51
332.965 761.208 1999.89
332.932 761.33 2000.05
332.979 760.839 1999.08
333.044 760.871 1999.42
332.992 760.551 1998.28
333.047 760.374 1998.21
333.113 760.263 1998.07
333.101 760.304 1997.95
333.081 760.382 1997.83
333.133 760.227 1998.12
332.732 761.815 2001.76
332.803 761.515 2001.89
333.611 759.744 1997.44
333.627 760.372 1995.65
333.582 760.064 1996.34
333.48 759.885 1997.27
333.489 759.861 1997.62
333.555 760.597 1995.67
333.377 760.817 1995.77
333.416 760.715 1995.83
333.361 760.937 1995.78
333.362 761.068 1995.86
333.389 761.261 1995.91
312.855 764.651 1988.3
312.261 764.842 1988.36
311.394 764.892 1988.31
308.568 765.036 1988.91
305.74 765.401 1990.18
304.9 765.657 1990.63
304.377 766.055 1991.11
302.855 766.922 1991.38
301.78 767.01 1990.96
301.681 766.614 1990.54
301.279 766.046 1990.05
299.412 764.427 1988.74
296.934 763.457 1987.8
296.389 763.233 1987.42
296.144 763.067 1987.07
295.883 762.947 1986.73
295.737 762.892 1986.43
313.103 764.698 1988.55
312.758 764.765 1988.47
295.497 762.868 1985.86
295.425 762.947 1986.18
295.057 763.092 1985.26
295.076 763.077 1985.61
295.205 763.25 1984.53
295.135 763.153 1984.85
294.966 763.177 1985.13
295.267 763.439 1984.17
295.613 763.621 1983.66
297.41 764.331 1981.79
297.905 766.623 1979.45
298.314 767.629 1978.08
282.573 779.332 2029.23
282.596 779.222 2029.11
279.77 779.564 2026.91
277.192 779.924 2025.19
275.262 779.781 2021.71
275.595 779.702 2021.99
275.321 779.798 2022.2
275.319 779.667 2021.29
275.727 779.482 2021.28
277.873 778.749 2021.03
281.88 777.159 2020.48
283.76 776.065 2020.65
284.214 775.77 2020.85
282.996 776.646 2020.26
283.451 776.276 2020.09
283.583 776.139 2020.38
276.249 779.894 2023.67
284.574 775.04 2020.23
284.697 774.422 2019.37
284.668 774.301 2018.94
285.038 773.764 2017.27
284.562 774.324 2018.67
285.352 773.404 2016.55
285.609 773.248 2016.23
285.804 773.174 2015.78
289.882 771.628 2017.08
287.475 772.328 2016.3
286.614 772.759 2015.88
286.126 773.07 2015.49
293.184 770.997 2016.06
293.322 770.924 2015.94
293.002 771.069 2016.16
292.393 771.23 2016.49
291.814 771.336 2016.82
294.118 770.095 2015.82
294.039 770.167 2015.58
294.287 769.762 2015.24
293.399 770.875 2015.73
293.819 770.277 2015.53
294.323 769.709 2015.09
294.473 769.627 2014.63
294.268 769.713 2014.84
294.604 769.578 2014.34
295.726 769.814 2013.1
294.705 769.693 2013.92
294.524 769.684 2014.12
295.839 770.529 2012.19
294.561 769.618 2014.26
294.56 769.638 2014.19
294.421 769.709 2014.22
292.342 771.474 2008.6
292.877 771.135 2007.63
292.746 771.126 2007.15
294.712 770.439 2006.56
294.772 770.44 2005.49
294.986 770.421 2004.44
293.955 771.2 2001.84
296.194 769.602 2002.08
296.151 769.674 2003.38
291.446 772.074 2010.99
290.943 772.588 2012.5
290.825 771.871 2010.15
296.645 769.18 2005.09
296.344 769.465 2004.96
296.604 769.304 2003.55
297.283 767.918 2006.29
297.277 768.523 2004.91
297.344 768.386 2005.2
298.029 766.775 2006.01
298.251 766.603 2005.65
298.603 766.331 2005.43
288.758 773.033 2012.94
289.043 772.883 2012.66
288.756 773.036 2013.22
288.301 773.139 2013.26
288.032 773.166 2013.63
294.406 771.305 2012.55
293.357 771.782 2013.24
292.806 771.648 2014.55
292.967 771.31 2015.05
292.978 771.219 2015.58
291.117 772.055 2015.44
289.583 772.779 2014.24
287.821 773.184 2013.82
300.546 765.846 2003.9
299.033 767.113 2003.55
300.364 766.42 2003.19
301.523 765.851 2002.9
301.757 765.899 2002.5
302.202 765.825 2001.66
302.75 765.61 2001.06
302.974 765.587 2000.78
298.632 766.764 2004.7
298.56 767.345 2003.89
302.974 765.826 2000.4
302.514 767.046 1998.82
302.464 767.956 1997.39
302.458 768.165 1996.93
302.319 768.371 1996.5
302.344 768.409 1996.14
304.381 767.23 1995.35
304.779 766.936 1994.89
304.474 767.042 1993.85
304.619 766.557 1992.19
304.104 767.183 1993.15
304.947 766.043 1991.58
304.816 766.027 1991.43
304.707 765.935 1991.14
308.75 765.107 1989.11
309.083 765.142 1989.23
311.742 765.007 1988.74
312.558 764.846 1988.56
333.55 762.806 1997.75
333.57 762.894 1998.12
333.6 762.836 1998
333.613 762.657 1997.42
333.601 762.702 1997.66
333.487 762.004 1996.58
332.734 762.591 2001.64
332.724 762.644 2001.41
332.663 762.77 2001.29
332.66 762.81 2001.17
332.709 762.741 2001.06
333.019 762.898 1999.95
332.769 762.692 2000.88
333.096 762.821 1999.9
333.412 762.917 1998.84
333.467 762.922 1998.49
333.497 762.926 1998.33
333.562 762.889 1998.2
332.801 762.322 2001.97
332.756 762.234 2002.03
332.797 762.363 2001.87
332.789 762.445 2001.68
332.76 761.859 2001.93
333.322 760.029 1997.96
333.205 760.143 1997.81
333.351 759.998 1997.67
332.713 761.806 2001.55
332.781 761.888 2001.19
332.692 761.848 2001.36
332.836 761.834 2000.55
332.953 761.421 1999.91
332.972 761.279 1999.73
332.988 761.184 1999.71
332.974 760.957 1999.29
332.921 760.797 1998.57
332.945 760.694 1998.44
333.009 760.594 1998.1
333.059 760.457 1997.75
333.18 760.189 1997.53
333.141 760.279 1997.52
333.288 760.37 1996.77
332.75 762.112 2001.89
332.869 762.142 2001.61
332.831 762.242 2001.77
333.51 760.511 1995.85
333.472 760.172 1996.47
333.328 760.021 1997.36
333.384 760.873 1995.89
333.397 760.786 1995.96
333.404 760.68 1995.99
333.4 760.988 1995.96
333.417 761.228 1996.02
311.656 764.973 1988.53
303.949 766.621 1991.57
304.541 766.177 1991.45
302.324 767.465 1991.89
301.465 767.538 1991.49
301.359 767.325 1991.06
301.317 767.133 1990.8
301.364 766.807 1990.54
301.199 766.312 1990.17
299.042 764.722 1988.91
298.996 764.445 1988.72
296.636 763.546 1987.83
296.181 763.378 1987.53
295.826 763.155 1987.06
295.636 763.04 1986.72
295.378 763.042 1986.46
295.12 763.073 1985.96
295.111 763.112 1986.25
294.822 763.213 1985.46
294.836 763.202 1985.8
294.945 763.514 1984.43
294.865 763.376 1984.77
294.812 763.299 1985.05
294.739 763.292 1985.29
295.103 763.631 1984.15
295.609 763.806 1983.51
296.821 764.377 1982.19
297.62 766.915 1979.42
297.503 765.498 1980.89
297.959 767.965 1978.02
282.615 779.529 2029.47
281.757 779.532 2028.47
280.483 779.546 2027.49
277.178 780.089 2025.48
276.904 780.066 2025.16
276.101 779.986 2023.69
274.974 779.993 2021.7
275.081 779.818 2021.41
275.066 780.017 2022.1
275.051 779.828 2021.17
275.291 779.695 2021
275.675 779.502 2021.01
277.405 778.915 2020.84
281.237 777.468 2020
282.582 776.913 2019.74
283.804 775.957 2020.31
284.084 775.754 2020.47
282.905 776.813 2019.2
283.203 776.557 2019.45
283.587 776.166 2019.99
283.484 776.284 2019.52
283.728 776.042 2020.03
284.345 775.124 2019.94
284.544 774.512 2019.2
284.816 773.985 2017.29
285.127 773.6 2016.47
284.427 774.447 2018.6
284.422 774.563 2019.02
