212.373 874.765 2870.2
212.259 874.925 2870.44
212.218 874.956 2870.61
212.244 874.869 2870.84
212.269 874.807 2871.01
212.048 867.965 2874.41
212.238 868.525 2873.97
212.343 870.153 2871.31
212.408 870.813 2870.67
210.233 866.321 2872.34
209.865 865.739 2872.09
209.492 864.763 2870.42
209.541 864.608 2870.29
209.476 864.951 2870.5
209.547 865.36 2871.25
209.655 865.587 2871.4
209.519 865.419 2870.93
209.459 865.204 2870.75
209.484 865.215 2870.52
209.597 864.579 2870.11
215.255 866.312 2866.58
214.116 867.5 2866.1
214.503 867.551 2865.89
214.455 867.639 2865.86
215.165 867.008 2866.01
214.768 867.64 2865.71
212.833 867.579 2866.4
211.364 867.816 2866.68
211.932 868.606 2866.2
212.172 868.602 2866.13
211.824 867.75 2866.56
211.698 868.623 2866.29
211.544 868.689 2866.34
215.415 866.369 2866.44
215.376 867.032 2865.85
215.298 867.807 2865.22
215.39 868.042 2864.98
215.276 868.033 2865.1
215.113 868.719 2864.95
215.04 869.359 2864.77
214.932 869.392 2864.89
215.156 869.287 2864.63
210.823 867.894 2867.01
211.393 868.724 2866.41
211.276 868.723 2866.48
210.66 867.87 2867.17
211.12 868.791 2866.59
211.189 868.768 2866.53
210.11 866.238 2868.72
209.999 866.119 2868.99
215.194 869.337 2864.52
215.35 869.254 2864.31
215.472 869.255 2864.06
213.796 862.31 2846.48
213.83 862.639 2847.54
213.732 862.599 2847.04
213.718 862.486 2846.82
213.738 862.422 2846.68
213.729 862.483 2846.52
213.821 862.357 2846.26
215.316 869.677 2862.83
215.363 869.593 2863.37
214.799 870.097 2862.13
214.297 870.5 2861.62
214.362 870.449 2861.2
214.391 870.376 2860.54
214.241 870.566 2860.96
214.486 870.235 2860.53
214.419 870.246 2860.21
214.336 869.853 2858.92
214.346 870.323 2860.1
214.378 869.376 2857.9
214.286 869.519 2857.84
214.425 869.254 2857.58
214.928 868.578 2857.29
215.59 867.557 2857.15
215.789 867.217 2857.4
215.936 866.947 2857.14
216.038 866.381 2856.98
216.068 866.1 2856.89
216.009 866.628 2856.78
215.97 866.871 2856.81
215.778 864.387 2855.97
215.71 864.419 2855.77
216.032 865.667 2856.64
215.33 863.358 2854.49
215.267 862.861 2853.15
215.279 862.559 2853.01
215.087 862.377 2851.41
214.425 862.468 2849.31
215.301 869.6 2863.76
215.248 869.555 2864.07
215.142 861.44 2846.64
214.824 861.596 2846.46
214.552 861.819 2846.14
214.368 861.997 2845.96
214.269 862.156 2845.75
214.087 862.207 2845.89
216.637 860.798 2847.75
214.001 862.334 2845.86
213.845 862.426 2846.02
218.565 860.451 2847.83
218.655 860.958 2846.9
218.372 860.874 2847.21
218.01 860.834 2847.43
218.696 861.44 2846.07
218.841 861.558 2845.8
219.688 861.499 2845.03
219.775 861.415 2844.95
219.098 861.728 2845.52
218.892 861.747 2845.58
219.276 861.756 2845.37
219.497 861.718 2845.2
219.66 861.676 2845.04
220.647 860.712 2843.94
220.37 860.828 2844.12
220.494 860.911 2844.05
220.118 861.142 2844.48
220.031 861.057 2844.57
219.839 861.47 2844.84
221.137 860.57 2843.75
221.011 860.651 2843.78
220.806 860.649 2843.86
221.312 860.585 2843.71
221.437 860.746 2843.69
222.352 861.274 2843.61
222.993 862.774 2843.84
222.518 863.44 2844.14
223.112 862.154 2843.66
222.225 861.622 2843.69
222.269 863.673 2844.25
191.953 910.126 2880.5
191.952 910.022 2879.68
192.187 909.675 2879.18
193.897 907.265 2879.14
192.496 909.273 2878.87
194.13 906.805 2878.99
194.332 906.067 2879.18
194.713 904.565 2878.91
195.219 902.798 2878.81
196.187 900.224 2878.49
197.18 897.707 2878.09
197.62 896.153 2878.61
197.738 895.861 2878.89
198.305 894.98 2878.39
198.412 894.802 2878.55
199.127 893.855 2878.08
198.943 894.06 2878.04
199.371 893.663 2878.21
198.833 894.203 2877.95
199.718 893.617 2878.67
200.254 893.451 2879.06
189.299 915.883 2883.56
189.82 915.02 2882.12
190.24 913.559 2881.25
190.387 913.3 2881.57
190.717 912.873 2882.12
190.905 911.607 2880.48
206.803 880.819 2882.81
207.129 881.012 2881.54
207.177 881.527 2881.41
207.233 882.029 2881.39
207.158 882.141 2880.93
206.887 882.316 2880.23
206.449 881.894 2879.35
204.996 881.445 2876.7
202.501 881.939 2872.48
201.903 882.184 2871.5
202.774 881.008 2872.55
207.097 882.834 2880.59
204.068 880.321 2874.62
202.391 880.362 2870.7
202.742 880.654 2872.11
202.177 880.738 2870.89
202.063 880.578 2870.17
202.187 880.367 2869.81
202.61 879.887 2869.77
202.9 879.608 2868.98
203.237 879.296 2868.42
203.641 879.053 2868.74
204.163 879.005 2870.37
205.105 878.784 2871.8
206.6 877.687 2872.99
205.525 878.56 2871.95
207.899 876.749 2873.44
208.847 875.942 2873.22
209.658 875.23 2873.11
209.939 875.007 2873.22
211.206 874.343 2873.17
212.4 873.877 2872.78
212.443 874.192 2872.1
212.089 874.944 2871.01
212.3 874.415 2869.29
212.324 874.689 2869.42
212.331 874.77 2869.51
212.39 874.631 2869.85
212.674 872.987 2870.1
212.43 872.338 2869.81
212.243 873.959 2869.08
211.721 872.288 2868.36
211.544 870.615 2868.61
212.396 874.719 2870
212.269 875.032 2869.92
212.225 875.153 2869.99
212.308 875.013 2869.73
212.164 875.253 2870.11
212.026 875.218 2870.41
211.982 875.139 2870.67
211.316 868.127 2871.98
210.39 866.658 2872.23
211.362 869.846 2868.85
211.207 869.178 2869.46
209.777 865.846 2871.49
210.148 866.46 2871.66
209.506 865.087 2870.31
209.542 864.85 2870.2
209.506 865.254 2870.37
209.645 865.72 2870.99
209.552 865.632 2870.71
209.528 865.48 2870.54
209.881 866.353 2869.59
209.96 866.51 2869.26
213.998 867.599 2866.1
214.17 867.665 2865.97
214.307 867.851 2865.81
214.612 867.833 2865.7
215.041 867.693 2865.5
214.768 867.767 2865.66
214.864 867.901 2865.52
213.013 868.603 2865.96
213.88 867.827 2866.01
212.117 869.699 2865.73
212.362 869.83 2865.57
212.653 869.606 2865.62
212.03 869.955 2865.67
211.834 869.887 2865.8
215.103 867.976 2865.3
215.191 867.795 2865.33
214.96 868.673 2865.12
214.894 869.276 2864.98
214.975 869.499 2864.74
214.83 869.559 2864.89
214.803 869.443 2865.01
211.762 870.102 2865.79
211.635 869.939 2865.96
210.611 867.924 2867.23
211.053 868.816 2866.65
211.469 869.948 2866.15
211.577 870.114 2865.98
210.536 867.734 2867.39
210.026 866.388 2868.9
210.549 867.93 2867.34
215.06 869.53 2864.53
215.24 869.439 2864.29
213.764 862.496 2846.25
213.817 862.87 2847.57
213.727 862.831 2847.16
213.672 862.863 2846.84
213.654 862.741 2846.6
213.676 862.647 2846.52
213.707 862.609 2846.31
215.129 869.87 2863.38
215.105 869.846 2863.76
214.562 870.334 2862.87
214.133 870.647 2862.39
214.158 870.603 2861.57
214.001 870.756 2862.07
214.107 870.647 2861.49
214.214 870.605 2860.63
214.143 870.683 2861.03
214.031 870.729 2861.5
214.323 870.224 2859.65
214.314 869.92 2858.81
214.238 869.691 2858.09
214.212 870.588 2860.26
214.321 869.424 2857.48
214.231 869.588 2857.56
214.414 869.271 2857.22
215.28 868.305 2856.02
215.767 867.578 2856.19
215.742 867.321 2857.05
215.87 867.092 2857
216.042 866.345 2856.71
216.058 866.03 2856.59
216.091 866.923 2856.04
216.111 866.764 2856.05
216.027 867.077 2856.11
215.669 864.552 2855.59
215.342 863.598 2854.57
216.002 865.713 2856.35
215.271 863.282 2853.2
215.091 862.828 2851.58
214.451 862.723 2849.44
215.1 869.792 2864.06
215.01 869.735 2864.37
215.319 861.565 2846.34
214.912 861.763 2846.09
214.668 861.976 2845.81
214.487 862.113 2845.68
214.292 862.317 2845.53
214.127 862.319 2845.68
214.436 862.306 2845.44
216.582 861.045 2847.21
214.026 862.476 2845.62
213.903 862.485 2845.79
213.8 862.551 2845.99
218.531 861.314 2846.4
218.163 861.344 2846.5
218.36 861.597 2846.05
216.594 861.369 2846.6
218.497 861.621 2845.92
218.664 861.714 2845.71
219.746 861.56 2844.92
219.171 861.913 2845.33
219.034 861.922 2845.37
218.837 861.891 2845.46
219.385 861.866 2845.27
219.586 861.827 2845.15
219.772 861.725 2844.9
219.713 861.854 2845.01
220.674 860.901 2843.94
220.21 861.219 2844.41
220.465 861.467 2844.27
220.305 861.304 2844.34
219.937 861.556 2844.72
219.834 861.583 2844.81
221.228 860.736 2843.71
221.155 860.838 2843.74
220.885 860.789 2843.83
221.38 860.944 2843.69
222.629 862.794 2843.95
221.489 863.16 2844.39
221.266 863.232 2844.46
222.031 861.934 2843.82
221.343 861.062 2843.71
221.896 863.721 2844.36
221.958 863.854 2844.35
220.972 863.248 2844.53
221.938 863.981 2844.36
221.828 864.107 2844.38
191.06 911.191 2879.85
191.052 911.182 2879.39
191.096 911.152 2878.89
193.761 907.523 2878.95
194.056 907.133 2878.81
192.579 909.192 2878.6
191.381 910.874 2878.32
194.273 906.509 2878.75
194.208 906.805 2878.67
194.375 906.071 2878.88
194.705 904.579 2878.68
195.004 903.396 2878.67
195.962 900.885 2878.37
196.935 898.641 2877.36
197.399 897.133 2877.72
198.105 895.438 2877.96
198.192 895.194 2878.19
198.61 894.596 2877.58
198.739 894.362 2877.74
199.067 893.87 2877.84
199.253 893.675 2877.91
198.933 894.04 2877.74
199.461 893.493 2878.04
199.686 893.491 2878.37
198.823 894.18 2877.6
200.064 893.191 2878.45
189.301 915.911 2883.24
190.11 913.932 2881.03
190.673 911.981 2880.23
190.591 912.185 2879.73
190.903 911.37 2879.67
206.824 881.063 2882.96
207.145 881.47 2882.17
207.145 881.365 2881.88
207.275 881.892 2881.95
207.523 882.693 2882.06
207.422 882.916 2881.43
206.603 882.701 2879.55
206.202 882.249 2878.85
204.306 882.056 2875.48
202.785 882.464 2872.9
201.957 883.534 2871.84
201.308 882.337 2870.44
201.02 883.336 2870.34
201.298 883.716 2870.98
201.767 881.358 2870.77
207.8 884.647 2881.15
207.034 884.284 2879.46
201.866 880.878 2870.31
201.608 881.309 2870.25
201.774 880.844 2869.63
201.688 880.963 2869.79
201.956 880.646 2869.36
202.486 880.04 2869.39
202.927 879.601 2868.41
203.231 879.336 2868.01
203.811 878.958 2868
203.484 879.148 2867.9
204.284 878.729 2868.24
204.602 878.773 2869.86
205.555 878.638 2871.3
206.212 878.207 2872.1
206.695 877.793 2872.56
207.587 877.04 2873.24
205.914 878.481 2871.65
208.148 876.631 2873.17
208.906 875.983 2872.94
209.527 875.412 2872.79
209.837 875.171 2872.81
210.139 874.959 2872.85
211.178 874.471 2872.79
212.111 874.51 2871.86
212.007 874.907 2871.18
211.776 875.322 2870.63
211.683 875.255 2870.88
212.229 874.626 2868.86
212.263 874.875 2869.09
212.251 875.056 2869.09
212.325 874.952 2869.57
212.257 875.157 2869.17
211.643 872.582 2867.97
211.38 870.478 2868.12
211.177 869.732 2868.2
212.248 875.352 2869.38
212.223 875.394 2869.54
212.141 875.508 2869.66
212.262 875.269 2869.27
211.957 875.537 2870.01
212.039 875.568 2869.79
211.827 875.5 2870.25
210.625 867.478 2870.92
210.283 867.139 2870.24
210.06 866.606 2868.83
210.012 866.567 2869.02
210.182 867.061 2869.76
209.922 866.399 2870.06
210.313 867.546 2868.83
210.81 868.958 2867.57
210.803 868.926 2867.35
214.162 868.525 2865.69
213.873 868.53 2865.79
214.418 868.556 2865.57
214.613 868.596 2865.44
214.798 868.64 2865.29
213.359 869.585 2865.49
213.942 869.192 2865.57
212.318 870.143 2865.45
212.625 869.991 2865.39
212.673 870.213 2865.27
211.999 870.313 2865.55
212.233 870.339 2865.41
214.79 869.294 2865.09
214.828 869.698 2864.75
214.733 869.575 2865
214.696 869.768 2864.84
214.641 869.558 2865.09
214.658 869.456 2865.13
212.015 870.629 2865.37
211.902 870.767 2865.43
210.986 868.852 2866.73
211.366 869.858 2866.29
211.974 871.365 2865.08
211.946 871.208 2865.2
210.863 868.87 2867.04
210.936 868.911 2866.84
214.874 869.771 2864.59
214.409 863.069 2849.33
213.736 863.075 2847.26
213.8 863.058 2847.55
213.72 862.971 2847.18
213.675 863.046 2846.85
213.642 862.866 2846.41
213.646 862.975 2846.58
213.672 862.743 2846.29
213.739 862.671 2846.06
214.835 870.099 2863.73
214.788 870.079 2864.05
214.4 870.446 2863.37
213.972 870.755 2862.9
213.801 870.847 2862.73
213.965 870.764 2862.44
213.856 870.88 2862.04
213.655 870.953 2862.56
214.073 870.825 2860.85
214.036 870.78 2861.26
213.854 870.915 2861.81
214.263 870.01 2858.82
214.237 870.556 2859.94
214.185 869.69 2857.62
214.132 870.817 2860.41
214.224 869.589 2857.29
214.31 869.439 2857.17
214.718 869.067 2856.08
215.149 868.668 2854.66
215.528 868.15 2855.04
215.909 867.658 2855.31
216.028 867.438 2855.49
215.873 867.368 2856.21
215.955 867.22 2856.19
216.124 866.565 2856.01
216.105 866.314 2855.86
216.129 867.177 2855.4
216.165 867.051 2855.24
216.188 866.868 2855.17
216.07 867.336 2855.46
215.652 864.695 2855.36
215.319 863.817 2853.53
216.058 866.066 2855.68
215.997 865.817 2855.47
215.101 864.441 2851.31
214.903 869.915 2864.29
214.792 869.931 2864.49
215.207 861.856 2845.87
214.938 862.083 2845.58
214.706 862.185 2845.5
214.453 862.385 2845.31
214.198 862.511 2845.44
214.349 862.59 2845.27
214.539 862.592 2845.15
214.001 862.669 2845.51
214.148 862.732 2845.32
213.906 862.629 2845.66
213.838 862.665 2845.78
217.903 861.653 2846.09
218.129 861.779 2845.85
218.568 861.803 2845.66
215.524 861.929 2845.72
216.711 861.686 2846.06
219.238 862.052 2845.19
219.087 862.114 2845.2
218.934 862.08 2845.26
218.742 861.973 2845.43
219.458 862.006 2845.14
219.635 862.004 2845.06
219.857 861.911 2844.86
219.898 861.714 2844.77
219.798 862.035 2844.95
220.866 861.024 2843.87
220.672 861.715 2844.22
220.051 861.676 2844.63
220.286 862.098 2844.58
221.104 860.957 2843.77
221.299 862.181 2844.11
221.624 862.941 2844.29
220.966 862.831 2844.46
220.396 862.65 2844.63
220.639 862.686 2844.56
220.228 862.66 2844.68
221.225 861.185 2843.78
220.74 863.244 2844.59
221.429 863.715 2844.48
220.13 862.726 2844.72
221.806 864.239 2844.36
221.432 863.854 2844.49
221.354 863.988 2844.48
190.788 911.646 2879.38
191.098 911.373 2878.43
190.849 911.656 2878.93
193.865 907.484 2878.67
192.643 909.176 2878.36
194.161 907.183 2878.52
191.306 911.201 2878.02
191.554 910.773 2877.95
194.318 906.595 2878.54
194.434 906.072 2878.67
194.265 906.966 2878.38
194.712 904.607 2878.5
194.92 903.596 2878.48
195.728 901.494 2878.32
196.662 899.487 2877.73
196.934 898.804 2877.11
197.127 898.261 2876.66
197.191 897.89 2876.85
197.848 896.289 2877.39
198.468 895.05 2877.25
198.525 894.767 2877.43
198.631 894.589 2877.35
198.727 894.375 2877.45
198.981 893.845 2877.56
199.168 893.585 2877.64
198.87 894.057 2877.42
199.51 893.15 2877.8
198.74 894.275 2877.26
200.225 892.518 2878.11
202.472 892.648 2880.27
189.316 915.964 2883.02
189.788 915.15 2881.9
190.031 914.237 2880.88
190.448 912.665 2879.42
190.619 912.159 2879.28
206.904 881.397 2883.13
207.247 881.853 2882.43
207.484 882.507 2882.56
208.02 884.079 2882.36
206.289 883.903 2878.15
205.409 883.478 2876.8
205.51 884.434 2876.61
205.105 884.565 2876.01
203.326 883.933 2873.67
203.988 884.878 2874.63
202.162 884.418 2872.4
200.851 883.26 2869.92
201.178 882.319 2870.1
200.88 883.759 2870.34
200.78 883.555 2869.99
201.232 884.297 2871.2
207.686 885.838 2879.79
201.488 881.306 2869.79
201.091 882.273 2869.78
201.501 881.269 2869.56
201.565 881.184 2869.32
201.767 880.936 2869.1
202.458 880.136 2868.89
202.953 879.624 2868.03
203.243 879.358 2867.77
203.691 879.041 2867.62
204.181 878.793 2867.38
204.412 878.676 2867.54
204.959 878.474 2867.96
204.914 878.474 2867.37
205.484 878.476 2869.5
207.243 878.161 2870.48
207.672 878.052 2870.73
208.186 877.904 2870.83
208.228 877.824 2871.12
207.703 877.818 2871.7
207.523 877.243 2872.88
207.953 876.903 2872.96
208.326 876.575 2872.95
208.962 876.068 2872.67
209.527 875.505 2872.5
209.765 875.301 2872.55
210.029 875.074 2872.7
210.198 875.028 2872.53
211.198 874.737 2872.23
211.844 874.807 2871.54
211.764 875.034 2871.2
211.613 874.948 2871.52
211.475 875.306 2871.03
211.629 875.413 2870.68
211.652 875.569 2870.43
211.479 875.445 2870.82
212.252 875.08 2868.79
212.111 875.212 2867.38
212.129 874.697 2868.27
212.244 875.719 2868.25
212.25 875.872 2868.43
212.224 875.979 2868.55
212.021 874.533 2867.84
211.676 873.424 2867.63
211.411 872.683 2867.24
211.319 871.502 2867.41
211.375 870.657 2867.8
211.289 870.156 2867.82
210.808 868.886 2867.97
212.186 876.038 2868.67
212.136 876.169 2868.84
212.081 876.275 2868.98
212.002 876.378 2869.12
211.77 876.392 2869.5
211.896 876.416 2869.29
211.597 876.329 2869.78
210.831 868.928 2867.18
211.24 870.174 2867.42
211.272 870.18 2867.6
211.203 870.051 2867.27
211.212 870.07 2866.99
214.192 869.25 2865.46
214.411 869.326 2865.32
214.611 869.312 2865.21
213.435 869.821 2865.33
214.076 869.408 2865.44
212.523 870.37 2865.24
213.463 870.015 2865.19
212.828 870.354 2865.12
212.201 870.59 2865.28
212.464 870.564 2865.13
214.718 869.915 2864.65
214.541 869.752 2864.99
214.491 869.979 2864.79
214.277 869.79 2865.1
214.467 869.605 2865.15
214.469 869.487 2865.23
212.258 870.976 2865.02
212.339 870.815 2865.04
212.438 871.557 2864.4
212.512 871.411 2864.41
211.277 869.865 2866.45
211.29 869.814 2866.41
211.492 870.793 2865.92
212.696 872.496 2863.8
213.08 871.84 2863.21
212.954 871.737 2863.47
211.265 870.01 2866.59
211.238 870.018 2866.78
214.33 863.488 2849.03
213.775 863.358 2847.26
213.693 863.208 2846.92
213.683 863.3 2846.62
213.654 863.105 2846.5
213.659 863.008 2846.3
213.675 862.881 2846.18
213.737 862.834 2846.03
213.83 862.841 2845.77
214.258 870.484 2863.76
214.685 870.092 2864.33
213.681 870.856 2863.34
213.674 870.879 2863.1
213.629 870.937 2862.78
213.624 870.956 2863.03
213.658 871.02 2862.37
213.591 871.032 2862.73
213.998 870.98 2860.98
213.931 870.931 2861.4
213.806 870.994 2861.81
213.612 871.122 2862.45
214.261 870.396 2859.48
214.244 870.134 2858.77
214.171 869.809 2858.02
214.195 870.681 2859.86
214.123 869.828 2857.26
214.13 869.818 2857.61
214.157 869.746 2857.37
214.171 869.707 2857.26
214.102 870.964 2860.42
214.233 869.584 2857.03
214.187 869.684 2857.06
214.588 869.271 2856.13
215 868.902 2854.63
215.574 868.087 2854.67
215.15 868.663 2854.22
215.995 867.549 2855.14
216.175 866.74 2855.01
216.127 866.429 2854.92
216.092 867.32 2855.19
216.114 867.214 2854.96
216.137 867.038 2854.87
216.089 866.922 2854.62
215.721 865.132 2854.61
215.364 864.122 2853.67
215.724 865.499 2853.71
215.776 865.87 2853.7
215.726 866.103 2853.46
215.196 865.735 2851.68
215.035 865.728 2850.93
214.854 866.038 2849.13
214.798 865.833 2848.72
214.731 865.515 2848.55
214.348 864.001 2848.79
214.625 870.078 2864.5
215.169 862.159 2845.43
214.783 862.402 2845.2
214.756 862.581 2845.04
214.337 862.848 2845.09
214.626 862.842 2844.91
214.911 862.86 2844.75
214.017 862.858 2845.4
214.141 862.886 2845.24
214.373 862.972 2845.02
213.943 862.891 2845.51
217.901 862.027 2845.56
216.728 862.076 2845.5
218.446 861.872 2845.64
215.558 862.348 2845.14
219.322 862.176 2845.07
219.16 862.284 2845.05
218.965 862.264 2845.12
218.62 862.221 2845.25
218.784 862.103 2845.29
218.803 862.252 2845.17
218.417 862.088 2845.41
219.504 862.195 2845
219.686 862.17 2844.93
219.949 862.125 2844.83
220.014 861.922 2844.73
219.861 862.251 2844.86
220.908 861.901 2844.15
220.565 862.409 2844.49
220.298 862.403 2844.64
220.123 862.224 2844.74
220.115 862.392 2844.75
219.98 862.485 2844.79
220.55 863.312 2844.64
219.963 862.81 2844.77
219.892 862.652 2844.8
221.332 864.159 2844.43
220.39 863.404 2844.66
220.215 863.494 2844.66
190.88 911.943 2878.37
191.07 911.749 2878.03
190.637 912.265 2878.92
192.785 909.069 2878.15
193.964 907.506 2878.38
194.24 907.301 2878.2
191.435 911.229 2877.67
191.662 910.764 2877.71
194.374 906.675 2878.34
194.506 906.106 2878.46
194.757 904.647 2878.37
194.372 907.027 2878.16
194.921 903.659 2878.31
195.597 901.85 2878.26
196.893 899.054 2877.05
196.285 900.325 2877.93
197.236 898.076 2876.4
197.334 897.711 2876.6
197.823 896.767 2876.6
198.308 896.434 2875.97
198.435 895.819 2876.42
198.531 895.543 2876.5
198.556 894.923 2877.14
198.615 894.685 2877.15
198.668 894.464 2877.18
198.923 893.667 2877.2
199.016 893.31 2877.18
199.23 893.194 2877.46
198.787 894.008 2877.1
199.366 892.611 2877.34
198.674 894.358 2876.99
199.732 891.258 2876.97
203.092 891.119 2879.75
200.04 890.017 2876.54
206.531 888.4 2880.31
206.899 887.011 2878.97
189.331 916.052 2882.82
190.029 914.335 2880.62
190.446 912.785 2879.17
207.137 886.811 2879.04
207.093 886.482 2878.8
207.51 885.905 2879.39
207.459 886.054 2879.26
206.263 885.731 2877.55
207.45 886.342 2879.24
205.423 885.889 2876.61
204.081 885.699 2875.12
200.623 883.468 2869.57
200.762 883.19 2869.54
200.618 883.992 2870.06
200.51 883.69 2869.63
202.324 885.338 2873.13
200.748 884.602 2870.86
201.118 882.129 2869.49
200.753 883.015 2869.22
201.176 882.019 2869.22
201.226 881.985 2868.93
201.774 881.004 2868.81
202.595 880.034 2868.34
203.091 879.523 2867.72
203.487 879.197 2867.52
203.816 879.017 2867.27
204.22 878.818 2867.12
204.751 878.58 2866.96
205.587 878.263 2867.43
205.813 878.213 2868
205.565 878.304 2867.01
206.751 878.116 2869.07
208.966 877.795 2869.45
207.385 877.967 2868.42
209.639 877.686 2869.44
210.051 877.586 2869.54
210.774 877.584 2869.11
210.778 877.689 2868.73
208.212 877.524 2871.89
210.787 877.474 2869.45
208.494 877.369 2871.93
207.891 877.096 2872.74
208.142 876.998 2872.66
208.255 876.774 2872.78
208.505 876.615 2872.69
209.089 876.104 2872.43
209.632 875.545 2872.29
209.988 875.219 2872.38
209.849 875.376 2872.27
210.396 875.081 2872.18
210.856 874.985 2872
211.353 875.192 2871.31
210.793 875.16 2871.75
211.187 875.375 2871.15
211.463 875.601 2870.66
211.272 876.235 2870.36
211.227 875.52 2871
212.228 875.557 2868.01
211.971 874.736 2866.86
212.088 875.735 2866.67
211.982 875.138 2865.82
211.926 874.605 2866.11
211.97 874.968 2866.18
212.197 876.462 2867.48
212.058 876.018 2866.32
212.21 876.492 2867.75
212.186 876.626 2867.93
211.706 873.776 2867.11
211.345 872.413 2866.97
211.287 871.359 2867.1
211.372 870.594 2867.56
212.161 876.782 2868.12
212.131 876.941 2868.24
212.085 877.032 2868.38
212.017 877.103 2868.49
211.813 877.228 2868.72
211.933 877.199 2868.58
211.626 877.053 2869.14
211.247 870.245 2867.03
211.284 871.274 2866.84
211.326 870.459 2867.3
211.312 871.125 2866.46
214.279 869.383 2865.37
214.187 869.548 2865.31
212.789 870.501 2865
213.566 870.148 2865.06
214.146 869.76 2865.18
212.474 870.759 2864.97
212.599 870.638 2864.96
214.544 870.063 2864.65
214.295 869.961 2864.95
213.792 870.419 2864.63
213.724 870.344 2864.78
212.549 871.142 2864.65
212.933 871.608 2863.57
212.82 871.367 2863.97
213.009 871.507 2863.49
211.451 871.03 2865.98
212.1 872.672 2864.66
213.236 873.066 2862.96
213.923 872.806 2861.93
213.454 872.326 2862.61
213.423 871.939 2862.62
212.324 873.45 2864.33
213.291 871.638 2862.84
213.439 871.746 2862.59
213.212 871.551 2862.99
211.379 871.02 2866.17
211.333 870.98 2866.33
214.29 864.428 2848.14
213.744 863.519 2846.81
214.172 864.592 2847.31
213.746 863.631 2846.49
213.691 863.314 2846.4
213.699 863.218 2846.21
213.717 863.069 2846.09
213.754 862.981 2845.96
213.826 863.028 2845.77
213.91 863.054 2845.56
214.13 870.493 2864.09
213.468 870.922 2863.73
214.03 870.48 2864.29
213.41 871.025 2863.46
213.538 871.092 2862.97
213.523 871.053 2863.18
213.532 871.148 2862.78
213.97 871.093 2861.05
213.857 871.094 2861.57
213.72 871.119 2861.98
213.567 871.236 2862.52
213.437 871.264 2862.91
214.197 870.203 2858.7
214.2 870.66 2859.57
214.159 870.825 2859.92
214.15 869.8 2857.02
214.122 869.912 2857.01
214.092 869.947 2857.36
214.109 869.936 2857.72
214.16 869.732 2857.12
214.108 871.004 2860.16
214.001 871.17 2860.78
214.48 869.472 2856.14
214.44 869.606 2856.07
214.821 869.193 2854.82
214.935 869.024 2854.51
215.607 868.019 2854.39
215.204 868.521 2853.81
215.111 868.738 2854.06
214.995 868.943 2854.28
216.017 867.474 2854.88
216.108 866.636 2854.64
215.996 867.357 2854.57
216.041 867.158 2854.54
215.946 866.998 2854.17
215.922 867.17 2854.19
216.043 867.045 2854.48
216.042 866.757 2854.36
215.697 866.348 2853.38
215.553 866.545 2853
215.149 866.121 2851.71
215.001 866.12 2850.95
214.807 866.277 2848.87
214.58 866.281 2847.05
214.609 866.047 2847.2
214.539 865.828 2847.04
213.924 870.456 2864.46
215.125 862.446 2845.07
215.173 862.66 2844.85
215.247 862.887 2844.63
214.668 863.076 2844.76
214.973 863.171 2844.51
215.243 863.238 2844.36
215.476 863.225 2844.29
214.085 862.942 2845.24
214.194 863.045 2845.13
214.391 863.183 2844.93
214.737 863.427 2844.58
214.017 863.142 2845.37
217.96 862.246 2845.3
216.906 862.372 2845.11
215.625 862.698 2844.73
216.032 862.703 2844.7
219.359 862.34 2844.96
219.014 862.403 2845.03
219.21 862.452 2844.96
218.773 862.381 2845.1
218.565 862.422 2845.12
218.285 862.374 2845.17
219.581 862.37 2844.9
219.774 862.413 2844.87
219.684 862.78 2844.85
219.7 862.595 2844.87
221.421 864.372 2844.33
221.02 864.202 2844.42
221.008 864.098 2844.49
219.981 863.522 2844.65
219.381 862.734 2844.88
219.229 862.861 2844.84
188.72 917.175 2884.81
190.639 912.461 2878.63
190.886 912.215 2877.98
191.089 912.042 2877.57
191.19 911.684 2877.69
192.841 909.109 2877.97
192.984 909.018 2877.85
194.229 907.55 2878.01
194.042 907.578 2878.22
194.776 907.799 2877.2
191.443 911.475 2877.35
191.634 911.028 2877.45
191.832 910.754 2877.38
194.527 906.61 2878.15
194.604 906.154 2878.24
194.82 904.676 2878.24
194.961 903.665 2878.22
194.846 907.087 2877.57
195.254 902.782 2878.25
194.945 903.476 2878.3
196.632 899.887 2877.53
196.916 899.084 2876.9
197.196 898.476 2876.31
196.03 900.951 2878
197.363 898.073 2876.1
197.401 897.788 2876.25
197.856 897.129 2876.07
198.279 896.972 2875.48
198.346 896.888 2875.33
198.389 896.659 2875.39
198.574 895.722 2876
198.443 896.631 2875.2
198.584 894.918 2876.87
198.61 894.589 2876.96
198.758 893.314 2876.75
198.738 893.699 2876.91
199.074 892.853 2877.06
198.637 894.137 2876.82
199.198 891.659 2876.65
198.574 894.425 2876.72
197.826 890.037 2874.62
196.487 888.663 2872.9
200.864 888.978 2876.47
205.112 888.202 2878.82
196.074 887.99 2872.19
205.328 886.782 2877.26
189.392 916.082 2882.48
190.016 914.5 2880.47
190.476 912.9 2878.91
200.436 883.54 2869.22
200.597 883.313 2869.15
200.333 884.138 2869.84
200.209 883.783 2869.21
200.213 883.66 2868.92
201.875 885.68 2873.07
200.249 884.873 2870.62
200.858 882.816 2869.01
200.654 883.12 2868.97
200.944 882.712 2868.77
201.278 881.95 2868.8
201.019 882.687 2868.4
201.192 882.454 2868.37
201.499 881.719 2868.49
202.687 879.982 2868.02
203.147 879.49 2867.54
203.451 879.252 2867.35
203.847 879.047 2867.05
204.286 878.843 2866.87
204.61 878.696 2866.79
205.397 878.654 2866.3
205.526 878.378 2866.7
206.237 878.149 2867.12
206.249 878.106 2867.49
206.236 878.234 2866.74
205.807 878.283 2866.78
207.914 877.937 2867.94
209.553 877.761 2869.01
210.395 877.883 2868.3
210.596 877.784 2868.56
211.136 877.97 2867.67
211.386 877.793 2868.05
210.939 878.04 2867.59
209.698 877.361 2871.04
210.905 877.378 2869.53
211.562 877.589 2868.46
208.739 877.267 2871.94
209.932 877.266 2870.97
208.93 877.16 2871.95
208.334 876.882 2872.61
208.559 876.738 2872.54
209.267 876.118 2872.23
209.866 875.521 2872.06
210.023 875.395 2872.06
210.126 875.182 2872.28
210.221 875.231 2872.1
210.664 875.305 2871.61
210.566 875.44 2871.53
211.229 875.669 2870.89
210.828 876.257 2870.89
211.052 876.83 2870.16
210.528 876.799 2870.86
210.507 875.568 2871.47
211.643 873.607 2866.6
211.987 875.269 2865.37
211.944 874.564 2865.74
212.052 875.053 2865.28
211.631 873.425 2866.26
211.998 876.191 2865.97
212.16 876.704 2867.24
211.957 875.412 2865.02
212.171 876.752 2867.58
212.179 876.71 2867.42
212.145 876.906 2867.76
211.331 872.292 2866.74
212.116 877.094 2867.9
212.084 877.165 2868.16
212.034 877.219 2868.34
211.701 877.32 2868.72
211.851 877.358 2868.52
211.965 877.304 2868.44
211.148 877.02 2869.82
211.581 877.3 2868.88
211.29 871.225 2866.62
211.355 872.238 2866.41
211.668 873.092 2865.73
211.754 872.983 2865.42
212.722 870.721 2864.8
212.972 870.623 2864.79
213.673 870.247 2864.93
212.741 871.003 2864.58
212.651 870.823 2864.79
212.919 870.803 2864.56
213.041 870.894 2864.34
212.793 871.172 2864.28
213.215 871.48 2863.08
212.941 871.267 2863.78
213.104 871.382 2863.4
213.338 871.38 2863
211.829 872.799 2865.19
211.982 872.876 2864.88
212.598 873.588 2863.8
212.385 873.652 2864.18
213.405 873.082 2862.68
214.1 873.046 2861.63
214.124 872.971 2861.59
213.812 872.461 2862.04
214.26 872.915 2861.31
213.594 871.711 2862.19
212.18 873.514 2864.55
212.228 873.721 2864.45
213.482 871.502 2862.55
213.53 871.547 2862.34
213.473 871.399 2862.67
214.121 864.671 2846.86
214.133 864.749 2846.54
214.153 864.8 2846.22
213.774 863.66 2846.23
213.814 863.673 2846.01
213.771 863.368 2845.96
213.78 863.179 2845.87
213.863 863.238 2845.67
213.963 863.264 2845.48
213.16 871.024 2863.8
213.281 870.904 2864.04
213.213 871.157 2863.48
213.328 871.195 2863.25
213.197 871.274 2863.34
213.874 871.219 2861.48
213.665 871.304 2861.97
213.622 871.257 2862.16
214.167 870.356 2858.56
214.176 870.821 2859.61
214.428 869.723 2855.98
214.106 870.005 2857.01
214.428 869.851 2855.88
214.079 870.107 2857.22
214.089 870.105 2857.56
214.134 871.11 2860.04
214.033 871.268 2860.6
214.14 870.948 2859.85
213.913 871.349 2861.31
214.857 869.231 2854.55
214.867 869.318 2854.36
215.596 867.937 2854.12
215.106 868.655 2853.59
215.123 868.722 2853.88
215.217 868.426 2853.64
215.183 868.4 2853.44
214.997 869.022 2854.11
215.533 867.836 2853.76
215.478 867.685 2853.48
215.961 866.831 2854.13
215.307 867.215 2852.74
214.876 866.871 2851.36
214.794 866.425 2849.07
214.733 866.951 2850.78
214.544 866.503 2847.05
214.559 866.421 2846.78
214.573 866.125 2846.79
214.58 866.319 2846.66
214.523 865.929 2846.61
215.575 862.957 2844.46
215.719 863.297 2844.18
215.021 863.508 2844.32
215.282 863.64 2844.13
215.527 863.638 2844.04
215.671 863.511 2844.07
214.204 863.351 2845.09
214.333 863.346 2844.92
214.646 863.611 2844.58
214.986 863.853 2844.27
215.145 863.824 2844.17
214.135 863.442 2845.2
217.145 862.639 2844.83
218.053 862.475 2845.08
215.922 863.025 2844.35
216.219 863 2844.38
219.468 862.541 2844.9
218.945 862.515 2845
219.125 862.638 2844.92
219.206 862.562 2844.94
218.773 862.556 2845.01
218.56 862.595 2845.02
218.29 862.627 2844.97
221.265 864.49 2844.23
221.064 864.377 2844.3
220.9 864.284 2844.37
219.724 863.549 2844.62
218.992 862.772 2844.88
188.767 917.27 2884.54
189.455 916.155 2882.2
190.671 912.576 2878.34
190.845 912.516 2877.83
191.027 912.273 2877.48
191.167 912.277 2877.21
191.238 911.899 2877.36
192.893 909.289 2877.66
193.064 909.23 2877.52
194.668 908.238 2876.98
195.265 908.135 2876.32
195.005 909.222 2875.84
195.235 909.075 2875.66
191.463 911.715 2877.11
191.702 911.17 2877.18
191.903 910.958 2877.06
195.385 906.078 2877.32
194.757 906.085 2878
194.919 904.8 2878.07
195.03 903.68 2878.09
195.005 903.543 2878.18
195.977 905.958 2876.62
195.333 902.79 2878.13
196.541 900.11 2877.57
196.871 899.398 2876.94
197.106 898.748 2876.39
197.255 898.587 2876.11
196.056 901.063 2877.93
197.432 898.374 2875.9
197.829 897.729 2875.63
197.831 897.384 2875.83
198.241 897.221 2875.31
198.393 896.899 2875.14
198.357 897.133 2875.1
198.607 895.694 2875.72
198.501 896.644 2874.75
198.464 896.631 2874.98
198.454 896.878 2874.87
198.596 894.759 2876.63
198.621 895.424 2875.81
198.426 893.232 2876.14
198.667 892.82 2876.4
198.527 893.793 2876.5
198.407 891.714 2875.82
198.499 894.184 2876.48
195.872 889.503 2872.71
198.534 894.529 2876.39
194.678 888.328 2871.28
193.975 887.713 2870.39
195.982 887.543 2871.79
197.269 887.391 2872.52
202.66 887.48 2876.03
193.993 887.382 2870.17
189.978 914.808 2880.49
190.44 913.143 2878.83
190.662 912.794 2878.24
200.513 883.323 2868.92
200.327 883.432 2868.7
199.801 884.385 2869.51
199.922 883.858 2868.73
200.149 883.541 2868.41
200.055 885.317 2871.06
200.702 883.036 2868.77
200.832 882.92 2868.54
200.987 882.796 2868.17
201.22 882.554 2868
201.417 882.319 2867.87
201.932 881.208 2868.11
203.018 879.658 2867.56
203.366 879.359 2867.27
203.691 879.175 2867.05
204.213 878.944 2866.77
204.603 878.801 2866.58
205.045 878.716 2866.36
205.741 878.484 2866.38
205.507 878.623 2866.26
206.031 878.353 2866.49
206.74 878.116 2866.94
207.826 878.534 2865.73
208.117 878.321 2866.3
208.581 878.054 2867.33
209.792 878.097 2867.47
210.367 878.32 2866.52
210.174 878.321 2866.56
211.23 877.998 2867.39
210.506 878.341 2866.29
210.656 878.322 2866.14
211.61 877.726 2868
211.411 877.922 2867.48
211.15 877.281 2869.43
211.551 877.468 2868.66
211.664 877.485 2868.52
211.744 877.58 2868.19
210.101 877.163 2870.95
209.075 877.048 2871.91
210.242 877.056 2870.92
209.281 876.937 2871.83
209.469 876.836 2871.75
209.332 876.125 2872.13
210.433 875.691 2871.46
210.013 876.255 2871.55
210.386 876.951 2870.85
212.004 874.94 2865.05
211.965 874.416 2865.33
211.901 874.182 2865.62
212.049 874.496 2864.9
211.647 873.311 2866.02
211.931 876.335 2865.7
211.954 875.354 2864.61
212.131 876.905 2867.19
212.009 875.058 2864.68
212.122 877.039 2867.37
212.096 877.189 2867.46
212.064 877.289 2867.66
212.032 877.316 2867.97
212.008 877.344 2868.19
211.746 877.42 2868.55
211.963 877.402 2868.2
211.855 877.46 2868.33
210.967 877.107 2869.93
211.989 874.141 2865.08
212.045 873.952 2864.93
212.81 870.922 2864.52
212.863 871.064 2864.28
212.938 871.003 2864.22
212.999 871.113 2863.87
212.117 873.766 2864.72
212.37 873.858 2864.12
212.508 873.795 2863.83
212.757 873.525 2863.53
213.49 873.175 2862.5
214.113 873.135 2861.59
214.367 873.026 2861.13
214.343 873.1 2861.17
213.947 872.313 2861.66
214.407 872.876 2860.9
214.444 872.971 2860.87
213.666 871.439 2861.95
213.761 871.536 2861.71
212.232 874.002 2864.42
214.568 866.068 2846.17
214.227 864.95 2845.94
214.3 865.084 2845.71
213.948 863.887 2845.74
213.884 863.542 2845.69
214.06 863.617 2845.37
214.15 870.564 2858.44
214.17 870.973 2859.59
214.855 869.42 2854.21
214.615 870.352 2855.08
214.113 870.155 2856.96
214.868 869.511 2854.02
214.095 870.387 2857.39
214.237 870.754 2856.68
214.122 871.338 2860.3
214.209 871.27 2859.79
214.005 871.484 2860.94
214.96 869.208 2853.99
215.054 868.614 2853.23
215.028 868.926 2853.4
215.045 868.973 2853.79
215.101 868.396 2853.14
215.159 868.284 2853.2
215.104 868.189 2852.93
214.833 867.994 2851.95
214.18 868.463 2848.96
214.611 866.958 2849.23
214.501 866.722 2847.25
214.016 868.62 2847.88
214.577 866.556 2846.69
214.519 866.683 2846.89
214.638 866.412 2846.51
214.6 866.262 2846.47
215.877 863.265 2844.17
215.896 863.58 2843.96
216.058 863.483 2844.01
215.384 863.892 2844.01
215.557 863.896 2843.91
215.86 863.78 2843.87
215.835 863.948 2843.8
214.421 863.842 2844.83
214.476 863.718 2844.74
214.701 863.904 2844.51
214.938 864.076 2844.29
215.365 864.063 2843.99
215.25 864.188 2844.04
214.367 863.996 2844.94
217.414 862.869 2844.65
216.255 863.391 2844.07
216.427 863.284 2844.17
218.792 862.773 2844.9
218.514 862.813 2844.86
217.69 863.103 2844.52
221.571 864.653 2844.01
221.345 864.634 2844.07
221.132 864.592 2844.12
220.806 864.434 2844.26
220.881 864.519 2844.19
220.538 864.291 2844.35
219.366 863.559 2844.57
220.609 865.039 2843.4
219.636 865.428 2842.84
219.347 865.592 2842.7
219.112 865.677 2842.71
188.806 917.409 2884.44
189.587 916.041 2881.79
190.867 912.688 2877.69
191.049 912.498 2877.34
191.585 912.568 2876.61
191.436 912.806 2876.75
191.324 912.064 2877.09
194.463 908.586 2876.89
193.748 908.423 2877.54
193.248 909.205 2877.39
192.534 910.276 2877.13
192.085 910.908 2876.92
194.804 909.341 2875.96
193.857 910.509 2875.84
195.709 907.177 2876.19
195.424 908.89 2875.5
194.976 909.415 2875.67
193.912 910.634 2875.65
195.151 909.35 2875.48
195.406 909.091 2875.35
191.886 912.089 2876.43
191.761 911.38 2876.94
192.296 911.495 2876.36
195.659 905.467 2877.2
196.401 904.706 2876.55
197.014 903.935 2876.27
195.026 904.871 2877.91
195.169 903.697 2877.9
195.083 903.678 2878.01
195.166 903.423 2877.99
196.312 905.488 2876.3
197.034 904.213 2876.08
195.392 902.904 2877.99
195.668 902.085 2878.1
196.56 900.194 2877.49
196.463 900.476 2877.56
196.717 900.008 2877.27
196.946 899.527 2876.73
197.143 898.853 2876.28
197.258 898.892 2876.07
197.4 898.596 2875.88
196.004 901.4 2877.9
197.875 898.312 2875.38
198.263 897.875 2875.07
198.363 898.168 2874.76
198.423 897.079 2874.94
198.45 898.227 2874.55
198.558 896.443 2874.58
198.682 897.383 2874.05
198.645 897.613 2874.24
198.582 897.675 2874.46
198.587 895.03 2875.99
198.58 896.183 2874.52
198.245 893.483 2875.88
198.201 892.925 2875.71
197.834 892.087 2875.23
195.279 889.595 2872.16
198.375 894.106 2876.09
193.712 888.165 2870.42
198.483 894.665 2875.89
193.537 887.75 2870.06
193.582 887.436 2869.85
194.124 887.071 2869.99
195.075 886.872 2870.44
200.756 886.954 2874.11
193.717 887.14 2869.72
189.95 915.167 2880.61
190.324 913.793 2879.15
190.669 912.981 2878.13
200.582 883.199 2868.6
200.469 883.291 2868.29
199.443 884.555 2869.27
199.46 884.047 2868.31
199.906 883.699 2868.22
200.222 883.457 2867.93
198.764 886.511 2872.21
199.117 885.215 2870.09
200.742 883.051 2868.32
200.94 882.906 2867.88
201.194 882.689 2867.71
201.5 882.442 2867.44
201.611 882.249 2867.44
201.687 882.078 2867.61
202.319 880.764 2867.78
203.207 879.548 2867.29
203.581 879.339 2867.05
203.962 879.096 2866.85
204.41 878.965 2866.51
204.895 878.879 2866.24
206.573 879.08 2865.16
206.136 879.143 2865.3
207.132 879.034 2864.99
207.572 878.806 2865.25
209.214 878.98 2864.53
209.306 878.691 2865.26
209.628 878.56 2865.66
209.647 878.734 2865.04
209.454 878.756 2865.03
210.794 878.306 2865.96
209.665 878.841 2864.63
210.012 878.706 2864.81
211.701 877.747 2867.65
211.399 877.971 2867.18
211.866 877.569 2867.86
212.061 874.626 2864.63
212.176 874.286 2864.42
212.106 874.17 2864.72
211.832 876.452 2865.26
211.951 875.265 2864.2
212.067 874.825 2864.29
212.086 877.055 2867.07
212.017 877.287 2866.97
211.984 877.425 2867.15
211.972 877.478 2867.41
211.979 877.416 2867.77
211.907 877.538 2867.66
212.318 874.048 2864.13
212.426 873.959 2863.85
212.606 873.762 2863.61
212.887 873.52 2863.27
213.516 873.305 2862.34
214.094 873.221 2861.56
214.336 873.174 2861.13
214.483 873.052 2860.78
214.446 873.113 2860.82
214 872.169 2861.42
214.394 872.759 2860.82
213.901 871.622 2861.32
214.491 872.737 2860.47
214.504 872.879 2860.56
214.533 872.977 2860.55
214.604 866.177 2845.85
214.633 866.315 2846.2
214.403 865.222 2845.49
214.654 866.229 2845.57
214.122 863.99 2845.38
214.513 865.336 2845.31
214.368 864.241 2845
214.178 870.738 2858.39
214.225 871.054 2859.21
214.136 870.716 2857.5
214.991 869.229 2853.71
214.324 870.546 2856.29
214.464 871.245 2855.66
214.826 870.908 2854.21
214.455 871.12 2855.84
214.936 870.176 2853.77
215.093 870.804 2853.15
215.09 870.704 2853.25
214.879 869.626 2853.89
214.974 869.344 2853.52
214.215 870.896 2856.95
214.385 871.398 2856.26
214.349 871.38 2856.69
214.33 871.838 2859.96
214.101 871.591 2860.62
214.377 871.719 2859.4
215.046 868.812 2853.16
215.046 868.524 2852.96
215.026 869.093 2853.18
214.812 868.339 2851.95
215.011 868.552 2852.73
214.208 868.794 2849.16
213.867 869.941 2847.93
213.727 869.869 2847.32
214.495 867.097 2848.66
213.977 868.524 2847.25
214.303 867.266 2847.38
214.145 867.94 2846.89
213.787 869.51 2847.12
214.632 866.59 2846.44
214.536 866.797 2846.54
214.669 866.483 2846.21
216.393 863.717 2843.89
216.362 863.901 2843.81
216.578 863.615 2843.97
215.662 864.113 2843.83
215.481 864.051 2843.91
215.864 864.122 2843.76
216.893 864.596 2843.54
216.767 864.685 2843.52
214.709 864.209 2844.52
214.634 864.336 2844.63
214.917 864.334 2844.32
215.209 864.399 2844.06
215.085 864.406 2844.16
215.687 864.301 2843.8
215.588 864.409 2843.82
215.544 864.572 2843.84
214.587 864.518 2844.74
216.795 863.49 2844.08
218.36 863.822 2844.2
220.377 865.03 2843.46
220.215 864.966 2843.56
220.163 864.929 2843.69
219.789 864.76 2843.81
219.576 864.629 2843.9
219.137 864.423 2843.98
219.426 865.38 2842.95
219.233 865.46 2842.92
218.865 865.753 2842.74
218.977 865.535 2842.92
218.806 866.073 2842.55
218.593 865.861 2842.75
218.77 865.835 2842.72
189.011 917.294 2883.79
189.759 915.808 2881.25
189.199 917.1 2883.28
190.576 913.427 2878.41
190.942 912.826 2877.53
191.329 913.011 2876.91
191.736 912.341 2876.51
191.931 912.991 2876.11
192.052 912.718 2876.04
191.769 913.254 2876.28
193.174 910.161 2876.69
193.478 910.754 2875.99
192.774 911.654 2875.81
192.722 911.918 2875.67
195.666 907.805 2875.75
197.03 904.457 2875.85
195.577 908.867 2875.18
194.202 910.424 2875.53
194.06 910.777 2875.28
192.893 912.081 2875.34
195.224 909.432 2875.25
195.021 909.597 2875.4
195.498 909.081 2875.11
192.234 912.54 2875.84
192.421 912.192 2875.8
192.099 911.802 2876.36
195.366 904.739 2877.58
195.787 904.17 2877.23
196.338 904.367 2876.7
196.979 903.705 2876.4
197.434 903.023 2876.25
197.346 902.824 2876.46
195.3 903.734 2877.73
195.228 903.507 2877.88
195.325 903.476 2877.78
195.481 902.894 2877.93
197.504 903.239 2876.01
195.821 902.03 2877.95
196.551 900.576 2877.44
196.264 901.038 2877.71
196.751 900.231 2877.21
197.023 899.746 2876.62
197.663 899.175 2875.49
197.787 898.794 2875.36
196.042 901.694 2877.82
198.211 898.862 2874.73
198.258 899.294 2874.61
198.122 899.25 2874.83
198.37 899.43 2874.35
198.537 898.969 2874.07
198.237 899.593 2874.62
198.688 897.155 2873.9
198.822 898.655 2873.19
198.896 898.772 2872.6
198.61 899.061 2873.78
198.73 898.182 2873.98
198.542 895.647 2874.76
198.688 897.002 2873.64
198.062 893.584 2875.43
197.879 893.126 2875.23
197.36 892.312 2874.61
195.229 889.976 2872.15
193.573 888.268 2870.28
193.634 888.581 2870.4
198.226 894.067 2875.59
193.228 887.872 2869.75
198.366 894.658 2875.34
198.551 896.383 2873.32
198.641 896.732 2873.4
193.13 887.606 2869.49
193.267 887.316 2869.4
193.926 886.857 2869.54
194.401 886.638 2869.62
193.552 886.992 2869.35
200.621 883.175 2867.76
200.716 883.106 2868.01
198.678 884.71 2868.71
198.411 884.416 2867.74
199.687 883.743 2867.8
199.996 883.545 2867.49
200.481 883.273 2867.36
197.18 886.243 2870.76
196.781 885.908 2869.81
200.905 882.972 2867.55
201.215 882.728 2867.37
201.511 882.49 2867.11
201.714 882.276 2867.13
201.923 882.04 2867.3
201.969 881.852 2867.46
202.579 880.507 2867.56
203.341 879.553 2867.11
203.754 879.382 2866.84
204.094 879.115 2866.69
204.505 879.072 2866.33
204.738 878.986 2866.23
205.779 879.226 2865.42
208.168 879.775 2863.43
207.719 880.124 2863.08
207.29 879.956 2863.58
208.804 879.429 2863.81
209.423 879.027 2864.32
210.912 878.255 2865.79
210.237 878.681 2864.62
209.953 878.82 2864.49
209.63 879.057 2864.11
208.945 879.612 2863.38
211.697 877.767 2867.31
211.484 877.936 2867.07
212.183 874.447 2864.2
212.309 874.182 2864.03
211.945 877.212 2866.55
211.655 876.465 2864.56
211.879 875.423 2863.99
212.072 874.852 2863.92
211.952 875.111 2863.72
212.21 874.542 2863.93
211.806 877.5 2866.41
211.749 877.332 2865.97
211.781 877.64 2866.73
211.735 877.726 2867.06
212.429 874.045 2863.73
212.872 873.619 2863.19
212.613 873.83 2863.5
213.531 873.43 2862.16
214.131 873.289 2861.38
214.367 873.216 2860.92
214.473 873.146 2860.66
214.553 873.082 2860.5
214.195 872.118 2860.85
214.477 872.586 2860.37
214.593 872.78 2860.21
214.554 872.587 2860.06
214.643 872.926 2860.24
214.641 873.033 2860.29
214.65 866.371 2845.84
214.742 866.335 2845.44
214.703 866.477 2845.61
214.646 865.464 2845.12
214.794 865.581 2844.94
214.336 871.456 2858.23
214.236 871.059 2857.11
214.47 871.3 2855.45
214.36 871.56 2856.09
214.82 871.023 2854.14
215.085 870.876 2853.07
215.037 870.044 2853.25
215.146 870.742 2852.6
215.151 870.582 2852.74
215.073 869.888 2852.9
214.316 871.369 2856.97
214.374 871.566 2856.57
214.364 871.643 2856.91
214.295 871.981 2860.32
214.573 872.471 2859.67
214.593 872.416 2859.25
215.007 868.831 2852.8
215.067 869.761 2852.58
214.569 868.669 2850.84
214.524 870.006 2849.92
214.434 870.297 2849.64
213.613 870.514 2847.5
214.314 870.659 2849.4
213.356 870.689 2846.79
213.649 869.832 2846.8
213.721 869.568 2846.63
214.191 867.825 2846.59
213.824 869.25 2846.31
213.127 870.937 2845.97
214.566 866.951 2846.16
214.65 866.676 2846.15
214.319 867.616 2846.3
214.685 866.585 2845.88
217.071 864.409 2843.63
217.211 864.299 2843.69
216.991 864.527 2843.57
217.409 864.172 2843.79
216.595 864.782 2843.52
216.501 864.918 2843.51
217.616 865.136 2843.34
217.862 865.517 2843.13
217.735 865.558 2843.14
217.573 865.587 2843.18
214.898 864.667 2844.4
214.969 864.535 2844.29
214.804 864.779 2844.55
215.181 864.607 2844.1
215.517 864.766 2843.88
216.395 865.053 2843.53
216.389 865.253 2843.53
216.392 865.451 2843.55
214.942 865.659 2844.77
218.039 864.811 2843.54
219.189 865.27 2843.13
218.99 865.132 2843.31
218.819 865.021 2843.44
218.447 864.952 2843.48
219.062 865.308 2843.13
218.623 865.645 2842.9
218.767 865.411 2843.09
218.489 866.116 2842.65
218.225 865.856 2842.87
218.222 865.686 2842.95
218.44 865.725 2842.86
189.048 917.523 2883.89
189.769 916.239 2881.43
189.779 916 2881.29
190.909 913.819 2877.95
191.181 913.305 2877.2
191.597 913.485 2876.55
191.908 913.291 2876.01
192.116 912.918 2875.84
192.022 913.239 2875.79
191.746 913.506 2876.28
191.86 913.498 2876
192.589 912.258 2875.55
195.752 907.993 2875.32
196.984 904.786 2875.59
196.052 906.781 2875.6
197.589 903.406 2875.64
195.644 908.898 2874.83
195.653 908.83 2874.99
194.151 910.819 2875.04
192.762 912.455 2875.01
192.639 912.426 2875.27
194.241 910.818 2874.79
195.402 909.285 2875.03
192.381 912.661 2875.56
195.98 903.844 2877.12
195.491 903.518 2877.59
196.832 903.509 2876.61
197.162 902.707 2876.69
197.564 902.8 2876.13
197.492 902.677 2876.33
197.326 902.561 2876.56
195.621 902.9 2877.8
197.611 902.986 2875.93
195.941 902.092 2877.81
196.768 900.395 2877.15
196.719 900.643 2877.22
196.551 900.945 2877.45
196.259 901.288 2877.67
196.949 900.417 2876.92
197.093 899.878 2876.48
197.603 899.542 2875.6
198.061 899.718 2874.91
196.127 901.752 2877.73
198.355 899.674 2874.19
198.129 900.999 2874.9
198.002 900.941 2875.27
198.914 898.789 2872.11
198.398 900.794 2873.91
198.885 899.604 2872.18
198.87 900.028 2870.98
198.208 901.2 2874.58
198.877 898.462 2871.98
197.886 893.643 2874.83
197.479 892.905 2874.54
195.373 890.801 2872.16
194.654 889.846 2871.5
193.171 888.26 2869.75
193.419 888.683 2870.13
198.049 894.212 2874.7
192.959 887.901 2869.37
192.975 887.631 2869.25
198.36 895.808 2873.3
198.65 898.312 2870.78
198.809 899.227 2870.57
193.022 887.389 2869.14
193.183 887.141 2869.1
193.783 886.701 2869.16
194.798 886.51 2869.75
194.283 886.454 2869.17
193.439 886.86 2869.03
200.817 883.059 2867.25
196.163 885.783 2869.03
195.885 885.765 2868.67
195.427 885.818 2868.37
198.168 884.383 2867.21
199.058 883.895 2866.76
199.353 883.756 2866.35
200.654 883.202 2866.77
201.18 882.79 2867.06
201.61 882.528 2866.81
201.79 882.33 2866.85
202 882.083 2867
202.194 881.862 2867.15
202.248 881.523 2867.39
202.779 880.407 2867.37
203.5 879.617 2866.92
203.561 879.508 2866.96
204.006 879.4 2866.59
204.249 879.185 2866.53
204.625 879.124 2866.19
205.588 879.349 2865.41
206.81 879.852 2864.06
208.245 880.003 2862.99
207.382 880.373 2863.03
207.836 880.409 2862.59
207.643 880.387 2862.78
210.982 878.211 2865.65
210.198 878.724 2864.39
208.739 880.005 2862.62
209.515 879.444 2863.09
208.919 879.827 2862.9
208.47 880.112 2862.68
210.961 878.227 2865.49
211.058 878.134 2865.39
211.086 877.066 2863.69
211.81 875.387 2863.54
212.199 874.585 2863.59
212.053 874.866 2863.54
211.922 875.048 2863.27
212.398 874.147 2863.58
211.137 877.895 2864.95
211.042 877.796 2864.5
211.115 878.03 2865.17
212.852 873.685 2863.1
212.617 873.889 2863.33
213.531 873.545 2861.98
214.121 873.351 2861.24
214.375 873.251 2860.78
214.498 873.176 2860.46
214.568 873.143 2860.28
214.635 873.092 2860.12
214.627 872.72 2859.85
214.668 872.87 2859.84
214.682 873.01 2859.86
214.723 866.633 2845.49
214.815 866.431 2845.31
214.694 866.762 2845.67
215.005 866.573 2845.15
214.44 871.948 2858.06
214.352 871.559 2855.71
214.461 871.361 2855.23
214.336 871.76 2856.02
214.377 871.684 2856.42
214.814 871.106 2854.06
215.078 870.988 2853
215.129 870.897 2852.7
215.129 870.952 2852.4
215.159 870.551 2852.32
215.141 870.792 2852.26
214.379 871.804 2856.79
214.478 872.174 2858
214.616 872.594 2859.48
214.608 872.532 2859.12
215.026 869.618 2852.31
214.964 869.516 2851.99
215.093 870.42 2851.93
214.721 869.492 2850.9
215.02 870.433 2851.46
215 870.739 2851.33
214.874 870.986 2850.95
214.899 870.836 2850.95
214.177 870.95 2849.2
214.045 871.337 2849.14
213.065 871.668 2846.99
214.727 871.184 2850.67
212.889 871.62 2846.32
212.593 873.078 2847.22
212.973 871.309 2846.1
213.968 868.889 2846.12
213.079 871.104 2845.55
212.914 871.424 2845.67
211.895 873.578 2845.52
214.635 866.886 2845.85
214.518 867.358 2845.92
214.212 868.24 2846.06
217.729 865.129 2843.34
217.846 864.982 2843.43
