348.632 771.702 2360.1
347.928 772 2359.39
347.867 772.047 2359.65
347.926 772.006 2359.1
347.975 772.048 2359.93
348.04 772.011 2358.81
348.207 772.029 2358.52
349.227 771.736 2358.06
348.319 772.099 2358.21
349.842 771.781 2357.5
351.386 771.541 2356.73
351.84 771.662 2356.35
352.44 771.958 2355.84
330.338 780.517 2386.99
330.233 780.368 2386.71
330.475 780.34 2386.9
331.198 780.087 2387.53
330.83 780.167 2387.14
330.446 780.215 2386.78
331.126 779.556 2387.59
330.129 777.775 2387.13
328.245 776.418 2386.16
327.828 776.218 2385.84
327.577 775.837 2385.53
327.376 775.328 2385.06
319.884 782.464 2391.57
319.63 782.384 2391.13
319.134 782.084 2390.32
319.359 782.345 2390.86
318.013 781.529 2389.2
314.817 780.264 2387.08
311.001 779.319 2385.36
310.205 779.044 2384.75
310.404 778.784 2384.4
310.17 778.484 2383.6
310.049 778.29 2382.69
309.592 777.947 2380.33
310.373 777.593 2378.64
311.2 777.256 2374.2
313.217 777.317 2374.54
317.017 777.349 2370.57
330.204 780.347 2386.4
328.927 779.809 2384.86
329.408 779.962 2385.42
328.92 779.741 2384.68
329.916 780.124 2385.93
328.832 779.732 2384.49
328.532 779.879 2384.17
328.217 779.93 2383.63
321.116 777.271 2367.57
326.332 778.489 2373.05
328.334 779.168 2375.77
331.285 780.121 2380.07
329.831 780.084 2382.31
332.015 780.345 2382.06
331.885 780.333 2381.85
332.372 780.337 2381.65
328.358 779.82 2382.66
327.436 774.836 2384.74
328.339 772.23 2382.9
327.594 773.962 2384.08
327.955 773.039 2383.45
330.146 771.676 2380.87
330.511 771.951 2380.38
329.621 771.791 2380.97
331.136 772.326 2379.88
331.831 772.582 2379.68
335.204 773.07 2379.75
339.063 773.885 2379.47
339.31 775.062 2378.49
340.213 775.138 2378.29
341.119 775.1 2378.1
342.402 775.081 2377.66
329.185 771.849 2381.17
328.441 771.911 2382.27
328.302 772.13 2382.54
328.55 771.847 2381.9
328.434 771.927 2382.09
328.766 771.804 2381.61
328.976 771.849 2381.32
342.975 774.234 2378.25
343.501 773.888 2378.33
344.464 773.353 2378.11
344.407 773.577 2377.8
345.426 772.985 2377.62
345.696 773.077 2377.27
346.887 773.391 2376.19
347.941 773.714 2375.19
347.74 774.099 2374.84
346.965 774.947 2374.58
346.199 775.686 2374.17
347.558 775.143 2373.2
345.339 775.958 2374.89
348.192 774.929 2372.53
347.334 774.564 2368.67
349.29 773.044 2367.33
347.492 775.32 2372.24
346.952 775.552 2371.73
345.872 775.713 2369.98
346.295 775.456 2369.63
347.153 773.971 2366.33
347.271 773.838 2365.76
348.631 773.34 2365.07
349.241 773.169 2364.22
349.695 772.956 2364.3
350.377 772.292 2363.96
349.755 772.864 2364
350.301 772.304 2363.6
350.196 772.233 2363.19
349.879 772.157 2362.54
349.31 772.137 2361.82
348.686 771.755 2360.32
348.368 772.045 2360.44
347.423 772.14 2359.29
347.386 772.165 2359.63
347.604 772.212 2359.99
347.298 772.185 2358.93
347.984 772.231 2360.37
347.674 772.186 2358.63
347.868 772.222 2358.31
348.629 772.246 2357.69
348.128 772.305 2357.87
348.817 772.378 2357.33
349.21 772.324 2357.2
350.357 771.95 2356.92
350.679 772.166 2356.51
352.094 772.069 2355.87
330.283 780.275 2386.5
330.283 780.273 2386.25
330.934 779.836 2387.34
330.635 780.003 2386.91
330.457 780.122 2386.68
330.329 780.19 2386.42
330.654 779.359 2387.24
329.668 777.799 2386.88
328.232 776.722 2386.14
327.94 776.436 2385.94
327.508 776.124 2385.54
327.614 776.403 2385.68
327.378 775.722 2385.26
327.262 775.342 2384.89
319.264 782.69 2391.37
319.037 782.741 2391.19
318.993 782.338 2390.61
318.298 782.19 2390.05
318.951 782.579 2390.9
318.952 782.712 2391.06
317.07 781.652 2389.08
313.483 780.291 2386.92
310.346 779.606 2385.47
309.73 779.236 2384.82
309.468 778.955 2384.22
309.207 779.138 2384.39
309.649 778.67 2383.76
309.445 778.436 2382.88
308.616 778.158 2379.91
308.431 777.77 2376.07
309.585 777.469 2375.01
309.77 776.872 2369.09
310.902 776.644 2367.83
313.09 776.696 2367.51
329.154 779.827 2384.9
329.159 779.716 2384.6
329.173 779.755 2384.67
329.586 779.953 2385.31
329.181 779.675 2384.45
330.079 780.092 2385.72
328.996 779.773 2384.27
328.521 779.907 2383.52
328.772 779.905 2384.06
328.687 779.859 2382.91
317.219 776.573 2364.97
325.532 777.406 2365.68
327.106 777.839 2368.03
330.381 778.378 2372.31
329.948 778.624 2374.37
329.672 779.277 2376.36
332.264 780.2 2380.74
330.427 780.173 2382.59
332.173 780.353 2382.28
332.325 780.384 2382.16
332.29 780.372 2381.92
332.552 780.361 2381.83
332.741 780.327 2381.63
329.517 780.015 2383.08
327.276 774.885 2384.49
328.14 772.515 2382.85
327.667 773.487 2383.48
327.394 774.262 2384.03
329.959 772.01 2380.48
330.461 772.285 2380.01
329.548 771.965 2380.74
331.08 772.627 2379.58
331.587 772.922 2379.35
334.356 773.786 2379.07
336.975 775.29 2378.27
336.552 776.273 2377.42
338.759 776.265 2377.46
339.413 776.382 2377.21
341.21 776.122 2376.93
343.336 775.972 2376.34
343.16 775.15 2377.22
343.801 775.899 2376.19
329.147 771.99 2381.02
328.312 772.099 2382.26
328.159 772.362 2382.47
328.376 772.024 2381.97
328.574 771.928 2381.74
328.268 772.2 2382.13
328.797 771.896 2381.47
328.967 771.982 2381.18
343.501 774.186 2377.94
343.188 774.392 2377.93
344.437 773.793 2377.48
345.383 773.276 2377.21
345.179 773.42 2377.2
346.62 773.715 2375.93
346.266 775.107 2375.02
347.326 774.201 2375.01
346.391 775.246 2374.76
345.084 775.928 2375.22
345.389 775.845 2375.07
345.214 776.102 2374.47
344.871 776.116 2375.03
346.674 775.588 2373.31
344.478 776.065 2375.51
345.865 775.312 2368.46
345.207 775.345 2366.93
345.497 775.485 2368.31
345.809 775.943 2373.38
345.758 775.97 2372.62
345.316 775.931 2370.24
344.6 775.918 2368.58
345.071 775.694 2368.39
346.085 774.398 2365.7
346.377 774.122 2365.14
347.723 773.593 2364.39
348.181 773.512 2364.64
349.09 773.194 2363.98
349.487 773.013 2363.99
349.766 772.795 2363.73
349.427 772.98 2363.73
349.628 772.785 2363.4
348.587 772.559 2361.82
349.272 772.912 2363.28
346.839 772.264 2359.6
346.865 772.246 2359.2
346.898 772.399 2360.27
347.398 772.413 2360.54
346.846 772.289 2358.8
347.341 772.292 2358.47
348.181 772.733 2361.93
347.539 772.335 2358.06
348.198 772.571 2357.23
347.593 772.472 2357.57
348.663 772.685 2356.89
349.43 772.615 2356.72
350.048 772.866 2356.25
349.695 772.867 2356.36
350.886 772.351 2356.24
351.33 772.588 2355.87
330.36 780.185 2386.09
330.635 779.846 2387.03
330.382 779.964 2386.63
330.597 780.412 2386.59
330.346 780.132 2386.26
330.413 779.158 2387.08
330.512 779.595 2387.02
329.448 777.869 2386.73
327.978 776.766 2385.91
327.322 775.976 2385.28
327.438 776.314 2385.48
327.56 776.611 2385.62
327.207 775.693 2385.01
327.144 775.383 2384.7
318.692 783.016 2391.19
318.428 782.681 2390.63
317.529 782.357 2389.86
318.369 782.92 2390.84
318.555 782.956 2391.02
316.021 782.116 2389.1
312.678 780.623 2387.02
308.788 780.678 2385.79
308.527 780.191 2385.19
308.287 779.88 2384.66
308.791 779.03 2383.85
309.044 778.774 2383.52
308.136 779.635 2384.16
309.02 778.531 2382.79
308.218 778.542 2381.11
307.092 778.517 2378.51
305.762 778.779 2376.6
306.878 778.114 2373.59
308.067 777.37 2369.95
308.897 777.059 2369.41
308.915 776.254 2363.62
310.239 776.058 2363.49
312.188 776.117 2364.05
329.298 779.803 2384.77
329.246 779.701 2384.5
329.252 779.675 2384.41
329.243 779.746 2384.6
329.808 779.877 2384.97
329.293 779.735 2384.26
330.326 780 2385.36
329.145 779.819 2384.14
328.863 779.909 2383.57
329.398 779.968 2383.27
329.171 779.895 2383.98
314.772 775.951 2363.12
322.711 776.799 2364.24
331.093 777.956 2365.74
331.491 778.241 2366.7
330.744 778.231 2368.59
332.741 778.327 2368.77
332.176 778.359 2372.5
330.537 778.715 2375.21
331.208 778.522 2374.96
330.355 779.368 2376.87
332.665 780.184 2380.7
330.746 780.219 2382.76
332.227 780.35 2382.53
332.346 780.376 2382.41
332.412 780.398 2382.35
332.459 780.4 2382.04
332.837 780.377 2381.84
333.007 780.31 2381.53
329.929 780.074 2383.27
327.155 775.004 2384.36
327.659 773.44 2383.25
327.311 774.318 2383.87
330.015 772.269 2380.18
330.537 772.587 2379.66
329.628 772.198 2380.47
330.962 772.911 2379.33
331.286 772.949 2379.28
332.618 774.392 2378.53
333.499 774.478 2378.5
333.933 775.996 2377.58
333.866 776.51 2377.15
336.621 776.666 2376.98
334.512 776.861 2376.77
336.72 776.904 2376.65
339.432 776.573 2376.96
341.556 776.31 2376.55
343.625 776.137 2375.95
344.181 776.028 2375.8
343.727 775.163 2376.89
344.09 775.847 2376.08
344.567 775.918 2375.67
344.607 775.81 2375.78
329.268 772.189 2380.74
328.143 772.431 2382.25
327.7 773.341 2382.99
328.29 772.298 2381.99
328.407 772.086 2381.79
328.589 772.053 2381.55
328.813 772.035 2381.3
328.975 772.168 2381.01
343.839 774.332 2377.53
344.673 773.801 2377.22
345.383 773.525 2376.9
345.261 773.735 2376.77
346.321 774.001 2375.8
346.91 774.486 2375
345.869 775.098 2375.36
345.227 775.733 2375.36
344.822 775.643 2375.79
345.121 775.821 2375.35
344.4 776.346 2374.56
344.057 776.326 2375.14
343.717 776.27 2375.62
344.462 775.897 2367.24
343.419 776.332 2366.11
344.852 775.358 2366.09
345.903 774.559 2365.88
344.414 776.373 2374.21
344.496 776.167 2371.45
344.148 776.088 2368.89
343.667 776.305 2367.64
344.057 776.133 2367.46
345.677 774.512 2365.39
345.924 774.192 2364.88
347.447 773.536 2363.92
346.088 773.933 2364.35
349.084 773.161 2363.8
349.03 773.139 2363.65
348.837 773.083 2363.31
346.073 772.353 2359.87
346.48 772.287 2359.3
346.115 772.602 2360.87
347.01 773.116 2362.51
346.224 772.361 2358.33
345.536 772.324 2358.74
347.021 772.361 2358.26
346.599 772.573 2357.51
347.017 772.794 2356.85
348.062 772.917 2356.63
349.073 772.899 2356.49
348.679 773.262 2356.13
349.908 773.229 2355.99
350.511 773.422 2355.69
349.443 773.432 2355.9
351.787 772.865 2355.52
330.435 780.114 2385.81
330.36 779.861 2386.71
330.322 780.097 2386.26
330.261 779.944 2386.42
330.367 780.118 2385.92
330.233 779.313 2386.85
330.287 779.723 2386.72
329.208 777.967 2386.52
327.884 777.003 2385.79
327.261 776.207 2385.25
327.108 775.961 2384.97
327.342 776.435 2385.39
327.549 776.773 2385.58
327.06 775.696 2384.75
327.041 775.508 2384.54
317.804 782.75 2390.34
317.946 783.053 2390.66
316.373 783.911 2390.46
318.16 783.309 2391.05
317.882 783.422 2390.91
314.471 784.149 2389.9
312.052 781.855 2387.71
308.703 781.352 2386.33
306.838 781.549 2385.78
303.464 781.987 2385.33
306.938 780.998 2385.19
306.998 780.602 2384.65
307.977 779.446 2383.6
308.677 778.83 2383.26
306.973 780.279 2384.04
307.943 778.784 2381.55
305.582 779.072 2377.94
304.599 779.238 2376.16
305.302 778.72 2372.93
306.957 777.762 2369.67
307.576 776.868 2365.36
308.007 776.48 2363.76
309.775 775.574 2361.25
308.665 775.72 2360.78
311.227 775.59 2361.92
329.394 779.782 2384.65
329.319 779.693 2384.43
329.325 779.682 2384.34
329.348 779.732 2384.23
329.299 779.713 2384.29
329.331 779.732 2384.5
329.824 779.825 2384.73
329.385 779.786 2384.13
329.383 779.818 2384.07
330.408 779.893 2384.93
329.315 779.932 2383.62
329.667 779.996 2383.5
329.894 780.045 2383.39
329.466 779.908 2383.86
313.245 775.209 2361.22
319.284 776.011 2362.84
327.79 777.181 2364.46
333.235 777.922 2365.58
333.518 778.393 2366.57
334.408 778.298 2366.39
333.757 778.495 2367.14
333.736 778.309 2368.73
334.527 778.522 2367.4
333.617 778.143 2370.15
333.987 778.157 2371.32
332.732 778.318 2373.89
330.906 778.702 2375.57
330.561 778.892 2375.88
331.277 778.56 2375.43
331.903 778.38 2375.2
331.538 778.466 2374.99
330.868 779.455 2377.29
332.853 780.176 2380.66
330.888 780.205 2382.9
332.285 780.342 2382.67
332.388 780.383 2382.56
332.476 780.42 2382.27
332.468 780.411 2382.47
332.646 780.415 2382.1
332.884 780.4 2382.03
333.084 780.364 2381.85
333.066 780.337 2381.72
333.202 780.303 2381.47
330.08 780.084 2383.26
327.094 775.049 2384.23
327.281 774.339 2383.72
330.156 772.571 2379.83
330.735 773.022 2379.31
330.386 772.89 2379.53
329.94 772.641 2379.91
332.038 774.357 2378.55
331.768 774.438 2378.54
333.111 775.96 2377.66
332.926 776.711 2377.11
333.548 777.081 2376.66
333.96 777.297 2376.34
337.289 776.995 2376.46
334.219 777.536 2375.9
340.701 776.581 2376.44
344.212 775.135 2376.63
329.517 772.505 2380.32
327.767 773.262 2382.71
328.209 772.526 2382.06
327.304 774.26 2383.5
328.395 772.249 2381.7
328.64 772.196 2381.36
328.912 772.294 2381
344.52 774.101 2377.09
345.946 774.235 2375.84
345.003 774.737 2376.26
341.846 776.659 2375.52
342.192 776.672 2375
341.304 776.63 2376.02
343.201 776.486 2366.33
343.354 776.299 2365.85
342.926 776.547 2365.95
344.483 775.435 2365.68
342.532 776.647 2374.4
342.296 776.378 2371.69
343.59 776.176 2369.21
343.19 776.448 2367.8
342.814 776.67 2366.48
342.351 776.803 2366.63
345.261 774.502 2364.92
345.433 774.188 2364.42
345.391 773.753 2363.46
344.146 772.41 2359.94
344.886 772.304 2359.32
344.446 772.717 2361.05
345.343 773.143 2362.2
343.956 772.277 2357.96
345.613 772.453 2357.7
343.062 772.167 2358.39
344.581 772.612 2356.79
345.922 772.916 2356.47
347.022 773.278 2356.04
347.929 773.517 2355.78
348.963 773.897 2355.45
350.222 773.825 2355.46
351.158 773.921 2355.25
350.747 773.828 2355.38
350.856 774.207 2355.15
349.921 774.08 2355.3
330.665 779.958 2385.16
330.178 779.822 2386.4
330.289 780.088 2386.15
330.391 780.086 2385.78
330.642 779.922 2385.04
330.169 779.631 2386.61
329.992 779.264 2386.62
329.024 778.052 2386.33
327.776 777.142 2385.65
327.195 776.385 2385.17
327.125 776.302 2385.02
326.998 775.88 2384.68
326.878 776.006 2384.79
327.454 776.758 2385.46
327.281 776.543 2385.25
326.989 775.663 2384.45
316.837 784.198 2390.88
313.993 785.942 2390.89
313.328 785.78 2390.53
309.816 786.711 2389.5
309.634 786.272 2389.26
310.559 783.87 2388.53
304.551 782.627 2386.12
302.746 782.312 2385.43
303.538 781.699 2385.02
299.653 782.057 2384.28
299.617 781.802 2384.02
305.621 781.249 2384.99
306.227 780.799 2384.49
306.796 780.134 2383.49
307.443 779.405 2382.42
306.205 780.531 2383.88
305.444 779.736 2379.74
304.201 779.822 2377.64
303.588 779.998 2376.49
304.157 779.376 2375.02
304.641 778.977 2371.61
305.793 778.222 2368.42
306.851 777.216 2365.47
307.209 776.499 2362.06
310.866 775.025 2360.3
309.476 775.102 2359.79
308.295 775.551 2359.7
329.549 779.765 2384.55
329.396 779.685 2384.34
329.4 779.704 2384.25
329.427 779.76 2384.14
329.456 779.816 2384.04
329.457 779.718 2384.4
329.938 779.805 2384.62
329.467 779.858 2383.96
330.374 779.843 2384.7
329.697 779.978 2383.64
329.88 780.021 2383.49
330.065 780.061 2383.34
329.62 779.924 2383.77
329.524 779.829 2383.85
312.717 774.691 2360.25
317.218 775.19 2361.43
324.497 776.254 2362.99
331.422 777.355 2364.63
335.904 777.684 2365.64
336.319 777.189 2364.9
334.684 778.454 2366.84
336.346 777.948 2366.51
336.143 777.867 2366.11
334.793 778.508 2367.12
334.404 778.254 2368.71
335.439 778.399 2367.28
335.148 778.39 2367.66
334.438 778.02 2369.84
334.8 777.922 2370.04
335.083 777.867 2372.23
335.117 777.867 2373.6
333.893 778.017 2374.59
331.131 778.651 2375.79
330.815 778.836 2376
330.62 778.996 2376.15
331.573 778.469 2375.58
332.285 778.234 2375.48
331.132 779.508 2377.52
332.969 780.163 2380.57
331.015 780.197 2382.98
332.232 780.302 2382.84
332.373 780.374 2382.75
332.439 780.398 2382.65
332.591 780.446 2382.29
332.544 780.435 2382.45
332.503 780.419 2382.59
332.805 780.449 2382.22
333.035 780.444 2382.18
333.159 780.388 2381.98
333.337 780.34 2381.74
333.304 780.267 2381.16
333.427 780.306 2381.47
331.205 780.18 2383.09
327.051 775.162 2384.16
327.087 774.985 2383.91
330.666 773.291 2379.19
331.542 774.533 2378.54
330.261 773.083 2379.48
329.993 773.068 2379.66
332.627 776.031 2377.68
332.249 775.943 2377.81
332.508 776.626 2377.27
332.832 777.185 2376.71
333.063 777.407 2376.42
333.264 777.565 2376.15
337.315 777.123 2376.2
333.233 777.8 2375.77
334.219 777.714 2375.47
329.64 772.866 2380.06
327.83 773.294 2382.51
327.317 774.309 2383.33
328.301 772.538 2381.88
327.121 774.937 2383.73
328.46 772.369 2381.59
328.715 772.457 2381.23
329.314 772.853 2380.42
337.413 777.302 2375.5
337.315 777.231 2375.88
337.87 777.278 2375.01
342.657 776.667 2366.04
343.216 776.259 2365.56
342.825 776.51 2365.69
342.336 776.699 2365.7
344.211 775.394 2365.26
338.569 777.166 2374.48
340.012 776.684 2372.73
338.783 776.52 2370.74
341.137 776.343 2370.11
342.621 776.522 2368.16
342.713 776.305 2369.16
341.859 776.893 2366.89
342.116 776.829 2366.17
339.819 777.211 2366.31
339.946 777.187 2366.57
344.701 774.403 2364.23
343.889 775.376 2364.92
344.838 774.084 2363.79
343.682 773.227 2362.08
343.936 773.801 2363.04
341.556 772.312 2359.9
341.366 772.017 2358.64
338.877 771.805 2358.69
341.122 772.546 2360.48
339.601 771.801 2357.07
342.355 772.24 2357.02
337.389 771.459 2357.08
339.984 772.179 2355.62
343.364 772.871 2355.67
345.252 773.398 2355.4
347.807 774.925 2354.16
349.893 775.546 2354.02
351.8 775.626 2354.3
330.091 779.727 2386.33
330.257 780.044 2386.04
330.459 780.033 2385.55
330.594 779.889 2384.96
330.455 779.823 2384.6
330.051 779.522 2386.51
329.836 779.236 2386.41
328.913 778.093 2386.2
327.66 777.131 2385.5
328.797 778.135 2386.04
327.103 776.457 2384.97
326.957 775.894 2384.46
326.979 776.073 2384.6
327.018 776.336 2384.7
327.433 776.827 2385.37
327.273 776.7 2385.14
326.992 775.563 2384.26
309.839 787.022 2389.62
309.971 787.216 2389.75
306.467 787.254 2388.31
305.711 786.907 2387.92
307.928 785.772 2388.43
304.937 783.389 2386.61
300.581 782.709 2385.03
299.927 782.376 2384.62
300.524 781.605 2384.04
297.227 782.209 2383.15
297.057 781.995 2382.86
297.1 781.808 2382.66
301.988 781.38 2384.1
305.497 780.814 2384.08
305.907 780.488 2383.39
305.974 780.276 2382.32
306.386 780.072 2382.33
305.056 780.808 2383.78
303.969 780.401 2379.08
303.184 780.514 2377.82
302.502 780.837 2376.46
302.193 780.937 2373.99
303.162 780.186 2375.58
303.95 779.466 2373.96
304.157 779.265 2369.85
304.43 778.884 2367.44
305.505 777.875 2364.99
306.752 776.534 2360.86
311.505 773.528 2358.33
312.583 773.32 2358.42
310.465 773.657 2357.86
311.049 773.476 2358.02
309.178 774.343 2357.67
310.175 773.633 2357.45
329.752 779.76 2384.48
329.47 779.689 2384.25
329.483 779.731 2384.16
329.502 779.774 2384.06
329.518 779.795 2383.97
329.522 779.816 2383.9
329.53 779.68 2384.23
329.724 779.727 2384.37
330.063 779.778 2384.47
329.835 779.991 2383.6
330.023 780.03 2383.46
330.215 780.07 2383.34
329.755 779.95 2383.73
329.614 779.795 2383.8
329.55 779.688 2383.84
314.386 773.424 2358.92
318.401 773.424 2359.27
324.139 775.541 2362.03
330.936 776.596 2363.58
339.415 777.048 2365.34
340.543 776.757 2365
336.414 776.639 2364.16
340.676 776.506 2364.64
336.537 777.961 2366.79
339.811 777.123 2365.71
339.668 777.199 2366.02
336.678 777.961 2367.04
334.955 778.166 2368.69
335.772 778.321 2367.45
336.729 777.963 2367.25
335.525 778.269 2367.93
335.864 778.244 2367.77
335.077 777.894 2369.57
335.212 777.783 2370.02
335.009 777.825 2370.55
336.233 777.332 2371.63
337.122 777.096 2372.33
336.473 777.492 2374
337.201 777.321 2373.79
336.553 777.473 2374.29
333.645 777.939 2375.14
331.066 778.735 2376.07
331.406 778.53 2375.86
331.358 778.576 2376.11
330.826 779.016 2376.35
331.829 778.358 2375.75
332.685 778.049 2375.61
332.29 778.163 2375.77
331.564 779.623 2378.04
332.31 780.333 2382.93
332.429 780.39 2382.84
332.498 780.415 2382.74
332.782 780.491 2382.39
332.638 780.454 2382.6
333.057 780.532 2382.33
333.292 780.426 2382.11
333.154 780.507 2382.27
333.344 780.531 2382.28
333.423 780.371 2381.9
333.584 780.334 2381.69
333.466 780.265 2381.13
332.015 779.735 2378.6
333.647 780.302 2381.41
331.228 780.158 2383.21
332.25 780.292 2383.09
326.995 775.467 2384.07
330.5 773.535 2379.14
331.359 774.62 2378.55
331.913 775.824 2377.98
330.233 773.549 2379.27
329.96 773.479 2379.49
332.218 776.314 2377.6
332.221 776.907 2377.14
332.511 777.222 2376.79
332.618 777.46 2376.56
332.729 777.648 2376.32
332.758 777.807 2376.07
332.395 778.05 2375.95
329.844 773.57 2379.58
327.797 773.606 2382.5
327.314 774.568 2383.26
328.303 772.662 2381.82
327.153 775.034 2383.61
327.016 775.538 2383.96
328.482 772.663 2381.53
329.154 773.022 2380.62
329.767 773.74 2379.62
341.876 776.873 2365.91
342.676 776.444 2365.41
342.8 776.258 2365.21
342.32 776.564 2365.39
341.614 776.786 2365.47
338.246 776.905 2372.64
338.021 776.641 2371.07
337.95 776.638 2370.33
338.817 776.551 2369.98
340.653 776.634 2368.73
339.959 777.138 2366.99
337.939 777.53 2366.82
338.528 777.395 2366.85
343.403 775.407 2364.59
344.19 774.321 2363.78
341 773.137 2361.47
339.115 772.515 2360.36
343.292 774.069 2363.16
341.099 773.642 2362.08
336.731 771.674 2358.75
334.694 771.076 2357.09
332.63 770.862 2357.15
334.546 771.555 2358.59
337.059 771.532 2355.74
332.318 770.625 2355.52
334.102 771.125 2354.76
330.429 770.336 2355.75
337.906 772.234 2354.29
333.312 771.232 2353.94
340.66 773.188 2353.91
345.201 775.373 2352.59
329.993 779.552 2386.36
330.086 779.806 2386.14
330.211 779.998 2386.09
330.286 780.033 2385.83
330.471 779.962 2385.3
330.49 779.833 2384.79
330.307 779.79 2384.53
329.771 779.275 2386.27
327.542 777.082 2385.35
328.684 778.171 2385.86
327.099 776.569 2384.88
326.96 776.085 2384.44
326.962 775.832 2384.26
326.999 776.309 2384.49
327.049 776.493 2384.69
327.316 776.89 2385.09
309.974 787.357 2389.83
306.894 787.492 2388.55
306.942 787.652 2388.66
303.663 787.844 2387.44
302.745 787.671 2386.93
303.188 787.054 2386.91
304.845 785.112 2387.13
300.4 783.051 2385.06
297.438 782.731 2383.56
297.31 782.468 2383.36
297.3 781.653 2382.54
292.76 782.58 2381.16
292.564 782.37 2380.92
292.492 782.198 2380.7
292.547 782.057 2380.53
302.264 781.243 2383.9
297.402 781.526 2382.34
304.743 780.748 2383.25
304.994 780.564 2381.95
304.599 780.507 2380.75
301.396 781.179 2383.45
301.552 781.076 2383.08
303.098 780.673 2378.51
302.058 781.074 2376.93
301.182 781.622 2371.46
303.122 780.167 2373.72
301.624 781.329 2370.29
302.911 780.325 2370
303.133 780.158 2369.12
303.918 779.268 2367.99
303.933 779.138 2366.95
304.042 779.047 2366.21
304.444 778.385 2364.33
305.256 777.399 2360.94
306.914 776.156 2358.53
312.728 771.879 2356.39
313.31 771.798 2356.54
314.307 771.949 2357.01
312.415 771.871 2356.01
309.392 773.887 2356.47
311.394 772.276 2355.32
311.986 771.995 2355.67
329.538 779.678 2384.12
329.542 779.678 2384.05
329.546 779.671 2383.97
329.566 779.651 2383.89
329.535 779.556 2384.23
329.558 779.563 2384.14
329.687 779.698 2384.32
330.009 779.741 2384.41
329.933 779.991 2383.61
330.1 780.02 2383.51
330.253 780.056 2383.4
331.111 780.103 2383.5
329.793 779.899 2383.76
329.664 779.704 2383.8
329.636 779.551 2383.81
317.65 771.885 2357.23
323.944 772.924 2359.11
323.596 771.028 2356.89
323.949 771.39 2357.4
328.186 773.582 2360.17
332.872 774.34 2361.4
341.965 776.437 2365.01
337.271 774.413 2362.03
339.656 776.2 2364.07
341.339 776.174 2364.44
342.084 776.237 2364.79
335.288 778.115 2368.63
335.901 778.159 2368.06
335.333 777.862 2369.28
336.811 777.934 2367.42
337.881 777.557 2367.02
336.83 777.893 2367.6
336.269 777.305 2369.77
336.128 777.324 2370.22
336.051 777.348 2370.79
337.172 776.829 2370.57
337.48 776.745 2370.83
331.194 778.738 2376.3
331.003 778.915 2376.41
331.696 778.398 2376.03
331.374 778.648 2376.42
331.564 778.473 2376.27
331.029 778.99 2376.62
332.041 778.248 2375.92
332.207 778.118 2376.04
332.412 780.376 2383.03
332.489 780.408 2382.9
332.588 780.439 2382.78
332.977 780.533 2382.5
332.893 780.51 2382.68
333.291 780.597 2382.42
333.562 780.399 2382.01
333.584 780.495 2382.19
333.565 780.655 2382.47
333.666 780.602 2382.34
333.738 780.352 2381.8
333.591 780.24 2381.03
332.326 779.743 2378.87
332.135 779.718 2378.65
333.763 780.276 2381.24
333.855 780.319 2381.54
332.206 780.282 2383.3
331.133 774.658 2378.61
331.724 775.802 2378.09
331.976 776.253 2377.74
330.191 773.828 2379.24
330.932 774.701 2378.68
330.064 773.916 2379.31
332.017 776.872 2377.3
332.096 777.297 2376.92
332.305 777.433 2376.73
332.365 777.688 2376.5
332.356 777.959 2376.21
330.008 774.035 2379.31
327.942 773.711 2382.29
327.304 774.929 2383.24
327.11 775.329 2383.65
327.043 775.796 2383.94
326.98 775.864 2384.13
329.071 773.301 2380.67
329.709 773.91 2379.65
329.936 774.137 2379.34
337.719 776.663 2370.73
337.495 776.745 2370.22
338.035 776.716 2369.61
339.076 776.914 2368.3
338.596 777.349 2367.14
342.836 775.309 2364.21
335.661 772.529 2360
333.143 771.711 2358.75
341.973 775.06 2363.63
340.281 774.801 2362.93
329.715 770.646 2356.91
328.398 770.106 2355.74
327.055 770.025 2355.81
327.367 770.569 2356.82
330.619 770.412 2354.77
327.302 769.869 2354.54
327.246 769.856 2354.86
329.04 770.368 2353.78
327.428 769.995 2354.04
326.886 769.823 2355.07
333.375 771.81 2352.9
328.82 770.532 2353.27
338.681 774.372 2351.28
329.972 779.622 2386.19
330.154 779.931 2385.9
330.391 779.951 2385.35
330.266 779.817 2384.95
330.362 779.807 2384.77
330.133 779.784 2384.74
329.912 779.742 2384.6
329.813 779.439 2386.11
327.558 777.232 2385.22
327.462 777.055 2385.23
328.616 778.208 2385.7
329.579 779.206 2385.94
327.105 776.68 2384.8
326.963 776.091 2384.3
327.057 776.523 2384.57
327.01 776.297 2384.35
327.262 776.931 2384.94
327.423 777.134 2385.08
309.954 787.447 2389.89
306.849 787.754 2388.71
303.877 787.889 2387.55
301.86 787.141 2386.31
302.15 784.828 2386.07
297.903 783.454 2384
296.325 783.131 2383.15
292.248 782.818 2381.07
292.558 781.939 2380.34
290.496 782.564 2380.09
290.443 782.362 2379.93
290.328 782.213 2379.74
290.367 782.084 2379.56
297.39 781.428 2381.98
292.662 781.837 2380.13
301.67 781.002 2382.71
304.151 780.744 2381.83
302.797 780.836 2379.04
297.488 781.333 2381.59
301.47 781.34 2377.3
300.659 781.885 2372.66
300.638 781.913 2367.89
301.134 781.575 2367.36
301.881 781.198 2368.8
301.844 780.986 2366.74
302.866 780.226 2368.07
303.072 779.892 2366.45
303.922 779.121 2365.91
303.97 778.772 2364.6
303.541 778.566 2361.82
303.916 778.286 2361.93
303.211 778.726 2360.8
304.276 778.078 2359.77
305.855 776.808 2357.83
313.326 771.465 2355.75
314.073 771.524 2356.22
312.827 771.523 2355.35
309.255 773.898 2355.84
310.922 772.44 2353.93
311.851 771.851 2354
312.327 771.659 2354.92
329.566 779.539 2384.05
329.571 779.529 2383.97
329.576 779.519 2383.89
329.573 779.409 2384.14
329.509 779.448 2384.3
329.632 779.661 2384.47
329.586 779.421 2384.06
329.96 779.971 2383.68
330.155 780.009 2383.56
330.34 780.049 2383.45
330.958 780.035 2383.81
329.829 779.796 2383.76
329.61 779.382 2383.84
329.764 779.497 2383.79
329.87 779.695 2383.76
317.225 771.54 2356.56
321.379 771.473 2356.89
328.378 771.383 2357.93
323.73 770.699 2356.44
325.022 770.07 2355.96
335.781 777.966 2368.62
336.759 777.852 2367.82
336.398 777.336 2369.43
337.816 777.566 2367.2
337.797 777.517 2367.39
337.093 776.855 2370.16
337.362 776.822 2369.79
337.336 776.878 2369.49
331.199 778.83 2376.59
331.708 778.347 2376.23
331.918 778.256 2376.12
331.52 778.461 2376.48
331.386 778.665 2376.63
331.609 778.354 2376.4
331.27 778.962 2376.91
332.018 778.126 2376.26
332.431 780.373 2383.2
332.501 780.408 2383.06
332.561 780.429 2382.93
332.818 780.49 2382.85
333.23 780.588 2382.59
333.15 780.566 2382.77
333.807 780.411 2382.03
333.863 780.515 2382.19
333.939 780.625 2382.34
333.903 780.72 2382.51
333.539 780.656 2382.66
333.942 780.357 2381.84
332.49 779.724 2379.07
332.261 779.67 2378.71
333.641 780.196 2381.06
333.851 780.263 2381.32
334.034 780.322 2381.6
331.685 780.154 2384.08
331.648 775.985 2378.04
331.852 776.493 2377.65
330.742 774.783 2378.75
331.409 775.834 2378.24
330.6 774.883 2378.8
331.858 777.127 2377.19
331.979 777.452 2376.89
332.186 777.641 2376.65
332.242 777.915 2376.38
330.509 774.96 2378.86
328.431 773.916 2381.6
327.325 775.219 2383.23
327.114 775.626 2383.69
327.059 776.002 2383.93
326.998 776.068 2384.13
329.69 774.229 2379.66
329.826 774.229 2379.45
330.423 775.019 2378.94
338.163 777.066 2368.31
325.811 770.03 2355.94
325.848 769.774 2355.23
325.199 769.832 2355.52
326.198 769.778 2354.33
325.903 769.724 2354.5
325.72 769.688 2354.79
326.485 769.971 2353.67
328.792 770.806 2352.76
332.708 772.792 2351.21
326.45 770.107 2353.32
337.515 776.71 2347.8
329.972 779.691 2385.95
330.182 779.887 2385.44
330.19 779.843 2385.16
329.972 779.771 2384.95
329.771 779.683 2384.77
329.59 779.591 2384.58
328.506 778.21 2385.46
329.829 779.541 2385.84
327.149 776.753 2384.65
327.174 776.797 2384.76
327.255 776.949 2384.81
327.071 776.534 2384.44
327.037 776.301 2384.23
327.413 777.18 2384.96
306.948 787.829 2388.84
300.254 787.65 2385.61
300.198 785.165 2385.28
293.592 783.851 2381.98
292.711 783.42 2381.49
291.214 782.933 2380.66
290.099 782.698 2379.96
290.561 781.97 2379.33
289.781 782.447 2379.67
289.661 782.34 2379.47
289.601 782.233 2379.27
289.812 782.094 2379.13
292.82 781.76 2379.92
290.505 781.892 2378.99
300.88 781.019 2382.13
302.525 780.959 2380.49
302.408 780.986 2379.5
294.157 781.612 2379.86
292.901 781.712 2379.67
301.07 781.479 2377.75
300.112 782.098 2373.38
299.494 782.308 2373.59
299.651 782.371 2369.1
299.162 782.272 2364.17
300.203 781.705 2363.86
300.956 781.145 2363.17
301.604 780.551 2362.49
302.711 780.21 2365.43
303.378 779.639 2365.71
303.188 779.485 2364.48
302.451 779.698 2362.12
302.04 779.778 2360.63
303.054 778.906 2359.19
301.864 779.936 2360.09
304.646 777.735 2356.99
304.029 778.29 2357.92
307.496 775.403 2356.39
313.542 771.309 2355.2
314.344 771.311 2355.73
312.721 771.479 2354.47
308.917 774.185 2355.4
310.458 772.771 2353.67
311.478 772.013 2352.79
311.044 772.268 2352.52
312.223 771.635 2353.41
329.594 779.397 2383.98
329.601 779.374 2383.9
329.613 779.244 2384.05
329.557 779.307 2384.17
329.496 779.396 2384.44
329.515 779.269 2384.25
329.613 779.283 2383.99
330.004 779.926 2383.71
330.194 779.996 2383.62
330.401 780.037 2383.5
330.956 779.983 2383.87
329.664 779.264 2383.82
329.877 779.469 2383.77
329.999 779.68 2383.73
330.068 779.869 2383.71
317.23 771.327 2355.98
320.654 771.316 2356.35
321.708 771.209 2356.48
323.68 770.482 2356.06
324.739 769.896 2355.59
336.642 777.513 2368.69
337.569 777.185 2368.41
331.334 778.768 2376.82
331.789 778.253 2376.31
331.585 778.361 2376.62
331.559 778.481 2376.7
331.478 778.634 2376.84
331.673 778.259 2376.47
331.409 779.086 2377.14
331.403 778.978 2377.11
332.112 777.925 2376.48
331.902 778.097 2376.46
332.351 780.351 2383.46
332.55 780.42 2383.18
332.671 780.453 2383.03
333.01 780.531 2382.95
333.397 780.62 2382.87
334.108 780.395 2381.96
334.154 780.498 2382.1
334.185 780.6 2382.27
334.203 780.714 2382.45
334.17 780.79 2382.61
333.802 780.713 2382.75
332.488 779.676 2379.04
331.554 779.109 2377.37
333.698 780.183 2381.13
333.957 780.256 2381.45
334.186 780.329 2381.74
331.667 780.074 2384.2
331.585 776.255 2377.94
331.698 776.681 2377.6
331.25 775.931 2378.27
331.113 775.985 2378.32
331.727 777.135 2377.28
331.84 777.431 2377.02
332.004 777.705 2376.73
331.039 776.014 2378.38
328.128 774.353 2382.09
329.478 774.266 2380.1
329.699 774.39 2379.68
327.311 775.605 2383.36
327.131 775.831 2383.7
327.088 776.323 2384.1
327.144 776.179 2383.86
330.342 775.121 2379.03
330.978 776.032 2378.44
324.928 769.686 2354.99
324.826 769.728 2355.2
324.496 769.816 2355.31
325.424 769.789 2353.96
325.188 769.722 2354.23
324.994 769.648 2354.57
324.864 769.661 2354.77
325.441 769.855 2353.72
327.782 770.768 2352.61
326.414 770.231 2353.14
331.049 773.175 2350.21
333.297 776.196 2347.17
325.358 769.944 2353.5
330.086 779.896 2385.56
330.006 779.803 2385.3
329.976 779.765 2385.15
329.709 779.623 2384.97
329.619 779.57 2384.76
328.452 778.199 2385.27
329.774 779.529 2385.67
327.279 776.993 2384.67
327.159 776.754 2384.49
327.328 777.07 2384.82
327.083 776.511 2384.3
327.465 777.247 2384.82
299.009 788.297 2384.88
298.439 786.084 2384.49
292.84 784.161 2381.64
290.715 783.53 2380.47
290.698 783.197 2380.44
290.01 782.924 2379.99
289.537 782.565 2379.61
289.594 782.778 2379.68
289.783 782.018 2378.87
289.374 782.433 2379.41
289.33 782.292 2379.23
289.412 782.148 2378.99
289.318 782.171 2379.05
290.74 781.821 2378.84
289.983 781.911 2378.7
299.874 781.104 2381.47
299.678 781.175 2380.71
300.954 781.464 2378.42
300.396 781.519 2378.73
293.741 781.639 2379.31
290.787 781.816 2378.73
291.16 781.798 2378.67
298.756 782.526 2373.58
298.626 782.768 2370.7
298.392 782.73 2366.31
298.28 782.595 2363.29
299.262 781.99 2361.61
300.111 781.484 2361.12
300.722 781.008 2361
302.206 780.437 2364.69
302.842 779.137 2358.61
300.614 781.106 2360.41
301.052 780.803 2359.85
301.827 780.067 2359.3
303.503 778.726 2356.86
304.671 777.768 2355.89
307.119 775.81 2355.52
308.154 775.095 2354.96
313.436 771.286 2354.64
314.393 771.197 2355.17
312.423 771.557 2352.83
313.228 771.334 2353.67
308.713 774.456 2354.68
309.681 773.524 2354.06
310.416 772.833 2353.33
310.699 772.538 2352.52
311.453 772.008 2352.32
311.869 771.789 2352.46
310.852 772.422 2352.26
311.195 772.227 2352.02
329.623 779.245 2383.91
329.643 779.082 2383.99
329.64 779.144 2383.94
329.584 779.15 2384.12
329.475 779.218 2384.33
329.52 779.372 2384.6
329.537 779.098 2384.21
330.264 779.964 2383.65
330.465 779.966 2383.55
331.074 779.901 2383.83
329.655 779.11 2383.85
329.806 779.257 2383.79
330.037 779.446 2383.73
330.098 779.628 2383.71
330.168 779.83 2383.69
317.15 771.228 2355.37
320.27 771.217 2355.7
321.097 771.138 2355.97
321.963 771.03 2356.19
323.481 770.399 2355.76
331.334 778.729 2376.86
331.606 778.243 2376.63
331.606 778.378 2376.82
331.598 778.244 2376.76
331.602 778.514 2376.92
331.586 778.703 2377.11
331.748 778.077 2376.64
331.454 778.932 2377.19
331.929 777.898 2376.67
332.332 780.319 2383.62
332.663 780.445 2383.3
332.866 780.495 2383.13
333.474 780.643 2383.02
333.639 780.669 2382.96
334.264 780.367 2381.89
334.159 780.456 2382.18
334.344 780.565 2382.24
334.368 780.671 2382.39
334.388 780.768 2382.54
334.351 780.823 2382.66
334.031 780.759 2382.81
332.591 779.662 2379.21
331.642 779.105 2377.51
333.74 780.161 2381.19
334.122 780.278 2381.66
333.982 780.218 2381.49
334.268 780.322 2381.87
331.967 780.056 2383.86
331.494 776.361 2377.94
331.567 776.753 2377.63
331.387 776.407 2377.99
331.678 777.296 2377.26
331.791 777.632 2376.96
331.308 776.462 2378.06
328.062 774.717 2382.26
329.244 774.342 2380.55
330.339 775.287 2379.09
329.949 775.13 2379.68
327.319 775.914 2383.46
327.217 776.069 2383.69
327.137 776.538 2384.16
327.182 776.462 2384
327.256 776.411 2383.81
331.107 776.31 2378.3
324.617 769.697 2354.89
324.452 769.766 2355.08
323.269 770.371 2355.5
324.909 769.831 2353.9
325.065 769.726 2354.16
325.019 769.663 2354.41
324.645 769.69 2354.5
324.552 769.688 2354.68
324.769 769.924 2353.69
327.75 771.348 2351.97
325.897 770.429 2352.92
330.332 773.519 2349.64
325.555 770.121 2353.24
331.392 775.966 2347.06
324.878 770.045 2353.47
329.878 779.72 2385.44
329.933 779.767 2385.34
329.648 779.515 2385.13
329.601 779.462 2384.87
328.409 778.176 2385.07
329.446 779.241 2385.37
327.294 777.005 2384.5
327.466 777.245 2384.64
327.152 776.689 2384.3
297.985 789.322 2384.11
297.954 787.867 2384.2
294.277 785.321 2382.36
290.911 784.031 2380.58
289.93 783.431 2379.96
289.772 783.093 2379.84
289.381 782.712 2379.52
289.305 782.555 2379.39
289.456 782.937 2379.59
289.457 782.072 2378.77
289.403 782.126 2378.87
289.237 782.367 2379.21
289.239 782.241 2379.04
289.299 782.153 2378.86
289.555 781.978 2378.63
290.044 781.889 2378.58
294.635 781.654 2378.94
299.062 781.571 2379.05
298.226 782.494 2374.44
291.611 781.79 2378.34
290.421 781.856 2378.5
296.153 783.281 2369.52
295.55 783.252 2370.94
296.536 783.187 2367.29
296.277 783.086 2362.56
296.232 783.001 2360.88
298.633 782.285 2360.27
299.601 781.815 2360.21
300.129 781.521 2359.99
302.588 779.439 2358.26
302.934 779.279 2357.54
303.049 779.186 2357.46
300.603 781.216 2359.79
300.989 781.259 2358.34
301.347 780.95 2358.14
302.047 780.231 2357.75
302.117 779.836 2358.58
303.323 778.903 2356.72
303.562 778.712 2355.86
304.771 777.769 2355.39
307.307 776.139 2352.8
308.097 775.381 2353.15
314.333 771.16 2354.57
311.951 771.797 2352.08
312.306 771.657 2352.26
313.136 771.408 2352.66
314.191 771.217 2353.74
309.828 773.48 2352.94
310.257 773.004 2353.03
311.63 771.977 2351.91
310.662 772.64 2352.13
310.894 772.497 2351.91
311.243 772.345 2351.62
311.545 772.157 2351.55
329.666 779.007 2383.88
329.672 778.931 2383.93
329.6 778.989 2384.06
329.504 779.043 2384.27
329.52 779.241 2384.41
329.496 779.264 2384.64
329.542 778.922 2384.15
330.493 779.826 2383.61
331.159 779.826 2383.8
329.753 779.053 2383.81
329.985 779.245 2383.75
330.275 779.34 2383.66
330.328 779.578 2383.65
330.306 779.749 2383.66
317.08 771.223 2354.69
320.02 771.209 2355.15
320.975 771.093 2355.45
321.05 771.106 2355.71
322.056 770.901 2355.88
331.504 778.841 2377.2
331.62 778.061 2376.79
331.585 778.405 2376.95
331.596 778.239 2376.92
331.603 778.066 2376.91
331.587 778.636 2377.15
331.737 777.876 2376.84
332.778 780.46 2383.36
332.343 780.282 2383.57
333.084 780.537 2383.22
333.508 780.626 2383.06
333.96 780.727 2382.88
334.325 780.425 2382.07
334.328 780.494 2382.22
334.346 780.589 2382.35
334.355 780.667 2382.48
334.359 780.743 2382.6
334.309 780.794 2382.71
332.603 779.608 2379.23
331.651 779.005 2377.53
333.83 780.161 2381.3
332.889 779.697 2379.73
334.147 780.244 2381.73
333.996 780.174 2381.54
333.849 780.135 2381.34
334.269 780.316 2381.95
332.062 780.115 2383.73
331.51 776.854 2377.65
331.588 777.321 2377.38
331.663 777.621 2377.09
331.396 776.842 2377.84
331.328 776.589 2378.08
328.091 775.05 2382.32
330.909 776.068 2378.52
331.039 776.334 2378.41
329.923 775.157 2379.73
331.068 776.49 2378.46
328.908 774.66 2381.29
328.106 775.36 2382.41
327.447 776.164 2383.43
327.353 776.352 2383.64
327.217 776.621 2384.05
327.26 776.805 2384.18
327.272 776.593 2383.92
327.381 776.614 2383.79
331.318 776.869 2378.05
324.18 769.833 2354.94
324.254 769.779 2354.78
323.216 770.34 2355.27
324.466 769.862 2353.93
324.562 769.79 2354.11
324.615 769.736 2354.27
324.222 769.773 2354.6
324.238 769.784 2354.39
324.52 769.977 2353.7
325.604 770.686 2352.71
327.513 771.711 2351.61
330.069 775.089 2347.92
325.203 770.396 2353.02
325.108 770.156 2353.27
324.598 770.128 2353.46
329.687 779.517 2385.23
329.595 779.394 2384.95
328.376 778.149 2384.9
329.34 779.124 2385.11
327.291 776.966 2384.34
327.489 777.259 2384.49
297.217 788.971 2383.56
294.248 786.322 2382.19
290.803 784.453 2380.44
290.137 783.773 2380.07
289.542 783.373 2379.65
289.532 783.176 2379.66
289.268 782.866 2379.42
289.21 782.661 2379.32
289.192 782.478 2379.21
289.328 783.087 2379.47
289.338 782.085 2378.65
289.301 782.128 2378.75
289.14 782.355 2379.04
289.197 782.251 2378.89
289.19 782.204 2378.75
289.589 781.968 2378.52
289.896 781.927 2378.44
292.924 782.162 2376.52
295.711 782.034 2377.01
295.554 782.941 2372.97
290.919 781.847 2378.27
290.291 781.887 2378.38
293.814 783.565 2369.48
294.306 783.66 2367.52
293.254 783.29 2371.9
294.693 783.529 2365.32
294.691 783.44 2360.95
294.155 783.647 2364.4
296.92 782.851 2359.59
298.778 782.526 2357.96
299.352 781.997 2359.55
300.152 781.792 2358.5
300.587 781.541 2358.4
302.62 779.862 2356.9
303.151 779.107 2356.6
300.988 781.533 2357.13
301.526 781.128 2356.8
302.135 780.593 2356.55
303.166 779.294 2355.52
303.322 779.186 2355.3
303.573 779.009 2355.04
304.583 778.29 2354.55
305.629 777.495 2354.1
306.305 776.786 2354.01
306.584 776.893 2352.31
306.767 776.89 2351.2
307.851 775.974 2351.3
308.427 775.306 2352.17
309.048 774.481 2352.72
311.944 771.902 2351.62
312.131 771.806 2351.79
313.079 771.547 2352.01
312.524 771.765 2351.65
313.979 771.375 2352.52
316.875 771.293 2353.91
310.082 773.328 2352.37
310.649 772.761 2351.86
310.905 772.658 2351.59
311.203 772.572 2351.3
311.464 772.389 2351.26
311.913 772.119 2351.21
329.709 778.882 2383.84
329.697 778.787 2383.88
329.643 778.848 2384
329.511 778.913 2384.24
329.46 779.023 2384.36
329.423 779.094 2384.49
329.496 779.209 2384.73
329.38 778.676 2384.08
329.541 778.821 2384.15
330.579 779.663 2383.63
331.188 779.763 2383.82
329.92 779.039 2383.77
330.254 779.139 2383.67
330.471 779.436 2383.62
330.572 779.165 2383.6
330.638 779.292 2383.61
330.648 779.499 2383.64
320.083 771.268 2354.69
320.971 771.112 2355.15
321.728 770.965 2355.68
321.584 771 2355.38
322.417 770.76 2355.46
331.556 778.815 2377.33
331.631 777.878 2377
331.623 778.502 2377.19
331.608 778.311 2377.1
331.584 778.129 2377.06
331.595 777.949 2377.14
331.599 778.672 2377.34
333.14 780.533 2383.23
332.717 780.394 2383.34
333.466 780.599 2383.11
333.819 780.68 2382.97
334.177 780.757 2382.82
334.313 780.429 2382.15
334.322 780.491 2382.28
334.31 780.542 2382.39
334.318 780.63 2382.52
334.312 780.696 2382.63
334.3 780.751 2382.72
331.763 778.978 2377.74
332.965 779.688 2379.88
334.13 780.191 2381.75
333.974 780.117 2381.55
333.837 780.109 2381.38
332.984 779.648 2379.93
334.235 780.27 2381.96
332.05 780.115 2383.67
332.508 780.293 2383.43
331.515 777.34 2377.55
331.598 777.642 2377.21
331.251 776.945 2378.21
330.035 775.381 2379.72
331.012 776.505 2378.59
329.22 774.914 2381.01
331.236 776.977 2378.3
328.926 774.935 2381.42
327.647 776.228 2383.27
328.146 775.566 2382.49
328.768 775.194 2381.76
327.531 776.569 2383.59
327.371 776.817 2384.02
327.483 777.196 2384.34
327.486 777.079 2384.18
327.434 776.776 2383.89
327.526 776.782 2383.77
331.452 777.401 2377.72
323.225 770.309 2355.04
323.913 769.908 2354.72
324.259 769.904 2353.94
324.145 769.866 2354.12
324.115 769.846 2354.24
323.918 769.904 2354.59
323.905 769.919 2354.44
324.368 770.007 2353.72
325.766 772.153 2351.58
324.966 770.627 2352.89
327.543 772.284 2351.09
329.517 774.744 2348.35
324.775 770.271 2353.22
324.272 770.077 2353.68
324.433 770.213 2353.41
329.537 779.286 2385.01
328.33 778.067 2384.71
329.185 778.954 2384.81
296.104 789.029 2382.67
293.197 786.546 2381.46
290.65 784.934 2380.2
290.127 784.123 2379.99
289.542 783.556 2379.61
289.267 783.255 2379.37
289.171 783.031 2379.29
289.119 782.832 2379.22
289.078 782.66 2379.15
289.09 782.501 2379.09
289.217 782.12 2378.54
289.206 782.147 2378.65
289.398 782.041 2378.51
289.037 782.442 2378.93
289.09 782.332 2378.87
289.062 782.305 2378.73
289.113 782.234 2378.66
289.558 782.002 2378.4
289.878 781.969 2378.27
292.117 782.23 2376.46
291.275 782.155 2377.11
290.297 781.95 2378.14
293.355 783.722 2369.12
292.555 783.291 2372.39
293.572 783.884 2367.48
294.187 783.6 2361.43
294.931 783.487 2359.74
295.449 783.28 2359.59
293.794 783.79 2364.45
297.003 782.96 2358.69
296.576 783.254 2357.97
298.562 782.92 2356.07
299.295 782.511 2356.74
299.623 782.099 2358.35
299.763 782.28 2356.32
300.717 781.724 2357.11
302.642 780.109 2355.73
302.857 779.659 2356.17
301.091 781.475 2356.54
301.467 781.177 2356.51
302.06 780.719 2356.22
302.179 780.592 2356.34
302.528 780.254 2355.57
303.05 779.711 2354.82
304.484 778.792 2353.45
305.391 778.087 2353.27
305.865 777.474 2353.5
305.97 777.639 2351.95
306.461 777.191 2351.12
306.8 776.953 2350.92
307.143 776.683 2350.78
308.045 775.94 2350.96
308.791 775.021 2351.89
309.468 774.258 2352.19
312.36 771.909 2351.3
313.315 771.65 2351.48
314.099 771.489 2351.92
312.729 771.884 2351.16
317.036 771.421 2353.18
320.024 771.412 2354.16
310.178 773.412 2351.94
310.747 772.865 2351.55
310.98 772.852 2351.2
311.33 772.885 2350.76
311.551 772.601 2350.86
311.883 772.4 2350.8
312.334 772.141 2350.86
329.866 778.831 2383.79
329.698 778.639 2383.84
329.671 778.747 2383.94
329.395 778.832 2384.31
329.351 778.692 2384.2
329.389 778.942 2384.42
329.322 778.957 2384.53
329.377 779.075 2384.76
329.426 778.588 2384.03
329.52 778.577 2383.93
329.273 778.497 2384.07
331.21 779.695 2383.83
330.106 778.916 2383.7
330.494 779.019 2383.6
331.455 779.459 2383.58
331.41 779.568 2383.66
331.351 779.641 2383.71
331.267 779.651 2383.79
321.187 771.156 2354.72
321.616 771.027 2355.04
322.237 770.819 2355.31
322.153 770.849 2355.08
331.649 778.814 2377.56
331.64 778.519 2377.37
331.593 778.307 2377.29
331.56 778.08 2377.27
331.552 777.725 2377.31
331.664 778.672 2377.54
333.144 780.476 2383.12
333.694 780.617 2383
334.126 780.73 2382.87
334.25 780.707 2382.75
334.302 780.451 2382.25
334.304 780.393 2382.15
334.283 780.47 2382.36
334.276 780.525 2382.46
334.275 780.594 2382.57
334.26 780.65 2382.67
331.862 778.953 2377.94
334.093 780.138 2381.76
333.916 780.078 2381.52
333.66 779.959 2381.15
332.954 779.583 2379.91
331.929 778.919 2378.16
334.188 780.209 2381.94
332.07 780.115 2383.61
332.628 780.274 2383.35
331.397 777.436 2377.88
330.095 775.581 2379.89
330.99 776.616 2378.8
329.503 775.194 2380.84
331.162 776.888 2378.5
329.186 775.282 2381.43
331.31 777.342 2378.12
328.324 775.809 2382.51
327.762 776.507 2383.36
328.958 775.483 2381.81
327.681 776.862 2383.68
327.601 777.075 2384.03
328.264 777.925 2384.53
328.238 777.809 2384.37
327.658 777.017 2383.88
331.508 777.768 2377.46
323.244 770.308 2354.81
322.429 770.746 2355.06
324.124 769.997 2353.9
324.007 769.967 2354.05
323.223 770.424 2354.25
323.159 770.409 2354.4
323.175 770.359 2354.59
324.479 771.162 2352.67
323.776 771.711 2352.5
325.787 773.943 2350.16
323.805 772.274 2351.88
327.97 774.336 2349.35
324.081 770.885 2353.03
328.448 775.102 2348.43
323.474 770.632 2353.61
323.393 770.541 2353.81
323.689 770.788 2353.32
326.674 775.314 2348.81
329.055 778.743 2384.58
293.226 787.323 2381.21
290.498 785.529 2379.82
289.925 784.258 2379.79
289.462 783.676 2379.48
289.21 783.41 2379.27
289.096 783.197 2379.17
289.032 782.962 2379.1
288.979 782.76 2379
288.984 782.564 2378.97
289.128 782.212 2378.57
289.17 782.191 2378.49
289.339 782.101 2378.43
288.953 782.534 2378.85
288.994 782.418 2378.79
288.997 782.391 2378.69
289.054 782.312 2378.62
289.597 782.046 2378.28
290.021 782.038 2378.07
290.901 782.111 2377.47
291.535 782.609 2375.81
290.685 782.172 2377.44
292.156 783.429 2372.25
293.131 783.856 2368.64
293.227 783.992 2367.42
293.953 783.729 2361.43
293.555 783.913 2364.46
294.674 783.614 2359.65
296.681 783.373 2357.33
298.51 783.018 2355.62
298.958 782.745 2355.79
299.323 782.552 2355.47
300.187 782.052 2355.98
300.918 781.424 2354.83
301.878 780.793 2355.4
302.24 780.511 2355.44
302.74 780.035 2354.71
303.183 779.703 2354.13
304.11 779.177 2352.8
305.291 778.529 2351.73
305.237 778.653 2351.46
303.597 779.704 2352.02
305.42 778.26 2352.47
305.472 778.415 2351.55
305.952 777.862 2351.13
306.789 777.061 2350.65
307.003 776.96 2350.44
308.143 776.006 2350.69
309.398 774.883 2351.17
309.269 774.719 2351.63
309.742 774.199 2351.69
312.602 772.089 2350.82
314.185 771.612 2351.55
313.342 771.766 2351.2
316.986 771.565 2352.57
313.15 771.973 2350.89
320.341 771.488 2353.66
321.146 771.271 2354.24
310.363 773.542 2351.46
310.635 773.712 2350.88
310.8 773.993 2350.41
311.517 773.047 2350.42
311.851 772.722 2350.45
312.24 772.465 2350.5
312.643 772.341 2350.49
330.058 778.719 2383.72
329.74 778.466 2383.71
329.468 778.409 2383.85
329.169 778.68 2384.36
329.176 778.582 2384.25
329.169 778.479 2384.15
328.977 778.567 2384.41
329.335 778.43 2383.96
329.076 778.286 2384.06
329.214 778.287 2383.95
330.353 778.84 2383.63
330.59 778.867 2383.57
331.491 779.352 2383.52
332.537 780.03 2383.4
332.863 779.984 2383.25
332.24 780.055 2383.52
321.77 771.063 2354.62
322.08 770.92 2354.79
322.434 770.766 2354.86
331.788 778.815 2377.83
331.675 778.497 2377.62
331.557 778.237 2377.49
331.494 778 2377.44
331.754 778.687 2377.79
333.238 780.428 2382.99
333.632 780.447 2382.9
334.038 780.637 2382.88
334.194 780.665 2382.81
334.201 780.596 2382.71
334.297 780.407 2382.27
334.28 780.436 2382.36
334.23 780.285 2382.09
334.235 780.438 2382.43
334.232 780.491 2382.53
334.187 780.537 2382.62
333.981 780.058 2381.64
334.088 780.104 2381.82
333.703 779.963 2381.28
332.726 779.36 2379.6
332.051 778.961 2378.48
331.889 778.799 2378.13
332.539 780.186 2383.4
331.453 777.749 2377.67
329.978 775.707 2380.63
329.765 775.631 2380.95
330.417 776.119 2380.11
330.898 776.611 2379.13
331.166 777.008 2378.73
331.221 777.126 2378.46
329.496 775.554 2381.28
329.324 775.649 2381.61
331.423 777.685 2378
328.519 776.177 2382.61
328.034 776.831 2383.4
329.13 775.774 2381.87
327.849 777.107 2383.76
328.217 777.709 2384.22
328.245 777.636 2384.04
328.902 778.361 2384.3
323.305 770.48 2354.03
322.634 770.887 2354.14
322.296 770.96 2354.3
322.19 770.943 2354.5
322.399 770.819 2354.64
323.112 771.63 2352.8
