290.657 752.073 1676.47
290.448 751.711 1676.79
286.767 751.459 1673.17
287.219 752.031 1672.93
287.411 752.069 1673.05
290.145 751.775 1676.08
290.483 751.918 1676.38
289.453 751.587 1675.38
288.135 751.575 1674.07
287.671 752.183 1673.17
287.642 752.331 1673.04
281.184 750.525 1670.34
280.739 750.737 1670.05
280.974 750.708 1670.16
281.196 750.701 1670.26
280.269 751.523 1669.57
280.574 751.08 1669.82
281.53 750.525 1670.57
281.387 750.625 1670.41
282.22 751.022 1670.64
281.753 750.836 1670.49
286.982 752.059 1672.67
286.91 752.52 1671.59
286.753 751.726 1672.87
255.871 772.152 1725.01
255.738 772.326 1724.97
251.143 775.121 1724.76
249.085 776.478 1724.41
250.302 775.597 1724.64
245.606 779.029 1722.96
254.027 773.922 1724.32
250.87 775.266 1724.62
252.548 774.504 1724.38
250.794 775.23 1724.41
252.465 774.489 1724.23
255.124 772.881 1724.7
254.398 773.364 1724.36
253.944 773.625 1724.2
253.917 773.74 1724.2
254.059 773.79 1724.28
255.024 771.387 1724.62
254.4 770.652 1724.33
255.581 772.27 1724.88
255.4 772.182 1724.79
251.276 768.903 1719.99
250.956 769.543 1720.8
250.957 769.274 1720.37
250.784 769.074 1719.3
251.196 768.658 1718.87
251.809 768.164 1718.28
250.941 769.754 1721.15
251.867 770.348 1722.5
251.107 770.032 1721.61
253.358 770.508 1723.82
252.832 770.634 1723.55
251.987 770.624 1722.75
253.961 770.531 1724.13
253.51 770.664 1723.94
251.651 768.298 1716.4
251 768.73 1714.91
249.83 769.189 1713.29
249.412 769.156 1711.16
248.168 769.05 1709.06
249.463 768.06 1706.81
250.464 767.663 1706.27
252.992 767.241 1704.76
255.172 766.802 1702.05
256.256 766.649 1704.78
257.638 766.111 1705.82
257.346 766.267 1706.05
258.173 766.01 1706.18
259.781 765.589 1706.31
260.726 765.444 1706.76
262.324 764.627 1705.2
266.519 762.668 1702.12
267.334 762.414 1701.83
268.499 762.238 1702.54
267.713 762.293 1701.77
264.562 763.64 1703.72
268.845 762.121 1702.72
268.65 762.181 1702.56
269.461 761.621 1703.02
269.235 761.805 1702.87
268.925 762.037 1702.67
270.409 759.592 1703.44
269.616 759.34 1702.78
268.694 759.082 1702.01
268.503 758.951 1701.69
270.536 760.637 1703.86
269.959 761.231 1703.35
268.786 761.718 1701.99
269.816 761.009 1703.04
270.459 760.113 1703.88
270.389 759.921 1703.67
270.357 759.711 1703.45
268.479 758.762 1701.4
268.408 758.844 1701.47
268.532 758.669 1701.16
268.428 758.726 1701.25
268.565 758.647 1699.79
268.382 758.679 1700.9
268.374 758.714 1701.08
268.318 758.699 1700.35
268.242 758.734 1700.72
268.648 758.923 1698.42
268.421 758.873 1699.05
268.766 758.985 1698.03
268.761 759.159 1697.64
269.209 759.252 1696.97
270.582 759.88 1695.13
270.532 760.887 1694.15
269.66 761.446 1694.74
269.066 761.773 1695.22
268.272 762.039 1696.29
268.402 761.926 1696.19
272.369 760.88 1691.79
269.461 761.874 1693.76
267.276 762.393 1697.45
275.597 759.662 1689.95
278.485 758.454 1688.13
267.421 762.156 1699.16
267.174 762.208 1699.85
267.379 762.144 1699.74
267.239 762.209 1699.32
266.999 762.271 1699.63
267.81 762.131 1697.86
267.585 762.08 1698.96
279.01 758.249 1687.91
279.332 757.756 1687.21
279.142 757.96 1687.41
279.089 758.099 1687.58
279.125 758.146 1687.68
279.441 756.506 1686.25
279.323 757.12 1686.72
279.195 757.775 1687.17
279.135 756.042 1685.65
279.259 756.201 1685.85
279.582 755.72 1685.22
280.355 753.581 1681.64
280.143 753.13 1680.74
278.284 754.369 1683.48
279.479 753.967 1682.56
281.12 752.81 1679.07
277.186 752.52 1680.2
283.285 752.867 1677.33
283.482 752.773 1675.41
286.708 752.86 1674.35
285.974 752.851 1674.11
279.213 756.463 1686.15
287.294 752.742 1674.14
286.829 752.783 1674.04
287.338 752.71 1674.04
287.519 752.644 1673.81
287.406 752.67 1673.91
287.246 752.7 1673.79
287.771 752.634 1673.92
287.801 752.633 1673.85
287.638 752.634 1673.77
290.431 752.691 1675.87
290.356 752.745 1675.85
290.17 752.759 1675.67
290.53 752.626 1675.96
290.513 752.552 1675.94
289.166 752.736 1674.85
289.24 752.657 1674.83
288.249 752.598 1673.97
287.983 752.636 1673.79
287.857 752.637 1673.82
290.572 752.426 1676.02
290.448 752.49 1675.86
290.632 752.162 1676.29
290.607 752.286 1676.1
290.424 752.362 1675.86
290.6 752.349 1676.06
290.515 752.06 1676.21
287.479 752.382 1672.81
290.18 751.858 1676
289.627 751.772 1675.39
288.278 751.68 1674.1
289.135 751.593 1674.98
287.846 752.31 1673.21
287.827 752.422 1673.07
287.744 752.493 1672.84
280.868 750.99 1670
281.111 750.985 1670.11
281.417 750.825 1670.32
280.311 751.737 1669.61
280.559 751.411 1669.75
282.165 751.149 1670.53
281.65 750.977 1670.37
287.168 752.713 1671.61
254.993 772.813 1724.64
249.031 776.52 1724.31
245.755 778.949 1722.91
250.138 775.618 1724.44
252.382 774.454 1724.14
252.352 774.398 1724.05
252.325 774.318 1723.94
250.731 775.147 1724.19
249.959 775.626 1724.24
254.217 773.32 1724.29
253.824 773.576 1724.16
252.186 773.834 1723.58
252.27 774.006 1723.68
252.381 774.168 1723.84
254.183 772.13 1724.29
253.904 770.982 1724.18
253.668 770.847 1724.06
254.851 772.748 1724.57
254.679 772.706 1724.49
250.53 769.426 1719.82
250.407 770.02 1720.71
250.162 769.942 1720.22
250.42 769.654 1720.14
250.23 769.528 1719.27
250.481 769.166 1718.57
250.74 768.89 1716.91
250.68 770.096 1721.14
250.926 770.376 1721.67
250.405 770.6 1721.18
252.922 770.792 1723.67
251.391 771.507 1722.64
250.319 771.974 1721.91
253.067 770.927 1723.79
250.49 769.059 1715.44
249.285 769.628 1714
247.666 770.816 1714.62
247.475 769.78 1710.74
246.622 768.838 1706.15
247.669 768.044 1704.77
248.05 766.845 1701.45
248.599 766.926 1702.04
250.062 767.417 1704.42
253.188 767.063 1702.85
255.68 766.643 1701.73
254.989 766.048 1698.32
254.698 766.081 1698.3
254.328 766.193 1698.58
256.447 766.542 1703.99
257.168 766.256 1705.16
257.822 765.909 1705.36
258.277 765.794 1705.66
259.545 765.342 1705.54
262.636 764.141 1704.07
264.65 763.014 1702.19
264.864 762.805 1701.38
266.029 762.52 1700.65
266.769 762.364 1700.8
267.256 762.214 1700.8
267.988 762.211 1701.77
267.553 762.083 1700.81
268.355 762.051 1701.8
268.185 762.121 1701.78
268.565 761.917 1701.87
268.615 761.842 1701.85
268.478 761.98 1701.78
269.572 759.449 1702.81
268.722 759.233 1702.12
268.537 759.09 1701.89
268.323 758.927 1701.51
268.368 759.034 1701.7
269.042 761.561 1702.23
268.334 761.657 1701.27
268.2 761.636 1701.06
268.173 761.76 1701.15
269.694 761.073 1702.89
268.496 761.499 1701.34
268.386 761.56 1701.25
269.811 760.954 1703.02
270.315 760.205 1703.62
270.26 759.918 1703.4
269.566 759.55 1702.85
268.37 758.791 1701.32
268.287 758.853 1701.33
268.3 758.791 1701.21
268.417 758.739 1699.66
268.236 758.764 1700.96
268.181 758.827 1701.08
268.122 758.826 1700.6
268.211 758.797 1700.05
268.078 758.848 1700.88
268.408 759.004 1698.57
268.558 758.988 1698.26
268.292 758.919 1699.21
268.495 759.087 1698.11
268.552 759.249 1697.73
268.958 759.302 1697.17
270.088 760.045 1695.39
270.012 761.128 1694.59
269.094 761.509 1695.5
268.674 761.788 1695.83
268.049 762.057 1697.17
268.286 761.905 1696.66
272.394 760.847 1691.6
269.65 761.792 1693.44
267.691 762.429 1695.11
266.631 762.498 1698.11
266.754 762.332 1700.03
275.882 759.511 1689.6
278.808 758.298 1687.84
278.281 758.496 1687.99
267.582 762.034 1699.79
266.964 762.276 1700.31
267.326 762.164 1700.29
267.212 762.217 1700.43
267.466 762.091 1700.3
267.837 761.945 1698.71
267.74 761.918 1699.42
278.938 758.138 1687.53
278.997 758.002 1687.39
278.81 758.257 1687.68
279.168 757.066 1686.63
279.029 757.801 1687.17
278.95 756.431 1686.08
277.955 755.468 1685.05
278.603 756.245 1685.88
276.39 752.99 1681.62
276.443 752.669 1680.91
275.949 754.091 1683.26
277.146 753.298 1682.13
278.028 752.371 1678.84
275.44 752.388 1680.17
275.958 752.262 1679.52
278.149 752.32 1677.78
280.572 752.571 1675.91
285.24 752.815 1673.55
283.962 752.933 1672.83
286.598 752.751 1673.52
278.927 757.077 1686.59
287.011 752.751 1673.88
286.878 752.734 1673.56
287.563 752.622 1673.57
287.376 752.651 1673.57
287.12 752.692 1673.53
287.736 752.633 1673.7
287.634 752.627 1673.5
290.18 752.599 1675.61
290.137 752.664 1675.59
289.31 752.577 1674.82
290.214 752.536 1675.62
290.183 752.463 1675.57
288.305 752.548 1673.97
288.309 752.504 1673.9
288.127 752.632 1673.82
287.85 752.635 1673.62
287.94 752.661 1673.46
290.182 752.314 1675.62
290.136 752.371 1675.54
290.477 752.156 1676.03
290.366 752.237 1675.85
290.096 752.179 1675.58
290.193 751.953 1675.89
287.318 752.759 1671.76
288.456 751.788 1674.18
289.816 751.954 1675.42
287.896 752.354 1673.23
287.844 752.536 1672.86
287.384 752.801 1671.79
280.008 752.851 1669.59
279.917 752.988 1669.58
280.847 751.358 1669.88
281.162 751.269 1670.03
281.314 751.002 1670.2
280.632 751.83 1669.77
282.167 751.312 1670.42
281.501 751.12 1670.24
253.965 773.279 1724.18
248.391 777.01 1723.94
246.515 778.404 1723.21
248.172 777.148 1723.76
250.407 775.148 1723.92
250.347 774.951 1723.62
249.428 774.677 1722.77
249.922 775.589 1724.04
248.236 777.022 1723.65
248.053 777.21 1723.63
252.311 773.638 1723.56
252.898 773.48 1723.76
250.536 773.554 1722.77
250.484 773.974 1722.94
250.614 774.266 1723.2
253.429 771.248 1724.02
252.85 772.082 1723.7
253.138 773.182 1723.82
252.449 772.807 1723.49
253.191 771.04 1723.89
250.011 769.842 1719.68
250.011 770.238 1720.33
249.84 770.162 1719.95
249.293 770.357 1718.39
249.412 770.142 1717.97
249.871 769.672 1717.3
249.305 770.184 1716.45
249.975 769.378 1715.39
250.068 770.49 1720.64
249.992 772.059 1721.62
249.78 772.025 1721.33
249.574 771.832 1720.88
251.981 771.395 1723.05
250.886 772.546 1722.56
250.311 773.101 1722.41
249.946 773.322 1722.24
249.564 773.213 1721.77
252.234 771.583 1723.29
248.699 770.288 1714.78
248.554 770.727 1716.17
248.261 771.079 1717.02
248.107 771.283 1717.35
247.435 771.504 1717.09
247.547 771.251 1716.33
245.995 771.54 1713.89
244.68 771.629 1710.58
246.25 770.778 1711.85
245.032 771.439 1710.58
246.553 769.843 1709.64
246.058 769.262 1706.86
245.755 768.571 1703.17
247.49 767.121 1701.69
247.694 766.824 1701.04
247.81 766.06 1698.41
248.452 765.857 1698.21
249.077 766.532 1700.86
252.081 766.975 1702.26
249.793 766.385 1700.34
253.714 766.13 1698.23
256.048 766.443 1701.19
255.245 765.971 1698.33
254.979 765.516 1696.59
254.661 765.53 1696.31
254.106 765.65 1696.43
256.238 766.496 1701.87
256.602 766.442 1703.35
257.294 766.119 1704.91
257.861 765.711 1704.87
258.237 765.556 1705.08
258.723 765.433 1705.2
259.116 764.368 1703.56
259.799 764.232 1703.62
261.28 763.888 1703.29
261.522 763.361 1702.28
261.447 763.156 1701.58
261.422 763.011 1700.77
264.073 762.837 1700.58
265.848 762.632 1698.2
267.725 762.008 1700.95
267.53 762.093 1700.55
267.839 761.952 1700.99
268 761.896 1701.14
268.037 761.795 1701.03
268.668 759.322 1702.13
268.502 759.167 1701.91
268.223 759.012 1701.54
268.236 758.915 1701.38
268.341 759.09 1701.75
268.23 761.501 1700.99
268.064 761.702 1700.86
268.144 761.581 1700.76
268.697 761.499 1701.6
268.294 761.372 1701
268.452 761.344 1701.21
269.684 760.989 1702.88
270.187 760.318 1703.39
270.103 760.064 1703.29
269.537 759.675 1702.89
268.61 759.403 1702.14
268.207 758.885 1701.23
268.18 758.946 1701.31
268.062 758.919 1701.05
268.042 758.892 1700.33
267.983 758.947 1700.8
268.194 758.907 1699.52
268.185 759.1 1698.87
268.252 759.106 1698.48
268.299 759.188 1698.18
268.394 759.334 1697.77
268.75 759.405 1697.28
269.712 760.153 1695.64
269.447 761.208 1695.24
268.84 761.466 1695.91
268.532 761.718 1696.2
268.01 762.008 1697.68
268.34 761.822 1696.71
268.163 761.915 1697.25
272.366 760.806 1691.43
269.332 761.857 1693.44
267.207 762.448 1695.02
275.248 759.731 1689.8
278.466 758.38 1687.76
276.074 759.328 1689.14
267.625 762.018 1700.41
267.709 761.929 1700.13
267.644 762.042 1700.61
267.927 761.787 1699.02
267.854 761.81 1699.71
278.7 758.216 1687.53
278.811 758.058 1687.38
278.844 757.886 1687.22
278.561 757.16 1686.62
277.341 756.044 1685.79
273.357 756.022 1686.35
273.093 755.704 1685.9
278.079 757.152 1686.63
275.316 752.938 1681.5
275.181 752.579 1680.76
272.682 755.315 1685.2
273.815 754.47 1683.39
275.038 753.786 1682.66
275.937 752.185 1678.89
274.287 752.342 1679.9
274.534 752.264 1679.59
274.81 752.176 1679.12
275.101 752.134 1678.49
276.026 752.212 1677.44
278.705 752.58 1675.27
286.123 752.927 1672.54
280.893 753.108 1672.79
284.078 753.178 1671.78
280.844 753.288 1671.85
286.502 752.85 1672.56
278.492 757.971 1687.26
286.711 752.811 1672.57
287.041 752.787 1672.56
287.093 752.807 1672.47
286.916 752.783 1672.57
287.677 752.643 1673.39
287.137 752.828 1672.37
289.323 752.495 1674.78
289.297 752.419 1674.72
288.344 752.45 1673.88
289.253 752.351 1674.66
289.217 752.277 1674.63
288.236 752.609 1673.83
288.277 752.558 1673.77
288.233 752.635 1673.73
288.107 752.646 1673.67
287.788 752.627 1673.53
287.735 752.691 1673.15
287.649 752.682 1673.16
287.928 752.708 1673.17
287.51 752.931 1672.07
287.421 752.93 1672.05
288.983 752.086 1674.45
289.055 752.142 1674.51
289.135 752.2 1674.57
290.212 752.089 1675.76
289.941 752.08 1675.45
288.803 751.966 1674.37
288.64 751.869 1674.27
287.983 752.346 1673.35
287.942 752.424 1673.23
287.901 752.567 1672.89
287.506 752.87 1671.83
287.423 752.843 1671.8
280.254 752.683 1669.74
280.095 752.784 1669.67
280.539 752.623 1669.82
280.585 752.473 1669.78
279.982 753.032 1669.69
280.101 752.932 1669.72
280.792 752.383 1669.8
279.79 753.085 1669.55
279.808 753.144 1669.71
279.726 753.204 1669.6
279.655 753.311 1669.54
281.035 751.731 1669.91
281.404 751.5 1670.11
281.128 752.2 1669.9
282.065 751.455 1670.3
253.154 773.459 1723.85
245.224 779.336 1722.38
245.176 779.333 1722.26
249.696 775.607 1723.87
249.96 775.235 1723.65
249.298 775.573 1723.49
248.884 775.486 1723.14
247.941 775.161 1722.33
247.962 774.616 1721.82
248.492 773.549 1720.96
249.064 773.788 1721.69
249.849 774.23 1722.68
248.026 777.141 1723.5
245.97 778.698 1722.65
251.103 773.177 1722.9
251.823 773.114 1723.25
250 773.821 1722.54
252.477 771.748 1723.48
251.862 772.617 1723.18
249.268 770.493 1718.81
249.761 770.479 1720.14
249.296 770.665 1719.21
248.703 771.011 1717.99
248.731 770.848 1717.53
248.799 770.613 1716.4
248.524 770.94 1717.27
249.299 769.974 1715.38
249.44 771.58 1720.45
249.401 772.911 1721.32
249.159 772.457 1720.49
251.481 772.594 1722.95
249.672 773.547 1722.09
249.205 773.394 1721.48
248.361 771.167 1717.52
248.165 771.489 1717.91
247.893 771.649 1717.96
247.566 771.686 1717.7
247.887 771.501 1717.63
246.103 772.103 1717.91
245.955 771.994 1717.37
245.743 771.894 1716.45
244.183 772.18 1714.04
242.759 772.379 1710.27
240.726 772.743 1707.2
243.334 771.609 1707.03
244.018 771.594 1708.32
246.116 770.543 1710.85
246.062 769.916 1708.99
245.65 771.019 1710.86
244.561 771.346 1708.71
243.8 771.405 1707.2
245.54 769.379 1706.04
244.035 769.426 1702.54
242.692 770.168 1702.17
244.804 768.148 1699.88
246.739 767.248 1700.46
246.919 766.503 1698.3
248.081 765.697 1697.09
247.796 765.735 1696.81
247.542 765.838 1696.92
249.116 765.656 1697.57
248.85 765.478 1695.63
248.374 765.555 1695.6
251.606 766.144 1698.89
251.707 765.491 1695.48
253.96 765.507 1694.87
256.406 766.297 1701.18
255.501 765.912 1698.5
255.236 765.463 1696.74
255.074 765.433 1696.02
255.176 765.421 1696.36
254.639 765.454 1694.62
255.08 765.386 1694.49
256.729 766.333 1703.02
257.187 766.059 1704.37
257.524 765.796 1704.48
257.782 765.441 1704.23
258.249 764.442 1703.04
258.049 764.332 1702.63
258.637 764.441 1703.37
258.559 763.538 1701.69
258.98 763.472 1701.8
259.707 763.425 1702.13
259.412 763.248 1701.4
258.962 762.78 1698.8
258.477 762.919 1699.36
260.118 762.432 1696.47
262.057 762.731 1697.98
264.585 762.756 1697.94
267.74 761.997 1700.66
267.868 761.895 1700.81
267.918 761.827 1700.66
268.446 759.229 1701.92
268.101 759.065 1701.48
268.192 759.08 1701.6
268.162 758.986 1701.41
268.261 759.128 1701.72
268.173 761.419 1700.7
268.002 761.733 1700.59
268.077 761.641 1700.5
268.153 761.524 1700.52
268.741 761.391 1701.69
268.485 761.241 1701.32
268.218 761.295 1700.64
268.345 761.219 1700.96
269.836 760.78 1703.05
269.156 761.187 1702.28
269.953 760.445 1703.19
269.455 759.906 1702.85
268.694 759.546 1702.28
268.434 759.394 1702.01
268.361 759.238 1701.88
268.089 758.986 1701.22
268.093 759.038 1701.34
267.999 758.998 1701.04
267.967 758.968 1700.45
268.088 758.954 1699.68
267.94 759.026 1700.82
268.094 759.148 1699.03
268.047 759.215 1698.59
268.117 759.281 1698.25
268.264 759.43 1697.79
268.586 759.524 1697.31
269.444 760.275 1695.81
269.15 760.348 1696.07
269.045 761.152 1695.8
268.695 761.379 1696.19
268.524 761.621 1696.36
268.026 761.885 1698.12
268.373 761.729 1696.81
268.169 761.827 1697.43
271.144 761.123 1691.95
269.216 761.832 1693.29
267.536 762.317 1694.25
266.03 762.54 1695.38
278.076 758.524 1687.89
274.665 759.824 1689.77
267.774 761.927 1700.51
267.827 761.829 1700.35
267.978 761.682 1699.17
267.91 761.735 1699.85
278.305 758.367 1687.66
278.431 758.197 1687.48
277.87 758.075 1687.36
276.906 757.114 1686.73
273.33 756.367 1686.75
271.384 756.373 1686.98
271.054 756.151 1686.72
270.921 755.875 1686.31
276.429 758.349 1687.74
274.107 753.532 1682
274.622 752.661 1680.83
272.071 754.95 1684.35
270.653 755.658 1685.81
272.809 754.164 1682.57
274.03 752.485 1680.16
273.574 752.447 1679.62
273.876 752.294 1679.36
274.206 752.189 1678.94
274.633 752.164 1678.09
275.165 752.317 1676.95
278.013 752.865 1674.14
286.153 753.151 1671.73
279.369 753.432 1671.72
284.299 753.253 1671.47
280.891 753.332 1671.5
279.661 753.505 1671.2
277.816 758.296 1687.59
286.965 753.132 1671.32
286.803 753.038 1671.57
287.19 752.838 1672.31
288.328 752.422 1673.8
288.319 752.396 1673.73
288.283 752.544 1673.72
288.306 752.36 1673.69
288.252 752.364 1673.63
288.197 752.669 1673.5
288.097 752.687 1673.4
287.262 752.855 1672.23
287.955 752.748 1672.97
287.669 752.987 1671.9
287.552 752.946 1671.99
288.188 752.335 1673.55
288.172 752.424 1673.52
288.132 752.414 1673.47
288.257 752.276 1673.65
288.085 752.341 1673.46
288.001 752.283 1673.44
287.967 752.551 1673.12
288.034 752.508 1673.3
287.571 752.868 1671.87
280.277 752.844 1669.81
280.573 752.804 1669.91
280.845 752.739 1669.96
280.98 752.596 1669.93
279.872 753.18 1669.82
280.068 753.075 1669.82
280.289 753.008 1669.87
281.356 752.538 1670
281.061 752.346 1669.89
279.717 753.283 1669.76
279.624 753.392 1669.6
281.994 751.659 1670.19
281.529 752.397 1670.03
249.535 775.647 1723.73
247.742 777.315 1723.32
248.159 776.853 1723.38
247.536 777.226 1723.12
248.429 776.31 1723.29
248.083 776.339 1723.07
247.953 775.669 1722.65
245.896 774.663 1721.1
246.081 774.311 1720.93
246.136 773.953 1720.65
247.675 774.009 1721.07
248.219 773.234 1720.43
248.631 772.928 1720.36
248.348 772.679 1719.84
248.829 773.053 1720.69
249.565 773.793 1722.16
245.875 778.69 1722.57
248.713 771.137 1718.35
249.308 771.137 1719.71
248.958 771.651 1719.29
248.572 771.212 1718.03
248.596 771.314 1718.23
248.574 771.097 1717.66
249.05 772.809 1720.7
248.819 771.796 1719.16
248.831 772.612 1720.22
248.416 771.328 1717.91
248.238 772.035 1718.76
248.461 772.125 1719.08
247.804 771.918 1718.28
248.097 772.081 1718.73
247.521 771.843 1717.97
246.258 772.213 1718.29
245.15 772.609 1718.79
244.792 772.604 1718.57
244.619 772.539 1718.17
244.389 772.509 1717.59
243.081 772.749 1715.49
240.274 773.758 1712.66
238.172 774.631 1710.95
238.502 773.709 1707.32
239.994 772.177 1703.85
241.969 771.27 1703.94
245.06 770.824 1708.63
245.714 770.201 1709.06
245.702 769.769 1708.06
243.994 770.24 1704.66
245.481 769.668 1706.83
240.826 770.94 1701.12
242.121 769.635 1699.52
242.791 769.461 1700.67
244.194 768.065 1698.7
243.314 768.114 1696.76
245.601 766.829 1696.61
247.959 765.663 1695.55
247.381 765.875 1695.53
246.636 766.259 1696.13
249.749 765.432 1695.67
248.997 765.19 1693.37
249.618 765.259 1693.88
248.418 765.462 1694.03
252.597 765.216 1693.21
255.07 765.277 1693.06
255.944 765.878 1699.07
255.756 765.834 1698.77
256.584 766.196 1701.23
255.476 765.441 1696.93
255.406 765.362 1696.76
255.404 765.318 1696.24
255.426 765.361 1694.44
255.281 765.366 1695.8
255.73 765.25 1692.98
255.969 765.233 1693.12
256.786 766.243 1702.75
257.215 765.904 1703.9
257.551 765.482 1703.87
257.869 764.273 1702.31
258.199 763.605 1701.49
257.673 763.426 1700.13
257.765 763.765 1701.32
258.507 763.036 1700.07
258.091 763.134 1699.83
258.213 762.648 1697.8
259.383 762.45 1696.48
257.706 762.737 1698.01
260.982 762.117 1694.79
260.349 762.284 1695.21
263.364 762.457 1695.59
268.091 759.122 1701.51
268.048 759.118 1701.42
268.086 759.062 1701.42
268.115 759.185 1701.57
268.192 759.217 1701.68
268.186 761.404 1700.46
267.93 761.718 1700.33
268.041 761.59 1700.29
268.087 761.481 1700.26
268.782 761.254 1701.77
268.512 761.121 1701.43
268.455 761.052 1701.22
268.433 761.119 1701.07
268.306 761.162 1700.67
268.221 761.269 1700.41
269.613 760.667 1702.84
269.231 760.959 1702.43
269.364 760.089 1702.75
268.648 759.64 1702.22
268.362 759.465 1701.95
268.232 759.294 1701.76
267.998 759.092 1701.23
268.016 759.127 1701.35
267.952 759.07 1701.01
267.911 759.041 1700.49
267.981 759.007 1699.82
268.003 759.198 1699.17
267.9 759.105 1700.81
267.913 759.33 1698.78
267.965 759.32 1698.48
268.037 759.403 1698.17
268.175 759.56 1697.77
268.426 759.654 1697.36
268.84 760.354 1696.43
268.749 761.157 1696.21
268.512 761.437 1696.52
268.066 761.804 1698.17
268.351 761.571 1696.93
268.206 761.726 1697.46
270.336 761.299 1692.22
267.094 762.282 1694.13
276.191 759.127 1688.71
271.339 760.836 1691.37
268.059 761.602 1699.15
267.969 761.652 1699.92
276.678 758.793 1688.22
274.93 759.161 1688.77
272.882 758.77 1688.67
273.642 757.509 1687.57
271.381 757.402 1687.81
270.664 757.225 1687.67
270.277 757.133 1687.55
270.586 756.156 1686.69
270.42 755.931 1686.33
271.423 759.44 1689.6
273.622 753.253 1681.32
271.425 754.763 1683.67
270.293 755.759 1685.97
270.421 755.37 1685.18
272.083 754.062 1681.95
273.078 753.152 1680.77
272.733 753.09 1680.34
273.213 752.469 1679.14
272.219 753.26 1680.14
273.564 752.33 1678.86
274.021 752.241 1678.34
274.16 752.289 1677.61
274.597 752.468 1676.6
276.812 752.996 1674.04
278.573 753.551 1671.62
286.232 753.198 1671.43
279.02 753.591 1670.99
283.755 753.279 1671.29
280.845 753.382 1671.22
279.755 753.518 1670.79
279.299 753.546 1670.66
287.282 753.16 1671.34
288.248 752.578 1673.65
288.216 752.518 1673.6
288.225 752.568 1673.62
288.177 752.536 1673.53
288.154 752.513 1673.5
288.031 752.753 1672.98
287.728 753.012 1671.8
288.113 752.562 1673.4
288.071 752.575 1673.29
287.961 752.622 1672.89
287.594 752.881 1671.86
280.531 752.948 1669.97
280.829 752.927 1670.06
281.087 752.871 1670.09
281.282 752.769 1670.09
281.57 752.698 1670.12
279.776 753.298 1669.92
279.976 753.189 1669.93
280.255 753.129 1670
280.529 753.078 1670.04
282.058 752.687 1670.21
281.949 752.52 1670.17
279.628 753.39 1669.79
279.469 753.519 1669.57
246.105 778.482 1722.62
246.73 777.742 1722.83
245.975 778.434 1722.49
247.053 777.105 1722.83
245.64 775.089 1721.24
246.126 776.011 1721.91
247.741 776.261 1722.84
244.635 774.004 1720.18
244.622 773.702 1719.93
245.041 773.472 1719.94
246.33 773.488 1720.27
247.885 773.117 1720.17
248.067 772.585 1719.54
248.549 771.818 1718.71
248.77 772.041 1719.34
247.679 772.246 1718.81
246.324 772.415 1718.77
245.139 772.796 1719.14
244.756 772.769 1718.89
244.187 772.815 1718.38
244.319 772.861 1718.67
242.893 773.028 1716.43
239.244 774.451 1714.11
235.613 775.973 1711.99
235.192 776.014 1711.36
235.359 775.864 1710.88
235.969 775.493 1709.43
236.723 774.922 1707.37
237.747 774.026 1706.81
238.062 772.834 1703.1
239.464 771.075 1699.34
245.256 770.637 1709.05
245.01 770.356 1707.47
245.466 770.016 1708.24
240.607 770.678 1699.65
241.035 769.877 1697.96
239.551 770.241 1696.77
241.385 769.089 1695.1
242.569 768.218 1695.35
243.515 767.454 1693.97
243.11 767.775 1694.84
245.446 766.647 1694.18
247.733 765.678 1693.99
248.732 764.787 1691.55
249.754 764.97 1692.75
250.72 763.96 1690.25
247.947 764.915 1691.02
252.661 764.971 1692.37
255.152 765.149 1692.57
255.868 765.144 1692.57
256.056 765.834 1699.15
255.6 765.349 1697.05
255.546 765.35 1696.83
256.541 766.131 1700.81
256.68 766.092 1701.17
255.558 765.28 1696.23
255.57 765.246 1696.54
255.544 765.297 1695.88
255.402 765.338 1695.66
255.683 765.311 1694.43
256.258 765.185 1693.32
256.26 765.143 1692.74
256.403 765.141 1693
256.859 766.133 1702.59
257.194 765.802 1703.53
257.628 764.922 1702.95
257.471 765.147 1702.98
257.739 764.227 1702.04
257.338 763.499 1699.73
257.226 763.606 1699.73
257.837 763.137 1699.65
257.406 763.362 1699.51
257.288 762.93 1698.16
257.484 762.799 1698.03
257.797 762.644 1697.47
258.872 762.485 1696.46
259.824 762.316 1695.22
257.544 762.716 1697.65
260.13 762.231 1694.88
260.222 762.116 1694.51
260.482 762.032 1694.43
261.105 762.045 1694.56
263.325 762.284 1694.91
268.04 759.163 1701.44
267.99 759.182 1701.34
268.065 759.259 1701.52
268.12 761.37 1700.17
268.025 761.561 1699.85
268.078 761.443 1699.77
268.921 761.154 1701.97
268.553 760.998 1701.54
268.448 760.955 1701.26
268.378 761.011 1700.86
268.273 761.13 1700.44
268.153 761.138 1700.13
268.137 761.253 1700.07
269.139 760.226 1702.52
269.153 760.798 1702.41
268.59 759.719 1702.15
268.292 759.535 1701.87
268.172 759.402 1701.73
268.068 759.347 1701.57
267.923 759.141 1701.05
267.947 759.17 1701.2
267.873 759.101 1700.39
267.892 759.091 1699.8
267.872 759.335 1699.15
267.824 759.43 1698.75
267.876 759.162 1700.77
267.926 759.433 1698.38
268.032 759.565 1697.97
268.263 759.777 1697.49
268.631 760.43 1696.65
268.558 761.114 1696.53
268.404 761.279 1696.8
268.098 761.772 1698.05
268.135 761.526 1698.96
268.272 761.385 1697.17
268.234 761.562 1697.39
268.134 761.701 1697.76
267.618 762.061 1693.56
263.82 762.102 1694.31
273.747 759.973 1689.9
268.835 761.485 1692.54
271.854 760.351 1690.59
268.979 760.135 1690.73
270.339 758.37 1688.67
270.007 757.063 1687.44
269.482 758.1 1688.36
269.642 758.469 1688.8
270.315 756.155 1686.63
270.18 755.911 1686.23
270.824 754.645 1683.1
270.164 755.669 1685.73
269.96 755.4 1684.94
269.905 755.109 1684.14
271.439 754.092 1681.53
271.993 753.291 1679.86
273.003 752.549 1678.63
272.917 752.586 1679.03
273.228 752.454 1678.49
270.472 754.522 1682.28
270.058 754.571 1681.78
273.496 752.401 1678.03
273.705 752.476 1677.22
274.318 752.749 1675.88
276.596 753.377 1673.04
278.445 753.745 1670.91
278.916 753.659 1670.56
281.293 753.353 1671.09
284.386 753.269 1671.18
280.357 753.463 1670.67
279.425 753.511 1670.32
279.673 753.451 1670.4
279.12 753.64 1670.26
288.08 752.726 1673.09
288.112 752.677 1673.26
288.094 752.631 1673.3
288.078 752.683 1673.17
287.779 753.014 1671.77
287.99 752.69 1672.92
287.72 752.916 1671.88
287.606 752.891 1671.85
280.861 753.059 1670.14
281.298 752.994 1670.22
281.578 752.906 1670.23
282.02 752.829 1670.26
279.88 753.312 1670.04
279.652 753.408 1669.95
280.072 753.218 1670.05
280.356 753.228 1670.18
280.663 753.162 1670.19
279.453 753.518 1669.8
278.971 753.871 1669.54
279.123 753.714 1669.69
245.856 778.312 1722.35
246.313 777.82 1722.6
245.606 776.438 1721.84
246.636 777.355 1722.71
244.252 774.37 1720.19
244.133 775.004 1720.47
244.281 773.882 1719.84
244.283 773.531 1719.54
244.796 773.304 1719.64
245.255 773.171 1719.7
246.575 773.018 1719.8
247.735 772.705 1719.62
246.493 772.69 1719.31
245.293 772.955 1719.45
244.867 772.986 1719.29
244.474 772.978 1719
243.099 773.254 1717.64
244.073 773.011 1718.64
243.275 773.075 1717.42
240.392 774.154 1715.53
240.924 773.743 1715.3
237.866 775.241 1714.14
235.369 776.183 1712.27
233.91 776.608 1710.71
234.347 776.288 1710.33
234.008 776.487 1710.46
234.936 775.879 1708.46
236.081 775.115 1706
235.994 775.015 1705.35
236.431 774.76 1705.3
236.895 774.516 1706.17
237.253 774.009 1704.95
236.739 773.878 1703.53
237.888 771.757 1699.09
238.372 771.22 1698.09
237.568 771.157 1695.35
239.542 770.05 1694.91
241.112 769.102 1693.6
242.214 768.409 1694.37
242.131 768.327 1693.31
243.056 767.704 1694.01
241.607 768.207 1691.72
243.057 767.161 1690.58
244.303 766.714 1691.18
250.751 763.631 1688.87
250.723 764.213 1690.93
252.9 762.84 1688.19
254.735 762.407 1688.26
246.641 765.222 1689.61
249.422 763.861 1687.94
246.616 764.793 1687.24
251.52 764.121 1690.86
253.192 764.77 1691.87
255.411 764.936 1692.01
256.268 765.154 1692.42
256.263 765.021 1692.31
256.167 765.828 1699.37
255.659 765.276 1697.07
255.611 765.242 1696.74
256.689 765.986 1700.88
256.78 766.004 1701.21
255.666 765.253 1695.87
255.627 765.23 1696.22
255.659 765.174 1696.34
255.572 765.285 1695.48
255.962 765.216 1694.47
256.537 765.11 1693.44
256.7 765.06 1693.07
256.582 765.035 1692.65
256.967 765.925 1702.4
257.343 765.26 1702.73
257.611 764.725 1702.51
257.599 764.286 1701.88
257.267 764.208 1700.9
257.503 764.825 1702.37
257.16 763.757 1699.89
256.997 763.096 1698.14
256.935 763.133 1698.01
256.864 763.308 1698.25
257.072 763.005 1697.99
257.264 762.855 1697.82
257.359 762.761 1697.59
257.64 762.675 1697.14
258.547 762.531 1696.31
259.553 762.352 1695.19
259.666 762.269 1694.73
257.39 762.731 1697.28
259.814 762.186 1694.52
260.228 761.469 1693.25
259.885 762.044 1694.17
260.738 761.444 1693.31
262.411 761.134 1692.73
268 759.215 1701.39
267.945 759.243 1701.28
267.898 759.226 1701.13
267.998 759.288 1701.42
268.13 761.293 1699.61
268.163 761.387 1699.06
268.655 760.914 1701.68
268.911 760.961 1702.02
268.509 760.891 1701.43
268.412 760.843 1701.16
268.334 760.856 1700.87
268.266 760.95 1700.53
268.175 761.037 1700.16
268.109 760.977 1699.7
268.124 761.13 1699.57
268.826 760.346 1702.18
268.483 759.754 1702.03
268.183 759.563 1701.74
268.096 759.462 1701.62
268.02 759.399 1701.48
267.876 759.198 1700.97
267.862 759.193 1700.28
267.847 759.252 1699.54
267.766 759.487 1699.01
267.812 759.495 1698.61
267.848 759.217 1700.69
267.923 759.557 1698.26
268.005 759.711 1697.89
268.111 759.844 1697.63
268.466 760.494 1696.86
268.311 760.522 1697.1
268.337 761.121 1696.99
268.146 761.653 1698.28
268.215 761.211 1697.34
268.167 761.469 1697.58
268.136 761.609 1697.94
264.458 761.6 1693.24
266.508 761.169 1692.34
268.076 759.286 1689.81
269.777 757.013 1687.35
269.287 757.918 1688.12
268.956 758.412 1688.67
270.052 756.174 1686.57
269.986 755.949 1686.16
269.938 755.735 1685.74
269.711 755.596 1685.15
269.523 755.28 1684.2
269.535 754.986 1683.24
271.787 753.354 1679.61
269.757 754.63 1681.1
271.727 753.365 1679.3
272.664 752.712 1678.4
272.983 752.585 1678.07
269.046 755.078 1682.54
273.298 752.543 1677.54
273.648 752.854 1676.2
275.725 753.578 1673.03
277.884 753.958 1670.79
278.586 753.862 1670.35
278.867 753.809 1669.99
281.455 753.335 1670.89
280.777 753.4 1670.72
284.227 753.278 1671.02
280.174 753.389 1670.42
279.524 753.479 1670.07
279.183 753.656 1669.95
279.788 753.388 1670.14
287.81 752.99 1671.82
287.809 752.959 1671.89
287.754 752.922 1671.91
287.792 752.929 1671.95
287.677 752.918 1671.83
281.069 753.173 1670.3
281.293 753.09 1670.29
281.926 753.042 1670.39
281.883 752.939 1670.33
280.076 753.308 1670.19
280.509 753.322 1670.38
280.739 753.25 1670.35
278.673 753.993 1669.8
278.38 754.315 1669.41
276.582 755.515 1669.15
245.66 778.227 1722.19
245.768 777.918 1722.23
245.182 776.697 1721.7
243.656 775.532 1720.43
243.655 774.881 1720.07
243.695 774.332 1719.73
243.892 773.823 1719.46
243.98 773.338 1719.01
244.428 773.217 1719.29
242.828 773.489 1717.73
239.443 774.746 1715.54
244.215 773.169 1719.04
242.703 773.697 1717.91
237.027 775.736 1714.09
235.198 776.351 1712.47
234.417 776.498 1711.67
233.789 776.756 1710.89
233.231 776.978 1710.11
232.775 776.83 1708.94
232.539 777.055 1709.28
233.129 776.587 1708.59
234.621 775.56 1705.96
235.831 775.184 1705.79
234.448 774.983 1702.99
235.79 774.467 1703.36
236.196 773.495 1700.69
235.872 773.943 1701.99
236.969 772.768 1699.98
236.995 771.884 1696.56
236.223 772.129 1694.93
238.599 770.247 1692.86
241.387 768.576 1692.37
241.32 768.191 1690.03
242.698 767.243 1689.78
239.472 769.417 1690.28
243.492 766.655 1688.84
244.861 765.97 1688.94
251.549 763.023 1686.6
254.26 762.923 1689.19
252.792 762.481 1686.82
253.608 762.53 1687.91
254.839 761.048 1685.34
254.766 760.801 1684.7
255.675 760.377 1684.34
256.67 760.63 1685.08
256.051 762.47 1688.94
255.757 762.716 1689.24
257.535 761.392 1687.05
257.791 760.876 1685.85
243.262 766.08 1685.25
248.581 763.914 1684.96
243.68 765.76 1684.17
253.319 763.492 1690.01
253.717 764.461 1691.32
255.953 764.878 1691.89
255.543 764.706 1691.6
256.371 764.877 1691.96
256.601 764.92 1692.27
256.575 764.851 1692.04
256.277 765.804 1699.6
255.764 765.341 1697.42
255.707 765.148 1697
255.662 765.15 1696.75
255.687 765.13 1696.51
256.774 765.87 1700.89
256.929 765.784 1701.23
255.763 765.207 1695.55
255.714 765.192 1695.98
255.755 765.123 1696.11
256.254 765.096 1694.54
256.727 765.02 1693.6
256.833 764.996 1693.37
256.949 764.957 1692.98
256.84 764.971 1692.76
256.985 764.945 1693.18
256.86 764.889 1692.48
257.129 765.551 1701.99
257.398 764.917 1702.09
257.036 763.847 1699.73
257.101 764.241 1700.52
256.619 763.829 1698.64
256.938 763.056 1697.76
256.834 763.14 1697.63
256.78 763.253 1697.83
256.67 763.538 1698.25
257.049 762.952 1697.66
257.195 762.817 1697.42
257.268 762.774 1697.19
257.457 762.722 1696.9
258.243 762.608 1696.18
259.247 762.405 1695.27
259.492 762.334 1694.75
259.614 762.193 1694.32
259.464 762.293 1694.41
259.84 761.585 1693.21
260.01 761.082 1692.31
260.608 760.838 1691.94
260.85 760.891 1692.21
259.538 762.094 1693.98
262.686 760.577 1691.55
265.561 760.383 1691.25
265.481 759.94 1690.34
266.585 759.684 1690.22
267.933 759.292 1701.28
267.871 759.302 1701.08
267.837 759.266 1700.88
267.969 759.39 1701.34
268.158 761.364 1698.7
268.567 760.356 1701.84
268.388 760.306 1701.59
268.28 760.286 1701.37
268.146 760.189 1701.13
268.106 760.236 1700.86
268.186 760.818 1700.38
268.101 760.838 1699.77
268.084 760.953 1699.05
268.124 761.172 1698.8
268.352 759.775 1701.88
268.078 759.536 1701.56
268.173 759.68 1701.67
267.845 759.374 1700
267.784 759.368 1699.51
267.763 759.538 1699.05
267.756 759.615 1698.65
267.853 759.595 1698.4
267.834 759.291 1700.55
267.908 759.717 1698.14
268.004 759.914 1697.76
268.19 760.539 1697.33
268.142 761.329 1697.68
268.102 760.576 1697.55
268.07 760.655 1697.73
268.138 761.454 1698.01
269.586 756.98 1687.22
269.228 757.762 1687.91
268.873 758.183 1688.31
268.633 758.494 1688.68
269.827 756.193 1686.43
269.755 755.977 1686.02
269.518 755.911 1685.58
269.352 755.469 1684.43
269.06 755.273 1683.31
268.927 755.049 1680.25
270.523 754.235 1680.18
267.893 755.635 1681.05
271.662 753.418 1678.93
270.632 754.18 1679.46
272.614 752.814 1677.91
272.98 752.834 1677.07
268.665 755.266 1682.32
273.664 753.521 1674.57
273.126 753.376 1675.53
275.834 754 1672.1
277.992 754.186 1670.15
284.268 753.271 1670.89
281.687 753.295 1670.66
280.94 753.327 1670.68
281.74 753.216 1670.51
281.842 753.134 1670.45
281.126 753.25 1670.53
275.096 754.308 1672.1
277.326 754.425 1670.3
274.343 755.114 1671.55
272.628 756.819 1670.77
274.607 756.886 1668.63
245.45 777.673 1721.96
244.29 778.738 1720.96
244.833 776.825 1721.51
242.085 776.439 1719.5
242.166 776.118 1719.43
242.714 775.508 1719.59
242.605 775.106 1719.23
242.51 774.75 1718.87
243.553 773.726 1719.02
242.598 773.966 1718.12
239.071 775.077 1715.71
237.799 775.551 1715.07
239.566 775.093 1716.26
236.907 775.905 1714.27
235.058 776.501 1712.61
234.338 776.588 1711.76
233.697 776.923 1711.08
233.228 777.083 1710.3
232.379 777.276 1709.55
231.504 777.44 1708.49
231.962 777.038 1708.16
232.993 776.066 1705.5
231.361 777.619 1708.68
233.538 775.759 1705.09
232.517 775.422 1701.18
234.565 773.859 1698.67
233.251 774.515 1699.31
235.548 773.829 1700.32
235.68 774.026 1701.86
236.113 772.931 1697.4
235.416 772.339 1693.99
234.143 772.313 1691.71
237.464 770.15 1689.28
240.828 768.458 1688.91
242.416 767.234 1688.16
239.546 768.973 1688.09
243.533 766.501 1688.43
243.842 766.126 1687.67
253.119 762.056 1685.84
251.843 762.738 1685.66
255.102 763.08 1689.65
254.713 760.637 1684.17
255.655 759.832 1683.09
255.367 759.869 1682.93
256.061 759.781 1683.17
258.516 760.167 1684.44
257.416 759.91 1683.64
256.565 762.442 1689.21
256.269 762.656 1689.44
255.749 763.03 1689.75
256.206 762.938 1689.79
257.964 761.24 1687.03
258.729 760.233 1684.82
243.297 766.346 1686.93
242.037 766.755 1685.32
241.719 766.66 1684.22
245.393 765.026 1683.42
249.523 763.552 1683.33
251.299 762.974 1684.65
242.27 766.33 1683.59
254.672 764.067 1690.79
256.229 764.794 1691.75
255.853 764.597 1691.43
256.51 764.753 1691.81
256.825 764.81 1692.17
256.736 764.745 1691.93
256.286 765.699 1699.44
255.864 765.252 1697.51
255.811 764.96 1696.71
255.817 765.009 1697.03
255.749 765.044 1696.56
255.775 765.069 1696.27
256.834 765.734 1700.77
256.978 765.61 1700.97
256.43 764.973 1694.61
255.894 765.094 1695.52
255.797 765.141 1695.79
255.852 765.064 1695.9
256.961 764.896 1693.69
257.009 764.907 1693.45
257.005 764.851 1692.67
257.1 764.866 1692.96
257.112 764.869 1693.19
256.961 764.779 1692.38
257.164 765.411 1701.72
257.201 765.24 1701.54
256.928 764.285 1700.12
257.291 764.547 1701.34
256.482 763.992 1698.58
256.583 763.658 1698.17
256.874 763.071 1697.44
256.996 762.969 1697.43
256.77 763.161 1697.38
256.666 763.301 1697.44
256.6 763.441 1697.75
257.108 762.878 1697.4
257.191 762.83 1697.15
257.305 762.788 1696.91
258.019 762.711 1696.08
258.839 762.585 1695.28
259.219 762.446 1694.91
259.272 762.42 1694.59
259.24 762.373 1694.32
259.288 762.269 1694.08
259.586 761.656 1693.15
259.615 761.221 1692.25
259.802 761.002 1691.83
260.05 760.919 1691.82
261.327 760.413 1690.3
262.752 760.265 1690.38
259.298 761.809 1693.16
264.536 759.5 1688.48
267.252 759.102 1689.22
267.66 758.999 1689.28
267.909 759.446 1701.11
267.854 759.413 1700.88
267.831 759.385 1700.58
268.012 759.545 1701.33
268.094 759.666 1701.5
268.042 759.729 1701.24
268.045 760.25 1700.46
267.942 759.643 1701.04
267.866 759.639 1700.72
267.96 760.271 1699.94
267.932 760.455 1699.13
267.969 760.606 1698.64
268.126 761.298 1698.14
267.814 759.526 1699.82
267.74 759.539 1699.17
267.745 759.744 1698.64
267.835 759.751 1698.36
267.937 759.977 1697.99
268.049 760.731 1697.96
267.886 760.035 1698.3
269.134 757.699 1687.74
269.4 756.989 1687.09
268.783 758.084 1688.13
268.462 758.451 1688.48
269.597 756.264 1686.35
269.46 756.205 1686.08
268.567 756.04 1684.33
268.213 756.024 1683.7
267.81 756.061 1682.99
264.588 757.367 1679.89
264.668 757.326 1679.52
268.492 755.333 1679.6
267.643 755.974 1682.02
266.762 756.579 1681.69
264.311 757.649 1680.82
271.701 753.456 1678.53
270.625 754.248 1678.95
272.648 752.992 1677.24
273.143 754.138 1673.91
272.672 753.646 1675.61
272.832 754.046 1674.47
284.396 753.25 1670.7
273.194 755.413 1672.15
272.442 755.56 1672.74
271.013 757.229 1672.38
270.217 758.441 1670.37
243.911 777.014 1720.87
243.833 778.698 1720.56
244.146 776.69 1721.05
241.803 776.826 1719.39
243.165 776.505 1720.34
238.946 777.291 1717.29
238.545 776.875 1716.78
239.846 776.54 1717.71
240.003 776.11 1717.58
239.711 775.721 1717.02
242.488 774.408 1718.5
239.07 775.548 1716.3
241.657 774.587 1717.66
237.683 775.745 1715.24
237.695 775.697 1715.2
236.582 776.133 1714.13
234.933 776.654 1712.73
234.269 776.677 1711.86
234.322 776.712 1712.03
234.465 776.579 1711.97
233.645 777.072 1711.27
233.149 777.254 1710.5
232.094 777.582 1709.68
230.752 778.075 1708.72
230.857 777.859 1708.32
231.352 777.433 1708.07
232.523 776.408 1706
232.744 775.764 1703.07
231.531 776.529 1702.24
229.069 777.192 1700.82
230.978 776.805 1702.08
229.544 776.434 1699.14
231.224 775.803 1699.53
232.333 774.938 1698.27
234.896 773.1 1695.8
233.687 773.705 1696.35
232.401 774.229 1694.91
232.79 773.169 1692.32
232.611 772.799 1690.95
233.283 772.144 1688.94
236.807 770.14 1687.66
238.845 769.13 1687.29
240.617 768.566 1688.73
241.143 767.76 1687.08
240.516 767.746 1685.84
253.294 761.866 1685.28
254.55 760.667 1683.95
252.7 762.232 1685
252.154 762.606 1684.55
255.509 763.833 1690.56
255.153 759.926 1682.76
255.74 759.673 1682.6
256.138 759.602 1682.63
255.566 759.69 1682.42
258.216 759.525 1682.66
259.652 759.713 1683.44
256.917 762.287 1689.15
256.654 762.568 1689.58
256.536 762.718 1689.69
255.983 763.741 1690.54
256.495 762.953 1689.98
256.275 763.701 1690.59
257.992 761.474 1687.79
257.371 761.984 1688.86
259.464 760.428 1686.56
259.01 760.18 1685.04
260.107 759.833 1685.68
259.387 759.953 1684.49
241.247 766.892 1684.23
240.526 767.644 1685.47
241.772 766.555 1683.67
245.748 764.925 1682.87
249.857 763.553 1682.53
251.938 762.841 1683.34
242.458 766.284 1683.22
256.074 764.56 1691.42
256.331 764.555 1691.47
256.61 764.612 1691.66
256.877 764.688 1691.96
256.949 764.731 1692.16
256.794 764.555 1691.68
256.423 765.654 1699.68
256.039 765.443 1698.35
255.953 765.083 1697.47
255.965 764.776 1696.83
255.838 764.961 1696.45
256.021 764.701 1696.64
255.927 764.847 1696.53
256.013 764.779 1697.08
255.878 764.99 1696.11
256.471 765.552 1699.66
257.003 765.433 1700.79
256.515 765.448 1699.67
256.609 764.8 1694.69
257.084 764.762 1693.9
255.968 764.984 1695.64
255.984 764.904 1695.9
257.134 764.802 1693.66
257.124 764.832 1693.42
257.121 764.774 1692.7
257.108 764.697 1692.47
257.187 764.748 1692.81
257.231 764.749 1693.04
257.189 764.802 1693.17
257.046 764.675 1692.23
257.204 765.095 1701.35
256.67 764.428 1699.6
256.371 764.282 1698.75
257.103 764.894 1700.85
256.329 764.235 1698.47
256.429 763.941 1698.21
256.504 763.694 1697.8
256.953 762.998 1697.21
256.83 763.095 1697.24
257.105 762.886 1697.2
256.72 763.213 1697.25
256.535 763.506 1697.42
256.539 763.511 1697.19
256.625 763.353 1697.21
257.227 762.845 1696.91
257.351 762.816 1696.73
257.856 762.822 1695.97
258.491 762.809 1695.11
258.3 762.863 1695.22
258.889 762.628 1694.86
258.967 762.588 1694.64
259 762.541 1694.42
258.997 762.504 1694.19
259.044 762.392 1693.98
259.152 761.351 1691.98
259.529 761.076 1691.57
259.977 760.754 1690.07
260.631 760.535 1690.18
259.879 760.91 1691.53
262.82 759.161 1686.83
259.071 761.94 1693.15
258.959 761.518 1692.16
264.87 758.908 1686.96
265.433 758.029 1685.22
266.744 759.096 1688.41
266.784 758.715 1686.98
268.061 758.634 1688.56
267.881 759.56 1700.88
267.838 759.502 1700.6
267.805 759.615 1699.89
267.795 759.704 1699.99
267.78 759.804 1699.2
268.037 760.78 1698.18
267.823 760.043 1698.68
267.759 759.668 1699.14
267.775 759.885 1698.62
268.805 757.958 1687.9
268.986 757.676 1687.53
269.241 756.98 1686.92
268.487 758.283 1688.17
269.123 756.962 1686.71
268.93 756.161 1685.1
267.932 756.603 1684.37
267.463 756.79 1684.15
267.215 756.809 1683.87
266.919 756.819 1683.42
262.983 758.207 1679.94
262.508 758.371 1679.43
262.383 758.434 1679.83
264.707 757.338 1679.2
268.458 755.477 1678.9
266.341 756.905 1682.11
265.393 757.269 1681.76
263.301 758.445 1682.86
263.113 758.355 1680.89
271.729 753.591 1678.06
270.721 754.365 1678.28
272.578 754.393 1674.2
271.811 754.062 1676.68
271.38 755.256 1674.87
270.692 756.569 1674.02
271.459 755.951 1673.59
269.417 757.695 1673.85
270.637 757.558 1672.22
269.486 756.327 1676.08
269.739 758.081 1672.11
265.873 759.785 1672.83
268.116 758.333 1673.58
243.465 778.234 1720.33
241.408 777.674 1719.18
241.498 777.288 1719.22
242.424 779.956 1719.32
239.706 777.71 1718.01
238.899 777.638 1717.3
236.877 777.352 1715.14
236.859 777.084 1715.1
236.663 776.888 1714.81
237.96 776.421 1716.01
237.816 776.099 1715.7
237.681 775.904 1715.4
236.77 776.168 1714.47
234.962 776.779 1712.88
234.242 776.859 1712.15
233.631 777.172 1711.42
234.183 776.81 1711.97
232.975 777.496 1710.61
231.909 777.862 1709.86
230.365 778.474 1708.89
230.355 778.283 1708.42
230.093 778.567 1708.56
230.046 778.457 1707.74
230.33 778.183 1707.6
232.101 776.738 1706.38
232.052 776.639 1704.17
232.03 776.352 1702.99
230.92 777.364 1703.49
231.257 777.212 1703.72
229.694 777.576 1702.64
227.894 777.638 1700.34
228.301 778.265 1703.04
229.051 778.46 1705.03
229.75 777.972 1704.05
230.687 777.393 1703.16
227.93 776.974 1698.17
229.804 775.776 1696.41
230.243 775.884 1697.7
231.194 775.694 1698.51
231.46 775.067 1696.01
231.686 774.421 1694.13
231.113 774.99 1695
232.423 773.371 1692.21
232.415 772.826 1690.07
232.144 773.02 1690.21
231.755 772.995 1688.82
231.309 773.002 1687.87
233.11 772.013 1687.66
236.72 770.172 1687.17
238.59 769.271 1687.07
239.186 768.863 1686.89
253.747 761.467 1684.58
254.494 760.649 1683.7
254.992 759.973 1682.54
252.911 762.137 1684.32
253.445 761.707 1684.48
252.522 762.485 1683.86
255.24 759.816 1682.36
256.186 759.505 1682.13
258.384 759.291 1681.86
255.714 759.598 1682.07
261.053 759.105 1681.88
257.261 762.167 1689.33
257.01 762.373 1689.58
257.014 762.506 1689.87
256.784 762.688 1689.87
256.782 762.866 1690.09
256.545 763.693 1690.69
256.607 764.407 1691.36
258.567 761.278 1688.31
260.506 760.326 1688.1
261.465 759.729 1687.41
260.378 759.642 1685.24
263.613 758.443 1685.05
260.746 759.462 1683.58
240.476 767.622 1685.16
241.097 766.993 1684.17
241.364 766.795 1683.76
239.136 768.851 1686.56
241.747 766.611 1683.35
245.538 765.14 1682.37
249.823 763.728 1681.8
252.106 763.06 1681.84
252.514 762.786 1682.4
242.275 766.447 1683
256.931 764.512 1691.74
257.06 764.583 1692.03
256.81 764.348 1691.43
256.092 765.301 1698.31
256.06 764.946 1697.6
256.256 764.151 1697.17
256.284 764.091 1696.93
255.958 764.863 1696.27
256.043 764.707 1696.44
256.311 764.063 1696.71
256.23 764.325 1697.54
256.556 765.317 1699.69
256.18 765.221 1698.7
256.723 764.654 1694.77
257.219 764.611 1693.94
257.251 764.693 1693.67
256.105 764.813 1695.61
256.127 764.732 1695.82
256.065 764.754 1696.12
257.216 764.759 1693.39
257.218 764.634 1692.54
257.189 764.577 1692.3
257.301 764.644 1692.88
257.276 764.614 1692.66
257.311 764.677 1693.31
257.353 764.62 1693.12
256.671 764.896 1699.81
256.255 764.781 1698.83
256.192 764.788 1698.54
256.174 764.605 1698.07
256.939 763.044 1696.99
257.12 762.908 1697
256.763 763.164 1697.08
256.651 763.318 1697.03
256.555 763.493 1696.98
257.25 762.882 1696.71
257.125 762.945 1696.81
257.681 762.966 1695.87
258.235 762.973 1695.06
258.364 762.943 1694.9
258.549 762.82 1694.82
258.736 762.721 1694.56
258.75 762.704 1694.31
258.76 762.662 1694.12
258.821 762.55 1693.96
258.859 762.426 1693.76
258.886 761.415 1691.66
259.099 761.291 1691.58
259.353 761.051 1690.21
259.349 761.148 1691.45
265.575 757.683 1684.42
258.76 762.108 1693.07
258.781 761.722 1692.38
258.645 761.657 1691.99
266.139 758.331 1686.03
265.93 757.682 1684.7
266.492 757.582 1684.9
267.427 758.782 1687.98
267.169 758.628 1686.99
267.247 758.341 1686.42
268.227 758.463 1688.26
267.838 758.507 1687.65
268.426 758.224 1687.96
268.661 757.977 1687.7
268.788 757.734 1687.39
268.524 757.712 1686.75
268.788 757.047 1686.17
268.314 757.028 1685.33
268.11 757.162 1685.26
267.859 757.312 1685.24
267.35 757.087 1684.54
267.056 757.035 1684.21
266.724 757.056 1683.89
266.165 757.25 1683.69
262.671 758.56 1681.08
262.235 758.508 1679.1
260.748 758.943 1679.51
261.131 758.803 1679.85
262.106 758.734 1681.1
261.378 758.768 1680.28
264.672 757.443 1678.82
265.618 757.144 1678.48
268.9 755.482 1678.18
264.343 758.023 1683.97
261.803 759.082 1684.03
270.804 754.813 1677.07
268.208 756.958 1676.42
269.065 757.705 1674.2
265.822 758.078 1676.43
262.936 759.504 1676.33
262.023 761.381 1674.63
262.264 761.713 1673.77
264.029 760.825 1672.92
264.277 761.013 1671.63
242.17 780.023 1719.14
242.233 779.601 1719.28
241.929 778.314 1719.4
240.255 778.169 1718.45
239.675 778.008 1718
240.073 777.884 1718.32
238.932 777.886 1717.35
236.924 777.56 1715.22
234.345 777.782 1712.62
234.276 778.066 1712.56
235.459 777.582 1713.61
234.254 777.674 1712.52
236.676 776.699 1714.76
234.743 777.15 1712.9
234.749 777.257 1712.95
236.727 776.488 1714.7
236.741 776.313 1714.57
234.866 776.909 1712.89
234.211 777.002 1712.27
233.619 777.291 1711.55
232.972 777.636 1710.78
232.716 777.668 1710.49
231.644 778.175 1709.95
230.388 778.6 1709.07
230.113 778.729 1708.82
229.853 778.662 1707.89
229.943 778.762 1708.62
229.718 778.845 1708.04
229.332 778.888 1706.95
229.618 778.651 1706.87
231.304 777.38 1706.36
229.816 778.444 1706.64
230.823 777.73 1705.71
