224.194 852.709 2726.43
224.363 851.851 2725.78
223.951 852.689 2726.01
224.188 851.926 2725.5
224.252 851.653 2725.24
224.572 852.935 2727.15
224.291 851.535 2724.97
224.353 849.99 2723.24
224.465 850.858 2723.51
224.475 851.051 2723.59
224.469 851.212 2723.67
224.426 849.962 2723.06
224.498 849.149 2722.48
224.364 851.37 2723.9
224.328 851.486 2724.17
224.415 851.334 2723.69
225.181 858.569 2738.55
225.001 858.481 2736.16
225.177 858.406 2735.48
225.21 858.405 2735.27
225.368 858.166 2734.54
225.222 858.423 2735.01
225.239 858.451 2734.78
225.357 858.375 2734.48
225.5 858.206 2734.25
226.522 856.171 2733.22
225.844 858.431 2733.33
226.285 857.303 2733.14
226.092 858.699 2732.84
225.563 858.265 2733.85
226.769 855.59 2733.3
226.626 855.981 2733.15
226.709 855.781 2733.17
228.656 853.64 2733.21
228.797 853.493 2733.19
228.899 853.379 2733.13
227.047 855.278 2733.12
227.204 854.974 2733.2
227.99 854.271 2733.2
226.916 855.529 2733.05
226.828 855.601 2733.16
229.187 852.959 2732.98
229.164 852.885 2733.08
229.185 852.724 2733.12
229.012 853.238 2733.06
229.157 853.072 2732.95
229.105 852.457 2733.26
229.189 852.53 2733.11
226.481 850.014 2720.79
225.891 849.307 2720.9
225.3 849.165 2721.48
224.865 849.226 2722.03
224.705 849.15 2722.21
228.902 852.934 2731.98
228.729 852.919 2731.73
228.888 853.086 2732.11
229.04 853.003 2732.3
227.905 853.076 2730.83
229.224 852.842 2732.46
229.106 853.006 2732.44
226.326 853.355 2729.43
225.369 852.509 2727.79
229.228 852.92 2732.63
229.165 852.822 2732.99
229.247 852.816 2732.92
229.234 852.703 2733
224.267 851.62 2724.76
224.296 851.62 2724.51
223.945 853.629 2726.84
223.505 853.472 2726.02
223.772 852.704 2725.65
223.255 853.407 2725.44
224.082 851.946 2725.16
223.653 852.679 2725.28
224.229 851.655 2724.95
224.144 851.787 2724.94
225.591 854.266 2729.35
224.978 854.25 2728.61
224.551 850.853 2723.34
224.553 851.058 2723.43
224.53 851.219 2723.52
224.51 849.921 2722.89
224.65 850.826 2723.17
224.584 849.221 2722.37
224.327 851.565 2723.9
224.355 851.467 2723.71
224.299 851.687 2724.23
224.431 851.38 2723.54
225.026 858.646 2738.46
224.81 858.559 2736.23
225.022 858.496 2735.5
225.045 858.531 2735.18
225.174 858.516 2734.98
225.202 858.56 2734.67
225.281 858.51 2734.45
225.419 858.42 2734.1
226.603 856.242 2733.02
225.755 858.8 2733.21
226.028 859.094 2732.7
226.305 857.565 2732.96
226.147 858.792 2732.65
226.067 859.163 2732.57
225.507 858.441 2733.79
226.688 855.934 2733.04
226.784 855.733 2733.05
228.812 853.509 2733.06
228.902 853.393 2733.05
228.993 853.262 2732.95
227.169 855.065 2733.02
227.011 855.372 2732.97
227.282 854.926 2732.92
228.071 854.225 2732.98
228.796 853.542 2732.91
226.854 855.659 2732.92
229.213 852.957 2732.79
229.13 853.111 2732.85
215.354 861.889 2740.9
215.379 861.525 2740.28
217.881 860.582 2741.45
224.368 854.066 2717.9
226.762 851.134 2721.15
225.853 849.969 2721.4
225.829 850.624 2721.89
226.584 850.832 2721.25
225.062 849.814 2722.14
224.853 849.867 2722.41
224.642 849.87 2722.66
228.673 853.153 2731.85
228.366 853.166 2731.46
228.641 853.302 2731.94
228.884 853.235 2732.27
229.026 853.2 2732.49
229.174 852.989 2732.54
229.067 853.161 2732.57
227.218 853.839 2730.74
226.523 854.801 2730.79
229.153 853.059 2732.7
224.2 851.77 2724.77
224.25 851.791 2724.54
223.712 853.851 2726.61
224.472 854.281 2727.95
223.148 853.686 2725.45
223.29 853.893 2725.88
223.113 853.406 2724.95
222.994 853.678 2724.93
223.519 852.751 2724.89
224.04 851.965 2724.98
223.003 853.476 2724.61
224.048 851.993 2724.82
224.135 851.902 2724.71
226.056 855.274 2730.48
226.459 855.086 2730.91
225.877 855.405 2730.29
224.63 851.014 2723.27
224.61 851.146 2723.36
224.565 851.291 2723.42
224.722 850.656 2723
224.752 850.988 2723.14
224.792 850.834 2723.02
224.297 851.799 2723.9
224.329 851.678 2723.66
224.387 851.547 2723.52
224.222 851.919 2724.22
224.511 851.451 2723.39
224.85 858.715 2738.35
224.621 858.642 2736.3
224.792 858.587 2735.61
224.794 858.665 2735.2
224.979 858.635 2735.03
225.08 858.615 2734.9
225.143 858.633 2734.67
225.289 858.583 2734.21
225.2 858.66 2734.34
225.425 858.594 2733.85
226.666 856.126 2732.91
226.371 857.673 2732.76
225.616 859.091 2733.21
225.842 859.445 2732.68
225.946 859.241 2732.7
225.959 859.36 2732.6
226.133 859.015 2732.43
226.075 859.237 2732.4
225.998 859.4 2732.44
226.754 855.866 2732.93
228.931 853.365 2732.92
229.043 853.2 2732.79
227.07 855.243 2732.83
227.012 855.383 2732.89
226.942 855.521 2732.84
227.37 854.879 2732.77
227.091 855.154 2732.63
228.109 854.188 2732.74
228.8 853.55 2732.75
228.946 853.352 2732.79
226.859 855.724 2732.76
226.794 855.843 2732.82
214.857 863.846 2743.09
214.382 862.649 2740.62
214.783 861.908 2740
215.595 861.188 2739.77
215.094 861.464 2739.6
217.821 860.248 2739.66
216.622 860.452 2738.21
223.43 854.586 2718.92
224.505 853.923 2719.36
226.595 850.934 2721.28
226.808 851.265 2721.14
226.706 851.203 2721.24
226.596 851.042 2721.31
226.517 851.118 2721.4
225.84 850.79 2721.96
225.087 850.622 2722.58
224.88 850.662 2722.82
227.531 854.053 2731.31
228.676 853.402 2732.1
227.669 854.139 2731.58
228.89 853.35 2732.39
228.985 853.295 2732.57
229.09 853.128 2732.65
229.012 853.241 2732.69
226.8 854.934 2731.29
224.148 851.98 2724.48
223.713 854.224 2726.75
225.288 855.25 2729.42
222.946 854.06 2725.17
222.788 854.069 2724.65
223.169 854.165 2725.7
222.779 853.805 2724.33
222.658 854.093 2724.11
223.415 852.861 2724.57
222.77 853.68 2723.82
222.706 853.82 2723.92
224.012 852.118 2724.62
226.414 855.497 2731.09
226.669 855.226 2731.31
226.254 855.805 2730.99
224.728 851.104 2723.19
224.665 851.225 2723.29
224.618 851.358 2723.3
224.874 851.053 2723.03
224.87 850.946 2723
224.917 850.815 2722.87
224.301 851.879 2723.61
224.165 852.047 2723.8
224.394 851.736 2723.47
224.493 851.622 2723.32
224.042 852.171 2724.03
224.057 852.143 2724.25
224.616 851.498 2723.2
224.559 851.524 2723.28
224.582 858.792 2738.17
224.444 858.74 2736.36
224.535 858.692 2735.7
224.607 858.726 2735.3
224.857 858.74 2734.94
224.624 858.788 2735.09
224.923 858.758 2734.77
225.003 858.763 2734.59
225.129 858.795 2734.25
225.303 858.75 2733.93
226.723 856.065 2732.8
226.649 856.508 2732.75
226.304 857.936 2732.71
226.198 858.809 2732.44
225.457 859.309 2733.23
225.654 859.732 2732.72
225.784 859.651 2732.59
225.874 859.598 2732.49
226.074 859.319 2732.22
226.136 859.123 2732.23
225.998 859.479 2732.32
225.86 859.687 2732.39
226.965 855.485 2732.62
226.917 855.604 2732.76
227.435 854.82 2732.58
227.178 855.064 2732.49
227.006 855.308 2732.39
228.042 854.184 2732.47
228.761 853.583 2732.58
228.934 853.386 2732.63
226.861 855.794 2732.6
226.783 855.995 2732.67
214.202 864.537 2743.12
212.575 864.458 2740.13
213.209 863.564 2739.78
213.595 863.005 2739.45
214.716 861.732 2739.46
216.33 860.513 2737.85
215.204 861.302 2739.19
214.78 861.622 2739.18
218.163 859.815 2737.99
217.302 859.765 2736.38
219.959 859.699 2741.07
225.539 853.29 2719.59
223.166 854.756 2719.09
223.502 854.432 2719.63
224.556 853.795 2719.89
225.828 850.941 2722.02
226.781 851.357 2721.2
226.619 851.273 2721.34
226.431 851.201 2721.5
225.773 851.076 2722.11
225.715 851.221 2722.2
225.116 850.854 2722.67
227.008 854.999 2731.67
228.642 853.528 2732.21
227.81 854.15 2731.82
227.112 854.961 2731.85
228.85 853.467 2732.46
226.839 855.234 2731.6
223.942 852.277 2724.38
223.587 854.456 2726.55
225.134 855.549 2729.23
226.239 856.31 2731.1
222.723 854.396 2724.56
222.562 854.369 2723.91
222.925 854.489 2725.14
223.216 854.549 2725.83
222.61 854.031 2723.65
222.51 854.334 2723.46
223.355 852.935 2724.22
222.788 853.637 2723.47
222.605 853.963 2723.35
222.655 853.875 2723.15
226.479 855.842 2731.36
226.623 855.656 2731.52
224.899 851.152 2723.03
224.788 851.211 2723.16
224.763 851.341 2723.17
225.065 850.992 2722.8
225.065 851.107 2722.84
224.263 851.987 2723.5
224.144 852.205 2723.56
223.994 852.327 2723.76
224.382 851.829 2723.34
224.351 851.841 2723.45
224.546 851.667 2723.17
223.92 852.375 2724.03
224.634 851.668 2723.04
224.78 851.519 2723.03
224.198 858.894 2738.07
224.177 858.846 2736.42
224.321 858.79 2735.76
224.437 858.796 2735.32
224.613 858.849 2734.89
224.735 858.883 2734.69
224.393 858.892 2735.05
224.822 858.909 2734.47
224.965 858.932 2734.22
225.189 858.925 2733.92
226.715 856.309 2732.63
226.37 857.883 2732.54
226.18 858.998 2732.22
225.221 859.527 2733.28
225.432 859.926 2732.78
225.616 859.877 2732.6
225.436 860.024 2732.65
225.689 859.881 2732.48
226.128 859.224 2732.04
226.096 859.317 2732.11
226.055 859.471 2732.11
226.002 859.55 2732.23
225.86 859.756 2732.28
225.708 859.943 2732.34
226.926 855.605 2732.4
227.263 854.934 2732.31
227.989 854.178 2732.25
227.049 855.168 2732.23
226.928 855.51 2732.19
226.729 856.242 2732.45
226.8 855.944 2732.37
213.774 865.056 2743.06
212.16 864.958 2740.09
212.94 865.491 2742.04
211.777 864.666 2738.72
210.826 865.18 2738.03
210.986 864.955 2737.94
212.101 864.304 2738.57
213.695 862.782 2739.06
212.507 863.897 2738.39
215.802 860.903 2738.43
216.343 860.418 2736.86
216.631 860.061 2736.05
216.873 859.92 2735.99
214.917 861.487 2738.99
215.595 861.035 2738.28
213.756 862.676 2738.69
214.706 861.672 2738.9
217.915 859.557 2736.43
219.169 859.607 2738.36
217.305 859.725 2735.98
220.561 859.492 2740.77
221.898 859.19 2741.1
225.937 852.96 2719.61
225.853 852.922 2720.02
225.523 853.219 2719.93
222.993 854.871 2719.17
223.207 854.638 2719.74
223.336 854.428 2720.25
224.531 853.619 2720.43
223.543 854.194 2720.44
225.644 852.992 2720.29
226.789 851.452 2721.15
226.599 851.361 2721.35
226.644 851.463 2721.29
226.747 851.426 2721.24
226.377 851.332 2721.54
225.694 851.346 2722.22
225.084 851.223 2722.84
226.954 855.175 2731.84
227.923 854.136 2732.04
227.263 854.841 2732.03
227.085 855.057 2732.04
226.803 855.471 2731.76
223.376 852.963 2723.85
224.857 855.945 2728.76
225.567 857.374 2729.93
226.461 856.204 2731.5
226.087 857.518 2731.06
222.669 854.829 2724.36
222.506 854.712 2723.82
222.375 855.029 2723.13
222.948 854.865 2725.12
224.367 856.037 2727.8
222.491 854.342 2723.2
222.366 855.006 2722.85
222.857 853.558 2723.27
222.704 853.857 2722.93
222.432 855.119 2721.57
222.5 854.808 2721.82
222.569 854.627 2721.87
226.635 855.861 2731.71
224.937 851.274 2723.01
224.924 851.388 2723.01
224.378 852.019 2723.21
224.282 852.174 2723.32
223.992 852.47 2723.47
224.152 852.404 2723.24
223.892 852.511 2723.71
224.5 851.831 2723.13
223.405 853 2723.51
224.706 851.805 2722.93
224.866 851.637 2722.89
225.064 851.455 2722.84
223.765 859.025 2738.56
223.658 858.967 2736.26
224.114 858.882 2735.82
224.247 858.867 2735.38
224.53 858.946 2734.67
224.31 858.981 2734.82
224.655 859.027 2734.43
224.437 859.109 2734.44
224.146 858.968 2735.17
224.783 859.102 2734.18
224.959 859.091 2733.99
226.377 857.943 2732.37
226.168 859.072 2731.97
225.027 859.677 2733.37
225.154 860.102 2732.86
225.217 860.163 2732.73
225.496 860.075 2732.49
225.316 860.199 2732.55
225.566 860.107 2732.34
226.056 859.439 2731.93
225.915 859.744 2732.14
225.955 859.714 2731.99
225.734 859.975 2732.19
225.622 860.118 2732.21
226.807 855.869 2732.2
226.929 855.332 2732
226.82 855.68 2732.01
226.688 856.372 2732.22
226.385 857.928 2732.21
210.825 865.587 2738.41
212.392 866.088 2741.56
212.054 866.907 2741.44
211.2 864.741 2737.87
209.202 864.927 2735.88
209.202 865.095 2736.07
209.278 864.806 2735.79
209.422 864.708 2735.78
211.751 864.37 2737.98
212.771 863.666 2738.14
212.259 863.99 2737.78
212.091 864.119 2737.99
216.081 860.57 2736.58
216.413 860.19 2735.9
216.571 860.084 2735.79
216.81 859.96 2735.68
215.357 861.209 2738.2
214.006 862.443 2738.42
213.163 863.353 2738.1
215.105 861.416 2738.08
217.779 859.562 2735.82
218.464 859.46 2736.3
219.729 859.442 2738.1
217.01 859.855 2735.81
217.236 859.763 2735.68
221.739 859.214 2738.23
226.33 852.435 2720.23
226.262 852.379 2720.7
223.021 854.802 2719.94
222.845 854.998 2719.7
223.429 853.524 2722.09
223.064 854.589 2720.48
224.626 853.171 2721.25
223.647 853.38 2722.07
225.941 852.574 2720.73
226.817 851.605 2720.98
226.759 851.571 2721.11
226.789 851.697 2720.94
226.799 851.78 2720.84
226.676 851.575 2721.22
226.356 851.481 2721.54
226.45 851.6 2721.43
225.662 851.464 2722.24
225.104 851.34 2722.83
222.839 853.675 2722.94
224.872 857.388 2728.46
225.372 858.16 2729.65
224.758 857.921 2728.24
224.165 857.817 2726.52
226.207 857.677 2731.38
226.579 856.257 2731.78
225.924 858.64 2730.98
222.567 855.49 2723.88
222.402 855.522 2723.39
222.317 855.551 2723.02
222.207 856.057 2722
222.237 856.206 2720.56
222.936 855.194 2724.98
223.996 855.904 2727.06
223.907 857.665 2725.88
222.34 855.57 2721.08
222.258 856.006 2720.56
222.666 854.421 2721.9
222.423 855.71 2719.39
222.329 855.993 2719.33
222.516 855.45 2719.78
222.575 855.21 2720.41
226.708 855.936 2731.94
224.464 852.227 2722.96
224.582 852.007 2722.95
224.303 852.42 2722.94
223.983 852.602 2723.2
223.457 853.037 2723.15
224.106 852.649 2722.88
222.918 853.599 2722.86
225.524 851.767 2722.25
225.461 851.916 2722.21
225.591 851.602 2722.27
221.798 859.126 2736.82
221.231 859.195 2736.21
223.358 859.042 2735.71
223.91 858.966 2735.52
224.31 859.094 2734.54
224.114 859.137 2734.67
224.023 859.074 2734.95
224.554 859.208 2734.21
224.252 859.334 2734.22
223.795 859.064 2735.19
224.733 859.28 2733.99
226.178 858.951 2731.83
226.1 859.219 2731.79
224.859 859.782 2733.44
224.958 860.281 2732.86
224.798 860.281 2733.01
225.076 860.297 2732.69
225.4 860.246 2732.36
225.154 860.35 2732.51
225.441 860.305 2732.18
226.013 859.538 2731.77
225.794 860.05 2731.87
225.891 859.81 2731.79
225.743 859.995 2731.86
225.682 860.118 2732.07
225.543 860.253 2732.08
226.671 856.251 2732.02
226.359 857.832 2731.88
226.361 857.94 2732.04
210.767 865.999 2738.64
209.109 865.463 2736.25
208.964 865.194 2735.91
211.393 868.015 2740.53
211.079 866.598 2739.43
209.393 864.598 2735.56
211.054 864.585 2737.31
207.881 864.64 2734.14
207.826 864.543 2733.9
207.584 864.69 2733.88
207.838 864.466 2733.76
211.62 864.304 2737.48
213.173 863.38 2737.78
212.838 863.633 2737.64
212.074 864.046 2737.3
212.562 863.799 2737.17
215.679 861.044 2737.25
215.84 860.777 2736.32
216.085 860.43 2735.8
216.233 860.299 2735.73
216.404 860.187 2735.63
216.586 860.071 2735.52
216.977 859.89 2735.48
216.784 859.978 2735.33
213.513 863.082 2737.85
214.554 862.034 2737.83
215.478 861.254 2737.15
217.59 859.692 2735.45
218.243 859.538 2735.66
217.155 859.821 2735.4
222.65 855.227 2719.66
226.541 852.206 2720.4
226.434 852.238 2720.58
226.201 852.266 2720.91
222.886 854.902 2720.16
222.856 854.818 2720.48
222.714 855.033 2720.38
223.071 853.976 2721.76
222.911 854.123 2721.8
224.966 852.658 2721.83
226.694 851.683 2721.12
226.772 851.902 2720.75
226.714 851.872 2720.89
226.692 851.781 2721.02
226.733 851.72 2721.02
226.482 851.702 2721.36
222.776 854.293 2721.81
225.323 858.518 2729.67
224.614 858.256 2728.03
224.094 858.274 2726.41
223.808 858.187 2725.56
223.28 858.308 2724.17
226.321 857.747 2731.69
226.061 858.887 2731.4
225.917 859.16 2731.16
225.831 858.928 2730.87
222.815 856.735 2723.81
222.686 857.174 2723.23
222.342 856.214 2722.84
222.257 856.218 2722.44
222.216 856.413 2721.81
222.224 856.712 2720.29
222.22 856.486 2720.35
222.254 856.271 2719.25
223.523 856.336 2725.67
223.768 857.443 2725.6
223.14 858.112 2723.86
225.256 852.253 2722.08
225.372 852.074 2722.17
225.146 852.412 2721.97
226.475 851.798 2721.29
220.676 859.279 2735.79
223.197 859.116 2735.4
224.098 859.289 2734.39
223.564 859.373 2734.46
223.502 859.256 2734.76
223.264 859.204 2735
224.462 859.401 2733.99
224.095 859.536 2734.02
223.833 859.467 2734.22
224.629 859.884 2733.48
226.132 858.962 2731.64
226.043 859.312 2731.63
224.925 860.416 2732.74
224.789 860.458 2732.86
224.621 860.397 2733.04
224.984 860.463 2732.61
225.253 860.423 2732.3
225.05 860.491 2732.45
225.368 860.427 2732.04
225.202 860.515 2732.21
225.95 859.572 2731.62
225.635 860.158 2731.93
225.659 860.012 2731.64
225.788 859.764 2731.5
225.546 860.194 2731.77
225.519 860.301 2731.97
209.132 865.735 2736.4
207.671 864.801 2734.17
207.671 864.995 2734.3
211.057 867.811 2739.64
210.703 866.915 2738.84
209.062 865.906 2736.38
209.461 864.513 2735.45
207.822 864.376 2733.55
211.032 864.414 2736.8
207.289 864.681 2733.43
207.3 864.581 2733.3
207.215 864.828 2733.51
207.081 864.771 2733.24
207.434 864.473 2733.25
211.433 864.212 2736.67
214.038 862.95 2736.39
213.469 863.251 2736.97
213.251 863.409 2736.74
212.258 863.894 2736.68
213.46 863.381 2735.33
213.717 863.258 2735.55
215.669 860.989 2736.16
216.051 860.443 2735.51
216.126 860.362 2735.51
216.251 860.277 2735.43
216.436 860.16 2735.37
216.526 860.121 2735.19
216.976 859.903 2735.23
216.726 860.027 2735.12
214.721 862.607 2735.26
214.864 862.36 2735.64
215.299 861.502 2736.88
217.385 859.745 2735.31
217.793 859.629 2735.34
218.35 859.521 2735.46
226.552 852.146 2720.57
226.585 852.048 2720.77
226.36 852.053 2721.07
226.48 851.895 2721.17
226.662 851.845 2721
225.247 858.831 2729.7
224.635 858.497 2728.23
224.248 858.539 2727.17
223.703 858.637 2725.54
223.314 858.776 2724.37
223.208 858.69 2723.91
223.115 858.571 2723.59
226.002 859.275 2731.44
225.874 859.415 2731.32
225.747 859.313 2730.96
222.666 857.569 2722.81
223.04 858.428 2723.35
222.318 856.711 2722.28
222.251 856.768 2721.56
222.244 856.91 2720.31
220.071 859.387 2735.51
222.517 859.251 2735.24
222.694 859.452 2734.6
223.193 859.53 2734.32
222.186 859.395 2734.93
224.424 859.964 2733.51
224.227 860.01 2733.56
224.016 860.044 2733.62
223.728 859.587 2734.11
224.781 860.558 2732.75
224.563 860.573 2732.91
224.412 860.474 2733.11
224.832 860.614 2732.62
224.866 860.648 2732.49
224.961 860.626 2732.37
225.141 860.575 2732.08
225.231 860.515 2731.89
225.033 860.632 2732.24
225.394 860.373 2731.84
225.353 860.221 2731.44
225.561 859.989 2731.39
225.513 859.828 2731.08
225.649 859.618 2731.06
225.189 860.447 2731.61
207.216 874.412 2740.65
207.31 864.882 2733.68
207.534 865.044 2734.1
210.504 869.19 2738.18
210.663 868.479 2738.76
210.574 867.629 2738.65
209.085 866.351 2736.43
208.954 866.084 2736.26
209.364 864.401 2735.11
208.034 864.309 2733.64
207.614 864.352 2733.17
209.521 864.278 2734.92
207.062 864.653 2733.09
207.139 864.553 2733.01
207.029 864.876 2733.22
207.013 864.752 2733.07
207.039 864.641 2732.96
207.314 864.442 2732.98
209.747 864.157 2734.72
211.679 863.997 2736.04
214.288 862.915 2735.65
214.897 862.703 2734
215.034 862.593 2734.03
214.097 863.047 2735.57
213.236 863.426 2734.9
215.181 862.518 2732.27
215.12 862.587 2732.93
214.947 862.682 2733.57
215.542 861.191 2735.88
215.893 860.63 2735.34
216.064 860.408 2735.3
216.129 860.359 2735.18
216.244 860.301 2735.14
216.225 860.374 2734.95
216.453 860.235 2734.96
217.15 859.851 2735.12
216.88 859.982 2735.02
216.578 860.194 2734.86
215.709 862.035 2733.61
215.666 862.124 2733.39
215.022 862.208 2735.55
215.587 862.07 2733.94
215.143 861.976 2735.75
217.527 859.766 2735.08
218.026 859.658 2735.17
225.12 859.177 2729.75
224.423 858.731 2727.95
223.913 858.807 2726.47
223.399 859.091 2725.05
223.191 859.203 2724.32
223.125 859.092 2723.76
223.096 858.991 2723.38
223.036 858.809 2723.06
222.955 858.598 2722.79
222.591 857.657 2722.24
222.311 857.082 2721.51
222.292 857.164 2720.3
219.806 859.497 2735.27
221.513 859.669 2734.59
220.956 859.591 2734.89
223 860.141 2733.75
221.608 860.246 2733.93
219.646 859.601 2735.08
223.641 860.078 2733.68
224.078 860.542 2733.17
224.606 860.699 2732.72
224.424 860.711 2732.85
224.273 860.636 2733.02
224.53 860.826 2732.56
224.622 860.843 2732.41
224.761 860.795 2732.25
224.937 860.701 2731.92
224.886 860.738 2732.11
225.019 860.629 2731.73
225.011 860.465 2731.29
225.308 860.069 2731.04
225.11 860.272 2731.04
224.902 859.485 2729.69
224.68 859.738 2729.64
224.843 860.68 2731.45
205.386 875.353 2739.25
205.788 874.646 2739.09
207.509 873.874 2740.24
205.617 874.126 2738.34
205.775 873.764 2738.09
207.095 864.982 2733.4
207.594 865.309 2734.3
207.278 865.09 2733.71
209.47 871.733 2737.51
210.256 871.336 2734.94
210.377 871.222 2734.59
210.481 871.076 2734.33
210.385 868.855 2737.88
210.291 869.41 2737.16
210.381 868.105 2738.15
209.135 866.672 2736.43
207.512 865.407 2734.14
208.154 864.241 2733.6
207.902 864.261 2733.31
207.806 864.233 2733.02
207.53 864.305 2732.85
208.149 864.177 2733.33
207.108 864.552 2732.88
207.186 864.462 2732.81
206.981 864.94 2733.08
206.983 864.791 2732.98
206.995 864.657 2732.87
207.074 864.542 2732.73
207.346 864.37 2732.78
209.999 864.015 2734.33
208.416 864.081 2733.17
212.912 863.452 2734.35
215.69 862.163 2733.15
215.778 862.158 2732.82
215.262 862.376 2731.49
216.24 862.018 2732.17
216.558 861.916 2731.74
216.699 861.847 2731.18
215.903 862.136 2732.53
215.46 861.439 2735.39
215.767 860.841 2735.18
216.017 860.475 2735.14
215.905 860.639 2735.12
216.049 860.473 2734.99
216.27 860.427 2734.75
216.113 860.5 2734.82
217.091 859.989 2734.87
217.296 859.875 2734.96
216.826 860.109 2734.82
216.607 860.318 2734.65
216.375 860.444 2734.63
215.961 861.839 2733.45
215.907 861.952 2733.26
215.821 861.883 2733.7
215.977 862.006 2732.97
215.432 862.048 2734.38
215.699 861.922 2733.96
215.39 861.951 2734.71
217.637 859.827 2734.87
218.123 859.758 2734.93
224.24 858.921 2727.83
223.805 859.018 2726.65
223.292 859.388 2725.05
223.086 859.542 2724.25
223.03 859.547 2723.64
223.055 859.398 2723.31
223.047 859.268 2722.75
223.021 859.067 2722.65
222.986 858.923 2722.46
222.886 858.597 2722.27
222.624 857.964 2721.62
222.707 858.297 2720.72
219.666 860.338 2734.01
219.414 859.91 2734.58
219.358 859.753 2734.83
223.827 860.675 2733.1
222.424 860.769 2733.17
218.363 859.878 2734.69
224.345 860.822 2732.71
224.093 860.771 2732.89
224.4 860.914 2732.41
224.278 860.886 2732.55
224.498 860.913 2732.26
224.601 860.886 2732.09
224.737 860.788 2731.64
224.702 860.846 2731.91
224.891 860.469 2731.01
224.771 860.638 2731.16
224.447 859.985 2729.62
224.179 860.237 2729.63
224.03 859.193 2727.82
223.809 859.505 2727.85
224.52 860.809 2731.23
204.902 876.867 2739.77
203.963 875.129 2737.17
204.199 873.847 2736.31
206.055 873.472 2737.99
207.986 873.109 2739.41
204.322 873.366 2736
204.491 873.194 2735.98
208.253 872.615 2738.7
208.905 872.176 2738.39
209.238 871.912 2737.8
207.009 865.071 2733.23
207.196 865.198 2733.6
209.32 871.851 2737.15
209.804 871.752 2735.46
209.666 871.847 2735.54
210.518 871.342 2732.92
210.644 871.088 2732.9
210.681 871.048 2732.4
210.382 871.509 2732.98
210.797 870.806 2732.64
210.586 870.921 2734.07
210.901 870.616 2732.73
210.111 868.663 2737.23
210.179 868.336 2737.61
210.177 869.634 2736.18
210.076 869.131 2736.67
209.192 867.032 2736.4
207.536 865.627 2734.09
207.215 865.349 2733.59
207.787 864.192 2732.65
208.068 864.136 2732.91
207.449 864.295 2732.57
207.614 864.239 2732.52
207.162 864.44 2732.67
207.304 864.35 2732.59
206.961 865.032 2732.99
206.952 864.85 2732.88
206.915 864.731 2732.82
206.951 864.633 2732.69
207.12 864.45 2732.55
207.011 864.555 2732.54
209.081 863.812 2732.17
211.478 863.442 2732.65
208.918 863.781 2731.59
213.384 862.743 2730.65
214.577 862.305 2730.18
216.199 861.958 2732.65
215.622 861.809 2729.54
216.887 861.766 2731.97
216.416 861.896 2732.4
217.271 861.691 2731.44
216.411 861.634 2729.43
217.782 861.577 2731.12
215.53 861.476 2734.97
215.719 860.971 2734.99
215.839 860.781 2734.96
215.935 860.611 2734.99
215.981 860.604 2734.84
216.196 860.539 2734.64
216.052 860.617 2734.7
217.218 860.081 2734.63
216.914 860.228 2734.6
217.402 859.93 2734.79
216.396 860.545 2734.45
216.617 860.47 2734.43
216.152 861.782 2733.25
216.01 861.702 2733.66
216.19 861.661 2733.47
216.139 861.874 2733.03
215.895 861.677 2733.95
216.373 861.838 2732.75
215.669 861.758 2734.26
215.671 861.371 2734.67
217.726 859.907 2734.69
223.744 859.275 2727.2
223.449 859.324 2725.96
223.226 859.518 2725.15
222.987 859.809 2724.12
222.952 859.849 2723.59
222.971 859.829 2723.11
223.011 859.683 2722.92
223.044 859.526 2722.71
223.136 859.755 2721.45
223.129 859.577 2721.37
223.097 859.384 2721.27
223.042 859.175 2721.15
223.102 859.468 2719.85
217.898 860.449 2733.91
217.971 860.035 2734.46
219.794 860.784 2733.44
218.229 860.892 2733.3
223.511 860.843 2732.82
221.941 860.927 2733
223.938 860.891 2732.66
223.93 861.004 2732.29
223.959 861.019 2732.11
223.596 861.037 2732.34
224.335 860.941 2732.08
224.301 860.95 2731.76
224.413 860.896 2731.53
223.931 860.48 2729.74
223.583 860.646 2729.65
223.437 859.852 2727.82
223.173 860.133 2727.94
223.446 859.595 2727.13
223.196 860.796 2729.57
224.054 860.952 2731.16
203.259 877.34 2737.73
203.679 874.881 2736.35
203.855 873.77 2735.61
204.049 873.423 2735.63
206.023 873.16 2737.49
206.171 872.937 2737.22
204.237 873.163 2735.59
204.376 873.04 2735.61
206.295 872.752 2736.93
208.355 872.401 2738.12
208.768 872.155 2737.68
209.118 871.967 2737.14
206.99 865.176 2733.2
206.951 865.144 2732.97
210.183 871.695 2733
209.511 871.937 2735.54
210.039 871.815 2733.11
209.864 871.944 2733.35
209.945 871.906 2732.59
210.515 871.301 2731.98
210.66 871.068 2731.85
211.011 870.089 2730.7
210.92 870.207 2730.41
210.335 871.508 2731.99
211.104 869.864 2730.66
210.635 870.75 2733.96
210.923 870.507 2732.83
210.675 870.561 2733.93
211.165 869.712 2730.81
209.804 868.53 2736.47
208.836 867.024 2735.75
208.743 867.122 2735.44
210.088 869.641 2735.56
209.888 868.997 2736.05
207.322 865.594 2733.61
207.025 865.303 2733.19
208.52 863.901 2731.59
208.273 863.995 2731.66
207.38 864.314 2732.26
207.505 864.266 2732.27
208.359 863.951 2731.25
207.254 864.36 2732.41
206.926 864.964 2732.83
206.893 864.82 2732.75
206.839 864.783 2732.72
206.837 864.728 2732.67
206.896 864.677 2732.48
207.213 864.414 2732.35
207.096 864.528 2732.33
211.539 863.053 2730.43
211.119 863.11 2730.07
209.636 863.438 2730.14
212.757 862.716 2729.69
213.78 862.262 2728.92
216.747 861.73 2732.54
214.548 861.818 2727.9
217.434 861.658 2731.79
217.148 861.629 2732.25
216.83 861.739 2732.33
218.024 861.507 2731.54
215.308 861.653 2727.77
218.36 861.4 2729.06
220.485 861.338 2731.09
215.803 860.921 2734.78
215.896 860.745 2734.81
215.939 860.786 2734.63
216.206 860.62 2734.47
216.058 860.705 2734.53
217.442 860.539 2733.92
217.148 860.682 2733.89
217.509 860.008 2734.56
216.897 860.821 2733.85
216.468 860.965 2733.92
216.667 860.911 2733.86
216.501 861.681 2732.98
216.423 861.611 2733.25
216.104 861.548 2733.8
216.307 861.5 2733.61
216.592 861.433 2733.39
216.006 861.151 2734.28
215.842 861.244 2734.43
216.832 861.604 2732.77
223.293 859.568 2726.28
223.009 859.814 2725.13
222.942 859.912 2724.28
222.858 860.166 2723.2
222.922 860.035 2723.05
223.041 860.239 2721.71
223.079 860.093 2721.64
223.109 859.926 2721.55
223.192 860.126 2720.46
223.206 859.993 2720.26
223.215 859.831 2720.12
223.182 859.677 2720.02
223.136 859.683 2719.5
217.737 861.02 2733.22
218.567 861 2733.08
219.841 860.939 2733.19
217.996 861.101 2733
222.977 861.016 2732.53
220.118 861.067 2732.89
223.1 861.142 2732.03
223.709 861.077 2731.75
223.111 861.174 2731.79
222.823 861.097 2732.28
223.414 861.116 2731.3
223.79 861.029 2731.24
222.858 860.25 2727.59
222.492 860.43 2727.52
223.127 859.952 2727.29
223.022 859.865 2726.53
222.781 860.922 2729.51
222.044 860.624 2727.57
201.728 879.154 2736.06
202.944 877.295 2737.06
203.454 874.801 2735.71
203.626 873.696 2734.92
203.817 873.4 2735.03
204.016 873.154 2735.07
204.632 872.878 2735.55
204.153 873.025 2735.04
204.339 872.937 2735.22
206.445 872.61 2736.68
204.884 872.724 2735.32
208.368 872.246 2737.39
208.778 872.087 2736.97
209.341 872.031 2735.34
206.967 865.225 2732.92
206.937 865.046 2732.75
210.148 871.695 2732.03
209.771 872.026 2732.86
209.847 871.952 2732.06
210.021 871.777 2731.79
210.343 870.991 2730.19
210.526 870.762 2730.19
210.724 870.508 2730.28
211.213 869.189 2728.66
210.807 869.899 2728.94
211.02 869.559 2728.56
210.176 871.165 2730.18
211.372 868.868 2728.78
210.942 870.384 2732.92
211.183 869.618 2731.05
210.701 870.378 2733.95
210.954 870.243 2733.32
210.975 870.236 2732.92
211.458 868.702 2728.84
211.487 868.625 2728.96
210.683 870.239 2734.01
208.591 867.123 2735.04
207.395 865.789 2733.58
209.987 869.486 2735.17
209.809 869.09 2735.5
208.596 867.25 2734.8
207.134 865.498 2733.17
207.011 865.317 2732.92
209.2 863.564 2730.12
207.354 864.358 2732.18
207.922 864.169 2731.3
208.059 864.091 2731.25
208.132 864.05 2731.31
209.051 863.635 2730.07
209.172 863.575 2729.96
206.891 864.854 2732.63
206.841 864.815 2732.58
206.829 864.772 2732.53
206.903 864.73 2732.32
207.041 864.609 2732.26
207.323 864.41 2732.11
207.265 864.478 2732.07
211.13 863.102 2729.79
212.456 862.799 2729.47
210.907 863.163 2729.62
209.588 863.453 2729.88
212.815 862.661 2729.19
213.628 862.247 2728.45
217.101 861.547 2732.58
214.116 861.933 2727.4
214.601 861.823 2727.08
217.548 861.519 2732.15
218.164 861.423 2732.03
217.48 861.458 2732.45
220.743 861.309 2731.62
220.685 861.242 2732.02
215.907 861.947 2723.53
217.164 861.626 2726.02
219.673 861.251 2727.18
221.336 861.225 2729.82
222.859 861.201 2731.38
216.287 861.025 2734.03
216.145 861.075 2734.16
217.346 861.148 2733.17
217.074 861.305 2733.12
216.858 861.331 2733.28
216.891 861.486 2732.96
216.743 861.485 2733.12
217.173 861.368 2732.92
222.805 860.057 2725.52
222.611 860.376 2724
222.764 860.198 2723.92
222.765 860.335 2723.02
222.897 860.533 2721.82
222.984 860.388 2721.75
223.077 860.673 2720.72
223.134 860.489 2720.52
223.171 860.324 2720.5
223.21 860.187 2720.13
223.219 860.06 2719.89
223.195 859.924 2719.71
217.498 861.212 2732.98
218.412 861.164 2732.79
217.76 861.272 2732.75
220.084 861.173 2732.58
220.303 861.238 2732.23
221.889 861.113 2729.42
222.471 861.027 2729.58
222.517 860.305 2727.02
222.813 860.072 2726.79
222.028 860.535 2727.06
222.654 860.18 2726.09
221.407 860.834 2727.37
196.873 884.599 2733.63
196.741 884.364 2733.25
199.1 882.434 2734.58
200.837 880.307 2735.09
201.699 878.616 2734.87
202.74 877.213 2736.42
202.831 875.897 2734.97
202.995 874.528 2733.46
203.618 873.492 2734.52
203.077 874.126 2733
203.788 873.282 2734.6
203.918 873.103 2734.49
204.406 872.81 2734.78
204.065 872.948 2734.48
206.432 872.512 2736.25
204.896 872.637 2734.68
204.537 872.734 2734.56
208.234 872.208 2736.63
206.47 872.471 2735.92
209.064 872.143 2735.22
208.744 872.219 2735.23
208.63 872.124 2736.59
209.501 872.155 2732.67
206.972 865.168 2732.68
206.928 864.963 2732.56
209.977 871.331 2730.14
209.663 872.064 2732.09
209.347 871.776 2730.16
209.686 871.578 2730.23
210.503 870.296 2728.67
210.169 870.68 2728.66
211.157 869.268 2728.07
211.368 868.877 2728.2
210.697 869.966 2728.31
210.834 869.788 2727.97
209.893 870.94 2728.58
211.668 868.626 2727.47
211.201 869.473 2731.12
211.517 868.522 2729.06
210.957 870.102 2733.32
211.03 869.984 2732.66
211.253 869.202 2730.87
211.754 868.278 2727.82
211.775 868.082 2728.05
210.647 870.053 2733.97
210.934 869.996 2733.37
207.315 865.76 2733.27
209.902 869.201 2734.76
209.602 868.792 2734.93
209.528 868.622 2735.12
208.554 867.287 2734.52
207.328 865.812 2733.13
210.106 869.459 2734.54
207.14 865.532 2732.95
207.015 865.318 2732.69
207.913 864.196 2731.16
208.892 863.706 2730.03
208.659 863.829 2730.08
209.181 863.576 2729.78
209.081 863.622 2729.76
209.501 863.48 2729.72
206.893 864.838 2732.42
206.892 864.789 2732.37
206.97 864.737 2732.15
207.113 864.635 2732.04
207.217 864.565 2731.98
207.878 864.239 2731.08
207.786 864.315 2731.11
207.773 864.361 2731.01
212.506 862.782 2729.15
210.757 863.219 2729.47
211.994 862.977 2729.08
212.822 862.677 2728.91
213.442 862.295 2728.14
217.35 861.383 2732.75
213.779 862.078 2727.05
214.078 861.991 2726.64
214.582 862.168 2724.53
215.037 862.019 2724.89
218.176 861.294 2732.51
215.591 862.136 2722.14
215.715 862.156 2720.75
217.655 861.78 2722.31
220.35 861.19 2725.49
220.538 861.072 2727.12
222.354 860.612 2724.4
222.414 860.688 2723.18
222.645 860.492 2723
222.768 860.72 2721.87
222.928 860.864 2720.98
223.002 860.8 2720.75
223.013 860.778 2720.17
223.096 860.612 2720.29
223.168 860.332 2720.07
223.111 860.452 2719.83
218.662 861.223 2732.6
222.445 860.325 2726.5
221.311 860.838 2726.62
222.026 860.559 2726.48
222.23 860.623 2725.09
195.356 885.43 2732.47
195.243 885.208 2732.05
196.567 884.272 2732.87
195.195 885.03 2731.67
196.592 884.077 2732.57
199.174 882.02 2733.91
200.408 880.22 2732.2
200.713 879.623 2731.54
200.965 879.295 2732.01
201.181 878.777 2731.93
201.929 876.909 2732.9
202.205 875.324 2731.42
203.372 873.547 2732.9
203.22 873.776 2732.75
202.375 874.909 2730.98
203.459 873.409 2732.87
203.557 873.29 2732.87
203.862 873.031 2733.15
204.022 872.951 2732.75
203.608 873.204 2732.6
204.413 872.789 2733.24
204.743 872.701 2733.08
205.072 872.612 2734.51
206.36 872.464 2735.4
208.357 872.304 2734.84
209.162 872.271 2732.76
208.972 871.967 2730.21
208.635 872.153 2730.55
206.968 865.092 2732.48
207.015 865.253 2732.51
206.924 864.914 2732.39
209.627 871.202 2728.79
208.836 871.68 2728.58
209.223 871.442 2728.52
210.371 870.409 2728.15
210.031 870.77 2728.24
211.234 869.229 2727.72
211.507 869.193 2726.91
210.388 870.391 2727.7
210.942 869.687 2727.57
209.598 871.178 2728.33
209.799 871.021 2728.03
211.914 868.605 2725.09
211.485 869.797 2725.82
212.143 867.91 2725.31
211.554 868.285 2728.94
211.107 869.563 2732.1
211.289 868.98 2730.71
211.833 867.598 2727.92
212.075 867.824 2726.24
211.813 867.886 2728.13
212.07 867.422 2726.94
212.105 867.538 2726.5
210.933 869.836 2733.29
210.603 869.895 2733.89
211.117 869.41 2732.02
210.698 869.339 2733.05
209.56 868.641 2734.52
209.93 869.11 2734.35
208.435 867.188 2733.87
208.443 867.189 2734.15
207.448 865.99 2733.12
207.23 865.681 2732.83
210.574 869.117 2733.03
207.098 865.454 2732.64
208.565 863.886 2730
208.95 863.675 2729.79
209.434 863.506 2729.63
209.177 863.615 2729.61
210.614 863.284 2729.32
206.963 864.791 2732.18
206.955 864.847 2732.19
207.07 864.758 2731.92
207.134 864.693 2731.89
207.675 864.453 2731.1
207.664 864.503 2731.06
208.415 863.987 2730.08
208.427 864.014 2729.97
208.281 864.116 2730.07
212.607 862.761 2729.02
212.59 862.782 2728.85
211.796 863.087 2728.97
212.225 862.931 2728.86
213.236 862.378 2727.9
212.745 862.713 2728.57
213.459 862.256 2726.76
213.675 862.207 2726.24
214.248 862.285 2724.41
215.156 862.263 2721.84
215.164 862.341 2720.52
215.8 862.212 2720.37
215.321 862.377 2720.01
217.951 861.858 2721.73
220.57 861.424 2723.41
221.307 861.122 2724.46
222.153 860.934 2723.03
222.434 861.057 2721.99
222.579 860.911 2721.94
222.77 861.05 2721.06
222.803 861.03 2720.52
222.869 860.95 2720.2
221.699 860.965 2724.88
221.975 860.838 2724.75
221.997 861.043 2723.09
194.93 885.533 2731.82
194.908 885.348 2731.5
194.919 885.093 2731.05
195.227 884.777 2731.15
196.642 883.828 2732.04
199.107 881.362 2731.05
199.962 880.517 2731.3
200.503 879.084 2728.67
201.133 878.284 2729.33
201.26 878.126 2730.13
201.476 877.688 2730.77
201.775 876.915 2731.98
202.118 875.409 2730.86
202.861 874.016 2731.14
203.054 873.682 2731.1
202.291 875.082 2730.32
202.558 874.672 2730.14
203.204 873.481 2731.03
203.341 873.374 2730.84
203.51 873.238 2730.93
203.847 873.079 2730.76
204.197 872.915 2730.93
205.227 872.748 2729.9
205.582 872.626 2731.04
206.903 872.461 2733.7
207.843 872.389 2731.28
208.228 872.273 2730.6
208.075 871.952 2728.27
206.96 864.966 2732.27
207.022 865.164 2732.35
207.089 865.365 2732.44
208.836 871.631 2728.2
209.323 871.362 2728.07
210.06 870.77 2727.88
211.29 869.711 2726.65
211.258 870.275 2725.79
210.095 870.789 2727.53
210.448 870.41 2727.3
210.988 870.185 2726.57
209.614 871.193 2727.86
209.82 871.046 2727.66
211.763 868.991 2724.37
212.996 865.744 2722.08
211.226 870.366 2725.48
211.36 870.107 2725.4
212.877 865.75 2723.62
213.117 865.316 2722.53
211.438 868.113 2729.38
211.837 867.309 2727.88
212.15 866.742 2726.52
212.379 866.091 2726.06
212.389 865.159 2726.36
212.713 865.722 2724.59
211.057 869.428 2732.3
210.977 869.273 2732.36
211.317 868.237 2730.01
211.306 867.986 2729.81
211.222 867.725 2729.7
209.654 868.669 2734.19
208.541 867.279 2733.61
210.3 868.988 2733.38
209.88 868.802 2733.87
207.352 865.845 2732.82
207.499 866.002 2732.8
207.2 865.586 2732.6
210.961 867.62 2730.09
208.676 863.859 2729.8
208.878 863.723 2729.73
209.026 863.692 2729.56
209.529 863.496 2729.53
210.517 863.341 2729.21
209.322 863.585 2729.5
211.756 863.149 2728.82
207.048 864.838 2731.95
206.999 864.896 2732.04
207.603 864.659 2731.09
207.513 864.767 2731.22
207.713 864.543 2730.94
208.265 864.161 2730.04
208.733 863.87 2729.69
208.535 864.017 2729.76
208.73 863.926 2729.61
208.464 864.106 2729.81
212.413 862.911 2728.6
212.579 862.836 2728.44
212.053 863.033 2728.73
213.073 862.494 2727.62
213.437 862.356 2726.12
214.038 862.372 2724.41
214.885 862.385 2721.7
214.908 862.499 2719.95
215.884 862.318 2719.83
215.372 862.492 2719.44
215.065 862.564 2719.46
216.419 862.214 2720.06
218.248 862.002 2721.29
220.157 861.779 2722.19
220.857 861.617 2722.44
221.158 861.426 2722.94
221.558 861.29 2723.02
222.259 861.207 2721.98
221.847 862.041 2720.22
222.528 861.327 2720.91
222.632 861.193 2720.68
221.799 861.162 2723.09
221.853 861.654 2721.48
194.744 885.78 2731.65
194.717 885.604 2731.36
194.722 885.358 2731.03
194.727 885.152 2730.59
194.939 884.917 2730.58
195.285 884.486 2730.48
197.12 883.044 2730.85
197.096 882.675 2729.51
199.399 880.291 2728.38
199.574 880.048 2727.89
200.993 878.397 2728.25
201.631 877.566 2728.43
201.652 877.495 2729.31
201.783 877.232 2729.31
201.82 876.581 2731.37
201.855 876.404 2730.76
201.872 876.958 2729.32
202.173 875.337 2729.96
202.138 875.532 2729.64
202.82 874.262 2729.91
203.083 873.794 2730.09
202.35 875.077 2729.06
202.461 874.948 2728.63
203.312 873.574 2729.95
203.503 873.45 2729.8
203.652 873.275 2730.07
204.957 872.936 2728.78
204.664 873.092 2728.58
204.854 872.889 2729.51
207.051 872.285 2727.72
207.459 872.126 2727.88
206.529 872.527 2728.78
207 864.996 2732.11
207.079 865.211 2732.21
207.182 865.448 2732.34
208.888 871.594 2727.85
209.502 871.3 2727.69
209.246 871.437 2727.74
211.073 870.601 2725.76
211.029 870.673 2725.44
210.164 870.785 2727.26
209.91 871.011 2727.4
210.566 870.7 2726.61
210.81 870.874 2725.9
209.691 871.183 2727.53
211.743 868.965 2722.61
213.373 864.476 2721.13
211.151 870.475 2725.09
212.784 863.895 2725.06
213.317 864.281 2722.66
211.853 867.027 2727.81
211.509 867.684 2728.96
211.795 866.818 2727.9
212.228 865.488 2726.73
212.686 864.956 2725.25
212.581 863.969 2725.93
212.267 864.31 2726.92
212.373 863.886 2726.74
211.403 867.348 2728.9
211.205 867.086 2729
208.674 867.363 2733.32
207.599 866.091 2732.72
210.115 868.622 2733.04
210.607 867.992 2731.27
208.82 867.388 2732.97
207.302 865.724 2732.59
207.422 865.857 2732.55
210.748 867.121 2729.82
210.947 866.932 2729.26
208.927 863.759 2729.55
209.159 863.691 2729.4
209.594 863.518 2729.41
210.442 863.392 2729.13
211.583 863.24 2728.78
209.505 863.589 2729.33
212.062 863.081 2728.53
211.885 863.171 2728.54
207.166 864.927 2731.74
207.133 865.01 2731.81
208.234 864.221 2730.03
208.229 864.304 2730.01
207.772 864.74 2730.78
208.398 864.201 2729.85
208.909 863.831 2729.47
208.715 864.001 2729.54
208.88 863.902 2729.43
208.54 864.141 2729.68
208.72 864.057 2729.5
212.292 863.023 2728.38
212.483 862.955 2728.21
212.948 862.622 2727.33
213.34 862.459 2725.82
213.905 862.468 2724.33
213.598 862.343 2725.54
214.546 862.483 2723.02
214.664 862.513 2721.45
214.666 862.596 2719.91
214.805 862.659 2719.41
214.634 862.723 2719.41
215.326 862.619 2719.09
215.969 862.478 2719.37
214.969 862.706 2719.06
214.766 862.784 2719.04
217.883 862.171 2720.61
220.123 862.479 2720.57
220.586 862.405 2720.64
221.011 862.284 2720.77
221.307 862.123 2720.97
221.586 861.928 2721.17
194.602 885.834 2731.24
194.612 885.636 2730.99
194.628 885.388 2730.7
194.638 885.186 2730.32
194.834 884.911 2730.18
195.175 884.512 2730.1
196.864 882.817 2729.14
199.702 879.894 2727.56
196.55 883.097 2728.98
201.465 877.804 2727.64
201.872 877.39 2727.19
201.855 877.246 2727.65
201.99 876.914 2727.82
201.99 876.33 2729.52
202.12 876.11 2728.32
202.249 875.388 2728.7
202.742 874.58 2728.71
203.047 874.261 2728.68
202.331 875.327 2728.36
202.423 875.159 2728.2
202.636 874.842 2728.33
203.322 873.913 2728.67
204.17 873.471 2728.13
203.495 873.749 2728.58
204.714 873.231 2727.87
206.134 872.695 2726.88
207.791 872.036 2727.17
209.033 871.586 2727.51
207.149 865.102 2731.89
207.193 865.225 2731.95
207.312 865.627 2732.36
207.278 865.42 2732.07
209.369 871.461 2727.46
209.662 871.533 2726.64
210.823 870.907 2725.59
210.97 870.744 2725.05
210.795 870.963 2725.21
210.29 871.053 2726.62
210.065 871.241 2726.68
210.588 871.116 2725.98
210.613 871.132 2725.69
209.861 871.399 2726.66
213.349 864.895 2719.2
213.753 863.725 2720.76
213.423 863.913 2722.7
211.276 869.757 2722.44
212.819 863.659 2725.1
212.007 865.867 2727.16
211.683 866.706 2728.09
211.801 865.85 2727.55
212.139 864.87 2726.98
212.128 864.256 2727.21
212.207 863.902 2727.18
212.385 863.577 2726.9
211.487 866.696 2728.35
211.171 866.778 2728.85
211.337 866.707 2728.57
207.615 866.045 2732.49
210.334 867.73 2731.29
208.989 867.334 2732.51
207.755 866.094 2732.24
207.483 865.822 2732.32
210.461 866.945 2729.98
210.725 866.674 2729.35
210.975 866.578 2728.96
209.082 863.777 2729.31
209.421 863.682 2729.23
210.398 863.448 2729.04
211.359 863.344 2728.74
211.721 863.256 2728.54
210.351 863.526 2728.96
212.064 863.171 2728.31
211.875 863.266 2728.33
207.756 864.857 2730.82
207.434 865.087 2731.37
208.399 864.279 2729.81
208.287 864.402 2729.94
208.359 864.322 2729.84
208.578 864.188 2729.63
209.055 863.842 2729.28
208.89 863.949 2729.37
208.763 864.099 2729.45
208.899 863.995 2729.33
212.285 863.115 2728.16
212.491 863.044 2727.91
212.866 862.715 2727.08
213.202 862.572 2725.79
213.82 862.577 2724.18
214.389 862.597 2722.77
214.488 862.646 2721.26
214.51 862.711 2719.79
214.61 862.864 2719.02
214.465 862.832 2719.29
214.463 862.94 2719.02
215.096 863.248 2718.04
215.42 863.155 2718.11
216.285 863.04 2718.33
215.795 863.094 2718.19
214.885 863.325 2718.01
214.692 863.402 2717.99
217.927 862.742 2719.41
219.536 862.631 2720.15
218.247 863.391 2718.18
219.822 863.191 2718.94
217.962 863.609 2717.53
220.223 863.102 2719.17
220.442 863.105 2719.06
220.921 862.923 2719.31
194.564 886.084 2731.24
194.504 885.827 2730.86
194.543 885.644 2730.63
194.563 885.445 2730.41
194.558 885.316 2730.11
194.688 885.07 2729.99
195.106 884.573 2729.82
199.714 879.912 2727.27
196.295 883.362 2728.86
201.514 877.918 2726.99
201.914 877.501 2726.53
202.209 876.942 2726.62
202.065 876.947 2727.24
202.184 876.1 2727.94
202.855 874.691 2728.02
203.071 874.341 2728.07
202.282 876.003 2727.67
202.434 875.808 2727.46
202.64 875.941 2726.77
202.644 874.96 2727.99
203.728 873.937 2727.77
204.553 873.53 2727.14
205.348 873.165 2726.55
204.597 873.624 2726.86
205.757 872.936 2726.6
205.808 872.87 2726.77
206.297 872.675 2726.63
207.701 872.119 2726.88
209.018 871.652 2727.21
209.039 872.001 2726.13
207.389 865.219 2731.55
207.47 865.337 2731.57
207.509 865.577 2731.86
208.406 872.618 2724.96
209.818 871.792 2725.32
210.107 871.556 2725.67
210.593 871.182 2725.29
210.618 871.099 2724.2
210.434 871.357 2724.72
210.427 871.296 2725.85
210.375 871.389 2725.39
213.565 864.944 2718.18
213.899 863.383 2720.96
213.594 863.584 2722.74
213.998 863.412 2719.38
213.306 863.811 2723.43
212.995 863.535 2724.64
212.632 863.281 2726.15
211.928 865.174 2727.27
211.549 865.904 2727.95
211.673 865.393 2727.67
212.02 864.57 2727.21
211.941 864.291 2727.42
212.017 864.057 2727.46
212.093 863.81 2727.45
212.294 863.583 2727.19
211.225 866.424 2728.56
211.377 866.13 2728.25
209.213 867.107 2731.77
209.286 866.597 2730.9
208.057 866.001 2731.54
207.677 865.858 2731.97
209.398 866.244 2730.28
209.573 866.028 2729.87
210.703 866.303 2729.08
210.998 866.235 2728.73
209.362 863.771 2729.15
210.307 863.604 2728.89
211.353 863.407 2728.62
211.708 863.359 2728.39
211.287 863.495 2728.55
212 863.288 2728.14
212.137 863.267 2728.04
211.856 863.404 2728.16
208.231 864.686 2730.08
208.271 864.525 2729.98
207.9 865.016 2730.71
208.588 864.3 2729.61
208.652 864.22 2729.56
208.444 864.375 2729.73
208.419 864.454 2729.77
208.83 864.132 2729.39
209.065 863.898 2729.23
209.348 863.839 2729.09
208.913 864.044 2729.29
209.074 863.956 2729.19
212.277 863.246 2727.93
212.49 863.107 2727.64
212.795 862.804 2726.86
213.719 862.719 2724.08
213.08 862.711 2725.72
214.239 862.755 2722.63
214.334 862.777 2721.19
214.378 862.829 2719.74
214.515 863.494 2717.99
214.337 862.925 2719.37
214.328 863.03 2719.04
214.353 863.611 2717.97
215.216 863.892 2716.81
215.541 863.777 2716.98
215.928 863.707 2717.06
219.817 863.375 2718.38
217.92 863.724 2717.04
194.472 886.068 2730.86
194.479 885.803 2730.58
194.497 885.666 2730.24
194.513 885.473 2729.95
194.609 885.252 2729.77
194.74 885.006 2729.68
195.036 884.705 2729.53
199.379 880.331 2727.1
196.257 883.456 2728.67
201.117 878.514 2726.61
201.922 877.608 2726.16
202.955 875.041 2727.31
203.235 874.759 2727.25
203.27 874.273 2727.82
202.772 875.266 2727.4
202.769 876.42 2725.76
203.022 875.617 2726.24
203.202 875.677 2725.58
201.833 877.797 2726.01
204.026 874.397 2726.42
205.337 873.244 2726.34
205.729 873.04 2726.31
204.905 873.652 2726.22
205.245 873.388 2726.19
206.291 872.755 2726.42
207.717 872.255 2726.43
208.887 872.031 2726.15
207.206 873.231 2724.88
207.897 865.187 2730.83
207.89 865.508 2731.14
208.004 865.331 2730.82
207.889 865.652 2731.29
208.428 872.652 2724.67
209.986 871.701 2725.07
209.769 871.876 2724.57
208.28 872.747 2724.38
210.189 871.568 2724.76
210.229 871.45 2723.68
210.01 871.688 2723.91
213.934 864.184 2718.08
213.955 863.637 2719.07
214.071 863.103 2721.04
214.083 863.253 2719.5
213.841 863.291 2722.5
213.617 863.33 2723.19
213.177 863.334 2724.4
213.535 863.469 2723.22
213.072 863.366 2724.64
212.63 863.184 2726.39
212.399 863.415 2727.16
211.808 864.701 2727.5
211.752 864.993 2727.55
211.292 865.664 2728.17
211.472 865.606 2727.95
211.435 865.438 2727.99
211.557 865.085 2727.8
211.868 864.434 2727.49
211.719 864.193 2727.66
211.799 864.031 2727.66
211.928 863.877 2727.67
212.209 863.562 2727.44
211.99 863.681 2727.68
211.17 865.981 2728.44
208.249 865.744 2730.95
209.721 865.783 2729.52
208.672 865.328 2730.05
208.31 865.522 2730.62
210.722 865.989 2728.87
210.907 865.791 2728.63
210.256 863.685 2728.83
211.21 863.582 2728.49
211.607 863.501 2728.31
212.024 863.387 2727.97
211.797 863.541 2728.09
211.946 863.495 2727.97
208.288 864.843 2730.1
208.459 864.672 2729.82
208.433 864.551 2729.79
208.825 864.264 2729.42
208.658 864.362 2729.55
208.842 864.193 2729.39
208.64 864.481 2729.58
208.935 864.102 2729.28
209.351 863.898 2729.05
210.225 863.777 2728.78
209.038 864.025 2729.18
209.336 864.018 2729.03
209.38 863.953 2729.02
212.142 863.42 2727.79
212.34 863.261 2727.67
212.489 863.173 2727.47
212.725 862.935 2726.73
213.512 862.829 2724.38
213.917 862.937 2723.1
214.068 862.932 2722.58
212.974 862.869 2725.62
214.207 862.911 2721.1
214.24 863.005 2719.56
214.242 863.103 2719.15
214.234 863.74 2717.96
194.442 885.996 2730.58
194.445 885.899 2730.24
194.466 885.729 2729.99
194.574 885.393 2729.66
194.535 885.581 2729.72
194.739 885.131 2729.42
194.874 884.918 2729.39
195.125 884.631 2729.28
199.369 880.412 2726.92
196.44 883.33 2728.41
200.664 879.148 2726.51
203.172 875.424 2726.22
203.448 875.198 2726.19
203.729 874.944 2726.08
201.838 877.918 2725.84
202.489 877.047 2725.65
202.898 876.356 2725.57
203.255 875.916 2725.27
203.209 875.788 2725.41
203.309 875.518 2725.55
203.275 875.703 2725.37
203.277 875.617 2725.46
200.672 879.299 2726.33
204.038 874.858 2725.55
203.58 875.369 2725.27
203.836 875.164 2725.3
204.596 874.178 2725.93
205.598 873.186 2726.12
206.667 872.977 2725.76
204.491 874.509 2725.54
205.18 873.638 2725.91
205.518 873.325 2725.99
207.342 872.581 2725.98
207.734 872.806 2725.31
208.318 865.011 2730.18
208.321 865.268 2730.37
209.612 871.982 2723.93
209.926 871.764 2724.26
214.044 864.002 2718.01
214.157 863.178 2719.32
