199.908005 830.661987 2265.239990 
200.190994 830.629028 2265.120117 
199.436005 830.799988 2265.439941 
202.893997 830.901978 2264.540039 
203.848999 831.494995 2263.689941 
203.875000 831.937012 2262.989990 
203.929001 832.086975 2262.770020 
203.822998 831.726013 2263.389893 
203.701996 831.885986 2263.169922 
204.347000 831.875977 2260.610107 
205.050995 831.023987 2257.709961 
203.901001 832.273010 2262.500000 
203.876999 832.344971 2262.340088 
203.852005 832.413025 2262.179932 
204.009995 832.270020 2261.840088 
206.744003 828.814026 2252.550049 
207.641998 827.848999 2250.560059 
207.871994 827.658020 2250.090088 
208.317993 827.500977 2250.159912 
208.638000 827.411987 2249.929932 
208.996002 827.343018 2249.689941 
209.382004 827.336975 2249.459961 
203.384003 834.937012 2271.060059 
202.757004 834.788025 2270.399902 
202.778000 834.955994 2270.679932 
202.056000 834.768005 2269.820068 
202.074997 834.617981 2269.620117 
202.251007 834.854004 2270.110107 
202.201996 834.049988 2269.370117 
202.013000 834.382019 2269.340088 
202.117004 833.734009 2269.189941 
201.421997 832.601990 2268.469971 
199.975006 831.677002 2267.360107 
199.056000 831.280029 2266.399902 
199.421005 831.619019 2266.959961 
199.203995 831.523987 2266.679932 
198.889999 831.307983 2266.320068 
198.893005 831.265015 2266.209961 
198.798996 831.302002 2266.070068 
198.856003 831.190002 2265.850098 
198.753998 831.288025 2265.899902 
199.237000 830.901978 2265.459961 
199.151001 830.976013 2265.500000 
199.016998 831.065002 2265.580078 
198.882996 831.150024 2265.689941 
200.585007 830.674988 2264.959961 
201.119995 830.703979 2264.840088 
199.358994 830.859009 2265.330078 
199.638000 830.810974 2265.120117 
199.947998 830.784973 2264.969971 
202.639999 830.986023 2264.409912 
203.419006 831.570984 2263.639893 
202.378998 831.059998 2264.320068 
203.675995 832.135010 2262.899902 
203.701004 832.379028 2262.659912 
203.406998 831.789001 2263.379883 
203.505997 832.002014 2263.149902 
204.070999 832.093994 2261.010010 
203.822998 832.216003 2259.840088 
203.360992 832.570984 2258.979980 
203.919006 831.883972 2257.750000 
204.645996 830.695007 2254.030029 
203.710007 832.476990 2262.560059 
203.737000 832.489014 2262.469971 
203.679001 832.591980 2262.360107 
203.714996 832.616028 2262.010010 
203.608002 832.715027 2262.209961 
203.738007 832.559021 2261.800049 
203.565994 832.549011 2260.850098 
205.783005 829.552979 2252.350098 
207.205994 828.096985 2250.510010 
207.524994 827.843018 2250.219971 
207.492004 827.843018 2250.010010 
208.078995 827.557007 2249.830078 
207.718994 827.711975 2249.850098 
208.391998 827.466003 2249.669922 
208.550995 827.437012 2249.489990 
208.985992 827.406982 2249.300049 
209.212006 827.431030 2249.189941 
203.352997 835.213013 2271.620117 
202.654999 835.245972 2271.320068 
202.339996 835.002014 2270.409912 
202.337006 835.177979 2270.860107 
201.927002 834.942993 2269.870117 
201.856995 834.809021 2269.580078 
201.778000 834.991028 2269.659912 
201.826996 834.697021 2269.340088 
202.000000 835.057007 2270.169922 
201.912994 834.116028 2269.129883 
201.830994 834.427002 2269.169922 
201.731995 833.760986 2268.899902 
201.001999 832.591003 2268.209961 
199.628998 831.872009 2267.179932 
198.848007 831.348999 2266.219971 
199.259995 831.728027 2266.830078 
198.988998 831.645020 2266.510010 
198.822998 831.474976 2266.250000 
198.755997 831.380005 2266.100098 
198.688004 831.388000 2265.969971 
198.733994 831.250000 2265.709961 
198.656998 831.354004 2265.810059 
199.216003 830.940979 2265.310059 
199.138000 830.994019 2265.379883 
198.998993 831.091003 2265.459961 
198.858002 831.192017 2265.580078 
200.350998 830.815979 2264.820068 
200.763000 830.859009 2264.699951 
199.320007 830.901001 2265.209961 
199.537003 830.893005 2265.060059 
199.871002 830.908997 2264.879883 
203.138000 831.684021 2263.600098 
202.100006 831.148010 2264.250000 
203.449005 832.206970 2263.030029 
203.414001 832.489014 2262.840088 
203.524002 832.640015 2262.620117 
203.237000 831.898987 2263.389893 
203.289001 832.122986 2263.219971 
202.531006 833.247009 2259.439941 
202.115005 833.330017 2257.060059 
203.136002 831.981995 2254.340088 
203.817993 831.681030 2256.350098 
203.748001 831.343018 2254.250000 
203.735001 831.005981 2251.620117 
203.507004 832.697021 2262.530029 
203.516998 832.732971 2262.419922 
203.436996 832.854980 2262.270020 
203.531998 832.770020 2261.810059 
203.406998 832.971985 2262.020020 
203.483002 832.857971 2262.110107 
203.341003 833.067017 2262.189941 
203.442993 832.716980 2261.199951 
202.438995 833.359985 2259.750000 
205.283005 829.664978 2250.689941 
207.218002 828.021973 2250.080078 
207.289001 827.992004 2249.860107 
207.923996 827.622986 2249.679932 
207.623993 827.776001 2249.709961 
208.020004 827.609985 2249.540039 
208.255005 827.562988 2249.389893 
208.395004 827.560974 2249.239990 
208.944000 827.531006 2249.090088 
208.789993 827.658997 2249.000000 
208.796997 827.814026 2248.860107 
202.612000 836.067017 2273.580078 
201.921997 836.185974 2273.580078 
201.869995 835.588989 2271.540039 
201.432007 836.344971 2273.629883 
201.962006 835.250000 2270.669922 
201.841995 835.116028 2269.909912 
201.714996 834.969971 2269.469971 
201.602997 835.168030 2269.459961 
201.688995 835.189026 2269.659912 
201.695007 834.708008 2269.129883 
201.669998 834.880005 2269.250000 
201.740997 834.424011 2269.060059 
201.809006 835.268982 2270.399902 
201.667999 834.119995 2268.870117 
201.485992 833.869019 2268.679932 
200.654999 832.638977 2267.989990 
199.427994 831.953003 2267.010010 
198.725998 831.528015 2266.100098 
199.011993 831.822998 2266.600098 
198.794006 831.736023 2266.300049 
198.694000 831.684998 2266.110107 
198.649994 831.507019 2266.000000 
198.602005 831.466003 2265.889893 
198.630005 831.341980 2265.669922 
198.723999 831.276001 2265.590088 
198.554993 831.434998 2265.760010 
199.190002 830.973999 2265.199951 
199.084000 831.041016 2265.290039 
198.847000 831.200012 2265.489990 
198.912994 831.166016 2265.379883 
200.153000 830.963013 2264.729980 
200.503998 830.982971 2264.629883 
199.315002 830.984985 2265.100098 
199.630997 830.945007 2264.969971 
202.985992 831.840027 2263.560059 
201.813995 831.260010 2264.199951 
203.197006 832.356018 2263.100098 
203.238007 832.794006 2262.659912 
203.059006 832.741028 2262.870117 
203.285995 832.885010 2262.520020 
202.973999 832.132019 2263.389893 
202.940994 832.346985 2263.270020 
201.408005 834.119019 2258.250000 
200.682007 834.929016 2258.040039 
200.748993 834.294983 2255.560059 
202.399002 832.416016 2252.969971 
203.085999 831.697021 2252.669922 
202.613998 831.838013 2250.989990 
203.296997 832.932007 2262.419922 
203.317001 832.966003 2262.330078 
203.246994 833.195984 2262.320068 
203.281006 833.151001 2261.840088 
203.334000 832.974976 2261.540039 
203.121994 833.461975 2262.010010 
203.134003 833.458984 2262.139893 
203.022003 833.580017 2262.250000 
203.085007 833.049011 2260.939941 
202.376007 833.476990 2259.969971 
203.759995 830.874023 2250.510010 
202.559998 831.828003 2250.520020 
206.287994 828.830017 2250.199951 
206.235992 828.893982 2249.989990 
207.365997 827.981995 2249.639893 
207.220001 828.080994 2249.739990 
206.341995 828.843994 2249.790039 
207.764008 827.731018 2249.510010 
207.957993 827.737000 2249.290039 
208.102005 827.778992 2249.139893 
208.106003 827.901978 2249.040039 
208.647995 827.966980 2248.800049 
208.029999 828.072021 2248.989990 
200.214005 838.312012 2278.669922 
199.660995 838.406982 2278.669922 
201.535004 835.719971 2271.350098 
200.720993 836.609009 2273.479980 
200.789993 836.705994 2274.169922 
199.307007 838.494995 2278.649902 
201.645004 835.338989 2270.050049 
201.613007 835.051025 2269.300049 
201.492004 835.361023 2269.429932 
201.557999 835.197998 2269.320068 
201.544998 835.260986 2269.409912 
201.481995 835.424011 2269.629883 
201.572006 834.851990 2268.979980 
201.548996 834.635986 2268.870117 
201.591003 834.979004 2269.100098 
201.550995 834.348999 2268.760010 
201.190002 835.856995 2270.870117 
201.292007 833.760010 2268.489990 
201.406998 834.116028 2268.580078 
200.507996 832.760010 2267.889893 
199.444000 832.190979 2267.000000 
199.143997 831.892029 2266.770020 
198.636993 831.648010 2266.000000 
198.817993 831.932007 2266.389893 
198.725006 831.903992 2266.179932 
198.634003 831.791016 2266.020020 
198.602005 831.585022 2265.899902 
198.539993 831.518982 2265.800049 
198.625000 831.380981 2265.550049 
198.535995 831.450989 2265.629883 
198.735992 831.299988 2265.469971 
198.520996 831.531006 2265.669922 
199.119003 831.059021 2265.139893 
198.944000 831.171997 2265.229980 
198.774994 831.320984 2265.320068 
199.912003 831.070007 2264.729980 
200.337997 831.109985 2264.560059 
199.240005 831.104004 2265.030029 
199.386002 831.046997 2265.000000 
199.490997 831.088989 2264.889893 
201.520996 831.393982 2264.149902 
202.701004 831.955017 2263.590088 
202.951996 832.596985 2263.080078 
203.113998 832.986023 2262.669922 
203.186005 833.054993 2262.570068 
202.897003 832.914978 2262.919922 
203.037994 833.103027 2262.760010 
203.199997 833.135986 2262.510010 
202.679993 832.372009 2263.379883 
202.516998 832.176025 2263.530029 
202.740997 832.711975 2263.139893 
201.460999 834.200012 2258.889893 
201.746002 833.924011 2259.300049 
201.113998 834.645996 2258.800049 
200.854996 834.942993 2258.850098 
200.417999 835.309021 2258.760010 
199.164993 835.836975 2257.020020 
199.684998 834.953003 2254.510010 
200.100006 834.232971 2252.540039 
201.664001 832.734985 2251.340088 
200.363998 833.718994 2250.850098 
203.199005 833.231995 2262.449951 
203.009003 833.567993 2262.370117 
202.936005 833.706970 2261.870117 
202.979996 833.538025 2261.610107 
202.981003 833.263977 2261.110107 
202.576996 834.429993 2262.090088 
202.626999 834.398987 2262.229980 
202.639008 834.388977 2262.350098 
202.632996 834.385010 2262.469971 
202.285995 833.614990 2260.139893 
202.518997 831.875000 2250.219971 
203.798004 830.885986 2250.199951 
200.457001 833.619019 2250.500000 
206.473999 828.870972 2249.469971 
206.266006 828.981995 2249.629883 
207.522003 827.896973 2249.469971 
203.828995 830.932983 2249.889893 
207.619003 827.939026 2249.300049 
207.651993 828.065002 2249.149902 
207.824005 827.906006 2249.159912 
208.339996 828.172974 2248.810059 
206.852005 829.304016 2248.770020 
206.841003 829.031982 2248.949951 
199.472000 839.195007 2280.770020 
199.095001 839.107971 2280.360107 
200.505997 836.614014 2272.649902 
199.464996 837.679016 2275.760010 
198.785004 838.692017 2278.540039 
198.912003 838.741028 2279.020020 
201.162994 835.767029 2269.860107 
201.554001 835.117004 2269.149902 
201.490005 835.333984 2269.310059 
201.279999 835.549011 2269.199951 
201.306000 835.559021 2269.340088 
201.201996 835.684998 2269.389893 
201.468994 835.255005 2269.120117 
201.438995 834.831970 2268.729980 
201.460999 834.958984 2268.820068 
201.404007 834.700012 2268.639893 
201.432999 834.489990 2268.610107 
201.477997 835.072021 2268.939941 
199.929001 836.908020 2271.679932 
200.858994 836.093994 2270.219971 
201.188995 833.872009 2268.379883 
200.345001 832.919983 2267.739990 
201.319000 834.327026 2268.429932 
199.294006 832.216980 2266.879883 
198.990005 831.981995 2266.600098 
198.598007 831.721008 2265.909912 
198.774002 832.007996 2266.300049 
198.664001 831.966003 2266.110107 
198.591003 831.843018 2265.969971 
198.554993 831.646973 2265.800049 
198.531998 831.635010 2265.669922 
198.634003 831.431030 2265.409912 
198.535004 831.513977 2265.500000 
198.522003 831.601013 2265.540039 
199.005997 831.228027 2265.080078 
198.820999 831.340027 2265.159912 
198.669998 831.471985 2265.250000 
199.681000 831.206970 2264.699951 
200.278000 831.221008 2264.489990 
199.320999 831.159973 2264.929932 
199.143005 831.257019 2264.979980 
199.404007 831.234985 2264.820068 
201.300003 831.590027 2264.080078 
203.098007 833.221985 2262.639893 
203.104996 833.310974 2262.560059 
202.738998 833.018982 2263.010010 
202.843994 833.135010 2262.889893 
202.824005 833.312988 2262.830078 
202.847000 833.414001 2262.729980 
202.992004 833.510986 2262.489990 
202.401001 832.398010 2263.469971 
202.570007 832.604004 2263.300049 
201.160004 831.783997 2264.030029 
202.565994 832.844971 2263.189941 
201.389008 834.357971 2259.260010 
201.001007 834.859009 2259.159912 
200.660995 835.206970 2259.110107 
199.699997 835.979004 2259.050049 
198.675995 836.596985 2258.590088 
197.156006 837.513000 2257.719971 
196.695007 837.487000 2255.790039 
197.238007 837.228027 2256.909912 
197.580994 836.596985 2254.699951 
198.317001 835.612000 2252.520020 
197.218994 836.122986 2250.850098 
202.625000 834.356995 2262.580078 
202.481995 834.487000 2261.840088 
202.822006 833.616028 2261.340088 
202.378998 834.547974 2261.520020 
201.854004 834.098999 2259.969971 
202.233994 835.091980 2261.979980 
202.292007 835.122986 2262.260010 
202.311005 835.080017 2262.439941 
202.311996 835.017029 2262.580078 
202.294006 835.000000 2262.719971 
201.675995 832.633972 2250.000000 
200.317001 833.747009 2250.229980 
197.042999 836.234009 2250.459961 
206.511002 828.888977 2249.340088 
203.779007 831.056030 2249.639893 
203.606995 831.302002 2249.419922 
201.485001 832.833984 2249.840088 
206.298004 829.206970 2249.149902 
205.350006 830.008972 2249.189941 
205.246994 830.254028 2248.989990 
208.496002 828.356995 2248.679932 
206.740997 830.872986 2248.050049 
206.776993 829.695984 2248.570068 
204.651001 831.443970 2248.510010 
204.440994 831.273987 2248.699951 
204.229996 831.239990 2248.850098 
199.621002 839.567017 2281.590088 
199.162994 839.487976 2281.229980 
198.828003 839.228027 2280.439941 
199.119003 837.921021 2275.639893 
198.492004 838.914978 2278.669922 
198.483994 839.223999 2280.070068 
200.934998 835.987000 2269.689941 
200.733994 836.161987 2269.550049 
201.057007 835.892029 2269.439941 
201.382996 835.203979 2268.860107 
201.373993 835.398987 2269.110107 
201.160995 835.711975 2269.110107 
201.220001 835.500977 2268.929932 
201.151993 835.637024 2268.889893 
201.162994 835.783997 2269.189941 
201.317993 835.341003 2268.879883 
201.348999 834.971985 2268.600098 
201.339005 834.877014 2268.560059 
201.337006 835.099976 2268.679932 
201.317993 834.791016 2268.479980 
201.298996 834.609009 2268.360107 
198.546997 838.335999 2275.010010 
199.044998 837.578003 2271.399902 
199.423996 837.143005 2269.750000 
201.091003 834.028015 2268.239990 
200.235992 833.127991 2267.580078 
201.175995 834.489990 2268.229980 
199.244995 832.310974 2266.800049 
198.932007 832.112976 2266.500000 
198.561005 831.744995 2265.810059 
198.570007 831.859009 2265.870117 
198.748993 832.093018 2266.260010 
198.630997 832.054016 2266.100098 
198.557999 831.934021 2265.959961 
198.542999 831.744995 2265.679932 
198.533005 831.721985 2265.560059 
198.565994 831.552002 2265.350098 
198.542999 831.632996 2265.399902 
198.526001 831.713989 2265.429932 
198.981003 831.411987 2265.000000 
198.817001 831.518005 2265.090088 
198.604004 831.596985 2265.219971 
199.557007 831.322021 2264.679932 
200.070007 831.330994 2264.479980 
199.257004 831.284973 2264.879883 
199.126999 831.385986 2264.899902 
199.287003 831.387024 2264.790039 
202.854004 833.533997 2262.620117 
202.507004 833.098999 2263.139893 
202.621994 833.283020 2263.010010 
202.654007 833.437012 2262.919922 
202.438995 834.153015 2262.959961 
202.528000 834.211975 2262.840088 
202.613998 834.312012 2262.669922 
202.141006 832.505005 2263.510010 
202.339996 832.669983 2263.370117 
200.994003 831.937012 2264.010010 
199.987000 831.465027 2264.459961 
200.072006 831.629028 2264.379883 
202.307007 832.882019 2263.320068 
200.901001 835.085999 2259.449951 
200.567993 835.424011 2259.399902 
200.281998 836.142029 2260.060059 
199.792999 836.645020 2260.250000 
199.589005 836.862000 2260.260010 
197.389008 837.820984 2259.649902 
195.889999 838.747986 2258.659912 
195.054001 838.875000 2256.020020 
196.399002 837.164001 2252.979980 
194.373001 838.560974 2251.770020 
194.352005 838.361023 2250.679932 
194.130997 838.497986 2250.409912 
202.294998 834.961975 2262.850098 
202.039993 835.257996 2261.560059 
202.531006 833.872986 2261.100098 
202.287994 834.570007 2261.250000 
201.925003 835.327026 2261.270020 
201.970993 835.239990 2261.120117 
201.682007 834.372986 2259.969971 
202.132996 835.302979 2261.939941 
202.210007 835.325989 2262.280029 
202.227005 835.247009 2262.530029 
202.218994 835.187988 2262.699951 
202.199997 835.125977 2262.840088 
198.360001 835.354004 2250.030029 
197.020996 836.268982 2250.189941 
193.996994 838.596985 2250.239990 
201.281998 833.057983 2249.689941 
201.339996 833.125000 2249.489990 
198.434998 835.344971 2249.850098 
201.705994 832.968018 2249.290039 
201.449005 833.291992 2249.179932 
205.587006 831.997986 2247.949951 
201.695007 833.411011 2248.959961 
201.884003 833.463013 2248.840088 
201.585999 833.335022 2249.060059 
199.496994 839.718994 2281.780029 
198.979004 839.585022 2281.270020 
198.606003 839.466980 2280.709961 
198.205002 839.177979 2278.889893 
197.675003 839.189026 2276.870117 
198.322998 839.403992 2280.260010 
200.580994 836.343994 2269.280029 
199.576004 837.033997 2269.520020 
200.733994 836.163025 2269.229980 
201.067993 835.927002 2269.120117 
201.248001 835.296021 2268.639893 
201.117004 835.799011 2268.899902 
201.128006 835.864990 2269.000000 
201.210999 835.416992 2268.689941 
201.173996 835.521973 2268.729980 
201.123993 835.658020 2268.679932 
201.078995 835.820984 2268.689941 
201.292999 835.117004 2268.530029 
201.291000 835.021973 2268.489990 
201.270004 834.953979 2268.429932 
201.259003 835.231018 2268.560059 
201.238007 834.849976 2268.340088 
201.184998 834.695984 2268.229980 
197.436005 839.359985 2275.939941 
196.904007 839.666016 2274.479980 
197.110992 839.197021 2271.810059 
197.475006 838.599976 2269.280029 
197.007996 839.038025 2268.060059 
201.052002 834.205017 2268.120117 
200.188995 833.275024 2267.479980 
201.119995 834.593994 2268.100098 
199.164993 832.393982 2266.679932 
198.869003 832.257019 2266.360107 
198.542999 831.825989 2265.709961 
198.548004 831.953979 2265.790039 
198.688004 832.205994 2266.110107 
198.572006 832.096008 2265.899902 
198.526993 831.830994 2265.560059 
198.526993 831.810974 2265.439941 
198.576004 831.658997 2265.270020 
198.546997 831.734985 2265.320068 
198.535004 831.822998 2265.350098 
199.009995 831.510010 2264.939941 
198.830994 831.601013 2265.040039 
198.666000 831.627014 2265.139893 
198.600006 831.710022 2265.159912 
199.526993 831.445984 2264.649902 
199.162003 831.510010 2264.830078 
199.322006 831.536987 2264.719971 
202.585999 834.254028 2262.739990 
202.369003 833.409973 2263.159912 
202.199005 833.244995 2263.310059 
201.942001 834.348022 2263.360107 
202.339005 834.083008 2263.060059 
202.188004 834.859985 2263.120117 
201.684998 834.890991 2263.489990 
201.628998 835.026001 2263.520020 
202.345001 834.895020 2262.949951 
200.960007 832.137024 2263.969971 
202.048996 832.726990 2263.469971 
199.723007 831.622009 2264.530029 
199.891998 831.801025 2264.419922 
201.949005 832.995972 2263.479980 
201.225006 835.427979 2260.239990 
200.968994 835.664001 2260.209961 
201.042999 836.127991 2260.909912 
201.186005 835.914001 2260.770020 
200.936996 836.294006 2261.080078 
199.447998 836.995972 2260.669922 
200.819000 836.411011 2261.209961 
196.014999 838.994995 2260.020020 
196.979996 838.351013 2260.570068 
196.791000 838.174011 2259.500000 
197.246002 838.221008 2260.750000 
197.843994 837.757996 2260.510010 
193.852005 840.508972 2259.260010 
193.145004 840.403015 2256.250000 
192.365005 840.195984 2251.899902 
191.839005 840.392029 2250.909912 
191.339005 840.784973 2250.590088 
202.210007 835.007019 2263.000000 
202.132996 835.148010 2262.949951 
201.880997 835.499023 2261.629883 
201.794006 835.538025 2261.360107 
202.037003 834.614014 2260.770020 
201.733994 835.552002 2261.139893 
201.744003 835.431030 2260.939941 
201.500000 835.109985 2260.310059 
201.960007 835.507019 2261.929932 
202.087997 835.369995 2262.340088 
201.942993 835.575012 2262.139893 
202.063995 835.341980 2262.530029 
202.110992 835.315002 2262.739990 
202.039993 835.341003 2262.820068 
196.619003 836.583984 2249.989990 
196.595001 836.638977 2249.810059 
194.886002 837.848999 2250.020020 
193.296997 839.177979 2250.139893 
192.509995 839.888000 2250.250000 
191.432007 840.737976 2250.310059 
198.509995 835.400024 2249.570068 
198.389999 835.434998 2249.699951 
198.582993 835.398010 2249.459961 
198.841003 835.270020 2249.350098 
197.856003 836.132019 2249.179932 
197.440994 836.320984 2249.280029 
203.337997 833.245972 2248.360107 
201.914001 833.619019 2248.770020 
198.317993 836.072021 2249.000000 
197.992004 836.158020 2249.090088 
198.561996 836.093018 2248.909912 
199.371002 839.851990 2281.909912 
198.919998 839.703979 2281.399902 
198.522995 839.655029 2280.929932 
197.979996 839.343994 2278.729980 
198.123993 839.492981 2280.129883 
197.233002 839.556030 2276.860107 
196.944000 839.783020 2276.070068 
198.222000 839.627014 2280.560059 
199.598007 837.073975 2269.010010 
198.666000 837.739990 2268.860107 
200.473007 836.443970 2269.030029 
200.584000 836.318970 2269.020020 
200.781006 836.151001 2269.010010 
200.940002 836.054016 2268.909912 
201.218002 835.375000 2268.510010 
201.209000 835.466980 2268.560059 
201.054993 835.963013 2268.790039 
201.171005 835.572021 2268.610107 
201.033005 835.854980 2268.530029 
201.113007 835.731995 2268.520020 
200.988998 836.007019 2268.620117 
201.244003 835.174988 2268.419922 
201.233002 835.276978 2268.449951 
201.238007 835.081970 2268.379883 
201.227997 835.007996 2268.300049 
201.203003 834.903992 2268.179932 
201.141006 834.773987 2268.060059 
196.363007 840.161011 2274.719971 
195.313995 840.682983 2272.000000 
195.442001 840.518005 2271.669922 
195.750000 840.189026 2269.379883 
196.688004 839.362976 2269.149902 
196.496002 839.465027 2266.639893 
195.244003 840.364990 2266.750000 
196.947998 839.187012 2267.060059 
200.921005 834.237000 2267.939941 
200.154007 833.411987 2267.360107 
200.916000 834.447998 2267.850098 
199.190994 832.552002 2266.649902 
199.020004 832.458984 2266.459961 
198.529007 831.906982 2265.639893 
198.593002 832.169006 2265.770020 
198.535995 832.031982 2265.669922 
198.608994 832.215027 2265.969971 
198.658005 832.299011 2265.949951 
198.761002 832.301025 2266.169922 
198.630005 832.262024 2265.860107 
198.511993 831.869995 2265.419922 
198.509003 831.911987 2265.469971 
198.526993 831.895996 2265.360107 
198.567001 831.755981 2265.219971 
198.554001 831.851990 2265.250000 
198.546005 831.924011 2265.300049 
198.998993 831.643982 2264.909912 
198.807007 831.781006 2265.010010 
198.705994 831.786987 2265.090088 
198.869003 831.663025 2265.000000 
198.585999 831.799011 2265.129883 
198.630997 831.820984 2265.100098 
199.186005 831.640015 2264.770020 
199.496994 831.721008 2264.600098 
202.046997 833.669983 2263.350098 
201.820999 834.353027 2263.459961 
201.839005 833.372009 2263.479980 
201.149002 834.984009 2263.929932 
201.216003 835.080994 2263.840088 
202.113998 835.044983 2263.129883 
201.567993 835.192017 2263.530029 
201.139008 835.198975 2263.870117 
201.097000 835.263000 2263.830078 
200.906998 832.320984 2263.949951 
199.735992 831.934021 2264.449951 
200.843994 832.539978 2263.959961 
200.667007 832.692993 2264.010010 
201.498993 835.711975 2260.889893 
201.287994 836.075012 2261.209961 
201.404999 835.926025 2261.070068 
201.229996 836.156006 2261.399902 
199.522003 837.008972 2260.909912 
200.723999 836.499023 2261.370117 
196.541000 838.758972 2260.629883 
195.509003 839.718994 2261.149902 
196.050003 839.304016 2261.379883 
197.143997 838.296997 2261.020020 
197.763000 837.901001 2260.969971 
196.865005 838.489014 2260.949951 
198.162003 837.604004 2260.669922 
194.968994 840.254028 2261.610107 
192.837997 841.489990 2261.149902 
191.264008 842.008972 2257.949951 
190.641998 841.994019 2255.239990 
189.973007 841.870972 2251.879883 
189.559006 841.971008 2250.899902 
189.759003 841.825989 2250.570068 
189.847000 841.768982 2250.250000 
202.003006 835.203003 2263.070068 
201.884995 835.364990 2262.969971 
201.731995 835.726990 2261.629883 
201.716995 835.689026 2261.449951 
201.649994 835.729980 2261.209961 
201.759003 835.724976 2261.879883 
201.985001 835.398987 2262.389893 
201.837997 835.598022 2262.330078 
201.697006 835.794006 2262.100098 
201.867004 835.632996 2262.219971 
201.934998 835.489014 2262.629883 
201.813995 835.575989 2262.510010 
201.774002 835.510010 2262.889893 
195.744995 837.166992 2249.830078 
196.610001 836.681030 2249.659912 
195.705994 837.221985 2249.699951 
195.718994 837.242981 2249.639893 
193.802994 838.767029 2249.979980 
191.429001 840.793030 2250.080078 
189.882004 841.755981 2250.050049 
196.600006 836.741028 2249.520020 
196.587006 836.809998 2249.399902 
194.462006 838.762024 2249.179932 
193.992004 839.039001 2249.260010 
195.789993 837.322998 2249.399902 
194.044998 838.892029 2249.340088 
203.266006 833.518005 2248.320068 
199.406006 835.744019 2248.810059 
199.694000 835.843018 2248.729980 
194.487000 839.093994 2249.030029 
194.207001 839.153015 2249.110107 
193.457993 840.153992 2248.989990 
194.649002 839.366028 2248.889893 
198.936996 839.843018 2281.620117 
198.541000 839.799011 2281.169922 
197.776993 839.526001 2278.719971 
198.056000 839.622986 2280.270020 
197.677002 839.656006 2278.810059 
196.565994 840.116028 2275.770020 
198.199005 839.741028 2280.729980 
197.505005 838.700989 2267.899902 
198.257004 838.171997 2268.320068 
199.544006 837.197998 2268.790039 
200.399002 836.588013 2268.860107 
200.578003 836.432983 2268.840088 
200.725998 836.249023 2268.879883 
200.929001 836.117004 2268.770020 
201.203995 835.419006 2268.370117 
201.201004 835.515991 2268.429932 
201.186996 835.612976 2268.479980 
201.014008 836.013000 2268.419922 
201.063995 835.880981 2268.379883 
201.151993 835.744995 2268.389893 
200.925003 836.179993 2268.610107 
201.003006 836.156006 2268.459961 
201.205994 835.322021 2268.330078 
201.210007 835.221985 2268.310059 
201.210999 835.129028 2268.270020 
201.199005 835.085999 2268.149902 
201.162003 834.947998 2268.000000 
200.996002 834.700012 2267.820068 
195.057999 840.929016 2271.929932 
193.209000 841.989014 2267.850098 
193.427002 841.788025 2267.830078 
193.453995 841.661987 2266.979980 
197.548004 839.033997 2265.830078 
197.722000 838.963989 2266.239990 
193.414001 841.489990 2265.310059 
194.832993 840.427979 2263.370117 
196.061005 839.606018 2264.429932 
196.078003 839.687988 2265.090088 
197.960007 838.833984 2266.590088 
198.197998 838.684021 2266.989990 
200.085999 833.539978 2267.189941 
200.792007 834.471008 2267.659912 
200.018997 833.622986 2267.030029 
199.022995 832.549011 2266.389893 
198.522003 831.987976 2265.530029 
198.667999 832.310974 2265.760010 
198.735992 832.398010 2265.899902 
198.584000 832.155029 2265.679932 
198.647995 832.281006 2265.669922 
198.567001 832.130981 2265.560059 
198.871002 832.466003 2266.189941 
198.514008 831.953003 2265.370117 
198.509003 832.004028 2265.409912 
198.542999 831.994019 2265.310059 
198.570007 831.844971 2265.169922 
198.602997 831.937988 2265.149902 
198.570007 831.953003 2265.219971 
198.585999 832.044983 2265.250000 
199.061005 831.765991 2264.820068 
198.692993 831.864014 2265.060059 
198.923996 831.849976 2264.889893 
198.835007 831.931030 2264.929932 
198.617004 831.882019 2265.100098 
198.686005 831.911011 2265.050049 
199.380005 831.820984 2264.629883 
201.445007 834.291016 2263.729980 
201.544998 834.515015 2263.649902 
201.117004 834.781006 2263.939941 
201.503998 833.711975 2263.669922 
200.914993 834.914978 2264.139893 
201.069000 835.252014 2264.040039 
201.490005 835.317993 2263.520020 
201.067993 835.314026 2263.790039 
201.044998 835.380981 2263.969971 
200.968994 835.471008 2263.929932 
199.554993 832.051025 2264.530029 
200.427002 832.809998 2264.110107 
199.464996 832.229004 2264.570068 
201.492996 835.948975 2261.439941 
201.565994 835.866028 2261.330078 
201.225006 836.177002 2261.580078 
201.483994 835.982971 2261.629883 
199.554993 837.028015 2261.129883 
200.582001 836.604980 2261.449951 
200.912994 836.390015 2261.629883 
195.320999 840.112000 2262.050049 
196.044998 839.396973 2262.469971 
195.662994 839.794983 2262.939941 
197.602997 838.005981 2261.199951 
196.856995 838.526001 2261.260010 
197.149002 838.242981 2261.250000 
198.016006 837.705994 2261.100098 
198.278000 837.562988 2260.840088 
194.296005 840.697021 2262.280029 
191.845993 842.445007 2263.790039 
190.130997 843.025024 2259.340088 
192.643997 841.953979 2263.590088 
193.171005 841.541016 2263.129883 
188.761993 843.624023 2256.750000 
188.417999 843.388000 2253.699951 
188.358002 843.021973 2251.709961 
188.598007 842.575012 2250.729980 
187.632004 843.366028 2250.479980 
188.662994 842.468994 2250.239990 
188.569000 842.541992 2250.060059 
201.376007 835.466980 2263.500000 
201.287994 835.606995 2263.419922 
201.516006 835.924988 2262.159912 
201.585999 835.809021 2262.429932 
201.453995 836.005005 2261.810059 
201.641998 835.656982 2262.790039 
201.516006 835.797974 2262.679932 
201.199005 835.737000 2263.320068 
193.852997 838.741028 2249.870117 
195.738007 837.260986 2249.580078 
193.837997 838.776978 2249.780029 
193.772995 838.866028 2249.689941 
191.354004 840.880981 2249.899902 
189.914993 841.752014 2249.899902 
188.511993 842.603027 2249.919922 
195.738998 837.299988 2249.500000 
194.149002 838.721985 2249.419922 
191.962997 840.914978 2249.260010 
191.653000 840.973022 2249.389893 
191.740005 840.794983 2249.469971 
203.639008 833.807983 2248.169922 
201.449005 834.728027 2248.699951 
194.612000 839.716980 2248.800049 
199.520996 836.487000 2248.600098 
194.630005 840.200012 2248.679932 
191.953995 841.096985 2249.179932 
190.675995 842.075989 2249.010010 
190.757004 842.244019 2248.919922 
190.945999 842.351990 2248.840088 
198.988007 839.989014 2281.840088 
198.613998 839.947021 2281.489990 
198.328003 839.919983 2281.090088 
198.085007 839.755981 2280.570068 
197.964005 839.684021 2280.139893 
197.600006 839.762024 2278.830078 
196.375000 840.317017 2275.649902 
194.901993 841.112000 2271.969971 
198.809998 838.132996 2267.790039 
198.348007 838.526001 2267.330078 
199.565002 837.525024 2268.100098 
200.382996 836.914001 2268.340088 
200.667007 836.776001 2268.250000 
200.709000 836.364990 2268.750000 
200.841995 836.666016 2268.219971 
200.839996 836.258972 2268.719971 
201.179001 835.435974 2268.209961 
201.181000 835.533997 2268.280029 
201.179993 835.643982 2268.340088 
201.251007 836.254028 2268.020020 
201.229996 836.372986 2268.060059 
201.134995 835.836975 2268.290039 
201.268005 836.161987 2267.959961 
201.154007 835.755981 2268.229980 
201.160004 836.445984 2268.169922 
201.089005 836.495972 2268.179932 
201.184998 835.335999 2268.209961 
201.188995 835.237000 2268.179932 
201.179001 835.244995 2268.030029 
201.188995 835.127014 2267.969971 
201.003998 834.861023 2267.719971 
201.121994 835.085999 2267.739990 
200.850998 834.716980 2267.520020 
193.061005 842.133972 2267.919922 
191.942001 842.562012 2265.129883 
191.766006 842.721985 2265.239990 
190.416000 843.120972 2261.590088 
197.729004 838.914978 2265.580078 
199.386993 838.216980 2266.669922 
199.313004 838.236023 2266.489990 
199.292999 838.263000 2266.810059 
195.852997 839.564026 2263.669922 
196.246994 839.265991 2263.850098 
196.399002 839.320007 2264.229980 
197.753998 838.883972 2265.409912 
199.382996 838.181030 2266.979980 
199.388000 838.125977 2267.169922 
199.964005 833.742004 2266.830078 
198.570007 832.146973 2265.449951 
198.755997 832.468994 2265.770020 
198.923004 832.681030 2265.989990 
198.951996 832.640015 2266.139893 
198.660995 832.327026 2265.550049 
198.748993 832.487976 2265.639893 
199.964005 833.924011 2266.600098 
198.563995 832.078979 2265.340088 
198.623993 832.221008 2265.379883 
198.634003 832.163025 2265.270020 
198.645004 832.073975 2265.169922 
198.660995 831.958008 2265.070068 
198.686005 832.065002 2265.100098 
198.690002 832.218018 2265.209961 
199.272003 831.911011 2264.649902 
199.033997 831.918030 2264.780029 
199.026993 832.028992 2264.750000 
198.862000 831.991028 2264.889893 
198.751999 831.989990 2264.989990 
201.052002 834.245972 2263.979980 
201.082001 834.570984 2263.949951 
200.897003 834.635986 2264.110107 
200.225998 832.963013 2264.229980 
200.727005 834.638000 2264.260010 
200.936996 835.137024 2264.149902 
200.910004 835.286011 2264.219971 
200.677002 834.789001 2264.360107 
200.792007 835.036011 2264.290039 
200.960999 835.450989 2264.129883 
201.014999 835.431030 2263.750000 
200.942993 835.494019 2263.870117 
200.929993 835.512024 2264.050049 
200.839996 835.625000 2263.989990 
200.835999 835.564026 2264.080078 
199.251999 832.072021 2264.639893 
199.233994 832.273010 2264.679932 
201.313004 836.116028 2261.820068 
199.572998 837.020020 2261.350098 
200.561996 836.611023 2261.620117 
200.992004 836.328979 2261.800049 
196.171997 839.260010 2262.449951 
196.744995 838.424011 2263.000000 
196.225006 839.195984 2263.489990 
197.449997 838.031982 2261.449951 
197.856995 837.775024 2261.389893 
197.037003 838.289001 2261.469971 
196.927002 838.231018 2262.090088 
198.154007 837.612000 2261.219971 
198.449005 837.497009 2261.040039 
187.889999 844.307983 2256.689941 
185.626999 845.171021 2252.469971 
186.953003 844.508972 2253.770020 
189.903000 843.409973 2260.939941 
185.828995 844.895020 2251.870117 
186.718002 844.291016 2251.520020 
187.393997 843.619995 2250.939941 
187.279999 843.674011 2250.179932 
185.755997 844.791992 2250.969971 
185.742996 844.794006 2250.520020 
187.264008 843.692993 2249.969971 
200.973999 835.557007 2263.719971 
200.921997 835.681030 2263.709961 
201.255005 836.122009 2262.080078 
201.266006 836.036987 2262.419922 
201.108002 835.856995 2263.189941 
200.945007 836.005005 2263.090088 
200.817993 835.802979 2263.669922 
193.778000 838.908020 2249.590088 
191.414001 840.853027 2249.739990 
191.429993 840.879028 2249.639893 
189.944000 841.755981 2249.760010 
188.490997 842.645020 2249.790039 
187.240997 843.734985 2249.800049 
193.772995 838.971985 2249.500000 
191.490997 840.880981 2249.560059 
190.414993 841.997009 2249.110107 
190.242004 841.973999 2249.189941 
190.197006 841.888000 2249.270020 
190.007004 841.916992 2249.350098 
202.033005 835.224976 2248.540039 
203.522003 834.405029 2248.199951 
191.113007 842.632996 2248.719971 
200.098007 836.820984 2248.479980 
195.600006 840.109009 2248.550049 
190.656006 843.405029 2248.590088 
188.878998 843.067017 2249.010010 
186.955994 844.752991 2248.939941 
187.227997 844.804016 2248.840088 
187.175995 845.216003 2248.719971 
198.983002 840.117004 2281.959961 
198.591003 840.075012 2281.600098 
198.257004 840.026978 2281.100098 
198.052002 839.895020 2280.639893 
197.947006 839.780029 2280.229980 
197.714005 839.818970 2279.330078 
197.179993 840.007019 2277.810059 
196.210007 840.494995 2275.479980 
194.731995 841.297974 2271.850098 
192.945007 842.265991 2267.959961 
200.270996 837.354980 2267.649902 
200.925995 836.987000 2267.649902 
201.074005 836.887024 2267.610107 
200.998993 836.557007 2268.199951 
201.130005 836.804993 2267.699951 
201.160995 835.570007 2268.120117 
201.160995 835.526978 2268.040039 
201.164993 835.426025 2268.100098 
201.156998 835.658020 2268.189941 
201.427002 836.520996 2267.639893 
201.457993 836.479980 2267.560059 
201.358002 836.565002 2267.709961 
201.292007 836.109009 2267.899902 
201.451996 836.421021 2267.560059 
201.313004 836.052979 2267.840088 
201.309998 836.643982 2267.689941 
201.240997 836.718994 2267.709961 
201.169998 835.349976 2268.080078 
201.192001 835.278992 2267.800049 
201.181000 835.401978 2267.870117 
200.893997 835.215027 2266.719971 
201.218002 835.487000 2267.270020 
200.806000 835.046021 2266.800049 
191.677994 842.828979 2265.320068 
189.802002 843.601013 2261.270020 
189.860001 843.505005 2261.179932 
199.604996 838.018982 2266.500000 
199.199997 838.245972 2266.290039 
200.151993 837.648010 2266.820068 
200.309006 837.502014 2267.060059 
200.317001 837.504028 2266.969971 
200.100006 837.642029 2267.139893 
196.440002 839.008972 2263.699951 
196.548004 839.039001 2264.000000 
197.992004 838.726013 2265.399902 
199.593002 837.984009 2266.399902 
200.404007 837.361023 2267.429932 
198.688995 832.380005 2265.459961 
198.919006 832.739990 2265.820068 
199.692001 833.846985 2265.979980 
199.813995 833.929016 2266.199951 
198.802002 832.606995 2265.520020 
198.914993 832.789978 2265.659912 
198.671005 832.265991 2265.310059 
198.746002 832.445984 2265.389893 
198.772003 832.406006 2265.239990 
198.742996 832.237976 2265.129883 
198.742996 832.098022 2265.040039 
198.772995 832.237000 2265.090088 
198.815994 832.429993 2265.179932 
198.994995 832.125000 2264.820068 
198.865005 832.124023 2264.939941 
200.820007 834.437012 2264.139893 
200.718002 834.226990 2264.209961 
200.039993 833.072998 2264.360107 
200.638000 834.434021 2264.290039 
200.546997 834.544006 2264.409912 
200.789993 835.247009 2264.360107 
200.800003 835.388000 2264.310059 
200.669006 835.007019 2264.449951 
200.582993 834.773987 2264.489990 
200.830002 835.500977 2264.199951 
200.893005 835.603027 2263.850098 
200.768005 835.734985 2264.120117 
200.770004 835.656982 2264.169922 
200.791000 835.706970 2263.979980 
200.763000 835.594971 2264.219971 
199.151993 832.348999 2264.770020 
199.600006 836.976013 2261.560059 
200.492996 836.599976 2261.770020 
200.959000 836.317017 2261.959961 
196.682007 838.505005 2262.389893 
196.673996 838.486023 2262.780029 
196.987000 838.242981 2263.199951 
197.438004 837.513977 2262.780029 
197.121002 837.828979 2262.620117 
197.602005 837.460999 2263.010010 
197.679993 837.645020 2261.949951 
197.283005 837.853027 2261.979980 
198.072006 837.619019 2261.560059 
197.054001 838.034973 2262.030029 
197.341995 837.572998 2262.590088 
197.270996 837.664978 2262.429932 
198.436005 837.442017 2261.379883 
187.841003 844.431030 2257.040039 
185.535995 845.322998 2252.830078 
184.766006 845.508972 2251.300049 
184.940994 845.330994 2251.080078 
185.673996 844.859985 2250.209961 
184.953995 845.294006 2250.719971 
184.779999 845.429993 2250.370117 
184.764008 845.442993 2250.649902 
185.643005 844.914978 2249.949951 
200.848999 835.690979 2263.830078 
200.774994 835.771973 2263.850098 
201.022003 836.228027 2262.250000 
200.748993 836.177002 2262.919922 
200.653000 835.952026 2263.659912 
200.472000 836.124023 2263.610107 
200.656006 835.877991 2263.889893 
189.985992 841.763000 2249.639893 
190.078995 841.755981 2249.530029 
188.507996 842.674011 2249.669922 
187.242996 843.770020 2249.669922 
185.606003 844.981018 2249.750000 
190.087997 841.799988 2249.429932 
186.750000 844.575012 2249.110107 
188.796005 842.804993 2249.239990 
186.507004 844.661987 2249.179932 
186.559006 844.469971 2249.330078 
188.589996 842.745972 2249.449951 
191.289993 843.721008 2248.479980 
186.832001 845.965027 2248.610107 
187.843002 846.119995 2248.439941 
186.389008 844.979980 2249.040039 
185.500000 845.906006 2248.939941 
185.188995 845.776978 2249.090088 
185.656998 846.054993 2248.850098 
199.024002 840.254028 2282.090088 
198.660995 840.200989 2281.750000 
198.352005 840.172974 2281.320068 
198.057999 840.096985 2280.790039 
197.925003 839.931030 2280.330078 
197.686005 839.960022 2279.429932 
197.080994 840.166992 2277.830078 
196.807007 840.140991 2277.010010 
196.130997 840.614014 2275.479980 
194.673996 841.403992 2271.929932 
192.854996 842.392029 2267.979980 
191.587006 842.940979 2265.340088 
201.035995 836.968018 2267.439941 
201.190002 836.872986 2267.389893 
201.248993 836.801025 2267.520020 
201.337006 836.010986 2267.750000 
201.345993 835.953979 2267.669922 
201.171997 835.484009 2267.929932 
201.348007 835.885010 2267.590088 
201.464005 836.549011 2267.510010 
201.410004 836.619019 2267.570068 
201.490997 836.505005 2267.389893 
201.485001 836.445984 2267.409912 
201.459000 836.377014 2267.500000 
201.470993 836.338013 2267.419922 
201.332001 836.715027 2267.550049 
201.278000 835.629028 2267.379883 
201.324997 835.778992 2267.489990 
201.201004 835.684998 2266.780029 
200.925995 835.481018 2266.320068 
200.656006 835.403992 2265.760010 
200.473007 835.158020 2265.520020 
200.563004 835.370972 2265.540039 
200.449005 834.968994 2265.820068 
201.322998 835.814026 2266.969971 
189.779007 843.679993 2261.419922 
187.761993 844.557983 2257.189941 
200.533997 837.346008 2266.780029 
200.684006 837.239990 2267.070068 
200.947998 837.043030 2266.939941 
200.979996 837.010010 2267.090088 
200.985001 837.012024 2267.250000 
196.953995 838.656006 2263.850098 
197.317993 837.971985 2263.459961 
198.186996 838.422974 2265.129883 
198.102005 838.598999 2265.310059 
200.173996 837.518982 2266.459961 
198.906006 832.757996 2265.469971 
199.615005 833.793030 2265.820068 
200.309006 834.843994 2265.580078 
199.544998 833.713989 2265.500000 
199.570999 833.754028 2265.649902 
198.800995 832.500000 2265.320068 
198.981003 832.843018 2265.389893 
199.026001 832.815979 2265.239990 
199.031006 832.877991 2265.310059 
198.914001 832.551025 2265.159912 
198.834000 832.257019 2265.030029 
198.904007 832.455017 2265.080078 
199.009995 832.338013 2264.889893 
200.472000 834.203003 2264.389893 
199.858994 833.189026 2264.500000 
200.401993 834.296997 2264.469971 
200.466003 834.552002 2264.550049 
200.660995 835.258972 2264.489990 
200.725006 835.518005 2264.340088 
200.658005 835.401001 2264.469971 
200.608002 835.104980 2264.560059 
200.554001 834.924988 2264.600098 
200.501007 834.737000 2264.649902 
200.701004 835.841003 2264.239990 
200.709000 835.754028 2264.290039 
200.707993 835.818970 2264.120117 
200.684006 835.653992 2264.370117 
200.738007 835.770020 2263.959961 
199.653000 836.888977 2261.810059 
200.584000 836.481018 2262.050049 
197.824997 837.299011 2263.469971 
197.662994 837.289978 2262.840088 
197.774002 837.226013 2263.070068 
197.852005 837.210022 2263.370117 
197.955002 837.471985 2262.000000 
197.589005 837.411987 2262.520020 
197.748001 837.260986 2262.590088 
197.886002 837.255981 2262.459961 
198.194000 837.301025 2262.080078 
197.585007 837.385010 2262.629883 
197.729996 837.221008 2262.820068 
185.507996 845.409973 2253.050049 
184.589005 845.679993 2251.229980 
184.677002 845.528992 2250.780029 
184.701004 845.489014 2250.070068 
184.578003 845.580994 2250.070068 
184.552994 845.601013 2250.409912 
184.740997 845.504028 2249.810059 
200.664993 835.859985 2264.040039 
200.514999 836.351990 2262.729980 
200.337997 836.265991 2263.409912 
200.505005 836.031006 2263.850098 
200.348007 836.205994 2263.820068 
200.406998 836.130981 2263.830078 
200.570007 835.966980 2264.120117 
188.554993 842.690979 2249.560059 
187.238007 843.823975 2249.570068 
185.591003 845.031006 2249.590088 
184.804001 845.487000 2249.699951 
184.860001 845.484985 2249.580078 
185.028000 845.757019 2249.149902 
184.931000 845.723999 2249.209961 
186.404999 844.646973 2249.239990 
187.296997 843.898010 2249.350098 
185.673004 845.052979 2249.459961 
184.947998 845.560974 2249.350098 
187.242996 843.874023 2249.449951 
190.932007 846.931030 2248.159912 
186.895004 846.585022 2248.510010 
185.914993 846.271973 2248.739990 
189.625000 847.869995 2248.169922 
185.067993 845.976990 2249.040039 
184.934006 845.893005 2249.110107 
185.203003 846.143005 2248.949951 
198.688995 840.328979 2281.830078 
198.397003 840.293030 2281.409912 
198.078995 840.252014 2280.870117 
197.897995 840.093994 2280.409912 
197.639008 840.135986 2279.479980 
197.003998 840.317017 2277.850098 
196.016998 840.755981 2275.350098 
194.643005 841.486023 2272.020020 
192.852005 842.471008 2268.100098 
191.526001 843.036987 2265.389893 
189.723007 843.770996 2261.469971 
201.261993 836.817993 2267.320068 
201.207001 836.862000 2267.169922 
201.324997 836.754028 2267.360107 
201.473999 836.278015 2267.370117 
201.462006 836.197998 2267.320068 
201.447998 836.093018 2267.250000 
201.473999 836.567017 2267.280029 
201.445999 836.607971 2267.389893 
201.391006 836.677002 2267.399902 
201.494003 836.518982 2267.199951 
201.511993 836.455994 2267.250000 
201.494995 836.398010 2267.330078 
201.503998 836.338013 2267.290039 
201.399994 835.973999 2267.120117 
201.289001 835.843994 2266.810059 
200.983994 835.643982 2266.260010 
200.636002 835.604980 2265.479980 
200.714996 835.627991 2265.629883 
200.395004 835.091980 2265.379883 
200.487000 835.330017 2265.379883 
200.559998 835.520996 2265.350098 
201.378006 835.966980 2266.959961 
187.755997 844.645020 2257.399902 
185.492004 845.492981 2253.219971 
185.501999 845.565002 2253.399902 
200.757004 837.116028 2266.699951 
200.835007 837.132019 2266.870117 
200.996994 836.966003 2266.820068 
201.143997 836.867981 2266.929932 
201.175995 836.870972 2267.020020 
197.352005 838.513977 2264.179932 
197.582001 837.815979 2263.739990 
197.936996 837.255005 2263.659912 
197.826996 837.294983 2263.580078 
198.729004 838.166992 2265.429932 
200.160004 837.419983 2266.260010 
200.235001 837.260986 2266.100098 
200.651993 837.106995 2266.520020 
199.550995 833.700989 2265.370117 
200.216003 834.737976 2265.520020 
200.212997 834.781006 2265.250000 
200.296005 834.931030 2265.330078 
199.570007 833.685974 2265.250000 
199.589996 833.567993 2265.040039 
199.619995 833.538025 2264.969971 
199.585999 833.638977 2265.129883 
199.636993 833.481018 2264.879883 
199.675995 833.325012 2264.729980 
199.649002 833.401001 2264.800049 
199.748001 833.260986 2264.620117 
200.307999 834.281006 2264.610107 
200.330994 834.445007 2264.729980 
200.591003 835.317993 2264.600098 
200.587006 835.206970 2264.639893 
200.643005 835.559998 2264.479980 
200.602997 835.500000 2264.590088 
200.587997 835.388977 2264.669922 
200.563995 835.085999 2264.689941 
200.505997 834.909973 2264.750000 
200.438004 834.710999 2264.800049 
200.690994 835.838013 2264.379883 
200.632004 835.906982 2264.350098 
200.639008 835.911011 2264.239990 
200.673996 835.763000 2264.429932 
200.647003 835.677979 2264.489990 
200.638000 835.614014 2264.570068 
199.057007 836.908020 2262.330078 
197.931000 837.190979 2263.540039 
198.018005 837.164978 2263.610107 
197.860992 837.130005 2263.070068 
197.901993 837.116028 2263.199951 
197.962006 837.104980 2263.320068 
198.011002 837.124023 2263.520020 
198.005997 837.104004 2263.439941 
197.764999 837.215027 2262.739990 
197.934006 837.125977 2262.750000 
197.968002 837.090027 2262.929932 
198.143997 837.036011 2262.780029 
199.166000 836.697998 2262.949951 
198.003006 837.052002 2263.100098 
184.473999 845.830994 2251.439941 
184.457001 845.702026 2250.560059 
184.343994 845.823975 2250.689941 
184.440994 845.695007 2250.020020 
184.393997 845.726013 2250.239990 
184.630005 845.612976 2249.810059 
200.591995 835.956970 2264.260010 
200.143005 836.385010 2263.270020 
200.231003 836.310974 2263.570068 
200.393997 836.122009 2264.030029 
200.136002 836.315979 2263.840088 
200.195999 836.234985 2264.070068 
200.440002 836.075012 2264.280029 
200.503998 836.020020 2264.370117 
184.901001 845.505981 2249.459961 
184.677994 845.632019 2249.629883 
184.664001 845.934021 2249.209961 
184.692993 845.843994 2249.270020 
184.761993 845.710022 2249.330078 
184.735001 845.632996 2249.469971 
186.253998 846.643982 2248.639893 
189.065994 848.174988 2248.219971 
185.417999 846.385010 2248.850098 
184.904999 846.161987 2249.030029 
184.806000 846.033997 2249.100098 
184.936005 846.309021 2248.979980 
198.613998 840.492981 2281.739990 
198.332001 840.445984 2281.320068 
198.106003 840.390991 2280.919922 
197.910995 840.237000 2280.500000 
197.638000 840.293030 2279.590088 
196.957993 840.479980 2277.870117 
195.919998 840.890015 2275.239990 
194.654007 841.546997 2272.159912 
192.875000 842.538025 2268.270020 
191.472000 843.127014 2265.439941 
