159.576 1077.05 2530.15
160.798 1077.11 2532.19
160.75 1104.52 2514.03
160.739 1103.43 2515.79
161.346 1102.24 2516.09
161.359 1100.78 2518.16
161.595 1101.69 2516.17
161.801 1100.32 2516.66
161.885 1100.75 2516.19
161.815 1101.3 2515.99
158.281 1098.81 2522.71
158.298 1098.47 2522.48
158.299 1098.78 2522.53
161.435 1100.37 2518.07
161.082 1100.9 2519.32
161.218 1100.49 2518.99
161.451 1100.03 2518.06
160.908 1100.75 2519.57
160.716 1100.6 2519.77
159.852 1099.99 2520.54
158.404 1098.97 2522.12
158.519 1098.97 2521.93
158.488 1099.15 2521.93
158.379 1098.84 2522.24
158.916 1099.38 2521.41
158.643 1099.11 2521.73
158.765 1099.19 2521.58
158.339 1098.74 2522.38
170.739 1108.81 2490.01
165.475 1105.52 2489.59
161.645 1103.76 2490.33
161.593 1106.55 2491.94
161.207 1105.82 2492
160.781 1104.73 2491.7
160.652 1103.82 2491.11
161.493 1108.48 2492.92
161.636 1108.01 2492.62
161.401 1108.26 2492.99
161.132 1108.13 2493.36
161.231 1108.3 2493.24
159.791 1109.26 2494.87
159.639 1109.28 2495.12
159.525 1109.18 2495.48
159.554 1109.22 2495.34
160.252 1109.03 2494.38
160.744 1108.54 2493.89
160.975 1108.22 2493.59
160.875 1108.24 2493.76
163.628 1102.04 2511.7
162.84 1101.57 2509.13
163.444 1101.69 2511.06
163.391 1102.68 2512.64
163.511 1102.46 2512.69
163.255 1102.91 2512.49
163.656 1102.04 2512.34
163.677 1101.83 2512.29
163.592 1102.17 2512.81
161.665 1100.53 2506.85
160.541 1098.71 2505.12
157.667 1099.13 2501.72
159.719 1098.15 2503.96
156.526 1099.21 2500.16
156.746 1098.7 2500.63
156.397 1099.74 2499.69
154.928 1098.35 2497.52
155.003 1097.96 2498.02
156.471 1101.36 2498.17
155.074 1098.98 2497.14
157.993 1103.99 2498.77
156.44 1101.52 2497.63
159.363 1108.7 2497.61
159.38 1108.93 2497.32
159.33 1108.45 2497.85
159.648 1107.99 2497.81
160.2 1107.73 2497.1
160.441 1107.34 2496.53
160.404 1107.5 2496.66
160.386 1107.14 2496.64
160.497 1107.15 2496.35
160.359 1107.62 2496.76
160.428 1106.8 2496.34
160.57 1106.94 2496.07
160.482 1106.56 2495.98
159.481 1105.71 2497.23
159.301 1105.28 2497.01
158.533 1104.76 2498.04
160.222 1106.15 2496.13
160.171 1106.28 2496.4
160.74 1106.36 2494.31
158.112 1104.11 2498.13
159.51 1109.01 2496.32
159.516 1109.12 2495.65
159.443 1108.97 2496.96
162.189 1104.19 2510.81
163.043 1103.16 2512.49
162.207 1104.13 2511.78
162.119 1104.12 2512.43
161.246 1104.68 2512.61
154.335 1087.73 2524.24
154.635 1086.9 2524.75
155.102 1085.85 2525.05
156.122 1084.37 2526.21
157.233 1082.32 2526.52
157.444 1081.82 2526.73
157.929 1080.14 2527.51
158.778 1077.62 2528.59
158.509 1077.94 2527.94
158.54 1077.93 2528.13
159.121 1077.21 2529.28
159.333 1077 2529.63
158.326 1098.39 2522.25
158.209 1097.86 2522.02
157.593 1096.48 2522
155.291 1091.81 2522.25
154.681 1090.45 2522.24
154.181 1088.96 2523.33
154.188 1088.4 2523.81
154.321 1089.57 2522.77
154.256 1089.25 2522.91
154.607 1090.1 2522.17
161.928 1075.02 2529.36
161.824 1074.88 2529.22
161.814 1074.65 2529.23
161.932 1075.21 2529.4
159.736 1076.86 2530.26
160.804 1076.96 2532.05
161.134 1104.53 2513.32
160.934 1104.06 2514.67
160.955 1103.59 2515.3
161.182 1102.89 2515.75
161.566 1102.35 2515.72
161.585 1101.94 2516
161.742 1101.86 2515.82
161.975 1099.82 2516.37
162.036 1101.09 2515.76
162.261 1100.29 2515.53
161.977 1101.51 2515.66
161.78 1099.64 2516.98
160.95 1100.39 2519.43
161.055 1100.48 2519.28
161.129 1100.24 2519.09
161.419 1099.72 2518.09
161.89 1099.38 2516.72
160.719 1100.33 2519.73
159.843 1099.67 2520.45
158.425 1098.58 2521.99
158.703 1098.81 2521.57
158.567 1098.39 2521.58
158.912 1099.06 2521.31
168.151 1104.91 2486.63
163.326 1103.87 2489.17
160.42 1102.79 2490.3
161.463 1106.83 2492.23
160.971 1105.67 2492.27
161.31 1106.62 2492.38
160.349 1104.52 2492.09
159.927 1103.49 2491.53
161.494 1107.77 2492.7
161.317 1107.92 2493.02
161.401 1107.57 2492.76
161.099 1107.97 2493.42
161.223 1107.7 2493.16
160.222 1108.91 2494.52
159.759 1109.17 2494.97
159.613 1109.17 2495.24
159.542 1109.11 2495.46
160.616 1108.6 2494.13
160.762 1108.36 2493.96
160.978 1107.99 2493.63
160.85 1108.07 2493.88
163.661 1101.66 2512.03
162.011 1100.33 2507.7
163.233 1101.16 2510.59
163.558 1101.34 2511.74
163.381 1102.51 2513.21
163.294 1102.81 2513.04
163.491 1102.31 2513.21
163.124 1103.04 2513.01
163.623 1101.88 2512.9
163.657 1101.56 2512.59
163.538 1102.06 2513.3
160.718 1097.61 2505.76
160.481 1097.68 2505.19
159.651 1096.37 2503.9
157.768 1095.65 2501.63
157.918 1097.66 2501.88
155.73 1096.01 2499.33
158.021 1096.27 2501.87
155.527 1097.47 2499.15
155.009 1097.35 2498.29
154.665 1097.93 2496.97
154.627 1097.46 2497.35
154.418 1097.14 2496.74
154.634 1097.01 2497.61
154.837 1098.68 2495.17
154.453 1097.68 2495.12
156.812 1102.16 2497.37
155.196 1099.46 2494.96
159.453 1108.84 2497.27
159.453 1108.55 2497.55
159.727 1108.14 2497.53
160.164 1107.86 2497.05
160.314 1107.74 2496.82
160.543 1107.41 2496.16
160.604 1107.23 2495.98
160.489 1107.58 2496.29
160.891 1107.16 2494.62
160.441 1107.72 2496.41
160.619 1106.75 2495.77
160.931 1107.02 2494.48
160.867 1106.61 2494.27
159.732 1105.05 2495.05
160.313 1105.72 2494.82
158.247 1104.05 2497.44
160.576 1105.95 2494.17
161.056 1106.68 2493.16
160.933 1106.2 2492.95
156.336 1101.32 2495.88
159.571 1108.91 2496.27
159.539 1109.04 2495.62
159.525 1108.86 2496.94
162.935 1103.26 2513.1
162.068 1104.07 2512.95
162.834 1103.33 2513.51
154.427 1087.47 2524.18
154.766 1086.53 2524.66
155.219 1085.52 2524.7
155.918 1084.54 2525.62
157.244 1082.17 2526.12
157.443 1081.71 2526.54
157.957 1079.87 2527.27
158.64 1077.61 2528.04
158.901 1077.33 2528.67
158.431 1077.95 2527.53
158.5 1077.75 2527.76
159.232 1076.97 2529.3
159.518 1076.79 2529.73
158.339 1098.06 2521.86
157.868 1096.88 2521.7
155.519 1092 2521.77
154.981 1090.75 2521.66
154.241 1088.89 2523.06
154.22 1088.41 2523.6
154.475 1089.71 2522.33
154.391 1089.26 2522.58
154.954 1090.51 2521.55
154.78 1090.07 2521.7
161.922 1075.37 2529.42
161.894 1075.46 2529.48
161.521 1074.49 2528.89
161.709 1075.13 2529.04
161.572 1075.02 2528.88
161.466 1074.85 2528.78
161.687 1075.33 2529.03
159.853 1076.71 2530.29
160.837 1076.8 2531.91
161.898 1104.05 2513.31
161.771 1103.85 2513.96
161.792 1103.61 2514.37
161.854 1103.34 2514.68
161.931 1103.05 2514.89
162.074 1102.75 2515
162.241 1102.46 2515.01
162.381 1102.18 2515.01
162.448 1099.55 2515.44
162.627 1101.57 2514.93
162.761 1101.22 2514.79
162.94 1100.96 2514.52
162.531 1101.91 2514.96
161.022 1100.02 2519.21
160.776 1100.08 2519.58
161.136 1100.06 2519.04
161.347 1099.39 2518.1
162.174 1098.7 2516.06
162.293 1098.97 2515.88
159.829 1099.22 2520.28
158.862 1098.62 2521.2
158.44 1097.9 2521.44
158.778 1098.11 2521
172.492 1105.86 2485.02
167.024 1100.77 2482.41
164.646 1100.78 2483.79
162.509 1101.93 2486.75
158.771 1101.75 2490.65
159.895 1100.38 2486.95
160.719 1105.53 2492.65
161.071 1106.27 2492.62
161.274 1106.91 2492.67
160.015 1104.54 2492.76
159.267 1103.22 2492.08
161.299 1107.38 2492.88
161.099 1107.75 2493.43
161.156 1107.43 2493.2
161.221 1107.25 2493.01
160.172 1108.81 2494.7
160.584 1108.52 2494.35
159.697 1109.1 2495.12
159.583 1109.05 2495.4
160.679 1108.4 2494.2
160.75 1108.23 2494.07
160.984 1107.77 2493.67
160.929 1107.9 2493.79
160.793 1107.99 2494.1
160.864 1107.85 2493.99
160.944 1107.7 2493.88
163.623 1101.25 2512.34
162.25 1099.47 2509.14
161.142 1097.11 2507.45
162.871 1099.57 2510.87
163.078 1099.67 2511.65
163.07 1099.37 2512.16
163.262 1102.65 2513.47
163.328 1102.42 2513.59
163.171 1102.91 2513.37
163.387 1102.3 2513.66
163.024 1103.08 2513.46
163.612 1101.57 2513
163.572 1101.79 2513.32
163.606 1101.23 2512.77
163.394 1102.02 2513.76
160.066 1096.31 2504.64
160.459 1096.59 2505.41
157.213 1094.7 2501.15
158.475 1095.07 2502.76
155.505 1094.1 2498.95
155.065 1095.61 2498.35
154.713 1095.31 2497.71
154.225 1096.85 2495.32
154.411 1096.67 2497.08
154.264 1096.48 2496.52
154.102 1096.13 2495.33
154.442 1095.07 2497.1
153.478 1096.67 2491.27
153.22 1096.17 2491.41
153.964 1096.67 2493.5
153.112 1095.84 2491.61
153.979 1097.44 2491.29
159.535 1108.67 2497.22
159.827 1108.2 2497.29
160.204 1107.95 2496.87
160.335 1107.84 2496.68
160.811 1107.46 2494.91
160.846 1107.32 2494.83
160.888 1107.2 2494.7
160.757 1107.62 2495.02
161.047 1107.53 2493.52
160.989 1107.53 2493.8
161.08 1107.29 2493.43
160.448 1107.86 2496.25
160.719 1107.72 2495.13
160.952 1106.85 2494.3
161.094 1106.99 2493.37
159.172 1104.45 2495.39
160.562 1105.5 2493.02
156.931 1102.03 2495.7
161.143 1107.07 2493.16
161.161 1106.79 2492.91
154.499 1098.12 2491.27
159.625 1108.95 2495.53
159.638 1108.81 2496.19
159.621 1108.69 2496.92
162.64 1103.39 2513.75
162.9 1103.14 2513.76
154.417 1087.59 2523.95
154.984 1086.02 2524.4
156.07 1084.1 2524.31
155.876 1084.49 2524.92
156.814 1082.95 2525.73
157.339 1081.93 2525.71
157.491 1081.54 2526.27
157.972 1079.7 2527.07
158.531 1077.6 2527.64
158.686 1077.44 2528
158.991 1077.12 2528.69
158.45 1077.69 2527.41
158.414 1077.97 2527.27
158.032 1079.48 2526.87
159.332 1076.8 2529.29
159.684 1076.64 2529.79
157.515 1095.8 2521.24
155.99 1092.47 2521.14
155.294 1091.08 2521.27
154.352 1088.8 2522.81
154.274 1088.42 2523.35
154.672 1089.58 2521.88
154.819 1089.89 2521.57
154.635 1089.18 2522.09
155.098 1090.48 2521.27
155.368 1090.93 2521.01
161.668 1075.46 2529.13
161.88 1075.52 2529.58
161.633 1075.55 2529.26
161.323 1074.47 2528.57
161.357 1074.08 2528.64
161.334 1074.71 2528.58
161.453 1075.22 2528.65
161.376 1075.05 2528.54
161.286 1074.89 2528.39
161.485 1075.38 2528.77
159.861 1076.52 2530.02
160.563 1076.6 2531.21
162.655 1103.27 2513.98
162.693 1103.15 2514.12
162.824 1102.92 2514.2
162.952 1102.66 2514.28
163.057 1102.46 2514.21
163.035 1102.19 2514.33
163.055 1100.78 2514.27
162.749 1099.34 2514.79
162.569 1098.95 2515.31
163.19 1102.01 2514.19
163.282 1101.96 2514.05
163.338 1101.8 2513.93
160.819 1099.69 2519.34
161.719 1098.72 2517.02
162.595 1098.46 2515.26
162.503 1098.15 2515.32
162.638 1098.14 2515.01
162.692 1098.54 2515.02
159.794 1098.61 2519.98
158.109 1095.96 2520.3
159.558 1097.65 2519.56
170.634 1103.38 2483.01
165.471 1098.99 2481.17
163.023 1097.45 2481.25
163.024 1096.92 2480.63
161.345 1098.11 2482.73
158.695 1097.87 2483.94
156.68 1100.08 2490.7
157.505 1098.65 2486.86
156.888 1096.84 2484.15
158.587 1103.01 2493.01
160.076 1108.76 2494.9
160.543 1108.44 2494.55
160.659 1108.31 2494.4
159.682 1108.99 2495.28
160.733 1108.17 2494.22
160.782 1107.93 2494.29
162.915 1098.64 2512.84
163.094 1099.39 2513.35
161.714 1096.12 2509.45
162.074 1095.96 2510.43
160.682 1094.97 2507.13
161.273 1094.67 2508.8
162.413 1097.35 2511.37
162.21 1095.57 2511.29
162.198 1095.38 2511.6
163.154 1102.84 2513.62
163.221 1102.6 2513.74
163.278 1102.41 2513.79
163.295 1102.32 2513.85
163.304 1102.18 2513.93
163.053 1102.97 2513.71
163.57 1101.31 2513.14
163.532 1101.52 2513.42
163.424 1101.69 2513.73
163.265 1100.27 2513.39
159.702 1095.53 2504.39
155.439 1093.29 2499.11
157.393 1093.85 2501.82
154.943 1093.63 2498.1
154.58 1093.5 2497.4
153.938 1096.21 2493.86
154.247 1094.91 2496.49
154.102 1095.15 2495.61
154.009 1094.34 2494.9
154.355 1093.45 2496.78
152.286 1094.85 2489.59
152.084 1094.43 2489.72
151.938 1094.06 2489.88
152.871 1095.28 2491.49
153.783 1096.2 2493.23
152.83 1094.96 2491.62
151.772 1093.55 2489.91
152.753 1095.56 2489.44
159.864 1108.32 2497.06
160.252 1108.06 2496.62
160.359 1107.94 2496.44
160.636 1107.87 2495.25
157.772 1102.62 2494.46
154.717 1098.29 2490.95
159.722 1108.85 2495.54
160.02 1108.71 2495.1
159.957 1108.57 2495.88
159.961 1108.41 2496.62
159.894 1108.36 2496.97
162.947 1102.98 2513.95
154.437 1087.89 2523.5
154.878 1086.33 2524.08
155.893 1084.42 2523.72
157.708 1081.57 2524.01
157.819 1081.22 2525.25
157.578 1081.37 2525.97
158.622 1077.43 2527.64
158.773 1077.26 2528.06
159.135 1076.91 2528.75
158.452 1077.78 2527.22
158.537 1077.52 2527.41
158.131 1079.38 2526.62
159.533 1076.62 2529.36
156.539 1092.58 2520.3
154.48 1088.68 2522.62
154.852 1089.47 2521.52
154.959 1089.84 2521.3
155.077 1090.21 2521.17
154.755 1089.12 2521.87
155.395 1090.69 2520.81
156.422 1091.86 2520.02
161.447 1075.46 2528.89
161.776 1075.6 2529.6
161.42 1075.54 2529
161.487 1075.62 2529.23
161.239 1074.75 2528.29
161.21 1074.22 2528.35
161.171 1074.55 2528.59
161.092 1073.74 2528.32
161.308 1075.21 2528.33
161.383 1075.34 2528.53
161.242 1075.06 2528.2
161.192 1074.91 2528.09
161.376 1075.47 2528.64
159.966 1076.4 2529.93
159.685 1076.49 2529.46
160.511 1076.44 2530.79
163.091 1102.71 2514.02
163.205 1102.47 2513.94
163.21 1102.24 2514.06
163.17 1100.67 2513.97
162.835 1099.24 2514.49
160.818 1099.21 2519.03
161.659 1098.28 2516.81
162.533 1097.87 2515.05
162.743 1098.29 2514.68
162.694 1097.99 2514.64
158.947 1096 2518.95
158.274 1094.75 2518.91
157.746 1093.86 2519.24
161.509 1097.83 2516.65
161.078 1097.06 2516.55
167.908 1100.32 2479.84
164.546 1097.5 2478.76
162.889 1096.36 2479.95
161.444 1095.43 2480.36
161.408 1095.98 2480.9
161.549 1095.19 2479.98
159.53 1096.53 2482.23
156.983 1096.12 2483.12
155.892 1095.64 2483.41
155.222 1098.71 2490.63
155.664 1096.82 2486.12
154.571 1096.27 2487
155.44 1095.56 2483.86
160.48 1108.39 2494.72
160.622 1108.24 2494.57
160.715 1108.06 2494.4
162.431 1096.72 2513.17
162.167 1095.19 2511.88
162.889 1098.87 2513.93
162.718 1097.81 2514.11
162.784 1098.19 2514.32
161.832 1094.61 2510.01
162.162 1095.71 2510.86
162.045 1094.62 2510.61
160.46 1093.96 2507.39
161.779 1094.11 2510.15
161.406 1093.37 2509.93
162.097 1094.37 2511.05
162.128 1094.45 2511.33
163.131 1102.78 2513.83
163.228 1100.46 2513.69
162.889 1099.11 2514.2
158.321 1093.69 2503.48
155.493 1092.27 2499.83
154.637 1092.02 2498.28
154.663 1092.91 2497.79
154.301 1092.71 2496.98
153.772 1095.69 2493.52
153.761 1096.1 2493.24
153.744 1094.42 2493.8
154.017 1093.05 2495.47
152.057 1094.31 2489
151.861 1093.95 2489.21
151.739 1093.67 2489.42
151.56 1093.15 2489.38
151.657 1093.05 2490.03
153.62 1095.6 2493.06
152.55 1094.21 2491.38
151.514 1092.85 2489.67
153.274 1096.14 2489.2
152.484 1094.95 2488.8
160.241 1108.16 2496.42
160.388 1108.04 2496.08
160.622 1107.92 2495.32
160.664 1108.01 2494.69
160.006 1108.66 2495.31
160.386 1108.33 2495.08
160.547 1108.22 2494.81
160.373 1108.19 2495.64
154.797 1087 2523.51
155.869 1084.67 2523.27
155.932 1084.43 2523.43
157.215 1082.43 2523.08
156.633 1083.29 2522.79
157.933 1081.4 2523.06
158.118 1081.02 2523.17
158.973 1079.7 2523.92
158.83 1079.81 2524.3
159.665 1078.65 2524.31
157.823 1080.97 2525.69
158.438 1080.26 2524.64
158.714 1077.28 2527.69
158.93 1077.06 2528.15
159.344 1076.72 2528.92
158.442 1077.94 2527.03
158.505 1077.58 2527.26
158.505 1077.69 2527.07
158.658 1077.38 2527.38
158.222 1079.3 2526.31
157.451 1092.92 2519.14
157.253 1092.37 2519.21
155.043 1086.87 2523.11
154.699 1088.74 2522.19
154.944 1089.39 2521.39
155.055 1089.71 2521.14
155.198 1090.02 2520.91
155.296 1090.33 2520.83
154.838 1089.13 2521.64
154.867 1088.93 2521.72
156.365 1091.39 2519.87
156.28 1091.04 2519.87
157.117 1091.69 2519.11
161.321 1075.55 2528.73
161.722 1075.7 2529.71
161.302 1075.6 2528.87
161.411 1075.7 2529.27
161.265 1075.66 2528.96
161.187 1074.76 2528.02
160.903 1073.72 2528.01
161.065 1074.18 2528.02
161.139 1074.54 2527.97
161.19 1075.2 2528.07
161.202 1075.31 2528.16
161.27 1075.33 2528.32
161.28 1075.46 2528.41
161.173 1075.08 2527.94
161.178 1074.96 2527.87
161.276 1075.57 2528.48
160.01 1076.33 2529.74
160.364 1076.27 2530.14
159.691 1076.43 2529.24
159.484 1076.58 2528.95
161.316 1076.48 2532.02
162.066 1076.15 2531.73
158.426 1069.31 2527.6
158.558 1067.63 2529.95
162.424 1097.53 2514.92
162.601 1097.65 2514.59
162.686 1097.75 2514.31
159.252 1095.09 2516.75
158.688 1094.53 2517.08
158.308 1093.95 2517.18
157.923 1093.81 2518.72
157.615 1092.9 2518.72
161.832 1095.33 2513.64
160.25 1095.21 2515.48
160.593 1092.93 2512.95
170.242 1101.14 2477.28
166.484 1097.89 2476.16
163.481 1096.41 2477.82
162.953 1096.18 2479.45
162.072 1094.87 2475.76
161.978 1094.69 2475.48
161.992 1095.2 2479.37
160.572 1094.74 2480.46
160.83 1094.52 2480.05
160.26 1095.11 2480.92
161.336 1094.57 2479.48
160.996 1094.26 2479.6
158.565 1095.49 2481.91
156.287 1095.14 2482.69
155.695 1095.1 2483.03
154.823 1094.74 2483.51
155.075 1094.75 2483.21
153.166 1095.78 2488.69
154.821 1095.14 2484.08
153.743 1095.66 2487.6
154.366 1095.24 2485.53
162.414 1096.69 2513.47
162.128 1095.05 2512.12
162.083 1094.23 2511.49
161.88 1093.95 2510.61
159.448 1090.93 2508.63
158.911 1091.24 2507.12
161.48 1093.18 2510.51
159.767 1090.93 2509.54
161.91 1093.79 2511.18
156.151 1090.44 2502.86
154.306 1089.78 2500
154.179 1091.9 2497.27
153.672 1089.37 2498.91
153.495 1091.62 2494.96
153.533 1094.2 2493.28
153.281 1092.06 2493.65
152.033 1094.05 2488.57
151.749 1093.53 2488.72
151.631 1093.33 2488.96
151.512 1093.03 2489.1
151.42 1092.7 2489.34
151.715 1092.67 2490.39
151.552 1092.49 2490.03
152.721 1093.04 2492.07
151.439 1092.36 2489.7
152.559 1094.81 2488.44
152.161 1094.1 2488.33
160.503 1108.06 2495.43
155.653 1085.12 2523.38
156.146 1084.44 2522.88
156.472 1083.78 2522.46
156.669 1083.32 2522.59
157.231 1082.5 2522.74
157.843 1081.74 2522.76
158.045 1081.2 2522.8
158.005 1081.51 2522.57
158.298 1080.67 2523.07
158.16 1080.95 2522.78
158.633 1080.19 2523.56
159.747 1078.52 2524.01
159.908 1078.28 2524.22
159.064 1079.37 2524.55
159.825 1078.38 2524.52
160.138 1077.94 2524.47
160.159 1077.92 2524.32
158.261 1080.36 2525.13
158.6 1079.81 2524.83
158.768 1077.2 2527.64
158.875 1077.05 2527.87
159.21 1076.8 2528.36
158.469 1077.94 2526.88
158.577 1077.52 2527.17
158.567 1077.74 2526.83
158.627 1077.54 2527.02
158.699 1077.37 2527.21
158.763 1077.24 2527.41
158.388 1079.14 2525.99
157.469 1092.43 2518.79
157.326 1091.92 2518.83
154.848 1088.06 2522.54
155.437 1086.14 2523
156.215 1084.64 2522.48
156.22 1084.4 2522.61
155.205 1089.72 2520.96
155.008 1089.32 2521.31
156.177 1090.49 2519.91
156.201 1090.73 2519.9
155.017 1088.09 2522.22
155.049 1089.2 2521.29
154.967 1088.87 2521.59
157.076 1091.27 2519.1
157.261 1091.62 2518.89
161.242 1075.63 2528.5
161.416 1075.79 2529.66
161.238 1075.66 2528.59
161.221 1075.74 2529.13
161.149 1075.74 2528.82
161.203 1075.7 2528.65
161.183 1074.88 2527.79
161.18 1074.74 2527.82
160.984 1074.16 2527.76
160.838 1073.78 2527.5
160.584 1073.27 2527.6
161.061 1074.45 2527.73
161.12 1074.64 2527.66
160.025 1072.22 2527.49
161.165 1075.33 2527.95
161.179 1075.29 2527.84
161.155 1075.41 2527.97
161.197 1075.41 2528.17
161.191 1075.52 2528.19
161.182 1075.16 2527.74
161.185 1075.04 2527.63
161.156 1075.61 2528.19
159.923 1076.31 2529.37
160.712 1075.97 2529.44
160.923 1076.03 2529.99
159.45 1076.57 2528.52
159.682 1076.4 2528.87
157.41 1069.33 2525.98
156.202 1066.89 2526.36
157.592 1066.13 2529.93
155.037 1066.85 2524.5
161.785 1094.97 2513.28
162.112 1096.11 2513.82
162.331 1096.54 2513.69
158.45 1093.34 2515.67
158.641 1093.11 2515.14
158.572 1093.34 2515.49
158.095 1092.79 2515.65
158.041 1093.46 2517.23
157.918 1092.59 2515.83
157.8 1093.22 2518.39
157.63 1092.53 2518.39
157.545 1092.38 2518.56
157.531 1092.05 2518.42
160.27 1091.9 2512.42
160.325 1091.77 2512.14
159.923 1093.39 2514
159.165 1092.1 2513.75
158.744 1091.58 2513.87
158.962 1090.42 2512.85
164.778 1096.48 2475.57
165.521 1095.86 2474.49
162.278 1095.25 2477.32
162.161 1095.26 2479.07
161.394 1094.28 2475.6
161.33 1094.14 2475.41
161.595 1094.23 2475.15
161.345 1094.08 2475.25
161.424 1094.41 2479.13
160.294 1093.79 2479.96
159.786 1093.88 2480.51
160.661 1093.72 2479.53
159.417 1094.17 2480.81
160.943 1093.8 2479.1
158.139 1094.81 2481.72
155.955 1094.65 2482.54
155.325 1094.59 2482.89
154.893 1094.38 2483.13
154.461 1094.32 2483.6
154.642 1094.32 2483.34
154.512 1094.72 2484.01
153.235 1094.94 2487.45
154.026 1094.71 2485.38
162.031 1094.79 2512.31
162.037 1094.2 2511.75
161.811 1093.66 2511.56
157.887 1088.41 2508.47
157.457 1088.33 2507.3
156.47 1088.62 2505.27
159.785 1090.75 2510.16
161.449 1093.05 2510.97
157.937 1088.11 2509.61
153.902 1087.78 2501.4
153.225 1088.84 2498.16
153.142 1087.28 2500.22
152.902 1088.44 2497.26
152.798 1089.98 2493.91
152.849 1090.71 2493.48
153.186 1092.22 2493.25
152.69 1090.52 2493.05
152.772 1091.37 2492.73
152.101 1093.83 2488.19
151.812 1093.47 2488.42
151.647 1093.1 2488.44
151.574 1093.05 2488.68
151.502 1092.9 2488.84
151.418 1092.6 2489.01
151.401 1092.3 2489.37
151.613 1092.27 2490.32
152.25 1091.84 2491.59
151.496 1092.09 2490
151.445 1091.99 2489.78
152.894 1094.3 2487.28
156.508 1083.87 2522.26
156.72 1083.34 2522.36
157.285 1082.55 2522.45
157.809 1081.94 2522.44
157.937 1081.82 2522.38
158.1 1081.14 2522.53
158.036 1081.78 2522.15
158.081 1081.48 2522.22
158.28 1080.66 2522.76
158.454 1080.31 2522.95
158.832 1079.89 2523.45
158.182 1080.86 2522.48
159.641 1078.66 2523.84
160.823 1077.12 2524.17
160.885 1077.1 2524.41
159.256 1079.05 2524.66
159.839 1078.18 2524.81
159.859 1078.24 2524.69
160.205 1077.79 2524.62
160.929 1077.03 2524.75
160.963 1077 2524.58
158.524 1078.88 2525.87
158.765 1079.51 2524.89
158.84 1077.1 2527.56
159.044 1076.92 2527.86
158.651 1077.76 2526.62
158.707 1077.55 2526.85
158.754 1077.39 2527.06
158.801 1077.23 2527.23
157.432 1091.88 2518.59
157.385 1091.64 2518.67
155.417 1086.65 2522.73
155.985 1085.72 2522.53
156.242 1084.89 2522.33
156.585 1083.91 2522.09
156.517 1084.24 2522.02
156.147 1090.05 2520.03
156.155 1090.31 2519.96
155.225 1089.52 2521
157.133 1090.92 2518.99
157.304 1090.72 2518.79
157.195 1090.49 2518.97
155.226 1088.21 2521.86
155.426 1087.31 2522.39
155.114 1089.09 2521.24
155.275 1089.36 2520.99
157.318 1091.24 2518.76
161.114 1075.69 2528.17
161.083 1075.75 2528.25
161.027 1075.8 2528.9
160.984 1075.81 2528.37
160.954 1075.84 2528.61
161.181 1074.86 2527.59
160.979 1074.27 2527.45
160.831 1073.89 2527.06
160.509 1073.3 2527.27
161.08 1074.55 2527.53
161.155 1074.78 2527.47
159.849 1072.3 2527
161.186 1075.51 2527.76
161.17 1075.58 2527.78
161.193 1075.41 2527.66
161.144 1075.52 2527.94
161.12 1075.58 2527.95
161.198 1075.23 2527.55
161.197 1075.02 2527.47
161.095 1075.67 2527.95
160.509 1076.01 2529.08
160.331 1076.09 2528.82
159.546 1076.5 2528.33
159.258 1076.76 2527.91
160.224 1076.15 2528.45
156.923 1069.05 2525.43
154.599 1066.49 2523.98
155.501 1065.56 2526.39
154.3 1065.83 2524.01
157.529 1065.5 2530.42
161.776 1094.54 2512.75
161.744 1093.89 2512.19
161.895 1094.61 2512.54
158.246 1092.66 2515.23
157.974 1092.33 2515.38
157.894 1093.1 2517.19
157.784 1092.45 2516.04
157.812 1092.11 2515.55
157.767 1092.73 2517.17
157.655 1092.38 2518.1
157.587 1092.02 2518.27
157.55 1091.72 2518.37
157.532 1091.69 2518.27
158.833 1089.95 2512.67
160.24 1091.51 2511.87
158.519 1089.26 2512.56
158.455 1091.21 2513.99
158.523 1089.79 2513.11
164.202 1095.78 2475.09
165.006 1095.28 2474.3
161.959 1094.94 2477.2
161.726 1094.69 2478.77
161.147 1094.03 2475.66
161.104 1093.88 2475.46
161.09 1093.74 2475.21
161.654 1094.14 2474.9
161.28 1093.9 2475.04
161.387 1093.9 2474.91
161.151 1093.92 2478.82
159.758 1092.75 2479.87
160.177 1092.97 2479.54
159.018 1093.32 2480.65
159.306 1092.7 2480.23
160.495 1093.1 2479.21
157.414 1094.06 2481.68
160.922 1093.5 2478.73
160.635 1093.05 2478.95
155.552 1094.18 2482.54
155.025 1093.96 2482.8
154.6 1093.71 2483.09
154.369 1093.96 2483.49
154.286 1094.38 2484.01
154.167 1094.07 2483.92
153.812 1094.26 2485.15
161.948 1094.12 2511.96
160.022 1091.02 2511.19
161.67 1093.48 2511.75
157.49 1087.85 2507.97
157.598 1087.61 2508.85
157.061 1087.68 2506.91
156.052 1087.9 2505.07
157.219 1087.43 2507.47
159.627 1090.45 2510.69
157.599 1087.32 2510.74
158.013 1088.07 2511.1
153.685 1087.2 2501.43
152.902 1086.86 2499.86
153.129 1086.85 2500.62
152.706 1088.01 2496.62
152.73 1086.83 2499.21
152.614 1090.33 2492.83
152.682 1089.66 2493.44
152.647 1088.27 2495.15
152.616 1090.91 2492.56
152.783 1093.94 2487.12
151.998 1093.47 2488.05
151.748 1093.22 2488.3
151.786 1093.08 2488.11
151.643 1092.81 2488.25
151.538 1092.76 2488.51
151.456 1092.61 2488.75
151.404 1092.29 2489.01
151.406 1092.04 2489.44
151.604 1091.9 2490.36
152.106 1091.34 2491.43
151.531 1091.76 2490.15
151.476 1091.67 2489.86
153.344 1093.98 2486.09
156.743 1083.45 2522.13
157.335 1082.62 2522.23
157.827 1082.07 2522.15
157.956 1081.94 2522.09
158.131 1081.15 2522.17
158.058 1081.99 2521.8
158.107 1081.78 2521.87
158.136 1081.52 2521.92
158.384 1080.29 2522.69
158.24 1080.55 2522.55
158.61 1079.85 2522.93
158.935 1079.61 2523.29
159.479 1078.78 2523.61
158.149 1080.67 2522.19
160.711 1077.2 2523.89
161.687 1076.16 2524.46
161.697 1076.21 2524.66
161.724 1076.21 2524.85
161.569 1076.36 2524.92
159.567 1078.51 2524.84
159.927 1077.97 2524.95
160.13 1077.82 2524.77
160.894 1076.99 2525.11
160.934 1077 2524.92
161.503 1076.35 2525.29
161.581 1076.32 2525.08
158.661 1078.65 2525.85
159.183 1078.89 2524.98
158.905 1077.07 2527.43
159.134 1076.91 2527.47
158.804 1077.69 2526.44
158.792 1077.53 2526.71
158.82 1077.39 2526.92
158.889 1077.24 2527.02
158.898 1077.12 2527.21
157.472 1091.28 2518.43
155.684 1086.66 2522.39
155.993 1086.14 2522.31
156.376 1085.14 2522.03
156.288 1085.01 2522.17
156.745 1083.8 2521.92
157.357 1082.97 2521.83
156.688 1084.25 2521.81
156.108 1089.81 2520.14
157.111 1090.03 2519.19
157.414 1090.91 2518.6
157.49 1090.42 2518.63
157.546 1090.57 2518.5
157.508 1090.02 2518.75
155.407 1088.36 2521.59
155.213 1089.07 2521.17
155.611 1087.26 2522.21
155.633 1087.56 2521.99
156.013 1089.56 2520.32
161.032 1075.78 2527.99
161.072 1075.76 2527.89
160.908 1075.86 2527.99
160.784 1075.92 2528.29
160.805 1075.92 2528.04
160.948 1074.21 2527.09
161.063 1074.5 2527.37
160.81 1073.87 2526.71
160.482 1073.34 2526.96
161.136 1074.7 2527.36
161.195 1074.91 2527.34
159.909 1072.53 2526.62
157.206 1069.51 2525.3
161.201 1075.62 2527.61
161.18 1075.68 2527.61
161.149 1075.67 2527.74
161.211 1075.42 2527.51
161.125 1075.7 2527.76
161.215 1075.25 2527.41
161.209 1075.1 2527.35
161.102 1075.77 2527.74
159.397 1076.69 2527.73
160.06 1076.28 2528.02
154.75 1066.8 2523.91
153.286 1064.62 2522.36
153.212 1064.43 2522.44
156.318 1064.4 2528.96
154.724 1064.88 2525.43
153.053 1064.06 2522.36
153.088 1063.93 2522.54
158.107 1090.85 2514.37
158.265 1091.1 2514.22
157.712 1092.01 2515.72
158.01 1090.62 2514.49
157.663 1092.33 2517.1
157.655 1092.06 2515.99
157.629 1092.1 2517.88
157.588 1091.86 2518.13
157.587 1091.3 2518.17
157.616 1091.52 2517.96
160.083 1091.16 2511.51
158.383 1088.82 2512.09
158.223 1089.25 2513.4
158.128 1088.72 2513.09
163.639 1095.2 2474.85
164.735 1095.12 2474.26
161.588 1094.46 2477.19
161.08 1093.95 2475.89
161.719 1094.55 2478.32
161.357 1094.09 2478.6
160.863 1093.66 2475.7
160.869 1093.55 2475.43
160.793 1093.22 2474.87
160.988 1093.48 2474.9
160.856 1093.41 2475.13
163.364 1094.71 2474.57
161.563 1093.92 2474.78
161.078 1093.52 2474.81
161.149 1093.53 2474.73
160.997 1093.49 2478.49
159.713 1091.71 2479.45
159.112 1091.25 2479.86
159.958 1091.88 2479.22
156.966 1093.41 2481.65
158.596 1092.06 2480.47
158.851 1091.57 2480.17
160.181 1092.17 2479.07
160.7 1092.93 2478.7
160.325 1092.14 2478.81
155.16 1093.5 2482.54
155.496 1093.48 2482.35
154.752 1093.24 2482.78
154.483 1093.13 2482.99
154.375 1093.42 2483.2
154.176 1093.81 2483.7
154.026 1093.88 2484.05
153.702 1093.88 2484.94
154.067 1094.19 2484.29
157.351 1087.22 2508.32
157.392 1086.83 2510.38
156.832 1087.17 2506.66
155.828 1087.33 2504.98
157.093 1086.99 2507.29
157.218 1086.96 2507.9
157.745 1087.73 2512.81
157.907 1088 2512.41
153.622 1086.57 2501.64
152.947 1086.32 2500.37
152.833 1086.27 2500.01
153.248 1086.22 2501.09
152.621 1086.58 2498.49
152.709 1086.27 2499.39
152.519 1090.62 2492.39
152.525 1090.23 2492.51
152.609 1089.94 2492.83
152.647 1089.32 2493.05
152.619 1087.98 2494.5
152.579 1086.41 2497.63
153.111 1093.57 2486.18
152.537 1093.49 2487.15
152.366 1093.14 2487.21
152.32 1092.88 2487.16
151.69 1092.65 2488.12
151.525 1092.49 2488.49
151.64 1092.49 2488.21
151.448 1092.34 2488.77
151.441 1092.07 2488.96
151.406 1092.06 2489.2
151.452 1091.71 2489.57
152.04 1091.01 2491.34
152.026 1090.9 2491.31
151.577 1091.4 2490.23
151.526 1091.36 2489.88
151.581 1091.18 2490.15
157.343 1082.83 2522.01
157.824 1082.3 2521.94
157.957 1082.13 2521.85
158.154 1081.27 2521.9
158.14 1080.92 2521.97
158.09 1082.18 2521.64
158.165 1081.98 2521.56
158.189 1081.66 2521.6
158.22 1081.46 2521.63
158.379 1079.81 2522.47
158.272 1080.18 2522.38
158.171 1080.42 2522.25
158.589 1079.28 2522.62
158.94 1079.26 2523.08
159.272 1078.87 2523.32
160.504 1077.33 2523.65
158.124 1080.58 2521.89
161.614 1076.12 2524.18
161.814 1076.04 2524.66
161.793 1076 2524.47
161.82 1076.07 2524.86
161.754 1076.14 2525.04
161.855 1075.99 2525.05
159.73 1078.07 2525.1
160.054 1077.74 2525.06
160.289 1077.59 2524.96
160.879 1076.93 2525.3
161.502 1076.29 2525.56
161.401 1076.32 2525.74
161.699 1076.17 2525.22
161.668 1076.14 2525.5
158.851 1078.45 2525.75
159.146 1078.09 2525.69
159.33 1076.79 2527.36
159.094 1077.01 2527.12
158.929 1077.5 2526.52
158.909 1077.37 2526.78
159.002 1077.16 2526.92
157.617 1090.93 2518.32
155.872 1087.02 2522.07
156.493 1087.1 2521.49
156.877 1086.1 2521.25
156.848 1083.98 2521.76
157.379 1083.19 2521.68
157.976 1082.34 2521.7
157.924 1082.61 2521.55
157.138 1085.05 2521.15
156.889 1089.77 2519.48
157.34 1089.61 2519.09
157.96 1088.82 2518.83
158.037 1089.25 2518.47
157.566 1088.6 2519.49
156.001 1088.61 2521.04
155.955 1089.28 2520.53
156.197 1087.92 2521.42
156.218 1087.61 2521.56
157.054 1089.43 2519.49
156.747 1089.51 2519.79
160.957 1075.86 2527.85
161.032 1075.84 2527.73
160.923 1075.92 2527.71
160.842 1075.97 2527.71
160.659 1076.02 2527.94
160.99 1074.25 2526.9
161.105 1074.54 2527.18
161.149 1074.69 2527.21
160.861 1073.89 2526.49
160.588 1073.46 2526.57
161.194 1074.85 2527.2
161.22 1075.05 2527.21
160.112 1072.81 2526.28
157.903 1070.3 2525.29
155.012 1067.19 2523.82
161.209 1075.67 2527.47
161.224 1075.58 2527.47
161.164 1075.72 2527.58
161.232 1075.43 2527.35
161.137 1075.76 2527.61
161.238 1075.27 2527.25
161.107 1075.82 2527.53
161.139 1075.78 2527.47
160.025 1076.37 2527.64
153.406 1064.83 2522.29
153.675 1065.24 2522.39
151.962 1062.68 2520.1
151.949 1062.62 2520.4
151.909 1062.48 2520.63
156.188 1063.89 2528.95
154.607 1064.03 2525.78
151.945 1062.32 2520.86
153.003 1063.61 2522.5
152.065 1062.2 2521.13
157.875 1090.74 2514.9
157.86 1091.17 2515.05
158.063 1089.25 2513.82
157.622 1092.02 2517.02
157.637 1091.82 2516
157.625 1091.79 2517.81
157.717 1090.87 2518.11
157.73 1091.14 2517.86
157.733 1091.29 2517.5
157.938 1088.46 2513.48
164.499 1094.52 2473.98
161.199 1093.95 2477.1
160.913 1093.73 2476.01
161.464 1094.15 2478.17
160.751 1093.5 2475.8
161.241 1093.83 2478.37
160.628 1093.18 2475.24
160.791 1093.28 2475
160.689 1093.14 2474.96
160.633 1093.03 2474.9
160.711 1093.03 2474.78
160.856 1093.19 2474.73
163.15 1094.35 2474.38
161.375 1093.64 2474.65
160.966 1093.22 2474.65
161.069 1093.27 2474.58
161.033 1093.47 2478.22
160.742 1092.87 2478.48
160.871 1093.1 2478.29
159.256 1090.35 2479.45
159.358 1089.68 2479.21
158.352 1090.82 2480.29
158.612 1089.92 2479.9
159.361 1089.25 2479.1
160.011 1090.53 2478.57
156.586 1092.68 2481.64
156.305 1092.1 2481.67
160.132 1091.61 2478.8
160.471 1092.15 2478.49
160.303 1091.6 2478.46
160.187 1091.25 2478.46
154.949 1092.77 2482.51
154.571 1092.61 2482.79
154.265 1092.89 2483.18
154.335 1092.48 2482.98
154.143 1093.49 2483.59
154.172 1093.17 2483.39
153.648 1093.56 2484.82
157.264 1086.77 2508.65
157.215 1086.29 2509.63
157.449 1086.79 2512.37
157.774 1087.98 2513.64
155.706 1086.81 2504.93
156.751 1086.71 2506.57
156.999 1086.73 2507.04
157.135 1086.62 2507.57
157.189 1086.63 2508.08
157.216 1086.59 2508.56
157.895 1088.7 2513.99
153.695 1086.08 2501.91
152.998 1085.88 2500.56
152.891 1085.75 2500.19
152.759 1085.76 2499.68
153.283 1085.78 2501.24
152.646 1086 2498.98
152.567 1089.87 2492.58
152.465 1090.2 2492.27
152.605 1089.54 2492.58
152.698 1088.72 2493.3
152.614 1087.79 2494.16
152.669 1085.24 2496.77
152.702 1084.88 2498.17
153.083 1093.3 2486.03
153.609 1093.27 2484.75
152.251 1092.67 2487.25
153.565 1092.9 2484.74
151.55 1092.27 2488.41
152.251 1092.47 2487.27
151.693 1092.29 2488.13
151.196 1092.3 2488.73
151.444 1091.83 2489.24
151.486 1091.84 2488.96
151.492 1091.45 2489.58
152.016 1090.71 2491.29
152.026 1090.62 2491.25
151.584 1091.12 2489.87
151.629 1090.98 2490.16
152.026 1090.53 2491.2
158.179 1081.14 2521.75
158.238 1081.29 2521.54
158.15 1080.81 2521.71
158.15 1082.37 2521.45
158.284 1082.08 2521.27
158.242 1082.39 2521.25
158.304 1081.77 2521.36
158.316 1081.58 2521.38
158.169 1079.63 2521.99
158.401 1079.13 2522.22
158.245 1079.34 2522.05
158.131 1080.05 2521.99
158.075 1080.19 2521.82
158.751 1078.96 2522.63
159.24 1078.58 2523.06
160.288 1077.39 2523.35
161.511 1076.07 2523.8
158.096 1080.46 2521.66
161.763 1075.91 2524.3
161.913 1075.86 2524.69
161.859 1075.94 2524.6
161.887 1075.94 2524.84
161.888 1075.82 2524.47
161.918 1075.87 2525.01
161.765 1076.04 2525.34
161.839 1075.96 2525.24
161.905 1075.85 2525.23
159.924 1077.73 2525.24
159.354 1077.78 2525.77
160.328 1077.45 2525.15
160.229 1077.37 2525.38
160.797 1076.85 2525.61
161.081 1076.24 2526.45
161.589 1076.13 2525.73
161.263 1076.09 2526.45
161.15 1076.17 2526.5
161.727 1076 2525.66
161.613 1076.05 2525.85
159.449 1076.8 2527.08
160.035 1076.45 2527.29
159.245 1077 2526.88
159.113 1077.15 2526.76
159.082 1077.4 2526.42
159.01 1077.32 2526.65
158.151 1089.21 2518.29
156.255 1087.05 2521.73
156.41 1087.32 2521.52
156.716 1087.72 2521.09
157.584 1087.28 2520.15
157.032 1087.83 2520.69
157.872 1086.3 2520.1
158.029 1086.61 2519.88
157.06 1083.85 2521.65
157.337 1084.86 2521.02
157.413 1083.36 2521.58
157.849 1083.12 2521.36
157.976 1082.95 2521.32
158.087 1082.55 2521.44
158.097 1082.86 2521.26
157.239 1088.55 2519.93
158.173 1086.95 2519.51
158.442 1087.02 2518.91
158.322 1086.56 2519.42
158.571 1087.19 2518.56
156.665 1088.75 2520.48
156.756 1088.13 2520.86
156.884 1088.03 2520.77
156.933 1088.72 2520.19
161.041 1075.87 2527.52
160.969 1075.93 2527.44
160.722 1076.06 2527.56
160.886 1076.03 2527.31
161.109 1074.4 2526.78
161.23 1074.69 2526.93
161.281 1074.84 2526.91
160.909 1073.86 2526.25
160.615 1073.39 2526.1
161.311 1075.02 2526.96
161.335 1075.21 2527
159.728 1072.26 2525.57
156.652 1068.95 2524.29
153.881 1065.49 2522.27
161.196 1075.71 2527.41
161.251 1075.61 2527.32
161.262 1075.69 2527.17
161.173 1075.74 2527.4
161.317 1075.49 2527.1
161.353 1075.37 2527
161.143 1075.82 2527.3
161.202 1075.79 2527.19
152.356 1063.16 2520.13
150.163 1060.7 2518.22
149.643 1060.08 2518.39
148.936 1059.35 2517.55
149.49 1059.78 2518.52
149.888 1060.09 2519.04
155.035 1062.58 2527.55
154.664 1063.34 2526.3
153.306 1063.53 2523.09
149.95 1060 2519.22
152.115 1061.97 2521.28
149.852 1059.73 2519.22
157.805 1090.91 2515.2
157.98 1089.1 2513.98
157.952 1089.5 2514.42
157.621 1091.82 2516.93
157.77 1090.92 2515.42
157.714 1091.24 2516.38
158.241 1089.31 2517.96
158.097 1089.81 2518.05
158.227 1089.5 2517.76
157.764 1091 2516.38
158.257 1089.48 2517.59
158.206 1089.68 2517.32
163.365 1091.34 2473.46
163.382 1091.32 2473.26
163.296 1091.16 2473.39
164.098 1093.96 2473.86
160.957 1093.57 2476.95
161.199 1093.74 2478.04
160.742 1093.46 2476
160.63 1093.28 2475.72
160.521 1092.97 2475.08
160.48 1092.99 2475.29
160.525 1093.09 2475.5
160.588 1092.88 2474.85
160.549 1092.91 2474.96
160.648 1092.87 2474.73
160.796 1093.01 2474.66
162.726 1094 2474.35
161.272 1093.43 2474.55
160.949 1093.07 2474.57
161.122 1093.15 2474.48
160.992 1092.95 2474.48
161.032 1093.47 2477.86
160.874 1093.02 2478.03
160.625 1092.28 2478.17
158.729 1088.79 2479.7
158.264 1087.9 2480.13
156.217 1091.52 2481.67
157.728 1090.18 2480.6
158.282 1089.26 2480.12
158.801 1087.54 2479.29
158.151 1087.35 2480.17
160.109 1090.25 2478.3
159.293 1087.99 2478.68
160.358 1091.58 2478.24
160.455 1091.81 2478.1
160.242 1090.87 2478.15
160.185 1090.24 2478.14
154.882 1092.26 2482.53
154.607 1092.12 2482.74
154.052 1092.75 2483.5
154.223 1092.37 2483.18
154.46 1091.99 2482.92
154.03 1093.15 2483.66
157.176 1086.05 2509.46
157.171 1085.87 2510.85
157.594 1087.15 2513.33
157.879 1088.63 2514.32
155.4 1085.83 2504.44
156.916 1086.36 2506.74
157.116 1084.58 2506.49
157.052 1086.39 2507.05
157.128 1086.34 2507.33
157.18 1086.3 2507.56
157.177 1086.45 2507.9
157.222 1086.45 2508.47
157.926 1089.25 2514.48
153.811 1085.03 2501.94
153.051 1085.62 2500.67
153.048 1084.86 2500.16
152.915 1084.84 2499.61
152.771 1084.89 2498.91
153.475 1084.88 2501.3
152.519 1089.83 2492.25
152.453 1090.08 2492.17
152.662 1089.03 2492.73
152.574 1089.54 2492.3
152.712 1088.28 2493.31
152.641 1087.51 2493.89
152.539 1086.99 2494.48
152.536 1086.74 2494.83
152.681 1085.75 2495.45
152.917 1084.3 2495.33
152.793 1083.74 2497.64
152.808 1083.77 2496.82
152.927 1083.77 2495.38
152.855 1083.94 2498.47
153.59 1092.53 2484.63
151.551 1092.08 2488.52
152.289 1092.36 2487.24
152.825 1092.29 2486.35
153.665 1092.22 2484.49
152.223 1092.17 2487.38
151.638 1092.18 2488.26
151.491 1091.58 2489.28
151.558 1091.74 2488.77
151.525 1091.45 2489.25
151.524 1091.29 2489.57
151.649 1090.96 2489.84
151.666 1090.8 2490.16
152.027 1090.44 2491.13
152.447 1090.01 2492.02
158.176 1080.95 2521.51
158.241 1081.12 2521.3
158.308 1081.39 2521.25
158.064 1080.42 2521.36
158.004 1080.17 2521.32
158.214 1082.69 2521.22
158.854 1083.33 2520.29
158.858 1083.07 2520.29
158.783 1083.55 2520.35
158.816 1082.69 2520.33
158.678 1082 2520.48
157.669 1078.53 2520.82
157.752 1078.43 2520.97
157.826 1078.2 2521.03
157.925 1078.01 2521.11
158.116 1077.92 2521.32
158.011 1079.78 2521.56
157.981 1079.99 2521.39
159.009 1078.33 2522.56
158.653 1078.52 2522.24
160.092 1077.33 2523.02
161.269 1076.07 2523.47
161.674 1075.83 2523.92
161.834 1075.65 2524.1
161.969 1075.72 2524.6
161.95 1075.78 2524.83
161.958 1075.62 2524.38
161.955 1075.77 2525.06
161.825 1075.9 2525.48
161.88 1075.82 2525.43
161.946 1075.74 2525.27
159.53 1077.58 2525.77
159.691 1077.33 2525.9
160.703 1076.56 2526.3
159.916 1077.06 2526.1
160.907 1076.35 2526.43
160.838 1076.16 2526.98
160.998 1075.99 2527.13
161.343 1076.03 2526.46
161.157 1075.89 2527.08
161.07 1075.89 2527.26
161.781 1075.87 2525.75
161.442 1075.91 2526.44
160.099 1076.55 2526.9
159.417 1076.95 2526.75
160.681 1076.17 2527.21
159.219 1077.2 2526.52
158.479 1088.13 2518.28
158.59 1087.62 2518.31
158.687 1087.31 2518.3
158.195 1086.19 2519.74
158.251 1086.47 2519.64
157.9 1084.3 2520.86
158.158 1085.77 2519.92
158.399 1083.91 2520.65
158.54 1083.82 2520.56
158.184 1082.83 2521.17
158.688 1083.89 2520.41
159.02 1086.35 2518.8
158.958 1086.09 2519.06
158.819 1085.76 2519.39
159.079 1086.45 2518.57
161.529 1074.55 2525.89
161.414 1074.18 2525.62
161.597 1074.75 2526
161.64 1074.89 2526.07
161.662 1075.02 2526.12
161.221 1073.78 2525.39
160.562 1073.18 2525.68
160.948 1073.31 2525.12
161.673 1075.16 2526.18
161.658 1075.32 2526.25
160.205 1072.09 2524.25
156.952 1069.17 2524.02
154.151 1065.82 2522.27
152.535 1063.27 2519.72
161.246 1075.75 2527.13
161.308 1075.61 2527.06
161.538 1075.71 2526.4
161.492 1075.81 2526.43
161.626 1075.47 2526.3
161.585 1075.59 2526.35
161.246 1075.86 2526.98
150.361 1060.87 2517.97
147.88 1058.19 2516.51
147.605 1057.78 2516.83
147.478 1057.7 2516.47
147.71 1057.74 2517.16
155.03 1061.29 2527.64
154.848 1062.46 2527.2
154.856 1061.38 2527.29
154.522 1062.99 2526.02
153.629 1063.63 2523.69
152.751 1062.33 2522.11
147.754 1057.63 2517.31
152.246 1061.71 2521.5
149.778 1059.47 2519.22
147.632 1057.32 2517.24
157.912 1089.66 2514.83
157.918 1089.4 2515.02
158.747 1087.37 2518.14
158.783 1087.42 2517.96
158.171 1089.74 2516.82
157.961 1089.81 2515.73
158.767 1087.47 2517.74
158.706 1087.67 2517.49
162.661 1090.12 2472.84
163.874 1092.59 2473.58
163.105 1090.94 2473.68
163.117 1090.89 2473.61
163.215 1091.22 2473.71
161.417 1087.71 2473.8
161.43 1087.55 2473.36
161.409 1087.58 2473.58
163.469 1093.6 2473.97
160.801 1093.3 2476.83
160.611 1093.22 2475.93
160.51 1093.03 2475.68
160.419 1092.8 2475.21
160.481 1092.83 2475.06
160.43 1092.85 2475.4
160.498 1092.71 2474.93
160.563 1092.71 2474.79
160.678 1092.8 2474.64
160.825 1092.88 2474.57
162.489 1093.77 2474.33
161.302 1093.24 2474.45
161.143 1092.93 2474.39
160.848 1092.66 2474.5
160.997 1092.68 2474.42
160.949 1093.22 2477.77
160.77 1092.67 2477.67
160.64 1092.19 2477.9
158.213 1088.51 2480.24
157.944 1087.79 2480.65
157.994 1088.23 2480.57
156.018 1091.15 2481.79
157.36 1089.94 2480.87
157.919 1089 2480.49
158.168 1086.48 2479.83
157.906 1087.05 2480.59
160.117 1089.42 2477.97
159.021 1087.25 2478.7
160.335 1091.12 2477.95
160.512 1091.74 2477.63
160.41 1091.37 2477.72
160.324 1090.39 2477.85
160.249 1090.33 2478.05
160.258 1089.75 2477.8
154.89 1091.78 2482.55
154.739 1091.52 2482.72
154.034 1092.41 2483.47
154.158 1092.11 2483.28
154.46 1091.51 2483.01
157.175 1085.79 2509.26
157.111 1085.38 2510.59
157.224 1085.72 2511.59
157.587 1086.82 2513.46
157.936 1088.73 2514.94
156.595 1084.53 2505.78
154.03 1082.46 2502.45
154.062 1083.88 2502.18
154.793 1083.02 2503.5
157.208 1085.32 2506.78
157.332 1085.4 2507.06
157.627 1083.47 2507
157.61 1082.25 2506.69
157.33 1082.05 2506.17
157.419 1085.38 2507.27
157.496 1085.31 2507.48
157.231 1086.23 2507.79
157.222 1086.35 2508.15
157.245 1086.2 2508.55
153.735 1084.01 2501.5
153.227 1084.8 2500.69
153.177 1083.88 2500.07
153.427 1084.01 2500.8
153.018 1083.94 2499.36
152.531 1089.76 2492.05
152.638 1089.22 2492.4
152.705 1088.72 2492.82
152.582 1089.54 2492.13
152.75 1088.09 2493.26
152.718 1087.27 2493.62
152.61 1086.66 2494.1
152.554 1086.7 2494.37
152.76 1085.82 2494.56
152.972 1084.83 2494.29
153.084 1084.47 2493.73
152.793 1083.43 2497.14
152.799 1083.45 2498.13
152.776 1083.47 2497.7
153.223 1084.02 2493.3
152.893 1083.33 2495.56
152.959 1083.47 2499.06
151.639 1092.05 2488.35
153.652 1091.97 2484.57
154.257 1091.75 2483.24
152.242 1091.98 2487.44
153.525 1091.78 2484.94
151.645 1091.82 2488.46
151.572 1091.53 2488.93
151.568 1091.21 2489.38
151.586 1091.1 2489.59
151.698 1090.72 2490.05
152.042 1090.38 2491.03
152.463 1089.95 2491.86
158.066 1080.43 2521.19
158.149 1080.77 2521.25
158.64 1081.63 2520.41
158.216 1080.84 2521.02
157.62 1079.03 2520.26
157.578 1078.84 2520.46
157.595 1078.93 2520.35
158.711 1083.68 2520.42
159.418 1084.8 2519.36
159.441 1084.7 2519.31
159.492 1084.67 2519.16
159.322 1084.79 2519.5
159.458 1084.34 2519.14
159.257 1083.38 2519.39
157.625 1078.68 2520.73
157.171 1077.04 2519.57
157.233 1077.51 2519.73
157.238 1077.02 2519.72
157.301 1076.89 2519.77
157.398 1076.57 2519.79
157.555 1076.35 2519.94
158.169 1077.36 2521.13
158.156 1075.23 2520
157.588 1078.76 2520.59
158.502 1076.53 2521.03
159.868 1077.18 2522.63
159.601 1076.83 2522.13
160.978 1076.08 2523.08
161.428 1075.77 2523.48
161.681 1075.56 2523.72
161.826 1075.33 2523.82
161.925 1075.41 2524.12
162 1075.65 2524.71
162.028 1075.56 2524.56
161.997 1075.65 2524.93
162.02 1075.41 2524.39
161.853 1075.78 2525.64
161.998 1075.62 2525.18
161.947 1075.69 2525.42
160.105 1076.75 2526.45
159.162 1086.47 2518.35
158.538 1085.35 2519.86
158.903 1084.9 2519.9
159.077 1084.92 2519.74
159.142 1084.82 2519.72
159.195 1084.73 2519.68
159.424 1085.64 2518.87
159.406 1085.45 2519.08
159.303 1085.25 2519.32
159.473 1085.73 2518.69
161.763 1074.1 2524.67
161.868 1074.56 2525.05
161.551 1073.72 2524.55
161.929 1074.86 2525.26
161.959 1075.05 2525.36
160.399 1071.74 2523.22
161.968 1075.23 2525.46
161.933 1075.39 2525.55
159.503 1071.19 2523.75
159.041 1068.8 2520.38
159.251 1068.97 2520.26
157.576 1069.67 2523.91
154.342 1065.94 2522.05
152.724 1063.3 2519.22
150.358 1060.7 2517.32
161.867 1075.67 2525.68
161.928 1075.55 2525.54
148.1 1058.38 2516.3
147.361 1057.54 2516.05
147.413 1057.53 2515.79
147.357 1057.39 2516.62
147.19 1057.21 2516.12
147.148 1057.15 2515.83
147.299 1057.14 2516.73
154.716 1061.44 2526.96
154.472 1062.38 2525.95
154.201 1063.17 2524.9
153.354 1062.9 2523.09
154.03 1063.42 2524.43
152.932 1062.09 2522.33
152.21 1061.24 2521.51
150.057 1059.52 2519.51
147.822 1057.4 2517.49
147.333 1056.84 2516.91
147.142 1056.73 2516.57
159.211 1086.47 2518.17
159.203 1086.47 2517.99
158.449 1088.51 2516.95
158.057 1089.03 2515.8
159.182 1086.49 2517.77
159.151 1086.47 2517.47
161.41 1087.55 2472.99
160.445 1085.75 2472.76
161.383 1087.46 2473.17
163.639 1092.28 2473.64
162.62 1090.51 2474
160.246 1086.76 2474.73
161.113 1087.43 2474.07
161.195 1088.54 2474.57
160.615 1086.14 2473.72
160.501 1086.03 2473.9
160.487 1085.7 2473.26
160.496 1085.71 2473.45
163.284 1093.38 2473.93
163.436 1092.32 2473.75
163.194 1091.6 2473.81
160.521 1093.02 2475.92
160.664 1092.94 2476.73
160.407 1092.77 2475.53
160.429 1092.81 2475.79
160.404 1092.58 2475.08
160.359 1092.62 2475.32
160.364 1092.58 2475.2
160.422 1092.46 2474.93
160.471 1092.47 2474.82
160.546 1092.53 2474.7
160.707 1092.67 2474.58
162.358 1093.55 2474.26
161.29 1092.98 2474.34
161.143 1092.67 2474.33
160.844 1092.49 2474.45
160.714 1092.53 2474.53
160.997 1092.46 2474.36
160.634 1092.12 2477.52
160.553 1092.55 2476.67
157.845 1088.56 2480.73
157.731 1087.86 2481.07
157.748 1088.21 2480.98
155.97 1090.82 2481.86
157.273 1089.65 2480.98
157.562 1089.03 2480.88
158.126 1085.77 2479.53
157.868 1086.11 2480.33
157.731 1087.15 2481.06
160.103 1089.1 2477.8
159.079 1087.05 2478.34
160.389 1090.52 2477.58
160.474 1091.63 2477.21
160.412 1091.22 2477.51
160.35 1089.74 2477.46
160.236 1089.33 2477.59
154.787 1091.16 2482.76
155.926 1090.59 2481.95
154.59 1091.14 2483.04
154.371 1091.32 2483.27
157.179 1085.46 2509.13
157.11 1085.11 2510
157.117 1085 2510.58
157.207 1085.4 2511.55
157.683 1086.79 2513.86
155.399 1082.67 2504.2
156.944 1082.36 2505.79
153.445 1081.99 2501.55
153.178 1080.74 2501.37
152.603 1080.36 2500.52
153.674 1083.46 2501.41
157.933 1083.22 2507.66
157.808 1083.29 2507.35
157.772 1082.23 2507.04
157.555 1081.69 2506.38
157.742 1081.64 2506.75
157.181 1081.76 2505.83
157.619 1080.4 2505.49
157.829 1084.13 2507.57
157.578 1085.16 2507.7
158.036 1083.24 2508.13
158.004 1083.26 2507.91
157.309 1086.06 2508.03
157.284 1086 2508.36
153.374 1083.63 2500.63
153.143 1083.5 2499.92
152.563 1089.7 2491.91
152.627 1089.28 2492.22
152.742 1088.75 2492.52
152.725 1088.6 2492.76
152.62 1089.52 2491.93
152.815 1088.08 2493.04
152.904 1086.63 2493.37
152.874 1086.09 2493.77
152.81 1085.96 2494.11
152.995 1085.35 2493.95
153.087 1085.18 2493.51
153.327 1084.89 2492.92
152.745 1082.91 2496.39
152.75 1083.07 2497.27
152.723 1082.9 2497.98
152.831 1082.82 2498.82
153.516 1084.78 2492.31
153.077 1082.88 2493.48
153.088 1083.04 2499.86
152.239 1091.8 2487.5
153.52 1091.58 2485.06
151.661 1091.58 2488.62
151.611 1091.31 2489.12
151.667 1090.96 2489.46
151.702 1090.87 2489.7
151.73 1090.65 2490.09
152.057 1090.32 2490.93
152.509 1089.86 2491.73
158.074 1080.38 2520.92
157.655 1079.13 2520.12
158.621 1081.38 2520.25
158.991 1081.89 2519.43
159.234 1083.1 2519.25
158.561 1081.06 2520.02
158.108 1080.29 2520.49
157.21 1077.76 2519.5
157.195 1077.74 2519.34
157.224 1077.87 2519.31
157.222 1077.65 2519.62
159.441 1085.06 2519.26
159.514 1085.26 2519.04
159.536 1085 2519.04
159.562 1084.79 2518.87
159.588 1085.13 2518.82
159.343 1085.04 2519.39
159.523 1084.45 2518.9
157.144 1077.16 2519.43
157.224 1076.49 2519.42
157.125 1076.73 2519.24
157.268 1076.36 2519.49
157.915 1074.91 2519.46
158.019 1075 2519.69
158.825 1074.18 2520.19
158.743 1073.58 2519.8
159.509 1075.62 2521.43
159.988 1074.6 2521.48
160.831 1075.83 2522.75
161.17 1075.73 2523.1
161.368 1075.5 2523.25
161.659 1075.16 2523.47
161.92 1075.13 2523.94
161.774 1074.88 2523.56
161.996 1075.18 2524.19
162.04 1075.53 2524.73
162.063 1075.4 2524.62
162.037 1075.52 2524.97
162.049 1075.22 2524.46
162.003 1075.52 2525.29
159.508 1085.71 2518.54
159.516 1085.5 2518.85
159.563 1085.45 2518.78
161.88 1074.32 2524.61
161.582 1073.6 2524.18
161.79 1074 2524.28
161.947 1074.62 2524.88
160.749 1072.22 2523.41
162.003 1074.91 2525.08
162.02 1075.15 2525.19
159.859 1070.54 2521.9
159.347 1068.98 2520.02
162.008 1075.37 2525.29
156.78 1068.48 2522.94
