113.523 857.196 1434.29 
113.457 857.389 1434.87 
112.812 857.917 1433.53 
113.156 857.547 1431.36 
120.067 839.816 1406.21 
119.59 840.486 1403.88 
119.478 838.805 1394.66 
118.836 838.055 1389.35 
111.745 859.536 1434.75 
111.059 860.129 1433.67 
112.334 858.857 1435.02 
112.016 858.847 1433.04 
110.771 860.412 1433.15 
111.688 859.319 1431.9 
111.775 859.343 1430.68 
111.826 859.017 1427.45 
119.624 839.618 1397.82 
119.5 839.949 1406.68 
118.327 841.592 1401.4 
118.931 839.149 1397.04 
118.42 838.713 1393.54 
117.885 838.806 1393.95 
117.971 838.439 1390.56 
117.671 838.116 1388.96 
119.056 837.674 1387.44 
114.227 856.7 1435.19 
111.44 860.325 1435.72 
110.838 860.826 1434.76 
110.325 861.204 1433.82 
110.73 860.585 1431.88 
110.282 861.191 1433.2 
111.149 860.073 1430.57 
110.751 860.56 1429.35 
109.414 862.196 1428.17 
110.663 860.077 1424.72 
109.094 862.132 1425.89 
119.305 839.735 1398.22 
119.149 840.714 1404.01 
118.496 841.526 1401.96 
117.753 841.876 1401.31 
118.002 841.627 1400.93 
118.311 841.328 1400.45 
118.78 841.026 1400.19 
118.431 839.302 1397.61 
118.123 839.025 1396.69 
117.593 838.631 1391.76 
117.482 839.013 1395.28 
117.485 838.484 1390.11 
117.17 838.226 1388.83 
117.524 837.78 1387.5 
118.785 837.558 1386.52 
118.492 837.56 1385.94 
113.012 858.182 1435.39 
111.922 859.759 1435.68 
109.957 861.771 1434.81 
109.82 861.697 1433.98 
110.187 861.389 1432.09 
110.285 861.369 1430.43 
109.651 861.954 1432.34 
109.667 862.008 1429.87 
110.173 861.476 1429.76 
108.651 863.202 1430.08 
108.171 863.818 1429.16 
108.32 863.585 1427.86 
107.617 864.389 1429.22 
108.57 863.019 1427.06 
109.91 860.972 1424.37 
109.532 861.123 1423.29 
107.968 863.674 1426.73 
106.377 865.224 1427.01 
107.311 863.987 1424.18 
108.743 861.963 1423.06 
114.768 850.645 1419.61 
118.789 840.755 1399.71 
119.365 840.009 1407.22 
118.534 841.087 1404.39 
118.896 840.419 1406.92 
117.936 841.912 1402.57 
118.036 841.786 1401.81 
117.415 841.975 1400.84 
118.003 841.252 1400.06 
117.859 839.162 1397.24 
117.088 838.728 1391.59 
118.048 837.689 1385.66 
112.409 859.254 1435.67 
113.414 857.839 1435.59 
110.559 861.359 1435.67 
109.555 862.516 1435.87 
109.078 862.783 1434.77 
111.566 860.279 1436.51 
111.188 860.598 1436.63 
109.279 862.226 1434.04 
108.68 862.97 1433.56 
111.767 860.081 1436.05 
108.664 863.12 1432.67 
106.979 865.149 1432.76 
107.08 865.089 1430.97 
106.456 865.56 1429.27 
107.443 864.336 1427.69 
109.761 860.665 1421.71 
104.71 867.266 1427.54 
103.809 867.423 1424.92 
105.237 866.063 1425.06 
106.64 864.775 1424.62 
107.088 864.001 1421.82 
108.29 862.546 1422.45 
108.272 862.447 1421.46 
114.775 850.336 1418.96 
114.957 849.264 1417.95 
118.761 839.955 1398.67 
118.114 839.528 1398.09 
118.055 841.585 1404.37 
117.417 842.337 1401.96 
117.442 841.755 1400.27 
118.226 840.821 1399.58 
117.238 839.101 1396.65 
116.527 838.429 1388.7 
116.825 837.976 1387.61 
117.183 837.816 1386.94 
108.657 863.928 1436.09 
108.384 864.093 1435.41 
108.186 863.824 1434.43 
107.028 865.012 1433.99 
110.984 860.733 1437.12 
112.176 859.76 1436.19 
106.109 866.173 1432.38 
106.315 866.083 1430.7 
105.891 866.656 1430.38 
105.801 866.459 1429.34 
108.569 861.746 1420.26 
108.937 861.293 1419.28 
108.982 860.807 1416.52 
103.971 867.976 1427.46 
103.517 868.059 1426.14 
103.395 867.114 1421.8 
103.979 866.463 1421.48 
105.396 865.81 1423.71 
106.028 865.356 1424.42 
106.532 864.805 1423.15 
106.861 864.148 1421.23 
107.336 863.249 1419.91 
107.988 862.604 1420.54 
110.906 857.838 1417.23 
111.162 856.538 1415.31 
114.606 850.731 1418.16 
114.641 850.03 1416.83 
118.658 840.813 1407.78 
118.416 841.051 1407.22 
117.528 842.368 1402.63 
117.008 841.832 1399.93 
118.062 840.241 1398.92 
117.369 839.351 1397.36 
116.804 838.705 1390.06 
116.25 838.227 1387.71 
118.855 837.668 1384.03 
110.596 861.272 1436.64 
110.178 861.826 1436.31 
109.693 862.384 1436.37 
107.68 865.434 1436.81 
107.555 865.5 1436.07 
108.027 864.544 1435.3 
107.242 864.9 1434.53 
111.939 860.117 1436.88 
110.372 860.914 1438.32 
105.901 866.694 1430.92 
105.52 867.111 1429.96 
105.359 867.154 1429.47 
107.907 862.331 1419.13 
108.477 861.627 1418.09 
109.07 860.976 1417.33 
108.604 861.03 1416.03 
108.621 860.469 1414.93 
108.244 860.581 1414.16 
104.008 868.198 1428.11 
103.224 868.464 1426.38 
102.66 868.414 1424.24 
103.243 867.193 1421.33 
103.965 866.059 1419.39 
104.907 865.815 1421.78 
105.595 864.878 1420.01 
107.012 863.491 1419.58 
107.646 862.51 1418.65 
109.561 858.91 1415.41 
109.785 858.414 1415.03 
109.778 858.229 1414.55 
110.851 856.707 1413.87 
118.154 841.518 1407.16 
117.716 842.107 1404.34 
116.647 844.17 1403.05 
116.44 844.044 1401.88 
117.131 842.44 1401.26 
117.038 842.194 1400.55 
117.277 840.7 1399.02 
117.593 839.837 1398.36 
117.704 839.393 1397.78 
117.005 839.154 1394.95 
116.578 838.923 1391.57 
116.318 838.953 1389.68 
115.825 838.523 1387.63 
116.465 838.059 1387.19 
117.599 837.995 1385.17 
110.116 861.214 1437.99 
109.93 861.982 1436.81 
108.387 864.373 1436.95 
107.574 865.342 1438.66 
107.024 866.254 1436.77 
107.29 865.206 1435.07 
106.275 866.029 1434.53 
106.017 866.145 1433.91 
105.69 866.589 1433.72 
111.362 860.454 1437.47 
109.69 861.115 1439.74 
107.34 862.342 1417.11 
108.006 861.693 1416.8 
108.61 861.167 1416.55 
107.573 861.611 1415 
107.535 861.435 1414.45 
107.602 861.033 1413.74 
108.954 860.309 1415.59 
108.602 859.828 1413.7 
108.398 859.784 1412.8 
106.861 861.291 1412.75 
102.893 868.337 1425.2 
102.45 868.517 1423.62 
103.854 865.834 1418.41 
104.275 865.467 1418.57 
104.06 865.114 1416.38 
103.941 865.052 1415.47 
104.187 865.233 1417.73 
105.904 864.267 1419.13 
105.75 863.968 1418.12 
108.961 859.428 1414.39 
109.035 859.136 1413.88 
109.845 857.823 1412.89 
110.515 856.586 1410.63 
118.3 841.484 1407.92 
117.588 842.974 1407.5 
116.418 844.93 1404.94 
117.352 842.861 1404.61 
115.802 846.176 1404.43 
115.852 845.853 1403.27 
114.759 846.054 1400.1 
116.073 844.132 1400.81 
116.59 842.508 1400.01 
116.104 843.498 1400.09 
116.79 841.115 1398.94 
116.492 840.7 1398.09 
117.026 840.074 1398.22 
116.316 841.858 1398.93 
116.889 839.741 1397.39 
116.032 838.744 1388.58 
116.302 839.06 1390.17 
115.763 838.556 1387.11 
116.384 838.266 1386.56 
117.395 838.418 1384.66 
109.33 861.493 1439.31 
109.48 861.931 1438.07 
109.489 862.519 1437.04 
108.424 864.059 1437.88 
107.614 865.341 1440.23 
108.456 863.152 1439.52 
107.17 866.093 1437.56 
106.981 866.227 1436.14 
106.5 866.299 1435.28 
105.921 866.584 1434.62 
111.824 860.297 1437.7 
109.698 861.145 1440.28 
109.309 861.425 1440.13 
105.774 866.644 1432.38 
105.232 867.551 1429.91 
104.706 867.653 1428.98 
103.663 868.517 1427.76 
106.623 863.2 1417.87 
105.087 864.198 1416.24 
106.827 862.658 1416.34 
105.492 863.313 1414.29 
106.53 862.269 1414.16 
106.066 862.534 1413.61 
108.906 859.01 1412.56 
107.212 860.679 1412.01 
108.261 859.27 1410.18 
104.847 863.65 1413.62 
106.066 861.992 1412.47 
103.431 868.484 1427.06 
102.955 867.635 1421.94 
103.533 866.212 1418.33 
103.747 865.184 1414.88 
105.596 863.872 1416.88 
109.704 857.611 1410.59 
110.101 856.69 1408.69 
109.945 857.221 1409.55 
118.059 842.75 1409.01 
118.071 842.222 1408.37 
117.833 843.326 1409.38 
117.47 843.962 1409.18 
116.946 844.894 1407.86 
117.179 844.756 1408.82 
116.225 845.72 1406.49 
117.615 843.822 1410.32 
115.805 846.624 1406.44 
115.367 846.655 1403.67 
114.8 846.639 1401.86 
113.975 847.235 1400.51 
113.527 847.729 1399.44 
113.368 847.71 1398.87 
113.969 846.364 1398.34 
114.746 845.694 1399.3 
114.94 845.154 1399.18 
115.941 842.358 1398.73 
114.669 844.578 1397.66 
115.437 843.047 1398.33 
116.105 841.251 1398.03 
117.165 839.69 1397.82 
116.623 839.493 1395.34 
116.004 839.471 1392.78 
115.986 839.458 1391.4 
115.368 839.617 1388.5 
115.41 839.943 1389.27 
115.945 839.383 1389.89 
115.479 838.879 1387.41 
115.964 838.916 1386.08 
109.154 862.378 1438.23 
109.054 861.911 1439.33 
108.675 862.999 1438.83 
106.156 868.407 1441.08 
106.194 868.286 1439.87 
106.821 867.073 1438.38 
107.19 866.375 1441.74 
106.851 867.011 1442.48 
108.546 863.042 1440.94 
108.672 862.348 1440.18 
106.732 866.701 1436.42 
110.662 860.71 1438.73 
112.02 860.388 1439.22 
110.098 860.91 1440.08 
105.678 867.081 1431.36 
105.607 867.194 1430.77 
106.062 863.262 1415.54 
106.945 860.83 1411.17 
107.021 860.673 1410.25 
107.397 859.789 1408.79 
107.099 860.213 1408.83 
108.925 858.169 1408.87 
102.567 868.86 1425.44 
103.228 867.163 1420.57 
103.436 866.533 1418.91 
103.623 865.508 1415.48 
104.204 864.306 1413.44 
104.947 863.377 1413.03 
109.694 857.397 1408.96 
109.243 856.606 1405.77 
110.905 855.091 1406.93 
111.27 854.064 1405.41 
112.031 851.601 1402.74 
117.258 844.806 1410.05 
116.608 845.546 1407.52 
116.327 846.255 1407.89 
113.921 848.187 1402.48 
113.801 847.91 1401.69 
113.062 848.78 1400.46 
113.003 849.137 1401.71 
111.885 850.727 1400.35 
112.807 849.04 1399.7 
113.063 848.469 1399.14 
112.99 847.849 1398.08 
113.293 846.972 1397.73 
113.226 846.034 1396.41 
113.975 845.244 1396.71 
115.727 841.68 1397.75 
114.225 844.255 1396.16 
114.814 843.957 1397.6 
116.167 840.897 1397.68 
116.538 840.197 1397.48 
115.452 840.063 1391.07 
114.962 840.586 1389.53 
114.521 840.678 1388.3 
114.035 841.366 1388.11 
115.362 839.23 1387.83 
114.83 840.82 1391.07 
115.184 839.337 1387.2 
114.913 840.08 1386.21 
114.032 841.098 1387.24 
113.767 841.629 1386.43 
113.688 841.903 1385.89 
116.259 840.641 1383.46 
114.749 840.888 1385.23 
106.367 868.078 1442.24 
104.979 870.677 1441.09 
106.602 867.721 1438.64 
106.775 867.239 1438.91 
106.623 867.751 1438.01 
106.686 867.314 1437.58 
106.779 866.723 1436.99 
107.038 866.086 1444.05 
106.837 866.51 1443.87 
106.145 868.052 1443.74 
105.601 869.47 1442.96 
107.769 865.014 1442.89 
108.306 863.935 1442.31 
108.725 862.895 1442.1 
108.757 862.291 1440.74 
108.919 861.911 1440.23 
105.606 866.86 1434.32 
111.367 860.665 1440.67 
112.492 860.386 1440.9 
112.571 860.31 1440.41 
110.208 861.059 1441.17 
109.36 861.484 1440.84 
109.502 861.631 1442.19 
105.405 867.584 1430.43 
105.602 867.681 1431.15 
105.54 867.121 1432.58 
104.093 868.422 1428.8 
106.308 861.564 1412.15 
106.577 861.16 1410.95 
107.348 858.996 1406.81 
107.385 859.472 1407.76 
108.227 858.153 1407.18 
109.176 857.136 1406.7 
103.11 868.899 1426.86 
102.164 868.853 1423.89 
103.631 865.916 1417.66 
106.096 861.82 1410.98 
105.827 862.144 1412.05 
116.967 845.643 1410.09 
108.809 856.567 1404.36 
109.981 855.682 1405.65 
109.17 855.905 1404.06 
110.715 855.247 1406.38 
110.458 854.454 1403.72 
110.849 853.519 1402.75 
111.496 852.701 1402.83 
111.267 852.159 1401.15 
116.471 846.511 1409.28 
116.919 845.742 1409.14 
116.964 845.481 1408.64 
116.46 846.412 1408.77 
111.372 851.566 1400.07 
111.875 850.437 1399.39 
112.206 849.683 1399.34 
112.512 849.099 1398.93 
112.83 848.494 1398.5 
112.591 848.5 1397.85 
112.422 847.688 1396.84 
112.831 846.874 1396.78 
112.359 846.959 1396.09 
113.845 844.917 1396.07 
115.343 842.333 1397.56 
115.838 841.273 1397.44 
114.729 843.428 1396.85 
116.121 840.69 1397.12 
116.435 840.017 1396.19 
116.027 839.91 1394.29 
115.665 839.847 1392.56 
113.346 842.959 1389.5 
113.054 843.031 1388.09 
115.117 840.521 1392.49 
113.785 842.111 1385.23 
112.823 843.201 1387 
111.87 845.106 1386.42 
112.09 844.897 1385.97 
115.562 842.323 1382.26 
114.694 841.65 1384.24 
113.965 842.395 1384.48 
104.482 871.546 1443.69 
104.999 870.679 1442.12 
104.159 872.606 1442.43 
104.936 870.89 1441.62 
104.444 871.721 1441.2 
103.625 873.176 1440.7 
103.805 872.747 1440.4 
104.578 871.411 1440.05 
106.284 868.511 1438.78 
106.484 868.37 1438.13 
106.548 868.566 1437.33 
106.62 867.931 1437.29 
106.061 867.692 1444.99 
108.128 864.561 1443.57 
108.445 864.132 1443.49 
107.321 865.672 1444.51 
106.477 866.791 1445.15 
108.835 862.941 1442.71 
108.967 862.173 1441.69 
111.39 860.854 1441.84 
110.197 861.304 1442.36 
109.552 861.797 1442.83 
107.05 859.44 1406.58 
106.999 858.98 1405.79 
107.367 858.421 1405.98 
108.225 857.796 1406.29 
108.705 857.177 1405.46 
108.623 857.035 1404.76 
103.694 868.891 1428.31 
102.106 868.92 1423.36 
102.365 868.538 1423.03 
103.463 866.082 1416.68 
103.65 865.229 1414 
103.912 864.744 1413.64 
106.723 861.006 1409.63 
107.869 857.692 1403.73 
108.348 857.123 1403.66 
108.651 856.321 1402.44 
109.27 855.329 1402.24 
109.762 855.268 1403.87 
109.174 855.702 1403.46 
109.901 854.489 1402.03 
110.226 853.986 1402.06 
110.692 852.58 1400.26 
111.46 851.274 1399.52 
110.577 852.304 1399.09 
112.164 849.26 1398.23 
111.937 848.639 1396.87 
111.697 848.049 1395.77 
112.038 847.457 1395.93 
111.918 847.283 1395.26 
112.357 846.539 1395.33 
113.012 845.817 1395.68 
114.024 844.187 1394.78 
114.152 844.122 1395.61 
115.486 841.69 1397.18 
114.655 843.079 1395.54 
116.045 840.623 1396.3 
116.237 840.085 1395.23 
115.634 840.339 1393.88 
115.481 840.22 1393.24 
114.397 841.607 1391.63 
113.11 843.683 1390.9 
112.096 844.938 1389.85 
112.108 844.649 1388.64 
112.452 844.003 1387.4 
111.953 844.745 1387.86 
111.97 845.398 1385.56 
112.551 844.795 1384.9 
111.861 844.902 1387.36 
111.68 845.283 1386.96 
111.043 846.392 1387.12 
110.637 847.274 1387.03 
110.362 847.947 1386.43 
110.312 847.748 1387.19 
112.825 845.092 1384.11 
104.597 870.984 1445.18 
103.523 873.663 1443.93 
103.31 874.168 1441.92 
103.664 873.424 1441.68 
104.787 871.276 1439.46 
103.493 873.487 1440.3 
106.09 869.269 1438.55 
106.374 869.002 1438 
106.544 869.263 1437.23 
106.62 868.509 1436.82 
106.615 867.232 1436.8 
106.224 867.402 1445.7 
107.819 865.227 1445.4 
109.317 863.605 1444.91 
109.185 863.426 1444.11 
107.087 866.222 1446.08 
106.791 866.722 1446.37 
109.059 862.887 1443.25 
109.095 862.207 1442.48 
106.121 866.876 1435.41 
111.69 861.093 1443.04 
112.366 861.106 1443.61 
112.909 860.244 1441.21 
113.08 860.318 1441.82 
110.914 861.504 1443.69 
110.083 862.015 1444.01 
105.445 867.154 1433.89 
105.5 868.099 1430.65 
105.141 868.006 1430.12 
104.678 867.973 1429.44 
107.028 860.004 1407.41 
106.603 859.627 1405.54 
107.213 858.533 1405.5 
108.027 857.686 1405.4 
103.237 869.052 1427.34 
102.244 868.97 1424.41 
102.142 868.912 1422.75 
102.689 868.047 1421.84 
103.189 867.258 1419.84 
104.011 864.66 1413.06 
104.772 863.631 1412.47 
106.93 858.553 1402.98 
107.261 857.698 1401.09 
108.098 857.091 1401.9 
109.051 855.435 1401.05 
109.855 854.077 1400.83 
109.18 854.715 1399.91 
111.026 851.609 1398.9 
109.576 853.723 1399.19 
111.399 850.816 1398.79 
111.68 850.062 1398.69 
112.064 849.668 1398.81 
111.392 849.816 1397.95 
111.631 849.324 1397.5 
111.082 849.429 1396.75 
111.042 848.778 1395.49 
111.05 848.33 1394.8 
111.23 847.961 1394.48 
111.977 846.454 1393.61 
112.927 845.455 1394.05 
114.137 843.878 1394.06 
115.514 841.535 1396.04 
114.377 843.32 1394.18 
114.627 842.801 1394.39 
114.953 842.426 1394.94 
115.319 841.215 1394.14 
114.225 842.119 1392.1 
112.694 844.486 1391.11 
113.16 844.107 1391.92 
112 845.215 1390.39 
111.484 845.577 1389.15 
111.424 845.547 1388.24 
110.493 848.239 1385.59 
111.265 847.488 1384.81 
110.951 846.501 1387.68 
110.509 847.404 1387.6 
108.818 849.711 1386.89 
109.199 849.532 1386.24 
108.816 849.473 1387.92 
104.701 870.881 1445.93 
103.704 873.017 1445.26 
104.953 871.377 1438.97 
106.18 869.979 1437.74 
106.464 869.846 1437.18 
103.308 873.868 1440.84 
106.664 869.542 1436.63 
106.627 869.057 1436.34 
106.511 867.423 1446.95 
105.872 868.899 1447.43 
105.63 868.929 1446.25 
109.451 863.605 1445.52 
109.501 863.687 1446.19 
107.781 865.553 1447.22 
108.209 864.997 1447.39 
109.447 863.787 1446.69 
110.365 862.647 1445.6 
109.667 862.413 1443.98 
107.399 866.15 1447.4 
107.15 866.577 1447.89 
106.438 867.082 1436.03 
105.686 867.018 1434.81 
111.973 861.556 1444.7 
113.518 860.689 1444.16 
105.446 867.681 1433.79 
105.61 867.541 1431.7 
104.685 868.437 1429.66 
106.797 860.623 1408.72 
106.719 860.571 1407.41 
106.725 860.016 1406.48 
106.54 859.49 1404.52 
106.247 859.025 1401.76 
102.439 868.83 1424.88 
102.636 868.493 1421.45 
103.205 867.337 1419.22 
103.558 865.797 1414.06 
103.441 866.167 1415.96 
104.906 863.868 1411.81 
106.584 858.553 1401.54 
107.708 857.058 1400.34 
108.453 856.134 1400.56 
107.81 856.435 1399.36 
109.003 855.296 1400.46 
109.583 854.191 1399.99 
109.622 853.041 1398.39 
108.14 855.092 1398.43 
110.806 850.91 1398.06 
111.242 850.329 1398.29 
110.261 851.648 1397.7 
110.879 850.013 1397.43 
109.862 850.567 1395.45 
110.379 849.459 1394.87 
110.47 848.906 1393.93 
111.681 846.878 1393.26 
112.043 846.127 1392.52 
112.306 845.727 1392.17 
113.282 844.917 1393.58 
113.844 844.29 1393.77 
113.558 844.134 1393.01 
113.879 843.641 1393.04 
115.563 841.274 1394.94 
114.901 841.766 1393.69 
114.098 842.594 1392.51 
112.036 845.597 1391.14 
112.678 845.195 1392.17 
112.996 844.913 1392.86 
111.542 846.193 1390.96 
111.495 845.755 1390.02 
111.055 846.372 1388.5 
108.1 851.467 1385.63 
109.445 849.979 1385.2 
110.614 850.152 1383.44 
110.66 847.138 1388.02 
106.877 851.959 1387.57 
107.207 851.783 1386.94 
106.703 852.427 1387.08 
106.865 853.324 1385.4 
109.698 848.325 1388.27 
107.681 850.905 1388.46 
106.771 852.084 1388.07 
105.1 871.065 1448.63 
104.495 872.024 1448.09 
104.111 872.876 1448.81 
103.792 873.121 1446.65 
104.158 873.775 1450.62 
103.521 873.494 1445.23 
103.331 874.253 1443.8 
103.221 874.509 1442.73 
105.099 871.644 1438.47 
106.389 870.87 1436.85 
106.096 870.723 1437.44 
106.74 870.339 1436.22 
103.408 874.003 1440.1 
103.146 874.279 1441.26 
107.048 871.054 1435.39 
106.766 869.845 1436.06 
106.251 868.709 1448.43 
106.746 867.883 1448.63 
105.898 869.73 1448.96 
110.682 862.489 1446.17 
110.669 862.537 1446.93 
107.558 865.942 1447.95 
107.874 865.444 1447.8 
108.399 864.677 1448.27 
108.052 865.127 1448.34 
109.663 863.543 1447.31 
107.412 866.2 1448.47 
106.499 867.717 1436.17 
106.011 867.445 1435.5 
112.61 861.397 1445.5 
110.987 862.087 1445.26 
105.441 867.367 1434.35 
105.732 868.163 1431.73 
105.532 867.612 1432.71 
106.669 861.007 1408.36 
106.355 860.228 1405.53 
106.793 857.863 1400.15 
103.075 867.646 1420.55 
103.711 865.419 1413.42 
104.133 864.927 1412.59 
105.951 862.349 1410.74 
106.516 861.68 1409.71 
106.639 861.423 1409.29 
107.241 856.71 1398.15 
107.765 855.454 1397.95 
108.041 854.359 1397.18 
108.467 853.367 1396.69 
108.415 854.163 1397.73 
109.713 851.63 1396.91 
110.446 850.793 1397.44 
107.443 853.684 1395.04 
108.228 852.706 1395.11 
107.651 852.378 1393.27 
108.855 850.782 1392.27 
110.65 848.524 1392.92 
111.31 847.491 1392.7 
111.675 846.456 1391.81 
111.13 847.196 1390.78 
114.201 843.008 1393.29 
111.134 846.52 1389.57 
110.689 847.145 1388.56 
107.488 853.594 1383.92 
110.421 851.584 1382.51 
109.044 852.573 1383.28 
106.506 852.615 1387.51 
106.419 853.185 1386.71 
106.607 854.062 1384.93 
107.109 854.072 1383.81 
107.053 851.951 1389.6 
106.717 852.445 1389.4 
104.611 872.446 1449.95 
105.325 871.239 1450.4 
104.868 872.453 1450.84 
105.46 870.538 1449.63 
104.28 873.249 1450.39 
103.851 874.352 1450.14 
104.31 874.243 1451.99 
104.005 874.71 1451.3 
104.446 873.619 1452.1 
103.987 873.489 1439.15 
105.336 871.981 1437.91 
103.732 873.505 1439.61 
105.296 872.747 1437.63 
106.756 872.018 1435.88 
103.159 874.513 1440.81 
103.409 874.616 1440 
103.155 875.009 1441.56 
103.592 873.907 1446.46 
107.241 870.992 1434.7 
106.604 868.156 1436.44 
106.468 868.756 1435.82 
106.38 869.215 1449.51 
105.874 869.968 1449.59 
111.148 862.186 1446.24 
111.148 862.203 1447.41 
110.722 862.482 1447.78 
107.784 865.537 1448.64 
108.283 864.334 1450 
108.904 863.61 1449.93 
109.191 863.915 1447.97 
110.283 862.823 1448.1 
107.563 865.904 1448.93 
107.035 867.365 1449.05 
105.637 867.641 1434.91 
111.87 861.825 1446.72 
112.814 861.394 1446.88 
105.693 868.27 1431.12 
105.948 868.82 1431.28 
105.694 868.261 1432.72 
104.086 868.881 1429.04 
106.319 859.985 1404.77 
105.524 859.831 1401.23 
106.351 858.482 1399.9 
107.267 857.201 1399.31 
102.341 869.441 1424.74 
102.154 869.491 1424.01 
102.066 869.412 1423.05 
102.754 868.85 1421.1 
103.334 867.615 1418.77 
103.798 865.967 1413.42 
103.56 866.863 1416.01 
103.958 865.638 1412.85 
104.413 865.357 1412.02 
105.434 864.541 1410.77 
105.204 864.314 1411.17 
106.135 862.909 1410.12 
106.339 862.364 1409.86 
106.565 862.313 1409.33 
106.685 861.916 1409 
106.692 861.508 1408.64 
107.003 857.362 1398.62 
107.018 856.93 1397.71 
107.404 855.778 1397.3 
107.235 854.486 1395.65 
106.522 853.97 1393.48 
110.284 850.521 1396.73 
107.361 853.243 1393.98 
106.879 853.262 1393.08 
106.863 853.004 1392.55 
107.618 851.503 1390.83 
107.872 851.763 1392.02 
108.584 850.451 1390.69 
109.967 848.891 1390.58 
110.146 848.867 1391.26 
110.601 848.27 1391.07 
110.87 848.025 1391.53 
110.701 847.642 1389.83 
107.104 854.28 1383.24 
107.777 853.602 1383.38 
106.246 853.143 1387.53 
109.26 848.911 1388.72 
106.576 852.916 1390.22 
106.431 852.68 1388.03 
104.508 873.251 1451.31 
105.377 871.215 1450.94 
105.545 870.617 1450.45 
103.725 874.742 1449.41 
104.309 874.544 1452.46 
104.403 873.977 1452.93 
104.521 873.065 1453.74 
104.586 873.078 1452.6 
105.155 871.756 1451.78 
104.947 872.349 1451.62 
103.96 875.346 1451.65 
104.224 875.292 1452.51 
103.907 874.068 1439.09 
105.486 873.482 1437.16 
106.153 874.289 1436.22 
103.322 875.199 1440.62 
103.634 874.494 1439.49 
103.249 875.23 1442.56 
103.225 874.958 1443.32 
103.506 874.45 1445.92 
106.783 876.413 1435.51 
106.936 870.337 1435.61 
106.588 869.303 1435.81 
106.051 868.199 1435.33 
109.957 862.613 1449.75 
107.972 864.752 1450.02 
108.621 863.483 1451.3 
108.194 864.005 1451.39 
107.223 866.903 1449.7 
107.263 866.504 1450.63 
110.587 862.227 1449.57 
113.658 861.16 1446.89 
111.444 861.874 1449.35 
105.656 868.33 1433.75 
105.597 868.025 1434.41 
105.925 868.738 1432.85 
106.179 869.346 1430.87 
105.471 868.54 1430.36 
106.711 861.331 1407.84 
106.693 861.089 1407.29 
102.937 869.248 1426.5 
102.977 869.826 1425.85 
102.357 869.452 1422.21 
103.155 868.042 1419.84 
103.793 866.366 1413.8 
104.154 866.819 1413.23 
104.193 866.033 1412.54 
103.546 867.973 1418.33 
105.814 864.84 1410.24 
106.468 863.326 1409.55 
106.458 862.784 1409.58 
106.692 862.795 1409.11 
106.762 862.39 1408.82 
106.773 861.795 1408.23 
106.886 857.667 1398.18 
106.803 857.481 1397.53 
106.97 856.614 1396.7 
107.139 855.907 1396.55 
106.91 855.065 1395.53 
109.488 848.771 1389.22 
109.562 849.024 1389.91 
110.389 848.029 1389.65 
109.369 852.766 1382.59 
106.086 853.652 1387.64 
106.092 853.946 1386.82 
106.035 854.568 1385.9 
106.455 854.492 1384.72 
106.374 854.044 1392.99 
106.438 852.957 1389.17 
106.504 853.558 1392 
106.182 853.264 1388.15 
112.514 861.646 1448.86 
106.049 869.774 1450.58 
105.699 870.362 1451.07 
103.706 875.233 1450.56 
104.298 874.485 1453.6 
104.094 874.155 1455.19 
104.029 873.884 1456.06 
104.427 872.946 1455.09 
104.806 871.807 1455.2 
105.185 871.226 1453.13 
106.246 868.908 1451.79 
104.229 874.451 1438.62 
106.192 875.427 1436.13 
103.363 875.484 1441.07 
103.475 875.123 1440.06 
103.863 875.49 1439.4 
104.207 875.429 1438.77 
103.562 875.283 1445.1 
103.521 874.888 1445.6 
103.738 874.819 1447.19 
103.72 874.926 1448.92 
106.49 877.208 1436.19 
107.04 870.459 1434.03 
106.939 870.341 1434.87 
106.089 868.916 1434.69 
106.784 869.939 1435.23 
109.547 862.508 1451.19 
107.766 864.747 1451.38 
107.957 864.356 1451.68 
106.484 868.947 1450.13 
107.499 865.604 1451.49 
106.633 867.54 1453.37 
106.446 869.467 1431.76 
106.379 869.452 1433.23 
106.542 869.653 1431.25 
105.765 868.839 1430.69 
105.483 869.098 1430.14 
104.77 869.034 1429.62 
106.507 860.478 1406.32 
106.228 860.594 1404.89 
106.092 858.916 1399.87 
106.711 858.035 1398.63 
103.686 869.404 1428.19 
102.588 869.934 1422.15 
103.399 869.345 1419.81 
102.99 869.092 1420.57 
104.216 867.246 1413.65 
103.843 867.308 1415.55 
103.786 868.028 1417.68 
105.604 867.911 1411.48 
106.055 868.71 1411.53 
105.678 867.565 1411 
105.868 867.363 1410.52 
105.625 866.725 1410.6 
106.304 865.652 1409.63 
106.935 863.535 1408.76 
107.028 862.595 1408.18 
106.968 862.192 1407.88 
106.661 858.239 1398.06 
106.471 858.802 1396.99 
106.453 858.667 1396.2 
106.737 857.176 1396.19 
106.888 856.404 1396.08 
106 854.266 1387.3 
106.159 854.053 1386.25 
106.385 855.002 1384.45 
106.828 854.584 1383.61 
110.167 862.313 1451.47 
113.32 861.628 1448.62 
104.236 875.271 1453.4 
104.24 875.832 1453.25 
103.954 875.115 1455.28 
103.668 875.028 1457.62 
103.629 875.363 1457.16 
103.943 873.803 1456.94 
104.395 872.717 1456.52 
104.172 872.951 1457.57 
104.914 871.352 1455.82 
105.056 870.916 1455.35 
104.772 871.954 1456.18 
105.562 869.827 1454.26 
105.041 870.441 1456.21 
105.326 869.766 1455.89 
106.06 868.874 1452.9 
104.226 875.858 1452.57 
103.324 875.465 1442 
103.631 875.66 1444.46 
103.539 875.748 1440.53 
103.929 876.079 1439.78 
105.527 876.975 1437.53 
104.028 876.199 1446.47 
103.851 875.456 1446.95 
103.907 876.119 1448.54 
103.753 875.851 1450.45 
105.965 877.708 1437.38 
108.122 871.483 1431.3 
108.997 863.044 1451.22 
107.798 864.92 1452.47 
107.605 865.305 1451.96 
108.879 863.047 1451.87 
108.461 863.605 1452.07 
108.012 864.57 1453.17 
107.331 866.084 1452.45 
107.434 865.863 1454.06 
106.441 867.421 1455.4 
105.954 868.484 1455.36 
109.232 862.693 1451.8 
108.053 871.346 1430.82 
106.538 869.978 1430.34 
105.087 869.603 1429.49 
103.994 869.303 1428.75 
106.81 861.634 1407.11 
105.793 859.622 1399.62 
106.48 858.59 1398.62 
103.281 870.423 1425.36 
102.545 870.031 1424.4 
103.763 869.786 1427.8 
102.438 870.047 1423.82 
102.603 870.314 1423.3 
104.356 869.542 1429 
103.003 870.544 1421.98 
103.303 870.488 1421.01 
104.005 869.973 1419.14 
104.257 868.598 1417.19 
104.514 868.225 1415.16 
105.654 868.686 1412.52 
107.296 862.791 1407.57 
107.217 862.434 1407.13 
106.382 859.12 1397.88 
106.339 858.889 1395.42 
106.113 859.853 1395.69 
106.071 858.882 1394.44 
106.593 857.789 1395.83 
106.424 857.784 1395.13 
106.488 856.023 1394.9 
106.668 855.683 1395.27 
106.408 854.603 1394.03 
106.289 854.573 1393.53 
106.077 853.764 1388.24 
105.964 855.178 1385.75 
106.53 853.427 1390.47 
109.713 862.421 1451.83 
112.749 862 1449.71 
110.989 862.294 1451.17 
103.995 876.037 1451.66 
104.272 876.491 1452.69 
103.827 875.878 1455.78 
104.184 876.025 1453.98 
104.268 876.399 1453.23 
103.404 876.495 1458.22 
103.949 873.802 1458.05 
103.657 875.225 1460.6 
103.438 875.91 1458.72 
104.585 871.864 1457.48 
104.296 872.048 1458.78 
104.852 871.002 1456.92 
105.364 869.241 1456.67 
103.644 876.158 1441.86 
103.844 876.193 1444.02 
104.26 876.734 1445.63 
103.959 876.576 1440.82 
103.81 876.19 1440.33 
105.814 877.901 1437.96 
104.061 876.844 1448.19 
104.217 877.345 1447.83 
103.914 876.801 1450.09 
104.134 876.78 1451.61 
107.804 865.303 1455.42 
107.11 866.308 1455.8 
106.642 867.011 1455.86 
105.769 868.348 1456.58 
106.158 869.653 1430.31 
106.705 861.58 1406.13 
107.064 862.102 1406.77 
106.394 860.983 1405.66 
106.193 859.521 1398.22 
104.196 870.528 1427.03 
103.728 870.996 1424.88 
103.041 870.663 1424.09 
104.059 869.893 1428.27 
103.182 870.971 1423.27 
102.906 870.653 1422.65 
105.268 872.39 1419.54 
105.402 872.143 1418.8 
105.812 871.479 1417.27 
106.358 870.576 1415.13 
106.175 859.786 1397.79 
106.261 859.531 1397.24 
106.163 859.962 1396.7 
105.99 858.384 1393.36 
106.151 856.336 1393.75 
106.305 856.379 1394.33 
106.132 855.088 1393.29 
106.198 854.455 1388.92 
106.276 853.725 1389.22 
105.931 854.791 1386.69 
106.456 855.791 1384.11 
106.176 854.661 1393.01 
106.475 854.014 1390.5 
106.344 854.145 1391.86 
109.612 863.205 1453.08 
111.698 863.036 1451.94 
110.876 863.053 1452.41 
110.192 863.084 1452.73 
103.774 876.46 1456.19 
104.272 876.509 1453.87 
103.357 877.157 1459.21 
103.846 874.511 1459.15 
104.133 873.499 1459.11 
103.71 875.48 1462.08 
103.917 874.412 1460.47 
103.955 874.164 1462.51 
103.963 873.745 1463.08 
103.659 876.096 1462.39 
104.302 871.622 1459.62 
104.661 870.835 1458.33 
105.081 869.853 1456.93 
104.17 876.915 1443.42 
104.553 877.586 1442.84 
104.771 877.829 1444.93 
104.49 877.866 1447.44 
105.944 878.72 1439.94 
105.599 877.982 1438.78 
106.298 879.699 1441.94 
104.042 877.321 1449.66 
104.035 877.227 1450.35 
104.409 877.043 1452.73 
108.349 864.1 1453.42 
106.55 866.987 1458.34 
105.683 868.724 1457.91 
105.004 869.939 1458.26 
108.884 863.477 1453.23 
106.586 870.415 1429.64 
105.513 870.232 1429.13 
104.59 870.166 1428.52 
107.033 871.981 1427.65 
106.967 861.92 1405.59 
104.731 870.947 1427.05 
104.54 870.431 1427.9 
105.975 872.574 1424.72 
105.894 873.017 1422.89 
103.543 871.221 1423.63 
104.694 872.285 1421.91 
103.38 871.145 1422.54 
105.071 872.416 1420.26 
106.101 860.349 1397.49 
105.984 859.532 1394.43 
105.889 858.984 1392.76 
106.082 856.3 1392.97 
105.998 857.938 1392.22 
106.231 855.191 1393.86 
106.409 854.32 1389.98 
106.164 854.788 1388.51 
105.95 855.4 1386.46 
106.476 856.359 1384.12 
106.085 855.186 1392.64 
106.257 854.937 1391.53 
109.38 864.014 1454.5 
109.987 863.832 1454.15 
108.876 864.157 1454.59 
111.335 863.814 1453.39 
114.241 864.202 1451.88 
104.453 877.075 1453.64 
103.822 877.054 1456.39 
103.363 877.276 1458.56 
103.426 877.996 1458.87 
104.248 876.709 1454.48 
104.392 877.118 1454.21 
103.603 876.543 1462.08 
104.195 872.775 1459.77 
104.088 873.743 1460.36 
103.837 874.642 1464.05 
104.241 872.308 1460.52 
103.728 874.772 1468.48 
103.83 875.913 1464.23 
103.761 875.199 1465.04 
104.518 871.048 1459.68 
105.263 879.087 1447.3 
104.818 878.416 1447.23 
104.457 878.246 1449.36 
104.33 878.011 1449.97 
104.425 877.723 1451.36 
108.356 864.516 1454.84 
107.074 866.22 1458.68 
106.344 867.19 1461.91 
106.45 867.206 1462.66 
106.277 867.179 1460.75 
106.298 867.331 1459.1 
105.735 868.796 1459.13 
104.943 870.362 1460.14 
106.147 870.992 1428.54 
106.44 872.367 1426.22 
106.957 861.921 1404.77 
106.372 861.171 1404.5 
105.803 873.152 1421.75 
105.965 873.253 1420.03 
106.123 860.475 1396.67 
105.837 859.348 1391.89 
106.104 856.163 1392.43 
106.025 857.851 1391.65 
106.384 854.957 1389.71 
106.187 855.391 1387.85 
106.464 855.719 1389.03 
106.007 855.784 1386.01 
106.513 857.113 1384.5 
106.388 854.947 1390.54 
106.275 855.876 1391.16 
113.69 871.006 1479.8 
113.288 871.06 1479.25 
114.127 864.405 1452.43 
113.95 864.556 1453.09 
109.432 864.245 1455.17 
110.023 864.056 1454.66 
110.833 864.12 1454.49 
111.495 864.105 1454 
104.735 877.778 1453.22 
104.743 877.854 1453.72 
103.973 877.747 1456.4 
103.497 878.043 1458.33 
103.468 878.181 1459.34 
104.542 877.715 1454.47 
103.695 875.145 1468.82 
104.041 873.248 1463.38 
104.147 872.991 1461.64 
103.798 874.348 1467.23 
103.828 874.181 1468.33 
103.874 874.274 1469.44 
103.801 874.302 1472.2 
103.748 874.705 1472.82 
103.754 875.597 1466.42 
103.849 876.185 1465.61 
103.691 875.696 1469.09 
104.364 871.886 1460.84 
106.002 880.165 1449.07 
104.71 878.643 1449.7 
104.872 878.109 1452.56 
108.128 864.826 1455.26 
107.769 865.444 1457.62 
106.224 868.087 1466.06 
105.953 867.991 1462.88 
106.045 867.896 1459.5 
105.514 869.276 1460.55 
105.286 869.866 1461.07 
104.728 871.36 1461.64 
108.708 864.427 1455.26 
106.111 857.822 1390.94 
106.459 855.771 1389.9 
106.566 856.535 1388.12 
106.274 855.998 1387.34 
106.641 856.963 1388.51 
106.136 856.159 1386.37 
106.542 857.365 1385.14 
106.54 857.155 1389.35 
112.943 870.985 1478.69 
111.917 864.308 1454.36 
109.548 864.597 1456.91 
110.162 864.241 1455.2 
108.92 864.723 1457.04 
111.498 864.52 1456.23 
110.777 864.512 1456.59 
105.102 878.437 1452.99 
105.197 878.617 1453.55 
104.925 878.401 1454.18 
103.781 878.684 1457.96 
104.172 878.276 1456.31 
103.643 877.345 1461.66 
104.007 876.834 1464.34 
104.546 878.895 1456 
103.719 875.153 1472.48 
103.953 873.752 1465.26 
104.22 872.767 1463.57 
103.873 873.833 1473.98 
103.801 874.547 1474.37 
103.761 876.582 1469.23 
103.981 876.739 1465.65 
103.829 877.078 1468.96 
103.729 875.808 1472.17 
103.664 876.649 1470.44 
106.269 880.186 1450.5 
104.979 878.647 1451.09 
105.159 878.525 1452.48 
108.247 865 1457.22 
107.027 866.373 1460.86 
106.761 866.992 1463.14 
105.929 868.562 1466.45 
106.386 868.388 1470.4 
105.772 868.406 1463.2 
105.952 868.88 1468.51 
105.558 869.018 1461.98 
105.738 868.47 1462.42 
105.757 868.677 1459.93 
105.28 869.974 1461.66 
105.021 870.911 1462.1 
104.791 871.789 1462.95 
104.325 872.479 1462.34 
105.992 860.105 1394.46 
105.871 859.417 1391.19 
106.253 858.131 1390.11 
106.55 856.67 1387.59 
107.079 858.216 1386.94 
106.765 857.7 1385.87 
106.656 857.875 1388.78 
107.041 858.449 1387.53 
112.96 871.213 1480.31 
112.431 871.309 1480.22 
112.636 871.094 1479.51 
112.35 870.86 1478.47 
112.52 864.801 1457.15 
112.453 864.592 1455.68 
110.059 864.539 1456.76 
109.51 864.831 1458.26 
108.182 865.611 1460.1 
107.842 865.822 1460.48 
111.716 864.831 1457.95 
111.008 864.788 1458.07 
110.023 864.797 1458.19 
105.994 879.585 1452.7 
105.009 879.531 1455.7 
105.794 879.48 1453.47 
104.024 879.101 1457.72 
103.687 878.754 1458.47 
103.758 877.98 1461.19 
104.211 877.503 1464.09 
104.132 873.315 1465.47 
104.156 873.548 1466.25 
103.952 873.963 1467.7 
103.986 873.81 1472.61 
104.5 872.358 1463.91 
104.305 873.591 1475.63 
104.405 873.087 1475.48 
103.789 876.177 1472.72 
103.721 877.181 1470.72 
106.398 880.036 1451.96 
106.553 867.72 1466.32 
106.218 868.619 1469.95 
106.558 868.382 1471.78 
105.96 869.051 1469.33 
106.299 868.65 1471.03 
105.2 870.209 1463.42 
104.988 871.44 1463.33 
105.396 869.328 1464.89 
104.852 871.806 1463.95 
104.893 872.099 1466.27 
104.93 871.614 1464.85 
106.138 860.794 1394.29 
105.96 860.008 1391.41 
105.996 859.468 1390.69 
106.335 858.671 1389.64 
112.166 872.513 1482.33 
112.807 871.548 1480.95 
112.691 872.184 1482.04 
112.095 871.533 1480.63 
112.063 872.202 1481.73 
113.252 871.271 1480.85 
111.512 871.025 1479.54 
111.618 870.632 1478.15 
112.424 864.957 1457.84 
111.702 865.672 1459.61 
108.852 865.354 1459.69 
108.046 866.415 1463.15 
107.577 866.643 1463.62 
110.556 865.4 1459.65 
110.08 865.29 1459.52 
109.42 865.489 1460.18 
106.019 880.683 1455.17 
104.51 879.876 1457.61 
103.671 878.777 1459.43 
104.004 879.428 1458.54 
103.808 878.398 1460.54 
104.16 877.234 1465.03 
104.078 877.723 1468.34 
104.481 872.668 1465.5 
104.377 873.151 1467.4 
104.102 873.77 1470.88 
105.298 871.751 1477.99 
104.489 872.791 1475.08 
104.378 873.97 1476.12 
105.044 872.306 1477.73 
103.865 874.906 1474.84 
103.859 875.415 1474.79 
103.909 877.768 1471.56 
103.904 876.653 1473.19 
106.852 868.143 1472.55 
106.894 868.622 1473.34 
107.145 868.003 1473.29 
107.114 868.477 1473.87 
105.565 869.151 1466.05 
105.458 869.635 1466.6 
105.962 869.218 1469.85 
105.107 870.668 1465.14 
105.084 871.638 1466.52 
105.659 871.208 1470.53 
112.072 873.051 1483.31 
112.832 872.72 1483.29 
111.645 871.815 1481.06 
111.424 872.421 1481.98 
111.916 871.282 1480.08 
113.176 872.125 1482.46 
109.755 870.695 1479.57 
109.979 870.404 1478.84 
109.705 869.066 1475.96 
111.968 870.265 1476.5 
114.101 870.735 1475.29 
111.078 865.537 1459.71 
113.669 867.545 1461.25 
110.607 866.806 1462.76 
108.27 866.586 1463.81 
107.845 867.235 1466.42 
107.339 867.356 1466.64 
106.865 867.537 1466.71 
109.774 866.481 1462.62 
108.931 866.46 1463.18 
106.028 881.276 1456.43 
104.067 879.488 1459.22 
104.522 880.087 1458.42 
104.079 877.999 1462.33 
104.099 877.761 1462.98 
104.391 877.944 1463.77 
104.577 878.051 1464.85 
104.275 878 1467.77 
103.899 877.863 1470.67 
104.397 873.157 1468.71 
105.277 872.019 1469.38 
104.303 873.279 1472.57 
104.148 873.309 1473.65 
105.876 870.701 1478.47 
105.49 871.271 1477.45 
105.141 872.768 1478.03 
105.429 872.038 1478.44 
104.621 874.121 1476.76 
104.052 875.329 1475.4 
104.117 878.048 1472.08 
106.563 869.18 1472.67 
107.019 869.166 1474.67 
106.514 869.884 1473.32 
107.33 868.367 1474.39 
105.284 870.666 1466.74 
105.768 870.431 1470.07 
106.156 869.627 1471.6 
105.603 871.703 1471.56 
105.732 871.278 1471.25 
105.894 870.887 1472.11 
112.308 873.208 1484.32 
111.207 873.388 1483.41 
111.151 872.996 1482.76 
109.542 871.021 1480.19 
109.382 871.577 1480.98 
109.041 868.449 1475.09 
110.737 869.017 1474.84 
109.261 867.872 1473.57 
110.443 868.263 1473.49 
114.055 869.772 1472.98 
113.559 868.722 1468.06 
113.05 868.338 1464.28 
109.992 867.443 1465.4 
108.228 867.473 1467.42 
108.558 867.329 1466.59 
107.705 867.709 1468.61 
109.166 867.222 1465.55 
106.334 881.683 1456.73 
104.15 878.93 1460.54 
106.008 881.441 1457.57 
104.796 880.183 1459.38 
104.695 879.454 1460.7 
104.538 878.454 1467.87 
105.011 879.037 1467.72 
105.183 878.806 1465.12 
104.89 878.506 1464.04 
104.195 878.385 1471.55 
104.481 878.822 1470.59 
104.868 872.633 1469.57 
104.328 873.412 1471.25 
105.4 872.112 1470.67 
104.894 872.475 1473.03 
104.489 872.782 1474.24 
105.49 871.286 1476.91 
105.731 871.149 1478.66 
105.631 872.526 1478.75 
105.389 873.082 1478.5 
105.82 871.668 1478.89 
104.143 875.964 1475.02 
104.911 874.664 1477.18 
104.293 877.314 1473.91 
104.352 878.14 1472.83 
106.295 870.519 1473.67 
107.259 868.989 1475.3 
107.46 867.802 1473.82 
113.52 872.776 1484.4 
111.7 873.572 1485.14 
110.719 873.183 1482.96 
109.231 872.039 1481.5 
107.895 870.252 1479.36 
108.67 868.885 1476.22 
108.133 870.043 1478.95 
108.742 867.814 1473.89 
109.957 867.863 1472.83 
111.988 868.458 1472.2 
114.69 869.273 1471.22 
109.507 883.229 1485.47 
111.304 868.148 1466.55 
113.189 868.622 1470.92 
110.666 868.036 1469.93 
109.487 867.759 1467.58 
108.671 867.754 1468.44 
107.218 867.788 1468.82 
107.366 867.729 1470.76 
106.761 867.957 1470.35 
104.629 878.512 1462.81 
105.249 880.641 1459.01 
105.111 879.765 1460.77 
105.099 878.98 1462.71 
106.01 880.007 1467.14 
105.252 879.727 1470.3 
105.789 879.363 1464.04 
105.026 878.744 1463.41 
104.46 878.574 1472.23 
104.811 879.188 1471.41 
104.804 872.811 1470.83 
105.33 872.203 1471.17 
105.846 870.956 1476.24 
105.173 872.256 1472.32 
105.756 871.387 1473.25 
106.457 870.268 1475.43 
105.938 870.565 1477.82 
105.967 872.899 1479.34 
106.084 872.323 1479.4 
105.494 873.575 1478.55 
106.034 871.145 1479.11 
104.507 875.678 1476.01 
104.423 877.098 1474.49 
105.259 874.699 1477.72 
104.626 878.261 1473.45 
107.215 867.759 1472.7 
106.839 869.7 1475.54 
106.963 869.389 1475.12 
107.162 869.306 1475.81 
107.1 869.505 1476.43 
111.793 877.516 1487.25 
111.385 878.602 1486.93 
113.498 873.056 1485.17 
112.541 873.352 1485.25 
111.472 873.514 1484.36 
110.686 873.659 1483.38 
107.391 870.224 1479.33 
107.474 869.872 1478.73 
107.992 869.441 1477.61 
108.22 867.848 1474.2 
109.21 867.694 1472.48 
108.815 867.671 1473.27 
108.626 867.602 1472.69 
109.759 882.085 1484.02 
109.95 882.526 1486.06 
110.19 881.44 1485.35 
109.959 881.536 1484.32 
109.405 867.817 1470.38 
109.501 867.875 1468.3 
108.609 867.744 1470.61 
108.043 867.715 1470.65 
108.133 867.576 1472.52 
105.806 880.438 1460.33 
106.001 879.777 1462.39 
105.858 879.524 1463.04 
107.8 882.145 1469.07 
109.059 882.657 1465.5 
108.412 881.58 1463.31 
105.68 880.183 1471.15 
108.373 881.503 1462.27 
104.739 878.833 1472.58 
105.513 879.804 1472.21 
106.305 870.276 1477.15 
106.73 869.894 1476.07 
106.256 870.685 1479.06 
106.231 870.269 1478.26 
106.771 873 1480.21 
107.138 872.449 1480.47 
104.968 876.744 1475.64 
105.288 875.312 1477.35 
104.861 878.319 1473.92 
106.596 874.215 1479.66 
106.075 873.726 1479.32 
105.095 878.958 1473.26 
107.715 867.635 1473.19 
106.763 869.851 1477.57 
107.622 868.276 1474.81 
107.579 868.867 1475.85 
111.055 879.162 1486.11 
111.488 877.602 1486.82 
111.251 877.216 1486.31 
109.316 872.553 1481.94 
107.121 870.537 1479.62 
108.388 868.37 1475.23 
108.244 867.607 1473.19 
110.589 880.02 1484.66 
110.686 879.248 1483.81 
109.391 881.038 1477.28 
109.59 880.927 1478.65 
109.357 880.449 1479.03 
109.585 880.471 1480.19 
109.866 880.87 1481.09 
108.122 881.525 1460.87 
108.285 881.501 1461.48 
108.054 882.411 1469.86 
106.65 881.052 1471.62 
106.101 880.157 1472.82 
106.385 880.734 1472.14 
106.995 881.183 1472.28 
106.909 871.772 1480.11 
106.666 870.7 1479.49 
106.926 870.16 1479.06 
106.684 870.036 1478.47 
107.648 873.206 1481.13 
108.227 873.933 1481.81 
106.739 873.604 1480.1 
105.346 877.396 1475.48 
105.534 875.85 1477.25 
106.587 874.73 1479.27 
105.269 878.625 1474.16 
105.623 879.377 1473.5 
107.508 869.169 1476.46 
107.34 869.549 1477.59 
112.609 876.274 1487.62 
113.153 874.73 1487.13 
111.649 876.126 1486.85 
110.812 879.633 1485.3 
110.896 879.178 1485.51 
110.927 877.847 1485.59 
111.286 876.223 1486.42 
112.703 873.568 1485.8 
111.825 873.747 1485.63 
110.937 873.822 1484.41 
109.21 873.024 1482.18 
110.146 873.611 1482.94 
110.512 874.014 1483.74 
107.397 870.979 1480.08 
109.956 880.859 1481.64 
110.433 879.803 1482.85 
110.766 879.25 1484.88 
110.804 878.701 1484.06 
108.904 880.779 1476.1 
108.97 880.575 1476.8 
109.367 880.098 1479.64 
109.217 883.387 1469.82 
109.216 883.252 1470.52 
107.727 880.901 1473.95 
108.236 881.604 1473.33 
109.995 883.307 1471.8 
108.94 873.745 1482.35 
109.1 874.315 1482.64 
108.571 874.322 1482.22 
106.648 878.443 1475.8 
106.421 875.46 1478.49 
106.852 879.45 1474.97 
107.755 874.045 1481.04 
107.613 874.837 1480.29 
107.151 880.066 1474.5 
112.036 875.695 1487.05 
112.371 875.115 1487.03 
112.535 874.504 1486.73 
111.147 875.252 1486.22 
110.827 875.295 1485.73 
110.856 878.323 1485.21 
110.863 877.052 1485.28 
111.035 876.957 1485.88 
110.911 876.178 1485.79 
110.531 875.431 1485.17 
110.253 873.448 1484.36 
110.784 874.287 1485.17 
110.008 880.21 1481.78 
110.308 879.522 1482.12 
110.702 878.974 1482.88 
110.885 878.142 1484.37 
109.014 881.299 1475.16 
108.549 880.754 1475.35 
108.52 880.317 1475.96 
108.637 880.186 1476.43 
108.741 880.09 1476.93 
108.706 879.582 1477.3 
108.895 880.012 1477.66 
109.021 880.028 1478.22 
109.64 874.586 1483.05 
109.126 874.939 1482.62 
107.119 876.609 1477.95 
107.907 879.553 1475.96 
108.156 880.135 1475.64 
108.224 874.525 1481.59 
107.975 876.034 1479.28 
109.213 875.461 1482.4 
111.5 874.22 1485.89 
111.905 874.197 1486.19 
111.598 874.914 1486.52 
111.296 874.729 1486.09 
110.893 877.528 1484.26 
110.545 875.917 1484.84 
110.33 875.322 1484.52 
111.271 873.914 1485.39 
110.054 874.171 1483.21 
109.561 879.525 1480.08 
109.197 879.157 1478.63 
109.786 879.538 1480.94 
108.284 879.87 1476.14 
108.76 879.103 1477.73 
109.812 875.586 1482.95 
108.133 877.021 1478.33 
108.426 879.16 1477.04 
108.061 877.771 1477.59 
108.463 876.02 1479.95 
108.84 875.612 1481.63 
109.993 876.535 1482.53 
109.589 877.018 1481.33 
110.619 874.959 1485.32 
111.048 874.46 1485.66 
110.866 878.323 1483.39 
110.711 876.817 1484.14 
110.169 875.443 1483.79 
110.567 876.662 1483.66 
110.452 874.361 1484.45 
110.175 874.418 1483.64 
109.524 878.754 1479.76 
109.367 878.615 1478.96 
110.158 878.96 1481.53 
110.641 878.658 1482.46 
108.529 878.155 1477.83 
108.857 878.498 1478.05 
108.578 877.184 1478.57 
108.861 876.28 1480.46 
109.189 876.923 1480.24 
108.938 877.067 1479.23 
110.116 875.786 1483.32 
110.706 878.147 1482.75 
110.746 877.785 1483.1 
109.842 875.052 1483.26 
109.729 878.866 1480.65 
110.073 878.49 1481.32 
109.244 877.968 1479 
109.343 877.366 1480.06 
110.089 877.699 1481.68 
109.612 877.973 1480.5 
109.643 877.575 1480.84 
109.474 878.081 1479.82 
108.985 877.534 1478.8 
