262.625 796.987 2279.73
263.826 796.348 2279.51
264.581 795.768 2278.3
266.852 794.644 2276.7
267.836 794.008 2276.16
267.719 794.042 2275.44
269.213 792.746 2274.44
270.353 791.763 2274.05
271.105 791.232 2274.17
272.193 790.371 2275.3
272.277 790.154 2277.2
272.405 789.927 2276.82
272.715 789.931 2275.42
272.691 789.625 2276.63
273.22 788.887 2277.12
273.906 788.278 2276.25
274.564 787.89 2275.13
274.969 787.735 2274.34
275.753 786.939 2272.9
276.184 786.496 2271.79
276.215 786.599 2271.1
276.625 786.592 2270.45
276.331 786.771 2270.37
276.957 786.377 2270.71
277.312 787.086 2269.07
278.104 788.073 2266.39
277.739 787.793 2267.53
278.975 789.114 2263.31
280.714 789.517 2262.3
281.836 789.549 2262.28
283.223 789.562 2262.51
284.377 789.436 2261.61
283.061 789.493 2261.59
287.91 789.328 2261.74
290.733 789.581 2262.54
284.397 789.151 2260.84
283.417 789.282 2260.81
291.051 789.438 2262.39
291.97 787.621 2260.83
291.391 789.267 2262.3
291.543 788.457 2261.44
291.829 788.18 2261.69
291.678 787.748 2260.75
292.421 787.116 2260.44
292.144 787.231 2260.33
292.907 786.54 2259.83
292.804 786.654 2259.56
293.381 785.545 2259.09
293.038 786.08 2258.94
293.004 785.643 2261.83
293.202 785.661 2260.88
293.001 784.957 2262.79
292.973 785.179 2262.84
292.886 784.971 2263.18
293.204 784.803 2262.31
293.218 784.993 2262.08
293.965 784.699 2260.23
294.159 784.563 2259.34
292.827 784.886 2263.5
292.445 784.905 2264.64
291.879 783.867 2264.93
292.595 784.928 2264.23
292.73 784.755 2263.73
291.443 782.844 2264.66
291.344 782.443 2264.45
291.296 782.01 2264.38
291.317 782.165 2264.41
291.364 782.318 2264.35
291.316 782.24 2264.44
291.805 781.499 2263.59
291.388 781.935 2264.17
292.284 780.765 2262.77
292.53 780.691 2262.38
292.706 780.647 2262.07
292.82 780.589 2261.83
292.965 780.511 2261.36
292.978 780.669 2261.52
293.031 780.421 2261.04
293.048 780.336 2260.84
293.112 780.361 2260.55
293.043 780.297 2260.8
293.201 780.492 2260.11
292.918 780.127 2259.04
293.518 780.947 2258.79
294.34 781.894 2258.04
294.332 781.981 2258.48
294.83 782.822 2258.28
294.753 782.637 2258.26
294.678 782.414 2258.1
294.56 782.186 2258.06
294.881 782.992 2258.28
294.964 783.105 2258.1
291.297 783.148 2251.56
291.259 783.219 2251.4
291.173 783.289 2250.95
291.245 783.311 2251.24
291.262 783.65 2249.94
291.141 783.301 2250.68
291.194 783.48 2249.83
291.359 784.049 2248.97
291.302 784.191 2248.45
291.409 783.074 2251.84
291.521 783.047 2252.02
291.772 783.122 2252.3
291.38 783.259 2251.65
291.203 784.749 2247.08
291.246 785.297 2246.85
291.149 784.685 2246.25
290.906 784.615 2245.12
290.914 784.383 2245.05
290.609 784.556 2243.92
290.674 784.624 2244.21
290.716 785.165 2243.75
290.736 785.103 2243.49
290.77 785.053 2243.26
290.827 785.073 2243.05
290.891 785.083 2242.84
294.358 784.677 2254.48
294.531 784.821 2254.66
294.89 785.432 2254.53
294.059 784.432 2254.2
294.111 784.547 2254.2
292.859 783.706 2253.2
295.227 786.042 2254.72
295.243 786.071 2254.89
295.228 786.037 2254.56
295.17 786.024 2254.32
295.261 786.102 2255.03
294.701 783.899 2258.14
294.641 784.026 2258.15
294.632 783.989 2258.32
294.688 783.847 2258.26
294.52 784.214 2258.38
294.479 784.355 2258.21
293.686 785.262 2258.23
293.739 785.294 2258.05
293.575 785.654 2257.9
294.272 785.384 2257.31
293.727 785.684 2257.66
294.389 785.564 2257.03
294.721 786.046 2256.41
294.628 786.117 2256.55
294.61 785.512 2256.61
294.703 785.455 2256.46
294.803 785.507 2256.26
295.32 786.316 2255.14
295.281 786.259 2255.35
294.991 785.778 2255.87
294.982 785.853 2255.97
295.206 786.107 2255.52
295.199 786.193 2255.59
294.921 783.263 2258.18
294.85 783.395 2258.47
294.884 783.258 2258.39
294.691 783.772 2258.37
294.745 783.645 2258.41
294.778 783.542 2259.14
294.902 783.136 2258.31
290.946 785.683 2243.02
290.9 786.028 2243.35
290.839 786.342 2243.48
290.857 786.22 2243.58
290.793 786.467 2243.63
290.873 785.83 2243.32
290.882 785.684 2243.25
290.729 786.662 2244.07
290.817 786.658 2245.13
290.751 786.515 2244
290.887 786.664 2246.3
279.894 791.417 2249.43
279.55 791.748 2244.63
280.352 791.338 2243.89
278.217 792.317 2242.84
277.838 792.481 2242.78
280.272 791.294 2243.51
281.622 790.509 2243.2
283.059 789.84 2242.7
282.121 788.945 2240.16
282.589 788.744 2239.67
282.482 788.627 2238.99
284.571 788.516 2238.07
282.679 787.905 2234.33
293.467 786.851 2252.66
293.363 786.936 2252.84
294.054 787.26 2254.78
294.189 787.208 2254.66
294.205 787.147 2254.36
284.433 789.189 2252.44
280.343 790.856 2253.67
286.813 788.071 2254.34
285.683 788.464 2254.21
286.026 788.451 2253.51
287.832 787.838 2254.37
290.511 787.544 2255.03
291.206 787.496 2254.49
291.901 787.387 2253.9
293.689 787.321 2254.97
292.606 786.676 2251.22
291.484 786.736 2248.09
292.058 786.673 2249.83
292.369 786.638 2250.51
292.643 786.615 2251.1
293.556 786.771 2252.49
262.586 797.252 2281.02
262.149 797.315 2279.87
261.513 797.36 2277.18
262.705 796.625 2277.11
264.634 795.716 2277
264.407 795.771 2275.52
267.124 794.41 2275.27
266.364 794.893 2275.59
267.85 793.52 2273.93
267.646 793.174 2272.52
270.045 791.859 2273.42
269.89 791.897 2272.73
271.673 790.889 2273.98
272.061 790.507 2274.69
272.592 790.132 2274.65
272.974 789.796 2274.51
273.311 789.135 2275.73
274.433 788.078 2274.94
274.712 788.141 2274.06
275.53 787.21 2272.71
276.034 786.722 2271.32
276.08 786.948 2270.44
276.164 786.877 2270.37
276.855 786.514 2270.4
276.513 787.466 2268.87
276.698 787.355 2268.88
276.362 787.53 2268.92
276.985 787.21 2268.98
277.45 787.816 2267.59
277.717 788.183 2266.11
278.33 789.112 2263.33
279.883 789.75 2261.42
280.695 789.686 2261.36
281.773 789.562 2261.34
282.286 789.452 2260.84
287.914 788.647 2260.72
285.161 788.391 2259.74
289.812 788.584 2260.98
284.076 788.495 2259.45
282.642 789.28 2260.36
290.503 788.563 2261.12
291.801 787.396 2260.34
291.149 788.49 2261.29
291.1 787.699 2260.37
291.454 787.585 2260.38
292.573 786.775 2259.55
292.087 787.044 2259.84
292.897 786.256 2258.85
292.65 786.536 2258.97
293.888 784.87 2258.86
293.307 785.583 2258.65
293.053 786 2258.58
293.232 785.243 2261.64
293.922 784.62 2260.62
293.011 784.744 2262.9
293.208 784.574 2262.41
293.879 784.067 2261.32
293.897 784.235 2261.13
293.904 784.427 2260.93
294.55 783.968 2259.88
294.593 783.997 2259.17
294.505 784.148 2259.18
293.557 785.349 2258.43
292.836 784.488 2263.38
292.957 784.543 2263.08
292.445 784.606 2264.31
291.89 783.79 2264.68
292.592 784.583 2263.92
292.734 784.371 2263.49
291.484 782.793 2264.42
291.409 782.457 2264.29
291.368 782.109 2264.25
291.415 782.253 2264.21
291.493 782.427 2264.13
291.476 782.02 2264
291.885 781.649 2263.44
292.324 780.94 2262.71
292.463 780.997 2262.51
292.671 780.895 2262.2
292.825 780.873 2261.94
292.927 780.801 2261.72
293.746 781.453 2260.69
293.69 781.497 2260.91
293.571 781.491 2261.16
293.786 781.406 2260.48
293.757 781.314 2260.26
293.759 781.278 2259.97
294.364 782.036 2259.16
294.484 782.166 2258.3
294.492 782.235 2259.13
294.788 782.95 2259.09
294.739 782.785 2259.08
294.682 782.624 2259.08
294.623 782.42 2258.36
294.82 783.108 2259.12
291.357 783.385 2251.47
291.271 783.445 2251.09
291.364 783.853 2250.22
291.382 783.515 2251.37
291.32 783.782 2250.06
291.443 784.195 2249.3
291.42 784.46 2248.86
291.331 784.875 2248.09
291.474 783.174 2251.89
291.731 783.24 2252.19
291.454 783.334 2251.74
291.549 785.676 2248.19
291.392 785.919 2247.29
291.217 785.592 2246.37
290.92 785.158 2245.04
290.714 785.184 2244.04
290.749 785.179 2244.35
290.767 785.768 2244.08
290.788 785.837 2243.84
290.825 785.707 2243.53
294.472 785.206 2253.96
294.736 785.365 2254.26
294.94 785.848 2253.96
292.87 783.863 2253.13
294.058 784.602 2254.06
292.925 784.03 2253.07
295.304 786.221 2254.68
295.285 786.201 2254.49
295.331 786.281 2254.88
295.214 786.159 2254.3
295.078 786.054 2254.02
295.37 786.416 2255.01
294.619 783.954 2258.52
294.665 783.848 2259.11
294.561 784.104 2258.49
293.048 786.105 2258.23
293.086 786.144 2258.09
293.095 786.253 2257.98
293.337 786.166 2257.76
294.255 786.322 2256.86
294.48 786.22 2256.7
294.128 786.427 2256.89
294.843 785.997 2256.23
295.051 786.45 2255.95
295.052 786.363 2255.94
294.948 786.517 2256.07
294.944 785.937 2256.07
295.373 786.524 2255.16
295.347 786.474 2255.29
295.307 786.407 2255.42
295.164 786.276 2255.73
295.237 786.388 2255.62
294.82 783.381 2259.17
294.826 783.243 2259.15
294.724 783.691 2259.13
294.748 783.509 2259.8
294.689 783.656 2259.92
290.824 786.113 2243.72
290.83 785.932 2243.62
290.773 786.384 2243.93
290.764 786.225 2244.01
290.854 786.558 2244.93
290.991 786.554 2246.33
290.767 786.471 2244.34
277.896 791.844 2253.27
278.37 791.637 2254.86
279.588 791.661 2246.25
277.82 792.429 2243.12
278.218 792.156 2243.88
278.299 792.287 2242.67
277.343 792.793 2242.06
277.162 792.863 2242.11
277.016 792.906 2242.3
280.071 791.251 2243.1
278.697 792.007 2242.69
281.026 790.626 2242.85
281.888 790.153 2242.57
281.379 789.219 2240.52
279.355 788.961 2238.94
279.772 788.747 2238.4
280.853 788.547 2236.95
282.472 788.434 2236.29
281.292 788.369 2235.06
294.453 786.907 2253.91
294.307 787.038 2254.12
294.233 787.255 2255.04
294.39 787.197 2254.95
294.5 787.146 2254.74
294.381 787.125 2254.54
283.248 789.562 2254.34
279.63 790.658 2258.05
286.883 787.684 2255.96
285.883 787.926 2255.84
284.668 788.334 2255.91
282.574 789.689 2255.22
289.643 787.383 2256.36
292.931 787.365 2255.5
293.365 787.364 2255.11
294.023 787.295 2255.2
293.626 786.685 2252.35
291.521 786.675 2248.02
292.093 786.507 2249.71
292.319 786.524 2250.22
292.521 786.542 2250.71
292.72 786.542 2251.11
293.676 786.589 2252.22
294.57 786.802 2253.75
262.446 797.384 2281.21
261.747 797.585 2279.72
260.645 797.897 2276.86
260.286 797.564 2272.63
261.178 796.876 2272.27
262.484 796.21 2273.05
264.731 795.314 2274.15
266.126 794.489 2273.85
265.081 794.502 2271.62
264.571 794.771 2270.76
266.509 793.704 2270.39
270.418 791.648 2272.45
272.272 790.838 2272.93
272.335 790.509 2273.91
273.009 790.133 2273.53
273.869 788.967 2274.25
274.164 789.097 2273.05
275.179 787.711 2272.57
275.886 786.984 2271.19
275.917 787.21 2270.23
276.247 787.606 2268.98
276.123 787.715 2269.02
276.776 787.916 2267.77
276.569 788.012 2267.82
277.034 787.907 2267.61
276.427 788.119 2267.86
277.253 787.934 2267.44
277.276 788.163 2266.39
277.249 788.476 2265.01
277.862 789.245 2263.18
279.137 790.122 2260.75
280.039 789.923 2260.69
280.752 789.745 2260.83
281.433 789.561 2260.56
281.821 789.428 2260.13
288.414 787.611 2259.38
289.839 787.619 2259.76
287.103 787.596 2258.98
290.63 787.658 2260.09
282.974 788.75 2259.2
285.375 787.726 2258.48
288.421 787.415 2258.94
291.669 787.245 2259.94
291.23 787.426 2259.99
292.253 786.751 2259.34
292.524 786.628 2258.88
291.926 786.989 2259.48
292.707 786.449 2258.8
292.883 786.261 2258.68
292.998 786.097 2258.51
294.516 783.893 2260.12
293.158 784.364 2262.57
293.823 783.921 2261.51
294.564 783.558 2260.33
294.494 783.431 2260.51
294.547 783.721 2260.24
294.664 783.777 2259.85
292.988 786.152 2258.38
292.937 784.301 2263.07
293.034 784.296 2262.8
293.073 784.123 2262.79
291.995 783.639 2264.2
292.492 784.278 2263.84
291.928 783.708 2264.45
292.649 784.128 2263.49
292.878 784.134 2263.14
291.561 782.692 2264.16
291.425 782.121 2264.13
291.478 782.213 2264.04
291.642 782.628 2263.97
291.531 782.338 2263.97
291.568 782.085 2263.84
292.018 781.715 2263.24
292.198 781.765 2263
292.679 781.247 2262.27
292.847 781.139 2262.02
293.487 781.632 2261.4
294.477 782.423 2260.23
294.448 782.284 2260.08
294.39 782.48 2260.49
294.281 782.531 2260.75
294.453 782.229 2259.88
294.602 782.442 2259.12
294.75 783.005 2259.84
294.707 782.793 2259.84
294.616 782.561 2259.9
294.771 783.178 2259.85
291.504 783.48 2251.69
291.468 783.989 2250.42
291.69 784.227 2250.64
291.549 784.511 2249.27
291.756 784.745 2249.68
291.577 783.653 2251.59
291.524 785.043 2248.71
291.696 783.359 2252.06
291.716 785.976 2248.57
291.922 785.927 2249.24
291.765 785.651 2248.97
291.166 785.929 2246
291.662 786.195 2248.28
290.822 785.763 2244.38
290.773 785.951 2244.14
290.773 786.045 2243.96
294.54 785.646 2253.46
294.173 785.025 2253.65
293.542 785.37 2252.2
293.564 785.515 2252.03
294.781 785.88 2253.58
293.185 784.508 2252.83
291.809 783.517 2252.1
295.304 786.326 2254.4
295.366 786.38 2254.67
295.204 786.262 2254.16
295.4 786.471 2254.87
295.006 786.062 2253.8
295.394 786.533 2255.02
292.972 786.259 2258.2
293.173 786.379 2257.77
292.983 786.467 2257.87
292.923 786.402 2258.08
293.978 786.55 2256.96
294.841 786.75 2256.05
294.914 786.638 2256.02
294.704 786.841 2256.1
295.129 786.327 2255.81
295.159 786.424 2255.78
295.181 786.509 2255.76
295.078 786.554 2255.89
295.374 786.568 2255.13
295.352 786.544 2255.28
295.319 786.506 2255.47
295.235 786.452 2255.64
294.781 783.334 2259.82
294.702 783.433 2260.06
294.671 783.561 2260.06
294.645 783.763 2259.96
290.775 786.334 2244.31
290.78 786.101 2244.25
290.805 786.226 2244.4
291.036 786.449 2245.92
291.057 786.349 2245.78
277.107 792.02 2252.93
276.645 792.02 2256.13
277.474 791.752 2256.86
278.93 791.745 2247.6
278.137 791.456 2257.45
278.493 791.932 2244.98
277.415 792.529 2243.21
276.918 792.894 2242.52
277.723 792.189 2244.16
277.586 792.607 2241.9
277.155 792.875 2241.61
276.297 793.584 2240.56
276.058 793.639 2241.33
276.611 793.148 2242.11
275.185 794.161 2241.64
279.266 791.585 2242.75
280.104 791.013 2242.67
278.379 792.126 2242.29
277.835 792.49 2242.01
280.818 790.455 2242.34
280.83 789.505 2240.82
280.169 789.762 2240.9
279.112 789.197 2239.39
278.473 789.231 2238.85
278.85 788.97 2238.35
279.11 788.814 2237.78
279.695 788.68 2237.79
280.008 788.619 2236.49
280.393 788.561 2234.61
294.508 787.041 2254.45
294.677 786.921 2254.34
294.454 787.207 2255.16
294.661 787.114 2255.09
294.717 787.041 2254.92
280.025 790.459 2257.99
279.36 790.579 2259.16
280.633 789.852 2259.7
280.662 789.823 2260.21
280.117 790.041 2260.16
286.605 787.43 2257.18
285.565 787.643 2257.14
284.4 788.026 2257.14
283.304 788.893 2256.17
282.934 788.585 2257.34
281.911 789.424 2256.8
281.339 789.61 2257.35
289.276 787.168 2257.56
291.864 787.26 2256.52
291.195 787.038 2257.69
293.369 787.325 2255.8
293.686 787.34 2255.35
294.229 787.283 2255.33
294.646 786.716 2253.62
291.602 786.576 2248.1
292.167 786.37 2249.75
292.488 786.349 2250.45
292.658 786.469 2250.88
293.716 786.496 2252.13
294.642 786.635 2253.42
294.828 786.809 2254.22
262.315 797.51 2281.31
261.507 797.759 2279.66
260.296 798.124 2276.8
259.851 797.939 2272.86
260.57 797.107 2271.32
259.984 797.532 2271.32
261.342 796.542 2271.02
263.533 795.394 2270.15
266.646 793.656 2270.08
265.542 794.247 2269.64
270.816 791.513 2272.1
270.92 791.547 2271.71
273.001 790.634 2272.16
272.686 790.866 2271.97
273.565 790.592 2271.43
273.798 790.327 2271.56
273.959 789.986 2271.87
274.999 788.063 2272.14
274.224 789.8 2271.55
275.143 788.093 2271.33
275.747 787.319 2270.61
275.778 787.509 2269.99
275.97 787.9 2269.1
276.291 788.239 2267.92
276.122 788.344 2268.09
276.7 788.093 2267.45
276.426 788.404 2266.6
276.819 788.221 2266.45
276.334 788.427 2266.68
276.395 788.241 2267.68
276.951 788.5 2265.15
277.536 789.369 2263.09
277.324 790.856 2260.51
278.083 790.857 2259.8
280.316 789.906 2260.47
281.055 789.672 2259.99
282.276 788.972 2259.06
289.575 787.504 2259.49
290.875 787.274 2259.48
290.827 787.408 2259.76
284.484 787.933 2258.24
285.705 787.556 2257.97
288.525 787.308 2258.6
285.942 787.518 2258.17
286.164 787.568 2258.5
291.043 787.11 2259.13
291.504 787.163 2259.6
292.046 786.777 2259.02
292.384 786.692 2258.74
292.548 786.579 2258.72
291.585 787.025 2259.27
292.724 786.417 2258.62
292.876 786.268 2258.52
293.773 783.807 2261.68
293.694 783.671 2261.85
294.369 783.271 2260.74
294.638 783.392 2260.26
294.608 783.237 2260.34
292.913 786.311 2258.31
293.036 783.959 2262.83
293.605 783.487 2261.98
292.074 783.547 2263.96
292.159 783.437 2263.74
292.758 783.847 2263.19
292.918 783.639 2262.86
291.629 782.214 2263.77
291.713 782.551 2263.79
291.794 782.409 2263.62
292.837 782.491 2262.52
293.303 782.047 2261.83
293.412 781.797 2261.59
294.266 782.684 2260.87
294.064 782.599 2261.13
294.598 782.671 2260.18
294.473 782.7 2260.47
294.676 782.883 2260.09
294.681 783.073 2260.16
294.641 782.671 2260.03
294.717 783.254 2260.07
291.761 783.627 2251.92
291.831 784.258 2250.97
292.087 785.129 2250
292.306 785.079 2250.52
291.718 784.966 2249.3
292.069 784.316 2251.37
292.479 784.421 2251.91
291.827 785.393 2249.29
291.967 786.1 2249.28
292.096 785.729 2249.65
292.243 785.99 2249.89
292.244 785.865 2249.88
291.283 786.066 2246.83
291.183 785.91 2246.07
291.014 786.11 2245.16
290.878 786.088 2244.46
291.605 786.357 2248.05
292.006 786.241 2249.33
294.374 785.763 2252.97
292.733 785.284 2251.09
292.457 785.31 2250.53
293.682 785.64 2252.05
292.829 785.562 2250.84
292.56 785.451 2250.54
294.534 785.93 2253.05
295.325 786.389 2254.49
295.195 786.321 2254.1
295.246 786.39 2254.26
295.366 786.484 2254.68
295.014 786.122 2253.76
295.393 786.552 2254.88
294.662 785.989 2253.18
295.383 786.579 2255.05
293.009 786.614 2257.66
293.854 786.676 2256.96
292.883 786.596 2257.89
292.843 786.469 2258.17
294.53 786.917 2256.18
294.95 786.792 2255.84
295.052 786.674 2255.83
294.813 786.895 2255.89
295.26 786.543 2255.61
295.197 786.595 2255.73
295.269 786.618 2255.58
295.36 786.596 2255.19
295.336 786.568 2255.36
295.31 786.556 2255.5
291.11 786.244 2245.94
291.089 786.151 2245.68
291.62 786.481 2248.09
274.914 792.174 2254.84
274.104 792.13 2257.61
277.053 791.971 2249.99
275.824 791.853 2258.19
276.593 791.544 2259.07
278.002 791.851 2246.27
277.478 792.001 2245.16
277.134 792.533 2243.43
276.699 792.887 2242.77
276.376 793.242 2242.24
274.868 794.286 2241.92
276.883 792.23 2244.35
277.267 792.721 2241.37
276.993 792.935 2241.23
276.354 793.563 2240.26
274.657 794.644 2240.23
275.402 794.3 2238.87
275.682 794.147 2238.84
272.87 795.454 2242.17
272.994 795.48 2241.55
278.601 791.866 2242.22
279.389 791.381 2242.5
279.999 790.788 2242.23
277.587 792.541 2241.58
277.848 792.349 2241.76
279.589 790.034 2240.96
278.834 789.44 2239.64
278.631 789.337 2239.3
278.278 789.45 2239.14
278.069 789.442 2238.71
278.393 789.126 2238.16
278.59 788.986 2237.59
279.457 788.756 2236.15
279.097 788.89 2235.72
294.699 787 2254.69
294.922 786.892 2254.64
294.533 787.183 2255.29
294.767 787.086 2255.27
294.921 787.007 2255.14
295.054 786.919 2255.08
294.948 786.931 2254.88
281.449 789.344 2258.65
281.116 789.612 2258.23
281.779 789.177 2258.92
286.364 787.406 2257.7
285.232 787.661 2257.75
284.151 788.045 2257.56
283.195 788.423 2257.53
282.375 788.789 2257.66
289.221 787.156 2257.93
290.873 787.037 2257.89
291.304 786.963 2258.18
292.482 787.173 2256.71
291.704 786.993 2257.56
291.731 786.901 2257.92
293.719 787.304 2255.92
293.987 787.308 2255.58
294.364 787.245 2255.48
294.91 786.672 2253.99
292.065 786.348 2249.45
292.287 786.177 2250.01
292.563 786.213 2250.54
292.294 786.261 2250.04
292.788 786.415 2251.05
292.808 786.339 2250.99
293.723 786.45 2251.98
294.593 786.495 2253.1
294.801 786.546 2253.48
294.985 786.579 2253.99
295.012 786.763 2254.43
262.156 797.649 2281.31
261.328 797.916 2279.62
260.18 798.259 2277.07
259.632 798.141 2273.15
259.604 797.862 2271.59
260.628 797.046 2270.92
259.56 797.865 2271.37
259.992 797.517 2271.1
261.032 796.81 2270.54
263.879 795.322 2269.39
267.018 793.526 2269.94
265.801 794.157 2269.33
270.927 791.63 2271.43
266.833 793.694 2269.61
272.868 790.991 2271.4
273.319 790.915 2271.11
272.541 791.14 2271.41
273.606 790.957 2270.6
273.874 790.83 2270.4
274.144 790.647 2270.22
274.473 789.551 2271.26
274.413 790.42 2269.9
275.153 788.92 2270.05
275.648 787.727 2269.99
275.812 788.101 2269.19
276.019 788.34 2268.42
276.2 788.57 2266.8
276.069 788.724 2266.84
275.953 788.592 2268.13
276.017 788.581 2267.86
276.568 788.325 2266.5
276.62 788.497 2265.47
276.4 788.64 2265.5
276.33 788.693 2265.6
276.565 788.64 2265.19
276.805 788.635 2264.95
277.16 789.341 2263.39
276.867 790.701 2261.31
276.135 791.049 2261.51
275.982 791.252 2261.02
275.825 791.397 2260.66
283.754 788.176 2258.01
288.737 787.218 2258.25
291.111 787.013 2258.71
291.71 786.894 2258.9
292.173 786.747 2258.66
292.394 786.647 2258.59
292.646 786.478 2258.48
292.511 786.57 2258.51
292.791 786.382 2258.39
294.233 783.092 2261
294.32 783.151 2260.83
294.493 783.087 2260.54
293.477 783.253 2262.1
294.107 782.961 2261.18
292.238 783.244 2263.5
292.354 782.989 2263.2
293.928 782.752 2261.38
294.41 782.848 2260.64
294.241 782.866 2260.94
294.584 782.86 2260.33
294.561 782.966 2260.43
292.066 785.293 2249.84
292.324 785.566 2250.09
292.175 786.127 2249.76
292.58 785.73 2250.44
292.711 785.646 2250.65
292.497 785.99 2250.36
292.662 785.853 2250.58
293.697 785.756 2251.92
293.703 785.881 2251.83
295.304 786.461 2254.47
295.154 786.319 2253.98
294.984 786.165 2253.64
295.222 786.427 2254.21
295.351 786.568 2254.68
294.696 786.062 2253.11
295.381 786.602 2254.93
293.762 785.988 2251.85
295.369 786.629 2255.11
293.754 786.781 2256.93
293.607 786.87 2256.95
292.868 786.729 2257.75
294.361 787.033 2256.21
292.782 786.619 2258.01
292.701 786.521 2258.25
294.621 786.978 2256.01
295.086 786.734 2255.76
295.004 786.82 2255.77
295.17 786.666 2255.7
294.998 786.871 2255.75
294.839 786.953 2255.83
295.321 786.628 2255.44
295.286 786.728 2255.51
295.322 786.686 2255.44
295.345 786.62 2255.27
269.903 792.275 2256.78
271.74 792.145 2252.58
274.301 791.971 2249.24
274.216 791.934 2259.4
272.708 792.163 2259.68
274.97 791.819 2247
275.385 791.608 2260.22
274.783 791.847 2246.16
274.547 791.91 2245.66
274.351 791.99 2245.27
276.694 792.496 2243.68
276.598 792.767 2243.13
276.199 793.058 2242.8
276.098 793.32 2242.39
274.41 794.48 2242.18
270.93 796.071 2243.23
273.918 792.067 2244.95
277.207 792.73 2241.11
276.913 792.975 2240.94
276.441 793.489 2240.09
275.911 793.995 2238.84
274.224 794.909 2239.66
275.22 794.422 2238.08
274.984 794.525 2237.8
275.328 794.316 2237.68
270.849 796.144 2243
270.309 796.346 2243.08
272.321 795.785 2240.88
278.917 791.55 2242.18
278.134 792.048 2241.8
279.345 791.129 2242.11
279.035 790.324 2240.97
277.452 792.527 2241.28
277.571 792.367 2241.33
278.285 789.743 2239.75
278.258 789.58 2239.43
277.936 789.685 2239.26
277.643 789.712 2238.74
277.656 789.838 2239.17
277.768 789.497 2238.14
278.087 789.231 2237.65
278.211 789.188 2236.94
278.519 789.253 2235.24
295.161 786.837 2254.95
295.177 786.72 2254.71
294.627 787.134 2255.46
294.899 787.018 2255.39
295.025 786.946 2255.28
295.14 786.86 2255.2
282.847 788.536 2257.91
291.84 786.823 2258.26
291.825 786.822 2258.56
292.928 787.094 2256.84
292.198 786.906 2257.59
292.116 786.804 2257.94
292.223 786.73 2258.2
293.969 787.24 2256.03
294.167 787.273 2255.73
294.432 787.196 2255.7
295.048 786.683 2254.29
292.765 786.125 2250.8
292.842 786.256 2250.95
292.816 786.308 2250.98
293.793 786.328 2252
293.717 786.264 2251.88
294.638 786.396 2253.08
294.943 786.439 2253.55
295.088 786.502 2254.03
295.105 786.613 2254.27
295.166 786.708 2254.54
262.068 797.769 2281.3
261.175 798.069 2279.52
261.903 797.858 2280.99
259.946 798.442 2276.66
260.27 798.358 2277.79
259.525 798.323 2273.33
259.363 798.089 2271.69
260.309 797.29 2270.7
259.372 798.062 2271.39
259.57 797.836 2271.16
260.006 797.544 2270.8
260.531 797.206 2270.34
261.507 796.717 2269.68
264.007 795.378 2268.88
265.862 794.186 2269.11
270.945 791.756 2271.1
267.515 793.412 2269.76
266.39 794.049 2269.04
265.879 794.248 2268.99
273.015 791.212 2270.88
272.544 791.37 2270.93
273.351 791.122 2270.68
271.726 791.686 2270.84
273.754 791.682 2269.65
273.58 791.788 2269.73
274.194 791.311 2269.43
273.972 791.515 2269.55
274.381 791.13 2269.28
274.561 790.993 2269.01
274.778 790.857 2268.61
275.083 789.981 2268.58
275.693 788.944 2268.37
275.849 788.534 2268.59
276.188 788.857 2265.66
275.869 788.968 2266.89
275.946 788.908 2266.64
276.002 789.106 2265.56
276.51 788.766 2265.05
276.258 788.809 2265.57
276.341 788.895 2265.17
276.876 789.341 2263.65
276.675 789.419 2263.76
276.508 790.667 2261.95
276.012 790.973 2262.1
275.618 791.293 2261.65
275.161 791.562 2261.08
292.26 786.69 2258.44
292.407 786.621 2258.39
292.559 786.562 2258.31
294.362 782.988 2260.75
292.877 786.008 2250.9
295.272 786.53 2254.42
295.128 786.332 2253.9
294.938 786.231 2253.52
294.716 786.145 2253.03
295.198 786.439 2254.1
295.333 786.636 2254.65
295.366 786.628 2254.82
294.508 786.185 2252.67
295.365 786.654 2254.97
293.815 786.049 2251.9
295.348 786.686 2255.16
293.481 786.957 2256.96
294.246 787.123 2256.13
292.738 786.772 2257.82
294.526 787.057 2256
292.625 786.631 2258.08
295.091 786.801 2255.65
295.144 786.746 2255.61
295.228 786.749 2255.51
295.022 786.911 2255.63
294.856 786.996 2255.75
295.337 786.667 2255.32
295.323 786.73 2255.34
268.764 792.387 2258.82
266.867 792.308 2255.96
269.116 792.174 2252.19
271.843 791.961 2248.54
274.203 791.893 2260.43
271.485 792.575 2261.53
273.102 792.32 2262.04
272.268 791.77 2246.53
272.294 791.795 2245.99
271.965 791.845 2245.7
276.052 792.678 2243.47
273.965 792.225 2244.54
275.769 792.905 2243.2
275.689 793.196 2242.88
275.595 793.541 2242.43
274.377 794.427 2242.37
270.928 795.889 2243.5
268.688 796.734 2244.98
268.897 796.578 2244.98
271.975 791.957 2245.26
271.639 791.919 2245.57
276.853 792.971 2240.65
277.031 792.778 2240.78
277.262 792.599 2240.99
276.545 793.389 2239.96
276.169 793.77 2239.01
275.546 793.776 2236.36
275.357 793.862 2235.98
273.932 795.066 2238.99
275.112 794.4 2237.17
274.8 794.511 2237.2
273.557 795.208 2238.66
275.197 793.908 2235.73
268.117 796.928 2245.37
269.402 796.642 2243.36
265.847 797.563 2246.91
269.049 796.746 2243.08
271.605 796.012 2240.23
278.432 791.666 2241.77
278.87 791.252 2241.8
277.846 792.11 2241.47
278.554 790.503 2240.84
277.927 790.006 2239.85
277.486 792.251 2241.08
277.378 792.448 2241.04
277.816 789.865 2239.51
277.585 790 2239.47
277.404 789.973 2239
277.41 789.811 2238.39
277.422 790.064 2239.32
277.313 789.811 2237.61
277.61 789.571 2237.3
277.721 789.544 2236.34
277.95 789.669 2234.93
295.23 786.796 2255.18
295.249 786.769 2254.97
295.279 786.729 2254.81
294.755 787.066 2255.61
294.979 786.965 2255.51
295.063 786.906 2255.4
295.163 786.839 2255.35
293.29 787.033 2256.92
292.515 786.859 2257.67
292.486 786.726 2257.96
292.46 786.656 2258.19
294.193 787.191 2256.01
294.5 787.127 2255.85
293.803 786.124 2251.9
293.835 786.19 2251.96
294.617 786.286 2252.93
294.892 786.317 2253.45
295.055 786.37 2253.73
295.181 786.544 2254.27
295.198 786.65 2254.46
295.292 786.684 2254.67
262.015 797.913 2281.41
261.084 798.167 2279.51
261.818 798 2281.02
259.65 798.685 2275.91
259.378 798.439 2273.01
260.069 798.576 2277.51
259.284 798.201 2271.66
259.271 798.212 2271.41
259.42 798.033 2271.13
259.668 797.816 2270.84
260.202 797.487 2270.38
261.263 797.046 2269.23
262.171 796.601 2268.56
264.263 795.348 2268.61
262.354 796.613 2268.25
268.367 793.532 2269.09
267.37 793.65 2269.31
266.026 794.29 2268.76
264.52 795.345 2268.33
273.279 791.92 2269.83
272.91 792.099 2269.83
272.48 792.222 2269.88
271.734 792.519 2269.8
270.579 793.087 2269.3
273.789 792.465 2268.75
273.959 792.256 2268.72
273.549 792.596 2268.84
274.189 792.014 2268.66
274.413 791.745 2268.63
274.432 791.803 2268.45
274.609 791.575 2268.43
274.776 791.422 2268.13
274.928 790.722 2268.17
275.31 790.209 2266.47
275.516 789.566 2267.03
275.699 789.19 2267.13
276.131 789.129 2265.17
275.748 789.531 2265.36
275.892 789.294 2265.41
275.855 789.453 2265.11
276.475 789.458 2264.02
276.267 789.582 2264.17
276.46 790.383 2262.53
276.097 790.778 2262.51
275.371 791.354 2262.31
275.614 791.105 2262.71
274.943 791.598 2261.92
274.271 791.882 2261.42
295.273 786.631 2254.51
294.619 786.226 2252.88
295.349 786.675 2254.83
295.339 786.696 2255.02
295.319 786.725 2255.2
295.292 786.736 2255.1
295.194 786.809 2255.45
295.099 786.854 2255.52
295.273 786.785 2255.34
267.948 792.611 2259.69
265.634 792.502 2257.68
266.159 792.381 2255.55
268.257 792.234 2252.27
269.77 792.249 2249.7
271.116 792.007 2248.19
269.767 793.126 2263.42
272.247 792.866 2264.68
273.117 792.567 2264.23
271.414 791.854 2246.6
271.647 791.831 2246.13
271.26 791.931 2245.89
273.592 792.317 2244.38
275.275 792.993 2243.21
273.567 792.455 2244.19
275.203 793.33 2242.91
275.246 793.677 2242.49
272.251 795.306 2243.26
270.968 795.901 2243.62
268.885 796.602 2245.13
266.238 797.248 2247.87
265.917 797.391 2247.83
266.318 797.173 2248.01
271.279 792.054 2245.35
271.684 792.06 2245.11
270.881 792.058 2245.72
276.866 792.963 2240.47
276.639 793.337 2239.95
277.006 792.727 2240.62
277.14 792.546 2240.72
276.338 793.595 2239.06
275.712 793.764 2237.1
275.708 793.334 2235.23
275.672 793.261 2234.89
275.535 793.327 2234.79
275.032 793.951 2235.55
273.255 795.213 2238.12
274.785 794.012 2235.43
265.061 797.682 2248
265.785 797.589 2246.62
264.016 797.992 2248.56
263.834 798.239 2247.47
268.484 796.838 2242.97
269.897 796.476 2240.59
266.182 797.443 2246.02
271.423 795.91 2238.98
278.182 791.711 2241.49
278.54 791.417 2241.64
278.219 790.784 2240.85
277.754 791.941 2241.18
277.784 790.211 2239.98
277.611 790.123 2239.7
277.42 792.144 2240.9
277.27 792.37 2240.82
277.42 790.185 2239.57
277.3 790.122 2239.14
277.211 790.085 2238.69
277.111 790.028 2237.85
277.271 790.237 2239.43
276.9 790.181 2236.7
277.159 789.952 2236.56
277.306 789.855 2236.2
277.177 789.966 2235.7
277.598 789.933 2234.72
295.323 786.706 2254.9
261.978 798.037 2281.5
261.046 798.284 2279.57
261.765 798.11 2281.04
259.597 798.814 2276.01
259.322 798.851 2274.69
259.24 798.558 2272.81
259.212 798.316 2271.64
260.074 798.685 2277.68
259.618 798.891 2276.26
259.175 798.367 2271.41
259.299 798.21 2271.24
259.589 798.005 2270.76
259.422 798.121 2270.99
259.929 797.76 2270.39
260.922 797.351 2269.19
261.671 797.147 2268.12
261.837 796.968 2268.23
262.738 796.569 2267.86
262.16 796.874 2267.94
266.799 794.461 2268.13
267.804 794.464 2267.72
270.381 793.639 2268.47
265.582 795.162 2267.88
263.769 796.434 2267.21
273.268 792.766 2268.79
273.069 792.891 2268.76
272.509 793.042 2268.86
271.965 793.272 2268.72
273.705 792.773 2268.35
273.578 792.797 2268.5
273.894 792.525 2268.45
274.049 792.406 2268.32
274.253 792.04 2268.48
274.526 791.806 2268.18
274.224 792.16 2268.25
274.753 791.589 2267.83
274.84 791.373 2267.8
275.045 790.754 2267.41
274.925 791.275 2266.92
275.135 791.095 2265.37
275.466 790.32 2265.15
276.071 789.738 2264.29
275.678 790.205 2264.69
275.893 789.94 2264.42
276.218 790.4 2263
276.091 790.333 2263.38
275.804 790.818 2263.05
274.574 791.892 2263.65
274.751 791.788 2263.92
274.915 791.658 2263.95
275.12 791.478 2263.88
275.211 791.37 2264.1
273.898 792.22 2263.56
274.099 792.16 2264.03
266.824 792.911 2260.22
265.558 792.642 2258.45
264.467 792.824 2257.89
264.475 792.798 2257.21
265.982 792.427 2255
267.869 792.304 2252.18
269.058 792.369 2250.02
270.003 792.234 2247.78
270.516 792.106 2247.94
270.697 793.482 2265.7
267.905 793.49 2263.05
272.473 793.133 2266.03
273.027 792.973 2266.25
273.322 792.563 2265.31
270.913 791.991 2246.31
270.684 792.076 2246.08
273.38 792.56 2244.09
275.009 793.094 2243.2
271.594 792.146 2244.96
274.822 793.467 2242.97
274.65 793.116 2243.31
274.83 793.817 2242.65
272.35 795.205 2243.31
270.126 796.004 2244.24
269.97 796.171 2244.14
268.727 796.605 2245.42
266.399 797.092 2248.1
265.444 797.146 2249.55
265.215 797.282 2249.56
265.599 797.058 2249.42
270.781 792.11 2245.52
271.02 792.168 2245.22
270.98 792.23 2245.13
270.279 792.229 2246.11
270.403 792.247 2245.78
276.689 793.197 2239.73
276.887 792.875 2240.38
276.427 793.474 2239
276.976 792.661 2240.48
277.066 792.462 2240.51
275.952 793.69 2237.95
275.666 793.489 2235.78
275.776 793.251 2235.38
275.774 793.166 2234.95
275.718 793.157 2234.5
275.864 793.054 2234.61
273.391 794.435 2235.49
274.383 794.064 2235.17
264.138 798.097 2246.94
263.744 798.075 2249.19
262.961 798.725 2247.82
263.209 798.568 2247.33
266.475 797.238 2245.25
267.323 796.832 2241.36
267.644 796.614 2239.52
264.646 797.858 2246.41
271.341 795.141 2236.33
277.656 791.245 2240.67
277.922 791.072 2240.82
277.631 790.394 2240.04
277.432 791.35 2240.48
277.495 790.283 2239.79
277.21 792.268 2240.63
277.247 791.496 2240.33
277.316 790.356 2239.67
277.114 790.291 2239.07
277.051 790.261 2238.68
277.027 790.151 2238.1
276.769 790.345 2236.85
277.156 790.355 2239.41
277.228 790.436 2239.64
276.645 790.41 2236.09
276.809 790.25 2235.99
277.027 790.063 2235.92
277.055 790.083 2235.59
276.959 790.217 2235.33
277.401 790.121 2234.65
261.924 798.119 2281.48
261 798.397 2279.55
261.716 798.233 2281.07
259.268 798.946 2274.71
259.141 798.696 2272.87
259.124 798.454 2271.66
259.987 798.85 2277.53
259.519 799.054 2276.07
259.205 799.038 2274.64
259.091 798.514 2271.35
259.186 798.401 2271.24
259.297 798.28 2271.08
259.493 798.187 2270.8
259.712 798.038 2270.47
260.656 797.647 2269.21
261.48 797.371 2268.04
261.715 797.276 2267.85
261.874 797.092 2267.91
262.702 796.717 2267.6
262.193 796.979 2267.7
266.372 795.262 2267.32
267.518 794.767 2267.26
268.155 794.493 2267.5
270.542 793.78 2268.11
272.41 793.29 2268.48
264.515 796.379 2266.75
263.602 796.628 2267.04
264.516 796.522 2266.54
264.129 796.758 2266.49
273.388 792.917 2268.47
273.087 793.074 2268.48
273.64 792.936 2268.06
273.496 792.954 2268.28
273.855 792.713 2268.13
274.065 792.519 2267.99
274.561 791.868 2267.85
274.273 792.171 2267.99
274.776 791.587 2266.86
275.092 791.246 2265.3
275.531 790.87 2264.37
275.961 790.411 2263.8
275.833 790.619 2263.46
275.354 791.199 2264.2
273.967 792.283 2265.75
273.704 792.415 2265.54
274.244 792.095 2265.82
274.543 791.863 2265.72
274.811 791.629 2265.73
265.885 793.296 2260.7
264.563 792.939 2258.64
263.498 793.199 2258.12
263.32 793.221 2257.68
263.264 793.22 2257.16
265.164 792.674 2255.4
267.563 792.413 2252.02
269.452 792.387 2248.09
269.159 793.768 2265.42
270.885 793.793 2266.86
269.204 794.21 2266.61
268.574 794.315 2266.24
267.389 793.794 2263.61
266.669 793.776 2262.59
272.652 793.407 2267.24
273.367 792.833 2266.38
273.157 793.207 2267.23
268.915 792.568 2248.42
273.227 792.649 2244.05
271.441 792.225 2244.89
274.31 793.229 2243.35
274.396 793.579 2243.07
274.312 793.992 2242.86
273.15 792.772 2243.97
272.226 795.209 2243.44
270.199 795.859 2244.37
269.861 796.037 2244.49
269.867 796.137 2244.34
268.683 796.57 2245.55
266.587 797.008 2247.92
265.81 796.938 2249.29
264.853 797.277 2251.25
264.644 797.427 2250.88
264.889 797.232 2251.38
270.571 792.229 2245.48
270.838 792.308 2245.08
270.491 792.328 2245.33
269.091 792.671 2246.9
268.384 792.803 2248.5
269.764 792.523 2246.1
276.698 793.104 2239.6
276.471 793.363 2238.84
276.864 792.801 2240.24
276.048 793.538 2237.93
276.955 792.615 2240.37
277.07 792.328 2240.41
276.956 792.535 2240.29
275.687 793.537 2236.3
275.792 793.189 2235.59
275.845 793.078 2235.11
275.863 793.004 2234.8
276.102 792.879 2234.22
276.139 792.824 2234.4
263.696 798.256 2246.83
263.401 798.277 2249.34
262.402 799.018 2247.98
262.536 798.892 2247.44
264.877 797.595 2245.71
265.35 797.125 2244.48
265.283 796.902 2243.36
265.513 796.836 2241.86
265.052 796.925 2239.81
265.211 796.836 2239.12
265.41 796.654 2238.25
268.12 795.804 2237
263.857 798.042 2246.36
277.42 790.518 2239.94
277.296 790.583 2239.87
277.197 790.645 2239.79
277.106 791.582 2240.16
277.068 790.785 2239.71
276.939 790.419 2238.83
276.996 790.475 2239.21
276.928 790.288 2238.06
276.593 790.522 2236.51
276.482 790.575 2236.02
277.127 790.514 2239.56
276.575 790.475 2235.68
276.508 790.532 2235.83
276.748 790.32 2235.6
276.81 790.38 2235.15
276.654 790.447 2235.38
277.216 790.317 2234.57
260.953 798.506 2279.5
261.813 798.29 2281.37
261.687 798.343 2280.96
261.004 798.588 2279.61
259.09 798.793 2272.84
259.056 798.582 2271.71
260.017 798.97 2277.63
259.614 799.121 2276.43
259.261 799.181 2275.09
259.089 799.074 2273.97
259.066 798.858 2272.73
259.059 798.646 2271.35
259.135 798.52 2271.13
259.271 798.401 2270.92
259.561 798.252 2270.6
260.25 798.484 2269.11
260.512 797.862 2269.22
261.331 797.604 2267.98
261.596 797.445 2267.76
261.506 797.453 2267.88
261.926 797.175 2267.7
263.317 796.83 2266.97
262.284 797.06 2267.48
266.123 795.589 2266.96
267.707 794.793 2267.03
266.271 795.6 2266.8
267.977 794.705 2267.06
270.726 793.83 2267.88
272.69 793.323 2268.26
264.744 796.437 2266.46
264.64 796.563 2266.38
264.387 796.723 2266.39
264.033 796.928 2266.38
263.779 797.018 2266.49
273.154 793.13 2268.31
273.351 793.109 2268.09
273.615 793.012 2267.8
273.841 792.835 2267.83
274.059 792.626 2267.76
274.2 792.347 2267.84
274.428 792.076 2267.66
274.604 791.882 2266.78
274.965 791.429 2265.64
275.405 791.093 2264.42
273.925 792.519 2266.65
273.667 792.673 2266.49
274.164 792.34 2266.72
274.373 792.152 2266.73
267.514 794.058 2264.47
265.131 793.571 2260.85
263.871 793.258 2258.95
263.024 793.451 2258.29
262.591 793.529 2257.7
262.718 793.426 2257.35
262.445 793.565 2257.05
262.793 793.452 2256.87
265.012 792.79 2255.01
267.22 792.513 2252.05
270.836 793.868 2267.16
268.579 794.465 2266.63
267.859 794.679 2266.31
267.591 794.69 2266
272.629 793.46 2267.53
272.969 793.335 2267.48
273.467 793.061 2267.28
273.308 793.195 2267.5
267.839 792.73 2250.6
271.552 792.35 2244.72
271.093 792.334 2244.9
273.888 793.402 2243.38
273.022 792.911 2243.91
273.814 793.886 2243.17
273.71 794.299 2243.02
272.145 795.164 2243.55
271.505 792.49 2244.62
270.228 795.733 2244.49
269.84 795.927 2244.65
268.482 796.501 2245.9
268.555 796.554 2245.76
266.873 796.939 2247.57
266.005 796.867 2249.06
265.862 796.849 2249.46
264.958 797.164 2251.42
264.075 797.805 2251.96
264.174 797.76 2251.58
263.365 798.281 2249.83
263.925 797.927 2252.23
270.365 792.321 2245.52
269.938 792.541 2245.75
270.785 792.421 2244.98
270.493 792.459 2245.16
270.233 792.536 2245.36
268.012 792.991 2248.62
268.379 792.994 2247.24
267.676 792.88 2250.33
269.206 792.747 2246.43
268.508 793.027 2246.91
276.713 793.002 2239.53
276.537 793.189 2238.81
276.172 793.312 2237.95
276.866 792.7 2240.16
275.792 793.485 2236.89
276.982 792.394 2240.24
276.984 791.632 2239.98
276.897 792.535 2240.12
275.783 793.281 2236.07
275.893 792.95 2235.46
275.858 792.972 2235.74
275.923 792.912 2235.18
275.966 792.886 2234.91
276.182 792.755 2234.57
276.391 792.654 2234.24
261.7 799.413 2247.75
262.363 799.051 2248.44
262.03 799.587 2249.12
261.874 799.677 2249.12
261.67 799.546 2248.2
263.751 797.767 2245.65
264.319 797.321 2244.84
260.747 796.862 2243.25
260.306 796.704 2242.75
259.892 796.635 2242.32
260.225 796.64 2241.95
264.682 796.888 2240.98
264.133 797.081 2239.78
264.454 797.026 2239.3
264.858 796.835 2238.55
264.543 796.819 2237.95
265.183 796.254 2236.89
261.502 799.314 2247.3
276.96 790.875 2239.59
277.007 790.609 2239.42
276.845 790.567 2238.94
276.897 790.429 2238.47
276.625 790.531 2236.96
276.437 790.661 2236.15
276.391 790.698 2235.84
276.445 790.626 2235.77
276.578 790.557 2235.45
276.51 790.62 2235.57
276.622 790.531 2235.24
277.084 790.482 2234.55
276.649 790.543 2235.15
261.682 798.425 2280.94
260.986 798.746 2279.57
260.117 799.046 2277.87
259.034 798.708 2271.69
259.678 799.27 2276.67
259.349 799.356 2275.58
259.094 799.159 2274.07
259.031 798.892 2272.41
259.044 798.797 2271.35
259.076 798.685 2271.15
259.107 798.638 2270.95
259.354 798.472 2270.69
259.815 798.642 2269.79
260.002 799.276 2269
260.481 799.302 2267.97
260.116 799.409 2268.59
260.867 798.557 2267.9
261.356 797.723 2267.81
261.638 797.506 2267.59
261.895 797.273 2267.58
263.157 796.93 2266.98
262.24 797.19 2267.34
266.436 795.566 2266.71
264.828 796.453 2266.34
268.507 794.475 2267.24
267.744 794.883 2266.85
270.659 793.89 2267.7
272.775 793.352 2268.13
272.68 793.43 2267.93
264.36 796.819 2266.25
264.653 796.603 2266.28
264.151 796.95 2266.29
263.941 797.092 2266.31
263.607 797.128 2266.52
263.817 797.2 2266.3
273.02 793.245 2268.06
273.342 793.179 2267.72
273.518 793.084 2267.54
273.81 792.889 2267.62
273.667 792.984 2267.56
274.021 792.696 2267.56
274.221 792.387 2267.6
273.649 792.959 2267.37
273.854 792.821 2267.44
266.912 794.369 2264.58
264.533 793.779 2260.77
263.194 793.576 2258.95
262.442 793.759 2258.15
262.1 793.808 2257.57
262.124 793.764 2257.27
262.128 793.762 2256.78
261.96 793.853 2256.97
263.603 793.305 2255.79
266.238 792.463 2253.5
266.844 792.656 2252.13
270.952 793.863 2267.4
268.699 794.484 2266.88
267.897 794.771 2266.59
266.327 795.606 2266.03
266.591 795.5 2266.25
266.216 794.62 2264.3
266.136 795.617 2265.76
272.892 793.372 2267.72
271.082 792.458 2244.77
273.578 793.635 2243.38
272.813 793.056 2243.87
271.497 792.666 2244.49
273.348 794.357 2243.18
273.285 794.146 2243.3
271.904 795.144 2243.73
270.252 795.586 2244.6
269.837 795.805 2244.79
268.633 796.342 2245.83
267.374 796.774 2247.02
266.92 796.874 2247.56
266.209 796.781 2248.77
265.986 796.73 2249.38
265.488 796.802 2250.95
264.595 797.232 2252.41
263.969 797.81 2252.62
263.831 798.062 2251.9
263.875 798.012 2251.67
263.941 797.944 2251.46
263.168 798.467 2249.95
263.78 798.024 2252.5
263.755 798.15 2252.1
269.312 792.834 2246.12
268.645 793.048 2246.68
270.752 792.544 2244.89
270.473 792.591 2245.05
270.433 792.532 2245.13
270.248 792.625 2245.23
269.439 792.884 2245.88
267.879 793.077 2248.64
267.454 793.053 2250.26
268.058 793.18 2247.41
266.435 792.833 2252.39
268.111 793.246 2247.16
276.587 793.004 2238.75
276.749 792.85 2239.48
276.277 793.085 2237.94
275.925 793.199 2237.04
275.843 793.258 2236.65
276.896 791.696 2239.77
276.901 792.393 2240
276.865 790.965 2239.42
276.777 792.73 2239.38
275.874 793.072 2236.23
276.01 792.742 2235.35
275.999 792.702 2235.54
275.983 792.691 2235.75
275.945 792.815 2236.1
276.12 792.714 2235.07
276.242 792.687 2234.82
276.393 792.59 2234.55
276.966 792.413 2233.53
261.152 800.194 2249.8
261.482 800.074 2249.8
260.693 800.103 2248.42
262.171 799.486 2249.22
262.254 799.809 2250.67
262.122 799.956 2250.85
261.806 800.121 2250.93
262.245 800.31 2251.89
261.385 799.055 2246.73
261.148 798.77 2246.16
260.616 797.272 2244.09
260.434 797.022 2243.62
257.919 796.784 2242.8
257.849 796.633 2242.42
257.812 796.539 2242.05
257.687 796.537 2241.82
260.703 796.703 2241.61
257.653 796.564 2241.66
263.617 797.018 2240.62
263.391 797.249 2239.58
263.84 797.182 2239.29
263.976 797.166 2238.94
264.334 797.016 2238.67
264.254 796.969 2238.22
264.021 796.968 2237.82
264.331 796.437 2236.81
260.302 800.22 2248.38
259.849 800.164 2247.92
276.921 790.7 2239.26
276.878 790.629 2239.08
276.84 790.606 2238.72
276.714 790.535 2237.67
276.459 790.715 2236.62
276.391 790.803 2236.28
276.354 790.782 2235.95
276.336 790.817 2235.7
276.417 790.736 2235.59
276.545 790.646 2235.36
277.013 790.599 2234.51
276.573 790.633 2235.2
261.761 798.571 2281.04
261.549 798.743 2280.58
261.07 798.882 2279.7
260.441 799.259 2278.44
259.975 799.294 2277.48
259.019 798.83 2271.65
259.639 799.588 2276.53
259.403 799.516 2275.83
259.21 799.366 2274.99
259.076 799.262 2274
259.018 799.011 2272.24
259.016 799.099 2273.36
259.052 798.925 2271.26
259.089 798.818 2271.08
259.152 798.695 2270.77
259.109 798.859 2270.89
259.611 798.853 2270
259.829 799.339 2269.34
259.9 799.534 2269.04
259.735 799.593 2269.36
260.381 799.503 2267.92
260.637 799.409 2267.51
260.097 799.596 2268.35
259.936 799.657 2268.74
260.859 799.236 2267.29
261.037 798.5 2267.66
261.547 797.697 2267.56
261.271 798.42 2267.44
261.857 797.501 2267.37
261.934 797.32 2267.46
262.965 797.183 2266.85
262.195 797.312 2267.25
266.115 795.795 2266.51
264.949 796.436 2266.24
264.742 796.591 2266.19
268.366 794.603 2266.92
270.834 793.881 2267.55
267.643 794.951 2266.75
264.14 797.032 2266.2
264.451 796.807 2266.14
264.227 797.031 2266.12
264.027 797.147 2266.2
263.934 797.301 2266.12
263.634 797.331 2266.3
263.409 797.371 2266.41
263.805 797.396 2266.12
264.074 793.981 2260.7
262.633 793.816 2258.64
261.977 793.949 2257.68
261.918 793.924 2257.36
261.832 793.971 2257.13
261.837 793.976 2256.7
262.009 793.894 2256.55
261.736 794.035 2256.9
263.738 793.344 2255.39
266.279 795.725 2266.32
266.095 795.832 2266.38
264.94 796.417 2265.66
265.041 796.468 2265.89
265.995 795.56 2265.49
265.378 795.279 2264.46
265.079 794.884 2263.56
264.502 794.865 2262.77
264.808 796.39 2265.42
271.036 792.568 2244.71
273.257 793.796 2243.45
272.528 793.255 2243.88
271.396 792.783 2244.45
271.714 795.085 2243.89
272.94 794.137 2243.47
271.823 794.891 2243.89
270.253 795.419 2244.7
269.803 795.681 2244.92
268.546 796.279 2245.96
267.413 796.682 2246.99
266.942 796.754 2247.61
266.503 796.723 2248.35
266.091 796.584 2249.16
265.971 796.622 2249.58
265.556 796.712 2250.93
265.28 796.702 2251.99
264.379 797.292 2252.8
263.868 797.803 2252.95
263.845 797.902 2252.8
263.718 798.237 2251.83
263.714 798.173 2251.68
263.737 798.132 2251.44
262.995 798.663 2250.07
263.713 798.063 2252.83
263.669 798.233 2252.35
263.614 798.325 2252.57
263.688 798.292 2252.09
268.467 793.246 2246.59
268.514 793.182 2246.6
268.142 793.317 2246.98
270.458 792.713 2244.98
270.774 792.664 2244.8
270.222 792.738 2245.15
269.337 793.027 2245.83
268.331 793.401 2246.62
267.701 793.26 2248.63
267.34 793.228 2250.11
267.197 793.059 2250.71
267.797 793.445 2247.51
266.113 793.027 2252.53
262.934 793.69 2255.78
276.392 792.706 2237.86
276.342 792.881 2237.87
276.036 792.948 2237.09
275.941 792.971 2236.68
276.837 791.785 2239.56
276.822 791.054 2239.22
276.786 792.543 2239.26
276.856 790.796 2239.12
276.481 792.412 2237.87
276.193 792.562 2235.21
276.105 792.545 2235.46
276.06 792.471 2235.97
276.102 792.379 2235.74
276.038 792.561 2236.26
276.402 792.522 2234.86
276.526 792.453 2234.56
277.008 792.313 2233.74
260.756 800.316 2249.76
261.924 800.524 2252.08
261.573 800.621 2252.04
261.143 800.699 2251.93
262.282 799.659 2250.29
262.682 799.946 2251.72
262.48 800.109 2251.76
262.558 800.536 2252.78
261.984 801.284 2254.64
262.454 800.724 2253.16
257.823 799.918 2246.93
258.231 799.547 2246.42
259.093 798.324 2245.08
260 797.458 2244.24
257.718 797.155 2243.34
257.586 796.897 2242.91
257.084 796.735 2242.42
257.148 796.621 2242.14
257.023 796.627 2241.83
256.906 796.67 2241.58
260.236 796.751 2241.36
257.076 796.675 2241.43
257.549 796.607 2241.44
262.86 797.022 2240.77
262.881 797.266 2240.04
262.874 797.484 2239.43
263.324 797.393 2239.2
263.405 797.391 2238.93
263.604 797.293 2238.56
263.974 797.109 2238.38
264.015 797.046 2238.13
263.802 797.072 2237.8
263.492 796.694 2236.63
260.032 800.318 2248.48
257.553 800.225 2247.52
276.838 790.71 2238.87
276.59 790.704 2237.44
276.363 790.991 2236.44
276.317 790.927 2236.07
276.292 790.932 2235.79
276.299 790.989 2235.63
276.343 790.869 2235.53
276.463 790.752 2235.39
276.539 790.694 2235.2
276.948 790.735 2234.53
276.534 790.743 2235.15
261.867 798.803 2281.17
261.069 799.113 2279.63
261.745 798.993 2280.85
259.949 799.589 2277.31
260.393 799.67 2278.15
259.016 798.947 2271.52
259.648 799.813 2276.51
259.454 799.737 2275.95
259.275 799.547 2275.29
259.118 799.424 2274.28
259.035 799.213 2272.62
259.019 799.092 2271.67
259.026 799.021 2271.3
259.074 799.025 2271.1
259.107 798.978 2271.02
259.432 799.049 2270.24
259.321 799.202 2270.48
259.682 799.434 2269.62
259.636 799.651 2269.63
259.701 799.725 2269.32
259.782 799.745 2269.06
259.608 799.819 2269.61
260.296 799.664 2267.86
260.589 799.55 2267.47
260.968 799.376 2267.06
259.861 799.8 2268.63
260.008 799.756 2268.24
259.679 799.928 2268.99
261.206 799.19 2266.95
261.221 799.058 2267.07
261.513 798.289 2267.26
262.006 797.61 2267.18
262.139 797.435 2267.18
262.776 797.413 2266.79
264.872 796.536 2266.09
264.567 796.759 2266.03
264.096 797.171 2266.13
264.382 796.947 2266.02
264.264 797.122 2266.04
264.121 797.275 2266.02
264.004 797.326 2266.05
263.871 797.493 2265.99
263.519 797.538 2266.22
263.262 797.548 2266.4
263.716 797.583 2266.07
263.705 794.119 2260.53
263.374 794.213 2260.25
262.139 794.032 2258.21
261.718 794.187 2257.66
261.733 794.092 2257.42
261.59 794.196 2257.21
261.547 794.227 2256.98
261.822 794.065 2256.51
261.623 794.17 2256.75
264.94 796.51 2265.99
264.735 796.595 2265.76
264.687 796.559 2265.56
264.674 796.67 2265.87
