202.221 1014.54 3553.54
199.563 1011.16 3545.67
198.124 1004.88 3543.2
198.84 1007.66 3544.27
197.175 1003.35 3541.17
200.379 1012.74 3547.94
199.658 1003.23 3545.72
197.416 1002.44 3541.28
201.708 1001.47 3547.66
198.855 1001.57 3543.03
198.323 1002.08 3542.61
202.799 1000.5 3548.61
203.706 999.351 3548.87
204.171 998.777 3549.19
204.442 998.262 3549.59
205.284 997.68 3548.14
205.432 997.408 3548.13
205.258 996.616 3549.31
205.433 996.032 3549.18
205.592 995.231 3548.88
205.613 994.686 3548.38
205.587 994.295 3548.08
205.225 993.186 3547.38
205.509 993.935 3547.53
204.318 991.258 3545.8
203.188 989.54 3542.62
203.018 989.089 3541.98
202.857 988.274 3541.71
202.788 987.765 3541.24
203.065 986.645 3540.93
202.832 987.541 3541.23
203.102 986.635 3541.31
203.457 983.841 3540.38
203.953 981.086 3538.46
204.902 977.65 3535.91
204.778 977.904 3534.38
205.776 975.545 3533.76
206.639 973.782 3531.3
208.118 970.936 3531.69
208.49 970.035 3532.22
208.922 968.434 3532.36
202.46 1022.52 3556.62
201.149 1020.9 3554.21
201.173 1019.24 3554.19
203.298 1026.43 3555.56
201.308 1022.8 3553.8
201.375 1017.7 3554.01
201.476 1015.27 3552.19
198.469 1011.22 3542.93
198.382 1010.02 3542.52
196.446 1003.64 3539.57
196.088 1002.77 3538.71
197.437 1006.35 3541.09
196.364 1002.42 3539.31
199.434 1013.15 3546.12
198.626 1012.03 3543.67
196.475 1001.89 3539.24
201.043 1001.09 3545.97
198.107 1000.95 3541.12
197.091 1001.52 3540.1
197.029 1001.07 3539.48
202.309 1000.28 3547.08
203.183 999.887 3548.38
203.928 999.08 3548.33
204.951 998.244 3547.63
205.056 998.086 3547.9
205.19 997.88 3548.05
206.545 996.968 3544.67
206.692 996.801 3544.52
205.605 997.093 3547.98
206.818 996.646 3544.39
205.715 996.824 3547.91
206.231 996.482 3546.51
205.583 995.806 3548.57
206.338 996.311 3546.27
205.674 995.22 3548.12
205.754 994.929 3547.53
205.721 994.506 3547.06
205.369 993.566 3546.62
204.037 990.98 3544.68
204.283 991.542 3544.68
203.236 989.727 3542.13
203.086 989.292 3541.75
202.876 988.583 3541.5
202.806 988.195 3541.45
202.793 988.013 3540.99
202.854 987.528 3540.85
202.797 987.698 3540.93
202.834 987.545 3541.17
203.075 986.685 3540.61
203.312 985.467 3540.55
203.417 983.918 3540.1
203.894 981.381 3538.14
204.611 978.55 3534.05
205.347 976.266 3530.89
205.072 977.084 3530.8
206.169 974.706 3529.05
207.938 971.286 3529.13
208.495 970.097 3530.09
208.654 969.699 3530.54
208.909 968.429 3531.66
209.539 966.364 3529.21
209.397 966.683 3529.36
198.902 1020.72 3549.57
197.967 1019.36 3548.1
197.95 1018.48 3548.09
200.919 1024.7 3550.94
201.994 1029.8 3549.11
197.687 1020.81 3546.72
198.972 1017.52 3549.53
200.044 1015.62 3549.73
197.969 1012.24 3541.94
197.913 1011.82 3541.34
198.001 1010.82 3541.24
197.83 1010.26 3540.31
197.856 1009.2 3540.79
195.954 1003.59 3538.01
195.798 1002.85 3537.74
196.008 1002.2 3538.39
195.801 1002.45 3537.71
196.883 1005.97 3539.47
198.106 1015.01 3545.71
198.288 1012.89 3543.45
197.838 1012.81 3542.16
195.939 1001.89 3537.95
196.317 1001.5 3538.55
200.268 1000.48 3543.78
197.617 1000.57 3539.77
196.968 1000.69 3538.78
196.345 1001.15 3538.15
202.635 999.759 3546.56
200.282 999.985 3542.92
203.507 999.377 3547.75
205.406 997.889 3546.06
205.204 998.022 3545.92
206.665 996.914 3543.58
206.685 996.904 3543.98
207.205 996.537 3542.85
207.328 996.418 3542.79
206.861 996.519 3544.48
207.438 996.305 3542.72
207.368 996.26 3543.01
206.482 996.105 3545.83
207.373 996.108 3543.02
206.46 995.895 3545.79
206.52 995.682 3545.46
206.589 995.443 3544.95
206.584 995.21 3544.6
205.732 994.253 3546.19
205.529 993.707 3545.53
204.399 991.785 3544.04
203.398 990.033 3541.87
203.095 989.31 3541.31
202.927 988.829 3541.04
202.813 988.421 3541.05
202.827 988.201 3540.66
202.835 987.709 3540.65
202.923 987.507 3540.42
203.103 986.791 3540.38
203.309 985.743 3540.28
203.376 985.251 3540.18
203.426 983.952 3539.84
203.949 981.543 3537.46
204.452 979.834 3532.39
204.638 979.467 3529.54
205.54 975.993 3528.98
204.959 978.561 3528.22
206.428 974.472 3527.85
208.013 971.321 3528.06
208.708 969.766 3529.26
208.934 969.205 3529.46
209.002 968.173 3530.67
209.288 966.921 3530.12
209.853 966.448 3527.67
209.703 966.651 3528.01
209.967 966.24 3527.73
210.11 966.062 3527.68
210.371 965.787 3527.65
210.255 965.919 3527.57
209.321 967.008 3529.47
209.669 966.948 3527.71
210.562 965.681 3527.52
210.786 965.521 3527.57
211.05 965.39 3527.51
196.076 1019.03 3544.06
195.823 1018.08 3543.8
196.364 1017.15 3544.76
195.577 1017.22 3543.17
203.259 1032.92 3550.58
198.46 1024.41 3544.98
202.786 1033.58 3547.55
200.657 1030.42 3545.14
196.035 1021.05 3541.81
195.156 1019.54 3540.58
196.788 1016.53 3545.08
197.537 1012.99 3541.27
197.625 1012.53 3540.84
197.652 1012.17 3539.92
197.775 1011.55 3540.29
197.753 1010.89 3539.58
197.783 1010.68 3537.56
197.655 1010.09 3537.35
196.765 1006.61 3538.2
195.788 1003.81 3536.96
195.649 1003.02 3536.86
195.641 1002.44 3536.79
195.82 1002.13 3537.57
195.67 1002.12 3536.63
195.84 1016.38 3543.25
197.206 1014.74 3543.72
197.701 1013.42 3542.61
197.345 1013.51 3541.64
196.007 1001.44 3537.53
195.791 1001.83 3537.05
196.876 1000.46 3538
197.555 1000.27 3539.05
196.433 1000.83 3537.7
196.098 1001.15 3537.21
200.615 999.6 3542.6
203.249 999.222 3546.27
204.37 998.629 3546.63
206.404 996.889 3540.65
206.586 996.796 3540.56
206.125 997.068 3541.63
207.197 996.576 3542.22
206.684 996.721 3540.36
207.339 996.44 3542.1
207.441 996.333 3542.05
207.502 996.172 3542.46
207.511 996.24 3542.09
207.366 995.928 3542.91
207.453 996.022 3542.46
207.324 995.759 3542.83
207.171 995.45 3542.76
206.531 995.017 3544.42
206.852 994.891 3542.81
207.021 995.158 3542.39
206.369 994.61 3544.1
206.079 994.053 3543.66
204.507 991.906 3543.28
203.512 990.163 3541.19
203.24 989.608 3540.96
203.048 989.104 3540.65
202.9 988.68 3540.66
202.89 987.862 3540.38
202.909 988.11 3540.29
202.89 988.334 3540.35
202.98 987.654 3540.2
203.176 986.815 3540.16
203.385 985.738 3540
203.431 985.226 3539.92
203.674 983.273 3538.63
203.904 982.092 3537.55
204.293 981.802 3534.88
204.324 981.188 3532.82
204.077 982.422 3529.38
204.177 981.8 3528.43
204.26 981.505 3526.91
205.433 977.304 3527.58
206.451 974.825 3526.9
204.467 981.208 3525.73
207.561 973.101 3525.31
208.148 971.394 3527.14
208.842 969.766 3528.26
209.01 969.391 3528.4
209.395 969.127 3527.12
209.119 968.014 3529.8
210.035 966.834 3525.63
210.107 966.616 3525.8
210.2 966.962 3523.12
210.243 966.366 3525.93
210.297 966.743 3523.22
210.442 966.452 3523.82
210.562 966.304 3523.76
210.711 966.152 3523.84
209.585 967.181 3527.95
209.943 967.318 3525.43
210.117 967.205 3522.96
210.907 965.993 3523.95
211.165 965.773 3524.43
211.469 965.54 3525.41
195.183 1018.07 3542.12
195.082 1017.69 3541.91
195.368 1016.85 3542.51
195.016 1017.3 3541.62
203.489 1035.28 3547.47
203.582 1036.38 3546.4
203.712 1036.99 3547.31
196.64 1026.21 3538.63
202.71 1035.35 3542.6
201.582 1032.88 3544.03
202.219 1034.75 3541.46
198.334 1029.13 3540.11
194.875 1023.22 3536.19
194.791 1018.9 3539.73
194.092 1021.11 3535.14
197.355 1013.2 3540.75
197.194 1013.55 3541.16
197.513 1012.75 3540.09
197.626 1012.86 3538.23
197.7 1012.47 3538.11
197.778 1011.96 3538.04
197.817 1011.21 3537.74
197.829 1011.9 3535.89
197.441 1010.87 3533.39
197.44 1009.93 3535.04
197.106 1009.8 3531.61
196.801 1007.91 3535.68
195.79 1004.68 3535.21
195.601 1003.58 3535.54
195.556 1002.8 3535.72
195.596 1002.38 3535.63
195.687 1001.93 3536.19
195.401 1016.34 3542.15
195.877 1015.94 3542.82
196.845 1014.68 3542.86
196.54 1014.67 3542.06
195.854 1001.54 3536.83
196.457 1000.69 3537.09
196.244 1000.92 3536.97
197.117 1000.21 3537.74
198.068 999.922 3539.13
195.933 1001.33 3536.62
201.528 999.137 3542.83
204.435 998.355 3545.19
205.906 997.133 3538.46
206.052 997.076 3538.08
205.673 997.274 3541.88
205.716 997.156 3539.01
206.84 996.533 3540.08
206.752 996.628 3540.18
206.109 997.072 3537.55
206.368 996.782 3538.01
206.896 996.412 3539.96
206.938 996.276 3539.91
207.511 996.089 3541.85
207.465 995.98 3541.91
206.968 996.143 3539.85
207.391 995.862 3542.29
207.331 995.738 3541.68
207.236 995.546 3541.98
206.668 994.512 3542.4
206.866 994.795 3541.79
206.949 994.99 3541.19
205.432 992.965 3542.22
206.008 993.473 3540.67
204.294 991.147 3539.91
203.88 990.352 3539.46
203.707 989.911 3539.19
203.529 989.501 3539.18
203.447 989.24 3539.14
202.996 987.99 3540.05
203.394 988.686 3539.05
203.383 988.93 3539.14
203.126 987.59 3539.89
203.081 987.843 3539.87
203.219 986.939 3540
203.426 986.102 3539.88
203.468 985.752 3539.86
203.502 985.42 3539.8
203.579 984.817 3539.52
203.769 983.301 3538.31
204.219 982.46 3535.81
204.308 982.691 3533.98
204.324 982.813 3535.09
204.268 982.604 3532.43
204.111 983.11 3530.2
203.888 983.699 3528.85
203.762 983.344 3527.94
203.779 982.882 3527.06
203.717 982.781 3525.52
203.34 983.672 3525.67
205.615 979.331 3523.79
206.211 976.118 3526.21
207.029 975.424 3524.02
207.64 974.802 3521.71
204.837 981.707 3522.97
203.916 982.522 3524.78
208.177 973.507 3522.16
207.781 972.763 3524.99
208.619 971.524 3525.2
209.014 970.305 3526.66
209.281 969.933 3526.44
209.463 969.675 3526.13
209.519 968.207 3527.44
209.639 970.014 3524.6
210.168 967.49 3520.68
209.792 969.038 3519.06
210.383 966.87 3521.46
210.268 967.44 3520.31
210.496 966.723 3521.45
210.653 966.534 3521.59
210.781 966.385 3521.72
209.793 968.585 3525.19
210 967.715 3522.32
209.904 968.161 3522.32
210.925 966.216 3522.01
211.209 965.942 3522.73
194.699 1018.48 3539.55
194.699 1018.11 3539.53
195.068 1016.74 3541.4
194.759 1017.6 3539.58
202.717 1035.88 3541.77
202.85 1036.55 3542.08
203.476 1038.89 3546.71
202.891 1037.28 3542.32
195.673 1026.47 3535.64
194.655 1025 3533.84
202.069 1035.18 3539
200.065 1031.73 3540.61
201.555 1033.99 3539.84
201.804 1034.55 3538.5
196.464 1027.82 3536.03
193.955 1022.6 3533.6
193.47 1021.17 3532.47
193.768 1020.17 3534.3
197.13 1013.59 3540.11
197.071 1013.7 3540.69
197.305 1013.26 3540.05
196.362 1014.65 3541.45
197.495 1013.31 3538.4
197.569 1013.58 3536.46
197.677 1013.14 3536.33
197.751 1012.66 3535.81
197.359 1011.5 3532.81
197.098 1009.53 3529.34
196.53 1007.87 3533.18
197.008 1009.24 3531.77
197.071 1008.06 3528.57
197.006 1008.71 3530.2
195.927 1005.93 3533.35
195.827 1005.25 3533.17
195.68 1004 3533.97
195.641 1003.14 3534.28
195.675 1002.65 3534.46
195.671 1002.07 3535.46
195.771 1001.73 3535.75
195.225 1016.17 3541.33
195.674 1015.8 3542.21
195.402 1016.08 3541.9
195.445 1015.82 3541.56
196.384 1000.8 3536.21
196.095 1001.1 3536.34
196.683 1000.48 3536.89
197.543 999.944 3537.77
199.251 999.365 3539.64
195.898 1001.5 3535.64
202.819 998.536 3542.91
205.487 997.445 3537.7
205.725 997.456 3537.21
205.841 997.488 3536.7
202.602 998.276 3541.36
203.201 997.951 3540.4
205.401 997.248 3539.56
205.252 997.443 3538.17
206.331 996.72 3537.32
206.103 997.132 3536.73
205.884 997.587 3536.12
206.231 996.764 3536.68
206.924 995.743 3539.67
206.885 995.964 3539.45
206.581 995.659 3538.28
206.167 996.735 3536.25
207.135 995.375 3541.22
206.498 995.377 3538.16
206.746 994.894 3539.94
205.993 993.467 3539.76
205.971 993.57 3538.71
205.564 993.264 3537.04
204.703 991.413 3537.96
204.462 990.767 3537.07
204.278 990.295 3537.2
204.15 989.912 3537.2
204.05 989.579 3537.31
203.434 988.508 3538.98
203.922 989.22 3537.67
204.143 989.45 3536.96
203.523 987.439 3539.23
203.458 988.286 3539
203.31 986.978 3539.8
203.535 985.94 3539.73
203.571 985.549 3539.69
203.698 985.174 3539.36
203.781 984.485 3538.98
203.822 983.607 3538.36
204.1 983.044 3537.12
204.228 982.869 3536.23
204.665 984.511 3534.63
204.592 984.601 3533.1
204.648 984.391 3535.77
204.518 984.916 3532.1
204.413 985.351 3531.35
204.173 985.763 3530.43
203.493 984.589 3527.61
203.279 984.223 3526.41
202.352 985.013 3523.56
202.138 985.467 3523.88
202.01 985.836 3524.2
206.278 979.585 3520.19
206.807 977.577 3520.98
207.652 976.038 3518.64
208.266 974.51 3519.56
208.992 972.394 3521.83
204.35 982.776 3522.42
205.581 981.221 3519.77
204.168 984.446 3519.34
202.367 984.953 3523.1
202.657 984.585 3522.9
209.15 971.5 3523.59
209.395 970.656 3524.88
209.47 970.851 3523.61
209.526 970.985 3522.45
209.653 970.442 3522.94
209.702 969.639 3517.88
209.813 969.409 3517.85
209.311 971.079 3517.59
209.041 972.213 3516.43
209.093 972.143 3516.1
210.434 967.429 3519.9
209.94 969.219 3517.77
210.539 967.005 3520.48
209.823 969.04 3523.28
209.598 970.33 3520.4
209.263 971.68 3518.75
193.846 1019.29 3534.38
194.714 1017.33 3539.5
195.065 1016.48 3541.11
193.965 1018.75 3534.3
202.178 1036.01 3539.07
202.052 1035.54 3538.23
202.104 1036.89 3538.68
203.331 1041.06 3548.37
202.875 1041.19 3543.83
202.425 1039.65 3541.39
201.77 1038.89 3538.37
194.959 1026.11 3533.23
194.624 1025.61 3531.72
193.915 1023.09 3532.48
201.865 1034.7 3537.43
201.937 1034.96 3537.17
198.261 1029.99 3537.61
200.786 1033 3538.7
201.495 1033.94 3537.75
201.765 1034.12 3536.6
195.368 1027.02 3532.85
193.315 1020.51 3531.45
193.38 1021.11 3531
193.332 1020.02 3531.63
196.919 1013.92 3540.31
196.941 1013.93 3539.98
197.131 1014.15 3538.65
197.335 1013.72 3538.57
196.306 1014.6 3540.92
195.356 1015.79 3540.91
197.414 1014.06 3536.83
197.371 1013.99 3535.46
197.562 1013.33 3535.36
197.23 1012.41 3532.66
197.004 1010.01 3528.39
197.094 1007.15 3525.85
196.474 1007.61 3532.05
196.445 1007.13 3531.24
197.039 1006.42 3527.97
196.96 1007.15 3528.87
196.464 1006.63 3530.6
195.92 1005.42 3532.18
195.919 1004.86 3532.15
195.854 1003.78 3532.78
195.736 1002.34 3534.48
195.877 1003.06 3533.03
195.819 1001.93 3534.79
194.979 1016.8 3539.25
195.21 1016.05 3540.87
196.106 1001.29 3535.32
196.515 1000.81 3535.56
196.366 1001.21 3534.76
196.699 1000.49 3536.32
197.221 1000.1 3537.18
198.403 999.579 3538.28
196.002 1001.67 3534.71
205.305 997.739 3537.04
205.389 997.988 3536.27
205.52 998.074 3535.79
205.606 998.141 3535.3
198.976 999.337 3538.19
202.317 998.216 3539.19
204.634 997.589 3538.53
204.895 997.706 3537.62
206.019 997.37 3535.87
205.824 997.853 3535.25
205.675 998.224 3534.82
206.016 997.412 3534.98
205.984 997.546 3535.22
206.1 996.53 3535.78
205.94 996.507 3534.72
205.984 997.092 3534.77
206.039 995.212 3536.41
205.783 996.056 3534.47
205.237 993.673 3535.12
204.86 991.7 3537.35
204.831 991.605 3536.5
204.611 991.296 3535.45
204.524 990.708 3536.37
204.38 990.216 3536.47
204.252 989.915 3536.49
203.907 988.967 3537.82
204.217 989.289 3536.73
204.329 989.623 3536.26
203.887 987.183 3538.86
203.964 988.671 3537.77
204.188 987.625 3538.1
204.003 988.353 3537.88
204.101 986.392 3538.82
204.143 986.084 3538.81
203.695 985.769 3539.49
204.179 985.697 3538.7
204.21 985.205 3538.48
204.277 984.594 3538.01
204.436 984.362 3537.33
204.563 984.313 3536.61
204.994 985.917 3536.03
204.998 986.08 3534.93
204.991 986.471 3534.31
204.927 985.734 3536.65
204.927 986.583 3533.66
204.89 987.15 3533.59
204.034 986.563 3530.33
204.665 987.255 3532.64
202.685 987.775 3527.96
202.384 986.55 3526.26
202.118 986.169 3525.12
201.31 986.533 3522.08
201.203 986.754 3522.44
201.093 987.131 3522.84
201.217 987.281 3523.82
207.201 978.306 3517.59
207.365 978.16 3515.85
207.715 976.678 3516.58
208.657 973.787 3517.83
208.646 973.798 3519.15
202.832 984.504 3522.4
203.959 984.151 3520.75
203.809 985.196 3519.23
204.022 985.082 3518.2
205.289 981.706 3517.63
206.423 979.756 3517.79
207.264 978.523 3515.08
203.759 985.673 3518.47
201.503 986.333 3521.8
209.25 971.692 3516.03
209.556 970.634 3516.31
208.081 975.997 3514.9
208.304 975.689 3514.45
210.511 967.606 3519.3
210.161 968.796 3517.95
209.752 970.291 3516.34
209.619 970.726 3516.02
210.658 967.204 3519.83
193.36 1019.54 3530.73
194.121 1018.25 3534.19
193.531 1019.03 3530.82
202.022 1036.1 3537.5
202.105 1034.91 3535.03
201.895 1037.5 3537.6
203.287 1043.08 3552.67
203.014 1041.57 3545.86
202.021 1041.71 3540.62
201.917 1041.17 3539.96
201.364 1040.56 3537.21
201.55 1039.39 3537.19
194.869 1026.32 3530.95
194.672 1025.75 3529.57
194.105 1023.67 3530.93
202.027 1032.61 3532.29
202.07 1033.47 3533.51
202.152 1033.81 3533.24
199.358 1031.34 3537.4
196.057 1027.88 3533.58
200.907 1033.07 3537.3
201.544 1033.52 3536.02
201.923 1032.19 3532.05
195.218 1026.93 3530.86
193.291 1020.32 3529.9
193.318 1019.84 3529.69
193.503 1021.27 3529.66
193.414 1020.58 3529.07
196.188 1014.74 3540.45
196.894 1014.55 3538.65
195.882 1015.37 3539.52
197.034 1014.78 3537.33
197.226 1014.5 3536.93
195.391 1015.73 3540.58
195.134 1016.47 3539.3
197.149 1014.48 3535.71
196.485 1014.63 3532.57
196.708 1013.98 3532.12
196.988 1013.28 3532.35
196.773 1010.9 3527.84
196.886 1008.76 3524.21
197.059 1007.38 3523.58
197.161 1005.81 3527.38
197.012 1005.59 3528.61
196.963 1006.26 3528.71
196.468 1006.01 3530.27
196.465 1005.53 3530.22
196.44 1005.04 3530.36
195.937 1002.58 3533.31
196.499 1004.7 3530.39
196.538 1004.2 3530.65
196.01 1002.14 3533.77
194.515 1017.64 3535.53
196.244 1001.69 3533.98
196.747 1000.85 3534.86
196.619 1001.18 3534.2
196.511 1001.67 3533.38
196.939 1000.4 3535.94
197.513 999.974 3536.87
204.993 998.439 3535.74
205.269 998.788 3534.56
205.453 998.74 3534.34
205.615 998.625 3534.3
205.77 998.58 3534.1
198.276 999.676 3536.91
201.306 998.637 3538.15
203.816 997.964 3538.02
204.389 998.239 3536.79
205.846 997.996 3534.64
205.802 998.377 3534.23
205.932 997.948 3534.28
205.931 997.624 3534.11
205.909 997.094 3534.11
205.847 996.803 3533.88
205.662 996.209 3533.56
205.178 994.867 3533.36
204.442 991.391 3534.46
203.6 991.691 3531.37
203.591 992.474 3530.65
204.47 990.604 3535.58
204.412 990.158 3535.78
204.386 989.854 3535.87
204.181 988.988 3536.97
204.379 989.353 3536.13
204.417 989.633 3535.79
204.58 986.734 3537.96
204.198 988.597 3537.17
204.449 987.743 3537.4
204.605 986.977 3537.75
204.679 986.471 3537.8
204.63 986.124 3537.98
204.676 985.907 3537.87
204.689 985.611 3537.71
204.786 985.562 3537.37
204.844 985.486 3537.02
205.024 986.231 3535.7
204.987 986.071 3536.47
205.038 986.667 3535.15
204.986 987.048 3534.28
204.899 985.886 3537.06
204.589 988.547 3533.8
204.666 988.521 3534.37
203.986 988.436 3531.64
204.399 988.47 3532.93
203.39 989.504 3530.91
202.251 989.187 3527.8
201.267 988.303 3524.86
201.156 987.841 3524.19
201.11 986.984 3521.61
201.021 987.141 3521.82
200.949 987.536 3522.85
200.896 987.503 3521.96
207.631 977.995 3513.59
207.929 977.266 3513.74
207.7 977.342 3514.92
202.845 984.814 3521.71
201.472 986.444 3521.43
203.43 985.217 3520.18
203.421 985.742 3519.38
203.561 985.851 3518.82
203.757 985.985 3517.84
204.139 984.922 3516.35
204.687 983.281 3516.61
205.672 980.938 3514.71
205.584 981.091 3513.02
205.458 981.411 3512.51
206.374 979.947 3514.49
207.07 978.959 3514.74
207.447 978.37 3513.31
203.637 986.144 3518.25
201.195 986.89 3521.39
209.26 972.003 3515.58
208.692 974.361 3514.72
208.262 976.886 3513.26
208.471 976.273 3513.51
210.466 968.362 3518.09
210.07 969.537 3516.91
210.663 967.552 3519.14
209.808 970.424 3516.06
209.709 970.924 3515.69
209.203 972.738 3515.07
210.781 967.527 3519.01
194.023 1017.74 3527.36
193.705 1018.67 3527.94
194.296 1017.14 3529.18
194.477 1016.56 3526.71
202.045 1036.94 3534.96
202.322 1035.54 3530.22
202.264 1033.55 3528.18
201.932 1038.27 3535.74
203.2 1042.03 3549.69
202.859 1041.96 3545.32
202.467 1042.21 3542.65
201.664 1042 3539.58
201.231 1040.93 3536.72
201.38 1040.27 3536.57
201.67 1039.63 3535.52
201.803 1039.05 3535.76
194.844 1026.07 3529.09
194.601 1025.28 3528.68
194.787 1025.48 3527.98
194.423 1024.17 3528.94
193.918 1022.2 3529.09
201.929 1030.77 3527.62
201.796 1030.34 3527.79
202.083 1031.35 3527.27
202.215 1031.32 3524.77
200.402 1032.41 3536.59
198.518 1030.42 3535.22
196.613 1028.51 3533.67
201.32 1033 3535.43
201.757 1031.65 3531.56
201.737 1030.25 3528.71
195.759 1027.64 3531.17
195.347 1026.92 3529.61
193.58 1019.65 3527.91
194.017 1018.26 3526.12
194.229 1022.76 3527.82
193.773 1019.9 3527.19
194.292 1021.1 3526.24
195.327 1016.14 3539.34
196.223 1015.3 3538.78
196.727 1015.19 3537.57
195.319 1016.49 3537.6
195.935 1015.99 3537.21
196.742 1015.23 3536.93
196.966 1014.89 3536.59
195.078 1016.8 3537.59
196.874 1014.94 3535.65
195.719 1015.73 3532.63
194.871 1016.19 3529.95
195.398 1014.79 3527.09
196.025 1012.55 3526.46
195.836 1012.17 3524.65
196.228 1010.57 3523.35
196.25 1010.48 3522.61
197.25 1007.39 3521.26
197.494 1005.8 3522.87
197.246 1005.27 3527.47
197.083 1005.15 3528.67
196.116 1002.57 3532.76
196.485 1003.83 3530.99
197.043 1004.56 3529.46
197.164 1004.8 3528.77
196.175 1002.34 3532.9
194.714 1017.33 3535.32
196.36 1002.14 3532.84
197.154 1000.74 3534.39
197.073 1001.15 3533.37
196.826 1001.54 3532.98
196.69 1002 3532.46
197.54 1000.12 3535.89
205.042 999.151 3534.01
205.464 999.303 3533.19
205.733 999.163 3533.16
205.672 999.289 3533
205.803 999.003 3533.35
205.895 998.886 3533.43
206.124 998.969 3533.05
205.98 998.726 3533.52
198.413 999.86 3535.76
200.728 999.133 3536.57
203.511 998.813 3536.04
204.831 999.496 3533.27
205.934 998.358 3533.92
206.022 998.656 3533.48
205.975 998.192 3533.68
205.973 997.927 3533.55
205.95 997.615 3533.52
205.924 997.339 3533.61
205.885 997.154 3533.3
205.735 996.622 3532.64
205.285 995.517 3532.58
203.797 993.202 3530.33
204.345 990.446 3534.71
204.054 991.071 3533.16
202.688 990.118 3529.13
201.772 989.862 3526.48
201.725 990.301 3526.01
201.688 990.553 3525.53
204.396 990 3535.2
204.42 989.757 3535.39
204.356 988.978 3536.39
204.455 989.418 3535.42
204.45 989.174 3535.76
204.746 986.742 3537.5
204.582 987.938 3536.75
204.743 987.048 3537.32
204.827 986.436 3537.35
204.774 986.177 3537.62
204.826 985.96 3537.43
205.028 986.488 3536.12
204.961 986.229 3536.73
205.022 986.936 3535.67
204.989 987.244 3534.92
204.915 986.089 3537.06
204.284 989.709 3533.89
204.111 989.584 3533.22
204.714 988.349 3534.99
204.456 989.466 3535.05
204.374 989.797 3534.65
203.886 990.221 3532.66
201.235 988.843 3524.94
200.912 988.458 3523.65
200.895 987.912 3523.14
200.952 987.467 3521.49
201.001 987.337 3521.3
200.811 987.778 3522.27
200.811 987.737 3521.63
207.894 977.79 3512.68
207.917 977.559 3513.14
202.58 985.551 3521.01
201.636 986.474 3521.1
201.264 986.879 3521.17
202.374 986.169 3520.5
202.965 986.055 3519.82
203.087 986.264 3519.38
203.341 986.118 3519.03
203.507 986.293 3518.47
203.617 986.477 3517.99
203.727 986.427 3517.54
203.942 985.698 3516.34
204.884 983.197 3513.29
205.114 982.36 3513.1
205.925 980.523 3511.83
205.668 980.988 3511.76
205.65 981.236 3511.09
205.539 981.578 3511.2
206.717 979.428 3512.37
201.058 987.283 3521.15
208.667 975.107 3514.12
208.225 977.303 3512.55
208.525 976.545 3513
208.724 975.991 3513.34
210.521 968.69 3517.55
210.083 969.913 3516.36
209.915 970.502 3515.83
209.854 970.867 3515.56
209.33 973.071 3514.65
209.2 973.175 3514.73
208.804 975.503 3513.66
210.87 967.609 3518.76
210.974 967.621 3518.66
195.078 1014.43 3523.92
195.268 1013.75 3524.18
194.994 1014.92 3523.71
202.337 1036.83 3529.74
202.483 1035.98 3527.39
202.326 1034.89 3525.9
202.272 1031.98 3524.15
202.068 1038.24 3532.84
201.848 1045.87 3552.34
203.001 1042.36 3549.28
202.737 1042.23 3545.28
202.335 1042.51 3542.49
201.368 1042.35 3539.23
200.91 1041.46 3536.1
201.386 1040.35 3535
201.548 1040 3535.28
201.974 1038.64 3532.65
195.032 1026.1 3528.35
194.974 1025.56 3527.48
194.892 1023.74 3525.94
195.002 1024.12 3525.82
202.133 1030.38 3523.35
201.858 1029.5 3522.45
201.463 1029.45 3525.73
202.146 1029.73 3521.34
202.296 1030.41 3521.96
200.702 1032.31 3535.02
197.794 1029.62 3533.28
201.566 1031.21 3531.17
201.438 1029.49 3527.91
201.08 1028.7 3524.72
195.877 1027.59 3530.18
195.371 1026.59 3528.58
194.619 1018.38 3523.8
195.021 1017.63 3522.4
195.083 1015.14 3523.18
195.023 1019.48 3522.63
195.367 1020.6 3521.82
195.784 1016.21 3536
195.658 1016.21 3534.34
196.435 1010.19 3521.78
196.662 1009.92 3521.04
197.512 1008 3519.55
197.899 1005.51 3518.05
197.952 1005.06 3518.53
197.771 1005.18 3522.46
198.061 1004.64 3518.85
197.439 1004.84 3526.8
196.562 1003.5 3531.13
197.411 1004.24 3528.85
197.172 1004.17 3529.56
197.659 1004.45 3526.5
196.674 1003.22 3531.2
196.895 1002.93 3531.21
197.518 1001.01 3533.01
197.794 1000.69 3533.47
197.844 1000.36 3534.52
197.295 1001.36 3532.58
196.957 1001.8 3532.31
197.153 1002.61 3531.29
206.171 999.897 3531.63
206.36 999.845 3531.62
206.537 999.794 3531.6
206.001 999.281 3532.68
206.749 999.697 3531.62
206.664 999.736 3531.61
206.12 999.171 3532.75
206.275 998.958 3532.86
206.297 999.166 3532.59
198.625 1000.33 3533.61
199.221 1000.16 3533.65
201.435 999.818 3533.8
205.576 1000.13 3531.34
205.915 999.99 3531.56
206.119 998.519 3533.22
206.101 998.635 3533.27
206.247 998.839 3532.92
206.071 998.226 3533.1
206.032 997.903 3532.95
205.996 997.633 3532.97
206.024 997.431 3532.61
205.928 997.003 3532.04
205.382 995.932 3531.59
203.883 993.668 3529.5
201.767 990.833 3525.28
204.249 990.283 3533.97
200.991 989.084 3523.95
201.001 989.389 3523.68
201.015 989.628 3523.31
204.676 988.1 3536.13
204.727 988.228 3535.54
204.854 986.7 3537.13
204.867 987.051 3536.81
204.887 986.208 3537.2
204.931 986.383 3536.96
204.963 986.636 3536.68
204.972 987.015 3536.23
200.794 988.551 3523.01
200.775 988.068 3522.56
200.929 987.546 3521.22
200.741 988.034 3521.78
200.873 987.722 3521.14
200.813 987.941 3521.3
206.98 979.164 3511.7
207.401 978.758 3511.27
201.507 986.763 3520.92
201.122 987.28 3520.96
201.254 987.153 3520.84
202.148 986.584 3520.31
202.789 986.435 3519.64
203.068 986.578 3519.09
203.313 986.446 3518.79
203.441 986.636 3518.42
203.661 986.761 3517.58
203.523 986.819 3518.09
203.894 986.092 3516.06
204.395 984.638 3514.22
205.233 982.621 3511.97
206.157 980.24 3511.26
205.904 980.735 3511.08
205.83 981.372 3510.36
206.072 980.824 3510.4
205.707 981.758 3510.48
201.009 987.515 3521.01
208.442 977.11 3512.27
208.842 976.175 3512.89
208.749 976.599 3512.44
208.926 975.815 3513.24
210.65 968.791 3517.32
210.176 969.993 3516.16
210.043 970.512 3515.69
210.074 970.993 3515.3
209.873 971.22 3515.3
209.442 973.201 3514.46
209.015 975.498 3513.39
211.116 967.642 3518.54
202.311 1037.25 3528.67
202.257 1037.4 3525.8
202.135 1038.29 3524.34
202.082 1038.06 3524
201.943 1037.85 3523.22
202.238 1032.17 3523.43
202.076 1034.6 3524.13
202.146 1030.29 3521.2
200.886 1046.35 3549.98
201.271 1045.39 3550.34
199.852 1045.5 3547.17
201.249 1044.47 3549.32
202.685 1043.02 3549.92
202.785 1042.49 3548.3
202.586 1042.43 3544.92
202.161 1042.75 3542.16
201.239 1042.5 3538.81
201.099 1040.28 3533.1
201.695 1038.94 3531.59
201.918 1038.56 3531.67
202.227 1037.54 3528
195.213 1025.74 3527.17
195.27 1024.3 3525.31
195.413 1022.95 3523.62
195.517 1021.28 3521.81
201.61 1027.91 3519.02
201.39 1027.12 3518.22
201.584 1028.74 3521.39
201.055 1026.24 3517.44
201.731 1028.58 3519.28
201.207 1026.78 3517.17
200.423 1031.42 3533.24
201.284 1030.71 3530.73
197.775 1029.48 3532.4
200.168 1027.52 3525.16
200.349 1027.6 3523.76
201.236 1027.94 3520.42
195.843 1027.19 3529.02
195.481 1026.14 3527.35
195.37 1018.87 3521.02
195.399 1018.34 3520.89
195.269 1015.54 3522.42
196.672 1010.28 3520.64
195.478 1019.59 3520.73
195.622 1020.16 3520.57
197.641 1008.83 3518.56
197.864 1006.23 3518
198.282 1006.13 3515.77
198.489 1004.69 3515.07
198.491 1005.12 3514.87
198.218 1004.2 3516.89
198.124 1004.56 3522.51
198.405 1003.98 3519.31
198.228 1004.27 3518.98
198.387 1003.72 3517.08
197.854 1004.11 3526.47
197.518 1003.87 3529.24
197.756 1003.79 3528.66
197.366 1003.82 3529.69
197.538 1003.38 3530.03
197.753 1001.16 3532.46
198.093 1000.89 3532.68
198.42 1000.61 3533
197.482 1002.23 3531.39
198.221 1001.73 3531.45
197.677 1003.01 3530.4
206.916 1000.28 3530.49
207.186 1000.27 3530.35
207.408 1000.15 3530.51
207.56 1000.07 3530.54
206.881 999.639 3531.6
206.952 999.578 3531.63
207.692 999.914 3530.69
207.755 1000.01 3530.46
207.038 999.517 3531.62
206.383 999.004 3532.57
206.379 999.119 3532.51
207.127 999.464 3531.58
200.205 1000.52 3532.11
201.844 1000.76 3530.46
204.723 1000.39 3530.74
206.737 1000.45 3530.05
206.321 998.817 3532.76
206.32 998.739 3532.75
206.223 998.504 3532.83
206.172 998.249 3532.75
206.097 997.839 3532.65
206.179 998.082 3532.57
206.149 997.736 3532.36
206.118 997.486 3532.21
206.167 997.4 3531.78
205.646 996.583 3531.68
205.995 997.071 3531.69
205.367 995.819 3530.5
203.631 993.458 3528.25
201.783 990.962 3524.72
201.09 989.813 3522.95
200.779 988.704 3522.74
200.818 989.042 3522.7
200.81 989.19 3522.23
200.727 988.314 3522.07
200.723 988.248 3521.48
200.865 987.944 3520.97
200.931 987.738 3520.95
200.801 988.178 3521.09
207.086 979.497 3510.32
206.285 980.28 3510.69
208.407 977.623 3511.08
201.437 987.075 3520.65
201.069 987.536 3520.83
201.212 987.449 3520.62
202.113 986.913 3520.03
202.827 986.778 3519.31
203.032 986.99 3518.92
203.237 986.798 3518.71
203.361 986.997 3518.4
203.553 987.06 3517.84
203.656 987.142 3517.38
203.862 986.544 3515.97
203.422 987.204 3518.18
204.071 985.553 3514.61
204.532 984.585 3513.64
205.362 982.816 3511.45
205.655 982.019 3510.52
206.269 981.819 3509.14
206.479 980.525 3509.95
206.087 982.287 3509.34
209.01 976.375 3512.31
209.104 975.961 3512.84
210.742 969.059 3516.93
210.323 970 3516.06
210.516 971.017 3515.1
210.498 971.438 3514.8
210.279 971.795 3514.68
209.955 973.099 3514.16
209.691 975.156 3513.09
209.657 975.575 3512.75
211.207 967.78 3518.29
211.526 970.887 3514.98
211.101 971.181 3514.82
202.141 1037.87 3525.16
202.107 1038.94 3523.97
202.086 1039.7 3523.01
201.926 1039.5 3522.36
201.77 1039.14 3521.78
201.707 1037.65 3522.24
202.101 1032.19 3522.53
201.508 1035.32 3522.23
201.604 1034.36 3522.37
201.77 1030.24 3519.92
201.343 1027.92 3517.85
201.259 1047.12 3551.21
199.316 1046.25 3545.98
198.107 1045.33 3542.95
199.063 1044.76 3545.09
197.277 1044.69 3540.88
201.54 1043.8 3548.94
198.928 1044.06 3544.35
198.67 1044.35 3544.05
202.014 1043.23 3548.7
202.341 1042.69 3547.39
202.452 1042.61 3544.92
202.104 1042.91 3542.38
201.091 1042.91 3539.17
201.128 1042.73 3538.87
200.447 1041.5 3534
201.138 1039.23 3530.42
201.674 1038.32 3529.26
202.074 1037.8 3528.54
202 1037.92 3527.86
202.159 1037.89 3525.76
202.052 1038.2 3525.15
195.653 1024.75 3525.23
195.504 1024.36 3524.98
195.972 1022.24 3521.72
195.911 1021.28 3520.81
195.76 1020.57 3520.51
200.844 1025.21 3515.74
200.74 1025 3515.87
201.005 1026.48 3518.03
200.691 1025.13 3516.4
200.591 1024.65 3515.85
200.844 1025.79 3515.54
200.803 1024.81 3515.12
200.924 1030.15 3530.18
197.88 1029.3 3531.46
200.372 1029.89 3530.27
200.427 1028.12 3526.65
199.547 1026.25 3521.13
198.539 1025.35 3522.86
200.924 1027.09 3519.25
200.759 1026.23 3518.06
196.22 1027.37 3528.83
195.782 1026.37 3527.34
195.944 1024.95 3525.16
195.533 1019.13 3520.46
195.516 1018.23 3520.52
195.59 1018.87 3520.31
195.409 1016.66 3521.6
195.659 1013.41 3522.24
196.741 1010.37 3520.38
195.747 1019.9 3520.19
195.84 1020.34 3520.11
197.73 1009.66 3518.34
196.83 1010.59 3520.11
198.028 1009.25 3517.45
198.308 1007.33 3515.8
198.978 1006.72 3511.02
199.033 1005.94 3510.6
198.589 1004.32 3515.01
199.167 1004.3 3512.12
199.16 1005.05 3510.57
198.726 1003.95 3514.89
198.613 1003.67 3519.57
198.637 1003.88 3522.39
198.155 1003.79 3526.03
198.59 1003.38 3516.87
198.727 1003.17 3516.93
198.486 1003.54 3517.38
198.929 1003.56 3514.74
199.055 1003.25 3515.01
197.73 1003.49 3529.48
198.063 1003.36 3528.75
197.838 1003.1 3530.07
199.031 1001.18 3531.59
199.568 1000.82 3531.82
198.232 1002.65 3530.34
199.162 1001.96 3530.56
207.082 1000.42 3529.91
207.445 1000.25 3530.18
207.417 1000.37 3529.75
207.719 1000.17 3530.12
207.779 999.823 3530.64
207.899 999.937 3530.35
207.944 1000.09 3529.99
207.767 999.727 3530.71
206.494 998.983 3532.43
207.239 999.353 3531.51
207.206 999.416 3531.54
207.827 999.643 3530.68
200.678 1001.09 3530.67
201.272 1000.93 3530.49
201.599 1001.12 3529.27
202.429 1000.87 3529.46
204.718 1000.67 3529.53
206.396 1000.6 3529.53
206.869 1000.57 3529.25
206.53 998.905 3532.4
206.389 998.7 3532.54
206.327 998.474 3532.5
206.318 998.347 3532.37
206.223 998.031 3532.35
206.246 997.819 3532.03
206.288 998.107 3532.15
206.078 997.073 3531.31
206.355 997.566 3531.4
206.401 997.899 3531.63
205.853 996.55 3530.74
204.2 994.193 3528.26
201.947 991.225 3524.26
201.233 990.037 3522.63
200.87 989.331 3521.85
200.723 988.646 3522.03
200.732 988.864 3521.91
200.781 988.995 3521.58
200.71 988.524 3521.54
200.724 988.402 3521.27
200.893 988.136 3520.76
200.926 987.944 3520.78
201.005 987.739 3520.76
200.839 988.315 3520.84
207.801 979.1 3509.53
208.485 978.284 3509.49
208.661 977.413 3510.91
201.385 987.389 3520.44
201.161 987.686 3520.56
202.09 987.205 3519.86
202.744 987.137 3519.27
202.797 987.357 3519.11
203.139 987.185 3518.72
203.238 987.318 3518.51
203.569 987.484 3517.74
203.858 987.008 3515.98
203.629 987.872 3517.57
204.044 985.993 3514.57
203.319 987.546 3518.34
203.464 987.491 3518.07
204.578 984.804 3513.39
205.571 983.091 3510.8
205.873 982.396 3509.85
206.589 983.28 3507.8
208.877 977.34 3510.64
209.725 976.233 3511.78
209.763 975.864 3512.3
210.934 969.017 3516.91
210.814 970.497 3515.47
210.583 970.745 3515.31
211.3 967.919 3518.07
212.513 969.204 3516.69
211.538 970.68 3515.18
202.129 1039.08 3524.09
202.11 1039.9 3523.13
202.007 1039.94 3522.58
201.857 1039.67 3521.87
201.476 1038.76 3520.8
201.534 1039.35 3520.84
201.123 1037.09 3520.52
201.848 1032.14 3521.5
200.499 1034.79 3519.4
200.733 1033.8 3519.73
200.983 1027.95 3516.85
201.472 1030.47 3519.19
201.015 1027.29 3516.67
200.672 1025.12 3514.55
200.22 1047.29 3548.17
197.385 1045.98 3541
196.656 1045.34 3539.15
196.357 1044.99 3538.38
197.016 1044.33 3540.21
196.321 1044.66 3538.33
198.868 1043.78 3543.91
196.973 1044.08 3540.05
197.045 1043.86 3540.15
201.165 1043.32 3547.03
201.213 1043.2 3546.56
201.952 1042.85 3546.45
202.329 1042.73 3544.85
202.051 1043.03 3542.68
201.221 1043.09 3539.81
199.198 1043 3534.28
199.623 1042.39 3533.7
199.02 1041.08 3529.35
199.653 1040 3528.73
201.4 1038.49 3528.64
199.804 1039.56 3528.01
201.839 1037.94 3527.84
202.102 1037.99 3525.99
201.953 1038.2 3526.02
201.984 1038.49 3525.26
202.145 1039.25 3524.15
197.002 1023.37 3521.64
196.844 1022.78 3521.06
196.181 1021.64 3520.67
195.936 1020.73 3520.23
200.589 1023.63 3514.64
200.659 1023.66 3514.36
200.479 1023.43 3514.82
200.525 1025.34 3517.06
200.479 1024.6 3516.16
200.342 1023.96 3515.71
200.285 1022.35 3514.37
200.683 1024.23 3514.17
200.654 1023.63 3514
199.305 1027.12 3526.16
199.131 1026.55 3525.16
198.211 1029.24 3530.8
198.933 1028.84 3529.43
198.304 1026.23 3525.45
199.922 1026.18 3519.28
199.125 1025.56 3519.7
198.865 1025.34 3520.54
198.292 1024.61 3521.25
197.894 1024.24 3521.62
197.419 1024.18 3522.52
200.445 1025.97 3518.14
200.323 1025.21 3517.2
196.278 1026.91 3527.81
196.312 1025.28 3525.31
197.338 1024.74 3523.76
195.676 1019.38 3520.07
195.674 1018.7 3520.11
195.678 1018.19 3520.23
195.566 1016.72 3521.26
195.716 1019.11 3520
195.64 1014.71 3522.04
195.901 1012.77 3521.87
195.788 1019.9 3519.97
195.945 1020.35 3519.92
196.002 1020.58 3519.99
196.79 1011.02 3520.2
197.044 1011.05 3519.77
198.088 1010.24 3517.74
198.93 1012.44 3517.24
198.577 1009.56 3515.69
198.985 1009.24 3512.78
199.163 1006.74 3508.81
199.258 1008.31 3509.75
199.634 1005.26 3506.64
199.741 1004.56 3506.28
199.996 1002.57 3506.03
199.578 1003.37 3511.26
199.46 1003.45 3512.49
199.126 1004.04 3513
199.87 1001.9 3508.23
198.921 1003.33 3519.75
198.888 1002.98 3517.02
199.278 1003.22 3522.28
198.47 1003.44 3526.02
199.184 1003.01 3515.21
199.31 1002.78 3515.48
199.779 1002.7 3513.1
199.497 1003.24 3513.09
199.795 1002.62 3513.76
198.059 1003.12 3529.53
198.638 1002.87 3528.94
198.81 1003.06 3526.47
198.466 1002.73 3529.81
200.051 1001.39 3530.63
199.225 1002.11 3530.2
207.43 1000.45 3529.42
207.692 1000.28 3529.74
207.662 1000.39 3529.32
207.938 1000.2 3529.6
208.022 999.79 3530.31
208.025 999.87 3530.24
208.06 999.988 3529.96
208.085 1000.09 3529.63
208.08 999.718 3530.26
207.296 999.337 3531.47
207.309 999.277 3531.43
208.018 999.516 3530.48
208.01 999.602 3530.45
200.227 1001.52 3530.18
200.707 1001.41 3529.75
200.874 1001.52 3528.63
201.559 1001.36 3527.36
202.167 1001.13 3528.02
202.786 1000.98 3528.34
204.633 1000.86 3528.2
206.159 1000.74 3528.76
206.623 1000.68 3528.75
207.458 1000.53 3528.62
206.888 1000.68 3528.14
207.316 999.226 3531.39
206.611 998.862 3532.26
206.519 998.702 3532.25
206.343 998.329 3532.21
206.529 998.6 3532.11
206.432 998.229 3531.87
206.521 998.463 3531.97
206.161 996.917 3530.65
206.327 997.275 3530.96
207.201 998.146 3530.62
207.144 997.845 3530.29
207.248 998.428 3530.85
205.701 996.17 3530.13
204.711 994.735 3528.26
202.416 991.778 3524.36
201.428 990.262 3522.42
201.019 989.534 3521.68
200.869 989.145 3521.4
200.737 988.775 3521.5
200.8 988.891 3521.25
200.746 988.613 3521.26
200.799 988.496 3520.94
200.977 988.235 3520.58
200.998 988.058 3520.61
201.032 987.877 3520.62
200.924 988.439 3520.66
201.342 987.612 3520.38
201.232 987.789 3520.39
202.032 987.453 3519.79
202.022 987.617 3519.71
202.693 987.479 3519.17
202.981 987.435 3518.86
203.14 987.63 3518.64
203.505 987.873 3517.94
203.859 987.684 3516.29
204.085 986.428 3514.46
203.564 988.301 3517.88
204.142 985.927 3514.16
203.399 987.864 3518.2
203.27 987.941 3518.44
204.657 985.021 3513.18
205.034 984.105 3512.43
205.849 983.588 3510.07
206.637 983.59 3507.63
211.106 970.133 3515.74
211.776 969.11 3516.79
202.146 1039.98 3523.27
202.053 1040.14 3522.74
201.938 1039.95 3522.03
201.553 1039.8 3520.83
200.612 1038.47 3518.26
200.335 1038.89 3517.4
199.706 1036.32 3516.6
201.304 1032.19 3520.05
198.652 1033.82 3514.46
198.763 1032.49 3514.54
200.008 1030.43 3516.16
200.153 1025.85 3513.73
200.501 1025.43 3514.25
200.511 1024.03 3513.29
200.634 1023.51 3513.39
200.951 1048.61 3549.71
198.517 1047.25 3543.53
196.472 1046.83 3538.01
196.062 1046.12 3537.2
195.811 1045.81 3536.5
195.89 1045.31 3536.86
196.339 1044.36 3538.42
195.979 1044.94 3537.15
198.698 1043.61 3543.37
196.955 1043.7 3539.84
197.106 1043.57 3540.13
196.447 1044.05 3538.57
196.417 1043.88 3538.65
200.907 1043.21 3545.92
198.849 1043.5 3543.39
202.212 1042.86 3544.69
201.742 1042.93 3545.98
201.892 1043.12 3542.62
201.092 1043.26 3540.22
200.66 1043.35 3539.3
199.487 1043.22 3535.88
198.284 1043.64 3534
198.368 1043.36 3532.59
198.065 1043.75 3533.39
198.466 1042.98 3531.6
198.292 1041.64 3528.53
198.08 1043.23 3530.8
197.776 1040.96 3526.09
198.002 1040.63 3526.14
201.188 1038.58 3527.95
199.699 1039.46 3527.42
201.559 1038.33 3527.63
198.055 1040.33 3525.54
201.879 1038.24 3526.4
201.897 1038.56 3525.47
201.736 1038.6 3525.67
202.122 1039.34 3524.22
202.082 1039.39 3524.29
202.182 1040.07 3523.35
197.817 1023.88 3521.05
197.807 1023.59 3520.56
196.923 1022.26 3520.35
197.688 1023.22 3520.28
197.637 1022.96 3520.12
196.166 1021.17 3520.22
200.676 1022.33 3513.43
200.665 1022.55 3513.5
200.667 1022.78 3513.52
200.783 1021.81 3512.85
200.349 1024.62 3516.42
200.19 1024.02 3516.03
200.011 1023.36 3515.78
199.823 1022.93 3515.77
199.838 1022.36 3515.4
199.932 1021.34 3514.25
200.544 1021.21 3512.73
200.99 1021.17 3511.88
199.699 1019.36 3512.44
199.81 1019.56 3512.26
200.678 1022.98 3513.34
197.9 1027.3 3527.42
196.833 1025.87 3525.77
199.748 1025.58 3518.49
199.041 1025.18 3519.03
198.52 1024.7 3520.14
199.61 1024.87 3517.66
199.593 1024.51 3517.29
195.768 1019.52 3519.87
195.799 1018.75 3519.89
195.759 1017.94 3520.22
195.849 1018.36 3519.9
195.715 1016.73 3520.99
195.832 1015.1 3521.68
195.801 1019.24 3519.83
195.9 1013.47 3521.81
196.242 1012.48 3521.45
195.904 1019.97 3519.8
196.07 1020.47 3519.79
196.165 1020.8 3519.92
197.302 1011.34 3519.46
196.526 1012.51 3521.06
198.796 1012.94 3517.85
199.143 1012.64 3516.73
199.791 1016.46 3518.31
199.932 1016.6 3518.01
199.201 1012.35 3515.8
199.215 1012.24 3514.23
199.293 1014.28 3511.66
199.38 1013.3 3510.81
200.148 1010.54 3508.21
199.655 1008.5 3508.65
199.669 1005.72 3506.71
199.277 1006.84 3508.35
200.426 1006.36 3505.2
200.25 1004.51 3504.18
200.53 1006.36 3504.66
200.419 1003.08 3503.25
200.441 1000.77 3504.46
200.013 1001.24 3510.37
199.916 1001.58 3510.1
199.919 1002.37 3512.55
200.207 1000.02 3506.8
200.14 1000.16 3507.73
199.226 1002.94 3519.34
199.452 1002.56 3515.8
199.741 1002.25 3516.18
199.968 1002.59 3522.86
199.868 1002.39 3519.3
200.005 1002.24 3514.41
200.276 1001.89 3514.97
200.197 1001.95 3514.01
200.292 1001.7 3513.62
199.307 1002.23 3529.66
199.712 1002.06 3529.19
199.244 1002.67 3526.89
207.595 1000.47 3528.94
207.771 1000.42 3528.66
207.874 1000.31 3529.1
208.079 1000.16 3529.17
208.19 999.829 3529.95
208.171 999.928 3529.84
208.218 1000 3529.43
208.195 999.69 3530.06
208.274 999.767 3529.81
208.058 999.451 3530.41
208.218 999.606 3530.07
200.129 1002.01 3527.63
201.06 1001.74 3524.52
202.386 1001.27 3524.87
201.977 1001.46 3523.01
204.546 1000.97 3526.82
207.659 1000.47 3528.2
207.009 1000.64 3527.64
204.835 1000.98 3525.55
204.722 1000.98 3524.66
207.317 999.15 3531.36
208.012 999.37 3530.47
207.315 999.064 3531.31
207.303 998.955 3531.24
207.285 998.696 3531.06
207.291 998.848 3531.17
206.925 996.994 3529.15
207.055 997.437 3529.79
205.902 996.236 3529.69
208.063 998.605 3529.72
208.025 998.297 3529.34
207.848 997.878 3529.05
208.077 998.811 3529.98
203.981 993.592 3526.16
202.162 991.233 3523.08
201.375 990.472 3522.73
201.214 989.771 3521.59
200.998 989.329 3521.29
200.79 989.065 3521.2
200.762 988.697 3521.04
200.848 988.856 3520.93
200.908 988.667 3520.72
201.088 988.148 3520.43
201.078 988.34 3520.42
201.113 987.954 3520.45
201.065 988.555 3520.45
201.268 987.903 3520.25
202.004 987.805 3519.66
202.911 987.63 3518.92
202.72 987.756 3519.11
203.037 987.923 3518.8
203.387 988.247 3518.25
203.914 988.078 3516.36
204.143 986.817 3514.47
204.215 986.117 3514.01
203.611 988.678 3518.02
203.229 988.132 3518.51
203.033 988.057 3518.82
204.719 985.295 3513.06
205.114 984.267 3512.24
206.053 983.928 3509.64
205.237 984.478 3512.07
202.076 1040.22 3523.09
202.052 1040.29 3522.76
201.991 1040.2 3522.17
201.731 1040.21 3521.31
200.722 1039.66 3518.58
199.821 1039.11 3516.19
198.583 1037.78 3512.87
198.857 1037.19 3513.69
198.23 1038.58 3512.2
197.774 1034.98 3511.39
197.303 1031.49 3510.39
197.569 1029.1 3510.45
198.978 1027.59 3512.56
198.798 1025.87 3511.09
200.296 1024.59 3513.06
200.091 1024.39 3512.3
200.472 1023.61 3512.54
200.716 1023.06 3512.63
200.827 1022.64 3512.49
199.998 1049.45 3546.11
197.687 1048.98 3539.8
196.484 1049.21 3535.72
195.914 1047.28 3535.76
195.666 1046.64 3535.42
195.584 1045.7 3535.62
195.528 1046.42 3535.03
195.705 1045.25 3536.03
196.048 1044.57 3537.34
195.85 1044.9 3536.58
197.128 1043.46 3540.05
196.518 1043.7 3538.79
196.109 1044.27 3537.52
196.238 1044.04 3537.74
198.79 1043.39 3542.85
201.127 1043.12 3545.63
197.498 1043.36 3540.61
201.992 1042.98 3544.59
201.59 1043.23 3541.93
200.648 1043.4 3539.8
199.282 1043.42 3536.22
200.454 1043.47 3539.51
198.376 1043.67 3534.85
197.932 1043.87 3534.08
197.825 1043.96 3532.63
197.844 1043.85 3531.78
197.729 1044.02 3533.72
197.597 1044.21 3533.27
197.817 1042.1 3527.93
197.714 1043.76 3530.63
197.463 1041.11 3525.16
197.583 1040.76 3524.7
197.864 1040.45 3524.67
201.242 1038.54 3527.25
199.65 1039.37 3526.9
201.483 1038.41 3527.29
198.231 1040.13 3525.43
201.63 1038.43 3526.58
197.819 1040.4 3524.26
198.059 1040.18 3524.47
201.614 1038.55 3525.95
201.879 1038.71 3525.23
201.805 1038.81 3525.27
201.639 1038.73 3525.58
202.032 1039.44 3524.36
202.15 1040.19 3523.35
202.192 1040.09 3523.51
202.069 1040.33 3523.13
198.432 1024.34 3519.64
197.954 1023.55 3520.12
197.601 1022.65 3519.91
196.912 1021.85 3519.97
197.903 1023.32 3519.98
197.818 1022.95 3519.79
201.227 1021.51 3511.7
201.228 1021.24 3511.52
200.915 1022.25 3512.59
201.013 1022.11 3512.12
201.262 1020.79 3511.18
199.512 1024.11 3517.03
199.387 1023.75 3516.94
199.266 1023.5 3516.97
198.902 1023.23 3517.64
199.766 1021.81 3515.22
199.604 1022.61 3516.05
199.834 1021 3514.39
199.594 1019.02 3512.5
199.992 1019.8 3512.03
200.809 1020.93 3511.95
201.123 1020.67 3511.31
199.411 1017.7 3511.11
199.532 1018.13 3511.05
198.905 1024.77 3518.59
198.898 1024.65 3518.46
195.895 1019.68 3519.7
195.938 1018.73 3519.7
195.887 1019.11 3519.73
195.865 1017.9 3520.07
195.837 1016.78 3520.78
195.962 1018.34 3519.78
195.979 1015.63 3521.37
196.007 1014.21 3521.61
196.117 1015.2 3521.28
195.918 1019.53 3519.64
196.336 1013.09 3521.39
196.039 1020.12 3519.66
196.179 1020.49 3519.66
196.264 1020.72 3519.73
196.91 1021.57 3519.73
197.629 1013.68 3520.12
197.827 1013.14 3519.58
198.498 1013.22 3518.54
197.575 1013.93 3520.29
199.667 1016.48 3518.6
199.999 1016.47 3517.53
200.164 1017.79 3518.84
200.24 1017.87 3518.73
200.323 1018.06 3518.58
199.987 1016.14 3516.86
199.863 1015.64 3515.81
199.326 1014.96 3512.34
199.311 1016.99 3511.56
199.41 1016.4 3510.81
199.351 1017.15 3511.23
199.866 1011.77 3509.18
200.631 1009.91 3506.21
200.01 1013.33 3508.69
200.641 1012.55 3507.04
200.817 1012.01 3506.14
200.477 1008.28 3506.3
199.975 1006.99 3506.73
200.465 1006.98 3505.65
200.548 999.935 3504.89
200.183 1000.94 3511.32
200.327 999.586 3508.04
200.278 999.68 3507.2
200.426 1000.68 3512.15
200.657 999.373 3505.37
200.034 1002 3516.74
200.671 1001.51 3515.87
200.447 1002.21 3521.24
200.523 1002.13 3523.38
200.705 1001.65 3517.86
201.087 1001.23 3516.6
200.604 1001.47 3515.01
200.818 1001.01 3514.51
200.899 1000.14 3513.11
207.874 1000.35 3527.96
207.909 1000.34 3528.49
208.05 1000.25 3528.67
208.226 1000.05 3528.95
208.311 999.833 3529.52
208.379 999.71 3529.49
208.35 999.855 3529.17
208.33 999.682 3529.76
208.437 999.597 3529.47
208.211 999.398 3530.06
208.246 999.523 3530
208.382 999.564 3529.69
201.13 1001.81 3521.33
202.303 1001.4 3521.71
207.142 1000.59 3527.18
205.004 1000.91 3524.34
208.1 999.276 3530.26
208.079 999.141 3530.23
208.051 998.968 3530.17
207.774 997.422 3528.26
207.052 996.039 3526.51
206.355 995.81 3527.46
208.237 998.654 3529.4
208.198 998.322 3528.98
208.034 997.838 3528.46
208.238 998.875 3529.69
205.038 994.263 3525.86
202.5 991.542 3523.21
201.881 990.515 3521.84
201.648 990.259 3521.77
201.302 989.783 3521.36
201.09 989.411 3521.11
201 989.141 3520.87
200.943 988.941 3520.78
200.954 988.795 3520.65
201.108 988.703 3520.42
201.193 988.062 3520.29
201.221 988.246 3520.25
201.244 988.414 3520.23
201.295 988.559 3520.2
201.326 988.1 3520.15
201.965 988.005 3519.66
202.754 987.96 3519.09
203.399 988.673 3518.48
203.206 988.462 3518.72
203.989 988.36 3516.39
204.187 987.18 3514.58
204.253 986.645 3514.12
204.247 986.321 3513.99
203.535 988.978 3518.36
202.987 988.269 3518.92
202.729 988.153 3519.12
204.746 985.55 3513.07
205.825 984.535 3510.86
205.402 984.636 3511.83
202.048 1040.42 3522.87
201.984 1040.35 3522.36
201.679 1040.43 3521.33
201.048 1040.05 3519.5
198.941 1039.51 3514.52
197.947 1039.28 3512.09
197.311 1037.67 3509.41
197.459 1038.62 3510.32
197.487 1039.27 3510.81
196.983 1034.71 3508.86
196.79 1030.29 3508.3
196.901 1027.68 3508.21
197.283 1026.36 3508.52
197.116 1024.92 3506.88
198.639 1024.97 3509.99
199.988 1023.54 3510.91
200.408 1023.27 3511.69
200.782 1022.69 3511.86
201.085 1021.97 3511.37
201.299 1021.51 3511.01
200.372 1057.49 3539.79
201.428 1063.11 3539.66
200.1 1053.45 3542.57
198.389 1054.11 3536.41
197.337 1054.16 3532.26
196.222 1049.5 3534.03
195.851 1047.99 3534.3
195.699 1047.38 3534.14
195.532 1045.87 3534.97
195.538 1046.64 3534.13
195.732 1047.46 3533.06
195.652 1045.27 3535.55
195.841 1044.73 3536.56
196.785 1043.43 3539.05
196.556 1043.61 3538.69
196.344 1043.88 3537.87
196.005 1044.45 3536.67
196.068 1044.28 3536.59
199.102 1043.34 3542.94
197.053 1043.31 3539.49
201.562 1043.11 3544.21
201.059 1043.24 3543.18
200.726 1043.44 3540.44
199.173 1043.56 3536.79
198.257 1043.74 3535.2
197.848 1043.91 3534.45
197.568 1044.1 3534.01
197.475 1044.36 3532.85
197.412 1044.5 3532.12
197.45 1044.4 3531.39
197.393 1044.36 3533.49
197.251 1044.69 3532.96
197.518 1042.35 3527.29
197.445 1044.09 3529.82
197.239 1041.49 3524.55
197.355 1041.07 3524
197.3 1041.56 3521.81
197.505 1040.8 3523.85
197.3 1041.36 3521.94
199.525 1039.33 3526.54
200.986 1038.69 3526.88
201.389 1038.54 3526.77
