162.562 1066.19 2765.16
174.284 1090.61 2755.86
172.601 1088.57 2755.37
171.212 1086.89 2754.77
169.994 1084.51 2754.22
170.811 1086.25 2754.34
167.544 1080.43 2753.22
169.232 1082.63 2753.08
163.392 1074.72 2756.06
163.357 1074.97 2753.58
163.331 1074.29 2757.41
163.148 1073.48 2758.45
163.359 1074.88 2752.79
163.687 1075.41 2752.72
165.015 1077.14 2752.57
163.215 1066.93 2764.54
163.339 1073.36 2759.12
163.17 1073.17 2758.71
163.398 1073.14 2759.29
164.154 1073.11 2760.58
163.445 1072.97 2759.38
164.062 1072.85 2760.37
164.867 1072.28 2761.5
165.036 1071.89 2761.53
165.172 1071.64 2761.77
165.271 1071.32 2761.87
165.328 1071.09 2761.76
165.352 1070.8 2761.47
165.495 1070.6 2760.89
163.119 1066.63 2764.42
165.61 1070.1 2760.27
165.682 1069.64 2760.02
165.485 1069.46 2760.36
165.503 1069.63 2760.41
164.98 1068.5 2760.72
164.462 1067.41 2761.2
164.102 1066.96 2762.21
163.863 1066.89 2763.21
163.67 1066.88 2763.61
163.695 1067.02 2763.63
163.824 1063.27 2771.81
161.958 1062.44 2767.48
162.04 1062.34 2767.85
162.154 1062.29 2768.08
162.375 1062.3 2768.54
162.623 1062.5 2769.28
161.987 1062.36 2767.53
161.939 1062.52 2767.15
161.968 1062.45 2767.22
162.292 1065.62 2765.14
162.191 1065.34 2765.26
162.098 1064.99 2765.42
162.057 1064.7 2765.71
161.999 1063.53 2766.38
161.957 1062.85 2766.69
161.948 1062.61 2766.95
161.958 1062.7 2766.78
174.189 1090.61 2755.63
172.801 1088.71 2754.91
171.189 1086.76 2754.07
170.156 1084.65 2753.58
170.274 1084.65 2753.1
168.412 1081.09 2751.5
163.19 1074.3 2753.85
163.081 1074.15 2752.63
163.094 1073.94 2752.08
163.313 1074.1 2757.31
163.098 1073.37 2758.21
163.075 1073.07 2758.34
163.186 1073.78 2751.57
163.552 1074.95 2752.21
165.461 1077.33 2751.5
163.264 1073.07 2759
163.155 1072.9 2758.7
163.099 1073 2758.51
163.29 1072.85 2759.02
163.414 1072.72 2759.23
164.032 1072.61 2760.22
164.832 1072.14 2761.24
165.012 1071.76 2761.26
165.125 1071.58 2761.41
165.232 1071.38 2761.52
165.313 1071.14 2761.39
165.389 1070.9 2761.16
165.518 1070.64 2760.62
165.717 1070.3 2760.12
163.039 1066.4 2764.38
165.907 1069.9 2759.65
165.898 1069.71 2759.62
165.825 1069.33 2759.61
165.647 1069.2 2759.87
165.129 1068.27 2760.29
164.638 1067.04 2760.62
164.5 1065.65 2760.54
164.251 1066.17 2761.52
163.89 1066.79 2763.09
163.855 1066.64 2763.12
163.709 1066.65 2763.45
162.955 1066.15 2764.37
163.512 1062.89 2770.89
161.987 1062.37 2767.26
162.062 1062.26 2767.67
162.33 1062.22 2768.25
162.156 1062.2 2767.85
162.552 1062.25 2768.78
162.024 1062.29 2767.39
161.957 1062.49 2766.99
162.003 1062.42 2767.03
162.04 1062.36 2767.05
162.298 1065.37 2765.08
162.184 1065.15 2765.25
162.086 1064.8 2765.52
162.148 1064.87 2765.35
162.114 1064.5 2765.66
162.044 1063.41 2766.27
161.987 1062.83 2766.57
161.975 1062.54 2766.81
161.99 1062.67 2766.66
172.821 1088.58 2754.48
174.25 1090.15 2755
171.286 1086.71 2753.61
170.515 1084.93 2752.83
169.212 1081.71 2750.41
163.113 1073.78 2753.47
162.812 1072.47 2751.08
162.734 1071.95 2750.89
163.35 1074.63 2754.84
163.447 1074.51 2755.98
162.85 1072.35 2750.61
162.929 1072.1 2749.97
163.273 1073.85 2757.3
163.075 1073.13 2758.12
163.065 1072.86 2758.22
163.093 1072.86 2758.45
163.293 1072.93 2750.18
163.176 1071.54 2748.7
164.968 1076.22 2750.92
167.629 1078.95 2749.11
163.168 1072.71 2758.65
163.3 1072.63 2758.9
163.445 1072.5 2759.14
164.08 1072.42 2760.15
164.878 1071.96 2761.1
164.959 1071.7 2760.93
165.1 1071.53 2761.1
165.246 1071.29 2761.17
165.412 1070.92 2760.87
165.615 1070.61 2760.31
165.771 1070.37 2759.92
165.907 1070.09 2759.64
166.049 1069.86 2759.23
166.108 1069.63 2759.15
166.022 1069.39 2759.31
165.933 1069.08 2759.37
165.796 1068.84 2759.47
165.265 1067.86 2759.85
164.847 1066.28 2759.88
164.624 1064.7 2759.99
164.348 1064.15 2760.67
164.298 1063.68 2760.45
164.149 1066.29 2761.94
163.878 1066.39 2763.04
164.184 1064.53 2762.18
163.767 1066.31 2763.28
163.535 1066.34 2763.65
162.935 1066.01 2764.34
163.805 1062.88 2771.17
162.777 1062.33 2769.13
162.056 1062.27 2767.17
162.133 1062.16 2767.49
162.294 1062.12 2767.99
162.57 1062.16 2768.5
162.219 1062.08 2767.63
162.125 1062.18 2767.28
161.999 1062.4 2766.9
162.064 1062.32 2766.93
162.102 1062.27 2767
162.279 1065.17 2765.1
162.926 1065.8 2764.33
162.24 1064.94 2765.19
162.199 1064.64 2765.4
162.121 1063.5 2766.08
162.092 1062.78 2766.45
162.051 1062.45 2766.76
162.071 1062.6 2766.62
172.74 1088.25 2753.98
171.533 1086.9 2753.42
174.331 1089.97 2754.63
171.121 1085.5 2752.41
170.775 1085.07 2752.49
169.982 1082.39 2749.94
162.965 1072.92 2752.74
163.406 1074.27 2755.37
162.709 1071.38 2750.64
162.689 1071.23 2749.86
162.749 1071.42 2749.71
162.67 1071.05 2749.94
163.459 1074.2 2756.24
162.916 1071.3 2749.11
163.779 1070 2745.64
163.267 1073.67 2757.29
163.071 1072.92 2757.99
163.093 1072.72 2758.06
163.094 1072.67 2758.23
163.109 1072.7 2758.42
164.566 1073.69 2748.61
164.571 1070.71 2744.67
164.231 1070.35 2744.93
164.135 1069.93 2744.69
168.565 1079.82 2748.54
166.145 1075.47 2747.76
163.187 1072.55 2758.57
163.141 1072.61 2758.48
163.309 1072.43 2758.76
163.472 1072.32 2759.04
164.142 1072.23 2760.1
164.801 1071.91 2760.84
165.086 1071.39 2760.49
164.881 1071.66 2760.56
165.146 1071.38 2760.72
165.306 1071.2 2760.75
165.452 1070.92 2760.6
165.631 1070.63 2760.18
165.792 1070.42 2759.76
165.942 1070.19 2759.47
166.067 1069.99 2759.16
166.31 1069.68 2758.85
166.287 1069.3 2758.92
166.434 1069.39 2758.69
166.194 1069.13 2759.01
166.006 1068.97 2759.19
165.375 1067.33 2759.46
165.91 1068.57 2759.24
165.009 1065.78 2759.39
164.792 1064.54 2759.59
164.496 1063.08 2759.91
163.875 1061.61 2760.38
163.985 1061.33 2760.06
164.189 1064.21 2761.88
163.789 1062.17 2761.09
163.821 1062 2760.77
164.214 1065.71 2762.02
164.033 1065.76 2762.78
163.931 1065.07 2763.21
163.866 1065.19 2763.37
163.983 1064.29 2763.11
163.842 1063.03 2763.27
163.805 1062.91 2763.69
163.662 1066.05 2763.49
164.009 1062.73 2770.98
162.971 1062.35 2769.34
162.79 1062.13 2768.72
162.159 1062.19 2767.01
162.202 1062.13 2767.12
162.233 1062.06 2767.41
162.53 1062.09 2768.26
162.429 1062.03 2767.9
162.326 1062.02 2767.64
162.251 1062.06 2767.25
162.077 1062.35 2766.82
162.132 1062.26 2766.87
162.385 1065.14 2764.95
162.916 1065.65 2764.35
163.573 1065.83 2763.66
162.325 1064.86 2765.11
162.289 1064.55 2765.29
162.224 1063.45 2765.98
162.192 1062.66 2766.43
162.298 1063.15 2766.09
162.16 1062.5 2766.59
162.14 1062.39 2766.7
175.091 1089.69 2753.68
173.11 1088.34 2753.69
171.489 1085.83 2752.3
174.191 1086.21 2749.99
171.816 1083.89 2749.56
170.726 1081.78 2748.15
163.009 1072.81 2752.71
162.692 1071.03 2750.46
163.389 1074.11 2755.06
163.462 1074.09 2755.83
162.658 1070.98 2750.09
162.747 1070.76 2749.32
162.818 1070.82 2749
163.623 1069.66 2745.82
162.712 1070.71 2749.57
163.469 1073.96 2756.38
163.814 1069.55 2745.14
164.233 1069.12 2743.37
164.441 1069.55 2743.3
163.27 1073.49 2757.26
163.106 1072.82 2757.84
163.138 1072.59 2757.95
163.136 1072.53 2758.14
163.13 1072.55 2758.36
166.393 1073.54 2745.63
165.399 1071.49 2743.97
165.554 1070.68 2742.27
165.925 1071.23 2742.16
166.191 1070.44 2741.01
168.673 1079.52 2748.08
167.225 1075.9 2746.81
167.491 1075.02 2745.81
163.186 1072.48 2758.43
163.249 1072.41 2758.51
163.394 1072.28 2758.73
163.567 1072.19 2759.06
164.181 1072.08 2759.98
164.222 1071.92 2759.81
164.984 1071.36 2760.18
165.211 1071.16 2760.2
165.311 1071.12 2760.41
164.282 1071.77 2759.65
165.5 1070.86 2760.3
165.642 1070.65 2759.96
165.83 1070.44 2759.6
165.996 1070.23 2759.28
166.143 1070.07 2758.95
166.381 1069.87 2758.7
166.538 1069.53 2758.41
166.949 1068.95 2758.11
166.981 1069.21 2758.01
166.214 1068.95 2758.89
166.914 1068.7 2758.2
166.11 1068.65 2759
165.561 1067.05 2759.14
165.158 1065.72 2759.13
166.117 1068.25 2758.96
164.922 1064.41 2759.37
164.675 1062.86 2759.61
164.142 1061.26 2759.76
163.543 1059.5 2760.06
163.548 1060.04 2760.3
163.73 1059.81 2759.74
163.761 1062.38 2761.62
163.357 1060.29 2761.02
163.422 1059.92 2760.57
163.954 1064.44 2763.22
163.786 1063.29 2763.82
163.697 1063.34 2764.11
163.776 1065.33 2763.5
163.644 1063.67 2764.14
163.808 1063.06 2763.74
163.653 1062.04 2762.18
163.771 1062.44 2763.56
163.769 1062.5 2763.82
163.727 1062.75 2764.17
163.732 1062.49 2764.08
164.495 1062.75 2771.35
164.741 1062.75 2771.48
163.514 1062.35 2769.77
163.059 1062.24 2769.2
162.684 1062.03 2768.26
162.94 1062.08 2768.67
162.206 1062.19 2766.87
162.279 1062.09 2766.99
162.329 1062.03 2767.11
162.343 1061.98 2767.42
162.455 1061.97 2767.63
162.587 1061.96 2767.86
162.379 1061.97 2767.24
162.178 1062.34 2766.7
162.216 1062.27 2766.73
162.476 1065.01 2764.88
162.958 1065.49 2764.33
163.506 1065.57 2763.78
163.67 1064.81 2763.81
162.455 1064.76 2764.99
162.383 1064.37 2765.25
162.272 1062.54 2766.43
162.707 1063.1 2765.67
162.835 1063.96 2765.02
162.242 1062.41 2766.57
173.826 1087.95 2752.74
174.313 1087.22 2751.52
172.016 1085.97 2751.94
172.61 1083.28 2747.69
171.62 1080.73 2746.18
174.668 1087.28 2751.19
172.388 1083.24 2748
171.193 1080.48 2746.54
169.959 1080.04 2747.33
170.534 1079.56 2746.44
162.955 1072.42 2752.4
162.72 1070.95 2750.58
163.415 1073.73 2754.62
163.443 1073.96 2755.22
162.709 1070.75 2750.13
162.683 1070.79 2749.94
163.519 1073.89 2756.11
163.506 1073.91 2755.7
163.488 1069.27 2746.4
163.631 1069.3 2745.72
163.591 1069.21 2745.91
163.777 1069.28 2745.16
164.103 1068.94 2743.59
162.712 1070.61 2749.7
163.418 1069.33 2746.86
163.486 1073.73 2756.46
164.391 1069.17 2743.1
164.328 1068.9 2743.12
165.776 1070.12 2741.45
165.305 1069.78 2742.01
163.303 1073.32 2757.19
163.171 1072.72 2757.72
163.207 1072.5 2757.86
163.209 1072.4 2758.07
163.176 1072.44 2758.26
169.559 1077.11 2745.13
167.215 1073.51 2743.69
166.394 1071.7 2741.87
167.865 1073.66 2742.28
166.804 1070.93 2740.45
168.081 1076.96 2746.69
163.232 1072.37 2758.33
163.319 1072.29 2758.47
163.58 1072.1 2758.92
163.454 1072.16 2758.64
165.116 1071.17 2759.94
164.304 1071.67 2759.47
165.355 1070.99 2760.01
165.48 1070.88 2760.15
163.625 1072 2758.83
165.575 1070.73 2759.93
165.708 1070.61 2759.62
165.911 1070.44 2759.37
166.042 1070.29 2759.07
166.157 1070.12 2758.77
166.466 1069.96 2758.45
166.595 1069.69 2758.2
167.041 1069.44 2757.81
167.511 1068.98 2757.44
167.532 1068.27 2757.56
167.579 1068.62 2757.43
167.47 1069.37 2757.36
166.855 1068.45 2758.31
167.38 1068.11 2757.76
166.762 1068.17 2758.4
165.828 1066.91 2758.85
165.31 1065.59 2758.92
165.107 1065.31 2759.07
166.806 1067.35 2758.23
165.05 1064.39 2759.19
164.837 1062.83 2759.38
165.114 1064.18 2759.09
164.367 1061.17 2759.4
163.96 1059.81 2759.41
163.42 1059.23 2760.28
163.693 1059.29 2759.75
163.537 1059 2760.01
163.299 1060.1 2761.18
163.327 1059.61 2760.71
163.683 1062.91 2764.32
163.609 1063.07 2764.51
163.508 1063.76 2764.35
163.507 1063.21 2764.62
163.54 1061.49 2762.45
163.281 1060.11 2761.5
163.728 1061.98 2763.86
163.516 1061.21 2762.74
163.729 1062.01 2764.16
163.722 1062.24 2764.5
163.681 1062.42 2764.6
163.502 1051.34 2768.63
163.39 1051.45 2768.14
163.904 1062.34 2769.91
166.552 1062.72 2771.63
164.666 1062.52 2770.77
166.807 1061.89 2769.26
166.225 1061.91 2769.04
163.142 1062.07 2768.81
166.898 1061.35 2768.42
166.559 1061.49 2768.41
162.815 1061.97 2768.19
162.307 1062.16 2766.83
162.398 1062.04 2766.98
162.478 1061.96 2767.11
162.551 1061.92 2767.38
162.656 1061.91 2767.59
162.783 1061.91 2767.85
162.593 1061.91 2767.21
162.691 1062.32 2766.27
162.727 1062.2 2766.4
163.048 1065.18 2764.33
163.481 1064.54 2764.14
162.905 1064.55 2764.68
162.756 1062.8 2765.85
162.733 1062.54 2766.05
163.26 1063.29 2764.96
163.195 1062.68 2765.52
163.3 1062.81 2765.25
163.325 1063.81 2764.58
162.691 1062.42 2766.18
169.418 1076.33 2743.98
163.044 1072.26 2752.46
162.785 1070.93 2750.79
163.371 1073.31 2754.01
162.763 1070.66 2750.29
163.554 1073.61 2755.02
163.526 1073.79 2755.36
162.729 1070.54 2749.83
163.55 1073.71 2756.18
163.563 1073.73 2755.8
163.991 1068.29 2744.12
164.043 1068 2744.34
164.049 1068.36 2743.8
164.065 1068.66 2743.7
164.216 1068.64 2743.28
163.436 1069.26 2747.06
163.39 1069.32 2747.74
163.524 1073.5 2756.52
165.055 1069.45 2742.31
164.401 1068.62 2742.98
165.048 1069.2 2742.29
166.483 1069.86 2740.21
163.37 1073.11 2757.15
163.257 1072.54 2757.66
163.392 1072.99 2757.09
163.272 1072.35 2757.9
163.288 1072.27 2758.06
163.208 1072.39 2758.17
163.244 1072.33 2758.19
163.296 1072.26 2758.24
163.247 1072.33 2758.26
163.346 1072.21 2758.36
163.493 1072.07 2758.56
164.282 1071.59 2759.23
165.183 1071.09 2759.71
163.614 1071.95 2758.67
165.448 1070.84 2759.78
165.334 1070.96 2759.77
165.565 1070.73 2759.7
165.914 1070.47 2759.11
165.726 1070.59 2759.22
166.065 1070.38 2758.84
166.157 1070.19 2758.56
166.429 1070.08 2758.25
166.56 1069.88 2758.02
167.06 1069.72 2757.64
167.496 1069.68 2757.19
167.673 1068.77 2757.26
167.594 1069.18 2757.28
167.661 1068.27 2757.38
167.582 1067.09 2757.39
167.476 1067.02 2757.52
167.611 1069.54 2757.12
167.35 1067.02 2757.67
167.245 1066.99 2757.78
166.295 1066.41 2758.35
165.46 1065.63 2758.78
165.274 1065.29 2758.89
167.226 1066.11 2757.62
167.032 1066.03 2757.78
164.973 1062.77 2759.2
164.601 1061.2 2759.14
165.291 1064.26 2758.91
165.245 1063.07 2758.99
164.179 1059.69 2759.12
163.957 1059.26 2759.4
163.441 1058.76 2760.21
163.33 1059.04 2760.49
163.692 1058.85 2759.72
163.548 1058.67 2760
163.277 1059.45 2760.92
163.618 1062.57 2764.74
163.531 1062.76 2764.91
163.39 1063.32 2764.74
163.418 1062.89 2765.04
163.258 1059.79 2761.5
163.729 1061.67 2764.04
163.496 1060.96 2762.86
163.73 1061.88 2764.52
163.734 1061.65 2764.28
163.716 1062.03 2764.76
163.678 1062.13 2764.91
163.421 1051.6 2767.66
163.755 1051.95 2767.47
164.234 1052.34 2767.24
163.344 1050.89 2768.76
160.382 1048.03 2765.18
160.255 1047.99 2764.81
160.431 1048.25 2764.73
163.569 1062.09 2769.06
164.498 1061.92 2768.67
164.973 1061.48 2767.39
165.431 1061.3 2767.33
164.7 1061.64 2767.66
163.013 1061.94 2768.24
167.236 1061.15 2768.38
165.133 1060.79 2766.25
165.149 1061.05 2766.69
164.929 1061.31 2766.96
162.877 1062.07 2766.52
163.007 1061.96 2766.64
163.082 1061.91 2766.75
163.082 1061.87 2766.89
163.291 1061.78 2767.13
163.165 1061.82 2767.02
163.441 1061.74 2767.3
163.543 1061.74 2767.55
163.303 1062.26 2765.82
163.221 1062.44 2765.73
163.253 1062.15 2765.97
163.313 1062.08 2766.14
163.313 1062.5 2765.51
163.413 1062.54 2765.32
163.18 1072.22 2752.69
162.868 1070.91 2751
162.837 1070.59 2750.44
163.554 1073.34 2754.58
163.573 1072.99 2754.09
163.4 1073.09 2753.79
162.783 1070.45 2749.88
163.636 1073.48 2755.29
163.588 1073.63 2755.51
163.186 1069.75 2748.58
163.577 1073.5 2756.27
163.593 1073.56 2755.87
164.065 1068.09 2744.03
164.166 1067.8 2744.11
164.342 1067.26 2744.79
164.207 1067.55 2745.13
164.178 1068.4 2743.41
164.134 1068.17 2743.65
164.353 1068.41 2743.13
164.07 1067.92 2746.9
163.98 1068.31 2747.52
164.232 1067.47 2746.15
163.586 1073.27 2756.51
166.218 1069.63 2740.65
165.08 1068.93 2742.26
164.484 1068.47 2742.91
165.943 1069.38 2741.18
163.461 1072.89 2757.05
163.328 1072.47 2757.57
163.315 1072.36 2757.75
163.345 1072.21 2757.94
163.309 1072.24 2758.15
163.363 1072.18 2758.09
163.365 1072.18 2758.22
163.399 1072.13 2758.33
163.483 1072.04 2758.42
163.627 1071.89 2758.55
164.382 1071.48 2759.06
165.166 1071.04 2759.37
165.302 1070.95 2759.54
163.533 1071.97 2758.43
165.405 1070.85 2759.51
165.538 1070.74 2759.37
165.961 1070.51 2758.73
165.819 1070.55 2758.97
165.698 1070.62 2758.93
166.098 1070.38 2758.43
166.323 1070.21 2758.18
166.479 1070.09 2757.95
166.955 1070.03 2757.52
167.421 1069.97 2757.17
167.616 1069.89 2756.97
167.701 1069.17 2757.13
167.757 1068.39 2757.19
167.786 1068.83 2757.05
167.711 1069.45 2757.02
167.676 1067.06 2757.25
167.525 1065.83 2757.32
167.622 1065.78 2757.2
167.423 1065.86 2757.44
167.714 1069.79 2756.86
167.326 1066 2757.52
166.238 1065.82 2758.27
165.488 1065.35 2758.72
167.179 1065.75 2757.66
167.322 1065.76 2757.54
166.976 1065.64 2757.81
165.113 1062.49 2759.03
164.957 1061.17 2758.81
164.736 1059.94 2758.63
164.401 1059.63 2758.89
165.481 1064.23 2758.76
165.555 1062.99 2758.74
164.2 1059.2 2759.07
163.954 1058.8 2759.36
163.356 1058.68 2760.38
163.454 1058.59 2760.14
163.308 1058.92 2760.66
163.825 1058.55 2759.54
163.622 1058.5 2759.82
163.242 1059.15 2760.99
163.586 1062.3 2765.07
163.495 1062.52 2765.17
163.258 1059.62 2761.63
163.743 1061.45 2764.21
163.491 1060.68 2762.96
163.719 1061.78 2764.78
163.733 1061.61 2764.66
163.751 1061.54 2764.5
163.674 1061.87 2764.97
163.619 1062.04 2765.11
167.28 1053.86 2763.14
167.666 1054.31 2763.1
164.237 1052.04 2766.11
166.527 1053 2762.93
160.375 1048.16 2764.14
161 1048.85 2764.33
162.53 1049.82 2768
159.868 1047.19 2764.78
163.344 1050.22 2769.09
158.919 1046.07 2763.49
158.976 1046.28 2763.3
159.112 1046.55 2763.11
163.796 1061.79 2767.93
164.571 1061.49 2767.07
164.397 1061.56 2767.23
165.673 1059.44 2765.03
164.704 1061.07 2766.32
164.718 1061.22 2766.6
165.042 1060.66 2765.96
164.694 1060.92 2766
164.559 1061.34 2766.65
163.412 1061.98 2766.31
163.489 1061.87 2766.46
163.55 1061.78 2766.56
163.702 1061.68 2766.58
163.942 1061.61 2766.76
164.187 1061.55 2766.94
163.357 1062.35 2765.64
163.455 1062.2 2765.71
163.446 1062.08 2765.89
163.433 1062.04 2766.04
163.538 1061.98 2766.19
163.46 1062.34 2765.48
163.529 1062.25 2765.29
163.26 1071.94 2752.59
162.98 1070.8 2751.08
162.923 1070.54 2750.57
162.864 1070.38 2750
163.72 1073.22 2754.92
163.786 1072.93 2754.54
163.752 1072.72 2754.15
163.632 1072.62 2753.79
163.172 1069.8 2748.89
163.712 1073.35 2755.54
163.624 1073.49 2755.66
163.86 1068.65 2748.05
163.609 1073.37 2756.1
163.637 1073.38 2755.81
164.176 1067.94 2743.85
164.372 1067.48 2743.88
164.49 1066.89 2744.67
164.428 1066.87 2745.81
164.544 1066.46 2745.51
164.308 1068.23 2743.3
164.326 1067.99 2743.44
164.463 1068.24 2743.06
164.127 1067.85 2747.5
164.246 1067.35 2746.37
164.114 1068.03 2748.02
164.052 1068.37 2748.42
163.697 1073.2 2756.29
163.713 1073.1 2756.48
165.126 1068.6 2742.24
165.92 1068.63 2741.36
165.123 1068.14 2742.34
166.209 1068.76 2740.87
163.536 1072.8 2757.01
163.386 1072.37 2757.56
163.377 1072.26 2757.76
163.42 1072.12 2757.97
163.405 1072.13 2758.18
163.453 1072.08 2758.09
163.47 1072.05 2758.26
163.597 1071.9 2758.41
163.724 1071.8 2758.5
164.527 1071.35 2758.91
165.31 1070.89 2759.17
165.179 1070.99 2758.98
163.562 1071.94 2758.3
165.489 1070.75 2759
165.585 1070.67 2759.02
165.845 1070.6 2758.62
166.019 1070.52 2758.31
165.661 1070.69 2758.7
166.238 1070.4 2758.15
166.462 1070.27 2757.99
166.831 1070.29 2757.43
167.323 1070.21 2757.08
167.498 1070.1 2756.96
167.619 1070.06 2756.8
167.789 1069.3 2756.95
167.855 1068.39 2756.98
167.744 1067.02 2757.11
167.867 1068.99 2756.87
167.781 1069.64 2756.81
167.489 1065.71 2757.37
167.741 1064.6 2757.25
167.65 1064.59 2757.36
167.815 1064.65 2757.14
167.696 1065.73 2757.08
167.545 1064.59 2757.47
167.71 1070 2756.67
166.246 1065.37 2758.24
167.262 1064.61 2757.71
167.432 1064.58 2757.58
167.045 1064.56 2757.87
165.448 1062.39 2758.74
165.257 1061.14 2758.54
165.961 1059.56 2757.67
164.711 1059.25 2758.59
166.154 1058.92 2757.41
165.667 1064.18 2758.64
165.692 1063.41 2758.69
166.513 1063.08 2758.2
166.474 1062.38 2758.13
164.932 1058.6 2758.37
164.31 1058.68 2758.96
164.082 1058.46 2759.24
163.383 1058.51 2760.46
163.451 1058.44 2760.2
163.321 1058.67 2760.63
163.622 1058.28 2759.9
163.303 1058.77 2760.89
163.955 1058.26 2759.45
163.809 1058.17 2759.67
163.286 1059.06 2761.18
163.272 1059.42 2761.71
163.517 1060.44 2763.07
163.764 1061.31 2764.4
163.707 1061.68 2764.96
163.758 1061.5 2764.92
163.772 1061.45 2764.72
163.655 1061.83 2765.19
163.584 1062.02 2765.3
168.049 1055.03 2763.28
167.946 1054.79 2763.19
167.842 1054.55 2763.07
167.909 1054.01 2761.86
167.304 1053.21 2761.23
168.183 1054.35 2761.91
163.498 1050.6 2763.42
160.534 1048.11 2763.08
164.919 1050.66 2759.67
159.613 1047.16 2762.91
159.142 1046.59 2762.77
161.776 1048.1 2767.36
163.885 1048.73 2769.83
160.042 1046.86 2765.21
158.898 1045.66 2763.69
158.592 1045.42 2763.03
158.59 1045.63 2762.79
158.708 1045.87 2762.58
158.781 1045.95 2762.2
164.403 1061.45 2766.81
164.729 1059.5 2764.29
165.546 1058.12 2763.28
164.481 1061.19 2766.24
164.748 1060.65 2765.68
164.325 1061.11 2765.91
164.409 1060.9 2765.71
164.388 1061.37 2766.49
163.607 1061.9 2766.31
163.635 1061.79 2766.42
163.714 1061.7 2766.35
163.948 1061.59 2766.5
164.207 1061.5 2766.66
163.54 1062.14 2765.52
163.554 1062.03 2765.72
163.594 1061.94 2765.86
163.583 1061.95 2766.02
163.619 1061.89 2766.13
163.292 1044.02 2769.65
163.397 1071.79 2752.63
163.064 1070.97 2751.37
163.079 1070.46 2750.72
162.98 1070.33 2750.27
163.245 1069.79 2749.22
163.885 1073.06 2755.06
163.801 1073.25 2755.34
163.958 1072.85 2754.78
163.967 1072.68 2754.45
163.891 1072.52 2754.08
163.733 1072.47 2753.78
163.784 1068.99 2748.65
163.925 1073.12 2755.43
163.92 1073.16 2755.67
163.789 1073.26 2755.79
163.999 1068.65 2748.78
163.737 1073.24 2755.97
164.358 1067.74 2743.64
164.693 1067.12 2743.53
164.646 1066.56 2744.58
164.858 1066.73 2743.61
164.601 1066.12 2745.45
164.472 1066.49 2745.86
164.345 1066.66 2746.2
164.246 1067.01 2746.48
164.537 1066.21 2745.77
164.443 1068.01 2743.23
164.653 1067.46 2743.32
164.733 1067.66 2743.05
165.346 1067.68 2742.2
164.173 1067.55 2747.07
164.146 1067.74 2747.86
164.164 1067.88 2748.34
164.159 1068.15 2748.69
164.202 1068.42 2749.15
163.851 1073.1 2756.18
163.854 1072.98 2756.39
166.19 1067.89 2741.08
163.618 1072.7 2756.98
163.474 1072.36 2757.43
163.471 1072.2 2757.63
163.451 1072.15 2757.82
163.506 1072.03 2757.97
163.518 1071.99 2758.18
163.576 1071.95 2758.08
163.682 1071.83 2758.34
163.852 1071.71 2758.44
164.603 1071.28 2758.68
165.364 1070.85 2758.81
165.242 1070.95 2758.69
163.65 1071.87 2758.2
165.515 1070.77 2758.7
165.91 1070.61 2758.26
165.772 1070.68 2758.41
166.024 1070.57 2758.07
165.588 1070.78 2758.48
166.277 1070.45 2757.95
166.708 1070.5 2757.42
167.203 1070.47 2756.96
167.368 1070.38 2756.83
167.493 1070.27 2756.77
167.589 1070.22 2756.65
167.84 1069.46 2756.77
167.922 1068.49 2756.8
167.81 1067 2756.93
167.735 1065.73 2756.98
167.923 1069.09 2756.71
167.791 1069.85 2756.6
167.9 1063.13 2757.28
167.958 1063.17 2757.17
167.798 1063.12 2757.4
167.861 1064.57 2757.02
168.007 1063.15 2757.05
167.687 1063.01 2757.49
167.669 1070.16 2756.53
166.475 1064.19 2758.2
167.406 1063.37 2757.71
167.557 1063.25 2757.59
167.229 1063.3 2757.83
166.312 1061.12 2757.9
167.116 1060.72 2757.3
167.178 1059.23 2756.74
166.35 1058.39 2757.22
167.241 1058.58 2756.56
167.253 1062.61 2757.72
167.273 1062.19 2757.69
165.501 1057.91 2757.87
166.377 1058.03 2757.19
164.939 1058.11 2758.4
164.755 1058.03 2758.63
163.48 1058.22 2760.23
163.415 1058.27 2760.44
163.342 1058.53 2760.68
163.619 1058.12 2759.99
163.822 1058.04 2759.76
163.343 1058.57 2760.94
163.31 1058.84 2761.2
165.104 1057.66 2758.34
164.505 1057.89 2759
163.295 1059.28 2761.78
163.559 1060.25 2763.19
163.797 1061.21 2764.65
163.727 1061.63 2765.15
163.786 1061.41 2765.19
163.804 1061.35 2764.99
163.687 1061.76 2765.4
163.612 1061.92 2765.46
168.142 1055.26 2763.33
168.445 1054.77 2761.91
168.363 1054.58 2761.87
167.943 1053.88 2761.24
167.564 1053.42 2760.93
165.334 1051.11 2759.3
168.185 1054.16 2761.19
161.213 1047.98 2761.33
161.628 1047.61 2759.48
160.224 1046.76 2760.61
159.583 1046.89 2762.14
161.758 1047.53 2758.61
159.057 1046.27 2762.09
158.772 1045.77 2761.74
163.771 1045.93 2769.91
161.589 1045.61 2767.22
159.431 1045.42 2764.56
158.977 1045.29 2763.9
158.604 1044.99 2763.22
158.408 1044.75 2762.7
158.378 1044.93 2762.46
158.408 1045.18 2762.18
158.55 1045.51 2762.08
158.555 1045.3 2761.54
164.438 1059.52 2764.04
164.205 1058.42 2762.45
164.281 1058.12 2762.1
165.698 1057.66 2762.71
166.805 1057.53 2763.63
164.273 1061.28 2766.16
164.511 1060.59 2765.39
164.081 1061.36 2766
164.158 1061.2 2765.8
164.194 1060.96 2765.54
164.164 1061.47 2766.38
163.651 1061.81 2766.23
163.709 1061.72 2766.14
163.94 1061.58 2766.26
163.633 1061.87 2765.65
163.653 1061.84 2765.9
163.664 1061.8 2766.02
162.626 1043.46 2768.58
162.662 1041.48 2768.33
163.64 1071.63 2752.75
163.207 1070.71 2751.25
163.619 1069.84 2750.47
163.483 1069.79 2750.03
163.369 1069.76 2749.59
163.881 1069.23 2749.48
164.052 1072.93 2755.18
164.145 1072.72 2754.88
164.258 1072.54 2754.68
164.144 1072.47 2754.36
164.085 1072.26 2753.96
164.04 1068.96 2749.42
164.097 1072.92 2755.45
164.043 1073 2755.62
164.014 1073.07 2755.84
163.92 1073.11 2755.97
164.314 1068.72 2749.85
164.998 1066.85 2743.17
165.19 1066.6 2743.07
164.829 1066.34 2744.44
164.731 1065.96 2745.33
165.079 1066.38 2743.57
165.183 1066.42 2743.29
164.648 1065.93 2745.64
164.59 1066.03 2745.83
164.477 1066.16 2746.1
164.379 1066.33 2746.26
164.442 1066.34 2746.06
164.257 1066.34 2746.54
164.203 1066.75 2746.68
164.17 1067.09 2747.03
164.553 1066.07 2745.99
165.323 1066.8 2742.7
166.006 1067.11 2741.62
164.146 1067.47 2747.56
164.164 1067.58 2748.2
164.189 1067.76 2748.46
164.295 1068 2749.07
164.39 1068.21 2749.58
164.535 1068.49 2750.27
163.991 1073 2756.12
164.004 1072.89 2756.3
163.959 1072.81 2756.49
163.716 1072.56 2756.96
163.614 1072.24 2757.39
163.567 1072.05 2757.75
163.648 1072.06 2757.54
163.646 1071.94 2757.88
163.709 1071.84 2758.02
163.769 1071.76 2758.25
163.987 1071.61 2758.3
164.639 1071.25 2758.39
165.43 1070.85 2758.55
165.287 1070.94 2758.44
163.766 1071.77 2758.13
165.827 1070.7 2758.14
165.646 1070.8 2758.26
166.075 1070.61 2757.84
165.886 1070.69 2757.95
165.46 1070.88 2758.32
166.515 1070.68 2757.39
167.058 1070.65 2756.99
167.204 1070.6 2756.8
167.35 1070.56 2756.64
167.485 1070.45 2756.55
167.577 1070.36 2756.48
167.867 1069.52 2756.61
167.967 1068.42 2756.63
167.855 1066.99 2756.78
167.744 1065.89 2756.93
167.777 1065.68 2756.88
167.898 1064.45 2756.9
167.964 1068.92 2756.55
167.755 1070.01 2756.47
167.826 1069.77 2756.54
167.862 1062.85 2757.36
167.868 1062.37 2757.27
167.944 1062.29 2757.15
167.993 1062.38 2757.06
167.796 1062.39 2757.36
168.041 1062.67 2756.93
167.672 1062.49 2757.49
167.631 1070.28 2756.32
167.452 1062.7 2757.62
167.35 1060.74 2757.14
167.503 1062.25 2757.55
167.568 1060.75 2756.96
167.437 1058.96 2756.46
167.207 1058.23 2756.61
167.421 1058.46 2756.42
166.374 1057.78 2757.23
165.587 1057.52 2757.82
166.359 1057.54 2757.3
167.121 1057.85 2756.73
163.511 1058.01 2760.27
163.626 1057.96 2760.08
163.506 1057.97 2760.43
163.398 1058.3 2760.65
163.785 1057.94 2759.89
164.66 1057.59 2758.99
164.818 1057.61 2758.76
163.39 1058.4 2760.97
163.375 1058.61 2761.23
163.342 1059 2761.67
165.719 1057.26 2757.79
165.614 1057.12 2757.97
163.598 1060.06 2763.24
163.875 1061.07 2764.79
163.761 1061.6 2765.37
163.875 1061.22 2765.16
163.834 1061.41 2765.41
163.722 1061.75 2765.66
168.262 1055.62 2763.36
168.489 1055.02 2762.03
168.508 1054.74 2761.52
168.42 1054.5 2761.3
167.441 1053.23 2760.07
167.753 1053.58 2760.08
165.784 1051.56 2758.45
161.704 1047.34 2755.78
168.207 1054.1 2760.53
160.555 1046.2 2758.87
159.676 1045.95 2760.18
159.138 1046.12 2761.49
160.406 1045.9 2758.34
158.79 1045.58 2761.32
158.634 1045.3 2761.28
160.824 1043.76 2766.25
159.258 1043.71 2764.19
158.855 1044.54 2763.68
158.443 1044.37 2762.81
158.587 1044.27 2763.12
158.311 1044.31 2762.22
158.313 1044.61 2762.02
158.335 1044.76 2761.68
158.422 1045.04 2761.6
158.431 1044.76 2761.17
158.526 1044.95 2761.07
164.246 1059.58 2763.9
163.974 1058.5 2762.29
164.016 1058.18 2761.84
164.097 1057.91 2761.47
164.523 1057.83 2761.9
165.93 1057.18 2762.04
166.876 1057.25 2763.18
167.185 1057.16 2763.43
164.316 1060.59 2765.17
163.869 1061.55 2766.02
163.952 1061.42 2765.86
164.014 1061.26 2765.67
164.055 1061.05 2765.4
167.424 1056.99 2763.42
163.757 1061.65 2765.94
163.757 1061.69 2765.81
162.183 1036.27 2766.66
161.65 1038.86 2766.17
161.215 1041.76 2766.4
163.852 1070.06 2751.16
164.801 1070.58 2752.74
164.103 1069.2 2750.09
164.344 1069.29 2750.7
164.323 1068.97 2750.18
164.234 1072.8 2755.25
164.482 1072.59 2755.25
164.46 1072.52 2755.01
165.544 1071.77 2755.05
165.438 1071.72 2754.75
165.271 1071.59 2754.33
165.048 1071.2 2753.65
164.119 1072.88 2755.65
164.268 1072.79 2755.52
164.082 1072.95 2755.78
164.065 1072.97 2756.02
164.123 1072.89 2755.93
164.602 1068.84 2750.66
165.486 1066.38 2742.85
165.594 1066.55 2742.51
165.057 1066.11 2744.3
164.902 1065.93 2745.08
164.828 1065.76 2745.38
164.707 1065.83 2745.57
165.372 1066.26 2743.2
164.687 1065.79 2745.85
164.629 1065.92 2745.9
164.584 1065.95 2746.09
164.607 1065.76 2746.12
164.355 1066.09 2746.42
164.49 1065.96 2746.29
164.166 1066.03 2746.78
164.153 1066.68 2746.97
164.173 1066.42 2746.81
164.123 1066.31 2747.06
164.131 1067.01 2747.4
166.162 1066.88 2741.52
164.153 1067.35 2747.89
164.197 1067.36 2748.75
164.119 1067.08 2748.27
164.275 1067.64 2748.97
164.483 1067.83 2749.7
164.602 1068.1 2750.19
164.794 1068.43 2750.85
164.681 1068.65 2750.79
164.09 1072.85 2756.21
164.084 1072.68 2756.49
164.14 1072.71 2756.38
163.908 1072.39 2756.93
163.809 1072.13 2757.3
163.737 1071.92 2757.67
163.84 1071.95 2757.48
163.801 1071.83 2757.83
163.873 1071.73 2757.99
163.926 1071.66 2758.13
164.121 1071.53 2758.14
164.721 1071.21 2758.19
165.708 1070.79 2758.05
165.51 1070.88 2758.16
165.937 1070.76 2757.75
166.358 1070.87 2757.32
165.703 1070.81 2757.88
164.826 1071.2 2758.08
166.816 1070.84 2756.99
167.04 1070.78 2756.85
167.177 1070.73 2756.67
167.336 1070.66 2756.5
167.478 1070.54 2756.42
167.556 1070.46 2756.32
167.826 1069.82 2756.43
167.89 1069.5 2756.47
167.97 1068.43 2756.43
167.891 1067 2756.61
167.81 1065.73 2756.76
167.916 1064.4 2756.77
168.053 1062.85 2756.84
167.961 1069.15 2756.42
167.739 1070.11 2756.27
167.755 1060.88 2756.8
167.849 1060.93 2756.72
167.924 1061.05 2756.63
167.979 1061.09 2756.51
167.656 1060.83 2756.89
168.055 1061.35 2756.39
168.019 1061.1 2756.42
167.62 1070.32 2756.11
167.536 1070.5 2756.13
167.565 1059.03 2756.33
167.326 1058.02 2756.5
167.514 1058.28 2756.29
166.356 1057.26 2757.39
167.075 1057.23 2756.99
167.286 1057.62 2756.68
163.616 1057.9 2760.21
163.779 1057.87 2760
163.62 1057.92 2760.4
163.494 1058.17 2760.86
164.651 1057.51 2759.08
164.767 1057.36 2759.06
165.582 1056.96 2758.14
165.558 1056.87 2758.29
163.448 1058.49 2761.35
163.43 1058.86 2761.75
166.27 1056.85 2757.64
166.335 1057.02 2757.49
166.222 1056.7 2757.77
163.662 1059.91 2763.31
163.962 1060.92 2764.91
163.806 1061.59 2765.59
163.932 1061.2 2765.36
164.023 1060.9 2765.09
163.892 1061.4 2765.6
168.278 1055.75 2763.38
168.511 1055.24 2762.16
168.537 1054.92 2761.64
168.515 1054.81 2761.29
168.411 1054.48 2760.94
166.122 1052 2757.76
167.652 1053.62 2759.25
165.878 1052.01 2756.66
163.184 1048.88 2754.27
160.096 1045.62 2756.21
162.098 1047.62 2752.86
160.568 1045.97 2753.43
168.226 1054.18 2760.15
167.377 1053.82 2758.17
159.879 1045.39 2758.88
159.851 1045.21 2758.55
159.304 1045.49 2760.19
159.857 1045.07 2758.1
159.026 1045.03 2760.18
158.877 1044.64 2760.08
158.841 1043.36 2763.37
159.957 1039.85 2764.09
160.351 1040.37 2764.85
158.368 1043.95 2762.39
158.551 1043.36 2762.7
158.316 1043.81 2761.87
158.311 1044.05 2761.68
158.295 1044.26 2761.57
158.319 1044.27 2761.25
158.354 1044.48 2761.23
158.693 1044.11 2760.14
158.767 1044.37 2760.09
164.038 1059.56 2763.63
163.786 1058.57 2762.15
163.863 1058.29 2761.84
163.933 1058.04 2761.44
163.972 1057.87 2761.22
164.208 1057.63 2761.1
164.068 1057.69 2760.99
164.373 1057.59 2761.28
164.765 1057.32 2761.14
166.192 1056.71 2761.04
167.175 1056.35 2761.08
167.123 1056.93 2762.81
167.479 1056.3 2761.38
164.189 1060.66 2765.06
163.842 1061.52 2765.78
167.904 1056.4 2762.55
167.781 1056.42 2762.32
162.607 1032.66 2767.71
160.837 1036.03 2764.37
161.075 1032.42 2765.04
162.081 1034.17 2766.55
164.583 1069.47 2751.31
165.683 1070.17 2753.17
166.687 1070.67 2754.65
166.486 1070.87 2754.65
164.428 1069.11 2750.56
164.656 1069.19 2751.12
164.577 1069 2750.76
164.549 1072.58 2755.51
165.686 1071.85 2755.39
165.611 1071.81 2755.29
166.567 1071.18 2755.39
166.612 1071.08 2755.2
166.579 1071.01 2754.97
164.22 1072.79 2755.83
164.413 1072.69 2755.72
164.157 1072.83 2756.11
164.271 1072.74 2756.04
164.866 1069.1 2751.38
165.004 1068.88 2751.47
165.599 1066.21 2742.73
165.751 1066.35 2742.4
165.214 1065.96 2744.19
164.997 1065.74 2745.11
164.956 1065.56 2745.44
164.803 1065.69 2745.64
165.48 1066.13 2743.07
164.694 1065.58 2745.94
164.638 1065.77 2746
164.608 1065.55 2746.14
164.54 1065.78 2746.27
164.461 1065.52 2746.37
164.201 1065.92 2746.66
164.299 1065.82 2746.55
164.378 1065.68 2746.48
163.806 1065.36 2747.52
163.815 1065.3 2747.33
164.09 1066.64 2747.37
163.782 1065.43 2747.7
164.078 1066.85 2747.82
164.114 1066.83 2748.79
164.276 1067.06 2749.37
164.398 1067.47 2749.54
163.794 1065.72 2748.5
164.679 1067.71 2750.42
164.919 1068.13 2751
165.145 1068.33 2751.5
165.114 1068.62 2751.52
164.221 1072.7 2756.27
164.235 1072.54 2756.53
164.308 1072.57 2756.39
164.097 1072.24 2756.92
163.964 1071.97 2757.34
163.907 1071.81 2757.65
164.019 1071.81 2757.51
163.982 1071.7 2757.84
164.093 1071.58 2757.99
165.557 1070.88 2758
164.924 1071.19 2757.94
166.198 1071.03 2757.26
165.756 1070.89 2757.69
166.595 1071.06 2756.89
165.028 1071.19 2757.78
164.194 1071.56 2757.84
166.786 1070.95 2756.85
166.91 1070.92 2756.75
167.072 1070.82 2756.7
167.182 1070.81 2756.51
167.019 1070.9 2756.61
167.415 1070.64 2756.32
167.253 1070.78 2756.37
167.477 1070.61 2756.2
167.821 1069.89 2756.24
167.88 1069.58 2756.28
167.967 1068.52 2756.24
167.889 1067.02 2756.43
167.809 1065.71 2756.58
167.926 1064.36 2756.65
168.031 1063.05 2756.78
168.065 1061.52 2756.28
167.939 1069.19 2756.27
167.741 1070.12 2756.08
167.692 1058.99 2756.18
167.815 1059.07 2756.03
167.87 1058.63 2755.86
168.063 1059.48 2755.68
168.124 1059.51 2755.5
168.155 1059.69 2755.37
167.601 1070.34 2755.9
167.444 1070.57 2755.91
167.342 1070.71 2756.05
167.522 1057.8 2756.32
167.418 1057.39 2756.62
167.674 1058.03 2756.07
166.948 1056.79 2757.29
167.239 1056.98 2756.98
167.123 1056.68 2757.22
163.743 1057.85 2760.19
163.798 1057.83 2760.06
163.647 1057.9 2760.29
164.771 1057.3 2759.16
163.658 1057.92 2760.46
163.719 1057.87 2760.35
163.607 1058.04 2760.84
163.539 1058.26 2761.21
166.161 1056.45 2758.15
166.205 1056.58 2757.9
166.2 1056.48 2758.02
163.506 1058.73 2761.81
163.591 1058.56 2761.78
166.873 1056.57 2757.43
166.803 1056.41 2757.57
163.76 1059.77 2763.41
163.881 1059.67 2763.51
168.287 1055.85 2763.38
168.523 1055.41 2762.25
168.553 1055.14 2761.81
168.565 1055.07 2761.35
168.502 1054.8 2760.98
168.433 1054.57 2760.84
168.321 1054.38 2760.23
163.533 1049.5 2753.27
165.99 1053.65 2754.24
163.909 1050.36 2752.62
162.385 1047.96 2751.85
159.678 1045.04 2756.12
159.235 1044.57 2754.16
160.523 1045.73 2752.48
167.562 1054.05 2758.42
167.091 1054.46 2756.72
167.266 1055.81 2754.69
159.556 1044.88 2758.95
159.551 1044.64 2758.46
159.591 1044.57 2757.88
159.365 1044.46 2758.86
159.15 1044.2 2759.09
159.636 1039.78 2763.48
160.414 1036.95 2763.74
158.455 1043.07 2762.15
159.381 1039.63 2762.7
159.511 1039.53 2763.03
158.311 1043.49 2761.56
158.378 1043.02 2761.66
158.294 1043.97 2761.32
158.306 1043.61 2761.42
158.647 1043.85 2760.17
158.611 1043.54 2760.22
158.971 1043.53 2759.04
159.052 1043.87 2759.06
168.284 1055.92 2763.35
168.029 1056.33 2762.8
168.016 1056.32 2762.6
168.125 1056.25 2762.9
163.679 1058.64 2762.06
163.699 1058.32 2761.61
163.701 1058.06 2761.1
163.877 1057.85 2760.96
164.531 1057.37 2760.89
164.302 1057.48 2760.67
163.928 1057.71 2760.7
165.955 1056.62 2760.32
166.843 1056.05 2759.36
167.717 1055.84 2760.39
167.121 1055.87 2759.26
167.825 1055.76 2760.4
168.313 1055.87 2761.74
161.761 1029.86 2766.79
160.678 1035.1 2763.84
160.644 1033.06 2764.04
161.033 1030.3 2765.19
165.891 1069.88 2753.18
167.029 1070.4 2754.86
166.874 1070.74 2754.99
164.733 1072.48 2755.74
165.696 1071.84 2755.68
166.701 1071.15 2755.63
166.827 1071.11 2755.86
166.995 1070.92 2755.59
166.999 1070.79 2755.32
164.422 1072.66 2755.99
164.537 1072.6 2755.89
164.347 1072.66 2756.17
164.508 1072.56 2756.08
166.066 1069.61 2753.23
166.155 1069.2 2753.21
165.737 1066.05 2742.69
165.334 1065.88 2744.08
165.113 1065.66 2745.04
165.063 1065.48 2745.35
164.929 1065.38 2745.68
164.803 1065.47 2745.81
165.67 1065.96 2742.98
164.645 1065.35 2746.1
164.488 1065.34 2746.34
164.05 1064.92 2746.96
164.084 1064.82 2746.93
163.867 1065.23 2747.16
163.958 1065.25 2746.9
164.008 1065.01 2747
163.43 1064.4 2747.92
163.439 1064.4 2748.08
163.447 1064.42 2747.78
163.758 1065.51 2747.94
163.419 1064.42 2748.35
163.78 1065.65 2748.22
163.808 1065.73 2748.81
163.853 1065.71 2749.21
163.942 1065.76 2749.54
164.542 1067.27 2750.14
164.081 1065.86 2749.88
163.434 1064.53 2748.62
163.51 1064.7 2749.18
163.45 1064.55 2748.96
164.904 1067.57 2751
165.25 1067.8 2751.67
166.311 1068.82 2753.26
166.293 1068.27 2753.2
164.419 1072.55 2756.27
164.398 1072.43 2756.51
164.497 1072.42 2756.39
164.261 1072.08 2756.96
164.135 1071.82 2757.39
164.083 1071.68 2757.69
164.22 1071.67 2757.54
164.29 1071.55 2757.7
165.232 1071.46 2757.18
166.323 1071.25 2756.83
165.139 1071.2 2757.64
166.528 1071.19 2756.73
164.341 1071.67 2757.41
166.724 1071.07 2756.7
166.817 1071.05 2756.6
167.083 1070.91 2756.44
166.902 1071.04 2756.5
167.339 1070.74 2756.21
167.159 1070.88 2756.24
167.808 1069.88 2755.96
167.86 1069.51 2756.05
167.935 1068.64 2756.07
167.867 1067.03 2756.22
167.799 1065.65 2756.39
167.911 1064.48 2756.47
168.069 1061.6 2756.14
168.207 1059.78 2755.06
167.909 1069.14 2756.05
167.717 1070.15 2755.91
167.995 1058.51 2755.55
167.809 1057.45 2755.97
167.686 1057.12 2756.33
168.033 1058.27 2755.37
168.249 1059.05 2754.99
168.331 1059.21 2754.63
167.398 1070.57 2755.71
167.507 1070.37 2755.68
167.261 1070.79 2755.95
167.268 1070.74 2755.8
167.251 1070.83 2756.1
167.622 1057.22 2756.45
167.457 1056.67 2756.89
167.319 1056.65 2757.07
167.126 1056.49 2757.3
163.846 1057.75 2760.2
164.605 1057.31 2759.51
164.889 1057.18 2759.16
166.171 1056.39 2758.25
163.74 1057.9 2760.7
163.824 1057.78 2760.51
163.897 1057.71 2760.35
166.925 1056.03 2758
166.933 1056.1 2757.88
166.754 1056.28 2757.75
167.02 1056.39 2757.45
166.967 1056.25 2757.63
168.552 1055.47 2762.18
168.579 1055.31 2761.64
168.555 1055.1 2761.14
168.423 1054.76 2760.5
168.375 1054.56 2760.29
167.708 1054.21 2758.67
163.059 1048.99 2751.07
166.397 1055.91 2751.51
164.592 1052.58 2751.07
163.775 1051.03 2749.61
162.261 1047.51 2749.99
159.337 1044.46 2756.1
158.915 1044.13 2754.45
158.99 1044.12 2753.8
158.764 1043.81 2754.11
160.452 1045.37 2751.7
167.161 1054.48 2757.1
167.641 1056.46 2755.22
167.598 1056.6 2754.54
167.726 1057.9 2752.17
159.407 1044.25 2758.17
159.264 1044.1 2758.58
159.321 1044 2757.59
159.218 1043.8 2758.01
160.357 1036.08 2763.23
158.646 1041.96 2761.85
159.371 1039.45 2762.38
160.151 1036.38 2762.71
160.046 1036.54 2762.32
158.621 1042.33 2760.65
158.71 1041.85 2760.76
159.149 1040.19 2761.08
158.592 1043.11 2760.31
158.583 1042.76 2760.46
158.919 1043.16 2759.07
158.858 1042.67 2759.3
159.114 1043.67 2758.55
159.002 1043.21 2758.49
168.265 1056.03 2763.23
168.533 1055.6 2762.34
168.246 1056.16 2763.03
168.411 1055.87 2762.04
168.441 1055.77 2761.83
168.54 1055.72 2761.98
165.719 1056.64 2759.85
165.721 1056.59 2759.5
164.173 1057.54 2760.38
166.832 1055.97 2758.99
167.243 1055.76 2759.1
167.013 1055.84 2758.88
167.766 1055.59 2759.84
167.366 1055.66 2758.97
167.814 1055.56 2759.87
161.523 1029.24 2766.27
160.453 1034.92 2763.14
160.449 1032.9 2763.52
160.961 1029.87 2765
160.308 1030.99 2763.49
167.203 1070.01 2754.83
167.298 1070.26 2755.15
167.223 1070.53 2755.27
164.87 1072.37 2755.82
165.722 1071.83 2755.81
166.746 1071.19 2756.07
167.09 1070.91 2755.79
167.135 1070.91 2755.97
167.037 1070.97 2756.06
167.24 1070.7 2755.61
167.345 1070.53 2755.51
164.663 1072.49 2755.97
164.577 1072.48 2756.17
164.848 1072.34 2756.04
167.313 1069.75 2754.89
167.344 1069.44 2754.81
165.509 1065.78 2743.98
165.263 1065.56 2745.07
165.218 1065.4 2745.33
165.056 1065.28 2745.59
164.736 1065.29 2745.94
164.815 1065.21 2745.84
165.91 1065.81 2742.92
164.696 1065.22 2746.18
164.539 1065.19 2746.34
164.151 1064.72 2746.88
163.605 1064.38 2747.57
163.638 1064.25 2747.58
163.731 1064.17 2747.51
163.512 1064.39 2747.68
163.356 1064.13 2748.17
163.392 1064.19 2747.99
163.358 1064.18 2748.37
163.36 1064.24 2748.61
163.549 1064.63 2749.42
164.287 1065.95 2750.37
163.644 1064.55 2749.74
163.38 1064.29 2748.85
163.435 1064.35 2749.18
163.363 1064.11 2749
164.65 1066 2751.09
165.076 1066 2751.81
166.01 1066.19 2753.06
167.384 1069.01 2754.76
167.153 1067.12 2754.56
164.638 1072.4 2756.27
164.557 1072.27 2756.54
164.775 1072.24 2756.4
164.489 1071.91 2757
164.823 1072.08 2756.55
165.565 1071.64 2756.73
165.643 1071.71 2756.57
166.43 1071.29 2756.62
166.587 1071.24 2756.53
166.684 1071.21 2756.43
166.997 1070.98 2756.36
166.805 1071.13 2756.37
166.932 1071.04 2756.22
167.648 1070.09 2755.67
167.665 1069.78 2755.59
167.801 1069.42 2755.75
167.868 1068.73 2755.82
167.804 1067.1 2755.94
167.781 1065.62 2756.18
167.952 1063.17 2756.06
168.057 1061.81 2756.04
168.083 1060.46 2755.46
168.219 1059.83 2754.83
168.402 1059.87 2752.28
168.39 1059.32 2754.26
167.786 1069.05 2755.62
167.669 1056.63 2756.38
167.47 1056.11 2756.98
167.421 1056.22 2757.08
167.943 1057.63 2755.55
168.354 1059 2754.43
167.423 1070.31 2755.42
167.216 1056.36 2757.31
167.312 1056.24 2757.32
167.13 1056.23 2757.56
164.76 1057.17 2759.72
164.929 1057.09 2759.41
166.162 1056.34 2758.39
166.853 1056.01 2758.12
167.072 1055.92 2757.95
167.019 1055.86 2758.1
166.959 1056.15 2757.77
167.124 1056.02 2757.79
168.58 1055.45 2761.82
168.573 1055.42 2761.45
168.492 1055.2 2761.03
168.412 1054.93 2760.53
167.807 1054.39 2758.86
167.893 1054.56 2759.04
167.254 1054.57 2757.47
162.569 1047.92 2749.11
166.452 1056.28 2750.53
164.513 1053.41 2747.39
163.738 1051.91 2745.92
163.092 1049.69 2746.87
161.788 1046.26 2748.99
162.119 1046.68 2748.26
159.065 1043.89 2756.07
158.732 1043.71 2754.59
158.822 1043.64 2753.54
160.108 1044.69 2751.47
158.627 1043.32 2753.89
158.609 1043.39 2754.26
167.257 1054.92 2757.04
167.712 1056.6 2755.51
168.291 1059.06 2750.91
168.189 1058.87 2750.26
168.018 1058.54 2749.45
167.689 1058.02 2749.08
159.138 1043.55 2757.47
159.089 1043.41 2758
159.401 1039.28 2762.15
160.007 1036.51 2761.91
159.724 1038.29 2761.98
160.356 1034.9 2762.6
158.844 1042.12 2759.42
158.885 1041.55 2759.19
158.954 1040.85 2759.16
159.277 1039.62 2759.7
159.999 1036.37 2760.48
158.912 1042.71 2758.67
158.864 1042.12 2758.72
158.922 1042.67 2757.95
168.214 1056.13 2763.07
168.562 1055.66 2762.14
168.573 1055.55 2761.96
168.563 1055.67 2761.96
168.332 1055.66 2761.26
168.49 1055.62 2761.5
165.835 1056.49 2759.14
166.822 1055.92 2758.7
167.208 1055.71 2758.84
166.978 1055.78 2758.63
167.427 1055.61 2758.87
167.308 1055.6 2758.66
167.865 1055.42 2759.71
167.496 1055.53 2758.76
161.564 1028.76 2766.45
161.452 1028.78 2765.96
160.322 1033.02 2763.01
160.378 1030.34 2763.61
160.937 1029.47 2764.87
160.182 1031.06 2762.93
167.422 1069.91 2755.17
167.509 1070.02 2755.38
165.007 1072.26 2755.91
165.751 1071.8 2755.93
166.645 1071.26 2756.2
164.934 1072.25 2756.16
165.775 1071.75 2756.23
165.785 1071.77 2756.09
167.525 1069.42 2755.14
165.707 1065.68 2743.89
165.419 1065.46 2745.12
165.382 1065.25 2745.46
165.207 1065.16 2745.65
164.976 1065.08 2745.92
164.803 1065.14 2746.14
164.667 1065.08 2746.41
164.252 1064.6 2746.85
163.828 1064.1 2747.44
163.509 1064.15 2747.78
163.421 1064.15 2747.91
163.596 1064.02 2747.75
163.519 1064.02 2747.85
163.664 1063.96 2747.69
163.315 1063.92 2748.45
163.348 1063.94 2748.26
163.309 1064.01 2748.58
163.309 1063.99 2748.78
163.495 1064.34 2749.43
163.845 1064.48 2750.2
163.629 1064.26 2749.82
163.415 1064.09 2749.25
163.316 1063.81 2748.91
163.347 1063.88 2749.08
164.113 1064.38 2750.71
165.291 1064.44 2752.26
166.822 1064.85 2754.2
167.591 1068.9 2755.12
167.475 1067.22 2755.1
167.445 1064.33 2755.04
167.182 1064.03 2754.53
164.984 1072.18 2756.29
165.713 1071.73 2756.4
166.549 1071.32 2756.28
167.686 1069.32 2755.39
167.587 1069.69 2755.35
167.727 1068.73 2755.41
167.69 1067.19 2755.57
167.71 1065.49 2755.88
167.915 1063.05 2755.86
168.055 1060.65 2755.36
167.964 1060.89 2755.15
168.062 1060.71 2755.57
168.298 1060.03 2753.01
168.421 1059.81 2751.83
168.442 1060.38 2749.89
168.473 1060.19 2749.74
168.413 1059.58 2751.95
167.45 1055.91 2756.98
167.398 1055.93 2757.4
167.394 1055.78 2757.33
167.308 1055.97 2757.55
167.904 1057.34 2755.52
167.414 1055.68 2756.91
167.893 1057.24 2755.36
168.391 1059.33 2752.16
167.223 1056.1 2757.6
166.173 1056.29 2758.6
166.848 1055.93 2758.3
166.916 1055.93 2758.21
167.099 1055.71 2758.08
167.145 1055.78 2757.92
167.005 1055.82 2758.24
167.206 1055.86 2757.77
168.493 1055.42 2761.24
168.379 1055.14 2760.63
167.938 1054.75 2759.18
167.351 1054.78 2757.73
167.456 1054.91 2758.02
167.293 1054.96 2757.37
162.628 1048.34 2746.6
166.596 1056.53 2748.27
165.079 1054.38 2747.62
166.129 1056.22 2745.13
164.116 1053.87 2743.1
164.057 1052.89 2744.78
163.711 1052.09 2744.32
163.184 1049.81 2744.24
163.463 1051.21 2744.21
160.241 1044.41 2750.71
161.625 1045.29 2747.9
162.238 1046.64 2746.25
158.822 1043.24 2755.92
158.623 1043.32 2754.66
158.623 1042.94 2753.51
159.165 1043.3 2752.37
158.521 1042.71 2753.84
158.544 1043.06 2754.29
167.337 1055.31 2756.96
168.355 1059.18 2751.6
168.304 1059.02 2748.14
168.183 1058.76 2747.85
167.289 1057.85 2745.69
167.568 1058.25 2745.96
167.469 1057.67 2747.17
158.955 1042.91 2757.4
160.322 1035.02 2761.01
160.366 1034.65 2761.4
160.257 1033.13 2762.56
160.373 1034.6 2762.52
158.856 1041.49 2757.89
158.913 1040.92 2758.42
158.671 1040.35 2756.16
158.885 1039.41 2757.16
159.267 1038.37 2758.31
159.889 1036.17 2757.93
159.784 1037.5 2759.68
159.887 1035.7 2757.32
158.869 1042.25 2757.76
168.514 1055.53 2761.47
168.358 1055.47 2760.94
168.235 1055.52 2760.77
166.844 1055.9 2758.45
166.919 1055.82 2758.49
167.101 1055.66 2758.52
167.004 1055.73 2758.4
167.292 1055.5 2758.31
167.136 1055.6 2758.28
167.904 1055.27 2759.53
167.631 1055.39 2758.76
167.485 1055.44 2758.46
161.566 1028.29 2766.31
161.393 1028.56 2765.67
161.504 1028.26 2765.94
160.282 1030.22 2763.19
160.414 1029.98 2763.64
160.866 1029.26 2764.55
160.006 1031.31 2760.57
160.03 1030.94 2760.69
166.325 1065.44 2743.72
165.593 1065.43 2744.94
165.931 1065.06 2745.34
165.379 1065.03 2745.75
165.918 1064.88 2745.68
165.2 1064.96 2745.95
164.979 1064.94 2746.24
164.794 1064.98 2746.41
164.369 1064.47 2746.84
163.944 1064 2747.39
163.755 1063.94 2747.6
163.409 1063.94 2748.11
163.522 1063.82 2748.01
163.589 1063.84 2747.89
163.472 1063.85 2748.09
163.65 1063.75 2747.91
163.72 1063.8 2747.78
163.302 1063.84 2748.7
163.346 1063.79 2748.61
163.378 1063.81 2748.46
163.416 1063.81 2748.32
163.499 1064.11 2749.54
163.797 1064.07 2750.2
163.603 1063.92 2749.83
163.41 1063.75 2749.41
163.339 1063.65 2749.04
163.333 1063.69 2748.84
163.372 1063.73 2749.19
165.574 1064.07 2752.55
163.897 1063.81 2750.4
167.592 1065.24 2755.5
167.631 1062.96 2755.1
167.316 1062.67 2754.35
166.995 1063.1 2753.96
167.808 1063.3 2755.62
167.815 1061.46 2755.07
168.047 1060.41 2754.72
167.733 1061.15 2754.57
167.871 1060.73 2754.41
168.301 1060.2 2752.29
168.475 1059.98 2749.43
168.404 1060.54 2749.87
168.371 1060.56 2749.53
168.439 1060.32 2749.44
168.42 1060.07 2749.01
168.455 1059.68 2749.27
167.361 1055.6 2757.33
167.276 1055.75 2757.68
167.328 1055.67 2757.6
167.397 1055.55 2756.8
167.345 1055.41 2757.24
166.962 1055.82 2758.34
167.051 1055.72 2758.27
167.207 1055.56 2758.08
167.152 1055.64 2757.99
167.207 1055.65 2757.87
168.332 1055.31 2760.69
167.953 1054.91 2759.31
167.533 1055.08 2758.24
167.351 1055.07 2757.63
167.439 1055.15 2757.92
167.321 1055.17 2757.38
162.683 1046.94 2743.81
164.467 1054.85 2741.95
165.284 1055.92 2741.78
166.98 1058.01 2743.25
163.75 1053.21 2742.98
163.292 1053.37 2740.61
163.018 1052.79 2740.85
163.397 1052.59 2742.54
163.155 1052.04 2742.27
160.674 1044.34 2749.44
