249.278 792.206 2104.69
249.259 792.232 2104.64
249.669 792.246 2105.69
250.342 791.966 2103.7
251.247 791.821 2102.7
250.958 791.853 2102.55
250.767 791.877 2102.42
252.358 791.378 2100.97
250.269 792.043 2105.24
250.106 792.298 2106.78
249.86 792.149 2105.69
249.955 792.1 2105.49
250.14 792.076 2105.48
254.139 791.276 2100.32
257.966 791.744 2101.44
261.166 792.137 2102.69
262.377 791.973 2102.71
262.673 791.558 2108.42
262.833 791.809 2104.75
263.125 791.826 2103.55
264.456 791.112 2102.39
264.386 791.117 2102.16
264.262 791.134 2101.95
264.103 791.147 2101.78
247.226 796.142 2114.5
246.63 797.42 2113.57
246.194 797.645 2112.37
245.98 797.092 2111.54
246.581 796.49 2112.45
266.95 786.99 2115.16
267.335 786.884 2115.17
267.98 786.888 2114.94
270.335 786.727 2114.96
270.216 786.815 2114.63
272.663 786.794 2114.22
273.473 786.77 2113.89
273.73 786.707 2113.74
273.677 786.03 2114.72
273.772 786.236 2114.47
273.942 786.135 2114.41
274.033 786.272 2114.12
273.988 786.39 2114.03
274.051 786.598 2113.63
274.015 786.679 2113.45
274.175 786.51 2113.67
273.785 785.899 2114.67
273.563 785.845 2114.91
273.301 785.427 2115.18
273.459 785.684 2115.03
273.125 784.531 2115.23
275.054 785.021 2111.8
275.197 784.848 2110.86
274.993 785.418 2109.71
274.968 784.852 2108.35
275.033 785.873 2111.21
275.003 785.789 2111.61
275.21 783.351 2107.85
274.969 783.226 2106.24
274.736 783.685 2105.8
273.732 785.487 2114.81
274.048 785.381 2114.5
274.507 785.601 2113.86
274.313 785.529 2114.17
274.749 785.693 2113.31
274.618 785.672 2113.61
274.84 785.804 2112.97
274.879 785.776 2112.61
274.664 784.154 2105.08
274.541 784.735 2104.41
274.523 784.662 2104.16
274.552 784.562 2103.99
274.636 784.715 2103.19
274.523 784.746 2103.43
274.397 784.838 2103.58
284.745 780.935 2102.59
285.238 780.559 2103.2
285.008 780.379 2101.65
285.329 780.206 2102.42
281.635 781.658 2100.29
283.216 780.913 2100.25
282.617 780.674 2099.21
283.728 779.995 2098.59
279.081 781.878 2098.36
279.162 781.91 2098.58
279.874 781.551 2098.67
280.551 781.332 2098.91
274.055 785.985 2099.61
273.964 785.943 2097.91
273.978 785.784 2096.91
275.448 784.705 2096.92
274.083 785.7 2096.63
277.6 782.767 2097.85
277.11 783.318 2097.79
278.239 782.37 2097.12
278.868 781.881 2096.81
277.517 783.02 2097.27
279.711 781.373 2097.84
279.688 781.264 2096.11
280.091 781.054 2097.14
274.427 784.962 2103.06
274.087 785.417 2102.45
273.931 785.834 2101.09
274.033 785.903 2100.51
273.981 786.061 2100.24
273.984 786.071 2099.94
286.172 778.98 2097.57
286.814 779.149 2098.43
283.494 779.583 2096.89
284.836 778.9 2096.07
285.896 778.738 2096.66
289.512 779.259 2098.89
292.561 779.312 2099.12
291.708 778.537 2102.37
291.662 778.595 2102.22
292.513 779.139 2100.5
291.698 778.667 2101.82
291.775 778.812 2101.51
292.675 779.084 2100.53
291.743 778.56 2102.03
293.802 779.265 2099.55
293.953 779.257 2099.68
294.07 779.284 2099.55
293.791 779.253 2099.38
293.599 779.184 2099.83
293.723 779.228 2099.21
292.159 778.455 2104.36
292.013 778.361 2103.84
291.808 778.246 2103.25
291.799 778.409 2102.57
291.808 778.241 2103.08
291.831 778.247 2102.89
291.826 778.321 2102.61
291.825 778.358 2102.52
291.832 778.287 2102.66
291.764 778.473 2102.47
291.896 777.924 2105.48
291.613 777.239 2105.52
291.678 776.976 2104.77
292.192 778.361 2104.59
292.167 778.373 2104.41
292.177 778.283 2104.53
292.171 778.225 2104.67
292.143 778.128 2104.7
292.124 778.066 2104.77
292.082 778.05 2104.98
292.083 777.96 2104.8
291.662 777.033 2104.43
291.603 776.944 2103.57
291.591 776.839 2104.25
291.588 776.826 2103.53
291.563 776.799 2102.55
291.726 777.317 2102.59
291.997 777.796 2102.11
291.91 777.792 2102.33
292.102 777.808 2101.87
291.863 777.779 2102.51
291.565 776.842 2102.69
291.682 777.333 2103.05
292.226 777.141 2101.33
292.357 777.635 2101.37
292.228 777.825 2101.65
293.909 777.57 2099.81
294.245 777.73 2099.55
293.674 778.174 2100.26
294.549 778.538 2099.55
294.473 778.586 2099.64
292.592 777.684 2101.12
292.467 777.739 2101.26
294.46 777.186 2098.89
294.783 778.075 2098.96
294.671 777.972 2099.1
294.78 778.56 2099.27
295.027 778.657 2099.01
294.908 778.651 2099.17
294.657 778.538 2099.42
294.56 777.112 2098.7
294.507 777.147 2098.79
294.616 777.206 2098.66
294.555 777.165 2098.36
294.48 777.21 2098.33
294.561 777.731 2098.34
294.64 777.108 2098.37
294.704 777.079 2098.39
294.686 777.136 2098.47
294.833 777.871 2098.61
294.622 778.36 2098.37
294.631 778.249 2098.36
294.457 777.777 2098.28
294.637 778.151 2098.36
294.635 778.515 2098.38
294.911 778.079 2098.63
294.846 777.936 2098.65
294.598 778.648 2098.41
294.648 778.58 2098.42
294.496 778.732 2098.41
291.2 778.686 2097.77
293.599 778.942 2098.38
288.31 778.462 2096.95
287.493 778.307 2096.52
286.441 778.273 2095.97
286.546 778.344 2096.14
294.11 778.966 2098.49
294.275 778.904 2098.47
294.417 778.812 2098.44
285.519 777.843 2095.05
285.268 778.092 2095.03
284.934 778.284 2094.95
285.438 778.331 2095.37
286.314 777.517 2095.4
286.202 777.246 2095.28
286.145 776.502 2095.24
284.8 777.417 2094.42
282.05 777.845 2092.85
279.452 777.819 2091.25
279.995 777.735 2091.63
279.014 777.922 2090.82
279.214 777.959 2091.06
275.556 783.343 2084.74
275.716 783.368 2084.52
275.422 783.326 2085.08
275.475 783.461 2084.96
275.389 783.19 2085.13
275.368 783.111 2085.26
275.361 783.049 2085.36
275.801 783.787 2084.56
276.054 783.779 2084.25
276.374 783.849 2083.95
276.733 783.764 2083.65
276.85 784.05 2083.66
278.415 785.07 2083.25
275.415 783.229 2085.74
278.41 778.287 2089.74
277.419 779.17 2087.38
276.778 780.217 2086.13
278.722 778.11 2090.39
278.891 777.992 2090.64
275.438 783.289 2086.05
275.474 783.161 2086.13
276.776 780.446 2086.18
276.674 780.888 2086.24
276.135 781.781 2086.2
276.022 783.117 2087.25
275.928 783.269 2087.22
275.834 783.411 2087.13
275.758 783.516 2086.98
246.61 798.942 2113.99
246.764 798.043 2114.18
246.522 800.059 2114.6
246.141 800.55 2114.32
246.425 799.087 2113.67
248.644 801.068 2116.89
263.054 791.279 2110.1
263.257 791.037 2110.62
263.413 790.551 2111.5
265.348 788.185 2114.53
262.879 791.438 2108.38
266.407 787.268 2115.07
243.537 799.278 2106.3
243.276 799.544 2106.14
243.961 798.975 2108.03
244.391 798.634 2109.62
244.595 798.607 2110.43
244.708 798.656 2110.77
244.378 798.704 2110.1
245.641 798.576 2112.02
244.962 798.79 2111.31
245.416 798.709 2111.85
245.776 797.968 2111.73
246.002 798.803 2112.79
244.099 800.593 2101.62
245.245 797.797 2103.39
244.929 798.769 2102.79
245.062 798.51 2102.64
245.329 797.836 2102.34
245.494 797.527 2101.43
245.659 797.71 2100.63
245.844 798.065 2099.5
246.159 797.616 2098.25
246.291 797.602 2097.51
246.332 797.685 2096.96
246.586 797.563 2096.21
246.587 797.651 2096.11
246.841 797.386 2095.62
246.957 797.262 2094.84
247.059 797.06 2094.32
247.139 796.96 2094.16
247.317 796.944 2093.73
248.365 796.498 2092
249.904 795.007 2091.59
250.269 794.779 2092
250.715 794.425 2092.83
249.815 794.917 2090.76
249.968 794.752 2090.93
249.044 796.03 2091.24
249.129 795.991 2091.07
249.684 795.098 2090.66
249.59 795.266 2090.54
249.481 795.477 2090.42
250.77 794.104 2091.84
252.002 793.013 2093.05
250.952 793.715 2091.16
251.431 793.266 2091.4
253.074 792.277 2093.3
252.384 792.654 2092.69
253.387 791.98 2093.66
253.403 792.011 2093.23
252.841 792.492 2094.49
253.236 792.084 2094.08
252.23 793.222 2095.62
249.593 793.533 2105.79
249.586 793.816 2104.95
249.68 794.046 2104.55
249.794 794.255 2103.88
249.621 793.229 2106.21
249.642 792.943 2106.25
249.505 792.491 2105.68
249.47 792.551 2105.52
250.51 794.42 2101.24
251.357 794.37 2098.64
251.575 794.124 2098.16
251.724 793.838 2097.47
251.672 793.936 2097.43
252.228 793.197 2095.85
249.243 792.282 2104.62
249.302 792.174 2104.66
249.261 792.146 2104.35
249.234 792.149 2104.29
249.209 792.158 2104.36
249.611 792.184 2105.4
250.19 791.976 2103.35
250.601 791.92 2102.35
250.484 792.031 2102.41
251.673 791.489 2101.41
251.237 791.542 2101.44
250.876 791.572 2101.4
252.194 791.126 2099.86
254.998 790.58 2097.19
256.57 790.575 2097.55
249.754 792.054 2104.37
249.404 792.154 2104.73
249.349 792.162 2104.7
249.622 792.131 2104.75
249.457 792.148 2104.65
249.613 792.073 2104.27
259.582 791.56 2100.93
262.04 791.868 2102.2
263.821 791.15 2101.59
262.72 791.71 2105.8
264.097 791.167 2103.66
264.55 791.017 2102.88
264.569 791.041 2102.58
265.68 790.377 2101.82
265.81 790.343 2101.42
265.724 790.369 2101.2
265.544 790.391 2101.04
265.355 790.351 2100.73
266.661 787.183 2114.81
266.895 787.081 2114.75
267.26 786.981 2114.82
267.985 786.924 2114.61
270.231 786.883 2114.25
272.892 786.891 2113.7
273.43 786.855 2113.63
273.693 786.88 2113.1
273.879 786.769 2113.34
274.108 785.96 2114.3
274.062 786.173 2114.22
274.199 786.059 2114.13
274.239 786.172 2113.98
274.277 786.278 2113.81
274.274 786.401 2113.66
274.23 786.622 2113.29
274.113 786.714 2113.11
274.344 786.531 2113.37
273.824 785.73 2114.69
274.11 785.798 2114.35
274.943 785.613 2109.91
274.72 785.585 2108.1
274.473 786.213 2106.98
274.525 786.067 2106.84
274.543 785.758 2106.55
274.528 785.955 2106.69
274.9 784.198 2107.19
274.999 786.009 2111.21
274.868 786.176 2111.85
274.899 786.039 2112.03
274.833 785.933 2112.7
274.708 783.905 2106.06
274.584 784.395 2105.39
274.086 785.635 2114.44
274.451 785.793 2113.93
274.279 785.752 2114.18
274.743 785.87 2113.18
274.639 785.827 2113.5
274.515 785.922 2113.77
274.758 786.028 2112.95
274.481 784.879 2104.73
274.403 784.943 2104.27
274.375 784.902 2103.92
274.39 784.826 2103.71
274.059 785.431 2102.71
274.022 785.471 2103
280.965 780.94 2098.29
279.999 781.317 2098.18
273.889 786.18 2099.31
273.81 786.068 2097.67
273.825 785.939 2097.01
273.931 785.802 2096.65
274.395 785.478 2096.45
275.78 784.565 2096.45
276.949 783.803 2096.32
274.005 785.797 2096.37
274.271 785.596 2096.36
278.809 781.999 2095.8
278.483 782.318 2096.08
279.232 781.459 2094.19
277.449 783.384 2096.24
277.737 783.246 2095.68
280.934 780.698 2097.45
281.777 780.042 2095.75
281.005 780.399 2094.26
281.061 780.379 2095.39
279.953 780.91 2093.54
273.825 786.045 2100.92
273.804 786.31 2100.26
273.795 786.309 2099.92
286.982 778.807 2097.3
289.529 779.188 2098.56
282.265 779.846 2095.99
282.998 779.475 2095.16
285.462 778.68 2096.13
283.102 779.328 2094.79
284.676 778.846 2095.65
286.185 778.605 2096.49
292.506 779.251 2098.89
293.687 779.199 2099.04
291.811 778.478 2102.33
291.788 778.513 2102.18
293.771 779.163 2099.86
291.859 778.608 2101.77
291.98 778.764 2101.43
292.866 779.044 2100.51
293.898 779.153 2099.9
291.876 778.482 2101.97
294.486 779.292 2099.39
294.289 779.239 2099.32
294.208 779.307 2099.69
294.486 779.324 2099.53
294.299 779.187 2099.15
294.202 779.158 2099.02
292.025 778.281 2103.86
291.844 778.172 2103.31
291.852 778.136 2103.18
291.847 778.162 2103.06
291.82 778.416 2102.43
291.847 778.191 2102.96
291.843 778.237 2102.74
291.844 778.291 2102.51
291.842 778.352 2102.39
291.85 778.246 2102.57
291.842 777.561 2105.16
291.889 777.524 2104.81
291.88 777.499 2104.56
292.016 778.172 2103.89
292.139 778.153 2104.55
291.977 778.023 2103.92
292.095 777.984 2104.66
292.106 778.039 2104.56
291.833 777.514 2103.93
291.714 777.354 2102.81
291.849 777.777 2102.66
291.805 777.689 2102.86
292.072 777.943 2102
291.967 777.92 2102.23
291.88 777.873 2102.44
292.2 777.982 2101.79
291.867 777.878 2102.6
291.839 777.749 2103.26
291.856 777.833 2103.02
292.388 777.869 2101.42
292.321 778.035 2101.6
293.701 778.318 2100.27
292.767 778.098 2101.05
292.589 777.909 2101.18
294.514 778.692 2099.61
294.393 778.716 2099.73
294.655 778.623 2099.43
294.58 778.644 2099.52
294.836 778.11 2098.87
295.158 778.755 2098.8
294.789 778.689 2099.29
294.72 778.605 2099.35
295.132 778.801 2098.93
295.047 778.785 2099.08
294.934 778.801 2099.2
294.899 778.104 2098.71
294.871 778.113 2098.79
294.904 778.104 2098.68
294.738 777.696 2098.45
294.647 777.716 2098.39
294.901 778.244 2098.48
294.92 778.177 2098.48
294.768 778.185 2098.42
294.791 777.698 2098.5
294.804 777.771 2098.56
295.102 778.523 2098.54
295.409 778.988 2098.47
295.298 778.911 2098.48
294.751 778.425 2098.43
294.702 778.503 2098.42
294.787 778.332 2098.43
295.25 778.905 2098.57
295.32 779.013 2098.54
294.588 778.715 2098.45
294.652 778.636 2098.45
294.702 778.563 2098.46
291.298 778.826 2097.92
293.949 779.038 2098.59
287.717 778.546 2096.9
287.057 778.394 2096.47
285.69 778.399 2095.68
285.941 778.446 2095.97
294.171 778.986 2098.59
294.439 778.852 2098.49
294.338 778.924 2098.56
294.58 778.772 2098.48
282.497 778.759 2093.42
282.533 778.93 2093.54
283.955 778.631 2094.5
282.475 779.13 2093.64
284.513 778.6 2094.97
281.225 778.311 2092.5
280.949 779.255 2092.59
279.599 777.876 2091.38
280.454 778.572 2092.1
279.046 778.064 2090.87
279.303 778.056 2091.16
275.655 783.703 2084.73
275.398 783.542 2085.23
275.385 783.427 2085.27
275.472 783.684 2085.11
275.591 783.844 2084.94
275.324 783.184 2085.2
275.404 783.393 2085.61
275.896 784.138 2084.59
275.86 784.237 2084.7
276.094 784.191 2084.38
275.744 784.028 2084.76
276.325 784.197 2084.12
276.491 784.131 2083.94
277.595 785.372 2083.83
275.413 783.43 2085.84
275.422 783.382 2085.96
278.496 778.337 2089.98
277.728 778.931 2088.12
276.926 780.064 2086.35
277.064 780.059 2086.55
278.748 778.25 2090.43
278.902 778.171 2090.65
275.717 783.805 2086.82
275.731 783.661 2086.9
276.941 780.681 2086.49
276.248 782.362 2086.89
276.747 781.071 2086.48
276.47 783.796 2088.53
276.466 784.145 2088.86
276.287 784.23 2088.52
276.585 784.981 2089.81
276.286 785.172 2089.07
246.167 800.314 2114.21
246.388 799.756 2114.12
245.738 800.366 2113.7
263.069 791.296 2108.42
263.314 791.114 2109.91
263.33 791.025 2110.42
263.544 790.481 2111.38
264.001 789.689 2112.63
265.408 788.168 2114.45
266.293 787.374 2114.79
262.959 791.525 2106.01
243.35 799.401 2109.78
243.581 799.42 2110.57
243.427 799.419 2110.22
243.776 799.426 2110.9
245.515 799.374 2112.73
245.84 799.535 2113.23
244.012 799.483 2111.29
245.297 799.115 2112.19
246.166 799.941 2113.92
245.159 799.442 2100.51
244.975 798.976 2102
245.028 798.766 2101.87
245.279 798.154 2101.52
245.515 798.32 2100.62
245.38 798.975 2100.35
245.7 798.851 2099.18
245.863 798.289 2098.96
246.204 797.8 2097.56
246.338 797.837 2096.65
246.548 797.807 2096.06
246.792 797.624 2095.48
246.831 797.486 2095.47
246.928 797.436 2094.86
247.026 797.158 2094.33
247.013 797.278 2094.3
247.125 797.025 2094.11
247.078 797.11 2094.16
247.281 797.083 2093.7
248.137 796.742 2092.18
249.052 796.2 2090.94
250.317 794.688 2091.88
250.273 794.257 2090.16
250.103 794.493 2089.98
250.393 794.127 2090.41
249.405 795.695 2090.3
250.038 794.67 2089.88
249.924 794.926 2089.78
251.888 792.868 2091.7
250.912 793.671 2090.54
252.785 792.336 2092.35
253.566 791.76 2093.81
253.823 791.632 2093.41
253.703 791.77 2092.97
253.085 792.145 2094.42
252.791 792.493 2094.74
253.33 791.952 2094.14
249.649 793.413 2105.72
249.568 793.659 2105.02
249.652 793.905 2104.64
249.819 794.138 2103.89
249.899 794.261 2103.46
249.652 793.026 2105.93
249.444 792.625 2105.36
249.228 792.367 2104.64
249.195 792.272 2104.39
250.677 794.336 2100.77
251.489 794.167 2098.41
251.747 793.711 2097.57
251.901 793.426 2096.79
252.212 793.147 2096.09
252.718 792.517 2094.97
249.206 792.173 2104.23
249.199 792.215 2104.21
249.339 792.161 2104.6
249.321 792.152 2104.48
249.287 792.148 2104.25
249.309 792.142 2104.32
249.301 792.176 2104.05
249.35 792.154 2104.02
249.273 792.204 2103.94
249.252 792.195 2104.07
250.058 792.019 2103.3
250.375 792.119 2102.37
250.536 791.902 2102.17
250.646 791.602 2101.37
251.753 791.203 2100.29
251.506 791.247 2100.46
251.154 791.291 2100.5
253.951 790.669 2097.33
258.705 789.756 2096.24
258.465 789.723 2095.71
258.235 790.444 2097.75
259.633 789.689 2096.78
249.415 792.13 2104.41
249.555 792.06 2103.97
249.931 792.068 2103.22
260.82 791.393 2100.81
263.523 791.047 2101.21
264.927 790.334 2100.44
264.026 791.137 2104
265.585 790.282 2102.67
265.907 790.194 2102.32
265.689 790.338 2102.17
266.407 790.101 2101.4
266.22 790.123 2101.92
266.307 790.151 2100.94
266.066 790.212 2100.63
265.769 790.142 2100.14
266.609 787.241 2114.45
266.763 787.118 2114.4
267.107 787.01 2114.37
267.498 786.971 2114.49
268.148 786.918 2113.98
270.318 786.934 2113.71
272.453 786.966 2113.27
272.787 787.014 2112.84
273.345 786.97 2113.04
274.045 786.816 2112.79
273.462 787.021 2112.53
273.851 786.93 2112.31
274.293 785.904 2114.1
274.388 786.035 2113.91
274.41 786.12 2113.79
274.461 786.208 2113.59
274.488 786.331 2113.4
274.461 786.448 2113.24
274.407 786.572 2113
274.309 786.665 2112.91
274.348 786.735 2112.56
274.974 786.046 2111.01
274.881 785.769 2110.02
274.739 785.653 2109.04
274.705 785.64 2108.42
274.393 786.381 2107
274.291 786.681 2106.07
274.434 786.247 2106.16
274.326 786.575 2105.95
274.562 785.12 2106.26
274.396 785.791 2105.51
274.541 784.681 2105.68
274.874 786.21 2111.53
274.771 786.252 2112.34
274.803 786.099 2112.55
274.445 785.078 2104.96
274.659 785.98 2113.31
274.565 786.005 2113.62
274.664 786.126 2113.13
274.718 786.192 2112.83
274.337 785.11 2104.51
273.745 786.112 2103.61
273.73 786.056 2103.26
274.011 785.509 2103.32
273.728 785.925 2102.03
273.71 786.142 2101.17
273.439 786.515 2102.38
273.384 786.748 2101.37
273.701 786.216 2097.83
273.81 785.964 2096.8
273.716 786.096 2096.43
273.814 785.999 2096.26
275.798 784.722 2095.76
274.281 785.64 2096.13
276.84 784.229 2095.03
273.971 785.915 2096.04
278.965 781.687 2094.02
277.853 783.092 2095.43
278.533 782.184 2094.63
279.718 781.217 2093.21
277.316 783.894 2094.56
277.073 784.244 2094.5
281.674 780.026 2094.28
280.92 780.379 2093.7
280.035 780.713 2093.04
273.637 786.558 2100.38
273.575 786.402 2098.09
287.294 778.666 2097.02
290.158 779.015 2098.11
290.293 779.128 2098.38
285.438 778.611 2095.93
282.904 779.308 2094.39
284.278 778.871 2095.21
286.416 778.489 2096.34
293.421 779.176 2098.82
294.086 779.147 2098.9
291.87 778.436 2102.12
291.867 778.414 2102.27
294.353 779.343 2099.74
292.014 778.554 2101.71
292.169 778.719 2101.37
293.051 779.003 2100.47
294.052 779.157 2099.93
294.456 779.372 2099.73
291.961 778.406 2101.94
294.811 779.319 2099.4
294.577 779.219 2099.22
294.622 779.38 2099.64
294.889 779.399 2099.58
294.406 779.192 2099.06
294.318 779.059 2098.86
291.874 778.1 2103.33
291.875 778.092 2103.16
291.866 778.13 2102.94
291.852 778.203 2102.73
291.863 778.201 2102.56
291.867 778.223 2102.45
291.866 778.28 2102.38
291.915 778.329 2102.24
291.892 778.027 2103.25
291.935 777.859 2103.93
291.884 777.914 2103.26
291.871 777.891 2102.76
292.031 778.005 2102.1
292.117 778.018 2101.93
291.974 778.05 2102.23
291.902 777.977 2102.39
291.876 777.971 2102.56
292.246 778.068 2101.72
291.867 777.948 2102.62
291.875 777.986 2102.75
291.909 778.003 2103.04
291.891 777.954 2102.88
292.558 778.06 2101.25
292.439 778.046 2101.42
292.374 778.111 2101.53
293.64 778.444 2100.34
292.671 778.232 2101.13
292.507 778.128 2101.34
294.674 778.736 2099.42
294.553 778.781 2099.57
294.563 778.865 2099.56
294.404 778.843 2099.73
295.19 778.818 2098.73
295.167 778.867 2098.86
294.846 778.852 2099.29
295.164 778.926 2098.97
295.081 778.904 2099.1
295.003 778.954 2099.19
295.216 778.878 2098.68
295.007 778.269 2098.51
295.037 778.348 2098.52
294.862 778.335 2098.48
294.999 778.412 2098.51
295.226 778.533 2098.5
295.064 778.425 2098.53
295.449 778.961 2098.48
295.573 779.176 2098.52
295.443 779.115 2098.52
294.754 778.489 2098.47
294.808 778.414 2098.47
295.278 778.995 2098.68
295.39 779.123 2098.62
294.651 778.694 2098.49
294.71 778.618 2098.5
294.754 778.549 2098.5
290.842 778.889 2097.98
293.176 779.004 2098.39
293.655 779.07 2098.61
294.078 779.065 2098.7
286.971 778.542 2096.67
284.73 778.682 2095.33
294.25 778.997 2098.67
294.544 778.847 2098.54
294.423 778.927 2098.63
294.651 778.761 2098.52
280.9 779.514 2092.67
280.911 779.756 2092.8
282.536 779.272 2093.85
280.984 779.905 2092.99
283.011 779.164 2094.23
280.504 779.639 2092.39
280.444 779.492 2092.26
280.066 778.609 2091.82
279.157 778.254 2090.99
279.777 778.671 2091.61
275.739 784.128 2084.85
275.418 783.694 2085.4
275.498 783.85 2085.26
275.382 783.521 2085.43
275.612 784.034 2085.09
275.734 784.245 2084.99
275.392 783.487 2085.61
275.419 783.655 2085.6
275.429 783.554 2085.87
276.202 784.485 2084.42
275.862 784.364 2084.8
276.093 784.586 2084.65
276.392 784.462 2084.19
277.401 785.469 2084.04
275.706 783.921 2086.72
278.642 778.387 2090.29
277.861 778.941 2088.42
277.107 780.403 2086.67
277.244 780.15 2086.86
277.257 779.825 2086.93
279.025 778.42 2090.8
278.778 778.479 2090.47
276.191 785.214 2088.74
276.16 785.315 2088.57
277.684 781.059 2087.59
277.529 781.342 2087.52
276.314 782.412 2087.03
276.687 783.643 2088.68
277.263 781.631 2087.38
276.715 783.983 2089.17
276.943 784.271 2090.46
276.981 784.077 2090.32
276.883 785.039 2090.64
276.506 786.161 2090.14
276.395 786.27 2089.65
245.54 800.114 2113.34
263.266 791.128 2108.25
263.053 791.368 2106.62
263.449 790.965 2109.99
263.426 790.963 2110.29
263.652 790.414 2111.26
264.277 789.473 2112.68
265.227 788.385 2114.16
266.099 787.536 2114.58
266.345 787.362 2114.52
263.292 791.291 2105.39
244.135 800.143 2112.2
244.083 799.941 2111.97
244.083 799.717 2111.7
245.295 799.234 2100.38
245.771 799.603 2098.36
245.877 799.343 2098.35
245.975 799.076 2098.28
246.068 798.803 2098.11
246.171 797.954 2097.5
246.293 797.971 2096.61
246.425 798.027 2096.21
246.356 798.041 2096.37
246.536 797.937 2095.97
246.709 797.874 2095.57
246.797 797.725 2095.4
246.91 797.559 2094.86
246.997 797.393 2094.31
246.914 797.652 2094.74
247.077 797.253 2094.06
247.046 797.447 2094.09
247.233 797.215 2093.72
247.435 797.225 2093.2
248.566 796.662 2091.41
249.372 795.886 2090.17
250.414 794.153 2089.89
250.67 793.857 2090.12
250.183 794.48 2089.65
249.804 795.197 2089.63
250.085 794.695 2089.63
250.055 794.845 2089.53
251.595 793.095 2090.93
252.987 792.191 2092.15
253.781 791.506 2094.02
254.115 791.353 2093.68
254.102 791.47 2093.15
253.215 792.078 2091.96
253.113 791.965 2094.58
252.912 792.129 2094.79
253.52 791.592 2094.36
253.224 791.771 2094.62
249.568 793.48 2105.1
249.648 793.261 2105.63
249.575 793.71 2104.68
249.693 793.91 2104.45
249.897 794.127 2103.55
250.288 794.256 2102.01
249.446 792.792 2105.2
249.213 792.429 2104.57
249.175 792.349 2104.28
249.212 792.265 2104.1
251.187 794.185 2099.24
251.532 794.026 2098.41
251.754 793.563 2097.66
252.064 793.065 2096.76
252.249 792.932 2096.31
252.488 792.722 2095.67
252.755 792.291 2095.07
249.236 792.229 2103.96
249.409 792.112 2104.18
249.395 792.133 2103.95
249.295 792.196 2103.84
249.257 792.227 2103.73
249.334 792.183 2103.72
249.222 792.253 2103.78
250.236 792.222 2102.3
250.422 791.966 2102.12
250.5 791.634 2101.34
250.746 791.368 2100.61
252.272 790.984 2098.77
251.287 791.224 2100.18
251.01 791.245 2100.16
250.775 791.311 2100.41
256.513 790.1 2095.62
261.536 789.197 2096.25
262.061 789.234 2096.98
260.77 789.244 2095.4
260.354 789.944 2097.79
262 789.472 2097.76
249.79 792.111 2103.18
249.452 792.106 2103.85
250.069 792.332 2102.34
262.244 790.614 2099.97
263.493 789.96 2099.31
264.215 789.74 2098.88
264.22 790.966 2103.93
266.255 789.945 2102.43
265.929 789.438 2103.64
265.438 790.245 2102.99
266.644 789.94 2101.92
266.956 789.939 2101.04
266.981 789.874 2101.5
268.449 789.839 2099.93
268.115 789.85 2099.54
266.511 790.045 2100.06
268.184 789.575 2097.94
265.23 789.518 2098.13
266.63 787.197 2114.22
266.438 787.309 2114.26
266.821 787.065 2113.94
267.572 786.949 2114.05
267.207 786.98 2113.89
267.358 786.835 2112.38
268.161 786.816 2112.32
270.039 786.918 2111.88
272.15 787.017 2111.27
273.18 787.047 2112.4
272.833 786.999 2111.15
274.321 786.765 2112.05
273.561 786.99 2111.96
273.9 786.924 2111.83
274.19 786.811 2111.67
274.587 786.109 2113.45
274.606 786.24 2113.19
274.579 786.375 2113.04
274.566 786.487 2112.78
274.578 786.552 2112.42
274.481 786.652 2112.4
274.517 786.659 2111.92
274.877 786.232 2111.25
274.799 785.97 2110.17
274.57 785.89 2108.93
274.586 785.879 2108.42
274.302 786.544 2107.14
274.204 786.86 2106.22
274.187 786.867 2105.93
274.197 786.839 2105.73
274.304 786.486 2105.76
274.201 786.788 2105.55
274.243 786.067 2105.24
274.298 785.398 2104.74
274.736 786.384 2111.88
274.7 786.371 2112.55
274.676 786.306 2112.8
273.862 786.052 2104.01
273.41 786.927 2103.49
273.26 787.09 2103.07
273.205 787.037 2102.69
273.102 787.242 2102.41
273.059 787.345 2101.91
272.869 787.726 2101.28
272.855 788.104 2100.3
272.954 787.882 2100.1
273.196 787.141 2098.45
273.421 786.668 2098.37
273.61 786.217 2096.62
273.443 786.745 2096.1
273.565 786.661 2095.85
273.666 786.607 2095.6
275.581 784.999 2095.41
274.243 785.817 2095.79
274.128 785.785 2096.03
276.671 784.444 2094.85
273.869 786.472 2095.37
279.093 781.45 2092.6
279.458 781.066 2092.55
277.624 783.511 2094.48
278.236 782.618 2094.16
278.541 782.171 2091.19
279.856 780.677 2092.66
279.683 780.847 2092.62
277.114 784.747 2093.51
277.414 783.969 2094.07
276.73 784.581 2094.47
276.836 784.366 2094.68
276.865 785.221 2093.24
280.868 780.315 2093.48
280.17 780.518 2092.87
273.515 786.705 2100.13
293.268 779.133 2098.64
281.043 780.146 2093.41
293.971 779.139 2098.81
294.175 779.067 2098.78
291.932 778.366 2102.13
294.738 779.437 2099.67
292.354 778.681 2101.31
292.116 778.507 2101.66
293.137 778.935 2100.47
294.126 779.134 2099.93
294.544 779.387 2099.67
294.838 779.493 2099.57
291.996 778.309 2102.03
292.088 778.386 2101.8
295.129 779.427 2099.48
295.076 779.322 2099.28
294.81 779.219 2099.22
294.631 778.94 2098.94
294.986 779.455 2099.63
294.48 779.038 2098.91
294.522 778.993 2098.82
294.375 778.989 2098.74
291.891 778.065 2103.16
291.88 778.11 2102.88
291.867 778.166 2102.63
291.89 778.164 2102.41
291.882 778.149 2102.5
291.931 778.198 2102.29
291.945 778.256 2102.23
292.02 778.254 2102.09
291.9 778.06 2102.98
292.048 778.065 2102.07
292.168 778.101 2101.86
291.908 778.087 2102.39
291.969 778.122 2102.25
291.883 778.076 2102.53
291.871 778.077 2102.65
292.305 778.141 2101.65
291.885 778.078 2102.8
292.437 778.179 2101.45
293.582 778.569 2100.4
292.542 778.304 2101.28
294.634 778.809 2099.47
294.745 778.864 2099.39
294.601 778.962 2099.55
294.686 778.913 2099.45
294.467 778.974 2099.68
295.219 778.953 2098.81
294.858 778.976 2099.33
295.267 779.047 2098.9
295.174 779.012 2099.07
295.169 779.085 2099.12
295.028 779.04 2099.22
295.359 778.724 2098.49
295.413 778.853 2098.49
294.877 778.42 2098.51
295.25 778.749 2098.51
295.438 778.818 2098.51
295.681 779.048 2098.5
295.683 779.205 2098.5
295.647 779.288 2098.58
295.515 779.229 2098.58
294.807 778.478 2098.5
295.335 779.091 2098.76
295.454 779.227 2098.69
294.703 778.687 2098.52
294.881 778.763 2098.53
294.925 778.683 2098.53
294.719 778.877 2098.6
294.576 778.907 2098.68
294.876 778.897 2098.57
280.451 779.813 2092.46
280.374 780.09 2092.57
280.692 780.176 2093.01
280.294 780.28 2092.66
280.166 779.721 2092.09
280.255 779.873 2092.25
280.034 779.547 2091.91
279.632 778.799 2091.47
279.844 779.56 2091.7
275.897 784.512 2084.92
275.539 784.043 2085.45
275.476 783.891 2085.57
275.613 784.139 2085.26
275.718 784.364 2085.19
275.876 784.545 2085.05
275.463 783.741 2085.82
275.523 783.978 2085.78
275.697 784.009 2086.61
275.717 784.168 2086.5
277.044 785.61 2084.45
276.91 785.691 2084.71
276.03 784.705 2084.87
276.763 785.706 2084.95
275.981 784.721 2087.6
276.118 785.337 2088.33
278.627 778.568 2090.21
278.012 778.884 2088.78
277.809 780.769 2087.69
277.977 780.509 2087.9
277.538 779.693 2087.41
279.48 778.933 2091.29
278.884 778.681 2090.58
279.333 779.051 2091.08
278.609 781.465 2088.89
278.654 781.239 2088.89
278.355 781.753 2088.68
277.124 782.107 2087.55
276.763 783.345 2088.46
277.218 782.618 2088.13
276.893 783.634 2089.07
278.106 782.056 2088.58
277.108 783.853 2090.37
276.828 783.921 2089.38
277.436 784.067 2091.69
277.28 784.844 2091.49
277.532 783.724 2091.65
276.832 785.796 2090.79
276.445 786.485 2090.15
276.839 785.876 2090.86
276.331 786.708 2089.8
263.391 790.991 2108.12
263.256 791.171 2106.33
263.766 790.358 2110.9
263.713 790.369 2111.12
264.455 789.282 2112.8
265.352 788.275 2114.09
265.943 787.678 2114.36
266.201 787.445 2114.37
263.681 790.938 2105.07
263.481 790.982 2105.59
246.111 799.622 2097.6
246.181 799.53 2097.48
246.141 798.755 2097.85
246.259 799.379 2096.98
246.199 799.371 2097.45
246.161 798.137 2097.44
246.251 798.093 2096.65
246.296 798.141 2096.46
246.533 798.127 2095.86
246.767 797.939 2095.38
246.905 797.831 2094.72
247.039 797.695 2094.04
246.791 798.041 2095.26
247.155 797.349 2093.81
247.121 797.53 2093.8
247.288 797.433 2093.4
247.545 797.356 2092.88
248.487 796.809 2091.43
249.354 796.048 2090.09
249.82 795.302 2089.44
250.568 794.08 2089.64
250.939 793.701 2089.93
251.223 793.457 2090.3
250.184 794.666 2089.37
250.483 794.272 2089.42
249.949 795.062 2089.48
250.083 795.029 2089.24
252.03 792.78 2091
253.331 791.059 2095.33
254.413 791.197 2093.5
253.542 790.981 2095.21
254.34 791.351 2093.03
253.466 791.999 2091.7
251.84 792.996 2090.5
252.34 792.661 2090.67
253.045 791.796 2094.92
252.893 791.961 2095.02
253.163 791.118 2095.43
252.951 791.223 2095.56
252.785 791.345 2095.66
249.467 793.04 2104.9
249.408 793.077 2104.58
249.529 793.561 2104.65
249.637 793.775 2104.46
249.855 794.034 2103.75
250.342 794.101 2101.86
250.417 794.19 2101.61
249.241 792.564 2104.49
249.167 792.415 2104.21
249.205 792.312 2104.08
249.201 792.326 2103.98
249.22 792.257 2103.9
249.206 792.283 2103.88
251.229 794.035 2099.19
251.571 793.849 2098.43
251.741 793.38 2097.76
251.943 793.049 2097.08
252.235 792.658 2096.47
252.545 792.221 2095.8
252.647 792.251 2095.44
252.765 792.019 2095.24
249.215 792.287 2103.7
249.695 792.189 2103.06
249.327 792.232 2103.5
249.36 792.205 2103.54
249.616 792.235 2102.89
249.642 792.212 2103
249.279 792.265 2103.54
249.266 792.256 2103.59
250.344 791.964 2102
250.191 792.178 2102.13
250.394 791.67 2101.33
250.49 791.396 2100.59
252.277 790.943 2098.26
250.693 791.275 2100.2
252.095 790.825 2098.46
250.476 791.343 2100.4
256.262 790.16 2095.32
264.939 789.218 2096.73
264.642 789.153 2095.94
259.861 789.425 2094.7
264.324 789.17 2095.4
263.96 789.301 2094.66
249.979 792.348 2102.32
250.087 792.215 2102.1
264.544 790.683 2103.83
266.38 789.266 2103.45
266.808 789.746 2102.24
265.687 789.529 2103.74
265.116 788.034 2107.66
265.065 789.012 2105.42
264.874 787.974 2108.11
265.206 789.699 2104.15
267.185 789.697 2101.98
268.576 789.822 2100.29
268.633 789.738 2100.77
268.698 789.589 2101.33
270.585 789.586 2099
270.575 789.564 2099.72
270.992 789.516 2099.32
270.046 789.609 2098.52
268.136 789.163 2095.36
269.33 789.084 2095.85
270.016 789.289 2097.18
266.593 787.157 2113.82
266.366 787.253 2113.83
266.301 787.359 2114.13
266.215 786.996 2112.49
266.516 786.935 2112.51
266.897 786.877 2112.45
266.197 786.805 2111.03
266.892 786.77 2110.8
269.379 786.897 2110.2
272.622 786.978 2109.71
271.763 787.055 2109.55
273.235 786.955 2110.88
272.994 786.918 2109.64
274.45 786.675 2111.47
273.572 786.889 2110.74
273.836 786.772 2110.67
274.012 786.705 2110.54
274.19 786.604 2110.44
274.683 786.473 2112.11
274.652 786.538 2111.76
274.607 786.601 2111.91
274.565 786.57 2111.36
274.86 786.239 2110.99
274.736 786.4 2111.43
274.727 786.098 2110.23
274.504 786.051 2109.38
274.573 785.916 2109.25
274.321 786.183 2108.92
274.402 786.118 2108.45
274.214 786.692 2107.31
274.077 787.116 2106.24
274.109 787.032 2106.25
274.125 786.995 2106.09
274.089 787.068 2105.75
274.1 787.051 2105.54
273.979 786.461 2104.76
273.745 786.998 2104.54
273.819 786.838 2104.56
273.24 787.22 2103.44
273.662 787.16 2104.54
273.127 787.268 2102.96
272.98 787.452 2102.47
272.922 787.522 2102.05
272.825 787.739 2101.59
272.738 788.282 2100.45
272.816 788.425 2099.74
272.861 788.351 2099.54
272.797 788.507 2099.47
272.996 787.81 2099.74
272.862 788.362 2099.26
272.927 787.881 2098.73
272.829 787.88 2097.61
272.972 787.617 2096.92
273.354 786.874 2096.45
273.271 787.295 2095.58
273.065 787.453 2096.07
273.386 787.23 2095.27
273.55 787.129 2094.91
274.694 785.633 2095.44
275.578 785.224 2094.95
276.36 784.718 2094.79
274.117 786.348 2095.15
273.777 787.016 2094.61
279.239 781.264 2092.14
279.671 780.782 2092.35
279.495 780.963 2092.15
277.352 784.582 2093.14
277.828 783.364 2093.87
277.942 783.185 2093.08
278.207 782.687 2092.36
277.658 783.123 2090.64
277.86 783.058 2091.35
278.123 782.661 2090.25
278.507 782.279 2089.82
278.696 782.045 2089.79
278.866 781.735 2090.77
279.253 781.212 2091.78
279.86 780.519 2092.38
280.053 780.473 2092.63
277.19 784.886 2093.08
276.894 785.819 2092.17
276.348 786.605 2091.68
276.334 785.337 2093.85
276.521 784.737 2094.53
276.649 785.38 2093.36
276.231 786.636 2091.86
295.003 779.465 2099.56
292.501 778.641 2101.23
293.198 778.851 2100.51
292.258 778.488 2101.54
294.145 779.09 2099.91
294.612 779.389 2099.61
294.887 779.504 2099.49
294.987 779.459 2099.51
292.117 778.296 2101.86
292.266 778.403 2101.6
295.366 779.468 2099.36
295.176 779.45 2099.5
295.357 779.391 2099.19
295.145 779.239 2099.03
294.917 779.17 2099.09
294.716 779.076 2098.98
294.686 778.992 2098.83
291.87 778.146 2102.67
292.045 778.123 2102.09
292.022 778.186 2102.13
292.096 778.206 2101.98
292.139 778.153 2101.91
292.357 778.214 2101.58
292.276 778.221 2101.71
293.528 778.625 2100.43
294.301 778.966 2099.82
292.617 778.422 2101.18
292.421 778.32 2101.49
294.731 778.998 2099.45
294.674 779.043 2099.52
294.585 779.085 2099.6
294.853 779.066 2099.38
295.375 779.184 2098.85
295.28 779.133 2099.02
295.259 779.203 2099.11
295.135 779.149 2099.18
295 779.117 2099.28
295.728 779.167 2098.5
295.078 778.704 2098.52
295.564 779.124 2098.52
295.771 779.209 2098.52
295.911 779.352 2098.54
295.79 779.318 2098.54
295.699 779.335 2098.65
295.55 779.317 2098.68
295.584 779.332 2098.76
295.465 779.309 2098.82
295.129 779.048 2098.67
295.254 779.06 2098.57
295.367 779.055 2098.53
294.822 778.985 2098.75
294.983 779.021 2098.73
280.189 780.085 2092.34
280.07 780.302 2092.38
279.907 779.743 2091.83
280.032 779.902 2092.01
280.077 780.063 2092.12
279.736 779.624 2091.53
279.763 779.824 2091.64
276.621 785.69 2085.19
276.478 785.608 2085.4
275.65 784.326 2085.41
275.605 784.236 2085.63
276.198 785.285 2085.78
276.348 785.496 2085.61
275.764 784.356 2086.37
275.869 784.631 2086.23
275.988 784.806 2087.42
278.684 778.739 2090.24
278.146 779.04 2088.97
278.696 781.075 2088.91
278.239 780.377 2088.3
278.761 780.819 2089.01
278.812 781.03 2089.08
279.12 779.145 2090.75
279.589 779.641 2091.32
276.268 786.896 2089.45
278.803 781.454 2089.16
278.789 781.303 2089.09
278.661 781.615 2089
278.834 781.197 2089.13
278.408 781.883 2088.84
278.656 781.713 2089.05
277.572 782.78 2088.79
278.118 782.212 2088.74
277.031 783.615 2089.32
277.736 782.848 2089.14
278.402 782.047 2088.98
277.254 783.628 2090.48
277.689 783.438 2091.71
277.168 783.587 2089.89
277.588 783.836 2091.98
277.369 784.698 2091.79
277.632 783.642 2091.94
276.369 786.692 2090.26
276.837 785.998 2090.94
276.276 786.912 2090.14
276.209 787.142 2089.87
263.501 790.828 2108.02
263.496 790.799 2106.35
263.473 790.91 2109.68
263.847 790.277 2110.75
264.447 789.301 2112.6
264.41 789.351 2112.33
264.919 788.661 2113.43
265.57 788.062 2114.1
265.908 787.715 2114.14
266.097 787.511 2114.21
264.557 789.895 2104.96
264.147 789.934 2105.71
264.021 789.782 2106.39
246.245 799.596 2096.85
246.223 798.709 2097.08
246.334 799.359 2096.42
246.365 799.517 2096.24
246.272 798.251 2096.58
246.318 798.259 2096.34
246.559 798.358 2095.73
246.981 798.435 2094.36
247.129 798.609 2093.64
247.148 797.765 2093.63
246.836 798.671 2095.03
247.256 797.714 2093.34
247.488 797.589 2092.91
248.305 796.992 2091.64
248.992 796.665 2090.66
249.349 796.193 2090
249.676 795.719 2089.43
249.806 795.493 2089.31
250.646 794.106 2089.37
250.915 793.801 2089.64
251.498 793.325 2090.03
250.32 794.786 2089.03
250.486 794.461 2089.11
250.092 795.416 2088.88
250.289 795.162 2088.78
252.44 790.996 2096.54
252.446 790.91 2096.69
252.594 790.841 2096.6
253.847 790.877 2095.06
252.827 790.815 2096.38
254.181 790.843 2094.73
254.551 791.396 2092.49
252.591 792.638 2090.44
252.598 791.463 2095.86
252.454 791.477 2096.09
252.271 791.085 2096.64
252.252 791.035 2096.78
252.19 791.177 2096.7
252.197 791.131 2096.69
249.202 792.543 2104.19
249.415 793.136 2104.29
249.225 792.591 2104.01
249.648 793.726 2104.33
249.907 794.007 2103.47
250.335 794.008 2101.87
250.916 794.035 2099.88
249.195 792.354 2103.99
249.177 792.393 2103.95
249.197 792.302 2103.88
249.185 792.326 2103.73
249.169 792.355 2103.8
249.196 792.309 2103.7
251.3 793.874 2099.09
251.576 793.668 2098.45
251.688 793.169 2097.94
251.857 792.836 2097.33
252.029 792.693 2096.91
252.088 791.857 2096.76
251.947 791.707 2097.03
252.2 791.634 2096.53
249.333 792.293 2103.35
249.271 792.314 2103.5
249.885 792.306 2102.23
249.963 792.287 2102.13
249.527 792.274 2102.9
249.537 792.259 2102.92
249.783 792.246 2102.27
249.824 792.271 2102.1
250.248 791.978 2101.93
250.286 791.713 2101.33
250.365 791.438 2100.64
253.988 790.606 2095.79
250.505 791.299 2100.23
250.88 791.216 2099.97
251.318 791.207 2099.34
252.138 790.948 2097.94
252.886 790.768 2096.48
250.394 791.343 2100.33
250.367 791.381 2100.47
257.648 789.974 2094.35
267.152 789.231 2094.59
259.147 789.706 2094.05
262.788 789.476 2094.09
267.857 789.178 2093.54
268.047 789.227 2092.95
250.128 792.042 2101.92
266.837 789.173 2103.23
266.145 788.685 2104.77
265.337 787.963 2107.61
267.192 789.051 2103.23
265.012 787.197 2109.65
264.822 787.235 2109.78
264.682 789.081 2105.91
264.691 788.068 2108.2
264.712 787.311 2109.79
268.612 789.018 2102.66
270.622 789.461 2100.3
270.847 788.895 2101.81
270.764 789.496 2098.39
271.032 789.503 2098.87
271.279 789.4 2099.69
271.5 789.371 2098.86
271.596 789.339 2099.31
269.515 788.912 2094.01
270.015 788.861 2094.9
270.544 788.849 2095.78
270.964 789.133 2097.24
265.959 787.068 2112.49
266.117 787.316 2113.64
265.769 787.142 2112.52
266.118 787.412 2113.94
265.353 786.95 2111.11
265.529 786.891 2111.04
265.859 786.846 2111.11
265.778 786.829 2110.73
266.218 786.8 2110.63
266.843 786.805 2110.34
269.022 786.978 2109.6
272.329 787.109 2109.05
272.641 787.057 2109.05
271.635 787.534 2107.83
271.355 787.168 2108.96
273.324 786.843 2109.76
273.155 786.905 2109.38
274.36 786.481 2110.34
273.582 786.768 2109.65
273.756 786.682 2109.51
274 786.541 2109.35
274.678 786.449 2111.19
274.533 786.335 2110.29
274.674 786.202 2110.29
274.355 786.231 2109.3
274.104 786.416 2108.91
274.169 786.371 2108.47
274.111 786.782 2107.35
274.03 787.238 2106.3
274.038 787.181 2105.8
274.003 787.274 2105.87
273.984 787.236 2105.45
273.573 787.301 2104.52
273.062 787.411 2103.36
273.03 787.405 2102.92
272.858 787.625 2102.44
272.822 787.687 2102.07
272.799 787.834 2101.52
272.626 788.373 2100.58
272.749 788.568 2099.67
272.821 788.507 2099.19
272.766 788.593 2099.11
272.709 788.655 2099.27
272.83 788.432 2098.98
272.79 788.188 2098.44
272.699 788.334 2098.23
272.725 788.009 2097.39
272.941 787.718 2096.72
272.978 787.616 2095.87
273.179 787.505 2095.39
273.316 787.377 2094.94
273.444 787.326 2094.59
274.479 786.197 2094.85
275.477 785.872 2094.12
274.008 786.915 2094.42
273.755 787.204 2094.24
279.692 780.683 2092.15
279.502 780.913 2091.93
277.383 784.682 2092.75
277.083 785.653 2092.01
276.989 785.742 2092.08
277.723 783.603 2093.31
277.45 784.567 2092.56
277.71 783.759 2092.68
277.812 783.362 2092.63
277.923 783.123 2092.23
277.859 782.875 2089.69
278.515 782.227 2089.6
278.711 781.996 2089.58
278.978 781.55 2090.56
278.799 781.856 2089.76
279.335 781.014 2091.41
279.847 780.425 2092.16
276.466 786.544 2091.54
276.052 787.17 2091.05
275.89 787.305 2091.16
275.026 786.785 2093.19
276.084 786.628 2092.08
276.616 785.95 2092.52
275.729 787.381 2091.33
295.186 779.44 2099.41
292.549 778.562 2101.22
293.265 778.769 2100.53
294.147 779.043 2099.91
294.614 779.336 2099.6
294.924 779.45 2099.42
294.994 779.437 2099.45
292.281 778.319 2101.66
292.201 778.245 2101.81
292.496 778.454 2101.33
295.545 779.495 2099.25
295.365 779.466 2099.35
295.369 779.337 2099.07
295.567 779.453 2099.17
295.063 779.124 2098.86
294.886 779.086 2098.92
295.277 779.239 2098.95
293.419 778.679 2100.51
294.404 779.061 2099.73
294.756 779.11 2099.49
294.724 779.187 2099.52
294.92 779.19 2099.38
295.367 779.254 2098.99
295.345 779.319 2099.1
295.224 779.267 2099.17
295.086 779.229 2099.27
295.664 779.272 2098.7
295.838 779.351 2098.71
295.785 779.349 2098.68
295.643 779.34 2098.83
295.52 779.363 2098.87
295.571 779.369 2098.93
295.447 779.37 2098.97
295.346 779.171 2098.82
295.2 779.142 2098.83
295.497 779.213 2098.76
280.024 780.206 2092.17
279.826 779.941 2091.78
279.897 780.108 2091.92
279.914 780.261 2092.02
279.654 779.842 2091.45
279.587 780.008 2091.37
279.684 780.033 2091.57
276.045 785.045 2085.93
275.947 784.839 2086.08
276.051 784.981 2087.17
276.156 785.254 2086.98
278.233 779.084 2089.12
278.321 780.104 2088.55
278.959 779.212 2090.44
278.83 780.643 2089.15
278.893 780.84 2089.24
278.921 781.1 2089.26
279.461 779.739 2091.11
279.3 779.828 2090.78
279.527 779.878 2091.24
276.187 787.385 2089.52
278.882 781.321 2089.25
278.856 781.458 2089.29
278.737 781.659 2089.19
278.853 781.274 2089.18
278.933 781.215 2089.32
278.609 781.854 2089.08
278.388 782.223 2089.18
277.735 782.93 2089.38
278.38 782.303 2089.39
278.635 781.953 2089.24
278.541 782.055 2089.18
277.74 783.54 2092.24
277.432 784.614 2092.05
276.817 786.086 2091.03
276.339 786.803 2090.46
276.233 787.028 2090.32
276.183 787.239 2090.14
276.124 787.482 2089.88
263.481 790.738 2106.77
263.633 790.62 2107.93
264.061 789.267 2107.52
263.69 790.352 2106.69
263.923 790.186 2110.55
264.4 789.379 2112.08
264.916 788.651 2113.17
265.374 788.225 2113.79
265.723 787.814 2113.86
265.999 787.541 2113.95
264.431 789.049 2106.49
264.458 788.058 2108.86
264.412 787.865 2109.53
246.292 798.772 2096.41
246.363 799.298 2096.1
246.628 799.462 2095.45
246.414 798.806 2096.07
246.647 798.83 2095.51
246.974 799.408 2094.23
247.22 798.678 2093.33
247.108 799.563 2093.5
246.628 799.209 2095.48
247.314 798.717 2093.08
247.52 797.841 2092.77
248.276 797.165 2091.63
248.972 796.899 2090.56
249.333 796.342 2089.97
249.714 795.916 2089.27
249.912 795.724 2089.01
250.753 794.222 2089.14
251.053 793.813 2089.45
251.64 793.334 2089.83
250.507 794.997 2088.67
250.572 794.653 2088.81
250.582 796.264 2087.89
250.789 796.147 2087.67
251.092 796.615 2087.03
252.3 790.962 2096.83
251.872 791.124 2097.68
252.395 790.859 2096.87
251.935 791.063 2097.71
252.478 790.819 2096.88
252.604 790.796 2096.83
254.707 791.596 2091.8
252.421 792.971 2089.88
252.097 791.247 2096.88
251.821 791.461 2097.37
251.851 791.211 2097.49
251.78 791.189 2097.73
251.707 791.333 2097.72
249.186 792.483 2103.89
249.524 793.299 2104.02
249.326 792.786 2103.78
249.27 792.663 2103.77
249.833 793.912 2103.71
250.32 793.898 2101.84
250.891 793.927 2099.94
249.177 792.436 2103.7
249.224 792.345 2103.57
249.211 792.385 2103.55
249.169 792.39 2103.64
251.31 793.69 2099.02
251.613 793.083 2098.16
251.621 792.477 2097.84
251.797 792.401 2097.39
252.011 792.18 2096.94
251.384 791.993 2098.21
250.788 791.836 2099.13
250.787 791.738 2099.14
251.363 791.666 2098.23
249.494 792.328 2102.88
249.362 792.335 2103.12
249.594 792.318 2102.75
249.301 792.365 2103.32
249.952 792.181 2101.98
249.724 792.248 2102.3
249.735 792.237 2102.1
249.769 792.227 2101.95
249.93 792.127 2101.87
250.195 791.757 2101.32
250.244 791.475 2100.66
250.545 791.243 2100.09
250.435 791.337 2100.19
251.186 791.201 2099.37
252.087 790.961 2097.8
250.315 791.364 2100.31
250.276 791.39 2100.45
257.61 790.509 2092.96
262.418 789.766 2093.33
267.186 789.46 2092.55
270.917 788.686 2093.43
271.398 788.688 2092.75
250.104 792.015 2101.8
250.134 791.792 2101.31
266.218 788.54 2105.19
265.491 787.691 2108.21
265.219 787.097 2109.73
264.923 787.13 2110.08
264.802 787.184 2110.05
264.577 787.954 2108.74
264.638 787.404 2109.74
264.648 787.329 2109.96
268.579 788.558 2103.72
266.492 788.388 2105.55
270.617 788.473 2103.09
271.254 789.299 2100.18
271.402 788.834 2101.45
271.277 788.298 2103.22
271.543 788.308 2102.88
271.17 789.418 2098.46
271.71 789.27 2099.61
271.707 789.268 2098.44
271.894 789.224 2098.87
271.963 789.201 2099.23
270.924 788.631 2094.27
270.799 788.706 2095.1
271.168 788.669 2095.76
271.405 789.037 2097.29
265.184 787.009 2111.11
265.989 787.415 2113.63
265.602 787.218 2112.53
265.109 787.057 2111.22
265.171 786.974 2110.81
265.42 786.916 2110.64
265.825 786.841 2110.44
266.159 786.841 2110.2
266.351 786.968 2109.66
269.167 787.477 2108.07
272.294 787.562 2107.6
272.972 787.04 2108.85
272.819 787.487 2107.58
269.795 788.139 2105.73
271.891 787.986 2106.32
273.264 786.967 2108.87
273.422 786.841 2109.27
274.208 786.385 2109.26
273.585 786.829 2109.01
273.811 786.673 2109.14
274.058 786.518 2108.94
274.026 786.527 2108.67
274.088 786.502 2108.41
273.91 786.983 2107.4
273.897 787.373 2106.37
273.973 787.361 2105.99
273.923 787.352 2105.48
273.909 787.434 2105.65
273.503 787.406 2104.54
273.018 787.51 2103.56
272.971 787.499 2103.19
272.875 787.613 2102.83
272.72 787.778 2102.47
272.764 787.836 2101.8
272.488 788.465 2100.71
272.627 788.707 2099.68
272.695 788.663 2099.56
272.641 788.742 2099.34
272.765 788.557 2098.88
272.707 788.652 2098.99
272.635 788.744 2099.09
272.62 788.446 2098.08
272.828 787.881 2096.77
272.898 787.799 2096.09
272.923 787.723 2095.61
273.111 787.568 2095.09
273.101 787.586 2094.7
273.292 787.564 2094.15
273.528 787.339 2094.35
273.664 787.502 2093.62
279.661 780.653 2091.95
279.534 780.779 2091.69
277.101 785.669 2091.9
277.153 785.569 2091.9
276.566 786.467 2091.41
276.642 786.392 2091.27
277.435 784.667 2092.28
277.2 785.448 2091.82
278.596 782.067 2089.38
278.75 781.881 2089.53
279.018 781.419 2090.41
278.832 781.723 2089.65
279.404 780.831 2091.34
279.729 780.481 2091.88
276.161 787.074 2090.94
276.033 787.323 2090.78
275.788 787.551 2090.91
275.599 787.741 2091.05
273.853 787.715 2092.89
274.264 787.84 2092.25
275.312 787.245 2091.99
275.669 787.224 2091.62
275.441 787.624 2091.39
295.118 779.395 2099.39
295.319 779.461 2099.32
293.334 778.702 2100.54
294.214 779.019 2099.87
294.522 779.224 2099.66
294.846 779.364 2099.46
294.985 779.371 2099.38
295.027 779.401 2099.39
295.47 779.47 2099.25
295.562 779.465 2099.17
295.497 779.358 2099.06
295.627 779.439 2099.13
295.429 779.265 2098.94
294.642 779.235 2099.57
294.887 779.278 2099.43
295.035 779.291 2099.34
295.426 779.415 2099.1
295.318 779.377 2099.15
295.215 779.35 2099.23
295.123 779.31 2099.28
295.731 779.345 2098.93
295.703 779.346 2098.88
295.624 779.375 2098.99
295.505 779.402 2099.03
295.557 779.406 2099.06
295.6 779.31 2098.95
279.723 780.168 2091.66
279.747 780.32 2091.74
279.482 780.132 2091.09
279.476 780.3 2091.07
279.572 780.215 2091.35
278.63 779.687 2089.44
279.039 780.248 2089.87
279.102 780.456 2089.97
279.203 780.627 2090.07
279.417 780.09 2090.92
276.147 787.817 2089.49
278.918 781.347 2089.39
278.899 781.327 2089.31
278.793 781.643 2089.33
278.864 781.49 2089.35
278.711 781.766 2089.23
279.163 780.853 2090.14
278.678 781.847 2089.23
278.696 781.924 2089.37
278.742 781.811 2089.39
276.765 786.212 2091.08
276.281 786.945 2090.58
276.171 787.199 2090.46
276.082 787.435 2090.31
276.087 787.596 2090.06
275.872 787.515 2090.11
263.674 790.339 2107.17
263.862 790.273 2109.27
264.045 789.125 2107.98
264.357 787.848 2109.86
263.81 790.049 2107.2
264.387 789.392 2111.83
264.834 788.711 2112.9
265.33 788.229 2113.56
265.61 787.78 2113.56
265.856 787.564 2113.67
264.499 787.517 2109.95
264.565 787.457 2109.85
264.45 787.566 2110.06
264.404 787.636 2110.12
248.283 800.144 2091.15
246.922 799.698 2094.37
247.036 799.776 2093.62
247.191 799.742 2093.25
247.558 798.717 2092.63
247.477 799.754 2092.69
248.281 797.443 2091.55
249.389 796.621 2089.73
249.345 796.523 2089.86
250.383 796.45 2088.12
250.833 794.456 2088.81
251.215 794.096 2088.94
251.446 793.638 2089.39
251.434 796.079 2087.02
251.373 797.014 2086.47
251.647 795.925 2086.95
251.035 797.465 2086.81
251.195 797.687 2086.39
