161.014999 1087.290039 1688.989990
161.431000 1087.800049 1688.900024
161.054993 1087.099976 1689.170044
160.867996 1089.189941 1686.369995
161.113007 1086.930054 1689.329956
165.557007 1092.979980 1685.109985
161.623001 1090.530029 1685.219971
160.617004 1086.869995 1688.949951
160.748993 1087.410034 1688.550049
160.462006 1086.930054 1688.680054
160.326004 1088.699951 1686.390015
160.617004 1086.630005 1689.130005
160.117996 1090.660034 1683.760010
159.503998 1089.979980 1684.079956
160.931000 1086.660034 1689.369995
160.916000 1086.510010 1689.410034
167.315002 1096.140015 1681.530029
162.651993 1092.349976 1683.540039
160.404007 1086.589966 1688.900024
160.367996 1087.800049 1687.430054
160.384995 1087.099976 1688.400024
160.184006 1086.619995 1688.560059
159.468002 1087.449951 1686.569946
159.132996 1089.219971 1684.589966
159.621002 1088.619995 1685.579956
160.600998 1086.400024 1689.189941
160.345001 1086.280029 1688.989990
160.218002 1091.050049 1683.130005
162.835007 1092.939941 1682.660034
159.371994 1090.209961 1683.479980
159.048004 1089.599976 1684.000000
160.830002 1086.329956 1689.390015
160.546005 1086.199951 1689.189941
167.686005 1096.959961 1680.239990
160.231995 1086.359985 1688.829956
159.309998 1088.239990 1685.569946
160.072998 1087.420044 1687.410034
160.029999 1086.349976 1688.530029
159.294998 1086.520020 1686.959961
159.317001 1087.109985 1686.589966
158.703995 1088.780029 1684.390015
158.904007 1089.010010 1684.489990
160.266006 1086.050049 1689.000000
160.110001 1086.140015 1688.790039
162.304001 1092.859985 1681.959961
159.944000 1091.030029 1682.569946
159.246994 1090.300049 1683.020020
158.876999 1089.420044 1683.920044
160.753998 1086.160034 1689.359985
160.574997 1086.119995 1689.229980
160.399002 1085.930054 1689.150024
160.240997 1085.910034 1689.020020
166.996994 1096.810059 1679.310059
159.166000 1086.089966 1686.969971
159.919998 1086.089966 1688.540039
158.475998 1087.689941 1684.750000
158.658005 1089.119995 1683.849976
158.485001 1088.510010 1684.099976
160.097000 1086.020020 1688.819946
159.916000 1085.959961 1688.619995
162.962997 1093.599976 1680.910034
160.341003 1091.609985 1681.459961
159.488007 1090.829956 1681.900024
159.182007 1090.479980 1682.310059
158.880997 1089.719971 1683.290039
160.516006 1085.949951 1689.239990
175.360001 1106.030029 1672.390015
174.529999 1105.369995 1671.959961
178.951004 1110.770020 1670.089966
177.315994 1109.479980 1669.579956
177.451004 1109.589966 1668.979980
177.630005 1109.619995 1668.209961
160.231995 1085.810059 1689.050049
160.143997 1085.849976 1688.930054
160.076004 1085.910034 1688.829956
167.270996 1097.260010 1678.170044
159.498993 1085.839966 1687.650024
158.154999 1085.359985 1685.280029
158.425003 1085.050049 1685.930054
158.800995 1084.869995 1686.589966
159.565994 1085.540039 1687.859985
158.067001 1086.030029 1684.689941
158.287003 1087.949951 1683.989990
158.735001 1089.579956 1683.040039
158.507004 1088.939941 1683.579956
159.906006 1085.829956 1688.640015
159.692993 1085.459961 1688.040039
162.772995 1093.609985 1680.300049
160.184998 1091.550049 1680.900024
159.320999 1090.709961 1681.359985
158.886002 1090.170044 1681.699951
160.537994 1085.859985 1689.229980
173.843994 1104.699951 1671.560059
176.091003 1107.449951 1671.920044
175.317993 1107.000000 1671.380005
177.248993 1109.300049 1670.449951
176.115997 1108.260010 1670.150024
175.485992 1107.609985 1669.800049
175.412003 1107.479980 1669.420044
175.386993 1107.280029 1668.839966
160.244995 1085.709961 1689.040039
160.050003 1085.680054 1688.810059
159.953003 1085.729980 1688.699951
170.876007 1100.459961 1675.300049
168.123993 1098.040039 1676.849976
163.848999 1094.530029 1679.390015
158.203995 1084.069946 1685.800049
157.334000 1081.890015 1685.369995
156.904999 1081.520020 1684.670044
159.259003 1084.780029 1687.219971
158.968002 1084.310059 1686.959961
157.949005 1086.500000 1683.810059
156.951996 1082.209961 1684.229980
158.395004 1088.670044 1683.400024
158.679993 1089.660034 1682.329956
159.731003 1085.310059 1688.099976
159.477997 1084.670044 1687.510010
161.828003 1092.900024 1679.800049
159.815002 1091.180054 1680.599976
158.990997 1090.329956 1680.969971
158.714996 1090.000000 1681.079956
160.427002 1085.770020 1689.160034
160.240997 1085.500000 1688.880005
178.472000 1109.489990 1672.270020
174.537003 1106.290039 1670.979980
173.332001 1104.199951 1671.160034
172.841995 1102.800049 1672.000000
172.231003 1101.849976 1673.630005
176.251007 1108.199951 1670.920044
175.281006 1107.290039 1670.650024
174.490005 1106.430054 1670.290039
173.947006 1105.729980 1669.750000
173.835007 1105.420044 1669.199951
173.973007 1104.780029 1667.579956
160.106995 1085.560059 1688.829956
159.834000 1085.109985 1688.300049
159.794006 1085.180054 1688.239990
159.768997 1085.260010 1688.170044
171.481003 1101.109985 1673.459961
170.212006 1099.859985 1674.770020
166.772995 1096.869995 1677.130005
156.455994 1080.449951 1684.209961
159.244003 1084.349976 1687.290039
157.699005 1085.750000 1683.369995
156.759003 1081.819946 1683.839966
158.557999 1089.560059 1681.459961
158.373001 1088.849976 1681.859985
159.589996 1084.599976 1687.699951
159.414993 1084.280029 1687.530029
163.061005 1093.790039 1678.869995
160.173004 1091.479980 1680.099976
159.233002 1090.550049 1680.410034
158.725998 1089.959961 1680.699951
158.466995 1089.410034 1680.770020
159.897995 1085.050049 1688.369995
159.968002 1085.000000 1688.430054
174.037994 1105.719971 1670.760010
172.957001 1103.739990 1670.880005
172.535995 1102.550049 1671.579956
171.992004 1101.689941 1672.150024
172.311996 1102.199951 1671.599976
173.514999 1105.069946 1670.380005
173.380005 1104.920044 1670.060059
172.923004 1104.170044 1669.910034
173.139008 1104.479980 1669.579956
173.235001 1103.849976 1667.959961
172.908997 1104.010010 1669.260010
169.798996 1099.410034 1674.380005
166.942993 1096.900024 1676.329956
156.350998 1080.359985 1683.569946
159.067993 1083.939941 1687.180054
158.210007 1088.150024 1681.630005
157.309998 1084.089966 1683.339966
156.757996 1081.920044 1683.459961
163.220001 1093.819946 1678.310059
161.884995 1092.699951 1678.729980
159.600998 1090.859985 1680.079956
158.925995 1090.150024 1680.369995
158.570999 1089.589966 1680.479980
158.322998 1088.959961 1680.589966
160.276001 1085.359985 1688.800049
172.619995 1103.180054 1670.719971
172.195007 1102.040039 1671.369995
171.981003 1101.650024 1671.739990
172.604996 1103.540039 1669.670044
172.382996 1102.760010 1670.540039
172.539993 1103.310059 1669.380005
170.876999 1100.329956 1673.000000
169.126999 1098.689941 1674.520020
166.582993 1096.410034 1676.050049
156.326004 1080.430054 1683.099976
158.065002 1087.530029 1681.660034
156.744003 1081.849976 1683.069946
162.643997 1093.150024 1678.020020
159.705002 1090.880005 1679.810059
158.981003 1090.099976 1680.170044
158.375000 1089.109985 1680.390015
158.643005 1089.709961 1680.260010
158.173004 1088.050049 1681.089966
158.281006 1088.729980 1680.439941
172.016998 1101.709961 1671.189941
172.210999 1102.390015 1670.380005
172.714005 1102.739990 1667.869995
172.378006 1102.859985 1669.300049
172.126007 1102.170044 1670.219971
171.143997 1100.469971 1672.219971
169.804993 1099.160034 1673.569946
167.261002 1096.829956 1675.319946
157.419998 1084.599976 1682.869995
156.794006 1081.849976 1682.770020
156.283005 1080.250000 1682.699951
162.934006 1093.219971 1677.630005
159.416000 1090.430054 1679.729980
161.501999 1092.060059 1678.290039
159.005005 1090.010010 1679.969971
158.376007 1089.089966 1680.219971
158.281006 1088.709961 1680.310059
158.697006 1089.660034 1680.000000
158.141006 1087.859985 1680.989990
157.641006 1085.670044 1682.390015
172.087997 1101.979980 1670.020020
169.804993 1098.979980 1673.290039
167.013000 1096.410034 1675.180054
157.292007 1083.729980 1682.819946
156.817001 1081.709961 1682.430054
160.352005 1091.000000 1678.910034
159.046997 1089.890015 1679.719971
164.255005 1093.930054 1676.630005
158.384995 1089.079956 1680.060059
158.287003 1088.729980 1680.180054
158.112000 1087.670044 1680.969971
158.488998 1089.229980 1679.849976
157.692993 1085.920044 1682.180054
157.417007 1083.930054 1682.469971
167.541000 1096.650024 1674.640015
156.914001 1081.719971 1682.150024
160.048996 1090.589966 1678.989990
163.542007 1093.130005 1676.890015
158.973007 1089.660034 1679.630005
158.309998 1088.829956 1680.010010
158.255005 1088.609985 1680.130005
158.115005 1087.510010 1680.920044
157.699997 1085.510010 1682.130005
158.546997 1089.109985 1679.699951
158.309006 1088.790039 1679.900024
157.541000 1083.829956 1682.189941
167.371002 1096.189941 1674.579956
157.087997 1081.770020 1681.829956
159.376007 1089.849976 1679.329956
162.524002 1092.089966 1677.420044
165.373993 1094.150024 1675.859985
158.233002 1088.530029 1680.060059
158.199005 1087.439941 1680.780029
157.882004 1085.930054 1681.900024
157.822006 1084.609985 1681.989990
158.682007 1089.050049 1679.680054
158.328003 1088.680054 1679.849976
158.399994 1087.380005 1680.500000
157.634003 1083.709961 1682.020020
166.345001 1095.069946 1675.170044
157.388000 1081.949951 1681.459961
161.304001 1090.780029 1678.150024
159.503006 1089.579956 1679.260010
164.889008 1093.479980 1676.079956
158.304001 1087.430054 1680.609985
158.082993 1085.979980 1681.680054
158.037003 1085.060059 1681.810059
158.330002 1084.699951 1681.420044
157.960007 1083.989990 1681.640015
158.753006 1088.920044 1679.729980
158.462006 1088.650024 1679.849976
158.501999 1087.380005 1680.420044
158.662003 1085.609985 1681.140015
158.391998 1085.390015 1681.420044
162.783005 1091.410034 1677.380005
160.121002 1089.520020 1679.000000
158.830002 1085.030029 1680.910034
158.873001 1088.770020 1679.750000
158.671997 1087.410034 1680.329956
158.800003 1085.719971 1680.989990
159.033997 1085.239990 1680.739990
163.447998 1090.280029 1677.359985
160.606003 1088.449951 1679.189941
159.348007 1087.939941 1679.939941
158.839005 1087.689941 1680.180054
159.251999 1085.540039 1680.569946
159.496994 1086.270020 1680.420044
161.078995 1087.089966 1679.199951
