136.426 864.671 1649.37
136.345 864.326 1649.26
136.313 864.1 1649.09
136.43 863.952 1649.17
136.746 863.407 1649.18
136.469 863.63 1649.02
136.563 863.48 1649
136.427 863.778 1649.08
136.824 863.3 1649.17
137.04 863.139 1649.19
132.79 871.504 1658.05
133.218 872.243 1656.45
133.296 872.467 1655.83
133.182 873.063 1653.73
131.952 871.109 1659.85
131.851 871.398 1659.51
132.353 874.724 1650.56
132.426 874.834 1650.08
132.563 874.695 1649.72
132.524 874.736 1649.9
133.789 872.986 1650.2
133.171 873.891 1649.95
132.724 874.446 1649.68
134.334 869.087 1659.77
134.129 869.344 1658.97
134.491 868.884 1660.23
132.773 870.214 1659.91
133.397 873.489 1649.82
141.751 857.176 1660.88
142.506 857.477 1661.39
141.989 856.933 1660.82
142.221 856.633 1660.65
142.417 856.137 1660.22
142.299 856.091 1660.1
143.234 855.288 1659.47
143.807 854.491 1658.64
143.651 854.439 1658.53
143.137 854.741 1658.4
143.48 854.368 1658.36
143.302 854.474 1658.25
137.244 862.981 1649.19
137.397 862.787 1649.01
137.91 862.384 1648.58
138.307 862.061 1648.19
138.602 861.674 1647.81
138.706 861.556 1647.81
138.511 861.794 1647.88
138.985 861.004 1647.93
138.761 861.412 1647.76
139.256 860.579 1648.28
139.346 860.461 1648.41
139.425 860.353 1648.44
139.499 860.294 1648.52
138.424 861.915 1647.98
140.259 859.863 1648.58
140.433 859.907 1648.95
140.379 859.868 1648.68
139.666 860.112 1648.55
139.824 860.029 1648.53
139.946 859.916 1648.31
140.203 859.821 1648.37
141.795 859.586 1648.53
143.373 859.28 1647.95
143.366 859.259 1647.79
143.208 859.288 1647.8
142.986 859.319 1647.83
139.534 860.153 1648.35
139.592 860.121 1648.41
143.707 859.097 1647.63
144.001 858.994 1647.58
143.957 858.981 1647.44
143.542 859.181 1647.68
141.223 858.236 1653.86
141.682 858.642 1652.25
140.857 857.452 1655.7
140.881 857.114 1655.81
142.214 858.743 1650.91
143.085 858.818 1649.28
143.72 858.805 1648.31
140.931 856.89 1655.91
141.002 856.717 1656.03
141.106 856.574 1656.1
141.196 856.388 1656.19
141.319 856.297 1656.39
143.928 858.813 1647.89
144.065 858.862 1647.45
144.073 858.879 1647.36
144.055 858.792 1647.55
142.299 855.379 1657.17
143.145 854.614 1658.11
146.429 848.176 1651.31
146.922 847.352 1651.39
146.526 848.163 1650.84
147.017 847.171 1651.66
147.298 846.934 1651.66
145.045 849.509 1653.33
144.967 849.539 1653.12
145.618 849.149 1652.53
145.664 849.154 1652.27
145.833 849.068 1651.82
145.543 849.739 1649.89
146.015 848.879 1651.18
143.822 852.914 1657.14
143.733 854.077 1658.16
143.713 852.051 1656.28
143.716 851.241 1655.35
144.003 850.491 1654.63
143.682 850.878 1654.87
143.892 850.481 1654.49
143.87 850.381 1654.23
144.104 850.099 1653.79
152.102 847.059 1646.94
152.164 847.015 1646.83
152.201 846.978 1646.74
152.248 846.942 1646.76
147.37 846.913 1651.46
147.584 846.77 1651.39
148.022 846.62 1651.18
147.753 846.743 1651.22
148.214 846.606 1650.95
151.716 847.26 1646.98
151.457 847.374 1646.94
151.329 847.378 1647.09
151.914 847.165 1646.93
150.326 847.607 1647.24
148.653 848.118 1647.62
148.785 848.069 1647.45
149.09 847.952 1647.35
152.042 847.087 1646.96
152.064 847.093 1646.88
147.974 846.765 1650.86
147.911 847.441 1649.78
147.823 848.317 1648.15
148.222 848.307 1647.69
152.338 846.847 1646.69
152.212 846.973 1646.51
152.247 846.929 1646.52
152.298 846.887 1646.52
152.105 847.127 1646.61
152.173 847.03 1646.55
152.04 847.193 1646.57
151.94 847.247 1646.49
151.83 847.24 1646.39
151.584 847.246 1646.31
152.286 846.888 1646.59
152.272 846.91 1646.68
150.444 847.48 1646.47
146.891 851.099 1640.54
146.745 850.772 1639.84
147.02 851.705 1641.39
147.038 852.082 1641.74
146.736 851.576 1639.72
146.569 851.492 1639.26
145.86 851.338 1638.07
145.84 850.757 1638.08
145.327 850.606 1637.21
145.104 850.626 1636.93
147.182 851.555 1642.92
147.118 851.706 1642.61
147.237 851.426 1643.11
147.214 851.476 1643.2
147.323 851.276 1643.37
147.011 852.337 1642.01
144.907 850.598 1636.69
144.629 849.825 1636.43
144.08 849.6 1635.95
144.371 849.893 1636.22
144.172 849.787 1636.04
143.48 849.391 1635.53
142.935 848.895 1635.11
142.908 848.503 1634.94
142.951 848.329 1634.9
143.013 848.122 1634.81
143.034 847.822 1634.66
142.984 847.601 1634.49
142.907 847.492 1634.32
142.888 847.339 1634.19
142.942 847.166 1634
143.205 846.862 1633.67
143.58 846.535 1633.23
143.903 846.132 1632.36
144.949 845.62 1631.55
146.045 845.4 1631.85
149.519 847.651 1646.64
149.484 847.723 1646.81
150.487 847.488 1646.56
148.334 848.337 1646.99
148.603 848.174 1647.09
148.779 848.07 1647.17
149.255 847.886 1647.17
149.4 847.803 1647
148.078 848.492 1647.14
147.462 848.645 1647.76
145.652 851.627 1645.57
147.203 851.3 1643.68
147.317 851.22 1643.54
147.071 851.414 1643.84
146.97 851.427 1644.08
146.654 851.612 1644.39
146.326 849.348 1648.21
145.526 850.251 1647.7
145.087 850.907 1647.3
144.693 851.511 1646.95
144.737 851.648 1646.62
132.879 872.838 1666.56
132.622 873.045 1666.22
132.223 873.095 1665.73
131.683 873.368 1665.14
129.194 873.608 1662.26
129.116 873.801 1662.47
130.445 872.064 1662.61
129.313 873.409 1662.1
131.355 871.105 1662.19
129.67 873.518 1663.53
128.597 874.95 1662.74
128.411 874.951 1662.4
127.396 875.833 1661.01
128.224 874.814 1661.56
127.317 875.747 1660.61
127.464 875.463 1660.61
130.71 873.019 1664.15
129.818 873.632 1663.7
130.629 873.521 1664.28
131.374 873.509 1664.86
132.953 870.239 1664.03
133.756 870.017 1665.16
134.099 869.889 1665.04
131.943 870.547 1662.12
131.716 870.753 1662.23
132.055 870.475 1662.43
135.953 869.539 1663.38
135.863 869.624 1663.39
135.931 869.589 1663.27
135.139 869.674 1664.21
135.748 869.673 1663.38
134.988 869.75 1664.09
136.034 869.51 1663.26
136.241 869.248 1662.93
136.221 869.302 1662.9
136.252 869.055 1662.9
136.239 869.163 1662.82
136.228 869.225 1662.82
136.216 869.09 1662.79
136.118 869.463 1663.09
136.188 869.341 1662.87
136.164 869.397 1662.97
134.964 868.997 1661.25
135.477 869.053 1661.78
135.073 868.943 1661.37
134.798 868.97 1660.96
134.66 868.961 1660.78
134.918 869.081 1661.24
134.58 868.872 1660.49
135.986 869.188 1662.33
135.935 869.217 1662.3
136.076 869.215 1662.46
136.125 869.165 1662.56
136.155 869.111 1662.66
135.853 869.241 1662.24
134.338 871.914 1649.21
133.365 873.448 1649.6
133.353 873.347 1649.38
136.04 868.497 1648.81
135.972 868.707 1648.8
135.569 869.56 1648.83
135.569 869.73 1648.9
134.987 870.901 1648.89
136.137 867.701 1649.09
136.161 866.655 1649.01
136.231 866.443 1649.16
136.335 865.409 1649.2
134.254 871.917 1649.02
134.938 871.068 1649
136.251 864.352 1649.06
136.14 864.105 1648.82
136.227 863.943 1648.88
136.252 863.828 1648.89
136.624 863.334 1648.91
135.38 863.259 1647.49
136.385 863.397 1648.66
135.357 862.967 1647.24
136.859 863.164 1648.97
137.144 863.013 1649.01
132.263 872.193 1657.88
132.827 872.803 1656
131.769 872.784 1657.64
132.826 873.312 1654.1
132.299 874.523 1651.22
130.915 871.785 1661.04
130.184 872.903 1660.15
130.386 872.975 1659.42
132.01 874.993 1650.71
132.102 875.069 1650.31
132.277 875.104 1649.88
132.417 874.921 1649.76
132.551 874.672 1649.42
132.425 874.958 1649.44
132.682 874.423 1649.42
134.155 869.269 1659.69
134.251 869.127 1660.26
132.801 870.118 1660.19
134.355 868.937 1660.48
131.714 870.774 1661.45
143.563 854.052 1658.03
143.405 854.082 1657.94
143.251 854.195 1657.85
137.322 862.857 1648.95
137.832 862.431 1648.49
138.329 862.013 1648.02
138.591 861.614 1647.65
138.509 861.735 1647.69
138.673 861.498 1647.65
138.434 861.843 1647.78
138.95 860.893 1647.76
138.732 861.358 1647.62
139.208 860.499 1648.11
139.289 860.392 1648.22
139.367 860.295 1648.25
139.462 860.198 1648.26
138.372 861.912 1647.81
140.436 859.763 1648.39
140.624 859.819 1648.75
140.664 859.756 1648.5
139.652 860.036 1648.31
139.61 860.075 1648.34
139.657 859.965 1648.14
140.1 859.768 1648.17
139.796 859.876 1648.11
141.858 859.539 1648.29
142.764 859.347 1647.86
143.369 859.217 1647.62
143.243 859.245 1647.59
143.044 859.27 1647.6
139.547 860.069 1648.2
139.456 860.07 1648.1
143.798 859.036 1647.39
144.056 858.912 1647.34
144.021 858.929 1647.23
144.073 858.877 1647.21
143.584 859.116 1647.47
141.213 858.131 1654
141.72 858.53 1652.14
140.877 857.369 1655.58
140.899 857.044 1655.67
142.209 858.616 1650.9
143.095 858.641 1649.3
143.082 858.725 1649.31
143.735 858.703 1648.29
143.907 858.736 1647.96
140.982 856.786 1655.85
140.942 856.893 1655.67
141.036 856.647 1655.91
141.108 856.485 1656
141.193 856.288 1656.08
141.297 856.235 1656.26
144.045 858.732 1647.62
144.105 858.76 1647.35
144.116 858.778 1647.27
144.131 858.75 1647.15
144.103 858.813 1647.2
144.104 858.669 1647.4
142.56 855.046 1657.26
141.897 855.734 1656.65
141.486 856.046 1656.36
143.057 854.534 1657.83
143.106 854.303 1657.72
147.141 847.12 1651.4
146.752 847.963 1650.5
144.895 849.609 1652.92
143.989 850.193 1653.66
145.619 849.218 1652.24
145.624 849.239 1652.01
145.545 849.35 1651.7
145.124 849.781 1651.62
144.935 850.21 1651.07
144.594 850.762 1650.72
144.519 850.931 1650.47
144.515 851.191 1649.22
144.742 851.201 1647.6
145.777 849.784 1648.47
143.517 853.031 1657.01
143.344 852.146 1656.01
143.444 851.391 1655.24
143.161 851.531 1655.04
143.624 850.733 1654.55
143.753 850.54 1654.41
143.487 850.751 1654.39
143.74 850.421 1654.06
152.114 847.057 1646.83
152.152 847.02 1646.74
152.216 846.958 1646.67
147.493 846.897 1651.16
147.298 847.072 1651.15
147.696 846.875 1650.96
151.814 847.234 1646.9
151.731 847.294 1646.83
150.358 847.601 1647.09
151.47 847.372 1646.79
151.907 847.191 1646.83
148.449 848.244 1647.34
152.004 847.152 1646.79
151.88 847.213 1646.77
147.587 847.572 1649.85
152.202 846.986 1646.57
152.232 846.94 1646.59
152.15 847.058 1646.61
152.048 847.17 1646.67
151.975 847.224 1646.6
151.844 847.276 1646.54
151.758 847.265 1646.43
151.575 847.266 1646.35
146.882 851.827 1640.41
146.947 852.357 1641.15
146.942 852.842 1641.54
146.66 851.744 1639.57
146.798 851.893 1640.13
146.519 851.729 1639.22
145.977 851.528 1638.3
145.297 851.306 1637.09
145.394 851.478 1637.23
145.106 851.26 1636.89
147.068 851.846 1642.73
147.099 851.712 1643.06
146.953 852.502 1642.27
147.168 851.47 1643.39
146.871 853.064 1641.93
144.691 850.596 1636.47
144.922 851.304 1636.66
143.453 849.695 1635.57
144.381 850.602 1636.22
144.037 849.971 1635.94
142.907 849.209 1635.19
142.792 848.887 1635.03
142.748 848.673 1634.89
142.843 848.194 1634.74
142.77 848.325 1634.73
142.867 847.958 1634.61
142.819 847.679 1634.4
142.783 847.995 1634.55
142.774 847.55 1634.2
142.803 847.381 1634.06
142.878 847.157 1633.8
143.03 846.946 1633.67
143.27 846.517 1632.52
143.393 846.583 1633.07
143.685 846.126 1631.99
143.961 845.807 1631.27
144.883 845.458 1630.77
150.504 847.5 1646.66
150.463 847.54 1646.79
151.595 847.285 1646.44
148.214 848.386 1647.23
150.407 847.575 1646.94
147.219 847.763 1649.94
144.71 851.941 1646.32
145.494 852.056 1645.34
146.313 851.895 1644.57
147.083 851.542 1643.53
147.003 851.632 1643.62
146.942 851.706 1643.67
146.824 851.808 1643.82
146.848 851.684 1643.97
146.503 852.111 1644.09
146.965 847.823 1650.25
145.565 850.158 1647.79
144.482 851.714 1647.1
144.542 851.79 1646.78
132.903 873.194 1666.6
132.645 873.43 1666.31
132.184 873.499 1665.78
131.683 873.82 1665.23
128.275 874.61 1661.34
128.38 874.414 1661.19
129.633 873.031 1661.95
128.484 874.259 1661.02
130.437 872.181 1661.71
131.875 870.616 1661.75
129.284 874.179 1663.33
128.401 875.461 1662.66
127.63 876.012 1661.7
127.463 876.014 1661.34
127.219 876.09 1660.85
127.167 875.941 1660.55
127.13 875.893 1660.11
127.201 875.716 1660.12
127.549 875.219 1660.44
127.32 875.496 1660.03
129.765 874.001 1663.75
129.232 874.543 1663.37
130.548 874.152 1664.37
133.093 870.057 1662.84
132.956 869.976 1661.28
133.804 869.976 1664.74
134.787 869.813 1664
132.962 869.956 1660.85
132.92 869.994 1660.47
132.088 870.426 1661.64
136.037 869.53 1663.16
135.881 869.641 1663.19
135.989 869.571 1663.13
135.692 869.71 1663.27
135.648 869.74 1663.21
136.195 869.284 1662.78
136.199 869.186 1662.71
136.188 869.244 1662.7
136.14 869.429 1662.94
136.103 869.487 1663.01
136.145 869.381 1662.83
136.147 869.334 1662.74
135.403 869.182 1661.78
135.437 869.099 1661.76
135.785 869.282 1662.19
134.809 869.093 1661.11
134.494 869.01 1660.68
134.686 869.077 1660.95
134.962 869.161 1661.36
136.039 869.258 1662.43
136.145 869.229 1662.58
135.942 869.286 1662.33
133.354 873.194 1649.12
132.728 874.205 1649.14
132.877 873.889 1649.02
135.903 868.444 1648.69
135.991 868.4 1648.75
136.074 866.654 1648.88
135.515 869.473 1648.75
135.881 868.68 1648.72
134.947 870.761 1648.75
134.097 871.868 1648.7
134.172 871.894 1648.84
134.764 871.038 1648.72
133.385 872.965 1648.89
136.054 864.393 1648.76
135.508 863.932 1647.99
135.46 864.174 1647.99
135.534 863.728 1647.94
136.564 863.128 1648.6
136.417 863.242 1648.54
134.694 862.878 1646.37
134.434 862.136 1645.57
134.518 861.851 1645.48
135.166 862.538 1646.71
135.214 862.346 1646.6
136.869 863.014 1648.76
137.133 862.888 1648.75
137.318 862.827 1648.8
132.399 873.206 1655.77
131.136 873.245 1657.64
132.458 873.57 1654.18
132.166 874.22 1652.33
131.885 874.713 1651.59
131.66 875.072 1651.21
129.845 873.11 1660.64
129.117 873.957 1659.21
129.197 874.368 1657.35
131.694 875.258 1650.83
131.954 875.239 1650.36
132.108 875.301 1649.92
132.218 875.346 1649.62
132.32 875.194 1649.49
132.438 874.83 1649.13
132.55 874.624 1649.07
132.353 875.169 1649.19
134.041 869.343 1660.19
134.141 869.304 1660.56
134.342 869.084 1660.55
143.244 853.18 1656.87
142.955 853.382 1656.71
137.788 862.425 1648.35
138.257 862.024 1647.91
138.484 861.647 1647.52
138.54 861.521 1647.46
138.449 861.767 1647.62
138.633 861.431 1647.5
138.384 861.807 1647.6
138.51 860.921 1646.98
138.686 861.32 1647.48
138.747 860.672 1647.33
139.173 860.345 1647.94
138.901 860.204 1647.38
139.239 860.265 1648
139.296 860.176 1648.02
139.386 860.137 1648.1
138.294 861.935 1647.73
140.753 859.655 1648.26
140.427 859.679 1648.18
141.906 859.477 1648.04
139.563 860.014 1648.12
139.59 859.985 1648.1
139.644 859.887 1647.99
139.463 859.605 1647.46
139.843 859.752 1647.96
140.119 859.679 1648.03
139.953 858.75 1646.57
142.838 859.295 1647.65
143.611 859.077 1647.31
143.402 859.132 1647.31
143.221 859.139 1647.25
139.486 860.003 1648.02
139.285 859.764 1647.52
139.179 859.838 1647.52
144.024 858.878 1647.07
143.915 858.941 1647.13
144.085 858.822 1647.04
144.111 858.778 1647.06
141.052 857.822 1654.74
141.658 858.395 1652.33
140.884 857.276 1655.43
140.892 857.041 1655.47
142.355 858.507 1650.57
143.072 858.507 1649.33
141.891 858.414 1651.58
143.733 858.555 1648.28
143.923 858.59 1647.94
144.019 858.696 1647.75
140.973 856.716 1655.7
140.918 856.871 1655.48
141.023 856.553 1655.82
141.102 856.372 1655.91
141.167 856.13 1655.93
141.308 856.132 1656.15
144.1 858.566 1647.46
144.143 858.576 1647.24
144.143 858.632 1647.2
144.15 858.657 1647.11
144.16 858.667 1646.99
144.135 858.705 1646.95
144.149 858.492 1647.26
142.565 854.884 1657.1
141.859 855.653 1656.54
142.98 854.477 1657.61
141.444 855.959 1656.2
142.979 854.196 1657.4
147.091 847.262 1651.15
144.773 849.727 1652.73
143.759 850.367 1653.52
143.551 850.56 1653.87
144.622 849.911 1652.5
144.303 850.329 1652.21
144.638 849.969 1652.24
143.441 851.291 1652.39
143.727 852.016 1650.69
143.809 852.108 1650.24
143.956 852.076 1649
144.241 851.911 1647.5
142.988 852.246 1655.72
143.152 851.264 1654.64
142.664 852.449 1655.52
141.92 852.874 1654.74
142.02 852.456 1654.27
143.383 850.805 1654.19
152.104 847.08 1646.79
152.18 846.997 1646.66
152.141 847.052 1646.68
152.088 847.111 1646.76
147.496 847.052 1650.86
147.342 847.187 1650.85
151.69 847.32 1646.73
151.476 847.348 1646.67
151.98 847.187 1646.72
151.801 847.273 1646.68
152.11 847.099 1646.69
151.852 847.268 1646.62
151.712 847.299 1646.54
146.899 852.317 1640.82
146.911 852.832 1641.31
146.886 853.036 1641.61
146.666 851.985 1639.83
146.833 852.272 1640.53
146.484 851.87 1639.26
145.872 851.666 1638.15
145.209 851.493 1637.03
145.345 851.634 1637.22
145.019 851.415 1636.8
146.956 851.981 1643.01
146.868 852.642 1642.52
147.038 851.78 1643.21
147.078 851.658 1643.35
146.801 853.241 1642.24
146.852 853.197 1641.79
146.797 853.384 1642.09
144.673 851.29 1636.45
144.638 851.499 1636.47
144.816 851.521 1636.62
143.421 850.392 1635.58
142.821 849.454 1635.18
142.678 850.28 1635.12
144.314 851.168 1636.19
142.7 849.234 1635.07
142.609 849.079 1634.95
142.596 848.747 1634.78
142.659 848.466 1634.75
142.601 848.294 1634.59
142.641 847.764 1634.3
142.666 847.951 1634.42
142.619 847.675 1634.12
142.711 847.466 1633.93
142.747 847.319 1633.63
142.935 846.864 1632.82
143.066 846.742 1632.85
143.342 846.208 1631.39
143.661 846.016 1631.49
143.588 845.981 1631.05
143.908 845.755 1630.78
151.523 847.317 1646.55
144.436 852.074 1646.61
144.499 852.231 1646.36
145.298 852.458 1645.27
146.241 852.401 1644.22
146.951 851.86 1643.37
146.787 852.006 1643.61
146.686 851.938 1643.96
146.492 852.353 1643.83
144.269 852.034 1647
132.756 873.963 1666.33
132.394 873.912 1665.98
131.781 874.053 1665.39
127.602 875.14 1660.18
128.579 874.179 1660.64
127.72 875.011 1659.98
128.849 873.971 1660.29
128.589 875.477 1662.91
127.88 876.045 1662.05
127.445 876.301 1661.47
127.28 876.206 1661.16
127.138 876.327 1660.7
127.106 876.133 1660.29
127.061 876.02 1659.86
127.08 875.89 1659.7
127.139 875.745 1659.66
127.397 875.417 1659.64
127.205 875.635 1659.5
129.212 874.906 1663.43
130.513 874.772 1664.42
129.014 875.387 1663.3
133.233 870.061 1663.26
133.707 869.609 1660.93
133.574 869.719 1661.25
133.864 869.484 1660.57
134.641 869.853 1663.78
135.523 869.769 1663.18
135.951 869.597 1663.06
135.868 869.648 1663.14
135.829 869.67 1663.11
136.058 869.527 1662.99
135.693 869.738 1663.05
135.757 869.69 1662.99
135.773 869.703 1663.1
136.144 869.29 1662.66
136.096 869.433 1662.8
136.076 869.484 1662.87
136.093 869.387 1662.69
136.102 869.343 1662.64
135.372 869.237 1661.77
135.75 869.387 1662.23
135.882 869.366 1662.31
135.894 869.327 1662.31
134.837 869.176 1661.25
134.518 869.117 1660.78
134.688 869.166 1661.05
135.31 869.301 1661.79
136.032 869.306 1662.45
136.108 869.273 1662.55
132.961 873.549 1648.79
132.599 874.191 1648.69
132.769 873.809 1648.67
135.8 868.525 1648.63
135.758 868.766 1648.65
135.923 868.348 1648.69
135.824 868.326 1648.61
135.954 867.706 1648.8
135.949 866.416 1648.72
135.923 865.205 1648.58
135.57 869.209 1648.73
135.202 869.88 1648.66
134.881 870.668 1648.63
134.675 870.985 1648.59
134.013 871.834 1648.56
133.476 872.578 1648.58
133.257 872.933 1648.67
135.275 864.679 1647.83
134.891 863.968 1647.26
134.721 863.309 1646.66
134.76 864.78 1647.2
136.143 863.088 1648.17
136.732 862.951 1648.51
136.333 862.912 1648.11
135.985 862.897 1647.77
134.372 862.422 1645.6
134.314 861.722 1644.95
134.4 861.381 1644.79
134.598 861.446 1645.17
135.217 862.146 1646.41
134.81 861.252 1645.27
134.723 861.3 1645.21
137.051 862.792 1648.47
137.568 862.4 1648.07
137.683 862.413 1648.21
130.19 873.992 1657.05
132.12 873.738 1654.32
130.958 874.484 1653.41
130.778 874.759 1652.95
130.528 875.119 1652.57
130.225 875.465 1652.37
131.32 875.392 1651.24
128.043 874.984 1658.31
128.717 875.263 1655.31
129.624 874.828 1654.74
129.611 875.012 1654
131.641 875.457 1650.63
131.259 875.606 1651.03
131.881 875.467 1650.18
131.949 875.656 1649.92
132.107 875.623 1649.64
132.237 875.44 1649.43
132.26 875.389 1649.26
132.402 874.866 1648.79
132.477 874.589 1648.76
132.374 875.181 1648.81
134.033 869.447 1660.87
134.337 869.242 1660.75
142.113 853.811 1655.87
141.745 853.496 1655.14
138.421 861.555 1647.35
138.403 861.711 1647.5
138.338 861.024 1646.75
138.265 860.975 1646.56
138.412 861.01 1646.89
138.294 861.82 1647.52
138.321 861.716 1647.41
138.538 860.266 1646.64
138.375 860.468 1646.38
139.004 860.076 1647.45
138.707 859.971 1646.86
139.077 859.973 1647.5
139.137 859.888 1647.52
138.169 861.985 1647.69
140.707 859.571 1648.03
142.009 859.386 1647.76
140.345 859.562 1647.9
142.963 859.203 1647.38
139.54 859.554 1647.44
139.402 859.684 1647.51
139.21 859.329 1646.87
140.062 858.04 1645.65
139.837 858.202 1645.66
140.131 859.513 1647.7
139.907 859.083 1646.98
140.628 857.453 1645.25
141.065 856.89 1644.76
140.812 857.036 1644.82
144.048 859.225 1647.3
143.752 858.951 1646.99
143.535 859.044 1647.1
143.615 858.968 1646.91
143.278 859.049 1647.01
139.048 859.383 1646.74
138.94 859.565 1646.85
138.879 859.74 1646.97
144.067 858.778 1646.91
144.014 858.816 1646.9
144.101 858.735 1646.91
141.374 858.15 1653.47
140.958 857.511 1655.12
141.656 858.243 1652.22
140.902 857.19 1655.24
140.902 857.035 1655.24
142.391 858.341 1650.42
143.001 858.341 1649.38
143.585 858.148 1648.42
143.69 858.365 1648.3
141.983 858.291 1651.31
143.881 858.4 1648
144.042 858.436 1647.61
143.975 858.359 1647.78
140.985 856.491 1655.66
140.937 856.68 1655.5
140.904 856.819 1655.27
141.048 856.241 1655.75
141.258 855.858 1655.88
141.092 855.988 1655.72
141.286 856.018 1656.02
144.12 858.374 1647.35
144.2 858.393 1647.08
144.185 858.479 1647.07
144.182 858.535 1647.02
144.197 858.54 1646.91
144.159 858.598 1646.84
144.188 858.478 1646.78
144.102 858.636 1646.77
144.131 858.6 1646.77
144.18 858.305 1647.13
142.52 854.677 1656.87
141.839 855.51 1656.4
141.404 855.789 1656.08
143.744 850.41 1653.31
143.364 850.775 1653.7
142.053 852.323 1653.93
143.781 850.476 1653.02
142.771 851.686 1653.17
142.133 852.581 1653.06
141.409 853.409 1652.58
142.647 852.934 1651.46
143.202 852.333 1651.3
143.125 853.338 1649.84
143.456 852.912 1649.54
143.28 853.345 1649.42
143.678 852.623 1648.67
144.017 852.22 1647.56
144.098 852.248 1647.16
141.723 852.81 1654.34
142.203 852.924 1655.22
141.475 853.46 1654.68
140.948 853.787 1654.33
140.839 853.875 1654.21
141.948 852.48 1654.08
140.765 853.899 1653.97
140.733 853.856 1653.77
151.67 847.319 1646.62
146.871 852.776 1641.06
146.86 853.097 1641.45
146.626 852.112 1639.78
146.797 852.684 1640.73
146.597 852.26 1639.89
146.404 851.967 1639.21
145.897 851.808 1638.23
144.993 851.587 1636.81
145.153 851.716 1637.02
145.293 851.781 1637.24
146.823 852.109 1643.28
146.763 852.788 1642.8
146.685 853.462 1642.54
146.692 853.597 1642.4
146.806 853.4 1641.9
146.838 853.292 1641.6
146.649 853.706 1642.3
146.691 853.617 1642.08
144.418 851.402 1636.3
144.455 851.655 1636.36
144.687 851.674 1636.54
144.29 851.565 1636.24
143.399 851.227 1635.62
142.433 850.217 1634.96
142.375 851.102 1634.98
142.294 850.221 1634.84
142.137 850.141 1634.67
142.457 848.685 1634.63
142.446 848.349 1634.52
142.496 848.115 1634.37
142.31 847.908 1634.09
142.451 847.812 1634.05
142.561 847.607 1633.82
142.507 847.604 1633.66
142.547 847.21 1631.41
142.83 846.817 1631.68
143.158 846.338 1631.04
143.288 846.114 1629.92
143.664 845.837 1630.36
144.247 852.333 1646.65
144.141 852.319 1646.87
144.423 852.523 1646.25
144.268 852.573 1646.47
144.133 852.528 1646.73
145.019 853.156 1645.23
145.687 853.497 1644.28
146.285 853.104 1643.68
146.671 852.285 1643.49
146.464 852.99 1643.45
132.762 875.397 1665.83
132.311 874.719 1665.68
131.993 874.378 1665.54
127.698 875.136 1659.36
128.642 875.809 1662.91
127.899 876.409 1662.04
127.486 876.513 1661.48
127.272 876.454 1661.13
127.151 876.469 1660.75
127.085 876.348 1660.31
127.042 876.199 1659.94
127.019 876.296 1659.39
127.038 876.175 1659.2
127.081 876.006 1659
127.157 875.88 1658.82
127.512 875.536 1658.32
127.333 875.739 1658.37
130.584 875.202 1664.46
128.963 875.776 1663.25
134.328 869.906 1663.5
133.429 869.851 1661.79
134.093 869.892 1662.76
133.952 869.549 1661.13
133.879 869.656 1661.43
135.467 869.763 1662.95
135.625 869.742 1662.92
135.882 869.615 1662.94
135.877 869.635 1663.02
135.96 869.567 1662.91
136.016 869.529 1662.89
135.645 869.721 1662.86
135.662 869.695 1662.79
135.779 869.649 1662.86
136.084 869.321 1662.55
136.041 869.424 1662.63
136.005 869.475 1662.71
135.948 869.534 1662.79
136.052 869.378 1662.57
135.932 869.42 1662.39
135.765 869.456 1662.34
136.005 869.395 1662.48
136.02 869.351 1662.46
134.798 869.203 1661.26
135.251 869.351 1661.8
134.509 869.253 1661.02
134.648 869.265 1661.23
132.802 873.396 1648.35
132.97 873.156 1648.44
132.546 873.907 1648.11
132.673 873.674 1648.27
135.697 868.407 1648.54
135.622 868.651 1648.52
135.182 869.769 1648.58
135.573 869.109 1648.68
135.832 867.715 1648.66
135.648 867.725 1648.49
135.822 866.381 1648.56
135.576 865.234 1648.16
134.599 870.908 1648.47
133.957 871.729 1648.42
133.389 872.368 1648.4
133.192 872.641 1648.38
135.372 866.086 1648.04
134.689 865.612 1647.28
134.622 864.646 1646.99
134.521 863.236 1646.26
134.479 865.742 1647.01
136.752 862.805 1648.25
136.275 862.697 1647.75
135.868 862.603 1647.34
135.302 861.991 1646.34
134.235 862.222 1645.16
134.086 861.299 1644.03
134.203 860.685 1643.56
134.369 860.245 1643.35
134.501 860.251 1643.58
134.644 860.195 1643.71
134.913 861.208 1645.32
134.806 860.074 1643.73
137.46 862.356 1647.87
138.088 861.937 1647.52
130.701 874.309 1654.76
129.176 875.454 1653.69
128.996 875.826 1653.26
130.11 875.836 1651.99
129.095 876.007 1652.86
127.85 875.326 1657.5
128.381 875.462 1655.55
131.316 875.753 1650.8
131.656 875.613 1650.43
129.897 876.225 1651.81
131.709 875.87 1650.18
131.976 876.01 1649.68
131.857 876.117 1649.87
132.137 875.884 1649.44
132.207 875.639 1649.35
132.268 875.692 1649.11
132.334 875.403 1648.91
132.401 874.448 1647.96
132.471 874.089 1647.93
132.372 875.402 1648.62
132.391 874.566 1647.74
134.257 869.398 1661.07
141.671 854.705 1655.8
140.853 854.223 1654.5
140.817 854.055 1654.36
138.324 861.583 1647.26
138.161 861.009 1646.45
138.305 860.329 1646.06
138.263 860.09 1645.74
138.177 860.049 1645.52
138.183 861.725 1647.3
138.116 861.798 1647.34
138.209 861.615 1647.15
138.3 861.651 1647.31
138.527 860.054 1646.42
138.804 859.855 1646.92
140.63 859.4 1647.65
141.902 859.291 1647.52
142.994 859.083 1647.07
140.428 859.262 1647.39
139.206 859.002 1646.26
140.74 857 1644.67
140.072 857.703 1645.03
140.658 856.989 1644.52
140.122 858.823 1646.7
140.684 857.548 1645.39
141.132 856.951 1644.91
141.051 856.75 1644.45
142.261 856.285 1644.35
142.9 855.832 1643.79
143.856 858.853 1646.82
143.962 858.818 1646.84
143.788 858.831 1646.73
143.735 858.894 1646.81
143.551 858.929 1646.78
143.685 858.834 1646.68
143.256 858.96 1646.82
138.99 859.262 1646.38
139.307 858.625 1645.62
138.874 859.574 1646.7
138.762 859.733 1646.72
144.069 858.677 1646.76
144.037 858.717 1646.75
144 858.742 1646.72
141.303 857.977 1653.68
140.964 857.403 1654.9
141.666 858.128 1652.04
140.923 857.15 1655.01
140.919 857.003 1655.03
142.33 858.14 1650.39
142.918 858.104 1649.43
143.581 857.942 1648.35
143.845 858.171 1648
141.934 858.044 1651.19
144.053 858.192 1647.48
143.977 858.148 1647.7
140.94 856.398 1655.47
140.99 856.161 1655.59
140.892 856.513 1655.3
140.852 856.59 1655.09
140.897 855.26 1655.1
140.742 855.433 1654.94
144.144 858.164 1647.16
144.248 858.322 1646.91
144.213 858.183 1646.93
144.244 858.384 1646.86
144.222 858.355 1646.76
144.154 858.448 1646.67
144.183 858.294 1646.66
144.078 858.56 1646.6
144.114 858.498 1646.62
144.18 858.091 1646.98
141.789 855.346 1656.26
143.503 850.624 1653.39
142.613 851.7 1653.62
142.472 851.848 1653.85
141.403 853.089 1653.65
140.753 853.767 1653.64
140.74 853.786 1653.43
142.76 851.581 1653.4
141.382 853.273 1652.96
140.711 854.001 1652.53
140.92 854.014 1652.03
140.779 854.02 1652.3
141.741 853.46 1651.91
141.793 853.726 1651.29
142.711 853.788 1650.01
141.759 853.956 1651
142.907 853.77 1649.7
143.074 853.796 1649.36
143.343 853.424 1649.06
143.193 853.867 1649.04
143.591 852.915 1648.44
143.889 852.522 1647.51
143.992 852.549 1647.07
140.842 853.816 1654.13
140.668 854.072 1654.03
140.638 854.18 1654.16
140.502 854.221 1653.77
140.534 854.112 1653.6
140.567 854.017 1653.41
146.827 853.111 1641.29
146.765 852.908 1640.83
146.794 853.261 1641.33
146.577 852.464 1640.05
145.819 851.937 1638.23
144.893 851.737 1636.76
145.03 851.797 1636.94
145.119 851.892 1637.09
146.666 852.841 1643.11
146.558 853.547 1642.83
146.51 853.717 1642.78
146.517 853.822 1642.63
146.761 853.495 1641.84
146.778 853.452 1641.65
146.559 853.874 1642.28
146.468 853.962 1642.55
146.649 853.689 1641.96
143.446 851.718 1635.74
144.347 851.799 1636.32
144.503 851.872 1636.46
144.709 851.787 1636.58
143.453 851.498 1635.7
142.451 851.441 1635.07
142.128 851.282 1634.8
141.889 851.312 1634.61
142.066 849.997 1634.53
141.608 851.455 1634.41
141.459 851.441 1634.23
142.002 849.829 1634.36
142.37 848.49 1634.47
142.382 848.237 1634.32
142.363 848.075 1634.16
142.332 848.014 1634.04
142.396 847.84 1633.85
142.295 848.051 1633.57
142.326 848.01 1633.82
142.36 847.924 1633.4
142.547 847.39 1632.24
142.402 847.814 1633.46
142.005 847.76 1629.96
142.137 847.405 1628.77
141.771 847.962 1629.43
142.558 846.779 1628.6
142.818 846.509 1629.23
144.472 853.633 1645.76
144.031 852.904 1646.68
143.937 852.778 1646.95
145.501 854.107 1644.2
144.801 854.508 1644.97
146.218 853.723 1643.39
146.426 853.58 1643.11
132.362 875.955 1665.33
130.763 875.587 1664.51
128.483 876.238 1662.75
127.954 876.74 1662
127.53 876.658 1661.52
127.326 876.709 1661.14
127.177 876.632 1660.81
127.092 876.558 1660.4
127.033 876.414 1659.95
126.995 876.416 1659.51
126.992 876.413 1659.16
127.383 876.422 1656.99
127.246 876.321 1657.82
127.514 876.452 1656.34
127.675 876.493 1655.58
127.689 876.213 1655.95
127.963 875.889 1655.66
127.933 876.253 1654.98
128.909 876.226 1663.15
135.218 869.786 1662.81
134.373 869.789 1662.33
134.175 869.53 1661.38
134.62 869.703 1662.12
134.801 869.642 1662.07
135.586 869.724 1662.74
135.828 869.594 1662.76
135.589 869.704 1662.68
135.717 869.642 1662.7
135.647 869.655 1662.62
135.985 869.444 1662.55
135.896 869.518 1662.63
135.908 869.481 1662.49
135.669 869.514 1662.37
135.812 869.521 1662.47
135.182 869.41 1661.83
134.414 869.394 1661.3
135.093 869.496 1661.94
132.654 873.104 1647.94
132.751 872.783 1648
132.92 872.692 1648.16
132.558 873.268 1647.63
132.596 873.221 1647.79
135.439 867.815 1648.32
135.51 868.563 1648.43
135.369 869.132 1648.54
135.028 869.868 1648.51
134.748 870.403 1648.39
134.576 870.778 1648.38
135.245 866.556 1648.03
133.901 871.552 1648.27
133.384 872.103 1648.25
133.165 872.284 1648.19
132.993 872.304 1648.05
134.715 866.054 1647.45
134.501 866.096 1647.23
134.187 865.875 1646.57
134.375 864.179 1646.33
134.147 862.736 1645.38
134.283 866.137 1646.93
136.622 862.691 1647.98
136.201 862.428 1647.38
135.925 862.319 1647.06
135.49 861.786 1646.22
135.09 861.145 1645.36
133.98 862.666 1644.95
133.956 861.773 1644.14
133.98 860.883 1643.13
134.259 859.76 1642.36
134.465 859.209 1642.11
134.578 859.044 1642.14
134.674 858.998 1642.24
134.774 858.944 1642.32
134.937 860.051 1643.83
134.87 858.907 1642.38
137.35 862.324 1647.74
137.957 861.875 1647.3
137.767 861.902 1647.23
128.649 875.922 1653.69
128.668 876.303 1653.05
128.882 876.41 1652.64
128.214 875.801 1655.13
131.011 876.238 1650.78
131.488 875.917 1650.46
129.725 877.145 1651.27
128.673 876.792 1652.48
128.997 877.697 1651.49
132.18 877.416 1649.1
132.365 877.434 1648.89
132.163 876.235 1649.31
132.576 877.345 1648.64
132.477 877.378 1648.77
132.252 875.961 1649.18
132.334 875.723 1648.84
132.338 875.999 1648.92
132.503 873.387 1646.84
132.51 873.377 1647.23
132.53 873.048 1647.37
132.379 875.645 1648.53
132.359 875.077 1647.9
132.42 874.357 1646.99
132.494 873.672 1646.64
140.644 854.561 1654.4
140.668 854.339 1654.31
138.035 860.871 1646.16
138.103 860.026 1645.36
138.39 859.962 1645.85
138.325 859.807 1645.38
138.43 859.747 1645.54
138.281 859.702 1645.09
138.048 861.606 1647
138.009 861.764 1647.19
137.883 860.741 1645.89
138.6 859.779 1646.19
140.858 858.929 1646.93
141.833 859.107 1647.17
142.942 858.976 1646.85
140.433 858.664 1646.52
140.974 856.7 1644.18
140.306 857.313 1644.57
140.737 856.834 1644.19
140.397 858.281 1646.06
140.769 857.565 1645.43
142.207 856.437 1644.58
142.679 855.479 1642.9
142.482 855.519 1642.74
143.366 855.983 1644.31
143.056 856.237 1644.63
144.41 854.775 1642.38
143.484 854.901 1642.27
143.425 855.055 1642.61
144.012 855.455 1643.7
143.83 855.762 1644.17
144.995 854.829 1642.73
143.903 858.768 1646.68
143.786 858.745 1646.59
143.562 858.848 1646.65
143.649 858.78 1646.58
143.683 858.736 1646.53
143.295 858.869 1646.67
138.769 859.32 1645.72
138.963 858.785 1644.95
140.049 857.536 1644.54
138.688 859.541 1646.02
144.04 858.6 1646.57
144.008 858.643 1646.57
143.933 858.679 1646.56
141.064 857.617 1654.38
141.43 857.974 1652.96
140.932 857.231 1654.64
141.647 858.04 1652.02
140.902 857.058 1654.84
140.832 856.698 1654.91
142.86 857.854 1649.43
142.355 857.871 1650.17
143.624 857.057 1647.85
143.814 857.93 1647.93
143.339 857.087 1648.38
143.934 857.897 1647.69
141.74 857.863 1651.51
142.099 857.847 1650.65
142.177 858.008 1650.6
144.019 857.935 1647.44
144.11 858.017 1647.19
140.608 855.757 1654.68
140.661 855.604 1654.81
140.548 855.834 1654.55
140.515 855.936 1654.43
140.499 854.783 1654.27
140.417 854.957 1654.13
144.096 857.197 1646.52
144.21 858.148 1646.74
144.196 858.083 1646.79
144.128 857.213 1646.3
144.179 858.119 1646.66
144.153 858.081 1646.54
144.14 858.237 1646.54
144.111 858.276 1646.48
144.144 858.033 1646.38
144.043 858.457 1646.43
144.079 858.355 1646.45
144.113 857.213 1646.39
141.352 853.203 1653.3
140.724 853.84 1653.15
140.577 854.012 1653.16
140.716 853.914 1652.83
140.51 854.211 1652.67
140.587 854.032 1652.91
140.577 854.227 1652.31
140.758 854.137 1652.1
140.864 854.229 1651.75
142.709 854.222 1649.58
141.683 854.263 1650.75
142.912 854.253 1649.2
143.248 853.993 1648.63
143.561 853.27 1648.05
143.1 854.269 1648.75
143.806 852.851 1647.26
140.486 854.351 1653.95
140.49 854.502 1654.12
140.433 854.358 1653.55
140.41 854.461 1653.76
140.466 854.235 1653.32
140.455 854.159 1653.12
146.725 853.129 1640.98
146.729 853.467 1641.46
146.504 852.589 1640.03
145.576 852.006 1637.91
144.839 851.9 1636.76
145.035 852.053 1637.11
146.36 853.799 1643.06
146.312 853.953 1643
146.291 854.109 1642.85
146.669 853.63 1641.74
146.505 853.946 1642.18
146.421 854.06 1642.45
146.259 854.213 1642.73
146.507 853.856 1642
143.52 851.929 1635.88
142.231 852.008 1635.12
142.138 851.67 1634.92
144.421 852.035 1636.47
143.551 852.117 1636.01
141.715 851.843 1634.66
141.304 852.067 1634.38
141.204 851.799 1634.08
141.3 851.426 1633.99
141.955 849.634 1634.2
142.333 848.375 1634.29
142.301 848.278 1634.16
142.265 848.197 1634.01
142.192 848.269 1633.79
141.985 848.803 1633.29
142.206 848.154 1633.37
142.281 848.033 1633.2
142.387 847.828 1632.73
142.491 847.585 1631.91
142.442 847.435 1631.01
141.911 847.983 1630.06
141.591 848.291 1629.35
144.228 853.886 1646.03
144.486 854.774 1645.3
143.866 853.091 1646.95
144.861 854.636 1644.76
145.514 854.279 1644.04
144.576 854.865 1645.09
130.956 876.24 1664.43
129.246 876.471 1663.34
128.467 876.605 1662.64
128.243 876.973 1662.22
127.842 877.051 1661.69
127.513 876.782 1661.46
127.393 876.846 1661.16
127.22 876.753 1660.87
127.125 876.775 1660.4
127.063 876.667 1659.96
127.025 876.713 1659.44
127.024 876.605 1659.05
127.031 876.513 1658.84
127.256 876.464 1657.73
127.712 877.178 1654.53
127.822 877.489 1653.52
127.869 877.358 1653.41
127.988 876.943 1653.51
127.94 877.261 1653.27
128.446 876.432 1653.25
128.223 876.602 1653.41
128.749 876.825 1662.81
135.402 869.732 1662.63
134.962 869.574 1662.02
135.519 869.681 1662.55
135.811 869.566 1662.61
135.771 869.605 1662.68
135.735 869.587 1662.54
135.598 869.625 1662.5
135.648 869.571 1662.44
132.687 872.512 1647.79
132.608 872.645 1647.68
132.819 872.323 1647.88
132.558 872.722 1647.5
132.497 872.656 1647.23
135.179 867.958 1648.17
134.841 867.034 1647.82
135.234 869.178 1648.45
134.984 869.463 1648.32
134.885 869.819 1648.4
134.666 870.418 1648.32
134.535 870.713 1648.32
133.83 871.44 1648.15
134.703 866.682 1647.59
133.237 871.815 1648.03
133.048 871.98 1647.98
132.986 872.091 1647.97
132.852 872.028 1647.82
134.447 866.545 1647.3
134.337 866.515 1647.14
133.964 866.322 1646.42
133.824 866.128 1646.08
133.773 865.636 1645.73
133.994 863.74 1645.39
134.214 866.436 1646.88
137.084 862.221 1647.43
136.896 861.841 1646.78
135.755 861.508 1646.04
135.332 861.042 1645.38
135.072 860.005 1643.86
133.692 863.726 1644.52
133.58 862.869 1643.77
133.562 862.155 1642.99
133.792 861.047 1642.71
133.903 860.133 1641.39
134.208 859.177 1640.63
134.436 858.923 1641.15
134.547 858.783 1641.44
134.64 858.724 1641.69
134.728 858.708 1641.85
134.834 858.683 1641.96
134.977 858.927 1642.47
134.961 858.694 1642.12
137.884 861.608 1646.88
137.673 861.54 1646.65
128.525 876.663 1652.81
131.405 877.673 1649.64
131.902 877.47 1649.35
129.298 878.783 1650.36
131.123 878.335 1649.4
128.394 877.012 1652.65
128.764 877.831 1651.63
128.984 878.815 1650.62
133.055 878.714 1647.66
133.142 878.631 1647.64
133.162 878.496 1647.71
132.292 876.272 1649.08
132.673 877.317 1648.49
133.311 878.36 1647.51
133.29 878.496 1647.54
132.377 875.9 1648.69
132.371 876.242 1648.9
132.377 876.081 1648.78
132.485 873.306 1646.48
132.463 873.059 1646.64
132.489 873.046 1646.99
132.469 872.696 1647.01
132.386 875.328 1647.74
132.439 875.862 1648.36
132.476 874.402 1646.56
132.545 873.554 1646.1
137.94 860.042 1645.21
138.165 859.705 1644.95
138.473 859.493 1645.12
138.365 859.371 1644.73
138.568 859.154 1644.67
137.726 860.741 1645.76
137.741 860.047 1645.06
140.913 858.579 1646.44
141.921 858.843 1646.77
142.961 858.843 1646.64
140.674 858.197 1646.01
142.073 855.768 1642.84
140.599 856.908 1644.07
141.37 856.255 1643.22
141.01 857.478 1645.39
141.965 856.661 1644.79
142.859 856.398 1644.73
143.349 854.55 1641.23
143.728 854.483 1641.43
142.936 854.892 1641.44
143.116 854.682 1641.23
143.628 855.999 1644.42
143.252 856.207 1644.66
143.504 856.16 1644.66
143.17 856.36 1644.75
145.595 854.29 1641.8
144.803 853.878 1640.8
144.152 855.443 1643.77
143.909 855.892 1644.38
143.955 855.72 1644.16
145.129 854.84 1642.86
145.794 854.437 1642.21
145.675 854.45 1642.13
143.823 858.679 1646.51
143.706 858.658 1646.43
143.554 858.778 1646.54
143.61 858.741 1646.51
143.629 858.617 1646.35
143.348 858.745 1646.48
138.644 858.898 1644.29
139.513 858.062 1644.29
140.52 856.909 1643.71
143.994 858.476 1646.36
143.947 858.577 1646.42
143.866 858.564 1646.37
141.308 857.735 1653.19
141.04 857.477 1654.17
140.869 857.003 1654.61
140.949 857.227 1654.27
141.553 857.918 1652.29
140.797 856.732 1654.75
140.511 856.091 1654.29
142.122 856.519 1649.86
141.724 856.751 1650.53
143.802 857.043 1647.46
143.259 855.784 1648.01
143.537 855.694 1647.38
142.928 856.172 1648.65
143.941 857.09 1647.08
141.608 857.787 1651.82
141.337 856.977 1651.39
141.555 856.935 1650.92
144.018 857.136 1646.82
144.072 857.2 1646.63
140.244 855.189 1653.83
140.308 855.093 1653.98
140.225 855.318 1653.73
140.237 855.447 1653.62
140.399 854.699 1653.99
140.287 854.797 1653.81
144.014 856.159 1646.17
144.031 856.013 1646
144.054 856.238 1645.97
144.141 857.207 1646.18
144.149 857.211 1646.09
144.074 856.15 1645.8
144.093 856.332 1645.79
144.158 857.204 1645.98
144.15 857.227 1645.9
144.133 858.038 1646.27
144.103 858.078 1646.24
144.13 857.256 1645.83
144.045 858.192 1646.28
143.997 858.253 1646.26
140.466 854.166 1652.92
140.419 854.402 1652.57
140.377 854.305 1652.87
140.488 854.425 1652.2
140.661 854.321 1651.96
140.813 854.428 1651.6
141.682 854.536 1650.51
142.672 854.598 1649.3
142.912 854.531 1648.94
143.522 853.65 1647.77
143.167 854.402 1648.48
140.397 854.551 1653.91
140.335 854.508 1653.27
140.329 854.576 1653.57
140.313 854.65 1653.73
140.348 854.343 1653.12
146.616 853.439 1641.2
146.691 853.358 1641.22
146.654 853.15 1640.85
146.6 853.648 1641.57
146.671 853.533 1641.43
145.991 852.387 1638.99
144.828 852.119 1636.91
144.562 852.115 1636.63
146.104 852.66 1639.47
144.943 852.234 1637.19
146.151 854.024 1643.26
145.562 854.559 1643.69
145.522 854.631 1643.63
146.554 853.727 1641.76
146.389 854.116 1642.33
146.387 854.104 1642.18
146.204 854.283 1642.67
145.535 854.671 1643.48
146.415 853.932 1641.97
141.972 852.414 1635.1
143.581 852.342 1636.19
142.423 852.578 1635.57
140.602 854.161 1634.88
140.643 853.042 1634.26
141.104 851.65 1633.8
140.697 852.56 1634.01
142.141 848.99 1634.15
141.36 850.819 1633.77
142.091 848.835 1633.89
142.023 848.858 1633.57
141.955 848.756 1632.99
141.789 849.436 1633.32
141.687 849.484 1632.89
141.267 850.296 1632.77
141.96 848.763 1632.14
142.047 848.59 1631.33
142.304 847.764 1631.14
142.141 848.046 1630.8
141.788 848.27 1630.07
141.415 848.644 1629.48
144.077 854.151 1646.25
144.297 854.977 1645.57
144.392 855.033 1645.29
143.533 853.95 1647.56
144.659 854.998 1644.77
144.559 855.027 1644.94
145.529 854.417 1643.91
144.916 854.764 1644.5
130.826 878.11 1663.46
131.105 877.758 1663.89
131.14 877.13 1664.22
129.357 876.886 1663.25
128.294 877.346 1662.04
127.924 877.425 1661.53
127.553 877.118 1661.21
127.37 877.087 1660.87
127.198 877.047 1660.43
127.116 877.002 1659.95
127.097 877.013 1659.5
127.061 876.882 1659.16
127.293 876.776 1657.77
127.267 876.596 1657.7
127.675 877.213 1654.89
127.969 878.664 1652.63
128.005 878.552 1652.53
128.082 878.434 1652.37
128.195 878.31 1652.18
128.087 876.922 1653.24
128.044 877.228 1653.05
128.281 878.204 1652.05
128.296 876.758 1653.03
128.885 877.224 1662.69
132.699 872.224 1647.68
132.61 872.287 1647.53
132.557 872.432 1647.43
132.723 871.972 1647.67
132.502 872.388 1647.24
132.433 872.144 1647.05
134.787 869.517 1648.21
135.049 868.179 1648.11
134.601 867.683 1647.79
134.621 867.381 1647.74
134.527 867.128 1647.57
134.612 867.255 1647.68
133.796 871.066 1648.02
133 871.6 1647.79
134.273 866.919 1647.29
134.454 866.855 1647.47
132.979 871.774 1647.85
132.841 871.852 1647.78
132.675 871.671 1647.57
134.175 866.735 1647.07
133.996 866.659 1646.75
133.824 866.615 1646.44
133.656 866.559 1646.07
133.296 866.469 1645.14
133.282 865.688 1644.57
133.608 864.719 1644.69
136.502 860.99 1645.63
137.344 860.799 1645.62
135.426 859.915 1643.92
135.203 859.845 1643.73
133.446 864.074 1643.87
133.357 863.649 1643.49
133.262 863.217 1642.86
133.206 862.526 1641.8
133.337 861.482 1641.09
133.719 860.822 1641.85
133.492 860.746 1640.77
133.375 860.516 1640.11
133.576 860.081 1640.04
133.982 859.258 1639.67
134.246 858.811 1639.84
134.348 858.637 1640
134.537 858.585 1640.71
134.633 858.58 1641.33
134.807 858.581 1641.57
134.909 858.628 1641.95
134.939 858.508 1641.66
135.053 858.787 1642.31
135.124 858.541 1641.91
135.317 858.6 1642.11
137.539 860.748 1645.66
132.762 878.608 1647.98
129.041 879.213 1650.18
130.894 878.775 1649.17
129.279 879.173 1650.01
132.75 878.904 1647.71
128.194 877.119 1652.87
128.542 877.93 1651.81
128.719 878.841 1650.91
128.799 879.233 1650.44
133.116 878.913 1647.44
132.95 878.951 1647.56
133.222 878.769 1647.41
133.285 878.633 1647.43
132.829 877.333 1648.2
133.375 878.271 1647.36
133.44 878.369 1647.23
133.403 878.451 1647.32
133.415 878.544 1647.27
132.424 876.022 1648.54
132.875 877.215 1648.07
132.903 877.125 1647.96
132.44 876.128 1648.56
132.465 873.059 1646.11
132.406 872.711 1646.28
132.401 872.498 1646.56
132.458 872.706 1646.82
132.432 872.342 1646.89
132.435 875.578 1647.58
132.475 875.267 1646.68
132.51 876.069 1648.21
132.548 874.718 1646.23
132.59 873.811 1645.76
132.53 873.342 1645.71
137.945 859.768 1644.85
138.191 859.389 1644.53
138.368 859.218 1644.46
138.495 859.039 1644.27
137.584 859.994 1644.9
137.758 859.813 1644.77
141.074 858.194 1646.06
141.974 858.585 1646.42
143.055 858.666 1646.4
141.735 857.116 1645.19
142.532 855.265 1641.75
141.472 856.097 1642.65
141.865 856.748 1644.89
142.616 856.582 1644.83
142.934 856.531 1644.82
143.489 853.982 1640.32
143.741 853.899 1640.4
144.015 853.843 1640.45
142.51 855.142 1641.28
142.997 854.325 1640.31
143.262 854.056 1640.19
143.811 856.09 1644.64
143.346 856.298 1644.78
143.581 856.227 1644.79
143.215 856.515 1644.84
143.385 856.461 1644.86
145.743 854.23 1641.77
145.663 853.955 1641.23
145.862 853.885 1641.23
144.535 853.172 1639.53
145.477 853.43 1640.28
145.275 853.021 1639.58
144.351 855.343 1643.72
144.013 855.717 1644.15
143.982 855.97 1644.54
145.246 854.84 1642.99
145.882 854.45 1642.35
146.103 854.188 1642
145.942 854.138 1641.75
143.789 858.548 1646.33
143.766 858.428 1646.19
143.545 858.681 1646.39
143.515 858.712 1646.42
143.547 858.493 1646.2
143.642 858.395 1646.14
143.426 858.647 1646.33
138.579 858.847 1643.92
138.99 858.515 1643.6
139.881 857.553 1643.3
139.411 858.053 1642.96
140.468 856.899 1643.31
141.243 856.206 1642.31
144.005 858.151 1646.12
143.926 858.348 1646.23
143.875 858.338 1646.17
141.119 857.401 1653.56
140.602 856.415 1653.96
140.533 856.233 1654.13
140.679 856.574 1653.6
141.342 857.549 1652.58
140.261 855.6 1653.56
141.772 855.836 1650.08
140.752 855.761 1651.43
140.875 855.66 1651.2
140.714 855.888 1651.59
143.829 855.795 1646.69
143.135 855.355 1648.21
142.91 855.854 1648.62
143.596 855.271 1647.16
143.971 856.003 1646.3
141.215 856.974 1651.73
141.061 856.875 1652.07
140.503 855.749 1651.9
140.522 855.91 1652.02
140.216 854.928 1653.65
140.176 855.116 1653.51
140.187 855.29 1653.41
140.215 855.456 1653.35
140.235 854.756 1653.57
144.038 855.734 1646.04
144.101 855.741 1645.79
144.081 855.931 1645.79
144.103 856.265 1645.65
144.108 856.327 1645.59
144.104 856.057 1645.6
144.113 855.941 1645.64
144.111 856.416 1645.53
144.112 856.523 1645.48
144.105 857.272 1645.78
144.113 858.014 1646.1
144.083 857.295 1645.74
144.094 856.569 1645.42
144.083 858.045 1646.06
140.364 854.551 1652.35
140.314 854.485 1652.67
140.298 854.427 1652.93
140.603 854.517 1651.89
140.458 854.585 1652.08
140.773 854.619 1651.51
141.703 854.749 1650.34
142.705 854.776 1649.12
141.713 854.907 1650.23
142.936 854.746 1648.76
143.1 854.765 1648.41
140.255 854.638 1653.36
140.262 854.526 1653.1
146.51 853.552 1641.2
146.38 853.894 1641.77
144.625 852.3 1636.86
144.494 852.261 1636.68
143.646 852.512 1636.36
145.536 852.336 1638.24
146.292 852.959 1640.18
146.505 853.343 1640.87
144.67 852.38 1637.04
144.764 855.014 1644.54
144.694 855.028 1644.67
144.799 855.047 1644.43
146.188 854.315 1642.55
146.337 854.13 1642.14
146.164 854.326 1642.46
145.5 854.724 1643.32
144.814 855.108 1644.27
142.422 852.912 1635.82
141.393 853.787 1635.52
140.536 854.767 1635.19
139.871 855.972 1635.24
138.715 856.014 1634.45
139.974 853.699 1633.98
138.159 855.908 1633.98
140.035 853.435 1633.78
140.582 852.471 1633.75
140.918 851.685 1633.48
141.39 850.548 1633.59
141.364 850.43 1633.37
141.53 849.672 1632.61
141.517 849.913 1633.28
141.091 850.505 1632.37
141.148 850.627 1632.97
140.925 851.172 1632.74
140.753 851.172 1632.34
140.651 851.299 1632.1
141.5 849.806 1631.81
141.719 849.479 1631.19
141.795 849.277 1631.18
141.783 849.311 1630.99
142.01 848.657 1631.02
141.917 848.717 1630.74
141.59 848.886 1630.08
141.304 849.222 1629.62
143.681 854.749 1647.01
144.172 855.111 1645.78
144.305 855.187 1645.41
144.204 855.274 1645.59
144.41 855.161 1645.14
144.425 855.261 1645.03
144.477 855.308 1644.85
130.536 878.544 1662.88
128.872 877.571 1662.41
128.316 877.822 1661.67
128.045 877.896 1661.25
127.726 877.564 1661.07
127.544 877.474 1660.81
127.369 877.41 1660.48
127.201 877.299 1659.91
127.156 877.257 1659.57
127.118 877.121 1659.21
127.318 876.93 1657.88
127.382 877.149 1657.94
127.605 877.087 1656.36
127.829 878.166 1653.92
127.589 876.934 1655.94
127.939 878.652 1652.88
128.163 879.632 1651.81
128.227 880.463 1650.33
128.269 880.582 1649.88
128.244 879.423 1651.58
128.297 879.385 1651.37
128.346 879.316 1651.21
128.376 878.079 1651.95
128.431 879.175 1651.1
132.562 871.814 1647.46
132.469 871.773 1647.34
132.45 871.88 1647.27
132.571 871.575 1647.42
132.418 871.857 1647.14
132.123 871.446 1646.57
132.143 871.33 1646.7
134.074 868.688 1647.78
134.521 869.802 1648.13
133.769 870.767 1647.93
133.854 871.007 1648.01
133.764 868.328 1647.55
134.326 867.588 1647.61
134.297 867.389 1647.51
134.105 867.272 1647.3
133.207 871.1 1647.77
133.063 871.337 1647.76
132.823 871.536 1647.65
132.978 871.241 1647.68
133.973 867.071 1647.07
132.398 870.816 1647.25
132.525 870.728 1647.35
133.87 866.937 1646.86
133.738 866.892 1646.61
