137.972 824.618 1474.79
138.005 824.772 1474.63
138.002 824.976 1474.56
137.235 825.532 1475.79
137.4 825.748 1475.49
139.73 826.725 1471.41
137.99 826.467 1474.68
138.331 827.134 1474.4
137.644 826.003 1475.12
138.384 827.797 1474.74
141.4 832.972 1476.08
141.356 832.635 1476.02
137.77 828.617 1451.48
137.819 828.588 1451.79
137.751 828.862 1451.36
137.772 829.109 1451.11
137.97 830.018 1450.05
138.141 830.587 1448.66
138.203 830.349 1448.13
138.152 830.559 1448.24
138.456 829.171 1447.94
138.269 830.024 1448.08
138.937 826.802 1445.72
138.598 828.451 1447.4
137.863 829.233 1451.89
137.965 829.534 1451.83
137.746 828.899 1451.59
137.78 829.099 1451.67
138.263 830.248 1451.6
138.075 829.991 1451.38
138.718 831.821 1449.25
139.184 826.481 1444.09
139.238 826.373 1444.1
139.294 826.344 1444.18
139.304 826.511 1444.51
139.246 826.5 1444.25
139.268 826.55 1444.41
139.254 826.695 1444.75
139.293 826.614 1444.87
138.995 827.143 1445.7
138.695 827.003 1444.18
138.5 827.299 1444.35
138.287 827.385 1444.34
137.601 828.431 1445.35
137.485 828.476 1445.34
137.225 829.097 1446.13
137.063 829.185 1446.22
136.597 829.264 1446.3
135.53 829.183 1446.41
134.186 829.086 1446.52
136.799 829.2 1446.23
134.09 829.23 1446.65
133.861 829.387 1446.73
129.89 831.966 1444.72
132.244 830.269 1446.4
130.166 831.87 1444.97
131.588 830.843 1446.07
130.204 831.991 1445.03
133.174 829.935 1446.78
133.449 829.682 1446.79
132.812 830.126 1446.66
133.793 829.517 1446.78
133.633 829.65 1446.81
128.256 833.39 1443.3
128 833.728 1442.92
127.695 834.115 1442.27
127.489 834.428 1441.72
127.244 834.185 1440.16
127.194 834.316 1439.9
126.794 833.799 1437.4
126.704 834.05 1436.93
126.533 834.267 1436.48
126.195 834.562 1436.04
125.864 834.648 1435.57
138.919 826.724 1444.04
139.042 826.617 1444.01
139.043 826.689 1444.08
139.127 826.669 1444.15
125.708 835.052 1434.53
125.837 835.169 1434.03
126.177 835.091 1433.25
127.174 835.259 1431.48
126.071 835.27 1433.47
125.717 835.12 1434.75
125.772 834.806 1435.39
125.768 834.895 1435.34
125.69 834.885 1435.2
125.844 834.758 1435.57
125.717 835.067 1434.99
140.142 834.823 1486.91
139.825 834.742 1484.74
139.975 834.188 1485.78
136.824 829.8 1485.54
136.623 829.538 1485.55
136.341 829.055 1485.44
136.486 829.403 1485.34
139.314 832.999 1484.37
139.038 832.517 1484.53
137.95 831.131 1485.04
139.521 833.33 1484.43
139.646 833.474 1484.72
139.918 833.917 1485.49
139.851 833.618 1485.32
139.771 833.443 1485.11
136.15 828.699 1484.78
136.304 829.059 1485.22
136.327 829.151 1485
136.212 828.689 1484.45
136.504 828.381 1483.28
136.493 827.644 1482.07
136.295 826.764 1479.79
136.196 826.199 1477.92
136.236 826.599 1478.65
136.28 826.471 1478.06
136.552 827.436 1481.08
136.454 826.161 1477.24
137.987 824.386 1474.94
139.215 822.456 1472.92
139.307 822.369 1473
139.098 822.558 1472.79
139.408 822.241 1473.01
139.432 822.379 1473.24
138.974 822.642 1472.64
138.881 822.748 1472.52
139.56 822.219 1473.17
139.509 821.659 1472.5
139.537 822.019 1472.91
139.436 821.963 1472.69
139.312 821.847 1472.4
139.159 821.907 1472.22
139.019 821.947 1471.98
138.957 822.426 1472.3
136.574 826.54 1477.29
138.546 828.255 1474.88
136.672 826.892 1477.49
141.342 833.661 1476.99
141.289 832.479 1476.28
141.365 833.216 1477.36
141.254 834.111 1478.5
141.323 833.146 1477.92
141.211 832.301 1476.48
140.682 831.201 1475.07
141.078 832.213 1477.2
138.258 828.332 1475.7
137.772 829.198 1451.36
137.833 829.478 1451.35
138.08 830.512 1449.72
138.166 830.777 1448.49
138.198 830.461 1447.76
138.119 830.764 1448.15
138.117 830.583 1447.98
138.127 830.66 1448.14
138.356 829.616 1447.79
138.654 828.011 1446.81
137.822 829.379 1451.51
137.885 829.539 1451.57
137.951 829.772 1451.34
138.165 830.646 1449.78
138.447 831.626 1448.09
138.308 831.308 1448.26
139.197 826.575 1444.19
139.211 826.753 1444.65
139.221 826.678 1444.44
139.172 826.708 1444.35
138.934 827.259 1445.56
138.879 827.349 1445.41
138.635 827.977 1446.49
138.67 827.232 1444.38
138.8 826.973 1444.22
138.768 826.919 1444.15
137.908 828.234 1445.21
138.047 828.162 1445.19
137.747 828.347 1445.28
137.551 829.094 1446.16
137.376 829.253 1446.29
136.902 829.325 1446.36
137.159 829.372 1446.41
136.674 829.508 1446.49
136.777 829.395 1446.42
135.538 829.365 1446.55
134.209 829.363 1446.73
134.152 829.501 1446.79
128.73 833.122 1443.79
132.591 830.356 1446.57
132.122 830.661 1446.4
131.398 831.241 1446.01
130.226 832.153 1445.08
128.806 833.227 1443.88
133.369 829.926 1446.84
132.999 830.194 1446.77
134.073 829.639 1446.84
133.544 829.879 1446.87
133.746 829.702 1446.85
128.18 833.61 1443.2
127.938 834.056 1442.75
127.645 834.365 1442.11
127.512 834.705 1441.59
127.206 834.515 1439.83
126.835 834.159 1437.42
126.75 834.332 1437.03
126.651 834.453 1436.7
126.241 834.699 1436.15
138.916 826.892 1444.22
139.046 826.816 1444.31
125.793 835.271 1434.41
125.965 835.509 1433.91
126.038 835.508 1433.61
127.064 835.747 1431.66
127.08 835.492 1431.61
127.003 835.962 1431.84
125.798 835.339 1434.67
125.856 834.872 1435.57
125.81 834.988 1435.39
125.751 834.991 1435.27
125.863 835.423 1434.82
125.795 835.185 1435.09
139.879 837.33 1488.88
139.725 835.8 1485.94
139.694 835.308 1484.17
139.79 834.991 1483.93
139.79 834.718 1483.92
139.786 834.571 1484.25
139.839 834.467 1484.72
136.793 829.809 1485.36
136.773 829.817 1485.15
136.455 829.385 1485.1
139.12 832.775 1484.14
139.425 833.283 1484.03
137.979 831.256 1484.74
139.567 833.527 1484.39
139.717 833.791 1484.67
139.813 834.117 1484.74
136.52 829.367 1484.61
136.514 829.183 1484.31
136.685 829.664 1484.86
136.844 828.881 1483
136.67 827.916 1481.92
136.452 827.063 1479.68
136.411 826.805 1478.3
136.753 827.831 1481.24
139.141 822.248 1472.52
139.274 822.161 1472.67
139.044 822.337 1472.4
136.802 827.251 1477.84
141.242 834.097 1477.1
140.872 834.493 1475.98
141.083 834.65 1477.3
141.162 834.982 1478.65
141.243 832.727 1477.52
141.286 833.92 1478.75
141.173 834.556 1479.21
141.103 835.062 1479.25
141.174 833.208 1478.83
141.184 833.724 1479.14
140.285 830.721 1475.85
140.754 831.621 1477.34
140.759 832.067 1478.45
141.099 832.767 1478.5
138.098 828.444 1476.52
138.168 830.972 1448.31
138.146 830.44 1447.85
138.178 830.225 1447.77
138.189 830.187 1447.9
138.103 830.896 1447.99
138.075 830.726 1447.88
138.263 829.844 1447.65
138.508 828.666 1447.06
138.248 831.29 1447.95
138.341 831.536 1447.72
138.159 831.066 1448.07
138.737 832.413 1447.33
139.114 826.882 1444.58
138.795 827.47 1445.32
139.02 826.939 1444.47
138.566 828.115 1446.36
138.471 828.258 1446.26
138.796 827.154 1444.39
138.175 828.059 1445.15
137.747 829.056 1446.17
137.9 828.953 1446.16
137.605 829.404 1446.46
137.423 829.498 1446.54
137.029 829.403 1446.44
136.955 829.516 1446.51
137.233 829.562 1446.57
136.557 829.682 1446.59
136.794 829.692 1446.59
135.494 829.539 1446.65
135.372 829.72 1446.73
132.877 830.417 1446.75
132.471 830.692 1446.6
131.746 831.133 1446.22
130.443 832.354 1445.26
130.055 832.467 1444.96
128.78 833.486 1443.81
128.162 833.832 1443.1
133.203 830.14 1446.83
135.307 829.93 1446.8
134.199 829.875 1446.9
133.709 829.907 1446.89
133.447 830.111 1446.89
127.965 834.36 1442.64
127.756 834.687 1442.21
127.637 834.855 1441.85
127.566 835.003 1441.42
127.23 834.748 1439.65
126.919 834.544 1437.63
126.833 834.489 1437.22
126.707 834.61 1436.88
126.27 834.848 1436.21
138.896 827.059 1444.42
125.905 835.535 1434.26
126.092 835.82 1433.83
126.107 835.738 1433.63
127.167 836.318 1431.68
127.223 836.648 1431.83
125.961 835.686 1434.37
125.9 834.959 1435.6
125.879 835.075 1435.49
125.858 835.198 1435.3
125.914 835.415 1435.09
125.995 835.714 1434.66
139.755 837.38 1488.41
139.613 836.294 1486
139.598 835.554 1484.42
139.587 835.518 1483.82
139.702 835.231 1483.65
139.778 835.027 1483.48
139.854 834.818 1483.39
139.812 834.428 1483.76
139.847 834.573 1483.52
139.767 834.306 1484.23
137.977 831.285 1484.48
139.091 832.734 1483.79
139.579 833.668 1483.99
139.439 833.306 1483.57
139.67 833.905 1484.27
137.911 831.042 1483.66
137.972 831.22 1483.91
137.911 831.195 1484.21
137.774 830.261 1482.79
137.124 828.293 1481.04
136.645 827.33 1479.43
136.983 827.703 1479.2
140.961 835.737 1478.85
140.796 835.51 1477.5
140.819 836.101 1478.37
140.817 836.176 1478.67
140.985 835.526 1479.31
141.01 834.495 1479.86
140.94 835.075 1480.11
140.851 835.537 1480.09
140.463 833.593 1480.95
140.479 834.087 1481.26
140.433 834.509 1481.54
138.724 829.303 1477.69
140.311 831.233 1478.25
138.67 829.61 1479.51
140.239 832.948 1480.83
139.586 831.826 1480.96
140.33 831.606 1479.01
138.916 830.245 1480.25
138.158 830.493 1447.65
138.105 830.624 1447.75
138.132 830.197 1447.51
138.067 830.849 1447.76
138.104 831.022 1447.79
138.042 830.7 1447.72
138.253 829.721 1447.42
138.438 828.738 1446.91
138.136 831.211 1447.63
138.263 831.573 1447.55
138.607 832.338 1447.22
138.683 827.603 1445.25
138.383 828.306 1446.11
138.581 827.754 1445.24
138.356 828.895 1446.87
138.304 828.737 1446.55
138.352 827.916 1445.1
138.016 828.802 1446.07
137.791 829.23 1446.37
137.913 829.209 1446.45
137.548 829.642 1446.65
137.758 829.471 1446.61
137.322 829.759 1446.69
137.102 829.686 1446.64
136.462 829.834 1446.65
136.73 829.894 1446.68
137.061 829.874 1446.73
136.404 830.009 1446.7
132.861 830.652 1446.76
133.218 830.358 1446.85
132.22 831.058 1446.46
131.388 831.731 1445.98
130.163 832.774 1444.99
129.019 833.445 1444.03
128.239 833.977 1443.16
135.248 830.193 1446.85
136.332 830.234 1446.74
134.106 830.127 1446.92
133.572 830.169 1446.9
128.039 834.652 1442.58
127.94 835.132 1442.12
127.788 835.191 1441.84
127.778 835.663 1441.33
127.263 834.896 1439.63
127.373 835.15 1439.81
126.964 834.91 1437.5
126.863 834.751 1437.2
126.707 834.765 1436.92
126.312 834.994 1436.25
138.519 827.946 1445.28
126.199 836.029 1433.88
127.324 837.026 1432.06
127.324 837.218 1432.46
126.221 836.084 1434.14
125.939 835.174 1435.54
126.352 835.146 1436.22
125.986 835.363 1435.38
126.013 835.588 1435.05
126.075 835.525 1435.34
126.114 835.835 1434.84
126.252 836.128 1434.4
139.717 837.744 1488.59
139.512 836.455 1486.1
139.501 835.816 1484.61
139.463 835.781 1484.01
139.691 835.388 1483.35
139.579 835.694 1483.4
139.826 835.207 1483.03
139.927 834.983 1482.93
139.952 834.707 1482.98
139.9 834.415 1483.15
139.806 834.147 1483.33
139.683 833.997 1483.94
139.126 832.763 1483.48
139.714 833.805 1483.3
139.362 833.022 1483.06
139.327 832.784 1482.77
140.827 836.003 1479.34
140.724 836.362 1479.11
140.584 835.122 1476.36
140.666 836.361 1478.25
140.638 835.774 1477.45
140.669 836.46 1478.46
140.613 836.626 1478.76
140.828 835.844 1479.73
140.412 834.891 1481.66
140.354 835.271 1481.7
140.248 835.609 1481.75
140.681 835.964 1480.24
139.945 834.209 1482.81
139.751 833.639 1482.73
138.09 830.627 1447.59
138.107 830.448 1447.5
138.147 829.941 1447.36
138.06 830.969 1447.65
138.031 830.814 1447.66
138.005 830.704 1447.61
138.238 829.394 1447.09
138.105 831.303 1447.45
138.037 831.074 1447.48
138.14 831.504 1447.35
138.517 832.352 1447.04
138.238 828.522 1446.13
138.12 828.639 1446.03
138.226 828.91 1446.58
138.054 829.019 1446.38
137.934 829.454 1446.71
137.743 829.751 1446.79
137.463 829.902 1446.76
137.735 829.67 1446.82
137.286 829.976 1446.77
136.854 830.127 1446.79
137.094 830.091 1446.8
136.654 830.184 1446.74
133.345 830.495 1446.87
133.115 830.789 1446.8
132.61 831.095 1446.62
131.548 831.911 1446
130.366 832.962 1445.07
129.236 833.564 1444.17
128.625 834.131 1443.45
128.24 834.605 1442.86
135.238 830.438 1446.85
136.367 830.464 1446.77
136.668 830.395 1446.78
134.19 830.418 1446.93
133.749 830.377 1446.91
128.132 835.252 1442.33
128.002 835.808 1441.74
128.128 835.857 1441.89
127.903 835.84 1441.49
128.049 836.231 1441.18
127.523 835.495 1439.8
127.067 835.066 1437.78
127.178 835.406 1437.7
127.029 835.209 1437.4
126.863 834.994 1437.13
127.309 837.317 1432.82
127.348 837.399 1433.04
126.414 835.325 1436.19
126.907 835.236 1437.04
126.503 835.519 1436.16
126.165 835.724 1435.2
126.717 835.829 1436.14
126.354 836.204 1434.63
126.292 835.976 1435.01
127.335 837.386 1433.33
139.594 837.778 1488.35
139.422 836.712 1486.28
139.402 836.132 1484.95
139.35 835.995 1484.22
139.352 836.013 1483.89
139.419 835.969 1483.56
139.742 835.483 1483.01
139.631 835.741 1483.02
140.719 836.144 1479.68
140.549 836.73 1479.2
140.583 836.498 1479.58
140.567 836.554 1478.21
140.563 836.703 1478.45
140.504 835.945 1477.4
140.407 836.936 1478.92
140.101 835.931 1481.75
140.568 836.322 1480.1
138.012 830.648 1447.52
138.029 830.564 1447.46
138.063 830.318 1447.38
138.053 830.059 1447.23
138.121 829.797 1447.18
138.013 830.882 1447.56
137.969 830.769 1447.5
138.163 829.338 1446.86
138.018 831.229 1447.28
137.989 831.007 1447.37
138.021 831.41 1447.19
138.404 832.396 1446.85
138.155 828.91 1446.43
138.087 829.282 1446.66
137.845 829.796 1446.97
138.013 829.715 1447.01
137.546 829.993 1446.87
137.626 830.033 1447.03
137.433 830.086 1446.84
137.263 830.166 1446.84
136.873 830.342 1446.86
137.065 830.266 1446.87
133.429 830.825 1446.83
133.887 830.646 1446.89
133.006 831.275 1446.62
132.154 831.674 1446.27
131.309 832.766 1445.63
130.247 833.416 1444.86
129.215 834.073 1443.93
128.459 834.848 1442.94
136.235 830.657 1446.77
135.252 830.741 1446.81
136.72 830.565 1446.82
136.615 830.72 1446.76
136.87 830.457 1446.88
128.397 835.875 1442.21
128.243 835.897 1442.03
128.256 836.308 1441.67
128.14 836.272 1441.47
128.343 836.245 1441.85
128.36 836.755 1441.15
128.333 836.8 1440.87
127.754 835.889 1439.89
127.287 835.592 1437.8
127.055 835.446 1437.22
127.17 835.498 1437.51
127.132 835.591 1437.28
126.975 836.188 1436.06
127.362 835.879 1437.46
127.461 837.494 1433.6
126.555 836.311 1434.89
139.472 837.877 1488.2
139.336 837.893 1487.94
139.311 836.622 1485.85
139.204 836.349 1485.05
139.194 836.217 1484.42
139.207 836.19 1483.86
139.321 836.155 1483.37
139.517 836.001 1482.98
139.936 836.242 1481.72
140.345 836.971 1479.36
140.383 836.844 1479.63
140.347 836.681 1480.11
140.511 836.598 1478.15
140.454 836.826 1478.39
140.397 836.947 1478.64
140.409 836.096 1477.39
140.237 837.119 1479
137.92 830.657 1447.43
137.883 830.548 1447.33
137.953 830.414 1447.3
137.923 830.118 1447.11
137.977 829.937 1447.1
137.9 830.846 1447.35
137.921 831.234 1447.14
137.899 831.04 1447.24
137.951 831.444 1447.06
138.268 832.454 1446.68
137.805 830.028 1447.04
137.444 830.175 1446.91
137.656 830.084 1446.96
137.365 830.225 1446.9
137.223 830.333 1446.94
137.041 830.39 1446.94
133.865 830.96 1446.82
133.532 831.292 1446.67
135.209 831.043 1446.75
133.024 831.548 1446.49
132.091 832.396 1445.98
131.171 833.402 1445.29
130.648 833.494 1445.04
129.896 834.132 1444.32
128.916 834.872 1443.27
128.609 835.701 1442.51
136.466 830.911 1446.73
136.757 830.794 1446.79
136.907 830.598 1446.89
128.557 836.506 1441.87
128.756 836.459 1442.1
128.578 836.805 1441.6
128.459 836.788 1441.38
129.179 837.937 1440.39
129.231 837.961 1440.61
128.06 836.401 1439.83
129.181 837.948 1440.12
127.56 835.913 1438.16
127.397 835.767 1437.85
127.3 836.641 1435.78
127.855 836.578 1437.4
127.657 836.224 1437.7
127.694 837.594 1434.09
139.204 837.098 1486.46
139.21 838.115 1488.03
139.088 836.643 1485.55
139.012 836.504 1484.99
139.049 836.397 1484.6
139.027 836.371 1484.03
139.061 836.389 1483.55
139.289 836.303 1482.98
139.729 836.529 1481.72
140.19 837.091 1479.64
140.173 837.154 1479.41
140.122 836.946 1480.21
140.444 836.718 1478.19
140.327 836.938 1478.42
140.276 837.056 1478.65
140.13 837.238 1478.88
140.045 837.29 1479.29
137.816 830.678 1447.35
137.803 830.432 1447.16
137.771 830.544 1447.24
137.744 830.247 1447.07
137.776 830.848 1447.24
137.77 831.037 1447.13
137.852 831.262 1447.04
137.861 831.469 1446.93
138.121 832.465 1446.56
136.505 838.262 1446.66
137.608 830.311 1447.02
137.422 830.369 1446.96
137.105 830.512 1446.96
137.287 830.543 1446.93
135.146 831.445 1446.64
135.12 832.015 1446.43
133.43 831.928 1446.41
132.762 832.2 1446.19
136.461 831.171 1446.68
132.088 833.203 1445.63
131.345 833.724 1445.17
130.307 834.338 1444.39
129.223 835.464 1443.09
128.913 836.23 1442.39
136.717 831.087 1446.72
136.835 830.923 1446.79
136.996 830.732 1446.88
129.535 837.788 1441.38
129.443 837.865 1441.19
129.662 837.706 1441.55
129.793 837.573 1441.75
129.354 837.923 1441
129.276 837.944 1440.8
130.16 839.184 1439.99
130.218 839.229 1440.12
130.264 839.183 1440.3
128.463 836.976 1439.55
128.138 836.591 1438.4
127.728 836.119 1438.29
129.383 838.027 1438.28
129.83 838.744 1439.6
130.133 839.156 1439.81
128.987 837.868 1436.32
127.993 836.527 1438.03
129.158 837.896 1436.85
139.06 838.309 1488.06
138.903 837.247 1486.37
138.809 836.934 1485.77
138.907 836.671 1485.32
138.715 836.713 1484.99
138.813 836.593 1484.77
138.796 836.577 1484.36
138.813 836.559 1483.84
138.977 836.563 1483.22
139.494 836.82 1481.63
139.897 837.183 1480.16
139.721 837.401 1479.91
139.973 837.308 1479.55
140.345 836.824 1478.22
140.198 837.114 1478.61
140.192 837.049 1478.44
139.976 837.376 1478.89
139.795 837.476 1479.33
140.083 837.242 1478.68
139.558 837.566 1479.74
137.713 830.651 1447.25
137.676 830.48 1447.14
137.669 830.795 1447.16
137.727 831.156 1447.01
137.644 830.945 1447.06
137.736 831.561 1446.82
137.683 831.28 1446.92
137.951 832.472 1446.47
136.392 837.916 1445.83
136.316 838.606 1446.94
135.948 838.107 1445.49
136.004 837.946 1445.34
136.432 837.725 1445.69
136.908 837.027 1446.01
136.53 836.88 1445.39
137.542 830.508 1447.04
137.441 830.527 1446.92
137.156 830.696 1446.9
137.294 830.832 1446.86
137.329 830.679 1446.89
137.427 830.686 1446.95
136.637 831.497 1446.6
134.342 833.224 1445.84
133.505 834.229 1445.21
132.369 835.075 1444.41
130.883 835.866 1443.45
130.155 836.794 1442.51
129.926 837.283 1442.05
136.91 831.318 1446.68
136.966 831.071 1446.77
137.04 830.885 1446.82
130.415 838.964 1440.78
130.564 838.866 1440.99
130.261 839.005 1440.56
130.756 838.526 1441.4
130.284 839.402 1440.1
130.25 839.373 1439.84
130.391 839.43 1440.25
130.48 839.398 1440.41
129.269 837.92 1437.34
130.213 839.254 1439.56
138.875 838.19 1487.74
138.665 837.395 1486.42
137.768 837.536 1485.97
137.756 837.322 1485.57
138.689 836.822 1485.33
138.475 836.787 1484.73
137.445 837.268 1484.91
137.615 837.247 1485.18
138.51 836.75 1484.32
138.476 836.787 1484
138.626 836.768 1483.53
139.125 837.106 1481.74
139.159 837.639 1480.37
139.371 837.469 1480.46
138.584 837.403 1481.92
140.211 836.932 1478.25
140.067 837.179 1478.51
139.53 837.625 1479.32
139.823 837.424 1478.81
139.225 837.737 1479.78
139.128 837.731 1480.09
135.944 836.186 1472.43
137.607 830.631 1447.16
137.543 830.8 1447.05
137.569 831.05 1446.96
137.532 831.226 1446.87
137.586 831.558 1446.75
137.766 832.493 1446.38
136.103 837.81 1445.35
136.035 838.785 1446.91
135.581 838.231 1445.25
135.256 838.103 1444.64
135.293 838.002 1444.54
135.613 837.843 1444.81
136.08 837.635 1445.22
135.935 837.52 1444.91
136.342 836.839 1445.12
135.618 837.508 1444.52
135.606 837.445 1444.48
136.044 836.785 1444.84
137.453 830.934 1446.92
137.402 831.056 1446.84
137.206 831.06 1446.81
136.895 831.589 1446.59
137.266 832.728 1446.18
135.013 835.089 1444.92
133.416 836.218 1443.83
131.564 837.406 1442.55
131.028 838.1 1441.85
137.119 831.581 1446.63
137.153 831.289 1446.74
130.759 839.37 1440.71
130.766 839.17 1440.88
130.509 839.243 1440.61
130.901 838.885 1441.21
131.203 838.509 1441.67
130.43 839.537 1440.27
130.35 839.545 1440
130.345 839.573 1439.71
130.337 839.485 1439.48
130.569 839.564 1440.4
130.688 839.508 1440.55
137.624 838.4 1487.24
136.61 838.576 1486.68
136.404 838.005 1485.53
136.607 837.767 1485.31
137.399 837.272 1484.64
136.401 837.738 1484.72
136.425 837.771 1484.99
137.349 837.307 1484.35
136.714 837.739 1483.72
138.221 837.022 1483.57
138.786 837.837 1480.42
137.727 837.792 1482.1
140.06 837.083 1478.34
139.876 837.313 1478.58
139.277 837.72 1479.22
138.899 837.898 1479.65
139.427 837.61 1478.91
138.716 837.939 1480.15
136.11 836.058 1472.94
134.019 836.263 1474.03
134.414 836.143 1474.16
134.242 836.741 1472.3
134.274 837.249 1470.82
137.396 831.265 1446.8
137.358 831.577 1446.69
137.536 832.559 1446.29
136.02 839.101 1447.48
134.918 838.548 1445.34
134.249 838.322 1444.18
134.124 838.238 1443.89
134.059 838.19 1443.73
135.859 839.248 1447.64
134.02 838.157 1443.61
135.075 837.879 1444.16
133.997 838.128 1443.53
135.395 837.737 1444.4
135.449 837.601 1444.36
135.461 837.421 1444.29
135.194 837.421 1444.04
135.195 837.506 1444.05
135.895 836.704 1444.7
135.032 837.39 1443.9
135.637 836.678 1444.5
136.41 835.756 1445.17
135.43 835.302 1444.92
133.781 836.488 1443.78
132.172 837.504 1442.74
131.614 837.96 1442.22
131.106 839.138 1441.18
130.965 839.459 1440.85
131.335 838.71 1441.63
131.692 838.147 1442.17
130.446 839.632 1440.23
130.6 839.644 1440.41
130.425 839.684 1439.88
130.46 839.782 1439.57
130.505 839.752 1439.28
130.816 839.681 1440.55
135.613 840.573 1488.9
136.205 838.582 1486.19
136.144 838.044 1485.27
135.162 838.937 1485.13
135.742 838.218 1484.07
135.413 838.472 1484.35
136.111 837.927 1484.59
135.078 838.758 1484.44
135.841 838.155 1483.85
136.566 837.912 1483.29
134.993 838.797 1482.94
135.036 838.855 1482.23
136.932 838.332 1481.44
139.81 836.648 1477.51
139.781 837.217 1478.34
139.587 837.463 1478.63
138.929 837.824 1479.15
138.526 838.006 1479.58
136.542 838.535 1480.94
136.399 838.59 1480.57
139.178 837.689 1478.89
134.602 836.078 1474.61
133.738 836.289 1474.44
134.009 836.184 1474.63
133.54 836.45 1474.02
133.697 836.862 1472.58
133.438 837.427 1471.24
133.712 837.425 1470.73
134.235 837.373 1470.29
135.11 838.744 1445.96
133.398 838.441 1443.8
133 838.507 1443.41
133.045 838.462 1443.28
133.023 838.446 1443.16
135.643 839.252 1447.5
132.899 838.486 1443.03
134.83 837.828 1443.85
133.966 838.096 1443.44
132.933 838.434 1442.97
134.973 837.689 1443.91
134.781 837.638 1443.72
134.705 837.601 1443.66
134.733 837.752 1443.7
134.885 837.353 1443.79
134.626 837.549 1443.6
136.175 835.624 1445.08
135.464 836.622 1444.39
134.638 837.411 1443.61
135.637 835.626 1444.85
134.694 836.412 1444.1
133.366 837.129 1443.31
132.174 837.727 1442.61
131.382 839.006 1441.51
131.183 839.516 1441.02
131.568 838.661 1441.82
131.819 838.306 1442.15
132.162 837.933 1442.47
130.514 839.786 1440
130.627 839.753 1440.32
130.828 839.692 1440.6
130.574 839.968 1439.71
130.626 840.008 1439.26
134.926 841.166 1489.03
135.282 839.263 1485.92
135.004 838.898 1484.77
133.954 839.826 1484.79
133.823 839.773 1484.32
135.729 838.223 1484.21
134.068 839.275 1482.58
134.103 839.251 1482
133.44 839.634 1481.9
133.789 839.624 1483.82
133.23 839.814 1481.94
134.303 839.177 1481.19
133.336 837.523 1469.14
139.561 837.324 1478.32
139.315 837.549 1478.61
136.465 838.472 1479.72
136.318 838.526 1480.05
134.755 838.982 1480.58
138.885 837.735 1478.87
135.043 836.034 1475.12
134.075 836.176 1475.09
134.466 836.116 1475.21
133.702 836.254 1474.9
133.489 836.374 1474.56
133.354 836.497 1474.15
133.344 836.973 1472.75
132.92 837.555 1471.75
132.698 837.695 1471.45
132.91 837.652 1470.97
133.2 837.573 1470.6
133.768 837.449 1470.34
135.928 835.527 1445
135.954 835.848 1444.94
133.123 838.339 1459.37
135.169 838.94 1446.58
134.081 838.433 1444.51
133.523 838.443 1444.01
132.942 838.551 1443.59
132.715 838.662 1443.23
132.775 838.607 1443.12
132.752 838.593 1443.04
135.235 839.334 1447.72
135.428 839.296 1447.55
132.617 838.635 1442.83
132.597 838.655 1442.89
133.933 838.054 1443.36
133.911 838.03 1443.32
133.025 838.352 1442.93
132.668 838.556 1442.82
133.834 837.94 1443.25
133.875 837.984 1443.27
133.759 837.868 1443.21
133.642 837.712 1443.17
133.689 837.781 1443.17
135.186 836.676 1444.21
134.558 837.325 1443.58
133.591 837.588 1443.2
134.995 836.564 1444.16
133.433 837.317 1443.25
132.481 837.789 1442.75
131.574 838.972 1441.68
131.677 838.736 1441.85
131.277 839.541 1441.12
132.125 838.262 1442.32
132.265 838.081 1442.45
132.533 837.99 1442.67
130.685 840.136 1439.83
130.642 839.959 1440.19
130.76 839.932 1440.46
130.882 839.832 1440.58
130.716 840.216 1439.41
135.215 840.25 1487.64
134.666 840.505 1486.85
134.444 840.058 1485.87
133.85 840.577 1485.6
133.604 840.107 1484.48
133.483 839.935 1483.71
133.59 839.519 1480.68
133.292 839.652 1480.73
133.036 839.821 1480.59
132.97 840.058 1481.8
132.814 840.063 1480.78
134.231 839.16 1480.36
133.181 837.524 1467.89
134.046 837.635 1466.73
132.726 837.623 1469.58
131.32 838.031 1467.64
130.897 838.092 1468.36
139.271 836.904 1477.6
139.015 837.589 1478.6
134.77 838.907 1480.17
136.408 838.4 1479.46
134.641 838.899 1479.89
134.785 836.109 1475.66
135.268 836.095 1475.88
134.151 836.214 1475.77
133.919 836.238 1475.39
133.547 836.346 1474.99
133.296 836.484 1474.65
133.158 836.612 1474.24
133.11 837.047 1472.96
132.904 837.105 1473.26
132.543 837.694 1472.15
132.289 837.866 1471.84
132.212 837.907 1471.26
131.375 838.011 1469.65
133.3 838.209 1460.15
128.127 838.781 1464.19
129.096 838.661 1463.75
131.082 838.773 1460.1
131.385 838.939 1458.7
134.817 838.969 1446.63
134.321 838.54 1445.12
133.637 838.503 1444.55
133.246 838.518 1444.07
132.706 838.631 1443.75
132.496 838.749 1443.33
132.355 838.831 1442.99
132.513 838.731 1443
132.462 838.746 1442.88
134.829 839.387 1448.19
134.55 839.313 1447.82
134.222 839.016 1446.9
132.269 838.854 1442.59
132.388 838.754 1442.6
132.322 838.853 1442.72
132.863 838.383 1442.84
133.004 838.283 1442.85
132.538 838.612 1442.69
132.851 838.275 1442.79
132.833 838.222 1442.79
132.818 838.156 1442.8
132.617 838.101 1442.69
134.456 837.214 1443.57
133.497 837.469 1443.21
131.686 838.98 1441.82
131.759 838.751 1441.97
132.177 838.381 1442.33
131.541 839.313 1441.54
132.304 838.218 1442.46
130.805 840.379 1439.64
130.727 840.156 1440.03
130.976 840.089 1440.52
131.043 839.937 1440.67
130.788 840.097 1440.25
134.239 841.19 1487.47
133.657 841.469 1486.6
133.144 841.416 1485.39
132.941 841.109 1484.55
132.788 840.553 1482.54
132.696 840.413 1481.76
133.352 839.497 1480.34
133.846 839.244 1480.07
133.084 839.581 1480.04
132.777 839.624 1479.58
132.605 840.373 1480.91
132.578 839.846 1479.67
134.448 839.022 1480.12
134.55 838.081 1464.56
132.925 838.067 1466
129.55 838.542 1467.46
130.02 838.516 1466.59
132.08 838.508 1464.86
127.648 838.834 1467.57
139 837.009 1477.71
136.924 838.152 1479.09
134.834 838.738 1479.57
133.969 839.089 1479.75
134.323 838.886 1479.55
134.495 836.244 1476.26
134.09 836.309 1476.17
133.732 836.366 1475.68
133.497 836.42 1475.13
133.04 836.681 1474.46
133.208 836.553 1474.91
132.728 837.198 1473.5
132.288 837.788 1472.59
132.026 838.012 1472.28
131.973 838.044 1471.78
131.607 838.209 1471.59
131.054 838.202 1470.33
127.72 838.92 1468.52
134.151 838.04 1460.63
132.577 838.316 1461.01
127.55 838.897 1464.31
127.054 838.824 1466.02
126.5 838.921 1465.79
126.419 838.932 1466.29
130.428 838.607 1464.55
128.078 838.754 1466.74
130.166 838.838 1461.13
130.562 839.195 1459.48
130.668 839.241 1458.82
131.139 839.022 1458.21
131.599 839.197 1452.31
133.739 838.597 1445.34
133.239 838.595 1445
132.88 838.633 1444.72
133.242 838.578 1444.44
132.742 838.666 1444.27
132.416 838.765 1443.98
132.336 838.816 1443.52
132.227 838.923 1443.1
132.086 839.046 1442.92
132.226 838.936 1442.81
132.014 839.121 1442.78
132.07 839.053 1442.64
133.407 839.39 1449.75
131.704 839.295 1451.63
131.332 839.358 1451.24
132.767 839.318 1449.29
132.553 839.064 1448.15
133.412 838.685 1445.88
132.014 839.038 1442.5
132.052 838.922 1442.34
131.975 839.02 1442.38
132.218 838.743 1442.4
132.63 838.471 1442.73
132.342 838.582 1442.51
132.519 838.486 1442.62
132.486 838.386 1442.58
132.421 838.264 1442.55
131.853 838.811 1442.06
131.773 839.027 1441.96
132.112 838.483 1442.3
132.242 838.306 1442.41
131.492 839.544 1441.41
130.839 840.399 1439.82
130.81 840.484 1439.51
131.426 839.766 1441.27
130.969 840.231 1440.37
130.861 840.326 1440.08
130.82 840.564 1439.63
133.28 842.073 1486.7
132.537 842.538 1485.65
132.364 842.077 1484.69
132.517 841.217 1483.04
131.889 842.016 1481.93
131.744 842.067 1481.66
131.899 840.999 1480.52
133.377 839.332 1479.79
133.063 839.221 1479.15
133.159 838.875 1478.62
133.014 838.882 1478.37
132.471 839.676 1478.96
132.965 838.803 1478.04
134.077 838.386 1463.52
133.578 838.477 1463.21
126.271 838.998 1466.71
137.739 837.481 1478.21
134.991 838.563 1479.32
134.368 838.721 1479.31
133.341 839.165 1479.37
133.802 838.927 1479.3
137.331 837.559 1478.3
134.664 836.314 1476.69
134.31 836.353 1476.58
134.399 836.34 1476.63
134.186 836.376 1476.56
133.949 836.396 1476.25
133.449 836.488 1475.44
133.684 836.499 1476.12
133.005 836.719 1474.74
132.601 837.292 1473.7
132.456 837.427 1473.91
133.234 836.609 1475.18
132.046 837.954 1472.78
131.777 838.164 1472.44
131.696 838.211 1472.05
131.175 838.5 1472.05
130.816 838.546 1471.54
128.382 839.06 1470.18
126.338 839.109 1467.6
134.572 838.099 1461.66
133.964 838.26 1461.79
133.159 838.403 1462.08
131.969 838.53 1463
127.379 839.009 1464.12
126.359 839.007 1465.51
126.116 839.047 1466.14
130.051 839.175 1460.34
129.765 839.633 1459.56
129.826 839.649 1459.09
129.918 839.614 1458.72
130.487 839.336 1458.44
130.779 839.004 1454.15
130.917 839.324 1452.64
130.939 839.36 1451.98
133.096 838.635 1445.54
131.64 838.678 1446.48
132.402 838.697 1444.62
131.401 838.694 1446.17
132.677 838.626 1445.02
132.121 838.805 1444.42
131.912 839.008 1443.74
131.799 838.961 1444.2
131.965 839.083 1443.2
131.742 839.317 1442.92
131.718 839.396 1442.67
131.806 839.321 1442.53
131.793 839.291 1442.43
131.123 839.344 1450.81
130.715 839.405 1451.47
130.611 839.06 1449.61
131.706 838.763 1447.32
131.772 839.277 1442.28
131.786 839.2 1442.15
131.926 838.97 1442.15
132.028 838.785 1442.21
132.153 838.538 1442.34
131.765 839.164 1442
130.88 840.521 1439.77
131.465 839.811 1441.34
131.025 840.379 1440.31
130.943 840.473 1440.03
130.809 840.634 1439.7
130.907 840.592 1439.95
132.353 843.782 1486.88
132.033 843.444 1485.58
132.182 842.312 1484.61
132.063 842.39 1483.7
132.028 842.188 1482.85
131.713 843.116 1483.26
131.599 843.652 1483.95
131.557 842.291 1481.6
131.488 843.821 1483.97
131.283 841.831 1480.61
131.216 841.755 1480.3
131.346 841.554 1480.11
131.729 840.922 1479.8
133.338 838.868 1478.83
133.398 838.539 1478.43
133.231 838.594 1478.24
133.14 838.594 1477.98
132.382 839.686 1478.67
132.777 838.986 1477.97
133.049 838.58 1477.71
132.901 838.784 1477.75
134.437 838.332 1463.08
134.275 838.363 1462.81
125.866 839.174 1466.67
125.864 839.233 1467.22
135.156 838.363 1479.08
134.427 838.533 1479.07
134.005 838.627 1478.97
133.569 838.812 1478.95
135.428 838.077 1478.76
134.488 836.414 1476.89
134.362 836.453 1476.87
134.136 836.551 1476.89
133.984 836.511 1476.65
133.452 836.622 1475.96
133.707 836.614 1476.5
133.033 836.76 1475.02
132.3 837.585 1474.11
131.756 838.206 1472.94
133.252 836.665 1475.51
131.406 838.455 1472.63
131.397 838.401 1472.28
130.904 838.755 1472.3
131.157 838.671 1472.52
130.631 838.811 1472.06
128.711 839.215 1471.16
126.545 839.299 1468.77
127.529 839.156 1463.59
126.157 839.145 1465.39
125.843 839.212 1466.04
125.615 839.313 1466.53
129.456 839.57 1460.42
129.092 839.998 1460.03
129.232 839.995 1459.32
129.431 839.901 1458.58
129.78 839.638 1458.1
130.157 839.458 1458.14
130.333 839.159 1454.33
130.253 839.495 1452.92
130.328 839.488 1452.28
130.292 839.481 1451.71
131.614 838.712 1446.93
130.338 838.767 1448.33
129.941 838.755 1448.08
129.836 838.808 1448.66
131.122 838.752 1445.98
129.899 838.774 1447.71
130.909 838.828 1445.85
131.585 839.138 1443.91
131.65 839.238 1443.45
130.781 838.932 1445.63
131.555 839.438 1442.99
131.052 840.202 1441.64
130.879 840.34 1441.6
131.245 840.073 1441.49
131.108 840.212 1441.42
131.329 839.99 1441.48
131.412 839.921 1441.45
130.426 839.347 1450.9
130.443 839.416 1451.28
129.961 839.16 1450.04
130.092 838.846 1448.94
131.436 839.944 1441.26
131 840.502 1440.26
130.771 840.728 1439.8
130.873 840.661 1440.02
131.476 845.082 1486.16
131.629 845.086 1486.97
131.569 844.548 1485.68
131.648 843.896 1484.73
131.928 843.052 1484.61
131.393 844.821 1485.61
131.418 842.488 1481.6
131.415 843.523 1483.17
131.391 844.205 1484.5
131.197 844.983 1485.48
131.092 842.083 1480.67
130.967 842.016 1480.35
131.011 841.89 1480.06
131.278 841.617 1479.93
131.379 841.43 1479.77
131.783 840.699 1479.19
133.6 838.475 1478.55
133.502 837.705 1477.61
133.617 837.676 1477.73
133.7 837.683 1477.77
133.369 837.74 1477.42
133.253 837.78 1477.24
132.253 839.826 1478.52
132.557 839.344 1478.02
132.679 839.06 1477.69
132.801 838.792 1477.53
132.951 838.565 1477.45
133.04 837.836 1476.76
125.541 839.394 1467.17
126.081 839.445 1468.41
134.804 838.296 1478.92
134.037 838.391 1478.72
134.348 838.306 1478.78
133.825 838.418 1478.61
134.882 837.518 1478.2
134.338 836.578 1477.12
134.415 836.687 1477.29
133.934 836.709 1476.98
134.161 836.684 1477.14
133.787 836.74 1476.83
133.427 836.743 1476.18
133.583 836.75 1476.53
133.354 836.81 1476.15
133.068 836.848 1475.35
132.191 837.749 1474.29
131.479 838.503 1473.16
131.199 838.731 1472.9
130.936 838.94 1472.65
130.688 839.035 1472.58
131.042 838.93 1472.91
130.371 839.136 1472.52
129.046 839.378 1471.92
127.219 839.526 1470.54
126.013 839.286 1465.27
127.581 839.353 1463.18
125.649 839.373 1465.9
125.388 839.478 1466.45
125.339 839.509 1466.86
128.913 839.891 1460.67
128.604 840.326 1460.44
128.649 840.387 1459.84
130.159 840.282 1460.26
128.847 840.298 1458.27
130.034 839.293 1454.41
129.89 839.657 1453.12
130.043 839.59 1452.61
129.839 839.63 1452.13
129.897 839.562 1451.73
129.909 839.487 1451.3
129.611 838.823 1448.51
129.656 838.935 1449.11
129.803 838.81 1447.54
129.537 838.846 1448.29
129.554 838.89 1447.6
130.663 839.057 1445.4
131.413 839.311 1443.7
131.379 839.441 1443.37
131.389 839.532 1443.07
129.41 839.002 1447.42
131.052 840.059 1442.3
130.519 840.935 1440.27
130.607 840.681 1441.26
130.197 841.01 1440.68
130.342 841.065 1440.2
130.86 840.691 1440.28
130.722 840.83 1440.23
130.946 840.566 1440.32
129.536 839.28 1450.27
130.747 840.812 1439.91
130.845 840.727 1440.1
131.265 845.35 1486.12
131.142 845.569 1486.39
131.257 842.616 1481.57
131.297 843.575 1483.02
131.238 844.293 1484.35
131.264 844.483 1484.81
131.029 845.12 1485.39
130.954 845.598 1485.84
131.045 845.584 1486.05
130.924 842.309 1480.89
130.8 842.249 1480.66
130.727 842.201 1480.37
130.833 842.065 1480.1
131.167 841.575 1478.55
130.982 841.744 1478.5
131.364 841.301 1478.22
131.588 840.957 1477.86
132.012 840.259 1477.83
133.854 837.627 1477.89
133.663 836.936 1476.96
133.507 836.968 1476.74
133.82 836.894 1477.11
133.351 836.99 1476.48
133.189 837.094 1476.18
132.406 839.651 1477.32
132.495 839.444 1477.1
132.536 839.277 1476.85
132.856 838.483 1477.12
132.183 838.406 1475.47
131.76 838.479 1474.56
125.417 839.547 1467.43
126.014 839.644 1468.79
126.852 839.5 1470
127.221 839.734 1470.95
134.555 837.518 1478.13
133.99 837.599 1477.96
134.207 837.568 1478.04
134.215 836.839 1477.36
133.981 836.874 1477.25
133.126 836.92 1475.7
131.98 838.032 1474.3
131.271 838.776 1473.29
131.071 839.068 1473.28
130.869 839.196 1473.13
130.683 839.325 1473.1
130.459 839.396 1473
130.932 839.364 1473.52
129.174 839.631 1472.49
130.26 839.669 1473.24
127.822 839.773 1471.73
125.739 839.547 1465.26
127.264 839.566 1463.25
125.48 839.58 1465.77
125.183 839.658 1466.41
125.094 839.713 1466.87
125.153 839.711 1467.19
128.368 840.207 1461.05
128.213 840.626 1460.66
128.268 840.741 1460.09
128.257 840.769 1459.26
128.491 840.562 1458.33
129.735 839.447 1454.53
129.689 839.754 1453.29
129.599 839.773 1452.6
129.434 839.726 1451.8
129.531 839.611 1451.45
129.325 838.951 1448.89
129.199 839.073 1449.36
129.189 838.959 1448.38
129.111 839.024 1448.83
129.201 838.976 1447.96
128.937 839.081 1448.48
130.416 839.205 1445.34
130.257 839.866 1444.09
130.965 839.989 1442.73
129.112 839.184 1447.43
128.97 839.084 1448.11
130.459 840.737 1441.36
130.553 841.062 1439.78
130.352 841.227 1439.73
129.886 841.192 1440.73
129.971 841.291 1440.25
130.197 841.287 1439.86
130.654 840.938 1439.81
129.25 839.395 1450.37
130.085 846.535 1486.17
131.123 842.851 1481.77
131.09 844.105 1483.76
131.022 844.665 1484.8
130.885 845.214 1485.32
130.184 846.249 1485.81
130.183 846.365 1485.98
130.829 842.447 1481
130.64 842.347 1480.58
130.831 841.877 1478.63
130.675 842.206 1480.12
130.66 842.258 1480.34
131.272 841.147 1476.52
131.581 840.722 1476.32
131.078 841.335 1476.53
131.744 840.579 1476.48
131.96 840.347 1476.69
131.833 838.285 1474.4
132.11 840.159 1476.54
132.108 840.123 1476.32
132.539 839.14 1476.61
132.126 839.956 1476.21
132.482 839.072 1476.34
131.997 838.591 1475.24
131.213 839.256 1474.12
131.248 839.399 1474.39
131.15 839.24 1473.83
125.283 839.763 1467.69
125.965 839.865 1469.22
126.959 839.902 1470.93
127.648 840.487 1472.67
127.583 839.992 1471.91
127.96 840.348 1472.74
131.138 839.072 1473.5
131.044 839.391 1473.81
130.75 839.741 1473.88
130.521 839.811 1473.69
130.683 840.582 1474.93
130.952 839.672 1474.08
130.028 840.627 1474.59
125.298 839.82 1465.66
125.442 839.75 1465.37
127.191 839.841 1462.99
125.082 839.839 1466.17
124.946 839.91 1466.7
124.961 839.902 1467.04
125.017 839.9 1467.34
127.976 840.59 1461.16
127.905 840.95 1460.78
128.056 840.928 1460.37
128.02 841.109 1459.96
128.121 840.956 1458.54
129.432 839.642 1454.61
129.496 839.875 1453.37
129.438 839.9 1452.94
129.368 839.91 1452.52
129.303 839.838 1452.04
128.994 839.535 1450.52
128.994 839.116 1449.26
128.844 839.159 1448.87
128.539 839.358 1448.59
128.602 839.308 1448.81
129.218 839.811 1445.77
128.503 841.297 1442.88
128.778 840.753 1444.21
129.463 841.011 1442.22
130.262 840.803 1441.58
128.67 839.312 1448.11
128.854 839.869 1446.34
128.918 841.581 1441.17
128.821 841.815 1440.81
131.007 844.039 1483.54
130.835 843.698 1482.9
130.694 844.778 1484.61
130.798 844.845 1484.89
130.323 845.671 1485.3
130.264 846.08 1485.64
129.491 846.838 1485.71
130.667 842.506 1480.9
130.561 842.399 1480.54
130.53 842.301 1480.12
130.694 841.936 1478.63
130.877 841.512 1476.6
130.831 841.636 1477.05
131.283 840.99 1476.04
131.343 840.865 1476.06
131.456 840.705 1475.92
131.731 840.533 1476.06
131.876 840.421 1476.33
131.005 841.218 1476.08
131.942 840.334 1476.15
131.992 840.202 1476
131.99 840.027 1475.91
132.339 839.105 1476.03
131.989 839.888 1475.88
131.704 838.98 1475
131.15 839.394 1474.11
131.204 839.568 1474.38
131.518 839.911 1475
125.147 840.029 1467.94
125.775 840.049 1469.2
127.122 840.69 1472.32
127.339 840.6 1472.5
127.919 840.896 1473.43
127.61 841.124 1473.52
127.77 841.006 1473.46
127.774 841.136 1473.75
128.6 840.728 1473.82
128.149 840.967 1473.84
131.107 839.588 1474.21
131.192 840.267 1474.97
130.97 840.396 1474.93
130.711 841.172 1475.73
130.863 841.145 1475.79
131.176 840.913 1475.57
131.376 840.137 1474.99
129.872 841.103 1475.12
130.57 841.349 1475.87
124.962 840.09 1465.93
124.978 840.245 1465.64
125.279 840.083 1465.3
126.75 840.086 1463.29
124.722 840.252 1466.34
124.704 840.196 1466.81
124.787 840.131 1467.08
124.873 840.108 1467.43
127.526 841.007 1461.43
127.606 841.445 1460.79
127.834 841.305 1460.35
127.909 841.359 1459.54
127.897 841.341 1459.9
127.753 841.579 1460.01
128.05 841.1 1459.53
127.983 841.146 1458.42
128.575 840.586 1455.35
129.057 840.003 1454.59
128.913 840.182 1454.66
129.206 839.832 1454.6
129.174 840.098 1453.44
129.32 840.004 1452.91
129.153 840.097 1452.67
129.163 839.954 1452.11
128.784 839.706 1450.68
128.762 839.253 1449.35
128.538 839.388 1449.17
128.23 839.66 1448.59
128.066 839.82 1449.06
128.362 839.519 1448.95
128.203 841.402 1443.15
128.018 841.751 1442.14
127.985 841.554 1443.26
128.269 839.723 1448.08
128.53 840.146 1446.47
127.832 842.003 1441.94
127.767 842.284 1441.46
128.821 842.023 1440.46
128.725 842.253 1440.25
130.694 843.516 1482.52
130.213 844.843 1484.41
130.466 844.935 1484.66
130.177 845.693 1485.19
129.493 846.622 1485.51
130.382 842.588 1480.84
130.201 842.473 1480.33
130.439 842.085 1478.66
130.617 841.704 1476.77
130.825 841.383 1476.18
131.313 840.938 1475.81
131.513 840.713 1475.78
131.704 840.482 1475.8
131.833 840.386 1475.92
131.117 841.02 1475.76
131.914 840.236 1475.81
131.857 840.128 1475.68
131.893 839.882 1475.68
131.909 839.289 1475.44
131.584 839.731 1475.09
131.453 840.05 1474.98
131.753 840.255 1475.5
126.389 840.539 1470.89
125.025 840.293 1468.07
127.399 841.18 1473.38
127.257 841.328 1473.37
127.484 841.19 1473.49
127.542 841.332 1473.88
127.4 841.377 1473.73
127.861 841.196 1474.01
127.705 841.316 1474.11
128.632 841.013 1474.41
128.307 841.068 1474.27
128.013 841.187 1474.22
131.308 840.735 1475.61
131.549 840.512 1475.59
130.707 841.347 1475.99
131.704 840.352 1475.55
129.619 841.303 1475.33
130.524 841.449 1475.98
124.665 840.488 1465.99
124.65 840.668 1465.82
125.078 840.413 1465.26
126.442 840.418 1463.38
124.53 840.546 1466.57
124.507 840.664 1466.26
124.578 840.45 1466.94
124.663 840.406 1467.24
127.216 841.463 1461.57
126.275 840.755 1463.35
127.297 841.896 1461.04
127.521 841.877 1460.44
127.65 841.912 1459.55
127.46 842.249 1460.08
128.295 841.5 1454.68
128.797 840.565 1453.81
128.646 840.798 1454.07
128.942 840.406 1453.57
128.975 840.35 1453.24
129.171 840.146 1453.07
129.083 840.229 1452.93
128.872 840.397 1452.77
128.877 840.23 1452.35
128.545 840 1450.98
128.465 839.524 1449.62
128.206 839.705 1449.37
127.371 840.565 1448.94
127.336 840.582 1449.35
127.483 840.476 1449.9
127.001 840.915 1449.79
128.037 841.233 1444.93
127.657 841.852 1443.38
127.203 842.448 1442.33
127.556 840.473 1448.42
128.03 840.541 1446.79
128.38 843.264 1439.52
127.488 842.344 1441.85
127.533 842.634 1441.25
127.206 842.734 1441.67
130.461 843.887 1483
130.27 842.83 1481.26
129.936 845.017 1484.56
130.239 845.14 1484.77
129.988 844.751 1484.19
129.693 846.086 1485.26
129.968 842.604 1480.59
130.205 842.199 1478.78
129.977 842.515 1480.25
130.436 841.774 1476.79
130.599 841.553 1476.31
131.799 840.331 1475.73
126.096 840.561 1470.4
127.063 841.458 1473.12
125.816 840.628 1469.92
124.746 840.551 1467.61
124.947 840.598 1468.23
127.234 841.537 1473.74
127.098 841.629 1473.51
127.459 841.481 1474.17
127.278 841.587 1474.06
127.731 841.389 1474.43
127.658 841.381 1474.23
128.442 841.248 1474.81
128.087 841.27 1474.61
130.669 841.441 1476.11
130.271 841.614 1476.23
129.354 841.454 1475.52
124.387 840.918 1466.2
124.51 840.949 1465.84
124.906 840.764 1465.27
125.128 840.627 1464.96
124.413 840.782 1466.81
124.343 840.901 1466.54
124.48 840.763 1467.09
125.959 841.122 1463.56
126.839 841.736 1461.96
127.292 842.271 1460.72
127.077 842.228 1461.27
127.287 842.546 1460.39
128.22 841.648 1454.47
128.59 840.882 1453.78
128.758 840.638 1453.44
128.696 840.66 1453.04
128.431 840.93 1452.91
128.697 840.494 1452.48
128.137 840.417 1451.27
127.938 840.087 1450.02
126.128 842.126 1449.83
125.992 842.374 1449.61
126.01 842.451 1449.22
127.413 840.631 1450.37
127.057 840.96 1450.29
126.412 841.864 1450.54
126.263 841.987 1450.28
126.115 842.155 1450.02
127.762 841.497 1445.19
127.363 842.128 1443.58
126.799 842.814 1442.56
126.81 842.971 1442.12
127.593 840.979 1447.08
127.226 843.591 1440.55
126.905 844.554 1439.87
126.775 843.918 1440.86
126.378 844.112 1441.35
126.389 844.99 1440.11
130.219 843.523 1482.4
129.857 842.835 1481.19
129.883 845.466 1484.93
129.621 845.223 1484.68
129.621 844.82 1484.28
129.7 845 1484.48
129.853 844.23 1483.42
129.513 845.961 1485.13
129.232 846.278 1485.2
129.665 842.705 1480.73
129.906 842.285 1478.86
129.632 842.597 1480.28
130.246 841.837 1476.89
126.881 841.485 1472.74
126.936 841.75 1473.22
125.762 840.931 1469.98
126.718 841.28 1472.08
124.472 840.83 1467.27
124.833 840.832 1468.1
127.139 841.693 1473.97
127.058 841.768 1473.81
126.931 841.917 1473.48
127.316 841.642 1474.43
127.106 841.776 1474.26
127.727 841.489 1474.84
127.437 841.619 1474.7
128.271 841.473 1475.28
128.079 841.417 1475.03
129.914 841.827 1476.66
129.118 841.699 1476.17
124.346 841.245 1466.01
124.283 841.131 1466.34
124.597 841.224 1465.53
124.971 841.047 1464.97
124.348 841.007 1467.02
124.302 841.038 1466.77
124.247 841.244 1466.63
125.796 841.551 1463.58
126.751 842.228 1461.89
127.045 842.798 1461.07
126.848 842.684 1461.57
128.081 841.853 1454.3
127.82 842.477 1454.82
128.462 841.013 1453.47
128.357 841.117 1453.27
127.845 842.035 1453.84
127.731 842.042 1453.55
128.204 840.946 1452.45
127.859 840.749 1451.45
124.149 844.751 1450.38
124.16 844.774 1449.94
126.643 842.07 1447.91
125.133 843.948 1448.88
124.141 844.889 1449.52
127.231 840.898 1450.6
126.709 841.63 1450.73
126.022 842.663 1451.38
124.151 844.861 1451.28
125.057 844.618 1453.25
124.271 844.624 1450.78
127.367 841.869 1445.79
127.425 841.996 1444.89
127.294 842.285 1443.43
126.514 843.146 1442.76
126.503 843.256 1442.39
126.093 844.271 1441.76
125.923 845.314 1440.56
129.791 843.179 1481.84
129.5 842.841 1481.07
129.418 845.67 1484.94
127.667 844.726 1484.14
127.653 844.48 1483.97
127.866 844.347 1483.86
127.966 844.091 1483.58
128.2 843.776 1483.15
128.058 843.398 1482.61
129.183 845.9 1485
128.987 846.188 1485.07
129.246 842.669 1480.45
129.422 842.388 1479.07
129.7 842.013 1477.24
126.797 841.833 1472.89
126.819 842.075 1473.28
126.804 841.971 1473.11
125.667 841.407 1470.04
126.499 841.488 1471.67
126.697 841.761 1472.44
124.477 841.191 1467.5
124.33 841.21 1467.16
124.709 841.063 1467.92
124.877 841.401 1468.41
126.995 841.872 1474.01
126.892 841.995 1473.74
126.823 842.138 1473.47
127.05 841.859 1474.6
127.155 841.792 1474.89
126.92 841.965 1474.27
127.372 841.695 1475.17
127.653 841.596 1475.27
128.127 841.623 1475.85
127.714 841.646 1475.68
128.906 841.948 1477.03
124.224 841.43 1466.42
124.292 841.541 1466.12
124.458 841.455 1465.72
124.582 841.462 1465.45
124.855 841.402 1465
124.634 841.65 1465.32
124.269 841.294 1466.9
124.217 841.509 1466.68
125.64 842.002 1463.69
126.597 842.859 1462.01
127.726 842.574 1454.59
127.978 841.927 1454.04
127.821 842.432 1454.64
127.675 842.597 1454.41
127.542 842.701 1454.28
127.348 841.588 1451.94
127.394 842.732 1454.04
123.229 845.802 1450.16
122.799 846.748 1448.98
122.637 846.925 1449.27
125.987 843.748 1447.14
126.288 843.766 1446.27
126.447 843.645 1445.83
124.128 845.005 1449.18
124.13 845.223 1448.67
125.345 844.614 1447.36
123.055 846.453 1448.78
126.095 842.959 1452.19
123.208 845.997 1451.23
123.422 845.923 1451.76
123.128 845.961 1450.73
124.305 845.274 1452.64
126.622 843.573 1454.42
125.426 845.122 1455.26
127.114 842.374 1445.43
127.006 842.661 1444.81
126.89 842.707 1443.63
126.306 843.421 1442.99
125.84 844.516 1442.12
125.605 844.842 1442.33
125.327 845.848 1441.09
124.907 846.463 1441.22
127.777 843.079 1482.08
127.591 842.882 1481.64
127.229 842.661 1480.98
127.399 844.804 1484.15
124.705 843.513 1482.88
125.084 843.379 1482.85
125.555 843.313 1482.82
125.569 843.106 1482.53
125.408 842.91 1482.17
126.846 844.902 1484.06
127.244 844.913 1484.17
128.681 846.404 1485.02
128.039 845.76 1484.73
125.85 849.913 1484.06
126.788 848.39 1484.26
128.424 846.841 1484.95
127.446 842.24 1478.88
126.688 842.083 1472.72
126.738 842.17 1472.88
126.739 842.343 1473.28
126.742 842.267 1473.07
126.421 841.859 1471.77
126.215 842.11 1471.32
125.633 842.804 1470.28
126.562 842.103 1472.34
124.958 842.854 1468.89
124.354 841.512 1467.36
124.439 841.452 1467.53
124.277 841.594 1467.14
126.854 842.033 1473.97
126.733 842.308 1473.74
126.725 842.357 1473.51
126.798 842.181 1473.66
126.909 841.912 1474.91
126.837 841.988 1474.67
126.903 841.863 1475.48
126.648 841.961 1475.45
126.739 842.147 1474.17
126.686 842.142 1474.49
127.045 841.804 1475.83
127.394 841.72 1475.79
127.857 841.768 1476.38
126.431 841.951 1477.48
124.226 841.679 1466.54
124.27 841.747 1466.32
124.451 841.676 1465.73
124.353 841.854 1466.03
124.613 841.937 1465.37
125.543 842.44 1463.83
124.242 841.673 1466.95
124.225 841.852 1466.8
126.521 843.484 1462.17
126.367 845.141 1463.12
126.319 846.139 1463.48
125.868 846.931 1464.9
124.82 846.251 1455.64
126.733 842.902 1453.28
122.937 846.227 1450.49
122.57 846.978 1449.66
120.99 849.522 1448.1
120.884 849.586 1448.32
121.828 848.338 1448.79
120.89 849.533 1448.53
