106.379997 869.215027 1449.510010 
106.321999 869.328003 1449.579956 
105.874001 869.968018 1449.589966 
111.148003 862.185974 1446.239990 
111.148003 862.203003 1447.410034 
110.722000 862.481995 1447.780029 
107.783997 865.536987 1448.640015 
108.282997 864.333984 1450.000000 
108.903999 863.609985 1449.930054 
109.191002 863.914978 1447.969971 
107.972000 864.752014 1450.020020 
110.282997 862.822998 1448.099976 
106.417999 869.171997 1449.819946 
107.563004 865.903992 1448.930054 
107.167999 867.085999 1449.329956 
106.001999 867.633972 1435.459961 
105.637001 867.640991 1434.910034 
105.639000 867.797974 1434.829956 
105.523003 867.840027 1434.400024 
105.521004 867.958984 1434.140015 
105.545998 868.041016 1433.800049 
105.651001 867.960022 1434.729980 
105.845001 868.666992 1431.099976 
105.947998 868.820007 1431.280029 
105.876999 868.666016 1431.280029 
105.846001 868.528992 1431.530029 
105.815002 868.411011 1431.810059 
105.694000 868.260986 1432.719971 
105.888000 868.942017 1430.849976 
105.764999 868.838989 1430.689941 
105.675003 868.786987 1430.560059 
105.556000 868.702026 1430.449951 
105.382004 868.721008 1430.189941 
104.745003 868.840027 1429.660034 
104.147003 869.015015 1429.089966 
103.989998 869.163025 1428.819946 
106.464996 860.601990 1406.329956 
106.232002 860.309998 1404.790039 
106.282997 860.114990 1404.790039 
106.163002 860.158020 1403.770020 
106.148003 860.075989 1403.560059 
106.046997 860.094971 1403.300049 
105.654999 860.151001 1402.420044 
105.236000 860.331970 1401.650024 
105.309998 860.135986 1401.020020 
106.350998 858.481995 1399.900024 
105.161003 860.369019 1401.180054 
105.122002 860.471008 1401.390015 
102.954002 869.382996 1426.410034 
103.629997 869.291016 1428.160034 
102.477997 869.744019 1424.719971 
102.225998 869.656982 1424.030029 
102.139999 869.620972 1423.650024 
103.838997 869.255981 1428.550049 
102.093002 869.528992 1423.329956 
102.171997 869.513000 1422.829956 
102.357002 869.452026 1422.209961 
102.753998 868.849976 1421.099976 
103.154999 868.041992 1419.839966 
103.334000 867.614990 1418.770020 
103.487999 866.606995 1415.959961 
103.792999 866.366028 1413.800049 
103.797997 865.966980 1413.420044 
103.559998 866.862976 1416.010010 
103.958000 865.638000 1412.849976 
104.078003 865.341003 1412.579956 
104.413002 865.356995 1412.020020 
105.433998 864.541016 1410.770020 
105.204002 864.314026 1411.170044 
106.135002 862.908997 1410.119995 
106.338997 862.364014 1409.859985 
107.017998 856.929993 1397.709961 
107.403999 855.778015 1397.300049 
106.949997 854.739990 1395.359985 
106.522003 853.969971 1393.479980 
107.361000 853.242981 1393.979980 
106.878998 853.262024 1393.079956 
106.862999 853.004028 1392.550049 
107.617996 851.502991 1390.829956 
107.872002 851.763000 1392.020020 
108.584000 850.450989 1390.689941 
106.246002 853.143005 1387.530029 
106.327003 853.135986 1387.140015 
106.158997 854.052979 1386.250000 
106.455002 854.492004 1384.719971 
107.515999 851.495972 1390.369995 
106.623001 853.385986 1392.589966 
106.575996 852.916016 1390.219971 
106.241997 853.049011 1388.079956 
104.558998 873.046021 1451.010010 
105.376999 871.215027 1450.939941 
104.940002 872.385986 1451.209961 
105.987999 869.896973 1450.050049 
105.623001 870.572021 1450.900024 
106.049004 869.773987 1450.579956 
103.724998 874.742004 1449.410034 
103.706001 875.232971 1450.560059 
104.308998 874.544006 1452.459961 
104.403000 873.976990 1452.930054 
104.521004 873.065002 1453.739990 
104.585999 873.078003 1452.599976 
105.154999 871.755981 1451.780029 
104.946999 872.348999 1451.619995 
103.959999 875.346008 1451.650024 
104.223999 875.291992 1452.510010 
103.906998 874.067993 1439.089966 
103.634003 874.494019 1439.489990 
105.486000 873.481995 1437.160034 
103.261002 875.275024 1441.319946 
103.321999 875.198975 1440.619995 
103.474998 875.122986 1440.060059 
103.640999 874.971008 1439.579956 
103.249001 875.229980 1442.560059 
103.224998 874.958008 1443.319946 
103.505997 874.450012 1445.920044 
103.720001 874.926025 1448.920044 
106.497002 869.276001 1435.459961 
106.587997 869.434998 1435.540039 
106.051003 868.198975 1435.329956 
106.032997 867.929016 1435.410034 
106.389999 868.989990 1435.540039 
106.051003 868.460999 1435.180054 
110.586998 862.226990 1449.569946 
110.247002 862.403015 1449.739990 
109.957001 862.612976 1449.750000 
107.762001 865.098999 1450.170044 
108.621002 863.482971 1451.300049 
108.194000 864.005005 1451.390015 
109.630997 862.914978 1449.699951 
108.997002 863.044006 1451.219971 
107.940002 864.401001 1451.319946 
106.484001 868.947021 1450.130005 
107.223000 866.903015 1449.699951 
107.263000 866.504028 1450.630005 
110.815002 862.104980 1449.550049 
111.444000 861.874023 1449.349976 
111.161003 861.976990 1449.410034 
105.597000 868.025024 1434.410034 
105.597000 868.177002 1434.030029 
105.651001 868.232971 1434.290039 
105.655998 868.330017 1433.750000 
105.698997 868.158020 1434.630005 
106.045998 869.093994 1431.030029 
105.992996 868.781006 1431.660034 
106.184998 869.192993 1431.310059 
105.925003 868.737976 1432.849976 
105.780998 868.481995 1432.760010 
105.917999 869.133972 1430.670044 
106.179001 869.346008 1430.869995 
105.766998 869.004028 1430.530029 
105.649002 868.958008 1430.390015 
105.525002 868.869995 1430.319946 
105.346001 868.940979 1430.089966 
104.769997 869.033997 1429.619995 
104.163002 869.127991 1429.060059 
103.994003 869.302979 1428.750000 
106.445999 860.750000 1406.300049 
106.213997 860.447998 1404.829956 
106.117996 860.508972 1404.069946 
106.184998 860.221985 1404.060059 
106.125999 860.445984 1403.880005 
106.140999 860.284973 1403.739990 
106.014999 860.263000 1403.359985 
105.608002 860.289001 1402.449951 
105.216003 860.466980 1401.670044 
105.251999 860.255981 1400.810059 
106.092003 858.916016 1399.869995 
106.871002 857.690979 1398.869995 
105.114998 860.492981 1400.859985 
105.052002 860.677979 1401.020020 
105.103996 860.606018 1401.430054 
103.072998 869.544006 1426.510010 
103.685997 869.403992 1428.189941 
102.976997 869.825989 1425.849976 
102.339996 869.817993 1424.170044 
102.250000 869.804016 1423.709961 
102.179001 869.705017 1423.400024 
103.898003 869.403015 1428.540039 
102.191002 869.640991 1423.030029 
102.386002 869.651001 1422.349976 
102.364998 869.552979 1422.290039 
102.989998 869.091980 1420.569946 
102.859001 869.028015 1420.869995 
103.239998 868.187012 1419.589966 
103.422997 867.994019 1418.839966 
103.915001 866.797974 1413.920044 
103.685997 867.018005 1415.650024 
104.153999 866.818970 1413.229980 
104.095001 866.395996 1412.979980 
104.193001 866.033020 1412.540039 
103.545998 867.973022 1418.329956 
104.399002 865.653015 1412.050049 
106.803001 857.481018 1397.530029 
106.970001 856.614014 1396.699951 
107.139000 855.906982 1396.550049 
106.910004 855.065002 1395.530029 
106.407997 854.603027 1394.030029 
106.413002 854.203979 1393.449951 
106.085999 853.651978 1387.640015 
106.092003 853.945984 1386.819946 
106.035004 854.567993 1385.900024 
106.397003 854.732971 1384.609985 
106.374001 854.044006 1392.989990 
106.438004 852.956970 1389.170044 
106.503998 853.557983 1392.000000 
106.181999 853.263977 1388.150024 
111.734001 861.833008 1449.569946 
111.661003 861.822998 1449.369995 
106.079002 869.632996 1451.040039 
105.698997 870.362000 1451.069946 
106.480003 868.926025 1450.439941 
103.704002 875.388977 1450.380005 
103.742996 875.601013 1450.699951 
103.967003 875.651978 1451.680054 
104.277000 875.041992 1452.880005 
104.297997 874.484985 1453.599976 
104.094002 874.155029 1455.189941 
104.028999 873.883972 1456.060059 
104.169998 873.534973 1455.750000 
104.427002 872.945984 1455.089966 
104.806000 871.807007 1455.199951 
105.184998 871.226013 1453.130005 
106.246002 868.908020 1451.790039 
104.252998 875.599976 1452.839966 
104.225998 875.857971 1452.569946 
104.228996 874.450989 1438.619995 
104.088997 874.882019 1438.829956 
103.323997 875.465027 1442.000000 
103.362999 875.484009 1441.069946 
103.532997 875.492004 1440.219971 
103.862999 875.489990 1439.400024 
104.207001 875.429016 1438.770020 
103.561996 875.283020 1445.099976 
103.521004 874.888000 1445.599976 
103.737999 874.818970 1447.189941 
103.754997 875.421997 1448.910034 
103.752998 875.851013 1450.449951 
106.088997 868.916016 1434.689941 
106.636002 869.715027 1435.060059 
106.054001 868.718018 1434.949951 
109.546997 862.507996 1451.189941 
109.561996 862.487976 1451.310059 
109.435997 862.598022 1451.140015 
109.325996 862.721008 1451.050049 
107.765999 864.747009 1451.380005 
108.704002 863.296021 1451.699951 
108.267998 863.843018 1451.760010 
109.051003 862.932007 1451.469971 
107.957001 864.356018 1451.680054 
106.566002 868.729004 1450.390015 
107.499001 865.604004 1451.489990 
106.633003 867.539978 1453.369995 
109.633003 862.439026 1451.410034 
109.902000 862.318970 1451.170044 
109.945000 862.299011 1451.300049 
105.722000 868.469971 1433.989990 
106.378998 869.452026 1433.229980 
106.193001 869.203979 1434.319946 
105.906998 869.268982 1430.500000 
106.162003 869.478027 1430.630005 
105.774002 869.172974 1430.369995 
105.483002 869.098022 1430.140015 
105.594002 869.254028 1430.140015 
104.816002 869.229004 1429.579956 
104.285004 869.184021 1429.170044 
104.125999 869.333984 1428.910034 
106.441002 860.908020 1406.239990 
106.227997 860.593994 1404.890015 
106.139999 860.651001 1404.030029 
106.095001 860.361023 1403.640015 
106.070000 860.500000 1403.640015 
105.970001 860.398987 1403.310059 
105.531998 860.526978 1402.459961 
105.561996 860.416016 1402.449951 
105.179001 860.614014 1401.680054 
105.261002 860.314026 1400.530029 
105.914001 859.276001 1399.819946 
106.710999 858.034973 1398.630005 
105.033997 860.796021 1400.630005 
105.139999 860.585999 1400.510010 
105.041000 860.802979 1401.180054 
104.980003 861.010010 1400.619995 
104.957001 861.091980 1400.760010 
105.075996 860.770996 1401.439941 
103.703003 869.588989 1428.030029 
103.162003 870.049988 1425.890015 
103.763000 869.786011 1427.800049 
102.544998 870.031006 1424.400024 
102.438004 870.046997 1423.819946 
102.320999 869.932983 1423.400024 
102.299004 869.830994 1422.949951 
104.106003 869.494995 1428.770020 
103.966003 869.646973 1428.410034 
102.587997 869.934021 1422.150024 
103.399002 869.344971 1419.810059 
103.181999 869.241028 1420.219971 
103.843002 867.307983 1415.550049 
104.216003 867.245972 1413.650024 
104.073997 867.648987 1415.349976 
103.786003 868.028015 1417.680054 
106.737000 857.176025 1396.189941 
106.888000 856.403992 1396.079956 
106.800003 855.362976 1395.449951 
106.382004 854.849976 1394.180054 
106.289001 854.572998 1393.530029 
106.125000 853.543030 1388.170044 
106.000000 854.265991 1387.300049 
105.986000 854.442993 1386.479980 
105.977997 854.870972 1385.800049 
106.225998 854.447021 1393.140015 
106.392998 853.177979 1389.219971 
106.434998 853.760986 1391.829956 
110.167000 862.312988 1451.469971 
110.476997 862.263977 1451.329956 
109.974998 862.315002 1451.489990 
103.995003 876.036987 1451.660034 
104.236000 875.270996 1453.400024 
104.239998 875.831970 1453.250000 
103.954002 875.114990 1455.280029 
103.667999 875.028015 1457.619995 
103.943001 873.802979 1456.939941 
103.628998 875.362976 1457.160034 
103.973999 873.755005 1456.660034 
104.394997 872.716980 1456.520020 
104.171997 872.950989 1457.569946 
104.914001 871.351990 1455.819946 
105.056000 870.916016 1455.349976 
104.772003 871.953979 1456.180054 
105.561996 869.827026 1454.260010 
105.041000 870.440979 1456.209961 
105.325996 869.765991 1455.890015 
106.059998 868.874023 1452.900024 
104.260002 876.182983 1452.770020 
103.456001 875.763977 1442.060059 
103.630997 875.659973 1444.459961 
103.536003 875.903992 1440.969971 
103.539001 875.747986 1440.530029 
104.012001 875.921021 1439.420044 
103.929001 876.078979 1439.780029 
104.028000 876.198975 1446.469971 
103.850998 875.455994 1446.949951 
103.906998 876.119019 1448.540039 
103.766998 876.164001 1450.180054 
103.834000 876.281006 1450.670044 
109.203003 862.754028 1451.569946 
109.232002 862.692993 1451.800049 
107.797997 864.919983 1452.469971 
107.605003 865.304993 1451.959961 
108.878998 863.046997 1451.869995 
108.665001 863.338013 1452.140015 
108.460999 863.604980 1452.069946 
108.012001 864.570007 1453.170044 
107.331001 866.083984 1452.449951 
107.433998 865.862976 1454.060059 
106.441002 867.421021 1455.400024 
105.954002 868.484009 1455.359985 
109.344002 862.601990 1451.920044 
109.587997 862.489014 1451.760010 
109.712997 862.421021 1451.829956 
105.964996 869.510010 1430.260010 
105.817001 869.468994 1430.119995 
104.943001 869.419006 1429.540039 
105.086998 869.603027 1429.489990 
104.286003 869.346985 1429.089966 
106.179001 860.793030 1404.140015 
106.135002 860.765015 1403.790039 
106.039001 860.624023 1403.479980 
105.932999 860.520996 1403.219971 
105.522003 860.614990 1402.459961 
105.151001 860.726013 1401.699951 
105.792999 859.622009 1399.619995 
105.196999 860.581970 1400.239990 
105.061996 860.859985 1400.339966 
105.002998 861.081970 1400.410034 
104.975998 861.054016 1401.040039 
104.959000 861.346008 1400.449951 
104.943001 861.450012 1400.619995 
105.027000 860.939026 1401.349976 
103.280998 870.422974 1425.359985 
102.707001 870.237976 1424.369995 
103.896004 870.034973 1427.550049 
104.058998 869.893005 1428.270020 
102.695000 870.375977 1423.810059 
102.602997 870.314026 1423.300049 
102.508003 870.145996 1422.859985 
104.356003 869.541992 1429.000000 
104.204002 869.726013 1428.670044 
103.002998 870.544006 1421.979980 
103.303001 870.487976 1421.010010 
104.004997 869.973022 1419.140015 
104.257004 868.598022 1417.189941 
104.514000 868.224976 1415.160034 
106.487999 856.023010 1394.900024 
106.667999 855.682983 1395.270020 
106.320000 855.030029 1394.089966 
106.205002 854.802002 1393.489990 
106.318001 853.429016 1389.170044 
106.077003 853.763977 1388.239990 
106.018997 854.198975 1388.010010 
105.931000 854.791016 1386.689941 
105.921997 854.859985 1386.189941 
105.963997 855.177979 1385.750000 
106.176003 854.661011 1393.010010 
106.529999 853.427002 1390.469971 
106.344002 854.145020 1391.859985 
110.008003 862.492004 1451.910034 
109.885002 862.426025 1451.849976 
109.773003 862.551025 1452.119995 
110.362000 862.432983 1451.680054 
109.627998 862.581970 1452.170044 
110.988998 862.294006 1451.170044 
104.027000 876.344971 1451.650024 
104.272003 876.491028 1452.689941 
103.827003 875.877991 1455.780029 
104.183998 876.025024 1453.979980 
104.267998 876.398987 1453.229980 
103.403999 876.494995 1458.219971 
103.948997 873.802002 1458.050049 
103.656998 875.224976 1460.599976 
103.438004 875.909973 1458.719971 
103.410004 876.330017 1458.920044 
104.584999 871.864014 1457.479980 
104.295998 872.047974 1458.780029 
104.379997 871.939026 1458.469971 
104.851997 871.002014 1456.920044 
104.661003 870.835022 1458.329956 
105.081001 869.853027 1456.930054 
105.363998 869.241028 1456.670044 
103.643997 876.158020 1441.859985 
103.844002 876.192993 1444.020020 
104.260002 876.734009 1445.630005 
103.959000 876.575989 1440.819946 
103.809998 876.190002 1440.329956 
104.060997 876.843994 1448.189941 
104.217003 877.344971 1447.829956 
103.914001 876.801025 1450.089966 
104.134003 876.780029 1451.609985 
108.974998 862.960022 1452.030029 
109.186996 862.755981 1452.040039 
108.776001 863.210022 1452.209961 
108.348999 864.099976 1453.420044 
108.209999 864.281982 1453.310059 
107.804001 865.302979 1455.420044 
107.110001 866.307983 1455.800049 
106.641998 867.010986 1455.859985 
105.768997 868.348022 1456.579956 
109.499001 862.556030 1451.989990 
109.337997 862.705994 1452.209961 
109.195999 862.783997 1452.189941 
109.499001 862.643982 1452.209961 
105.254997 869.836975 1429.380005 
104.450996 869.763000 1428.890015 
106.074997 860.807007 1403.489990 
105.926003 860.645020 1403.180054 
105.519997 860.718018 1402.449951 
105.122002 860.818970 1401.680054 
105.667999 859.982971 1399.449951 
105.538002 860.385010 1399.380005 
105.117996 860.887024 1400.099976 
105.033997 861.047974 1400.219971 
104.997002 861.280029 1400.239990 
104.944000 861.414001 1400.839966 
104.968002 861.294983 1401.119995 
104.930000 861.739990 1400.439941 
104.964996 861.627014 1400.280029 
104.931000 861.820007 1400.520020 
105.028000 861.101990 1401.349976 
104.195999 870.528015 1427.030029 
103.727997 870.995972 1424.880005 
103.041000 870.663025 1424.089966 
104.199997 870.072021 1428.130005 
104.334000 869.948975 1428.569946 
103.181999 870.971008 1423.270020 
102.892998 870.685974 1423.170044 
102.905998 870.653015 1422.650024 
106.151001 856.335999 1393.750000 
106.107002 856.450012 1393.400024 
106.305000 856.379028 1394.329956 
106.231003 855.190979 1393.859985 
106.132004 855.088013 1393.290039 
106.276001 853.724976 1389.219971 
106.462997 853.775024 1390.140015 
106.197998 854.455017 1388.920044 
106.242996 854.070007 1389.189941 
105.952003 854.870972 1387.040039 
105.933998 855.340027 1386.189941 
105.931999 855.242981 1386.020020 
105.978996 855.481995 1385.719971 
106.113998 854.945007 1392.900024 
106.474998 854.013977 1390.500000 
106.292000 854.468994 1391.640015 
109.612000 863.205017 1453.079956 
109.851997 863.146973 1452.949951 
109.440002 863.250000 1453.140015 
110.192001 863.083984 1452.729980 
109.282997 863.273010 1453.140015 
111.697998 863.036011 1451.939941 
110.875999 863.052979 1452.410034 
110.496002 863.052002 1452.579956 
104.331001 876.724976 1453.130005 
103.774002 876.460022 1456.189941 
103.362999 877.276001 1458.560059 
104.176003 876.296997 1454.329956 
104.272003 876.508972 1453.869995 
103.357002 877.156982 1459.209961 
103.846001 874.510986 1459.150024 
104.133003 873.499023 1459.109985 
104.241997 872.278992 1458.939941 
103.709999 875.479980 1462.079956 
103.917000 874.411987 1460.469971 
103.955002 874.164001 1462.510010 
103.962997 873.744995 1463.079956 
103.658997 876.096008 1462.390015 
104.302002 871.622009 1459.619995 
104.667000 870.734985 1458.739990 
105.188004 869.554016 1457.239990 
104.169998 876.914978 1443.420044 
104.553001 877.585999 1442.839966 
104.771004 877.828979 1444.930054 
104.489998 877.866028 1447.439941 
104.042000 877.320984 1449.660034 
104.177002 877.737976 1449.520020 
104.035004 877.226990 1450.349976 
104.279999 877.252014 1451.550049 
104.408997 877.043030 1452.729980 
109.000999 862.960022 1452.189941 
108.466003 863.926025 1453.390015 
108.577003 863.804993 1453.380005 
108.127998 864.825989 1455.260010 
107.950996 865.093994 1455.579956 
107.073997 866.219971 1458.680054 
106.824997 866.541016 1458.469971 
106.550003 866.987000 1458.339966 
105.682999 868.723999 1457.910034 
105.003998 869.939026 1458.260010 
108.884003 863.476990 1453.229980 
109.010002 863.382996 1453.189941 
108.742996 863.616028 1453.270020 
109.129997 863.312988 1453.140015 
105.513000 870.231995 1429.130005 
104.589996 870.166016 1428.520020 
105.957001 860.896973 1403.180054 
105.948997 860.773010 1403.199951 
105.524002 860.867981 1402.390015 
105.092003 861.044983 1401.579956 
105.488998 860.713013 1399.229980 
105.078003 861.137024 1399.989990 
105.039001 861.534973 1400.000000 
104.974998 861.734985 1400.849976 
105.025002 861.429993 1401.199951 
104.981003 861.679993 1400.979980 
104.945000 862.007996 1400.270020 
104.959999 861.882996 1400.219971 
105.025002 861.793030 1400.000000 
104.932999 862.070007 1400.390015 
104.731003 870.947021 1427.050049 
104.540001 870.431030 1427.900024 
103.542999 871.221008 1423.630005 
103.379997 871.145020 1422.540039 
106.082001 856.299988 1392.969971 
106.156998 855.218018 1393.609985 
106.408997 854.320007 1389.979980 
106.164001 854.788025 1388.510010 
106.384003 854.956970 1389.709961 
105.949997 855.400024 1386.459961 
105.980003 855.632019 1385.859985 
106.007004 855.783997 1386.010010 
106.084999 855.185974 1392.640015 
106.413002 854.466980 1390.520020 
106.257004 854.937012 1391.530029 
109.379997 864.013977 1454.500000 
109.663002 863.976013 1454.469971 
109.987000 863.831970 1454.150024 
109.130997 864.075989 1454.560059 
110.419998 863.874023 1454.050049 
108.875999 864.156982 1454.589966 
111.334999 863.814026 1453.390015 
104.453003 877.075012 1453.640015 
103.821999 877.054016 1456.390015 
103.417000 877.583008 1458.369995 
103.426003 877.995972 1458.869995 
103.387001 877.723999 1459.280029 
104.248001 876.708984 1454.479980 
104.391998 877.117981 1454.209961 
103.602997 876.543030 1462.079956 
104.195000 872.775024 1459.770020 
104.087997 873.742981 1460.359985 
103.836998 874.642029 1464.050049 
104.240997 872.307983 1460.520020 
104.147003 872.991028 1461.640015 
104.041000 873.247986 1463.380005 
103.797997 874.348022 1467.229980 
103.727997 874.771973 1468.479980 
103.830002 875.913025 1464.229980 
103.761002 875.198975 1465.040039 
104.311996 872.012024 1460.599976 
104.517998 871.047974 1459.680054 
104.363998 871.885986 1460.839966 
104.818001 878.416016 1447.229980 
104.457001 878.245972 1449.359985 
104.136002 877.593018 1450.069946 
104.330002 878.010986 1449.969971 
104.425003 877.723022 1451.359985 
104.593002 877.505005 1452.750000 
108.356003 864.515991 1454.839966 
108.218002 864.758972 1455.380005 
107.768997 865.443970 1457.619995 
107.240997 866.030029 1458.869995 
106.344002 867.190002 1461.910034 
106.449997 867.205994 1462.660034 
106.277000 867.179016 1460.750000 
106.297997 867.330994 1459.099976 
105.735001 868.796021 1459.130005 
104.943001 870.362000 1460.140015 
108.459999 864.442993 1454.910034 
108.597000 864.317017 1454.810059 
104.900002 870.577026 1428.170044 
105.539001 861.320984 1402.130005 
105.527000 861.060974 1402.280029 
105.098999 861.429016 1401.369995 
105.515999 861.005005 1399.040039 
105.117996 861.458008 1399.760010 
105.111000 861.773987 1399.760010 
104.987999 862.085022 1400.630005 
105.028999 861.804016 1401.030029 
105.028999 862.143982 1400.010010 
104.984001 862.307007 1400.239990 
105.014000 862.255981 1400.099976 
105.070999 862.015015 1399.880005 
104.955002 862.314026 1400.380005 
106.103996 856.163025 1392.430054 
106.410004 854.888977 1390.160034 
106.403999 854.520020 1390.250000 
106.463997 855.718994 1389.030029 
106.186996 855.390991 1387.849976 
106.043999 855.877014 1386.300049 
106.388000 854.947021 1390.540039 
106.275002 855.875977 1391.160034 
109.431999 864.244995 1455.170044 
109.727997 864.129028 1454.859985 
110.023003 864.056030 1454.660034 
108.999001 864.370972 1455.359985 
110.833000 864.119995 1454.489990 
110.542000 864.177979 1454.810059 
111.495003 864.104980 1454.000000 
108.708000 864.427002 1455.260010 
104.735001 877.778015 1453.219971 
104.742996 877.854004 1453.719971 
103.973000 877.747009 1456.400024 
103.497002 878.043030 1458.329956 
103.524002 878.393982 1458.790039 
103.468002 878.181030 1459.339966 
103.656998 877.034973 1462.099976 
103.626999 876.768982 1462.160034 
104.542000 877.715027 1454.469971 
103.695000 875.145020 1468.819946 
103.953003 873.752014 1465.260010 
104.117996 872.994019 1463.530029 
104.204002 872.713013 1462.000000 
103.827003 874.197021 1466.969971 
103.828003 874.181030 1468.329956 
103.874001 874.273987 1469.439941 
103.801003 874.302002 1472.199951 
103.751999 874.523987 1472.160034 
103.748001 874.705017 1472.819946 
103.753998 875.596985 1466.420044 
103.848999 876.184998 1465.609985 
103.691002 875.695984 1469.089966 
104.440002 871.752014 1461.069946 
104.709999 878.643005 1449.699951 
104.627998 878.135986 1451.250000 
104.872002 878.109009 1452.560059 
108.369003 864.646973 1455.439941 
108.044998 865.166992 1457.329956 
107.027000 866.372986 1460.859985 
106.599998 867.072021 1462.810059 
106.169998 867.596985 1462.650024 
106.223999 868.086975 1466.060059 
106.432999 867.848022 1466.219971 
105.953003 867.991028 1462.880005 
106.044998 867.895996 1459.500000 
106.071999 867.546021 1460.930054 
105.514000 869.276001 1460.550049 
105.286003 869.866028 1461.069946 
104.727997 871.359985 1461.640015 
105.021004 870.911011 1462.099976 
108.551003 864.547974 1455.489990 
105.551003 861.538025 1401.979980 
105.148003 862.002991 1401.130005 
105.122002 861.747009 1401.250000 
105.066002 862.030029 1400.969971 
104.976997 862.302979 1400.510010 
105.030998 862.143982 1400.760010 
106.459000 855.770996 1389.900024 
109.820000 864.270996 1455.310059 
109.547997 864.596985 1456.910034 
109.189003 864.655029 1456.949951 
110.162003 864.241028 1455.199951 
108.919998 864.723022 1457.040039 
108.642998 864.794006 1457.069946 
111.498001 864.520020 1456.229980 
110.777000 864.512024 1456.589966 
105.101997 878.437012 1452.989990 
105.196999 878.617004 1453.550049 
104.925003 878.401001 1454.180054 
103.780998 878.684021 1457.959961 
103.589996 878.434021 1458.329956 
104.171997 878.276001 1456.310059 
103.577003 878.607971 1459.140015 
103.686996 878.754028 1458.469971 
103.642998 877.344971 1461.660034 
103.718002 877.697998 1461.500000 
104.007004 876.833984 1464.339966 
104.545998 878.895020 1456.000000 
103.719002 875.153015 1472.479980 
104.029999 873.512024 1465.390015 
103.952003 873.963013 1467.699951 
104.220001 872.767029 1463.569946 
104.324997 872.479004 1462.339966 
103.880997 874.059021 1472.449951 
103.873001 873.833008 1473.979980 
103.838997 874.114990 1474.109985 
103.801003 874.546997 1474.369995 
103.774002 874.981995 1474.310059 
103.761002 876.581970 1469.229980 
103.981003 876.739014 1465.650024 
103.829002 877.078003 1468.959961 
103.728996 875.807983 1472.170044 
103.664001 876.648987 1470.439941 
104.978996 878.646973 1451.089966 
105.158997 878.525024 1452.479980 
108.247002 865.000000 1457.219971 
107.330002 866.124023 1460.619995 
106.761002 866.992004 1463.140015 
106.553001 867.719971 1466.319946 
105.929001 868.562012 1466.449951 
106.386002 868.388000 1470.400024 
106.425003 868.288025 1470.280029 
106.549004 868.148010 1470.390015 
105.772003 868.406006 1463.199951 
105.952003 868.880005 1468.510010 
105.557999 869.018005 1461.979980 
105.737999 868.469971 1462.420044 
105.757004 868.677002 1459.930054 
105.279999 869.973999 1461.660034 
105.117996 870.653015 1462.180054 
104.791000 871.789001 1462.949951 
104.851997 871.806030 1463.949951 
104.893997 871.590027 1463.010010 
104.626999 872.041992 1462.729980 
104.526001 872.203003 1462.660034 
104.987999 871.440002 1463.329956 
108.407997 864.931030 1457.339966 
105.154999 862.265991 1400.880005 
105.053001 862.382996 1400.609985 
105.024002 862.419006 1400.510010 
110.058998 864.539001 1456.760010 
109.510002 864.830994 1458.260010 
108.851997 865.354004 1459.689941 
108.544998 865.414978 1459.719971 
108.181999 865.611023 1460.099976 
107.842003 865.822021 1460.479980 
111.716003 864.830994 1457.949951 
111.008003 864.788025 1458.069946 
110.023003 864.796997 1458.189941 
105.009003 879.531006 1455.699951 
105.793999 879.479980 1453.469971 
104.024002 879.101013 1457.719971 
103.670998 878.776978 1459.430054 
103.727997 878.948975 1458.859985 
103.806000 879.086975 1459.229980 
103.959999 879.221008 1458.170044 
103.758003 877.979980 1461.189941 
104.210999 877.502991 1464.089966 
104.160004 877.234009 1465.030029 
104.132004 873.315002 1465.469971 
104.155998 873.547974 1466.250000 
104.033997 873.750000 1467.969971 
103.986000 873.809998 1472.609985 
104.500000 872.357971 1463.910034 
103.960999 873.607971 1473.849976 
104.404999 873.086975 1475.479980 
104.413002 872.968994 1475.199951 
104.305000 873.591003 1475.630005 
104.378998 873.276001 1475.640015 
104.307999 873.828979 1475.819946 
103.864998 874.906006 1474.839966 
103.810997 875.200012 1474.640015 
103.789001 876.177002 1472.719971 
103.721001 877.181030 1470.719971 
103.939003 877.440979 1468.650024 
103.790001 877.549988 1470.920044 
107.583000 865.955017 1460.520020 
106.949997 866.883972 1463.280029 
106.668999 867.638000 1466.430054 
106.637001 868.057007 1470.280029 
106.218002 868.619019 1469.949951 
106.557999 868.382019 1471.780029 
106.851997 868.143005 1472.550049 
106.832001 868.046997 1472.349976 
107.052002 867.885986 1472.760010 
105.565002 869.151001 1466.050049 
105.396004 869.328003 1464.890015 
105.959999 869.051025 1469.329956 
106.299004 868.650024 1471.030029 
105.199997 870.208984 1463.420044 
105.061996 871.052979 1463.619995 
105.280998 869.635010 1464.729980 
104.935997 871.617981 1464.079956 
104.892998 872.098999 1466.270020 
104.973999 871.877014 1466.250000 
104.930000 871.614014 1464.849976 
112.095001 871.533020 1480.630005 
111.916000 871.281982 1480.079956 
111.512001 871.025024 1479.540039 
111.617996 870.632019 1478.150024 
109.135002 865.409973 1459.949951 
108.045998 866.414978 1463.150024 
107.808998 866.458008 1463.150024 
107.577003 866.643005 1463.619995 
107.402000 866.677002 1463.449951 
107.189003 866.773987 1463.420044 
110.556000 865.400024 1459.650024 
110.080002 865.289978 1459.520020 
109.419998 865.489014 1460.180054 
104.510002 879.875977 1457.609985 
103.799004 878.965027 1459.630005 
104.003998 879.427979 1458.540039 
103.884003 879.182983 1459.459961 
104.054001 879.523010 1458.829956 
104.067001 879.487976 1459.219971 
103.807999 878.398010 1460.540039 
104.098999 877.760986 1462.979980 
104.313004 877.655029 1464.949951 
104.078003 877.723022 1468.339966 
104.481003 872.668030 1465.500000 
104.255997 873.325012 1466.199951 
104.376999 873.151001 1467.400024 
104.101997 873.770020 1470.880005 
104.112999 873.572998 1472.609985 
104.042999 873.455994 1473.760010 
105.297997 871.750977 1477.989990 
105.473000 871.385010 1478.020020 
104.488998 872.791016 1475.079956 
105.434998 871.388977 1477.680054 
105.043999 872.306030 1477.729980 
104.377998 873.969971 1476.119995 
105.061996 872.536987 1477.829956 
103.953003 875.138000 1475.219971 
104.425003 874.135010 1476.280029 
103.859001 875.414978 1474.790039 
103.830002 876.515991 1472.880005 
103.899002 877.862976 1470.670044 
103.908997 877.768005 1471.560059 
103.903999 876.653015 1473.189941 
106.780998 867.567017 1466.520020 
106.761002 867.956970 1470.349976 
107.040001 867.831970 1472.489990 
106.893997 868.622009 1473.339966 
107.113998 868.476990 1473.869995 
107.144997 868.002991 1473.290039 
107.225998 868.421997 1474.209961 
107.252998 867.908020 1473.500000 
107.320000 867.741028 1473.270020 
107.348999 867.830994 1473.650024 
105.508003 869.359009 1466.219971 
105.458000 869.635010 1466.599976 
105.961998 869.218018 1469.849976 
106.334999 868.737000 1471.329956 
105.107002 870.668030 1465.140015 
105.084000 871.638000 1466.520020 
105.277000 872.018982 1469.380005 
105.416000 871.776001 1469.630005 
105.658997 871.208008 1470.530029 
111.207001 873.388000 1483.410034 
111.208000 873.241028 1483.189941 
111.036003 873.403992 1483.310059 
111.644997 871.815002 1481.060059 
111.424004 872.421021 1481.979980 
111.625999 871.445984 1480.439941 
111.332001 871.932983 1481.229980 
111.151001 872.995972 1482.760010 
109.754997 870.695007 1479.569946 
109.978996 870.403992 1478.839966 
109.705002 869.065979 1475.959961 
111.078003 865.536987 1459.709961 
110.607002 866.806030 1462.760010 
108.269997 866.585999 1463.810059 
107.845001 867.234985 1466.420044 
107.559998 867.315002 1466.689941 
107.338997 867.356018 1466.640015 
107.151001 867.390015 1466.569946 
106.973999 867.479004 1466.699951 
106.864998 867.536987 1466.709961 
109.774002 866.481018 1462.619995 
108.931000 866.460022 1463.180054 
104.510002 880.031006 1458.079956 
103.981003 878.692017 1460.560059 
104.022003 879.322021 1459.630005 
104.522003 880.086975 1458.420044 
104.318001 879.684021 1459.510010 
104.577003 880.114014 1458.910034 
104.079002 877.999023 1462.329956 
104.078003 877.870972 1462.630005 
104.390999 877.943970 1463.770020 
104.577003 878.051025 1464.849976 
104.275002 878.000000 1467.770020 
104.092003 878.278992 1470.660034 
104.397003 873.156982 1468.709961 
105.204002 872.187988 1469.489990 
104.200996 873.635986 1471.250000 
104.303001 873.278992 1472.569946 
104.148003 873.309021 1473.650024 
104.598999 872.585022 1475.010010 
105.453003 871.747986 1478.359985 
105.731003 871.148987 1478.660034 
105.807999 870.903015 1478.589966 
105.875999 870.700989 1478.469971 
105.792000 870.747986 1478.260010 
105.489998 871.270996 1477.449951 
105.140999 872.768005 1478.030029 
105.429001 872.038025 1478.439941 
104.621002 874.120972 1476.760010 
104.052002 875.328979 1475.400024 
103.950996 875.737976 1474.810059 
103.992996 878.075989 1471.310059 
104.073997 877.062012 1473.369995 
104.116997 878.047974 1472.079956 
106.884003 867.869019 1470.410034 
107.214996 867.758972 1472.699951 
106.563004 869.179993 1472.670044 
107.018997 869.166016 1474.670044 
106.514000 869.883972 1473.319946 
106.474998 870.124023 1473.619995 
107.147003 869.041016 1475.040039 
107.330002 868.367004 1474.390015 
107.259003 868.989014 1475.300049 
107.421997 868.328003 1474.540039 
107.443001 867.669006 1473.420044 
107.459999 867.802002 1473.819946 
107.516998 868.302979 1474.680054 
105.283997 870.666016 1466.739990 
105.767998 870.431030 1470.069946 
106.155998 869.627014 1471.599976 
105.602997 871.703003 1471.560059 
105.684998 871.473022 1471.479980 
105.732002 871.278015 1471.250000 
105.893997 870.887024 1472.109985 
111.319000 873.432983 1483.579956 
110.990997 873.523987 1483.560059 
110.926003 873.533997 1483.469971 
110.719002 873.182983 1482.959961 
110.883003 873.335022 1483.160034 
110.796997 873.491028 1483.260010 
110.811996 873.586975 1483.410034 
110.741997 872.872986 1482.550049 
109.382004 871.577026 1480.979980 
109.542000 871.020996 1480.189941 
109.420998 871.328003 1480.650024 
108.133003 870.043030 1478.949951 
108.669998 868.885010 1476.219971 
109.041000 868.448975 1475.089966 
110.737000 869.017029 1474.839966 
109.261002 867.872009 1473.569946 
110.443001 868.263000 1473.489990 
109.991997 867.442993 1465.400024 
108.227997 867.473022 1467.420044 
108.557999 867.328979 1466.589966 
107.705002 867.708984 1468.609985 
107.218002 867.788025 1468.819946 
106.929001 867.836975 1468.859985 
106.996002 867.823975 1470.449951 
106.865997 867.880005 1468.790039 
109.166000 867.221985 1465.550049 
104.150002 878.929993 1460.540039 
104.264000 878.218018 1462.449951 
104.375999 879.192993 1460.579956 
104.795998 880.182983 1459.380005 
104.695000 879.453979 1460.699951 
105.556000 881.005005 1458.339966 
104.502998 878.132996 1463.680054 
104.538002 878.453979 1467.869995 
105.011002 879.036987 1467.719971 
105.182999 878.806030 1465.119995 
104.889999 878.505981 1464.040039 
104.195000 878.385010 1471.550049 
104.481003 878.822021 1470.589966 
104.867996 872.632996 1469.569946 
104.328003 873.411987 1471.250000 
105.400002 872.112000 1470.670044 
104.893997 872.474976 1473.030029 
104.488998 872.781982 1474.239990 
104.684998 872.531982 1474.209961 
105.172997 872.255981 1472.319946 
105.489998 871.286011 1476.910034 
105.765999 871.318970 1478.770020 
105.973999 870.979004 1478.979980 
105.957001 870.827026 1478.839966 
105.998001 870.630005 1478.709961 
105.879997 870.620972 1478.329956 
105.964996 870.578979 1478.599976 
105.837997 870.676025 1478.020020 
105.630997 872.526001 1478.750000 
105.389000 873.081970 1478.500000 
105.820000 871.668030 1478.890015 
104.753998 874.414001 1476.959961 
104.309998 875.546021 1475.760010 
104.142998 875.963989 1475.020020 
104.911003 874.664001 1477.180054 
104.292999 877.314026 1473.910034 
104.351997 878.140015 1472.829956 
107.367996 867.692993 1472.719971 
107.530998 867.625977 1473.359985 
106.962997 869.388977 1475.119995 
106.892998 869.458008 1474.800049 
106.294998 870.518982 1473.670044 
107.071999 869.307007 1475.489990 
107.351997 868.942993 1475.479980 
107.109001 869.310974 1475.630005 
107.162003 869.306030 1475.810059 
107.436996 868.924988 1475.689941 
107.556000 867.768982 1473.910034 
107.622002 868.276001 1474.810059 
107.579002 868.867004 1475.849976 
107.471001 869.041992 1476.069946 
105.515999 871.841003 1471.790039 
106.209999 870.695007 1473.949951 
111.699997 873.572021 1485.140015 
111.472000 873.513977 1484.359985 
111.000999 873.575989 1483.719971 
110.834999 873.651001 1483.569946 
110.615997 873.372986 1483.069946 
110.404999 873.137024 1482.780029 
110.626999 873.559021 1483.219971 
110.685997 873.658997 1483.380005 
110.700996 873.729004 1483.510010 
109.231003 872.039001 1481.500000 
108.990997 871.609985 1481.030029 
107.390999 870.223999 1479.329956 
107.894997 870.252014 1479.359985 
107.587997 870.075989 1479.109985 
108.398003 868.841003 1476.250000 
107.838997 869.905029 1478.760010 
108.741997 867.814026 1473.890015 
109.957001 867.862976 1472.829956 
108.815002 867.671021 1473.270020 
111.987999 868.458008 1472.199951 
111.304001 868.148010 1466.550049 
110.666000 868.036011 1469.930054 
109.487000 867.758972 1467.579956 
108.016998 867.752014 1468.859985 
108.670998 867.754028 1468.439941 
107.570000 867.789001 1469.099976 
107.365997 867.729004 1470.760010 
107.658997 867.710022 1470.729980 
107.132004 867.781006 1470.579956 
104.628998 878.512024 1462.810059 
105.249001 880.640991 1459.010010 
105.111000 879.765015 1460.770020 
105.098999 878.979980 1462.709961 
106.010002 880.007019 1467.140015 
105.251999 879.726990 1470.300049 
105.789001 879.362976 1464.040039 
105.026001 878.744019 1463.410034 
104.459999 878.573975 1472.229980 
104.810997 879.187988 1471.410034 
104.804001 872.810974 1470.829956 
105.330002 872.203003 1471.170044 
105.846001 870.955994 1476.239990 
105.392998 871.992004 1471.979980 
105.755997 871.387024 1473.250000 
106.457001 870.268005 1475.430054 
105.938004 870.565002 1477.819946 
106.033997 871.145020 1479.109985 
106.180000 870.872986 1479.170044 
106.081001 870.737000 1478.969971 
106.080002 870.523987 1478.719971 
106.112999 870.583008 1478.880005 
105.962997 870.525024 1478.109985 
106.073997 870.429993 1478.310059 
106.135002 870.460999 1478.810059 
106.185997 870.354004 1478.489990 
105.967003 872.898987 1479.339966 
106.084000 872.322998 1479.400024 
105.494003 873.575012 1478.550049 
105.860001 873.276001 1479.189941 
106.153999 871.387024 1479.260010 
104.507004 875.677979 1476.010010 
104.422997 877.098022 1474.489990 
105.259003 874.698975 1477.719971 
105.758003 873.810974 1478.890015 
104.625999 878.260986 1473.449951 
107.573997 867.633972 1472.550049 
107.714996 867.635010 1473.189941 
107.663002 867.643982 1473.699951 
106.838997 869.700012 1475.540039 
106.781998 869.741028 1475.119995 
106.983002 869.536987 1475.810059 
107.292000 869.187012 1475.930054 
107.099998 869.505005 1476.430054 
107.183998 869.340027 1476.000000 
106.961998 869.658997 1476.339966 
107.266998 869.312012 1476.329956 
107.667000 867.799011 1474.089966 
107.556999 867.682983 1473.800049 
107.724998 868.330017 1475.030029 
107.682999 868.903015 1476.089966 
107.508003 869.169006 1476.459961 
107.327003 869.328003 1476.579956 
107.337997 869.234985 1476.329956 
111.849998 873.627014 1485.430054 
111.605003 873.705994 1485.380005 
111.483002 873.653015 1485.069946 
111.149002 873.677979 1484.400024 
110.863998 873.700989 1483.780029 
110.728996 873.806030 1483.689941 
110.470001 873.528015 1483.109985 
110.464996 873.312988 1482.949951 
110.286003 873.343018 1482.849976 
108.863998 871.955994 1481.329956 
109.316002 872.552979 1481.939941 
110.554001 873.702026 1483.300049 
110.593002 873.773987 1483.459961 
110.612999 873.844971 1483.599976 
107.347000 870.471985 1479.619995 
107.133003 870.278015 1479.319946 
107.294998 870.109009 1479.140015 
107.473999 869.872009 1478.729980 
107.248001 869.940002 1478.810059 
107.991997 869.440979 1477.609985 
108.388000 868.369995 1475.229980 
108.406998 867.784973 1473.979980 
108.220001 867.848022 1474.199951 
109.209999 867.693970 1472.479980 
108.526001 867.638977 1473.349976 
108.625999 867.601990 1472.689941 
109.404999 867.817017 1470.380005 
109.500999 867.875000 1468.300049 
108.609001 867.744019 1470.609985 
108.042999 867.715027 1470.650024 
107.939003 867.606018 1472.880005 
108.133003 867.575989 1472.520020 
105.806000 880.437988 1460.329956 
106.000999 879.776978 1462.390015 
105.858002 879.523987 1463.040039 
105.680000 880.182983 1471.150024 
104.738998 878.833008 1472.579956 
105.513000 879.804016 1472.209961 
106.305000 870.276001 1477.150024 
106.730003 869.893982 1476.069946 
106.109001 870.367004 1478.020020 
106.260002 871.015991 1479.369995 
106.255997 870.684998 1479.060059 
106.432999 870.815979 1479.349976 
106.176003 870.460999 1478.829956 
106.306999 870.544006 1479.020020 
106.231003 870.268982 1478.260010 
106.334000 870.309998 1478.790039 
106.401001 870.213013 1478.619995 
106.335999 870.219971 1478.469971 
106.771004 873.000000 1480.209961 
106.765999 873.307983 1480.180054 
107.648003 873.205994 1481.130005 
107.138000 872.448975 1480.469971 
106.738998 873.604004 1480.099976 
106.908997 871.771973 1480.109985 
104.619003 877.081970 1474.849976 
104.968002 876.744019 1475.640015 
105.288002 875.312012 1477.349976 
104.861000 878.318970 1473.920044 
106.596001 874.215027 1479.660034 
106.665001 873.935974 1479.910034 
106.074997 873.726013 1479.319946 
105.095001 878.958008 1473.260010 
107.971001 867.650024 1473.569946 
107.832001 867.791992 1474.050049 
106.763000 869.851013 1477.569946 
106.609001 869.976013 1477.540039 
106.455002 870.101013 1477.369995 
107.835999 868.328979 1475.109985 
107.793999 868.909973 1476.219971 
107.683998 869.098999 1476.489990 
107.176003 869.616028 1477.609985 
107.056999 869.671997 1477.579956 
106.896004 869.773010 1477.599976 
111.824997 873.747009 1485.630005 
111.499001 873.848022 1485.520020 
111.345001 873.773987 1485.260010 
111.253998 873.754028 1485.040039 
110.936996 873.822021 1484.410034 
110.658997 873.927002 1483.719971 
110.832001 873.916016 1484.400024 
110.146004 873.611023 1482.939941 
110.333000 873.781006 1483.180054 
109.310997 872.804016 1482.099976 
107.397003 870.979004 1480.079956 
107.121002 870.536987 1479.619995 
110.428001 873.874023 1483.400024 
110.494003 873.914001 1483.569946 
110.512001 874.013977 1483.739990 
106.846001 870.393005 1479.339966 
106.926003 870.159973 1479.060059 
107.765999 869.429016 1477.569946 
107.019997 870.008972 1478.810059 
107.056999 869.903992 1478.540039 
107.511002 869.525024 1477.699951 
108.172997 868.351013 1475.209961 
108.195000 867.713013 1473.760010 
108.009003 867.810974 1474.079956 
108.244003 867.606995 1473.189941 
108.344002 867.580994 1472.630005 
106.650002 881.052002 1471.619995 
106.100998 880.156982 1472.819946 
106.385002 880.734009 1472.140015 
106.995003 881.182983 1472.280029 
107.027000 871.575989 1480.150024 
106.455002 870.672974 1479.219971 
106.666000 870.700012 1479.489990 
107.252998 871.302002 1480.180054 
107.115997 871.387024 1480.119995 
106.428001 870.377991 1478.979980 
106.578003 870.453003 1479.199951 
106.575996 870.572021 1479.280029 
106.577003 870.169983 1478.770020 
106.683998 870.036011 1478.469971 
106.556000 870.075989 1478.380005 
108.226997 873.932983 1481.810059 
108.279999 873.838013 1481.869995 
107.556999 873.630981 1480.949951 
108.133003 874.004028 1481.660034 
109.099998 874.315002 1482.640015 
109.097000 874.492981 1482.660034 
108.981003 873.984009 1482.449951 
107.046997 873.750000 1480.390015 
107.754997 874.044983 1481.040039 
108.170998 874.203003 1481.660034 
108.940002 873.744995 1482.349976 
104.976997 878.171021 1474.310059 
105.346001 877.395996 1475.479980 
105.533997 875.849976 1477.250000 
106.586998 874.729980 1479.270020 
105.268997 878.625000 1474.160034 
105.079002 878.700012 1473.770020 
107.674004 874.142029 1480.920044 
107.741997 874.309998 1480.939941 
105.623001 879.377014 1473.500000 
107.986000 868.317017 1475.130005 
107.837997 869.005981 1476.459961 
107.912003 869.007996 1476.510010 
107.339996 869.549011 1477.589966 
106.878998 869.958984 1478.479980 
111.147003 875.252014 1486.219971 
111.285004 875.138000 1486.319946 
111.033997 875.338013 1486.069946 
111.098000 876.203979 1486.130005 
110.911003 876.177979 1485.790039 
110.827003 875.294983 1485.729980 
111.002998 875.447021 1486.000000 
111.759003 873.895020 1485.770020 
111.431000 874.044006 1485.670044 
111.271004 873.914001 1485.390015 
111.157997 873.856995 1485.150024 
110.724998 874.052002 1484.420044 
111.022003 873.982971 1485.119995 
111.087997 873.888000 1485.079956 
109.209999 873.023987 1482.180054 
109.899002 873.809021 1482.890015 
110.127998 873.974976 1483.130005 
110.245003 873.992004 1483.319946 
107.308998 871.148987 1480.160034 
106.821999 870.565002 1479.489990 
110.355003 874.039001 1483.550049 
110.359001 874.179016 1483.819946 
110.622002 874.176025 1484.459961 
106.651001 870.268005 1479.040039 
106.810997 870.072021 1478.760010 
107.726997 880.901001 1473.949951 
108.984001 873.575989 1482.319946 
109.073997 873.330994 1482.260010 
108.570999 874.322021 1482.219971 
109.097000 874.684021 1482.650024 
108.630997 874.504028 1482.260010 
109.639999 874.585999 1483.050049 
109.710999 874.473022 1483.079956 
109.691002 874.705994 1483.119995 
109.684998 874.818970 1483.119995 
109.744003 874.306030 1483.040039 
108.200996 874.383972 1481.630005 
108.569000 874.572021 1482.180054 
109.844002 874.151001 1483.020020 
106.648003 878.442993 1475.800049 
106.420998 875.460022 1478.489990 
106.851997 879.450012 1474.969971 
107.781998 874.502014 1480.869995 
107.612999 874.836975 1480.290039 
107.151001 880.065979 1474.500000 
108.223999 874.525024 1481.589966 
108.258003 874.677979 1481.550049 
111.458000 875.083008 1486.459961 
110.936996 875.041016 1485.859985 
111.070000 875.021973 1486.040039 
111.306000 874.892029 1486.219971 
111.126999 874.867981 1486.010010 
110.794998 875.080017 1485.670044 
110.694000 875.362000 1485.520020 
110.775002 876.101013 1485.479980 
110.530998 875.431030 1485.170044 
110.542000 875.250000 1485.209961 
110.573997 875.083008 1485.280029 
110.619003 874.958984 1485.319946 
111.734001 874.098022 1485.949951 
111.500000 874.219971 1485.890015 
111.254997 874.106995 1485.569946 
111.163002 873.992004 1485.359985 
110.933998 874.135986 1485.219971 
110.054001 874.171021 1483.209961 
110.203003 874.107971 1483.390015 
110.231003 874.203003 1483.599976 
110.252998 873.447998 1484.359985 
110.452003 874.361023 1484.449951 
110.208000 874.356018 1483.810059 
110.783997 874.286987 1485.170044 
109.598000 874.971985 1483.040039 
109.125999 874.939026 1482.619995 
109.816002 874.601013 1483.229980 
109.862000 874.429016 1483.229980 
109.853996 874.822021 1483.250000 
109.786003 874.898987 1483.229980 
109.921997 874.315002 1483.209961 
109.178001 875.187012 1482.520020 
107.119003 876.609009 1477.949951 
107.906998 879.552979 1475.959961 
108.042999 879.440979 1476.219971 
108.060997 877.770996 1477.589966 
107.974998 876.033997 1479.280029 
108.155998 880.135010 1475.640015 
108.336998 874.898987 1481.500000 
107.914001 874.952026 1480.589966 
108.839996 875.612000 1481.630005 
108.192001 875.927002 1479.660034 
109.212997 875.460999 1482.400024 
109.318001 875.799988 1482.270020 
111.598000 874.914001 1486.520020 
111.681000 874.732971 1486.469971 
111.709999 874.346985 1486.180054 
110.900002 874.802979 1485.699951 
110.739998 874.864990 1485.479980 
111.420998 874.705017 1486.199951 
111.295998 874.729004 1486.089966 
111.185997 874.684021 1485.939941 
110.989998 874.658020 1485.739990 
110.544998 875.916992 1484.839966 
110.580002 876.129028 1484.800049 
110.330002 875.322021 1484.520020 
110.294998 875.057983 1484.530029 
110.299004 874.893005 1484.489990 
110.332001 874.763977 1484.459961 
110.606003 874.767029 1485.199951 
111.422997 874.343018 1485.920044 
111.238998 874.229980 1485.660034 
111.115997 874.117004 1485.449951 
110.991997 874.231995 1485.430054 
110.079002 874.239014 1483.349976 
110.146004 874.307007 1483.530029 
110.406998 874.463013 1484.430054 
110.650002 874.484009 1485.150024 
110.175003 874.418030 1483.640015 
110.389000 874.541016 1484.439941 
110.837997 874.387024 1485.369995 
108.453003 879.741028 1476.550049 
108.283997 879.869995 1476.140015 
