125.14 974.625 2144.15
125.154 974.823 2144.64
123.347 972.829 2144.89
123.413 972.986 2145.45
123.408 972.932 2145.98
125.186 974.798 2146.58
123.294 972.306 2143.91
123.249 972.533 2144.41
122.919 972.303 2145.08
122.926 972.243 2145.98
123.827 971.221 2141.58
122.962 971.9 2144.13
123.349 970.657 2141.84
122.555 971.466 2144.81
122.6 971.288 2144.24
122.629 971.656 2145.98
123.521 972.689 2146.8
123.132 971.94 2146.82
123.031 970.161 2142.04
123.711 968.856 2139.04
122.624 971.812 2145.27
122.348 970.819 2144.95
122.829 969.592 2142.09
123.966 971.854 2148.03
123.481 971.2 2147.87
123.137 970.581 2147.78
123.265 968.109 2139.44
123.65 967.888 2137.57
122.451 971.298 2145.28
122.786 968.84 2141.71
122.399 970.072 2143.88
122.318 970.286 2144.82
122.572 970.962 2146.48
122.453 971.175 2146.04
124.349 970.748 2149.45
123.811 969.559 2149.78
123.662 968.867 2150.22
124.548 966.663 2157.02
123.642 967.458 2136.15
123.578 967.257 2135.12
123.428 967.085 2134.08
123.016 967.182 2139.16
123.198 966.825 2137.38
122.307 970.339 2145.79
122.281 970.039 2145.39
122.704 968.088 2141.61
122.951 967.579 2140.52
122.33 969.344 2144.11
122.752 969.854 2147.52
122.599 969.35 2147.16
124.018 968.542 2151.52
123.669 968.081 2150.97
124.159 966.155 2156.71
124.501 965.571 2158.26
123.278 966.545 2135.97
123.288 966.643 2135.01
123.094 966.945 2132.77
122.89 966.628 2139.33
122.978 965.592 2136.35
122.325 969.58 2145.97
122.688 968.604 2147.52
122.382 968.675 2144.06
122.65 966.825 2141.6
122.82 966.041 2139.16
122.675 966.221 2141.79
123.325 968.075 2149.81
123.433 967.616 2150.48
123.215 967.213 2149.9
124.121 967.119 2154.66
123.759 966.689 2154.21
124.173 965.175 2157.75
124.713 964.836 2159.29
123.098 965.907 2135.31
123.263 967.994 2131.49
122.917 966.254 2133.23
122.979 967.285 2131.35
122.928 965.23 2135.47
122.854 964.672 2135.77
122.647 968.304 2147.03
123.194 966.423 2150.66
122.615 967.216 2144.01
122.738 965.593 2141.99
122.542 968.116 2145.03
122.676 966.925 2145.4
122.427 968.801 2146.18
122.79 967.119 2146.84
122.822 965.231 2138.69
122.853 965.271 2139.96
123.552 966.294 2153.76
123.399 966.04 2152.95
123.902 965.713 2156.48
124.558 964.297 2159.2
122.77 965.599 2133.48
122.735 966.495 2131.46
122.818 966.821 2130.94
122.684 964.945 2133.62
122.63 964.322 2133.54
123.008 967.118 2148.94
123.519 965.366 2154.7
122.819 965.552 2143.6
122.94 963.701 2139.55
123.328 963.32 2142.65
123.403 964.766 2147.88
123.032 966.396 2148.19
122.822 964.485 2138.75
122.829 963.69 2136.13
122.818 963.541 2137.47
123.689 964.98 2156.32
124.808 963.076 2160.12
124.134 964.103 2158.08
124.434 963.718 2159.2
123.139 967.7 2131.01
122.558 965.757 2131.62
122.596 966.023 2131.15
122.477 964.935 2131.5
122.531 963.342 2130.62
122.631 963.619 2133.65
123.055 966.438 2148.95
123.313 965.498 2150.91
123.42 965.431 2153.45
123.719 964.412 2156.49
123.311 964.09 2143.45
123.134 964.765 2143.86
123.193 964.856 2145.32
122.874 962.939 2136.97
123.512 963.789 2144.8
123.592 962.326 2143.45
123.081 962.091 2137.57
123.134 965.229 2146.5
123.68 964.191 2149.01
123.876 963.03 2146.62
123.549 964.046 2147.36
123.801 963.084 2147.77
122.854 963.006 2136.29
124.648 962.292 2159.85
122.518 965.491 2131.16
122.97 967.063 2130.5
122.802 966.457 2130.32
122.655 966.05 2130.58
122.535 964.214 2130.77
122.544 962.518 2130.02
122.582 962.144 2128.02
122.582 963.005 2132.22
123.698 963.979 2150.01
123.75 963.638 2154
123.704 964.075 2155.23
123.767 963.816 2156.38
123.986 963.873 2157.33
122.895 962.132 2133.04
122.59 962.541 2131.41
123.531 963.564 2145.59
124.08 962.28 2146.27
123.505 961.674 2141.16
123.262 961.07 2135.2
124.01 962.545 2150.02
123.747 963.219 2146.03
124.074 962.331 2147.71
123.635 963.594 2147.13
124.225 963.452 2158.51
122.598 964.701 2130.42
123.121 965.902 2129.29
122.809 965.531 2129.88
122.599 962.701 2128.95
123.803 963.26 2152.3
123.971 962.843 2154.57
124.14 962.314 2156.17
124.059 962.962 2156.91
124.22 963.113 2157.67
124.273 962.902 2158.44
122.825 962.279 2131.93
123.158 960.742 2132.36
123.271 960.868 2133.52
122.758 961.999 2131.31
123.942 959.995 2139.8
123.325 961.239 2138.11
123.295 960.968 2136.97
123.431 960.404 2135.84
123.394 960.627 2134.2
123.573 960.029 2134.37
123.989 962.752 2151.88
124.334 962.527 2159.03
124.545 962.01 2159.43
125.077 961.201 2161.16
122.682 963.448 2128.77
123.115 964.595 2128.46
122.779 964.189 2129.28
122.604 961.384 2127.91
122.53 961.776 2127.39
122.162 961.206 2125.89
124.106 962.522 2154.21
124.337 961.731 2155.75
124.397 961.494 2156.39
123.837 963.128 2156.13
124.402 961.916 2157.13
124.577 961.314 2157.35
122.978 961.135 2131.41
123.366 960.027 2133.08
122.609 961.808 2130.6
122.601 961.733 2129.5
123.84 959.548 2135.67
122.755 963.458 2128.26
122.66 962.583 2127.63
122.173 960.693 2126.14
122.298 960.246 2126.43
122.721 961.005 2128.37
123.016 960.51 2129.1
122.192 961.621 2125.49
122.554 962.158 2127.03
121.871 961.11 2124.65
124.733 961.402 2153.36
124.554 961.548 2154.17
124.354 961.704 2155.11
124.742 960.933 2155.88
124.456 962.096 2158.44
124.607 961.644 2158.67
124.955 960.718 2160.04
123.167 960.49 2130.62
122.961 960.913 2130.21
122.823 963.079 2127.1
122.828 959.184 2127.25
122.994 960.2 2128.5
121.859 960.66 2124.94
122.607 962.479 2126.27
121.908 960.1 2125.1
122.409 959.426 2126.06
122.892 958.225 2126.7
123.259 957.562 2127.45
121.781 960.667 2124.31
123.044 963.264 2126.05
122.397 962.325 2125.14
122.345 959.033 2125.2
122.831 958.153 2126.2
122.064 959.345 2124.59
121.908 961.517 2124.31
122.135 962.124 2124
121.84 960.269 2123.88
121.885 959.883 2124.21
122.919 963.214 2124.84
122.452 958.116 2124.22
122.302 958.649 2124.48
122.799 957.619 2125.23
123.04 957.482 2126.6
121.989 959.396 2123.91
122.334 958.486 2123.41
123.328 957.168 2120.61
122.731 963.077 2123.96
122.528 957.889 2123.5
123.078 956.363 2124.01
122.406 962.573 2123.68
121.852 961.192 2123.81
122.294 959.119 2122.98
122.478 958.559 2122.7
122.691 957.953 2122.46
122.736 957.333 2123.16
122.972 957.204 2122.17
123.082 957.695 2121.25
123.09 963.142 2122.65
122.032 961.834 2123.53
122.052 961.124 2123.2
122.872 958.297 2121.85
122.812 962.508 2122.55
121.891 960.64 2123.5
122.42 959.663 2122.6
122.896 958.994 2121.8
123.133 961.435 2121.75
122.659 961.764 2122.43
122.537 960.152 2122.4
122.638 960.949 2122.34
