224.095 734.978 1389.27 
221.951 735.423 1386.01 
227.754 734.206 1398.24 
225.792 734.842 1397.04 
226.48 734.531 1395.97 
226.238 734.333 1394.1 
224.248 735.119 1393.77 
222.315 735.685 1393.36 
218.638 736.429 1390.05 
219.287 735.996 1383.41 
217.493 736.223 1380.79 
228.152 734.297 1399.25 
224.643 735.265 1400.48 
223.979 735.405 1400.12 
223.732 735.512 1398.34 
220.383 736.333 1398.36 
218.433 736.695 1394.37 
216.268 737.107 1392.11 
215.74 737.231 1393.9 
217.312 736.765 1386.86 
216.423 736.922 1382.88 
218.191 735.061 1375.6 
213.755 736.682 1378.25 
214.48 735.913 1375.85 
223.499 737.155 1404.82 
222.752 737.875 1405.72 
227.689 734.813 1400.54 
227.686 734.573 1399.91 
224.874 735.307 1400.95 
219.622 736.641 1402.6 
219.943 736.466 1401.71 
219.754 736.42 1400.88 
218.297 736.742 1399.02 
217.542 737.115 1396.74 
216.194 737.317 1395.51 
215.761 737.294 1391.94 
216.665 737.061 1387.62 
216.206 737.113 1384.17 
215.236 737.175 1382.02 
218.559 734.554 1373.78 
210.486 736.221 1373.39 
212.708 735.278 1372.16 
216.582 733.62 1369.96 
218.42 732.054 1367.04 
225.709 736.112 1402.99 
219.865 737.551 1404.95 
219.499 737.253 1404.4 
227.731 735.496 1401.86 
221.99 738.343 1406.07 
219.952 737.907 1405.41 
219.979 738.711 1406.23 
225.4 735.316 1401.25 
225.319 735.536 1401.8 
219.486 736.831 1403.33 
217.752 737.089 1403.51 
217.793 736.906 1402.55 
217.621 736.86 1401.81 
217.665 736.934 1399.12 
216.892 737.349 1397.21 
215.765 737.569 1396.09 
215.12 737.437 1394.36 
214.615 737.642 1393.72 
216.078 737.313 1385.38 
215.642 737.382 1383.65 
214.61 737.359 1381.61 
212.48 736.907 1377.47 
209.753 736.536 1373.62 
208.763 736.077 1371.61 
209.447 735.534 1370.64 
211.724 734.65 1369.47 
216.207 732.133 1365.72 
214.452 733.27 1367.14 
217.199 731.058 1363.96 
219.943 736.982 1403.89 
217.854 737.566 1404.68 
217.906 737.28 1404.11 
219.902 738.333 1405.86 
218.002 738.278 1405.68 
218.044 738.827 1406.18 
220.134 739.491 1406.83 
217.357 737.32 1403.94 
217.293 737.147 1403.26 
216.84 737.418 1397.77 
215.161 737.635 1391.48 
216.242 737.303 1388.15 
215.957 737.486 1385.88 
215.584 737.546 1384.34 
214.71 737.625 1382.6 
213.476 737.386 1379.87 
211.526 737.197 1377.17 
210.441 736.978 1375.19 
208.408 736.346 1371.99 
208.57 735.893 1370.67 
209.166 735.445 1369.93 
211.36 734.577 1368.51 
216.515 731.461 1364.11 
212.985 733.614 1365.13 
215.493 732.225 1364.92 
217.548 729.928 1362.29 
217.789 737.988 1405.29 
217.399 737.828 1404.93 
217.32 738.419 1405.67 
216.841 737.354 1403.44 
217.171 737.09 1402.38 
217.102 737.163 1399.5 
216.04 737.901 1397.87 
215.502 737.785 1396.56 
214.625 737.875 1395.53 
214.705 737.705 1394.99 
214.287 737.882 1394.28 
215.721 737.701 1387.62 
215.568 737.772 1385.25 
211.89 737.299 1377.83 
210.033 737.261 1375.48 
209.358 736.824 1373.92 
208.729 736.391 1372.55 
208.204 736.587 1372.42 
208.18 736.278 1371.29 
208.5 735.774 1369.95 
208.851 735.515 1369.47 
210.68 734.77 1367.68 
214.707 732.26 1362.79 
216.756 731.127 1363.61 
216.969 730.042 1362.07 
211.24 734.485 1365.45 
212.069 733.701 1363.35 
214.549 732.718 1364.31 
213.87 732.767 1362.6 
216.967 728.832 1360.11 
217.527 738.726 1406.02 
216.693 737.572 1403.93 
216.625 737.482 1400.29 
216.567 737.595 1398.17 
214.09 738.038 1393.79 
215.615 737.749 1389.29 
215.483 738.059 1386.46 
214.247 737.941 1382.57 
212.967 737.568 1379.54 
207.975 736.317 1370.77 
209.859 735.105 1367.59 
212.036 733.213 1360.34 
213.04 732.555 1359.81 
214.948 731.954 1362.41 
216.383 729.948 1361.38 
215.79 731.3 1362.53 
210.781 734.713 1365.24 
216.556 728.673 1359.38 
218.678 740.436 1407 
218.305 739.432 1406.6 
216.999 737.72 1404.51 
216.491 737.593 1400.94 
215.079 738.21 1397.16 
214.308 738.288 1396.18 
214.208 738.176 1395.56 
214.763 738.032 1391.11 
213.88 738.42 1394.99 
213.704 738.57 1394.17 
213.823 738.417 1393.45 
214.169 738.028 1393.16 
215.346 738.231 1385.82 
215.231 738.039 1384.72 
208.312 736.756 1372.93 
212.236 732.865 1358.94 
213.057 732.393 1359.03 
213.522 732.35 1360.41 
216.025 729.881 1360.89 
216.235 728.978 1359.81 
215.248 731.241 1361.47 
210.345 735.011 1365.36 
211.313 734.189 1363.76 
211.271 733.984 1361.97 
217.845 740.151 1406.65 
217.812 739.374 1406.5 
216.83 738.58 1405.59 
216.905 738.019 1404.93 
216.388 737.688 1403.37 
215.997 738.095 1398.74 
215.522 738.36 1398.14 
213.907 738.557 1395.7 
215.32 738.073 1389.04 
215.321 738.191 1387.92 
215.069 738.466 1388.82 
215.273 738.538 1386.96 
215.227 738.26 1385.23 
210.453 737.344 1376.22 
208.893 737.085 1373.98 
207.903 736.626 1371.89 
207.977 736.128 1369.63 
208.3 735.85 1368.84 
209.209 735.534 1367.14 
211.314 733.646 1360.42 
211.291 733.425 1359.22 
213.305 732.169 1358.61 
213.563 732.07 1359.55 
213.953 731.799 1360.18 
214.11 732.008 1360.95 
215.341 730.36 1360.57 
215.547 729.341 1359.66 
214.753 730.699 1360.22 
215.824 729.009 1359.33 
210.591 734.862 1364.61 
210.757 734.669 1363.64 
216.997 728.314 1358.63 
215.849 738.314 1399.36 
214.441 738.557 1390.71 
214.116 738.468 1382.99 
208.985 737.4 1374.44 
207.614 736.813 1370.75 
207.82 736.354 1369.11 
214.369 730.636 1359.25 
215.071 729.703 1359.53 
215.317 729.286 1359.17 
210.163 735.252 1364.94 
210.553 734.38 1360.42 
210.927 733.997 1360.71 
210.841 733.749 1358.91 
215.982 728.788 1358.67 
215.394 729.178 1358.48 
216.566 728.491 1358.33 
217.326 739.86 1406.39 
217.25 739.152 1406.21 
216.372 737.97 1404.2 
216.122 738.096 1403.6 
216.262 737.86 1401.73 
215.284 738.816 1398.38 
215.59 738.565 1398.8 
213.584 738.991 1395.26 
213.506 739.051 1394.34 
213.554 738.942 1393.38 
213.868 738.467 1392.8 
215.16 738.92 1387.58 
215.009 739.059 1388.36 
215.21 738.759 1386.33 
215.134 738.747 1385.65 
214.538 738.751 1384.08 
213.176 738.306 1380.77 
212.57 737.491 1378.85 
207.658 736.802 1371.41 
208.048 736.224 1368.41 
208.972 735.85 1366.78 
212.256 732.861 1358.21 
213.324 732.196 1358 
213.692 731.77 1358.72 
214.733 729.795 1358.8 
209.845 735.732 1364.76 
210.395 735.17 1363.98 
210.424 735.198 1363.48 
210.517 734.93 1362.64 
210.274 734.372 1358.81 
216.245 728.709 1357.95 
219.167 741.373 1406.86 
218.661 741.112 1406.76 
216.952 739.858 1406.04 
216.77 739.169 1405.87 
216.436 738.34 1404.9 
215.964 738.366 1400.61 
214.724 738.655 1397.47 
214.117 738.769 1396.59 
213.386 739.565 1394.83 
213.872 738.847 1396.13 
213.401 739.604 1393.36 
213.65 739.027 1392.55 
215.149 739.31 1387.26 
215.142 739.48 1386.72 
215.128 739.347 1386.12 
213.877 738.26 1382.28 
212.585 738.1 1379.19 
210.599 737.647 1376.82 
207.582 736.865 1370.21 
207.602 736.906 1369.17 
210.347 734.364 1358.1 
211.009 733.657 1358.27 
212.3 732.997 1357.52 
213.772 731.781 1358 
214.338 730.598 1358.7 
210.141 735.727 1363.72 
210.433 735.03 1362.11 
210.077 734.712 1358.49 
215.584 729.211 1357.71 
218.653 741.576 1406.31 
218.088 740.868 1406.54 
216.453 738.944 1405.43 
216.118 738.487 1404.34 
216.137 738.128 1402.45 
215.901 738.322 1399.97 
214.582 739.26 1397.74 
215.377 739.039 1399 
213.449 739.482 1395.37 
213.642 739.466 1396.12 
213.345 739.541 1394.1 
213.546 739.538 1392.61 
214.908 739.676 1388.7 
214.264 739.122 1390.57 
214.996 739.227 1385.51 
214.891 739.096 1385.01 
211.445 737.596 1377.74 
212.253 737.761 1378.54 
207.956 737.383 1372.95 
207.849 736.98 1372.59 
207.579 737.061 1372.03 
207.495 737.2 1371.14 
207.697 736.959 1368.59 
207.861 736.819 1368.11 
208.792 736.409 1366.39 
210.694 734.26 1357.43 
211.146 733.845 1357.39 
212.323 733.237 1356.94 
213.54 732.272 1357.25 
214.069 731.751 1357.17 
210.162 735.921 1363.25 
210.347 735.447 1362.72 
210.367 735.174 1361.61 
210.297 734.709 1359.86 
210.069 734.85 1357.73 
216.082 729.163 1356.98 
215.145 729.461 1358.01 
214.79 742.676 1395.74 
214.782 742.815 1395.07 
214.776 742.472 1396.22 
215.485 743.096 1397.25 
217.436 742.577 1402.1 
217.047 742.172 1401.73 
217.563 740.622 1406.25 
215.576 739.061 1399.64 
215.981 738.512 1401.14 
215.152 739.333 1398.64 
213.375 740.191 1394.1 
213.428 740.285 1393.33 
215.089 739.929 1388.12 
214.272 740.084 1390.65 
215.035 740.21 1388.59 
213.728 738.768 1382.23 
212.297 738.259 1378.68 
207.708 737.436 1372.41 
207.531 737.193 1369.8 
207.623 737.499 1368.72 
209.872 736.175 1364.1 
210.396 734.761 1357.15 
210.873 734.361 1356.89 
211.296 733.996 1356.86 
213.632 733.581 1354.82 
213.751 732.456 1356.53 
214.297 730.838 1358.06 
214.297 732.02 1356.34 
214.577 730.898 1357.12 
214.851 730.993 1356.49 
214.689 729.944 1358.17 
209.987 736.281 1363.56 
210.231 736 1362.68 
210.323 735.204 1360.83 
210.045 735.162 1359.18 
209.778 735.346 1358.17 
209.815 735.331 1357.62 
214.969 729.906 1357.51 
214.946 743.15 1394.32 
213.803 741.605 1394.48 
213.754 741.024 1395.67 
216.05 742.398 1399.27 
214.398 741.522 1396.54 
216.838 742.152 1401.19 
216.584 741.608 1401.25 
217.367 741.658 1403.93 
216.935 741.192 1403.67 
216.585 740.779 1403.4 
218.129 741.394 1406.01 
217.509 741.01 1405.74 
217.02 740.5 1405.58 
216.499 739.501 1405.46 
215.973 738.825 1402.72 
215.905 739.059 1401.28 
213.941 739.332 1396.67 
215.394 739.574 1399.24 
213.466 739.989 1395.67 
213.368 740.335 1394.59 
213.482 740.632 1395.03 
213.65 740.432 1392.61 
214.941 739.873 1384.92 
210.39 738.062 1376.59 
208.932 737.911 1374.4 
207.763 737.331 1368.22 
208.745 737.505 1366 
208.747 736.88 1366.14 
209.872 736.916 1363.56 
209.65 736.883 1364.15 
210.061 736.521 1363.08 
210.083 735.261 1357.12 
214.78 732.687 1354.88 
215.872 731.393 1354.67 
215.592 729.539 1357.04 
210.229 736.427 1362.3 
210.327 735.6 1362.05 
210.316 735.649 1361.28 
210.249 735.485 1360.29 
216.444 730.334 1354.9 
214.673 741.381 1390.72 
213.914 741.772 1393.94 
214.015 741.805 1393.33 
213.73 741.377 1394.93 
213.899 740.768 1396.28 
215.733 741.926 1398.92 
216.244 741.078 1400.95 
214.607 741.287 1397.11 
217.748 742.009 1404.11 
217.101 740.839 1405.15 
218.175 742.364 1404.22 
216.737 740.377 1405.09 
216.422 739.969 1404.93 
216.187 738.937 1404.89 
215.972 738.635 1403.78 
215.779 739.021 1400.49 
215.553 739.706 1399.71 
214.554 739.846 1397.81 
215.259 740.005 1398.96 
213.817 739.905 1396.5 
213.559 741.155 1394.38 
213.661 741.121 1393.4 
213.848 741.019 1392.53 
214.479 740.86 1390.68 
213.478 739.024 1381.55 
212.574 738.694 1378.95 
207.524 737.436 1371.66 
207.554 737.8 1371.31 
207.505 737.543 1370.74 
207.539 737.709 1369.94 
207.603 737.87 1369.22 
208.832 738.086 1365.93 
207.946 737.83 1367.78 
210.153 736.894 1362.62 
210.207 736.095 1360.34 
213.95 741.513 1392.9 
214.551 740.667 1397.45 
215.942 740.78 1400.32 
215.35 740.755 1398.87 
216.186 740.169 1402.92 
216.211 739.768 1404.39 
216.028 739.222 1404.24 
215.752 739.614 1400.39 
215.907 739.777 1401.06 
212.205 738.574 1378.29 
208.054 738.076 1372.74 
207.746 738.23 1371.52 
207.631 738.103 1370.87 
209.995 737.877 1363.22 
210.267 736.616 1361.81 
210.272 736.221 1361.26 
209.921 735.895 1359.11 
209.86 735.715 1357.12 
215.636 740.392 1399.75 
216.054 740.493 1401.06 
215.975 739.322 1402.78 
213.276 739.32 1380.58 
211.337 738.151 1377.64 
210.366 738.623 1376.22 
208.95 738.36 1374.05 
207.893 738.192 1372.16 
207.884 738.558 1371.04 
209.697 739.162 1364.78 
208.312 738.705 1367.92 
209.61 735.841 1358.09 
209.656 735.941 1357.55 
212.701 739.31 1378.56 
212.37 739.152 1378.07 
208.577 739.062 1371.81 
208.22 738.858 1371.33 
208.114 738.949 1370.46 
207.748 738.405 1369.79 
207.805 738.333 1368.96 
208.232 738.977 1368.91 
210.178 740.305 1365.42 
209.905 736.39 1359.18 
211.39 738.843 1377.2 
211.418 739.357 1376.59 
209.377 738.849 1374.03 
209.168 739.6 1371.62 
208.698 739.44 1370.81 
210.751 739.902 1374.08 
208.487 739.344 1370.25 
208.236 739.099 1369.62 
209.867 740.446 1367.26 
211.925 739.878 1376.43 
210.345 740.755 1370.13 
210.174 740.759 1369.3 
209.686 740.366 1368.14 
