285.427 866.896 3542.86
286.657 866.364 3541.44
287.441 866.069 3541.67
287.544 865.825 3543.72
287.523 865.894 3542.9
288.88 864.362 3543.81
287.94 865.773 3541.96
290.802 862.235 3541.8
290.455 862.773 3542.61
290.628 861.843 3540.26
289.705 861.249 3537.29
288.215 861.785 3534.48
288.198 861.431 3533.77
289.153 859.964 3533.53
288.263 861.126 3533.13
289.325 859.726 3533.1
289.672 859.352 3532.62
290.292 858.926 3532.23
290.642 858.701 3532.12
291.959 858.391 3531.35
293.113 858.095 3529.96
295.481 856.777 3526.53
295.949 856.793 3526.81
298.057 856.876 3529.39
301.86 857.273 3529.5
298.369 856.876 3528.31
302.657 857.073 3530.69
303.305 856.996 3531.17
294.089 857.444 3527.8
295.037 856.7 3525.44
294.802 856.866 3525.42
307.919 853.846 3535.95
307.424 853.931 3538.85
308.155 852.592 3539.28
309.647 850.926 3535.52
310.399 850.075 3533.35
310.459 849.838 3532.47
303.719 857.313 3529.33
303.382 857.378 3529.12
304.418 857.029 3530.46
304.726 856.856 3530.7
305.144 856.205 3531.86
304.79 856.854 3530.41
305.682 855.43 3532.95
305.96 855.145 3532.17
307.681 853.591 3531.36
308.238 853.462 3533.83
309.365 848.397 3527.51
308.32 847.531 3524.95
310.301 849.471 3530.94
308.155 847.263 3523.87
308.109 847.348 3524.3
308.402 847.341 3523.18
308.769 847.196 3522.66
308.986 847.33 3521.97
309.28 847.344 3520.88
309.836 847.286 3519.24
311.63 847.277 3520.08
310.586 847.274 3519.06
314.642 847.636 3522.04
318.789 848.454 3521.26
318.927 848.957 3517.82
318.804 849.548 3512.44
322.013 848.566 3516.16
317.849 849.574 3513.86
323.303 848.082 3515.17
327.192 846.786 3519.84
332.788 844.461 3521.83
335.263 842.963 3518.51
336.658 842.958 3521.69
339.062 843.142 3527.46
340.856 843.243 3530.78
340.47 843.981 3533.77
339.683 844.938 3538.17
340.962 843.839 3534.18
339.891 844.956 3540.7
339.717 844.979 3540.47
341.38 844.647 3544.55
340.19 844.91 3541.64
342.537 842.815 3543.48
341.645 841.894 3540.41
342.471 841.571 3539.93
343.362 841.181 3538.66
345.18 840.619 3536.99
349.542 839.737 3534.14
352.559 839.423 3534.84
357.354 838.57 3534.51
226.324 931.28 3508.52
226.467 930.865 3508.9
227.155 930.734 3512.03
227.813 930.868 3515.86
227.601 929.499 3511.28
225.946 934.235 3507.73
226.207 932.199 3507.74
226.362 931.301 3507.85
225.796 935.447 3508.02
225.789 936.211 3508.68
225.815 935.899 3508.04
226.194 937.824 3509.33
227.256 931.528 3523.2
228.042 930.862 3523.98
227.715 930.573 3525.33
227.835 928.758 3509.98
228.742 927.455 3509.71
231.34 924.252 3511.28
233.614 922.453 3517.13
233.166 921.934 3513.71
232.58 922.28 3511.7
233.679 922.649 3518.67
234.353 921.73 3520.53
234.401 921.417 3524
236.116 918.508 3532.62
238.293 917.96 3535.02
242.049 917.017 3534.91
242.883 916.393 3539.07
240.455 918.225 3530.54
239.45 918.727 3531.46
237.224 919.966 3526.6
237.446 919.973 3525.8
237.141 920.126 3524.1
238.682 919.383 3525.37
236.995 920.158 3522.63
238.497 918.019 3534.51
239.651 918.422 3532.74
243.265 916.188 3541.15
243.414 916.021 3540.65
242.189 916.717 3542.03
243.017 916.286 3541.78
243.347 915.994 3541.68
243.434 915.954 3541.46
243.421 916.006 3541.29
234.801 921.08 3523.99
235.216 920.864 3523.51
235.606 919.225 3530.45
235.553 920.343 3526.37
235.75 920.167 3526.8
235.603 920.572 3524.78
241.978 913.918 3543.65
243.212 913.473 3543.7
241.496 914.403 3543.43
241.96 914.11 3543.49
243.608 914.265 3542.95
243.771 914.328 3542.83
243.892 915.154 3542
243.536 915.753 3541.75
243.386 915.897 3541.84
243.979 914.529 3542.49
243.57 915.31 3542.3
243.724 915.365 3542.08
243.329 915.874 3541.98
243.105 915.968 3542.16
243.694 914.628 3542.63
243.827 914.622 3542.54
245.808 912.441 3537.48
245.856 912.472 3537.23
245.648 912.602 3538.01
246.266 912.5 3536.03
245.022 913.901 3541.22
245.36 913.188 3539.73
245.176 913.458 3539.62
245.54 912.778 3538.09
243.569 915.871 3540.94
244.003 915.28 3540.75
243.992 907.403 3530.51
245.286 910.78 3538.42
245.91 911.28 3535.84
245.995 911.514 3535.95
246.453 911.896 3534.65
246.546 912.129 3534.64
246.618 912.356 3534.8
246.654 912.491 3534.88
246.703 912.732 3534.79
246.695 912.625 3534.79
244.44 909.505 3538.16
243.82 907.765 3534.09
243.899 908.188 3535.02
244.093 907.783 3530.58
243.733 907.012 3527.13
243.737 906.84 3527.09
243.516 906.344 3522.64
243.556 905.324 3517.72
243.501 905.642 3518.38
252.088 900.511 3527.84
255.93 898.395 3531.82
257.305 898.233 3534.86
258.562 897.81 3538.98
258.793 897.75 3539.05
258.632 897.859 3537.81
258.965 897.651 3539.16
258.462 897.743 3539.3
258.166 897.722 3539.33
244.913 902.446 3509.08
244.732 902.602 3508.92
245.255 902.279 3509.92
246.236 902.378 3514.27
244.008 903.634 3511.62
244.641 902.672 3508.4
251.992 899.544 3519.99
247.921 901.033 3510.98
250.699 899.782 3513.01
252.44 898.734 3514.55
243.746 904.237 3513.02
259.398 897.128 3540.25
259.471 896.942 3540.55
258.94 897.536 3539.86
259.162 897.434 3539.78
258.9 897.612 3539.57
259.557 896.81 3540.13
259.597 896.671 3540.57
259.58 896.741 3540.02
259.909 895.429 3541.17
259.591 896.646 3539.89
259.917 895.295 3540.8
260.126 893.842 3540.29
259.546 896.815 3540.58
259.537 894.02 3537.63
258.161 896.304 3534.2
257.744 896.841 3533.41
257.358 895.697 3530.5
257.617 894.276 3526.03
258.176 893.166 3524.51
266.355 881.364 3534.48
269.609 877.658 3536.05
261.833 885.327 3532.31
260.704 885.729 3529.92
262.521 884.761 3532.04
264.69 883.199 3532.87
260.003 886.502 3527.57
260.267 886.111 3528.75
271.98 875.9 3541.15
275.165 872.698 3543.83
277.304 870.286 3544.67
278.073 869.531 3544.75
258.811 891.701 3524.88
259.123 891.413 3526.98
259.481 889.254 3527.98
260.01 888.983 3530.76
259.944 887.454 3529.92
258.648 891.844 3521.39
259.895 887.117 3529.4
259.736 887.118 3527.89
259.833 886.818 3526.97
280.037 868.404 3543.22
279.32 868.772 3543.7
278.29 869.289 3544.31
282.714 867.25 3540.17
282.219 867.375 3539.85
285.069 866.513 3538.5
287.236 866.112 3539.92
287.94 865.877 3540.47
288.305 865.717 3540.85
287.842 865.572 3543.24
288.338 865.488 3542.2
289.035 864.197 3543.46
288.584 865.515 3541.25
290.545 862.707 3541.85
290.546 862.403 3540.99
290.274 863.04 3542.4
290.293 862.07 3539.67
288.858 862.623 3536.79
288.198 863.84 3536.56
287.196 862.942 3533.43
287.048 862.784 3532.73
288.339 860.949 3532.69
287.152 862.375 3532.18
288.428 860.82 3532.36
289.776 859.286 3532.29
290.306 858.877 3531.88
290.56 858.714 3531.83
291.578 858.503 3531.23
292.818 858.212 3529.82
293.851 857.551 3527.24
295.355 856.655 3525.26
295.826 856.727 3525.67
299.15 857.145 3527.16
301.251 857.811 3526.19
300.059 858.008 3524.64
296.128 856.783 3525.33
301.859 857.736 3526.74
294.824 856.858 3524.54
295.085 856.957 3524.13
294.608 856.967 3524.93
308.436 853.332 3534.4
308.288 853.527 3536.27
307.861 853.395 3538.6
308.773 852.071 3537.71
309.538 851.068 3535.43
310.252 850.312 3533.06
310.282 850.172 3532.36
303.877 857.278 3529.11
302.271 857.682 3526.37
301.873 857.768 3526.24
304.343 857.147 3529.64
305.23 856.157 3531.47
304.854 856.79 3530.1
304.488 857.048 3529.42
305.315 856.064 3531.12
305.963 854.948 3531.08
306.227 854.435 3530.23
307.387 853.18 3528.59
308.885 852.42 3529.96
308.945 852.496 3530.95
309.246 848.539 3527.58
308.236 847.513 3524.85
310.225 849.857 3531.39
309.148 848.765 3527.52
307.98 847.18 3523.36
308.158 847.18 3523.01
308.059 847.406 3524.16
308.51 847.202 3522.25
308.29 847.135 3522.18
308.677 847.238 3521.75
308.842 847.319 3521.41
309.204 847.34 3520.15
309.531 847.306 3519.08
309.754 847.449 3518.33
310.154 847.352 3518.49
311.447 847.356 3519.1
314.612 847.87 3520.11
310.566 847.415 3518.19
317.132 848.908 3517.81
315.251 849.749 3514.11
314.515 850.532 3509.25
315.765 850.338 3507.67
319.165 849.46 3510.28
313.055 850.569 3510.94
321.808 848.412 3510.99
326.44 846.57 3515.03
332.413 843.974 3516.94
334.784 841.788 3512.59
337.496 841.743 3515.7
339.879 842.795 3523.74
341.509 841.805 3519.6
342.471 842.905 3527.37
341.407 842.978 3529.51
342.117 842.9 3530.89
341.594 843.114 3531.89
339.958 844.806 3538.16
341.243 843.709 3534.43
341.997 842.98 3532.69
340.023 844.814 3540.02
340.84 844.663 3542.96
341.968 843.053 3543.15
340.25 844.722 3540.82
341.481 842.024 3540.52
341.373 841.921 3540.04
341.903 841.654 3539.62
341.607 841.781 3539.8
342.615 841.345 3538.49
344.364 840.741 3536.25
348.113 839.962 3533.89
354.322 838.518 3531.52
352.614 838.857 3530.86
359.49 836.886 3529.2
226.63 930.527 3507.57
226.693 930.284 3508.06
226.875 929.979 3508.76
226.286 933.834 3506.33
226.513 932.493 3506.2
226.756 931.351 3505.97
226.982 930.507 3505.86
225.848 935.267 3507.63
225.861 935.51 3507.6
225.887 936.409 3508.06
227.264 929.202 3508.1
227.463 928.948 3507.33
229.22 926.854 3509.11
231.392 924.336 3509.7
232.424 922.431 3510.51
234.721 921.335 3518.47
234.123 920.822 3514.62
233.565 920.558 3511.41
233.311 920.816 3510.8
235.053 921.113 3519.38
234.734 921.34 3520.93
236.376 918.516 3532.5
235.979 919.309 3529.97
242.262 916.754 3534.59
240.813 917.874 3530.58
243.153 916.075 3538.85
239.034 919.064 3525.37
237.058 919.831 3527.65
236.633 920.163 3520.53
237.711 919.173 3519.07
235.214 921.014 3521.09
238.24 918.206 3533.71
238.689 918.887 3531.23
243.765 915.551 3540.26
242.244 916.598 3542.17
243.091 916.14 3541.89
242.89 914.008 3543.32
241.415 914.762 3543.32
241.586 915.504 3543.01
241.814 914.401 3543.32
241.704 914.629 3543.25
243.498 914.677 3542.73
243.278 914.531 3542.89
243.437 915.372 3542.37
242.334 916.373 3542.35
243.103 916.039 3542.04
242.32 916.494 3542.24
243.255 915.449 3542.46
245.729 912.612 3537.42
245.812 912.642 3537.1
246.259 912.632 3536.01
245.632 912.767 3537.49
246.669 912.796 3534.92
244.757 913.995 3539.41
245.388 912.963 3537.99
245.206 913.197 3537.89
241.49 916.182 3542.87
243.783 907.268 3527.28
244.449 909.301 3536.64
245.723 910.942 3535.77
246.154 911.256 3532.43
246.246 911.469 3534.37
246.347 911.582 3532.59
246.461 911.828 3532.53
246.51 911.991 3532.6
246.601 912.282 3534.34
246.679 912.537 3534.45
246.726 912.828 3534.44
246.734 912.731 3534.39
244.265 908.215 3531.55
244.114 908.097 3528.79
244.353 908.507 3531.73
243.8 907.501 3526.65
243.525 906.594 3522.61
243.455 906 3518.33
243.453 905.772 3518.02
243.583 904.698 3513.99
243.512 904.93 3514.23
253.449 898.831 3524.38
254.796 898.166 3527.97
256.716 897.943 3532.49
258.088 897.962 3536.12
258.837 897.688 3537.93
259.126 897.492 3539.19
259.244 897.392 3539.68
245.354 901.977 3505.16
245.573 901.73 3506.39
245.153 902.125 3505.47
245.706 901.644 3507.13
247.224 900.922 3507.14
244.591 902.788 3507.44
244.754 902.542 3506.97
245.089 902.314 3504.71
253.904 897.693 3516.1
254.901 897.062 3520.43
250.444 899.284 3508.15
254.058 897.284 3511.64
244.324 903.191 3508.85
259.412 897.186 3539.93
259.338 897.243 3539.52
259.488 897.017 3540.06
259.361 897.109 3539.29
259.324 896.991 3538.74
259.497 896.64 3539.35
259.855 895.268 3540.23
259.481 896.425 3539.04
259.725 895.22 3539.39
259.319 895.316 3537.71
258.639 895.829 3535.47
259.221 896.737 3538.05
259.233 896.417 3537.87
257.428 897.251 3533.06
258.867 897.113 3537.13
256.729 896.115 3528.86
255.585 896.642 3525.39
255.735 896.217 3522.51
257.115 894.289 3520.57
258.372 892.342 3520.13
267.101 879.959 3532.61
268.267 877.95 3529.8
269.982 877.178 3535.9
260.347 886.064 3527.65
262.224 884.848 3531.03
260.601 885.858 3527.71
263.973 883.834 3531.67
264.593 883.229 3531.7
265.73 881.781 3532.3
259.861 886.775 3522.32
260.086 886.493 3523.16
272.504 875.376 3541.44
275.102 872.724 3543.41
277.119 870.384 3544.06
277.829 869.703 3544.53
258.857 891.045 3523.28
258.867 891.21 3521.68
259.199 889.421 3524.86
259.648 887.563 3528.2
259.001 891.175 3517.37
259.394 890.211 3518.18
259.425 887.836 3524.75
259.587 887.287 3524.12
259.469 887.657 3522.67
259.783 886.931 3521.19
280.955 867.803 3541.31
281.819 867.506 3539.74
279.152 868.883 3543.57
280.33 868.197 3542
277.945 869.538 3544.34
283.273 866.933 3537.76
282.798 867.193 3538.02
284.929 866.313 3537.13
287.177 865.895 3538.79
288.018 865.754 3539.83
288.404 865.659 3540.48
288.829 864.43 3543.28
288.644 864.71 3543.11
288.569 865.286 3542.3
288.973 865.217 3541.52
290.038 863.314 3542.59
288.788 865.38 3540.96
290.084 863.605 3541.38
290.095 863.483 3540.85
290.043 863.312 3540.35
289.967 863.8 3541.7
289.759 863.163 3539.34
289.406 864.231 3539.54
287.617 864.05 3535.74
289.172 864.592 3539.53
286.537 863.38 3532.61
286.612 862.858 3531.71
287.145 862.258 3531.8
288.646 860.578 3532.12
287.515 861.793 3531.56
287.21 862.121 3531.56
289.887 859.231 3532.04
290.335 858.889 3531.61
291.259 858.618 3531.1
292.448 858.33 3529.99
292.782 858.266 3529.26
293.59 857.687 3527.28
295.293 856.752 3524.48
295.564 856.781 3524.48
296.428 856.886 3524.96
298.186 857.357 3525.12
299.423 857.977 3524.38
298.814 858.483 3522.6
298.697 858.418 3522.83
298.451 858.36 3522.91
295.703 856.851 3524.21
299.411 858.345 3522.9
294.593 856.999 3524.2
294.725 857.031 3523.88
294.968 856.963 3523.8
294.384 857.1 3524.98
294.411 857.109 3524.32
308.648 853.107 3534.45
308.572 853.228 3536.27
308.119 853.086 3538.38
308.511 852.819 3537.53
309.322 851.78 3534.67
309.636 851.034 3534.69
309.872 851.174 3532.1
309.946 850.959 3531.4
303.794 857.288 3528.33
301.892 857.689 3525.17
299.337 858.36 3522.29
298.215 858.646 3520.86
298.061 858.748 3521.33
304.897 856.716 3529.83
304.528 856.919 3528.89
303.974 857.155 3528.06
305.009 856.467 3529.6
305.447 855.82 3530.72
305.465 855.59 3529.86
305.775 854.67 3529.19
306.057 854.104 3528.28
306.745 852.554 3525.24
306.146 853.826 3527.5
308.625 852.325 3528.66
309.129 852.083 3529.5
309.248 852.185 3531.16
308.181 847.538 3524.77
308.173 847.613 3524.81
309.881 850.8 3530.55
309.879 849.93 3530.11
308.982 848.92 3527.01
308.128 847.7 3524.58
307.882 847.114 3522.74
307.924 847.265 3523.71
308.016 847.067 3522.25
308.042 847.523 3524.1
308.437 847.168 3521.59
308.155 847.071 3521.57
308.776 847.353 3520.54
308.958 847.363 3520.31
309.168 847.517 3518.95
309.35 847.534 3518.46
309.569 847.557 3518.04
310.05 847.536 3517.88
309.849 847.632 3517.7
310.31 847.578 3517.72
311.308 847.485 3518.33
314.212 848.081 3518.72
311.009 847.658 3517.63
310.622 847.74 3517.35
314.822 849.283 3515.79
312.78 849.894 3513.72
311.001 850.623 3511.88
309.53 851.882 3506.06
312.45 851.052 3506.46
307.505 851.703 3509.84
312.476 851.031 3504.7
316.665 849.706 3504.55
318.677 849.124 3505.3
320.243 848.425 3505.7
325.24 846.491 3511.25
331.566 843.113 3511.53
333.721 840.998 3508.15
335.295 840.844 3510.06
339.81 840.825 3514.58
336.466 840.564 3510.41
343.956 842.629 3524.93
345.443 842.776 3527.39
344.587 840.862 3518.57
347.202 840.84 3521.77
345.406 841.777 3523.06
343.743 842.83 3528.73
342.402 842.846 3529.43
345.713 842.797 3528.33
342.891 842.744 3530.22
342.876 842.656 3531.13
342.464 842.738 3531.9
340.237 844.645 3537.95
341.459 843.583 3534.66
342.315 842.8 3533.15
342.59 842.658 3532.55
340.112 844.675 3539.52
340.621 844.65 3542.14
341.585 843.196 3542.7
341.31 842.08 3540.38
340.38 844.575 3540.69
340.307 844.583 3539.89
341.125 842 3539.83
341.263 841.848 3539.55
341.495 841.705 3539.22
341.975 841.544 3538.61
343.334 841.048 3536.7
344.653 840.73 3534.7
347.258 840.146 3533.59
352.064 839.027 3530.25
357.632 837.085 3527.78
356.834 837.265 3526.92
361.606 835.82 3526.57
227.199 930.016 3505.52
227.056 929.599 3507.58
226.298 934.222 3506.29
226.818 933.606 3504.52
226.891 933.11 3503.97
226.882 932.712 3504.41
226.983 932.004 3504.33
227.215 931.052 3504.09
227.388 930.462 3503.75
226.322 934.711 3506.2
227.448 929.667 3505.1
227.78 929.29 3504.6
227.881 928.459 3507
229.847 926.359 3507.29
231.029 925.162 3507.3
232.541 922.638 3508.35
231.609 924.623 3505.49
233.139 921.144 3510.04
234.727 920.559 3515.83
235.576 920.481 3518.18
234.088 920.101 3511.83
233.977 920.251 3509.41
234.313 919.882 3509.7
233.612 920.814 3508.82
236.896 919.138 3530.44
242.776 915.977 3534.06
241.624 916.829 3530.2
243.763 915.174 3538.5
240.218 917.803 3526.64
238.253 918.872 3519.93
236.244 919.295 3514.92
237.688 918.134 3513.63
238.859 916.878 3512.85
242.584 914.346 3543.17
242.103 915.225 3542.95
242.298 915.806 3542.73
242.445 914.812 3542.99
242.697 915.691 3542.61
243.114 914.895 3542.77
242.328 916.288 3542.46
242.334 916.205 3542.54
245.767 912.78 3537
246.239 912.762 3535.96
246.634 912.872 3535
245.494 912.929 3537.49
245.691 912.908 3536.95
246.693 912.882 3534.51
244.442 914.075 3537.43
244.944 913.519 3537.57
245.343 913.128 3537.39
241.811 916.424 3542.63
243.573 906.807 3522.55
245.061 909.93 3535.21
245.17 909.806 3530.99
246.011 911.054 3534.08
246.43 911.575 3529.97
246.24 911.25 3529.73
246.547 911.847 3530.13
246.65 912.112 3530.16
246.572 912.196 3532.73
246.589 912.212 3530.8
246.631 912.399 3532.82
246.751 912.834 3534.25
246.742 912.887 3534.19
246.676 912.562 3532.88
244.133 908.252 3527.35
243.68 907.171 3523.08
243.566 906.476 3518.77
243.481 906.2 3518.21
243.453 905.271 3514.57
243.485 905.073 3514.25
243.875 903.921 3511.04
244.008 903.837 3510.17
255.793 897.248 3528.41
257.212 897.626 3533.08
258.382 897.736 3536.4
259.143 897.393 3538.57
245.578 902.131 3503.44
247.024 901.119 3503.04
247.382 901.075 3501.87
246.654 901.212 3504.45
246.794 901.074 3505.71
248.596 900.036 3504.78
245.007 902.548 3504.17
245.106 902.41 3504.19
245.506 902.343 3502.87
255.809 895.723 3511.9
254.895 896.82 3515.88
256.044 895.634 3518.14
250.676 898.354 3504.33
252.484 897.606 3507.44
256.85 894.175 3507.97
257.658 893.753 3509.38
244.676 902.848 3506.26
258.862 897.363 3537.4
258.386 892.348 3516.27
256.385 895.05 3514.77
267.753 878.68 3529.95
268.623 877.647 3530.16
268.061 878.111 3525.25
268.272 877.84 3525.16
268.472 877.645 3525.11
270.397 876.798 3535.99
260.461 886.129 3522
262.634 884.62 3530.62
260.834 885.769 3527.22
260.718 885.966 3522.75
264.185 884.071 3529.12
264.601 883.693 3529.28
265.166 883.048 3529.58
266.009 881.849 3530.51
266.679 880.996 3530.26
260.949 885.696 3517.61
260.719 886.009 3517.67
261.378 885.262 3517.31
272.518 875.374 3540.87
273.775 874.313 3542.35
275.023 872.828 3543.05
275.219 872.626 3542.83
277.703 869.809 3544.05
259.216 889.197 3522.38
259.449 889.823 3519.42
259.654 890.902 3514.3
259.886 890.052 3515.2
259.873 889.587 3516.3
259.723 887.144 3520.64
259.598 887.514 3520.89
260.736 886.216 3516.95
281.598 867.577 3539.75
282.34 867.481 3538.34
278.951 869.024 3543.42
280.224 868.295 3541.86
281.553 867.658 3539.56
282.741 866.964 3536.54
282.32 867.375 3537.51
284.086 866.018 3534.8
287.493 865.56 3538.28
288.455 865.512 3539.86
288.814 865.342 3540.49
289.74 863.623 3542.71
288.887 864.834 3542.5
289.091 865.037 3541.79
289.146 865.042 3541.58
289.163 865.044 3541.27
289.098 865.116 3540.96
289.826 863.997 3541.92
289.525 864.574 3540.62
289.498 864.669 3540.92
289.531 864.385 3540.2
289.462 864.732 3541.28
286.669 864.465 3534.67
288.584 864.835 3538.69
289.062 864.824 3539.65
289.299 864.746 3540.25
285.793 863.686 3531.62
286.696 862.548 3531.18
285.79 863.293 3530.75
288.833 860.446 3531.89
287.629 861.731 3531.36
287.083 862.133 3531.14
290.032 859.158 3531.72
290.923 858.842 3530.96
291.057 858.742 3531.04
291.827 858.676 3530.03
292.34 858.451 3529.7
292.702 858.382 3528.77
293.556 857.704 3526.73
295.172 856.877 3523.91
295.347 856.932 3523.72
296.076 856.938 3524.21
297.479 857.511 3523.99
298.443 858.171 3523.33
297.263 858.977 3521.22
297.104 859.083 3520.8
297.47 858.805 3521.65
297.668 858.555 3522.21
295.612 857.019 3523.61
294.664 857.133 3523.55
294.527 857.124 3523.88
294.5 857.204 3523.71
294.97 857.034 3523.45
294.855 857.11 3523.32
295.19 857.008 3523.45
294.244 857.235 3524.68
294.371 857.291 3523.83
309.007 852.622 3533.87
309.436 851.851 3530.19
309.401 851.626 3529.14
302.064 857.535 3524.9
298.066 858.606 3520.32
296.68 859.175 3519.95
294.793 860.037 3519.08
294.501 860.238 3519.67
296.425 859.297 3520.16
304.683 856.719 3528.84
303.919 856.925 3527.21
302.829 857.194 3525.52
304.822 856.415 3528.65
305.173 855.503 3528.38
304.702 855.566 3526.89
305.5 854.23 3526.92
305.105 853.659 3524.65
304.066 852.665 3520.89
305.627 851.774 3521.54
307.572 851.457 3524.13
307.257 850.812 3521.96
308.093 851.457 3525.19
309.058 851.83 3528.36
309.661 850.653 3529.37
309.225 851.334 3527.95
309.015 849.308 3527.05
308.158 847.888 3524.64
308.018 847.707 3524.02
307.966 847.535 3523.9
307.903 847.001 3521.76
307.826 847.035 3522.04
307.841 847.247 3523.51
308.664 847.395 3520.43
308.46 847.318 3520.76
308.034 847.072 3521.44
308.99 847.622 3518.85
308.878 847.699 3518.9
309.202 847.653 3518.37
309.406 847.646 3518.04
309.671 847.702 3517.67
310.179 847.793 3517.29
309.928 847.886 3517.22
313.304 848.272 3517.55
312.525 848.509 3516.57
311.743 848.511 3516.26
310.941 848.468 3516.23
311.278 848.468 3516.24
312.76 849.51 3514.72
311.325 849.765 3514.15
311.639 849.482 3514.7
310.944 850.248 3513.13
309.533 850.382 3513.55
306.019 851.238 3513.58
304.84 852.867 3505.54
304.983 853.467 3501.34
307.714 852.931 3501.53
310.171 851.886 3504.27
303.501 852.691 3508.33
303.637 852.03 3512.73
310.794 851.633 3502.9
312.567 850.421 3500.98
313.916 850.014 3501.5
315.498 849.341 3499.97
318.698 848.639 3501.67
319.653 848.262 3502.44
320.107 848.042 3502.85
321.753 846.951 3503.75
323.276 846.548 3506.53
326.611 844.545 3506.8
331.771 841.991 3507.8
334.541 840.611 3508.08
331.434 841.924 3506.48
333.638 840.753 3506.75
337.852 840.447 3511.3
341.841 840.659 3515.45
335.399 840.397 3508.45
346.527 842.584 3527.29
346.73 842.669 3528.22
348.023 840.683 3521.3
345.689 840.658 3518.2
348.506 840.805 3523.91
349.456 840.573 3523.82
347.046 841.751 3525.05
344.666 842.728 3529.39
346.126 842.76 3528.76
346.781 842.684 3528.83
343.498 842.552 3530.68
343.345 842.5 3531.24
343.044 842.527 3531.83
343.04 842.45 3532.38
341.642 843.457 3534.94
340.38 844.543 3537.95
342.537 842.618 3533.49
342.94 842.396 3532.98
340.264 844.502 3539.24
340.612 844.511 3541.7
341.25 843.23 3542.04
341.153 842.175 3540.29
340.361 844.431 3539.73
340.446 844.353 3540.22
340.973 842.197 3539.85
341.031 842.067 3539.53
341.141 841.935 3539.35
341.272 841.81 3539.07
341.556 841.725 3538.5
342.651 841.299 3537.18
343.984 840.972 3534.92
344.846 840.796 3533.82
346.974 840.274 3533.18
349.702 839.748 3531.52
352.331 838.985 3529.23
356.648 837.348 3525.98
360.185 836.001 3525.27
359.331 836.224 3524.29
361.798 835.563 3525.32
364.099 835.478 3527.09
227.202 931.118 3501.43
227.362 930.826 3501.35
226.849 934.176 3504.7
226.953 933.824 3503.94
226.932 933.387 3503.53
226.876 932.749 3502.03
226.883 932.466 3502.16
226.923 932.098 3502.2
226.984 931.734 3501.83
227.084 931.415 3501.62
227.602 930.496 3501.16
228.8 928.293 3503.92
228.472 929.293 3502.06
229.426 927.003 3505.69
230.484 926.456 3503.1
231.599 924.787 3503.57
233.715 921.129 3506.78
230.566 926.971 3500.25
234.754 919.923 3513.55
234.643 919.605 3510.2
234.434 920.027 3507.57
234.96 919.43 3507.94
235.735 918.436 3506.78
243.451 915.049 3533.61
242.648 915.599 3529.87
241.297 915.76 3524.1
238.821 918.694 3521.99
239.998 917.448 3524.04
240.711 915.87 3522.14
238.957 917.179 3515.08
238.659 918.247 3519.07
235.537 919.15 3511.26
237.307 917.365 3508.38
239.498 915.7 3509.32
240.352 915.436 3516.34
240.62 915.145 3515.21
246.188 912.895 3535.93
246.603 912.955 3534.97
246.658 912.946 3534.55
245.548 913.082 3536.9
246.112 913.001 3535.9
246.722 912.937 3534.2
244.474 914.042 3536.7
245.152 913.42 3537.03
245.436 913.213 3536.83
244.993 909.496 3527.81
243.986 907.892 3524.61
247.026 911.817 3528.04
246.907 911.589 3527.9
246.548 910.977 3527.26
246.82 911.343 3527.49
247.195 912.193 3528.27
247.111 912.011 3528.17
246.788 912.331 3529.93
247.217 912.316 3528.38
246.668 912.435 3530.69
246.637 912.596 3530.88
246.696 912.708 3532.91
246.677 912.824 3532.9
246.657 912.709 3530.91
243.767 906.833 3518.84
243.605 906.476 3517.84
243.505 905.638 3514.78
243.442 905.467 3514.82
243.934 904.217 3510.68
243.978 904.013 3510.33
244.628 903.04 3506.46
244.671 903.212 3506.02
245.932 902.163 3502.09
247.43 901.186 3501.25
249.136 899.578 3503.09
250.409 898.507 3501.15
250.158 898.902 3500.37
245.04 902.717 3503.72
245.41 902.593 3502.68
245.512 902.469 3502.59
245.829 902.381 3501.81
257.092 894.305 3512.06
258.24 893.307 3510.53
251.299 897.619 3502.01
253.493 895.335 3502.19
254.156 895.186 3504.02
256.937 892.957 3504.13
259.759 890.721 3503.68
259.618 891.398 3506.12
260.095 891.137 3507.4
257.982 893.036 3514.29
259.461 891.562 3513.05
267.625 878.894 3529.43
267.832 878.515 3525.04
268.924 877.416 3530.12
268.703 877.483 3524.73
268.013 878.408 3522.23
268.439 877.858 3522.19
268.158 877.656 3519.21
270.391 876.717 3534.95
271.974 875.818 3538.89
262.517 884.283 3516.91
262.312 884.563 3518.09
261.853 885.154 3528.71
263.666 884.141 3530.55
263.793 884.356 3528.94
262.307 885.314 3524.83
262.347 885.226 3523.12
262.886 884.753 3521.46
264.046 884.532 3526.92
264.635 884.057 3526.96
264.099 884.486 3525.85
265.057 883.642 3527.38
265.558 883.02 3527.58
265.847 882.592 3526.69
266.429 881.739 3527.66
266.896 880.752 3529.49
261.679 885.22 3514.56
261.915 884.849 3515.01
261.487 885.564 3514.49
262.872 883.973 3515.64
273.365 874.795 3541.31
273.996 874.243 3541.86
277.26 870.318 3543.62
275.204 872.781 3542.46
278.716 869.239 3543.34
259.66 888.332 3519.88
260.195 887.764 3517.38
260.96 889.91 3509.39
261.131 889.209 3510.51
260.488 889.665 3513.19
260.969 888.109 3513.08
260.503 886.666 3517.27
261.465 886.862 3512.5
261.786 886.366 3512.1
282.16 867.528 3538.08
279.754 868.665 3542.58
280.25 868.324 3541.48
281.406 867.741 3539.57
282.057 867.642 3538.05
282.221 867.116 3536.01
282.002 866.639 3533.89
282.016 867.582 3537.6
281.941 867.587 3536.89
281.582 865.651 3530.16
285.058 865.095 3533.38
286.205 864.952 3534.81
288.211 865.237 3538.73
288.924 865.083 3539.9
289.14 865.045 3540.55
289.527 864.288 3542.21
289.441 864.778 3541.59
289.276 864.916 3540.76
284.438 864.322 3530.35
286.67 862.443 3530.67
285.644 863.185 3530.07
283.939 864.276 3529
287.972 861.475 3531.34
289.101 860.202 3531.76
287.66 861.773 3531.19
287.243 862.084 3531
290.097 859.194 3531.49
290.834 858.916 3530.94
291.772 858.812 3529.82
291.44 858.844 3530.28
292.226 858.651 3529.23
293.343 857.901 3526.77
295.381 857.069 3523.23
295.883 857.113 3523.47
296.951 857.585 3523.35
297.609 858.283 3522.68
296.703 859.103 3520.96
296.586 859.191 3520.65
296.38 859.273 3520.31
297.009 858.934 3521.42
297.126 858.731 3521.76
295.494 857.168 3523
294.611 857.247 3523.28
294.788 857.165 3523.19
294.715 857.274 3523
294.496 857.351 3523.36
294.934 857.175 3522.97
295.093 857.081 3523.05
294.78 857.338 3522.73
295.209 857.13 3522.88
294.229 857.392 3524.16
294.369 857.498 3523.39
308.524 851.081 3525.36
299.115 857.976 3520.54
294.199 859.931 3517.29
292.695 860.781 3516.86
295.946 859.479 3519.83
291.962 861.251 3516.78
294.542 860.234 3519.99
293.439 860.944 3519.98
293.095 861.119 3519.53
295.893 859.513 3520.02
296.193 859.356 3520.13
304.172 856.66 3527.23
303.241 856.392 3524.77
301.881 856.919 3523.24
304.044 855.153 3524.72
302.009 854.731 3520.28
302.998 852.072 3517.77
301.226 853.786 3517.2
305.02 851.394 3519.61
307.154 850.565 3520.87
307.608 850.522 3521.93
307.592 850.366 3521.13
308.135 851.028 3524.29
307.828 850.394 3522.07
308.846 849.717 3526.08
308.681 850.587 3524.84
309.068 850.707 3526.65
308.413 850.589 3523.99
308.02 847.824 3524.05
307.825 847.466 3523.73
307.747 847.244 3523.41
307.9 847.066 3521.52
307.775 847.118 3522.6
307.801 847.041 3521.77
308.817 847.778 3518.94
308.487 847.487 3520.36
308.385 847.497 3520.47
309.076 847.754 3518.33
309.01 847.81 3518.38
309.266 847.771 3517.97
309.499 847.782 3517.7
309.759 847.948 3517.23
310.673 848.462 3516.27
310.455 848.467 3516.35
310.878 849.46 3514.87
310.518 849.918 3514.09
307.834 850.271 3515.97
309.527 850.014 3514.65
310.236 849.731 3514.64
305.614 850.786 3515.88
302.464 853.614 3503.27
302.798 854.1 3499.78
304.654 853.823 3499.4
306.83 853.453 3499.21
307.699 853.154 3499.28
308.598 852.679 3500.79
302.539 853.017 3508.2
302.528 852.477 3512.61
303.423 851.478 3515
308.911 852.563 3499.89
309.944 851.996 3501.33
311.702 850.683 3500.23
311.846 850.036 3497.27
312.634 849.805 3497.71
313.012 849.679 3497.21
315.722 849.25 3498.55
318.109 848.818 3500.53
319.081 848.544 3500.67
319.699 848.207 3501.39
320.267 847.878 3501.97
321.735 846.78 3502.67
323.803 845.392 3503.24
326.443 844.249 3504.57
334.452 840.471 3507.07
331.186 841.984 3505.69
333.454 840.802 3506.08
331.109 842.03 3505.13
340.542 840.482 3513.58
336.712 840.269 3509.23
335.213 840.269 3507.49
347.214 842.514 3527.93
347.246 842.584 3528.81
350.699 840.648 3521.54
343.814 840.588 3515.95
348.397 840.797 3519.21
349.019 840.768 3525.05
349.784 840.504 3525.09
351.679 840.346 3523.77
350.622 840.263 3525.43
347.866 841.69 3526.21
345.138 842.623 3529.85
346.544 842.711 3529.18
347.191 842.582 3529.27
344.183 842.37 3531
343.824 842.302 3531.49
343.464 842.318 3531.96
343.379 842.189 3532.75
341.18 843.866 3536.32
342.582 842.473 3533.98
342.911 842.37 3533.26
342.845 841.887 3534.8
343.534 841.697 3533.74
340.387 844.338 3539.18
341.095 843.922 3536.78
340.543 844.311 3540.98
341.048 843.307 3541.64
341.021 842.332 3540.27
340.423 844.263 3539.7
340.525 844.124 3539.97
340.851 842.364 3539.75
340.916 842.196 3539.39
341.038 842.049 3539.13
341.216 841.894 3538.82
342.048 841.645 3537.37
341.329 841.882 3538.28
343.271 841.266 3535.51
344.229 841.007 3534.24
344.881 840.908 3533.4
346.587 840.564 3532.62
346.806 840.406 3532.87
349.239 839.915 3531.48
350.685 839.776 3528.92
350 839.746 3530.94
352.299 839.277 3527.61
356.547 837.467 3525.33
358.732 836.539 3523.52
361.214 835.627 3524.25
360.447 835.894 3523.59
362.335 835.39 3524.59
364.141 835.374 3526.2
227.152 931.293 3499.65
227.011 931.54 3499.81
227.368 930.969 3499.68
227.031 934.13 3503.88
227.023 933.718 3503.21
226.881 932.931 3501.7
226.919 933.132 3501.66
226.766 932.354 3500.28
226.793 932.547 3500.24
226.784 932.148 3500.28
226.823 932.021 3499.92
226.886 931.808 3499.99
228.576 929.617 3499.32
228.637 929.381 3500.58
233.472 921.357 3504.79
231.852 924.684 3500.51
233.124 921.914 3502.99
234.497 919.702 3505.53
230.863 927.111 3497.67
231.843 925.156 3498.35
235.071 919.013 3506.08
235.337 918.355 3503.92
236.309 917.55 3504.83
243.746 914.745 3533.67
242.334 915.526 3527.35
243.17 915.174 3530.35
241.27 915.287 3521.94
240.657 915.255 3519.58
239.511 917.184 3520.59
240.199 915.842 3519.87
239.897 916.062 3516.84
239.507 916.711 3518.22
238.6 916.101 3505.01
241.951 914.146 3507.13
242.089 914.239 3511.52
241.136 914.745 3515.33
241.067 914.875 3519.1
246.579 913.023 3534.88
246.64 913.018 3534.43
246.721 912.979 3534.14
245.997 913.105 3535.87
246.524 913.101 3534.85
246.652 912.923 3532.84
244.643 913.939 3536.06
244.246 914.272 3535.96
245.092 913.522 3536.67
245.785 913.312 3535.78
245.85 913.225 3535.84
246.134 910.321 3526.12
244.428 908.243 3523.15
244.005 907.358 3520.33
247.848 911.495 3523.35
247.714 911.325 3523.41
247.703 911.041 3522.36
247.576 910.792 3521.79
247.691 912.376 3526.91
247.806 911.844 3524.57
246.84 912.527 3530
247.256 912.454 3528.39
247.671 912.463 3527.06
246.809 912.692 3530.08
246.656 912.819 3531
246.64 912.935 3530.82
246.753 912.826 3530.09
243.771 906.142 3515.26
243.631 905.858 3514.86
243.977 904.499 3510.89
243.927 904.374 3510.87
244.717 903.535 3506
244.685 903.379 3505.99
244.881 902.939 3504.17
244.956 903.127 3503.79
246.223 902.127 3501.45
247.543 901.246 3500.8
250.125 899.132 3499.82
252.395 896.765 3499.2
252.363 896.541 3500.63
253.456 895.309 3499.1
245.2 902.88 3502.89
245.391 902.738 3502.4
245.677 902.588 3501.83
245.636 902.738 3501.69
246.045 902.442 3501.29
246.303 902.188 3501.18
258.427 893.059 3511.69
259.296 892.391 3510.24
253.358 895.316 3501.05
254.876 893.502 3500.07
255.277 893.248 3500.85
257.176 892.212 3501.98
257.48 891.882 3501.23
260.733 889.878 3503.86
260.97 889.802 3504.93
260.337 890.957 3508.44
261.647 889.087 3505.99
258.93 892.344 3512.58
259.532 892.096 3510.7
260.704 890.419 3508.79
267.289 879.674 3527.61
267.7 878.582 3526.57
266.983 880.436 3525.16
266.816 880.573 3523.8
269.233 877.218 3529.75
268.972 877.304 3524.8
268.8 877.193 3519.77
266.679 879.702 3520.31
267.433 878.382 3519.16
266.872 878.41 3516.05
268.559 876.947 3514.4
270.656 876.579 3534.78
272.372 875.608 3538.88
263.623 883.427 3517.71
263.926 883.014 3516.36
263.479 884.173 3520.64
262.558 884.991 3528.21
262.197 885.355 3526.2
263.505 884.829 3526.96
264.411 884.18 3525.11
265.11 883.543 3526.09
265.103 882.855 3523.24
261.982 884.954 3514.14
262.348 885.15 3512.7
262.112 885.435 3512.68
263.059 883.942 3514.68
261.987 885.828 3512.32
264.02 883.04 3515.44
273.442 874.902 3540.44
274.144 874.388 3541.07
274.306 874.05 3541.62
278.115 869.805 3543.2
275.349 872.796 3542.14
279.542 868.944 3542.61
262.138 887.821 3508.19
261.967 888.541 3506.97
279.727 868.9 3542.16
280.149 868.443 3541.47
281.262 867.845 3539.62
280.588 868.07 3540.69
281.924 867.788 3538.51
281.79 867.903 3538.18
281.846 867.796 3537.74
281.686 867.44 3535.66
281.144 867.08 3533.68
279.633 866.347 3529.7
281.732 867.843 3537.19
280.862 865.521 3528.54
278.648 865.987 3527.21
286.079 862.824 3529.98
286.851 862.381 3530.57
284.041 863.983 3528.32
280.758 865.339 3527.3
287.943 861.577 3531.06
288.291 861.195 3531.33
289.302 860.043 3531.6
287.715 861.812 3531.07
287.461 862.005 3530.98
290.702 859.127 3530.92
291.789 858.963 3529.54
292.143 858.833 3529
291.477 858.933 3530.08
293.113 858.154 3526.91
294.127 857.521 3524.33
295.291 857.261 3522.65
296.455 857.796 3522.71
295.64 857.293 3522.78
297.012 858.511 3522.04
296.201 859.283 3520.47
296.213 859.227 3520.68
296.489 859.092 3521.04
296.063 859.386 3520.24
296.673 858.92 3521.4
296.593 858.739 3521.59
295.358 857.432 3522.43
294.524 857.382 3523.09
294.615 857.333 3523.01
294.631 857.43 3522.71
294.436 857.491 3523.14
294.959 857.305 3522.65
294.823 857.46 3522.45
294.71 857.429 3522.55
295.092 857.377 3522.51
294.234 857.66 3523.47
294.347 857.618 3522.98
294.282 857.709 3523.08
308.065 850.292 3522.3
299.084 856.349 3517.52
295.612 857.874 3515.08
292.107 860.497 3514.82
291.005 861.224 3513.92
290.237 861.711 3513.31
291.59 861.449 3516.94
289.647 861.983 3513.24
294.43 860.301 3520.34
293.565 860.914 3520.58
293.123 861.094 3520.24
292.648 861.234 3519.56
295.551 859.666 3520.14
301.444 856.419 3521.68
303.058 851.737 3516.93
300.934 853.494 3515.85
301.001 853.173 3515.07
305.395 850.978 3518.97
307.545 850.207 3520.03
307.204 850.232 3519.54
307.899 850.005 3520.62
307.767 850.048 3520
308.039 849.95 3521.22
308.507 849.257 3524.72
308.457 849.946 3523.19
308.332 850.033 3522.75
308.238 850.051 3522.18
307.931 847.794 3523.75
307.752 847.456 3523.64
307.682 847.196 3523.02
307.742 847.086 3522.25
307.858 847.117 3521.52
308.396 847.676 3520.23
307.787 847.111 3521.69
308.84 847.861 3518.69
309.038 847.893 3518.2
308.793 847.975 3518.63
309.239 847.86 3517.84
309.173 847.896 3517.91
309.465 847.944 3517.47
309.647 847.993 3517.26
310.227 848.498 3516.41
310.434 849.367 3515.2
310.306 849.233 3515.52
308.468 850.045 3516
307.218 850.235 3516.98
307.582 850.075 3517.2
308.038 849.927 3517
310.064 849.67 3514.99
309.369 849.825 3515.43
305.452 850.743 3516.49
301.836 853.801 3503.42
302.06 854.379 3499.57
302.41 854.458 3498.87
304.46 854.093 3498.66
306.482 853.786 3498.3
307.365 853.463 3498.35
308.219 852.983 3498.89
308.047 853.219 3497.91
301.424 853.046 3512.38
300.28 854.141 3509.09
301.325 853.65 3505.31
303.234 851.494 3515.39
308.945 852.59 3498.61
309.323 852.288 3499.5
310.532 851.186 3498.77
311.08 850.924 3499.54
311.324 850.294 3497.07
311.651 850.072 3496.31
312.132 849.901 3496.37
312.928 849.719 3496.31
316.196 849.25 3497.47
318.939 848.688 3499.66
319.712 848.468 3499.88
319.576 848.373 3500.69
320.206 847.985 3501.1
320.513 847.728 3501.55
321.787 846.701 3501.99
323.309 845.601 3502.11
326.479 844.174 3503.58
334.311 840.488 3506.47
330.899 842.166 3504.56
331.273 842.005 3504.48
333.437 840.851 3505.64
326.308 844.256 3502.71
338.519 840.273 3510.78
336.025 840.204 3507.98
334.997 840.309 3506.79
347.595 842.418 3528.33
348.336 841.605 3526.95
347.562 842.455 3528.84
347.468 842.495 3529.21
349.414 841.172 3517.91
349.536 841.26 3516.91
351.666 840.72 3519.86
339.599 840.32 3511.53
343.934 840.669 3515.52
347.066 840.944 3517.42
348.29 841.262 3517.3
349.487 840.685 3525.98
350.081 840.409 3526.62
350.683 840.17 3526.47
352.478 840.14 3524.55
353.312 840.269 3522.64
352.741 839.927 3525.23
346.568 842.677 3529.56
345.523 842.463 3530.38
346.969 842.613 3529.47
347.344 842.484 3529.59
344.594 842.195 3531.36
344.191 842.108 3531.78
343.887 842.075 3532.23
344.055 841.54 3533.2
342.48 842.462 3534.54
342.143 841.909 3536.42
340.403 844.213 3539.38
341.053 843.901 3537.14
340.559 844.117 3538.64
342.325 842.488 3535.15
340.631 843.486 3540.34
340.829 843.468 3541.13
340.857 842.525 3540.12
340.488 843.953 3539.61
340.59 843.306 3539.78
340.793 842.348 3539.35
340.728 842.566 3539.71
340.925 842.174 3539.05
341.082 842.042 3538.71
341.148 841.975 3538.72
341.231 841.968 3538.29
344.514 841.449 3532.71
345.259 841.008 3532.68
346.411 840.683 3532.46
347.997 840.351 3531.87
348.832 840.108 3531.5
349.743 839.886 3530.75
350.202 840.009 3529.24
350.271 840.229 3527.8
353.15 839.598 3525.84
354.006 838.589 3527.17
354.836 838.338 3526.39
356.698 837.774 3523.6
357.387 837.736 3521.85
357.89 837.486 3521.68
359.741 836.259 3522.91
361.918 835.439 3523.68
361.175 835.674 3523.35
362.805 835.346 3524.12
364.572 835.339 3525.56
227.188 931.389 3499.25
227.055 931.536 3499.49
227.389 931.109 3499.17
226.934 931.752 3499.65
228.602 929.676 3498.85
228.483 929.923 3498.54
227.13 934.02 3503.1
226.977 933.335 3501.48
226.831 932.772 3500.13
226.809 932.659 3500.19
226.89 932.957 3499.99
226.785 932.216 3499.85
226.785 932.405 3499.81
226.779 932.446 3500.14
226.806 932.569 3499.74
226.883 931.976 3499.51
234.423 919.49 3503.15
233.092 922.81 3498.91
234.048 920.487 3501.54
234.73 919.07 3503.67
230.917 927.494 3496.51
232.181 924.871 3497.33
235.047 918.712 3502.59
235.626 918.137 3502.84
237.414 916.997 3502.79
244.062 914.502 3533.6
241.885 914.876 3522.32
243.159 914.931 3526.85
243.316 915.034 3529.43
240.808 914.791 3501.63
242.618 913.695 3504.44
244.289 912.751 3509.76
242.135 914.205 3515.25
245.22 912.156 3511.57
244.072 913.295 3514.81
241.528 914.546 3519.02
246.558 913.107 3534.38
246.7 913.024 3534.12
246.563 913.099 3532.83
246.611 913.025 3532.81
246.418 913.198 3534.91
246.433 913.215 3534.45
246.611 912.967 3531.02
245.421 913.611 3535.38
245.151 913.858 3534.68
245.623 913.441 3535.66
246.114 913.422 3534.55
246.334 913.306 3534.5
247.393 910.405 3520.94
245.774 909.528 3523.36
244.356 907.46 3518.35
243.993 906.985 3517.76
248.205 911.172 3520.71
248.145 911.006 3520.37
248.074 910.908 3520.41
248.467 910.438 3518.47
248.369 910.264 3518.37
248.263 910.117 3518.27
248.125 909.963 3518.19
247.864 912.012 3524.69
247.276 912.581 3528.41
247.669 912.551 3527.12
247.889 912.367 3525.21
247.891 912.168 3524.85
247.266 912.684 3528.45
246.697 912.969 3530.11
246.697 913.041 3529.95
247.197 912.848 3528.54
247.25 912.765 3528.44
244.05 906.371 3515.11
244.25 905.301 3511.82
244.098 904.982 3511.47
244.077 904.647 3510.84
244.837 903.896 3506.08
244.75 903.702 3506.1
245.025 903.511 3503.77
244.965 903.311 3503.79
245.368 903.142 3502.33
245.326 902.997 3502.41
247.546 901.395 3500.5
249.163 900.217 3499.89
250.454 899.188 3499
251.737 897.989 3498.24
252.308 897.472 3497.83
253.127 896.115 3498.09
253.667 895.362 3496.33
253.888 895.003 3496.27
254.436 894.168 3497.93
254.494 893.893 3499.58
245.448 902.884 3501.96
245.99 902.584 3501.19
245.857 902.726 3501.25
246.378 902.247 3500.93
246.189 902.429 3501.03
247.623 901.528 3500.25
254.981 893.393 3499.24
255.442 892.975 3499.87
256.811 892.19 3500.2
260.059 890.295 3502.48
261.709 889.064 3504.87
261.702 889.103 3504.23
262.111 888.531 3506.01
269.642 877.029 3529.17
269.471 877.036 3524.25
269.372 876.887 3520.37
269.369 876.38 3514.63
265.211 881.268 3518.8
266.228 879.221 3517.02
266.208 879.175 3515.95
267.745 877.74 3513.36
268.14 877.31 3513.75
269.522 876.185 3511.75
270.543 875.403 3512.32
270.607 876.661 3533.39
272.319 875.714 3537.89
264.157 882.73 3516.95
264.176 882.862 3518.3
264.266 883.746 3522.35
264.35 882.574 3515.83
262.588 884.814 3512.95
263.315 885.115 3509.76
264.054 884.186 3510.65
262.635 886.914 3508.15
263.106 885.532 3509.38
263.208 884.203 3513.37
264.316 883.207 3513.77
264.075 883.502 3513.58
264.357 882.758 3515.06
273.763 874.903 3539.79
274.454 874.507 3540.22
274.613 874.209 3540.77
274.778 873.909 3541.18
278.09 869.937 3543.02
279.338 869.219 3542.57
275.947 872.359 3542.05
262.37 888.031 3506.69
279.609 869.147 3542.18
280.097 868.536 3541.35
279.568 869.115 3542.38
281.199 867.961 3539.57
281.632 867.968 3538.84
280.597 868.086 3540.47
281.76 867.937 3538.56
281.585 868.239 3538.41
281.631 868.101 3537.7
281.526 868.333 3538
281.409 867.731 3535.67
280.188 867.285 3532.47
279.036 866.581 3529.41
278.382 866.144 3527.45
281.477 868.235 3537.09
278.639 865.891 3526.51
278.074 866.104 3526.2
278.005 866.192 3526.7
284.047 863.903 3527.9
286.239 862.768 3529.9
287.007 862.328 3530.52
280.654 865.278 3526.33
278.465 865.949 3525.7
287.928 861.67 3530.96
288.266 861.311 3531.13
288.297 861.418 3531.04
288.621 860.944 3531.33
289.436 859.975 3531.49
287.791 861.866 3530.92
287.512 862.043 3530.81
290.121 859.737 3531.01
291.319 859.023 3530.27
291.935 859.102 3528.99
291.63 859.073 3529.68
292.279 858.886 3528.36
292.989 858.381 3526.72
294.021 857.726 3524.29
295.128 857.596 3522.22
296.006 857.996 3522.2
296.006 859.379 3520.4
296.001 859.323 3520.57
296.027 859.204 3520.76
296.268 859.053 3521.09
295.491 859.653 3520.31
296.33 858.903 3521.39
295.792 858.163 3521.93
294.433 857.53 3522.85
294.522 857.466 3522.82
294.644 857.539 3522.43
294.549 857.557 3522.55
294.934 857.566 3522.28
294.777 857.597 3522.26
294.876 857.657 3522.15
294.189 857.848 3523.15
294.043 857.936 3523.6
294.298 857.833 3522.7
294.393 857.717 3522.64
294.19 857.929 3522.85
308.194 849.739 3520.94
298.38 855.25 3514.01
292.711 858.824 3512.44
292.703 857.33 3509.26
294.933 856.553 3511.07
290.936 861.067 3513.09
291.899 859.453 3512.11
290.278 861.599 3512.46
289.893 861.882 3512.12
289.58 862.063 3512.07
291.475 861.491 3517.32
289.649 862.008 3513.9
289.171 862.241 3512.04
294.378 860.292 3520.69
293.563 860.82 3520.95
293.668 860.736 3521.02
293.374 860.94 3520.81
293.154 860.982 3520.84
292.829 861.11 3520.53
292.398 861.236 3519.93
291.362 861.508 3517.62
300.802 853.211 3514.38
303.043 851.597 3516.21
305.262 850.851 3518.15
307.561 850.001 3519.04
307.779 849.916 3519.09
307.193 850.134 3518.57
308.092 849.737 3519.99
307.936 849.825 3519.42
308.338 848.958 3524.05
308.4 849.552 3522.74
308.338 849.733 3521.95
308.384 849.535 3521.95
308.315 849.536 3521.05
307.753 847.52 3523.4
307.657 847.305 3523.27
307.663 847.172 3522.73
307.73 847.097 3521.97
308.281 847.571 3520.73
308.494 848.099 3519.77
308.633 848.536 3518.77
308.753 848.449 3518.24
308.213 847.636 3520.8
308.17 847.752 3520.91
309.021 848.011 3518.08
309.189 848.022 3517.72
308.942 848.51 3517.75
309.433 848.005 3517.41
309.328 848.019 3517.49
309.744 848.545 3516.68
309.969 848.535 3516.51
310.205 849.154 3515.74
309.839 849.5 3515.55
308.747 849.73 3516.5
307.085 850.203 3517.64
307.554 850.014 3517.81
308.299 849.735 3517.25
307.978 849.86 3517.66
309.387 849.524 3516.08
305.375 850.732 3517.11
301.362 854.365 3501.63
301.434 854.764 3499.09
301.551 854.958 3498.33
302.22 854.84 3498.02
304.036 854.455 3497.94
306.136 854.071 3497.78
306.994 853.783 3497.66
308.507 852.96 3498.14
307.865 853.512 3497.31
308.436 853.222 3497.24
300.96 853.121 3513.17
298.216 855.266 3508.26
299.023 855.238 3505.61
300.381 854.255 3506.38
297.962 855.106 3511.6
295.428 855.948 3508.71
300.365 854.535 3504.36
302.956 851.614 3515.64
305.242 850.796 3517.59
309.036 852.6 3497.99
309.438 852.216 3498.56
310.281 851.328 3498.24
311.075 850.418 3496.77
311.364 850.244 3496.16
311.747 850.141 3495.55
312.161 849.971 3495.69
312.701 849.879 3495.43
313.49 849.706 3495.64
317.235 849.374 3496.1
319.66 849.174 3496.56
321.382 848.763 3497.47
321.689 848.619 3497.85
321.571 848.468 3498.42
320.08 848.201 3500.45
320.58 847.949 3500.62
320.802 847.61 3501.22
321.777 846.736 3501.45
323.028 845.772 3501.47
323.944 845.253 3501.77
334.339 840.516 3506.08
326.53 844.222 3502.29
331.27 842.054 3504.22
326.951 844.15 3502.02
333.261 841.013 3505.21
323.936 845.332 3501
336.569 840.173 3508.09
335.356 840.28 3506.74
347.838 842.277 3528.54
348.585 841.534 3527.45
347.723 842.374 3529
347.574 842.383 3529.5
348.449 841.501 3516.48
349.647 841.289 3516.11
349.105 841.48 3516.06
348.574 841.622 3516.09
350.065 841.124 3516.98
351.597 840.618 3516.45
353.255 840.234 3519.72
339.561 840.348 3510.98
344.011 840.813 3515.07
346.715 841.072 3516.75
347.837 841.499 3516.59
348.06 841.69 3516.22
349.761 840.6 3527.18
353.873 840.058 3523.12
354.428 839.813 3520.41
353.907 839.902 3524.08
346.797 842.522 3530.03
347.079 842.542 3529.75
345.864 842.265 3530.79
347.418 842.379 3529.83
344.519 842.035 3531.73
344.251 841.938 3532.1
341.852 842.011 3536.91
340.451 843.855 3539.33
341.577 843.315 3536.43
340.576 843.93 3538.72
341.343 843.464 3537.02
341.689 842.167 3537.04
340.571 843.1 3539.38
340.676 842.543 3539.35
340.809 842.308 3539.08
341.011 842.118 3538.66
340.875 842.238 3538.8
341.165 842.048 3538.24
344.959 841.387 3532.32
346.321 840.83 3532.22
347.9 840.487 3531.72
348.743 840.261 3531.3
349.448 840.047 3530.8
349.604 840.267 3529.92
349.858 840.404 3528.72
349.861 840.511 3527.92
354.181 839.78 3524.02
353.832 839.259 3525.82
354.661 838.98 3525.19
355.68 838.544 3524.03
355.62 839.014 3522.46
355.476 839.22 3521.62
356.552 838.685 3519.82
358.379 837.308 3521.48
357.167 838.426 3519.67
360.76 835.917 3522.87
358.811 837.201 3521.28
362.095 835.467 3523.34
362.987 835.375 3523.7
365.815 835.424 3525.68
227.124 931.561 3499.16
227.364 931.334 3498.87
226.999 931.746 3499.3
227.539 931.091 3498.77
228.548 930.047 3498.18
227.327 934.326 3502.99
227.074 933.545 3501.33
227 933.115 3499.75
226.844 932.195 3499.43
226.968 931.968 3499.11
234.651 919.213 3502.3
232.972 923.377 3497.24
233.441 922.384 3498.41
234.497 920.027 3500.7
229.617 929.836 3496.57
229.622 930.215 3495.98
230.909 928.286 3495.21
231.242 927.816 3495.05
231.38 927.225 3495.66
231.845 926.269 3496.11
231.844 925.971 3496.58
232.335 924.865 3496.76
232.925 923.661 3496.78
235.031 918.91 3501.65
235.48 918.47 3501.69
237.098 917.376 3501.24
239.444 916.003 3499.62
244.814 914.156 3532.3
242.568 914.468 3522.06
245.194 914.135 3527.19
245.062 913.922 3524.43
245.215 914.151 3528.85
240.556 915.04 3500.31
242.688 913.491 3503.09
245.058 912.102 3507.51
242.888 913.93 3517.46
247.38 911.137 3512.69
246.415 911.887 3514.09
245.889 912.93 3518.35
246.48 913.208 3534.08
246.432 913.218 3532.78
246.608 913.093 3530.52
246.55 913.197 3530.3
246.271 913.333 3532.78
245.63 913.719 3532.65
245.766 913.616 3534.23
246.083 913.456 3532.63
245.879 913.577 3532.51
245.807 908.949 3519.95
247.911 909.722 3517.98
247.52 909.463 3518.01
244.429 906.894 3515.83
248.251 911.36 3520.92
248.641 910.657 3518.25
248.59 910.536 3518.26
248.903 910.018 3516.43
248.802 909.885 3516.49
248.506 909.361 3515.74
248.195 909.031 3515.51
247.682 912.64 3527.08
247.908 912.418 3524.93
248.198 911.701 3521.56
248.246 911.524 3521.19
247.655 912.728 3527.08
247.172 912.923 3528.53
247.061 913.045 3528.58
247.507 912.975 3527.15
247.639 912.822 3526.89
244.503 905.568 3511.89
244.794 904.589 3508.67
244.994 904.927 3509.18
244.944 904.151 3506.28
245.165 903.728 3503.61
245.294 903.354 3502.65
