52.614300 939.070007 1136.369995 
52.245201 938.960022 1135.790039 
52.690102 939.148010 1130.310059 
52.334702 938.911011 1132.319946 
52.016300 938.814026 1134.170044 
51.970100 938.473999 1134.189941 
51.969700 938.606018 1134.729980 
52.061199 938.749023 1135.180054 
52.127800 938.765991 1135.569946 
54.805801 940.202026 1137.060059 
52.556599 933.513000 1120.839966 
52.643101 934.911987 1121.510010 
52.584801 933.857971 1121.689941 
52.798801 935.518982 1124.859985 
52.862801 938.658997 1127.469971 
52.961201 937.382019 1126.229980 
53.011002 936.356995 1126.140015 
51.807400 939.098022 1120.560059 
51.162201 938.293030 1118.680054 
51.025299 936.679993 1117.949951 
51.747501 936.723999 1119.689941 
51.702202 936.434021 1119.349976 
51.622501 936.328003 1119.089966 
52.291901 935.703979 1120.530029 
52.516800 935.453979 1121.140015 
52.531700 934.169983 1120.099976 
52.471199 933.067993 1119.930054 
55.074299 940.122009 1156.790039 
54.171700 939.578979 1158.890015 
53.865398 939.427979 1160.030029 
53.836201 939.627014 1160.660034 
53.907902 939.619995 1162.469971 
54.000702 939.583984 1165.959961 
53.936699 939.591980 1167.969971 
54.043400 939.622009 1168.819946 
54.357700 939.984009 1170.030029 
54.684502 940.031982 1171.449951 
54.702099 939.445007 1174.880005 
54.693901 938.698975 1177.150024 
54.930302 937.736023 1178.479980 
54.994099 937.841003 1178.650024 
54.832802 937.570984 1177.989990 
54.881699 937.549988 1178.329956 
55.118698 938.192993 1178.770020 
55.093201 937.804993 1178.869995 
55.262600 938.153015 1178.979980 
55.853199 939.273010 1178.800049 
55.392300 938.052002 1179.160034 
55.619999 938.947998 1178.890015 
55.557598 938.252991 1179.209961 
55.712101 938.473999 1179.219971 
55.824100 937.080994 1179.819946 
55.680801 936.940979 1179.760010 
57.807201 940.294983 1178.739990 
56.304100 939.705994 1178.709961 
57.415298 935.593018 1192.319946 
55.894199 933.351990 1193.189941 
54.888000 932.810974 1196.329956 
55.476101 936.562012 1199.250000 
55.172600 936.291992 1199.939941 
55.032101 937.594971 1202.280029 
54.998299 936.020996 1200.459961 
54.882900 935.804993 1200.949951 
55.082199 937.705994 1203.060059 
55.198399 937.773010 1203.750000 
59.067902 928.866028 1207.790039 
58.911201 929.146973 1207.390015 
58.833698 928.565002 1207.040039 
59.056499 928.515015 1207.900024 
59.719299 928.338989 1210.099976 
59.152302 927.887024 1208.719971 
62.513401 938.164001 1216.310059 
62.445900 938.385010 1216.180054 
61.938801 937.797974 1215.660034 
62.095200 936.877014 1216.209961 
61.973701 935.456970 1216.810059 
61.541199 934.005005 1216.900024 
62.598701 937.674011 1216.599976 
61.446201 933.580994 1216.910034 
61.261902 933.104004 1216.640015 
61.079800 930.094971 1215.430054 
61.212399 932.627014 1216.469971 
60.546700 926.370972 1213.380005 
59.185600 926.682983 1209.510010 
59.647999 925.489990 1211.119995 
58.147900 939.372986 1208.650024 
57.775902 939.286987 1208.300049 
58.970402 939.760010 1209.099976 
56.297600 939.068970 1206.300049 
55.433601 937.895996 1204.589966 
56.758801 938.885986 1207.060059 
57.279999 938.840027 1207.790039 
57.643299 938.883972 1208.270020 
55.072601 936.346008 1203.510010 
55.018200 936.466980 1203.180054 
58.908298 939.190979 1209.239990 
58.849800 938.702026 1209.339966 
58.816700 938.293030 1209.359985 
58.841301 937.895020 1209.369995 
59.266499 936.692017 1209.410034 
59.406300 936.460999 1209.469971 
59.268002 935.221008 1209.180054 
59.354599 935.036011 1209.260010 
59.486301 934.479004 1209.089966 
59.553299 931.903015 1208.819946 
59.096901 930.067017 1207.989990 
59.653500 933.612000 1208.920044 
59.535599 933.963013 1208.869995 
59.566700 933.801025 1208.859985 
63.332901 939.466003 1217.459961 
63.227402 938.966980 1217.199951 
63.088501 939.072021 1216.969971 
63.504601 939.379028 1217.680054 
63.753502 939.195984 1218.150024 
63.980598 939.107971 1218.739990 
64.727203 938.804993 1221.989990 
64.361900 938.679016 1220.359985 
63.965801 938.760986 1218.739990 
63.879002 938.424988 1218.530029 
63.752602 937.656982 1218.530029 
63.660400 935.466003 1219.920044 
64.462303 934.742004 1222.219971 
66.602997 944.895996 1246.119995 
66.708504 945.148010 1246.099976 
66.782997 945.080017 1246.459961 
66.470299 944.656006 1245.719971 
66.536003 942.627014 1239.170044 
66.257500 943.888000 1243.420044 
66.170197 943.554016 1243.939941 
66.376503 944.273987 1245.869995 
66.831802 944.883972 1246.849976 
66.929298 944.789001 1247.040039 
67.842201 945.552979 1246.900024 
67.532402 945.312012 1246.989990 
67.329201 945.354980 1246.869995 
67.163803 945.096008 1246.979980 
67.003799 944.642029 1247.209961 
67.677399 943.945984 1247.900024 
67.809998 943.083008 1248.439941 
67.244202 943.525024 1247.959961 
66.906998 942.968994 1248.000000 
66.981598 943.168030 1247.959961 
67.088997 944.500977 1247.369995 
66.833099 944.151001 1247.390015 
67.158401 941.330994 1248.989990 
67.253998 940.663025 1249.640015 
68.004501 940.294983 1251.589966 
67.373901 940.033020 1250.339966 
67.742897 939.799988 1251.520020 
66.823502 942.752991 1247.989990 
68.070099 939.952026 1253.280029 
67.964500 939.583008 1253.359985 
67.903503 945.304993 1247.119995 
67.538399 944.926025 1247.310059 
70.670601 916.096985 1259.890015 
69.404701 915.294006 1261.900024 
68.648499 915.206970 1262.859985 
68.524399 914.900024 1263.290039 
68.524597 914.567017 1263.719971 
68.693298 914.715027 1263.290039 
68.484703 914.388000 1264.150024 
68.495598 914.336975 1264.359985 
68.477798 914.620972 1265.439941 
68.458603 914.492981 1265.250000 
68.424797 914.312012 1264.810059 
68.421898 914.388977 1265.050049 
68.483803 914.263977 1264.579956 
68.554703 914.750000 1265.680054 
68.560303 914.828003 1265.739990 
68.690498 914.919006 1265.949951 
69.180496 915.543030 1266.920044 
69.954102 917.627014 1269.819946 
69.471802 916.611023 1268.239990 
69.875603 917.213013 1269.170044 
69.575401 916.648010 1268.329956 
70.040298 917.484009 1269.589966 
68.703003 914.818970 1265.869995 
70.336998 917.601990 1269.930054 
70.354301 917.763977 1270.589966 
70.506699 917.898010 1271.829956 
70.577003 917.793030 1271.209961 
70.721001 917.796997 1274.609985 
70.645699 917.838013 1273.250000 
70.788200 917.809021 1274.989990 
72.119301 917.380005 1275.780029 
72.614899 917.312012 1276.569946 
72.948196 917.176025 1276.599976 
72.852699 917.338989 1277.020020 
67.640198 939.333008 1251.709961 
67.385101 938.304993 1251.079956 
66.625801 936.309998 1247.989990 
65.802902 933.132019 1246.189941 
65.322403 931.726013 1245.130005 
65.301598 931.229004 1245.290039 
65.319801 929.877991 1244.439941 
65.742203 928.351990 1245.420044 
65.501701 928.578003 1244.569946 
65.933502 928.255981 1246.130005 
66.096298 928.122009 1246.560059 
66.311203 928.057007 1246.959961 
66.527100 928.054016 1247.369995 
66.923103 928.070984 1248.050049 
66.673897 927.596008 1247.280029 
67.176598 928.306030 1248.819946 
68.660698 930.307983 1255.060059 
67.412102 928.280029 1249.119995 
67.617104 928.070984 1249.050049 
72.942703 919.007996 1279.530029 
73.080498 918.163025 1278.410034 
73.097099 917.583984 1277.699951 
49.043400 925.367004 1095.760010 
49.401199 925.655029 1097.660034 
49.220901 924.466003 1096.089966 
49.987202 929.419006 1104.229980 
50.116402 932.190002 1107.660034 
50.844299 928.651001 1106.250000 
49.939201 925.435974 1099.609985 
50.056702 924.206970 1098.650024 
50.541302 922.401978 1099.530029 
50.584202 923.650024 1102.020020 
51.332500 919.500000 1101.880005 
49.443001 933.788025 1105.329956 
49.591599 934.385986 1107.530029 
48.877499 934.429993 1104.420044 
49.040298 934.817993 1105.540039 
48.805901 935.848022 1106.469971 
49.529301 922.796997 1093.599976 
49.944000 921.276978 1092.160034 
49.887199 921.104004 1092.579956 
49.564602 922.500977 1093.930054 
50.768101 938.362976 1117.900024 
50.350700 940.080994 1118.170044 
48.858002 941.742981 1116.630005 
49.352901 941.208984 1116.949951 
48.675201 941.323975 1116.079956 
49.506001 938.177979 1115.170044 
49.426601 937.987976 1114.550049 
48.871300 938.263000 1112.459961 
49.340000 937.661011 1113.000000 
48.635502 938.151978 1111.160034 
49.672199 938.094971 1115.619995 
49.122898 940.202026 1116.030029 
49.389099 939.799011 1116.310059 
50.214298 938.862976 1117.229980 
50.003799 937.435974 1116.020020 
49.939999 938.200989 1116.300049 
48.947498 937.479004 1110.859985 
49.372002 936.299988 1110.449951 
49.555599 935.215027 1109.510010 
49.151100 935.265991 1106.640015 
49.467300 934.442017 1106.319946 
52.421001 938.857971 1136.229980 
52.559898 938.905029 1136.439941 
53.380798 939.757019 1136.469971 
52.748901 938.979004 1136.630005 
53.208401 939.489014 1136.569946 
52.982899 939.330994 1136.530029 
53.055099 939.177002 1136.719971 
52.252899 938.838013 1135.939941 
52.715599 938.606018 1130.390015 
52.323700 938.495972 1132.300049 
51.973499 938.206970 1133.890015 
51.914501 938.218018 1134.660034 
51.935398 937.965027 1134.260010 
51.939899 938.369995 1134.949951 
52.038502 938.447021 1135.410034 
52.165501 938.567017 1135.829956 
54.983101 938.124023 1138.939941 
54.707001 937.598999 1139.069946 
54.769699 937.070007 1139.630005 
54.737900 939.932983 1137.339966 
54.640202 939.538025 1137.660034 
54.396702 939.119019 1137.810059 
52.424900 932.146973 1120.859985 
52.437401 931.992981 1120.380005 
52.429901 932.065979 1120.079956 
52.281601 932.455994 1122.550049 
52.373100 933.239990 1122.959961 
52.386799 933.685974 1123.969971 
52.407299 933.593018 1124.569946 
52.429401 933.437012 1125.010010 
52.823002 935.119019 1125.579956 
52.871498 938.250000 1128.380005 
53.040100 937.432007 1127.479980 
53.056099 936.885986 1126.650024 
53.104500 935.880005 1126.619995 
53.150600 936.450989 1126.849976 
50.400200 936.844971 1116.540039 
51.197800 935.861023 1118.270020 
50.782600 935.992981 1117.349976 
50.724701 936.354004 1117.199951 
50.779999 935.408020 1116.969971 
51.086700 934.455017 1117.439941 
50.989399 935.366028 1117.790039 
52.074501 935.697998 1119.770020 
52.009399 935.185974 1119.250000 
51.353600 935.651978 1118.449951 
52.376701 934.411987 1119.609985 
52.459900 934.252014 1119.829956 
52.372200 932.875000 1119.469971 
52.401901 931.807983 1119.800049 
55.290600 938.679993 1155.609985 
56.625198 937.952026 1151.910034 
56.214600 936.986023 1152.300049 
55.355900 935.942993 1154.310059 
54.834000 937.754028 1156.459961 
54.441200 937.908997 1157.680054 
53.860100 939.038025 1159.800049 
53.757702 939.171021 1160.609985 
53.874901 939.343018 1162.319946 
53.998901 939.265991 1166.069946 
53.959400 939.286011 1168.310059 
54.033298 939.341980 1169.030029 
54.336201 939.760010 1170.099976 
54.644798 939.770020 1171.079956 
54.717300 939.807983 1171.900024 
54.713501 939.135010 1174.880005 
54.787201 937.705994 1177.510010 
55.181099 936.270996 1179.119995 
55.249802 936.387024 1179.290039 
55.308399 936.489990 1179.420044 
55.126099 936.151978 1178.949951 
55.089600 936.081970 1178.660034 
55.361401 936.598022 1179.510010 
55.444500 936.721008 1179.589966 
55.549500 936.827026 1179.670044 
56.216599 939.109985 1179.119995 
55.895199 938.783020 1179.170044 
56.020802 937.286987 1179.869995 
56.262199 937.591003 1179.869995 
56.359699 936.453979 1180.359985 
56.141499 936.023010 1180.420044 
55.891800 935.976990 1180.250000 
58.447201 939.431030 1179.660034 
57.356899 939.440002 1179.280029 
58.796101 939.463989 1179.829956 
58.960999 939.263977 1180.130005 
59.501099 937.341980 1188.890015 
57.191898 933.893005 1189.030029 
56.898998 933.210022 1188.640015 
55.576401 931.971008 1192.020020 
54.399700 932.033997 1197.589966 
54.083401 930.109009 1195.359985 
54.822800 935.646973 1201.479980 
54.801498 935.523010 1201.989990 
54.188900 931.559021 1198.630005 
54.884499 936.017029 1202.569946 
58.839901 927.987976 1207.150024 
58.734501 929.171997 1207.020020 
58.647800 927.982971 1206.280029 
58.721802 927.614014 1206.560059 
58.975201 927.408020 1208.250000 
63.069000 938.859009 1216.890015 
63.338600 938.705994 1217.369995 
63.348900 938.393982 1217.459961 
62.540600 935.638977 1217.619995 
61.742001 934.247009 1217.199951 
63.305401 937.585999 1217.709961 
61.579201 933.453979 1217.189941 
62.287998 934.177002 1218.000000 
61.459099 933.020020 1216.949951 
61.298801 930.307983 1216.040039 
61.163799 931.679016 1216.040039 
61.221100 928.531006 1215.430054 
61.510601 931.046021 1216.599976 
59.672699 923.901978 1210.729980 
60.789600 926.226013 1213.939941 
59.129601 926.146973 1209.359985 
59.520401 923.856018 1210.150024 
58.071800 939.039001 1208.680054 
55.715900 938.135010 1205.180054 
55.159000 936.328003 1203.800049 
55.951900 938.164001 1205.609985 
57.143398 938.171021 1207.619995 
57.453098 938.424011 1208.089966 
57.331699 938.241028 1207.920044 
57.739201 938.437988 1208.439941 
58.061901 938.606018 1208.739990 
54.572800 932.848022 1202.449951 
54.467999 932.539001 1202.140015 
54.384602 932.361023 1201.650024 
58.046001 938.143982 1208.760010 
58.052200 937.812988 1208.729980 
58.173801 937.210999 1208.780029 
58.833302 937.206970 1209.239990 
58.550400 935.890991 1208.750000 
59.074100 935.190002 1208.989990 
59.314800 934.494995 1208.900024 
59.369400 932.427979 1208.589966 
59.184299 930.929016 1208.310059 
58.904800 930.315002 1207.719971 
59.498600 933.651978 1208.750000 
59.404202 933.833984 1208.699951 
63.595402 938.797974 1217.849976 
63.854698 938.810974 1218.339966 
63.688999 938.523987 1218.079956 
63.583199 937.573975 1218.229980 
63.369301 935.627014 1218.959961 
62.984501 933.874023 1219.189941 
63.055500 933.810974 1219.400024 
63.145699 933.533020 1220.089966 
63.517101 933.883972 1221.000000 
64.195396 933.880005 1222.400024 
64.948601 934.020996 1223.979980 
66.440498 944.239014 1246.469971 
66.687202 944.758972 1246.619995 
66.504501 944.234009 1246.709961 
66.678703 944.530029 1246.910034 
66.286697 942.046021 1239.569946 
66.061302 941.656006 1240.699951 
65.838997 941.760986 1242.680054 
66.112602 943.072021 1244.569946 
66.265297 943.448975 1246.300049 
66.347504 943.513977 1246.770020 
66.740402 944.221008 1247.260010 
66.729401 944.507996 1247.050049 
67.307297 944.953979 1247.180054 
67.391800 943.692993 1247.949951 
67.250099 944.541992 1247.459961 
66.617798 944.004028 1247.229980 
66.984703 940.971008 1248.890015 
66.727699 942.484009 1247.979980 
66.976997 940.382019 1249.140015 
67.387199 939.502014 1250.699951 
66.496803 943.822021 1247.140015 
69.156303 915.015015 1262.500000 
68.651100 914.416016 1263.880005 
68.882698 914.518982 1263.349976 
69.337303 914.802002 1262.550049 
68.693901 914.304993 1264.160034 
68.641098 914.258972 1264.439941 
68.536102 914.588989 1265.500000 
68.509598 914.437988 1265.260010 
68.463303 914.335022 1265.000000 
68.521896 914.262024 1264.760010 
68.674599 914.221985 1264.599976 
69.307999 915.572998 1267.030029 
68.867897 914.797974 1265.989990 
68.730103 914.775024 1265.859985 
70.111900 917.179016 1269.130005 
69.763397 916.731995 1268.459961 
70.295898 917.432007 1269.550049 
69.454399 915.614990 1267.109985 
70.738503 917.448975 1269.739990 
70.745796 917.583008 1270.199951 
70.780800 917.681030 1270.770020 
70.796303 917.784973 1271.949951 
71.942703 917.418030 1271.020020 
72.268204 917.232971 1274.819946 
70.935501 917.742981 1273.290039 
66.986099 939.908020 1249.380005 
66.600197 940.469971 1248.099976 
66.506401 938.432983 1247.750000 
66.181801 939.031982 1246.150024 
65.925598 936.916992 1242.599976 
66.024200 935.732971 1245.060059 
65.576599 934.145020 1242.729980 
65.274101 931.494019 1243.760010 
65.226601 930.612976 1243.979980 
65.087700 928.862976 1242.319946 
65.149399 926.900024 1243.260010 
65.560699 927.495972 1244.949951 
65.715401 927.328003 1245.380005 
65.798401 927.135010 1245.579956 
65.880997 926.973999 1245.739990 
65.962303 926.848999 1245.859985 
66.439598 927.619019 1246.930054 
67.155502 927.658997 1248.010010 
66.849800 927.354004 1247.349976 
66.390198 926.429016 1246.219971 
66.259399 926.594971 1246.150024 
67.361099 927.843994 1248.439941 
69.167801 930.395020 1255.890015 
68.792099 929.643982 1253.479980 
67.490501 927.546997 1248.239990 
68.349197 927.492981 1248.900024 
49.765202 922.122009 1095.150024 
49.719299 921.914001 1094.270020 
49.661900 924.317993 1097.359985 
49.884399 922.687988 1096.390015 
50.552700 927.554993 1104.270020 
50.664299 928.536987 1105.380005 
50.362701 926.005981 1102.849976 
50.318802 933.763977 1111.770020 
49.800400 934.593018 1109.839966 
50.625702 930.328979 1109.689941 
50.753399 929.362000 1108.650024 
51.028999 928.307007 1106.699951 
51.252201 927.575012 1106.900024 
51.433899 926.468018 1105.800049 
51.571400 926.078003 1106.270020 
50.443100 921.284973 1096.890015 
50.872002 919.815002 1098.060059 
51.253700 924.112976 1104.260010 
51.075001 921.979980 1103.239990 
50.959000 921.681030 1102.430054 
51.625999 918.767029 1104.839966 
51.393299 920.403015 1104.859985 
51.644901 917.359009 1101.010010 
50.531799 919.474976 1095.250000 
50.045799 919.427979 1090.479980 
49.974998 919.236023 1091.109985 
49.961601 919.171021 1091.680054 
50.015499 919.151001 1092.229980 
50.005699 936.583008 1115.180054 
50.112400 936.718994 1115.750000 
49.571201 937.163025 1113.150024 
49.224400 937.406006 1111.569946 
49.549500 936.721985 1111.589966 
49.679501 935.757019 1110.670044 
49.855400 936.054016 1111.680054 
49.845699 935.343018 1110.890015 
52.524899 938.778015 1136.479980 
52.382000 938.728027 1136.260010 
52.686901 938.848999 1136.630005 
53.096699 938.987000 1136.930054 
52.918598 938.843994 1136.849976 
54.070202 938.932007 1137.699951 
52.262402 938.640991 1136.060059 
52.842300 937.841980 1130.180054 
52.352699 937.989014 1132.219971 
51.982201 937.729004 1133.760010 
51.915901 937.661987 1134.699951 
51.916801 937.971008 1134.890015 
51.945900 937.463989 1134.199951 
51.974602 938.151978 1135.250000 
52.123901 938.271973 1135.829956 
52.235699 938.346985 1136.109985 
54.656700 936.520996 1140.010010 
54.969799 935.781006 1141.260010 
54.589100 938.158020 1138.500000 
54.401299 937.926025 1138.449951 
54.442200 937.161987 1139.060059 
54.424702 937.568970 1138.709961 
52.439999 931.760010 1120.790039 
52.253799 932.059998 1122.510010 
52.264900 931.760986 1122.479980 
52.455601 931.745972 1120.150024 
52.082100 932.129028 1124.079956 
52.066799 931.880981 1123.890015 
52.092201 932.226990 1124.530029 
52.457001 933.231995 1125.280029 
52.139900 932.236023 1124.880005 
52.818298 934.562988 1125.790039 
52.970299 937.703003 1128.829956 
53.633400 935.609985 1128.589966 
53.228401 936.598999 1127.439941 
53.696098 935.335022 1128.290039 
52.891998 934.656006 1126.099976 
53.123600 935.340027 1126.790039 
53.262299 935.778015 1127.170044 
53.299198 936.098022 1127.339966 
50.814999 934.742981 1116.699951 
51.310501 932.507019 1117.239990 
51.241402 932.379028 1117.000000 
51.191898 934.500000 1117.670044 
51.746799 931.820984 1118.030029 
51.759800 933.447021 1118.119995 
51.740002 933.830994 1118.219971 
52.273102 934.242004 1119.270020 
51.622200 934.789978 1118.479980 
52.323101 933.939026 1119.270020 
52.369701 933.940979 1119.430054 
52.259602 932.624023 1119.050049 
52.323002 931.531982 1119.270020 
52.428001 931.447998 1119.599976 
52.437302 931.552002 1119.869995 
52.435398 931.643982 1119.949951 
56.327099 936.828003 1151.540039 
55.322601 935.156006 1153.439941 
55.063702 934.594971 1154.349976 
54.991299 935.372009 1155.369995 
54.333401 937.651978 1158.089966 
53.817101 938.736023 1160.099976 
53.790100 938.606995 1160.630005 
53.888802 939.088013 1162.280029 
54.040798 938.864990 1165.900024 
53.973499 939.041992 1168.079956 
54.037300 939.125977 1168.930054 
54.340199 939.556030 1170.160034 
54.682800 939.523010 1171.219971 
54.739399 939.549988 1172.040039 
54.774399 938.684998 1174.819946 
55.087502 935.932983 1178.380005 
55.494400 935.051025 1179.969971 
55.427799 934.947998 1179.810059 
55.556599 935.280029 1180.030029 
55.607101 935.640991 1179.979980 
55.423000 934.492004 1179.750000 
55.391201 934.473999 1179.290039 
55.738098 935.447021 1180.300049 
55.777901 935.754028 1180.250000 
56.649200 938.120972 1179.810059 
57.094601 938.736023 1179.650024 
56.677101 936.710022 1180.439941 
57.293400 937.396973 1180.410034 
56.557999 936.137024 1180.650024 
56.041401 935.594971 1180.569946 
56.266102 935.638000 1180.719971 
57.973202 938.557983 1180.060059 
58.263901 938.492004 1180.260010 
58.671902 938.362976 1180.689941 
58.045502 937.679993 1180.709961 
58.264900 937.153015 1181.520020 
58.219398 936.567017 1182.130005 
57.524700 936.460022 1181.280029 
57.966000 934.916992 1188.229980 
57.287800 933.742004 1187.520020 
56.626999 932.671021 1189.020020 
57.024700 933.218018 1187.599976 
56.846100 932.728027 1187.949951 
55.323799 931.335999 1192.189941 
53.679298 929.031982 1196.469971 
53.902500 929.379028 1195.319946 
54.036400 930.979980 1199.310059 
53.836201 929.939026 1199.339966 
58.784302 927.364990 1206.930054 
58.896301 926.953003 1207.920044 
58.553200 929.153992 1206.670044 
58.520401 927.862976 1205.890015 
58.666801 926.931030 1205.599976 
58.706200 927.132019 1205.979980 
58.779701 926.950989 1206.380005 
63.201500 935.796997 1218.500000 
62.875900 934.392029 1218.709961 
62.094002 933.252991 1217.839966 
62.198799 933.736023 1217.989990 
62.858799 933.778015 1218.839966 
62.690201 933.534973 1218.540039 
61.785198 932.567993 1217.310059 
61.351398 928.362976 1215.619995 
60.968899 926.078979 1214.300049 
62.221699 932.166992 1217.790039 
61.934399 928.177979 1216.459961 
62.075901 930.044983 1217.380005 
62.521000 927.955994 1217.339966 
62.063499 930.570007 1217.449951 
59.999298 924.567993 1211.849976 
59.492802 921.594971 1209.800049 
59.632801 921.656006 1210.140015 
59.731499 922.791016 1210.510010 
59.207298 924.947998 1209.170044 
59.393902 921.479980 1209.319946 
55.255001 936.158020 1204.030029 
54.619301 932.807983 1202.650024 
56.660500 938.122986 1206.689941 
55.339100 935.859009 1204.140015 
55.802200 937.549011 1205.229980 
55.527699 936.822998 1204.849976 
57.573002 937.775024 1208.219971 
57.502300 937.390015 1208.089966 
57.390701 936.357971 1207.670044 
57.793999 937.942017 1208.489990 
54.197498 930.419983 1201.439941 
53.893398 929.320984 1200.050049 
53.739201 929.033020 1199.290039 
57.922100 937.263000 1208.569946 
57.767300 937.463013 1208.410034 
58.031601 935.218018 1208.150024 
58.731602 934.406006 1208.400024 
59.167999 934.455017 1208.729980 
59.346600 933.974976 1208.640015 
59.079300 932.679993 1208.359985 
58.997898 931.369019 1208.170044 
58.853699 930.861023 1207.849976 
58.457500 929.668030 1206.790039 
59.237099 933.581970 1208.520020 
59.222900 933.870972 1208.500000 
62.991402 934.247009 1219.030029 
62.630798 932.523010 1218.589966 
62.705399 932.330017 1219.030029 
62.752701 932.142029 1219.530029 
62.808399 931.989990 1220.750000 
62.890400 931.125977 1222.660034 
63.064999 931.557983 1222.750000 
63.268200 932.205017 1222.459961 
63.975399 932.950989 1223.040039 
64.176003 932.047974 1225.540039 
64.164703 932.445007 1224.390015 
66.332001 939.427002 1236.020020 
66.431297 943.564026 1247.050049 
66.503700 944.075989 1246.930054 
66.150497 939.518005 1237.319946 
66.043404 939.520020 1239.900024 
65.967102 940.742981 1241.170044 
65.877701 940.335999 1242.369995 
65.949699 941.828003 1244.579956 
66.207298 942.398987 1246.540039 
66.348198 942.872009 1247.140015 
66.641502 942.239014 1247.910034 
66.606697 941.948975 1247.900024 
66.455299 943.549011 1247.180054 
68.990303 914.379028 1263.619995 
69.558197 914.585999 1262.680054 
68.904602 914.250000 1264.239990 
69.155701 914.280029 1263.800049 
68.858902 914.213989 1264.479980 
68.616203 914.549988 1265.530029 
68.615097 914.406006 1265.319946 
68.552597 914.333984 1265.089966 
68.660599 914.247986 1264.819946 
68.851700 914.195984 1264.650024 
69.021797 914.809021 1266.089966 
68.827103 914.585022 1265.650024 
69.981796 916.726990 1268.449951 
70.599403 917.044006 1268.849976 
70.614601 917.267029 1269.280029 
69.631203 915.655029 1267.150024 
69.137497 914.771973 1266.079956 
72.003998 917.168030 1269.069946 
72.068001 917.237976 1269.449951 
72.070099 917.331970 1270.160034 
71.927803 917.442993 1272.839966 
66.526497 941.731995 1247.709961 
65.981102 939.864990 1244.130005 
65.755402 937.497986 1239.609985 
65.425499 934.939026 1238.890015 
65.077400 932.299011 1240.469971 
65.087402 932.070984 1239.020020 
65.035500 931.028015 1241.140015 
64.590797 926.758972 1240.459961 
64.403900 925.552979 1240.089966 
65.199501 926.200012 1243.560059 
65.347000 926.059021 1244.040039 
65.605598 926.148987 1244.930054 
66.094704 926.755981 1246.020020 
65.844002 925.869995 1245.280029 
65.719101 925.870972 1245.010010 
67.213699 927.146973 1247.579956 
66.937202 927.059021 1247.209961 
66.565498 926.213013 1246.290039 
66.027298 925.158997 1244.920044 
66.229103 924.916016 1245.030029 
68.992897 930.145996 1254.910034 
67.333298 926.729980 1247.310059 
50.924198 925.689026 1104.030029 
51.379200 926.257996 1105.489990 
50.529400 934.747009 1114.689941 
50.016701 935.666016 1111.989990 
51.013199 932.122986 1114.709961 
50.916698 930.094971 1111.209961 
51.319000 927.041016 1109.829956 
51.594398 927.257019 1111.739990 
51.280201 927.234009 1108.290039 
51.817600 925.177979 1108.689941 
51.875000 924.562988 1106.810059 
51.392502 923.375977 1104.510010 
51.411999 921.195984 1105.420044 
51.875702 917.580994 1105.280029 
52.045799 917.742004 1108.689941 
52.464100 915.992981 1109.300049 
51.937000 919.275024 1109.310059 
51.475300 916.987000 1098.599976 
51.901901 916.606995 1101.420044 
51.959900 917.611023 1103.770020 
50.226799 918.950012 1093.130005 
50.879700 918.093018 1095.550049 
50.820099 918.206970 1095.300049 
50.414398 917.789978 1092.989990 
50.016899 918.388977 1089.619995 
50.060799 917.939026 1089.630005 
49.970200 917.987000 1090.219971 
50.005199 917.588989 1090.569946 
50.050499 917.482971 1091.109985 
50.005600 936.075012 1113.560059 
50.653000 934.906982 1116.109985 
52.451500 938.523987 1136.489990 
52.621799 938.637024 1136.660034 
52.351002 938.435974 1136.319946 
52.915001 938.755981 1136.880005 
53.817799 938.781006 1137.589966 
53.671101 938.658020 1137.550049 
52.453701 937.434021 1132.020020 
52.671299 936.836975 1131.569946 
53.458401 935.825989 1129.680054 
52.098499 937.107971 1133.540039 
51.990002 937.158020 1134.439941 
51.977901 937.414978 1134.890015 
51.956100 937.799988 1135.130005 
52.096699 936.794006 1133.880005 
52.088600 938.068970 1135.689941 
52.240601 938.143005 1136.119995 
52.334099 938.185974 1136.349976 
54.951698 935.421997 1141.739990 
54.612701 935.896973 1140.520020 
54.215599 937.994995 1138.260010 
54.288601 937.338989 1138.670044 
54.233898 936.854004 1138.939941 
54.230900 937.627991 1138.430054 
52.472401 931.515991 1121.050049 
52.498299 931.544006 1120.589966 
52.296001 931.546997 1122.380005 
52.085602 931.614014 1123.780029 
52.808102 930.387024 1120.479980 
52.753899 930.426025 1120.160034 
52.061699 932.005005 1124.300049 
52.056900 931.780029 1124.150024 
52.085899 932.047974 1124.609985 
52.486500 933.148010 1125.469971 
52.196602 932.234985 1125.160034 
52.133999 932.109009 1124.920044 
52.823200 934.132019 1125.930054 
53.557098 935.775024 1129.079956 
54.093601 934.039001 1128.699951 
54.079800 934.025024 1129.000000 
53.727001 935.078979 1128.050049 
54.089600 933.982971 1128.410034 
52.918201 934.281982 1126.160034 
53.078899 934.788025 1126.609985 
53.301601 935.234009 1127.180054 
53.723000 934.843018 1127.819946 
51.194302 932.304016 1116.739990 
51.124100 932.301025 1116.300049 
51.648300 930.943970 1117.520020 
52.022800 929.732971 1118.280029 
51.950401 932.578003 1118.390015 
52.704102 929.697998 1119.560059 
52.256500 931.484009 1119.040039 
52.490200 929.098999 1119.089966 
52.200500 933.568970 1118.890015 
52.698502 930.341003 1119.709961 
52.709000 930.494995 1119.869995 
56.333698 936.572998 1150.780029 
55.321201 934.757996 1151.180054 
55.133900 934.403015 1152.170044 
55.002701 933.937012 1152.329956 
54.939701 934.005005 1154.319946 
54.821800 935.109985 1156.209961 
54.253502 937.351013 1158.550049 
54.235699 936.992981 1158.900024 
54.014599 937.515015 1160.780029 
54.286301 936.604980 1159.229980 
53.935398 938.767029 1162.119995 
54.214401 938.268005 1163.530029 
54.136501 938.340027 1165.800049 
54.039200 938.494019 1167.569946 
54.033401 938.802002 1168.469971 
54.084499 938.973999 1169.140015 
54.359200 939.315979 1170.319946 
54.771099 939.288025 1171.609985 
54.672798 939.328979 1171.109985 
55.097301 937.968994 1172.319946 
55.168201 936.804016 1174.729980 
55.103001 935.908020 1177.859985 
55.466099 933.812012 1179.359985 
55.696098 933.992981 1180.859985 
55.634800 933.674011 1180.810059 
55.765999 934.523010 1180.739990 
55.686901 932.155029 1181.890015 
55.729000 932.562012 1182.239990 
55.975201 935.070007 1180.819946 
55.931198 934.427002 1181.130005 
57.199501 936.765991 1180.729980 
56.837799 936.039001 1180.939941 
56.354500 935.265991 1181.099976 
56.557800 934.937988 1181.650024 
57.468102 935.302002 1182.920044 
56.541698 934.594971 1182.109985 
57.913399 934.710022 1187.109985 
57.271099 933.752014 1186.660034 
57.098000 933.349976 1186.969971 
56.549500 932.239990 1188.880005 
56.949299 932.906006 1187.160034 
56.830601 932.460999 1187.630005 
55.081501 930.695984 1192.489990 
53.735199 928.614990 1195.699951 
53.569199 928.552979 1197.369995 
53.547901 928.122986 1196.780029 
53.529800 928.093018 1197.920044 
58.990398 925.760986 1207.790039 
58.297699 927.750977 1205.420044 
58.449699 927.341980 1205.390015 
58.625301 926.674988 1205.219971 
58.798599 926.443970 1205.650024 
58.968899 925.620972 1204.729980 
58.727901 926.445984 1205.250000 
58.786201 926.731018 1206.030029 
58.888699 926.203003 1205.930054 
59.089500 925.362000 1205.500000 
62.438999 932.239014 1218.170044 
61.235802 925.956970 1214.670044 
60.210400 924.541992 1212.270020 
60.667301 925.396973 1213.719971 
62.147800 926.447021 1216.069946 
62.568401 926.018982 1216.630005 
62.213902 929.731018 1217.589966 
62.189899 930.192993 1217.750000 
62.579899 928.645020 1217.739990 
62.954201 927.072021 1217.770020 
62.929798 926.091003 1217.400024 
62.254398 930.872009 1217.900024 
59.467400 920.163025 1209.630005 
59.383499 920.109009 1209.329956 
59.726601 921.689026 1210.390015 
59.604401 920.164978 1209.939941 
59.822800 922.789001 1210.689941 
59.301899 921.411987 1208.680054 
59.379799 919.078979 1208.819946 
54.684601 932.838989 1202.780029 
54.387600 930.969971 1202.219971 
56.425900 937.231018 1205.969971 
56.522999 937.960999 1206.319946 
56.945801 936.012024 1206.569946 
57.301300 935.741028 1207.329956 
55.287102 934.830017 1203.760010 
55.484600 935.961975 1204.420044 
54.782799 932.893982 1202.949951 
56.002300 937.033020 1205.439941 
55.611599 936.666992 1204.930054 
57.630600 935.716003 1207.839966 
57.534302 935.437988 1207.640015 
57.283298 933.231018 1206.849976 
57.394798 933.101013 1207.020020 
54.053600 928.995972 1200.449951 
53.666000 927.427979 1198.719971 
53.564999 927.721008 1198.300049 
57.803699 935.387024 1207.979980 
58.503700 933.747009 1208.010010 
57.954601 933.724976 1207.630005 
57.747002 932.890015 1207.349976 
58.495800 932.908997 1207.890015 
58.801300 931.745972 1208.030029 
58.662701 931.280029 1207.780029 
58.554199 930.828979 1207.449951 
57.771301 929.982971 1206.189941 
59.084499 933.692017 1208.380005 
62.372700 931.012024 1218.300049 
62.464199 930.963013 1218.780029 
62.625999 931.237976 1220.560059 
62.723801 930.286987 1223.030029 
62.905499 929.218994 1225.739990 
63.375999 930.325989 1226.359985 
64.336998 932.054993 1227.619995 
65.670998 935.552979 1235.449951 
65.532799 936.132996 1236.819946 
69.704803 914.443970 1262.869995 
69.148697 914.190979 1264.339966 
69.424797 914.213013 1263.890015 
70.060501 914.375000 1262.859985 
69.147102 914.168030 1264.520020 
68.728302 914.323975 1265.160034 
68.921204 914.440979 1265.459961 
68.766602 914.260986 1264.949951 
68.949600 914.197998 1264.760010 
68.981598 914.645020 1265.790039 
70.279297 916.651001 1268.290039 
69.856201 915.684998 1267.160034 
70.734901 916.687988 1268.260010 
70.975800 917.137024 1268.979980 
69.381599 914.789001 1266.140015 
69.152199 914.518005 1265.640015 
65.224899 933.419006 1237.219971 
65.251801 934.320984 1236.859985 
64.609802 929.008972 1237.630005 
64.394501 927.341003 1239.099976 
64.196701 926.028992 1238.949951 
64.216599 925.380005 1239.089966 
64.175102 925.758972 1238.880005 
64.143097 925.539978 1238.599976 
64.613098 925.322021 1241.079956 
65.224998 925.408997 1243.239990 
65.596603 925.060974 1243.969971 
65.844398 924.929016 1244.459961 
67.059097 926.651978 1246.979980 
66.824898 926.073975 1246.439941 
66.489304 924.929016 1245.319946 
66.048302 924.216003 1244.290039 
66.271103 924.088989 1244.510010 
67.681099 926.572021 1247.439941 
67.393097 925.789001 1246.729980 
67.139000 925.934998 1246.630005 
68.385696 926.109009 1247.439941 
51.411499 930.190979 1115.069946 
52.060699 924.453979 1110.910034 
52.632500 925.431030 1114.770020 
52.530998 924.922974 1113.760010 
51.979900 924.229004 1109.010010 
52.022598 923.416992 1108.819946 
51.516899 923.070984 1105.000000 
51.695499 922.513977 1106.380005 
52.001400 921.080017 1109.469971 
52.072399 916.916016 1105.380005 
52.776299 914.831970 1109.459961 
52.104301 918.590027 1110.719971 
52.548698 916.150024 1110.510010 
53.491299 913.690002 1114.790039 
53.349701 914.250977 1114.229980 
52.230000 921.198975 1111.689941 
51.234901 917.518005 1096.579956 
50.996601 917.783020 1095.479980 
51.695801 916.418030 1099.020020 
52.135601 915.479980 1100.680054 
52.019100 915.585999 1100.290039 
52.207500 915.956970 1101.630005 
52.080399 917.159973 1103.250000 
52.334801 916.807983 1103.939941 
50.090000 917.551025 1091.400024 
50.552601 917.440979 1093.150024 
50.154999 917.161011 1091.319946 
50.157299 917.495972 1089.680054 
50.053001 917.447021 1090.290039 
50.105701 917.130981 1090.810059 
52.557701 938.393005 1136.680054 
52.422901 938.286011 1136.489990 
52.877201 938.552002 1136.930054 
53.520199 938.487976 1137.500000 
53.099300 935.312012 1131.579956 
52.248699 936.598022 1133.290039 
54.073502 933.846985 1129.290039 
53.799099 933.505981 1130.839966 
52.537498 935.513000 1134.319946 
52.047699 936.909973 1134.630005 
52.052299 937.135986 1134.969971 
52.057598 937.396973 1135.250000 
52.072300 937.804993 1135.500000 
52.691700 935.130005 1133.739990 
52.790600 935.086975 1133.099976 
52.208801 937.973022 1135.969971 
52.333302 938.010010 1136.219971 
52.417999 938.038025 1136.410034 
52.502102 938.120972 1136.530029 
55.003300 934.880005 1142.900024 
55.038300 934.328003 1144.300049 
55.094501 934.137024 1146.369995 
54.724400 935.013000 1141.729980 
54.298401 935.681030 1140.170044 
54.036400 937.940979 1138.069946 
54.105598 937.395996 1138.310059 
54.104900 937.064026 1138.479980 
54.054600 937.617981 1138.150024 
52.807800 930.286011 1121.380005 
52.382000 931.145996 1122.400024 
52.802601 930.432983 1120.849976 
52.136902 931.385010 1123.589966 
52.070599 931.492004 1124.229980 
52.096600 931.448975 1123.910034 
53.210201 928.708008 1121.329956 
53.335300 928.036011 1121.050049 
53.320599 928.007019 1120.640015 
53.170399 928.588989 1120.380005 
52.068901 931.870972 1124.459961 
52.081001 931.593994 1124.489990 
52.127399 931.945984 1124.890015 
52.534000 933.049988 1125.670044 
52.275902 932.198975 1125.410034 
52.199100 932.044006 1125.209961 
52.854801 933.861023 1126.130005 
54.170200 933.440002 1128.780029 
54.160198 933.398010 1128.449951 
54.161701 933.296021 1129.199951 
54.073399 933.908997 1128.130005 
54.132198 933.231018 1128.130005 
52.983101 934.096985 1126.310059 
53.176800 934.630005 1126.760010 
53.653900 934.692993 1127.569946 
53.578602 934.437012 1127.290039 
53.967701 933.752014 1127.689941 
54.067200 933.549988 1127.890015 
51.567402 930.867004 1117.130005 
51.502102 930.749023 1116.680054 
51.948101 929.765015 1117.989990 
51.875999 929.705017 1117.609985 
52.021198 929.064026 1118.180054 
52.074699 928.721008 1118.180054 
52.691898 927.797974 1119.189941 
53.066002 927.192993 1119.619995 
56.187698 936.132996 1149.569946 
54.897499 933.617004 1147.270020 
54.770901 933.218994 1147.219971 
54.671501 932.877014 1146.819946 
54.774300 932.887024 1149.920044 
54.901699 933.304993 1153.310059 
54.793701 934.114990 1156.109985 
54.794102 933.854004 1156.349976 
54.212700 937.432983 1161.979980 
54.459400 935.817993 1159.560059 
54.345402 936.025024 1161.050049 
54.338699 936.127014 1161.489990 
54.800301 934.627991 1157.900024 
54.369499 937.450012 1165.670044 
54.600800 936.713013 1163.599976 
54.116100 938.424011 1168.290039 
54.864799 936.026978 1168.280029 
54.099201 938.637024 1168.800049 
54.403999 939.132019 1170.199951 
54.961498 938.609009 1171.609985 
54.974201 938.060974 1171.040039 
54.811298 939.236023 1171.810059 
55.439602 935.534973 1170.770020 
55.642399 934.297974 1174.560059 
55.615601 934.450012 1170.910034 
55.741600 932.768005 1178.310059 
55.686699 931.833008 1181.329956 
55.968201 930.476013 1180.229980 
55.818901 933.914978 1181.229980 
55.844200 932.927979 1182.699951 
55.865398 933.414978 1181.930054 
55.817902 932.463013 1183.180054 
55.820900 931.559021 1183.790039 
55.873001 930.775024 1184.030029 
55.970402 929.549988 1183.540039 
55.840199 930.453003 1183.680054 
55.988499 928.867004 1182.760010 
55.890598 931.466980 1184.260010 
55.936600 931.991028 1184.449951 
56.174599 934.578979 1181.400024 
56.197899 934.265991 1181.760010 
55.981602 933.901001 1181.660034 
58.351398 935.780029 1184.540039 
56.840500 933.909973 1184.689941 
56.520302 933.612976 1184.250000 
58.029900 934.942017 1186.020020 
57.053101 933.434998 1186.420044 
56.993301 933.177979 1186.550049 
56.952301 932.984985 1186.810059 
56.754799 932.000977 1188.020020 
56.453701 931.786011 1189.140015 
56.847301 932.466003 1186.979980 
56.850800 932.455994 1186.750000 
56.872200 931.924011 1187.280029 
55.169498 930.304993 1192.219971 
53.931301 928.570984 1195.079956 
53.649899 927.966003 1196.160034 
53.568401 927.427979 1196.859985 
53.514000 927.656982 1197.510010 
59.277802 923.948975 1205.530029 
59.236500 921.668030 1207.900024 
58.158298 927.640015 1205.170044 
58.343399 927.000977 1205.000000 
58.428001 926.729004 1204.869995 
58.535198 926.575989 1204.930054 
58.924301 925.632996 1204.530029 
58.844299 925.752014 1204.390015 
59.042099 925.486023 1204.910034 
59.100498 924.830017 1203.760010 
59.165199 924.809998 1204.030029 
59.103500 925.341980 1205.140015 
59.200699 924.846008 1204.400024 
59.384399 923.523987 1204.150024 
61.527100 925.729980 1214.959961 
60.849400 925.286987 1213.930054 
60.308102 924.825012 1212.650024 
59.910099 923.309021 1211.030029 
62.352299 925.669983 1215.819946 
62.714600 925.327026 1216.229980 
63.056301 925.736023 1217.449951 
62.675900 928.723999 1218.040039 
62.294399 929.820984 1217.869995 
62.285599 930.276001 1218.060059 
63.074600 927.023987 1218.030029 
63.157902 926.078979 1217.910034 
59.589199 919.346985 1209.589966 
59.486401 918.840027 1209.079956 
59.829399 921.659973 1210.540039 
59.739799 919.965027 1210.130005 
59.668598 919.265991 1209.719971 
59.969898 922.617004 1210.859985 
59.303299 919.442017 1208.449951 
59.457600 918.276001 1208.640015 
59.409500 918.374023 1208.469971 
54.460400 930.926025 1202.359985 
54.183300 928.416016 1200.459961 
56.598499 937.481018 1206.270020 
56.518700 935.664001 1205.589966 
56.667198 935.718994 1205.869995 
56.938900 933.057983 1205.910034 
56.579201 933.862000 1205.209961 
57.170200 933.448975 1206.650024 
55.444199 934.732971 1203.949951 
55.620701 935.857971 1204.609985 
54.903801 932.697998 1203.079956 
54.506500 931.166992 1202.500000 
55.701199 936.499023 1205.000000 
56.040798 935.632019 1205.020020 
57.543701 932.890991 1207.180054 
57.048302 931.171997 1205.839966 
57.355598 931.992004 1206.750000 
57.496498 931.924988 1206.949951 
53.858200 927.070007 1199.119995 
53.645500 927.057983 1198.290039 
53.787800 926.794983 1198.729980 
53.579498 927.237976 1197.790039 
58.227501 931.864990 1207.579956 
57.733200 931.825012 1207.199951 
58.168701 931.469971 1207.390015 
58.051899 931.112000 1207.109985 
57.621700 931.578003 1207.010010 
57.272999 930.541016 1205.959961 
57.730099 928.190002 1205.099976 
57.097500 928.799011 1204.839966 
62.368900 930.335022 1218.489990 
62.498501 930.221008 1220.420044 
62.566399 930.331970 1221.329956 
62.638500 928.367981 1225.060059 
63.387600 929.127991 1229.569946 
63.730598 930.573975 1229.839966 
64.712799 932.921021 1232.989990 
65.156799 933.919006 1233.000000 
65.389900 934.400024 1235.010010 
65.179604 933.578979 1235.869995 
69.544502 914.177002 1264.170044 
70.151703 914.241028 1263.410034 
69.274002 914.166016 1264.589966 
69.659203 914.166992 1264.329956 
68.937401 914.317993 1265.209961 
68.960602 914.232971 1264.959961 
69.257301 914.185974 1264.739990 
70.137802 915.728027 1267.160034 
69.656898 914.833984 1266.180054 
70.568100 915.760010 1267.079956 
69.514000 914.549011 1265.719971 
69.127701 914.336975 1265.280029 
64.717598 931.344971 1235.219971 
64.285103 927.737000 1235.640015 
64.191101 926.534973 1237.229980 
64.154701 926.065979 1237.219971 
64.246498 925.219971 1239.099976 
64.151604 925.275024 1238.530029 
64.149399 925.815002 1237.199951 
64.636497 925.125000 1241.099976 
65.160698 924.885010 1242.660034 
65.765099 924.461975 1244.030029 
66.791702 925.370972 1246.010010 
66.535004 924.421997 1244.989990 
65.957802 924.120972 1244.020020 
66.183800 923.896973 1244.229980 
66.418602 923.802002 1244.410034 
66.518700 923.916016 1244.599976 
67.652000 925.698975 1246.819946 
66.820099 924.799011 1245.579956 
66.944702 924.565002 1245.500000 
67.853600 925.440002 1246.719971 
51.862301 929.039001 1116.979980 
52.042198 927.791016 1115.869995 
52.137299 923.442017 1111.000000 
52.479301 923.763000 1112.780029 
52.767700 923.906982 1113.930054 
52.029999 924.012024 1110.420044 
52.776901 925.125977 1116.239990 
53.108398 923.989990 1115.680054 
53.187500 923.307007 1115.439941 
52.329498 916.193970 1105.569946 
52.868099 914.487976 1109.010010 
53.653702 913.211975 1115.069946 
52.638802 917.008972 1111.489990 
52.699799 919.085022 1112.819946 
52.231800 919.601990 1111.650024 
53.072601 916.375000 1112.579956 
53.696499 913.663025 1117.130005 
53.881001 913.062012 1117.500000 
53.985901 913.958008 1119.050049 
53.255001 915.716003 1113.770020 
53.619598 916.096985 1117.989990 
53.830700 914.687988 1118.739990 
52.430599 921.786011 1112.709961 
52.753502 922.283020 1113.750000 
51.354099 917.255981 1096.150024 
51.117599 917.510986 1095.469971 
51.788101 916.237976 1098.739990 
50.681198 917.146973 1093.209961 
52.350700 915.056030 1100.790039 
52.462399 915.036011 1101.300049 
52.164200 915.299011 1100.349976 
52.519901 915.575012 1102.089966 
52.560299 916.187988 1102.930054 
52.709801 916.107971 1103.359985 
52.754902 916.085999 1103.729980 
52.535599 915.783997 1105.520020 
52.923100 915.726013 1104.140015 
50.242001 916.929993 1091.420044 
50.230701 916.814026 1091.000000 
50.181599 917.033997 1090.369995 
52.807800 938.320007 1136.959961 
52.649502 938.228027 1136.750000 
53.385601 938.231018 1137.439941 
53.391800 933.393005 1132.790039 
53.947701 932.825989 1130.630005 
53.665600 932.153015 1132.670044 
52.460701 935.807983 1134.670044 
53.551399 932.510986 1134.869995 
52.405499 936.062988 1134.939941 
52.375401 936.411011 1135.239990 
52.147202 937.510010 1135.560059 
52.417702 936.609985 1135.540039 
53.441601 932.864014 1133.400024 
52.253201 937.742981 1135.959961 
52.388000 937.807007 1136.260010 
52.513699 937.854980 1136.489990 
52.634800 937.900024 1136.689941 
52.749802 938.017029 1136.859985 
54.790001 934.500977 1142.839966 
54.823601 933.799988 1144.439941 
54.543499 934.426025 1141.920044 
53.991100 936.515991 1138.640015 
54.199299 935.294983 1140.130005 
53.864101 937.806030 1137.869995 
53.891201 936.960999 1138.109985 
53.903000 937.318970 1137.969971 
53.887798 936.617981 1138.260010 
53.846600 937.560974 1137.829956 
52.611801 930.325989 1122.719971 
52.976601 929.177979 1122.589966 
53.099499 928.551025 1122.630005 
52.185200 931.168030 1123.630005 
52.138401 931.249023 1124.000000 
52.138599 931.254028 1124.329956 
52.148201 931.318970 1124.609985 
53.272999 927.252991 1122.520020 
53.380100 926.877991 1120.719971 
53.378201 925.775024 1122.250000 
53.141800 926.135010 1119.550049 
53.198898 925.528015 1119.680054 
52.116001 931.697998 1124.750000 
52.157101 931.443970 1124.859985 
52.164101 931.718994 1125.060059 
52.623798 933.023010 1125.869995 
52.364899 932.202026 1125.619995 
52.278999 931.997009 1125.439941 
52.213200 931.859009 1125.280029 
52.995399 933.806030 1126.270020 
54.212101 932.716980 1128.540039 
54.224800 932.715027 1128.949951 
54.167599 932.919006 1128.260010 
54.017200 932.255981 1130.479980 
54.114399 932.814026 1127.969971 
54.198002 932.395996 1128.319946 
53.094200 934.132996 1126.489990 
53.492100 934.072998 1127.010010 
53.886398 933.612976 1127.449951 
54.012299 933.156006 1127.670044 
54.074299 933.031006 1127.819946 
51.810902 929.655029 1117.170044 
51.973900 928.812988 1117.829956 
52.567799 927.495972 1118.689941 
52.066299 928.515015 1117.920044 
52.413200 927.466980 1118.140015 
52.697300 926.038025 1118.170044 
54.653400 933.640015 1143.800049 
54.593498 932.497009 1146.010010 
54.531502 933.491028 1143.089966 
54.723202 932.268982 1149.410034 
54.938499 932.502991 1152.630005 
54.851799 933.499023 1157.069946 
54.950298 932.418030 1154.599976 
54.561501 936.107971 1162.579956 
54.835098 934.697998 1158.780029 
54.630699 935.296997 1160.170044 
54.460400 935.708984 1161.380005 
54.378399 935.965027 1161.459961 
55.244999 932.799988 1158.680054 
54.902599 934.249023 1158.229980 
55.234200 933.718018 1159.560059 
54.925098 935.885986 1166.239990 
54.943699 935.927979 1164.119995 
54.844200 935.382996 1162.709961 
54.814800 936.505005 1169.030029 
55.366100 934.749023 1166.140015 
55.464600 934.320984 1167.660034 
55.364799 935.737000 1170.510010 
54.671501 938.008972 1169.989990 
55.138699 937.439026 1171.239990 
55.621201 933.513000 1167.939941 
55.708900 933.981995 1173.770020 
55.961300 931.666016 1176.910034 
55.593300 933.242004 1169.719971 
55.609402 931.982971 1171.390015 
55.654900 932.794983 1172.729980 
56.254002 928.940979 1178.750000 
56.289001 926.463013 1181.349976 
55.927700 932.812988 1183.400024 
56.018501 932.593018 1184.380005 
55.996201 932.288025 1184.589966 
56.002701 933.062012 1183.369995 
55.958599 930.825012 1184.550049 
55.960999 930.189026 1184.349976 
56.062801 929.364990 1183.959961 
56.258301 928.359009 1183.900024 
56.347099 926.968018 1183.949951 
56.376598 925.974976 1183.729980 
56.525002 924.419006 1183.569946 
55.970901 931.697998 1184.680054 
56.419701 932.309998 1185.729980 
56.096600 933.744995 1182.260010 
56.132702 933.229980 1183.650024 
56.560501 933.132996 1185.390015 
56.559299 932.914001 1185.640015 
56.884602 932.908997 1186.520020 
56.863098 932.724976 1186.709961 
56.877602 931.619019 1187.670044 
56.733299 931.622009 1188.260010 
56.713402 931.281982 1188.479980 
56.366199 931.273987 1189.469971 
56.844002 931.960999 1186.849976 
56.796299 932.620972 1186.500000 
56.761501 932.280029 1186.550049 
56.941101 931.541016 1187.150024 
55.172501 929.708008 1192.260010 
54.091499 928.283020 1194.750000 
53.774101 927.734985 1195.810059 
53.704399 927.177979 1196.520020 
53.636902 926.960999 1197.170044 
59.285599 921.966980 1206.640015 
59.502899 922.247986 1204.250000 
59.521801 921.981018 1204.640015 
58.148499 926.968994 1204.739990 
58.312099 926.861023 1204.829956 
58.345299 926.508972 1204.569946 
58.735500 925.685974 1204.099976 
58.996101 924.987976 1203.640015 
59.029598 924.825012 1203.550049 
58.879501 924.919983 1203.329956 
