244.182999 666.862000 1016.020020
244.335999 666.099976 1013.979980
244.380005 665.466003 1010.320007
244.167999 665.356995 1008.119995
243.949997 666.965027 1015.520020
243.479004 665.281006 1006.330017
243.526001 664.440002 998.260010
244.612000 663.716980 995.721985
242.973007 665.140991 1004.919983
242.947006 665.026001 1004.340027
243.072006 664.890015 1002.520020
243.171005 664.698975 998.513000
246.792999 662.806030 993.318970
248.830994 662.869995 989.210999
245.264008 666.716003 1017.559998
244.886002 666.708008 1017.109985
246.520996 664.468018 986.682983
245.807999 664.710022 988.187012
248.382004 663.773010 984.494995
246.901001 663.770996 983.242004
246.087997 663.486023 981.507019
246.666000 663.258972 979.918030
245.087006 663.841980 982.049011
239.309006 673.109009 1031.609985
239.557007 671.288025 1025.130005
239.322998 672.244019 1028.680054
239.473007 671.476013 1025.089966
239.494995 671.427002 1025.380005
239.251007 672.783997 1030.640015
239.264999 673.070007 1031.140015
239.298004 672.387024 1028.800049
239.817993 670.677002 1022.030029
241.259995 669.507019 1018.669983
242.998001 668.043030 1015.159973
243.854004 666.836975 1014.429993
244.276001 665.578979 1010.219971
244.046997 665.466980 1008.099976
243.378998 665.400024 1006.409973
243.511002 664.370972 996.375977
244.281006 663.992981 995.080017
245.626007 663.377991 993.768005
242.854996 665.262024 1005.030029
242.794006 665.140015 1004.400024
242.940002 665.041016 1002.640015
242.940002 664.906982 998.664001
243.076004 664.700012 996.640991
247.255997 663.357971 990.463989
246.317993 664.418030 988.809998
244.369003 665.206970 988.318970
244.703995 664.994995 987.356018
245.164001 664.893982 989.676025
244.666000 665.205994 989.383972
244.737000 664.598999 985.366028
244.281006 664.375000 983.961975
245.513000 663.593994 980.728027
243.654007 664.500977 983.512024
243.289001 664.755981 984.888000
242.550995 670.406982 1010.630005
239.266006 672.682007 1028.760010
239.225006 672.935974 1030.540039
239.669006 670.890991 1022.460022
239.440994 671.601013 1025.109985
239.641006 670.966980 1022.369995
239.283997 672.500000 1028.760010
239.436005 671.700989 1024.930054
239.959000 670.534973 1021.280029
241.197998 669.632996 1018.580017
242.464996 668.682983 1015.239990
244.013000 666.247986 1012.280029
243.455994 667.466003 1013.869995
244.151993 665.552979 1008.750000
243.871994 665.593994 1007.869995
243.294998 665.518982 1006.489990
243.477005 664.520020 995.504028
244.567993 664.479980 992.718994
245.671005 663.960022 991.754028
242.753006 665.419983 1005.200012
242.735992 665.310974 1004.849976
242.677994 665.218994 1004.280029
242.854996 665.091003 1002.489990
242.772995 665.103027 998.906982
242.792999 665.012024 996.538025
243.018005 664.872986 995.911987
245.664993 664.536011 989.934998
243.869995 665.530029 988.966003
243.283997 665.271973 986.979980
243.701004 665.054016 986.573975
244.181000 665.471008 990.031982
244.425995 665.268005 990.388977
243.651001 665.757019 989.572998
244.203003 664.219971 982.133972
242.778000 664.934021 984.752991
243.067001 664.903992 985.294983
241.388000 670.851013 1015.539978
242.757996 669.500000 1011.840027
241.962006 670.156006 1013.570007
239.348999 672.895020 1026.989990
239.393005 671.987976 1025.459961
239.492004 671.815002 1023.969971
239.537994 672.328003 1023.570007
239.854004 670.708984 1021.429993
239.634003 671.054993 1022.270020
239.854996 670.820007 1021.270020
239.600006 671.221008 1022.460022
240.865997 669.947998 1018.940002
242.477005 668.815979 1014.549988
244.080994 666.002014 1011.159973
243.488007 667.500977 1013.219971
243.949997 666.338989 1011.700012
244.112000 665.713989 1008.929993
244.001999 665.659973 1008.380005
243.778000 665.731018 1007.869995
243.229996 665.635010 1006.559998
243.798996 664.940979 993.375977
243.953995 665.528992 991.286011
242.707993 665.554016 1005.320007
242.653000 665.495972 1005.059998
242.604004 665.387024 1004.690002
242.600998 665.284973 1004.090027
242.772003 665.198975 1002.390015
242.606003 665.356018 999.078003
242.529007 665.297974 997.174988
242.091995 666.161987 996.219971
242.274002 666.140015 995.375977
243.074005 665.627014 993.927002
242.998001 665.434998 987.151978
242.485001 666.859985 990.661011
242.891998 666.473999 990.117981
243.287003 666.197998 991.362976
242.804993 665.630981 987.479980
243.332993 664.677979 983.012024
242.613998 665.015991 984.744019
242.651001 665.078003 985.335022
242.906006 664.999023 985.416016
240.563004 671.239990 1018.609985
240.994003 670.156006 1018.049988
240.154999 670.674988 1020.280029
243.445999 668.427002 1011.489990
241.878998 669.645020 1015.210022
239.628006 671.388977 1022.080017
239.858994 671.744019 1020.900024
239.647003 671.940979 1022.059998
240.281006 671.479004 1019.429993
240.516998 670.268005 1019.590027
239.779007 671.036987 1021.400024
239.772003 671.218018 1021.320007
244.069000 665.879028 1009.210022
243.626007 667.338013 1012.619995
243.869995 666.556030 1011.640015
244.018997 665.820984 1008.659973
243.744995 665.840027 1007.919983
243.197998 665.739014 1006.630005
242.604996 666.625000 993.078979
242.117004 667.125000 993.229980
242.695007 665.656006 1005.400024
242.578995 665.581970 1004.969971
242.548004 665.400024 1004.289978
242.667007 665.361023 1002.440002
242.740005 665.383972 1000.750000
242.121994 666.169006 998.275024
241.990997 666.252991 996.932007
241.248001 667.481995 996.372986
241.391006 667.450989 995.492004
240.925003 668.049011 992.479980
241.464005 667.702026 993.478027
241.087006 667.947021 990.312012
241.529007 667.541992 989.617981
242.179993 666.937988 989.460999
242.604996 665.895020 987.781982
243.917999 664.466980 981.856018
242.625000 665.072998 983.947998
242.423996 665.179016 984.872009
242.408997 665.250977 985.455017
237.802994 664.026978 972.041992
238.410004 663.961975 969.538025
240.671997 663.593994 961.956970
243.570007 668.364014 1011.059998
243.723007 668.112000 1010.729980
243.891998 668.570984 1008.510010
243.951996 666.286987 1010.359985
243.975006 666.068970 1009.010010
243.826004 666.788025 1011.520020
243.921997 665.960999 1008.460022
243.675995 665.932007 1007.780029
243.173996 665.827026 1006.650024
240.895004 668.046997 995.156006
242.720001 665.794006 1005.580017
242.557999 665.719971 1005.099976
242.537003 665.500977 1004.669983
242.503006 665.588013 1004.669983
242.511002 665.489990 1004.169983
242.600006 665.505005 1002.570007
242.617996 665.601990 1000.450012
241.910004 666.604004 998.129028
240.630997 668.359009 996.830017
241.289001 667.421997 996.943970
240.509003 668.835999 997.549011
240.856995 668.023010 995.911987
240.496002 668.479004 996.065979
240.029999 668.671997 994.174988
239.348007 669.109009 993.377014
241.352997 667.718994 989.523987
242.082001 666.903992 989.036987
241.983002 666.961975 988.809998
242.334000 665.979004 987.374023
242.981003 665.013000 982.877014
245.671997 664.158997 978.606018
242.378998 665.278992 984.231018
242.233994 665.447998 985.612976
242.246002 665.375977 984.916016
242.166000 665.510986 985.518005
241.087997 664.047974 971.078003
237.389999 664.155029 973.385986
235.973007 664.268005 973.578003
235.854004 664.390015 974.520996
235.300995 664.468994 968.698975
234.216003 664.557983 971.616028
237.917007 664.156006 964.142029
238.229004 664.017029 959.866028
240.507996 663.320007 958.020020
243.845001 667.788025 1010.309998
243.845001 668.721985 1007.400024
243.936996 668.387024 1008.390015
243.927994 666.341003 1009.599976
243.917007 666.223999 1008.700012
243.901001 666.557983 1010.299988
243.847000 666.073975 1008.270020
243.692001 666.039978 1007.849976
243.134003 665.981018 1006.659973
243.147003 665.908020 1006.659973
240.479996 668.471008 995.474976
242.673004 665.932007 1005.549988
242.544998 665.840027 1005.150024
242.498001 665.888977 1004.710022
242.472000 665.601990 1004.219971
242.570007 665.640991 1002.640015
242.597000 665.763000 1000.679993
242.195999 666.268982 999.020020
241.710999 667.268005 998.445984
239.587997 669.291016 995.325012
240.740005 668.648010 998.039978
239.641006 669.117004 994.997986
239.779007 668.909973 994.625000
239.177002 669.283997 994.023010
239.085007 669.356018 993.669983
241.276993 667.854980 989.271973
241.925003 666.966003 988.431030
242.210999 666.068970 987.258972
242.108994 666.202026 987.184021
242.466003 665.377014 983.526001
243.244995 665.041992 982.171997
242.205002 665.491028 984.276978
242.076996 665.632019 985.520020
242.102005 665.544983 984.987976
242.031998 666.270996 986.961975
240.406998 664.232971 972.341980
237.126999 664.346008 974.327026
236.005005 664.502991 975.046997
233.130005 664.796021 972.107971
234.977997 664.581970 975.031006
235.056000 664.755981 975.872009
231.166000 665.065002 965.898010
233.876999 664.784973 963.025024
236.690994 664.203979 956.458984
238.897003 663.635010 956.719971
240.261002 664.458008 973.088013
239.408005 663.044983 953.453003
240.867996 668.705994 998.424988
241.298004 668.697021 999.166992
242.266006 668.846008 1000.609985
242.391998 668.633972 1000.729980
242.505005 668.448975 1000.890015
243.906006 667.473022 1010.010010
243.889008 668.515015 1007.190002
243.966003 668.223022 1008.109985
243.916000 666.450012 1009.059998
243.850006 666.297974 1008.359985
243.908005 666.681030 1009.469971
243.677994 666.153015 1007.849976
243.113998 666.057007 1006.659973
242.639999 666.041992 1005.479980
242.503006 665.994019 1005.020020
242.514008 665.950989 1005.080017
242.451996 665.885010 1004.630005
242.447998 665.768005 1004.309998
242.548996 665.793030 1002.760010
242.580994 665.918030 1000.849976
242.408005 666.117004 999.956970
241.945999 666.987000 998.919983
241.800995 667.578003 999.064026
241.487000 667.999023 998.828979
241.251007 668.030029 988.838989
241.959000 666.343018 986.768005
242.237000 665.651001 983.775024
242.656006 665.484985 982.827026
242.063995 665.669006 984.570984
241.998001 665.742004 985.301025
236.671997 664.586975 975.176025
235.557999 664.809021 976.000000
233.279007 664.890015 973.372986
230.768005 665.187012 969.562012
230.382004 665.195007 965.280029
234.570999 664.857971 975.969971
233.216995 664.997009 974.026001
234.716003 665.013000 976.484985
231.130005 664.987976 961.775024
230.356995 665.098999 961.729004
233.910995 664.655029 959.619019
236.067993 663.742004 953.033020
237.248001 663.284973 950.726013
237.597000 663.687988 953.627014
238.104996 663.072021 950.447998
240.264999 664.755981 973.711975
236.988007 664.831970 975.601990
242.613007 668.330017 1001.099976
241.744995 668.078979 999.429993
242.020004 667.622009 999.692017
242.179993 667.304993 999.883972
243.949005 667.414978 1009.440002
243.921997 668.294006 1007.130005
243.957993 667.460022 1008.739990
243.897995 666.565979 1008.659973
243.798996 666.468994 1008.270020
243.845993 666.432007 1008.409973
243.619995 666.255981 1007.719971
243.095001 666.132996 1006.650024
242.639999 666.130981 1005.500000
242.479996 666.047974 1004.890015
242.494003 666.166992 1004.969971
242.438004 666.018982 1004.570007
242.436996 665.922974 1004.280029
242.539001 665.981018 1002.909973
242.576996 666.085999 1001.070007
242.488998 666.354980 1000.530029
242.237000 666.700989 999.679016
241.992004 667.278015 999.375000
241.906998 666.403015 986.544006
242.442001 665.765991 983.030029
242.095001 665.903015 983.969971
241.985992 665.823975 984.718018
241.906006 665.963013 985.231995
235.679993 665.031982 976.486023
235.022003 665.081970 976.684021
231.003998 665.286987 971.330017
230.063004 665.354004 968.512024
229.932007 665.302002 964.908997
229.927002 665.226013 961.968018
234.223007 664.984009 976.103027
234.330994 665.104980 976.534973
234.011002 665.013977 975.947021
233.539001 665.023987 974.619019
232.026001 665.280029 972.974976
234.384003 665.270996 976.911987
234.718994 665.294006 977.036011
230.391998 664.849976 960.046997
231.011993 664.726990 959.635010
229.867004 664.947021 960.200989
233.270004 664.484985 958.007019
232.809006 663.646973 953.633972
233.597000 662.814026 948.534973
236.662994 662.536987 946.080017
238.119003 662.354980 945.799988
239.240997 665.104980 974.862976
236.212006 665.219971 976.622986
242.697006 668.210999 1001.320007
242.341003 666.971985 1000.210022
243.931000 667.406006 1008.140015
243.899002 668.312988 1006.690002
243.811005 666.656006 1008.210022
243.695007 666.431030 1007.929993
243.076004 666.215027 1006.630005
243.522995 666.405029 1007.500000
242.677994 666.231995 1005.609985
242.552994 666.247009 1005.190002
242.455002 666.099976 1004.739990
242.462006 666.187988 1004.669983
242.501007 666.255005 1004.929993
242.445999 666.101013 1004.299988
242.546997 666.215027 1002.969971
242.591003 666.213013 1001.489990
242.518005 666.849976 1000.750000
242.589996 666.554016 1001.159973
241.869995 666.528992 986.343018
242.251007 666.065979 983.283997
241.975006 666.179993 984.163025
241.908997 666.034973 984.747986
241.828003 666.197998 985.098022
235.182999 665.289978 977.034973
230.815994 665.409973 971.531006
230.307007 665.421997 970.043030
229.341995 665.578003 967.325012
229.621994 665.427002 964.877014
229.645996 665.349976 962.104980
229.761002 665.096008 960.806030
234.042999 665.221985 976.559021
234.149994 665.331970 976.885010
233.475006 665.109985 975.044983
233.888000 665.169006 976.299988
231.945007 665.383972 973.215027
234.479996 665.591003 977.400024
234.246994 665.564026 977.289978
234.858994 665.562988 977.414001
228.822998 664.487000 957.427979
229.089005 664.310974 956.955017
230.593994 663.892029 955.617004
229.501007 663.943970 955.651978
229.429993 665.041992 959.973999
228.613007 664.711975 957.984009
230.207001 662.794983 949.729980
228.936005 661.812988 943.937988
233.662994 661.958984 943.010986
235.951996 661.593018 940.133972
239.591995 665.549011 975.257996
236.578995 665.453003 976.807983
235.393005 665.421021 977.166992
242.897995 668.208984 1002.090027
243.729004 668.585999 1005.929993
242.789001 668.159973 1001.640015
243.901001 668.125000 1006.679993
243.904007 667.408997 1007.840027
243.701004 666.614990 1007.809998
243.070999 666.322998 1006.570007
243.561005 666.598022 1007.419983
242.656006 666.369995 1005.489990
242.570999 666.330994 1005.219971
242.477005 666.320007 1004.359985
242.496002 666.331970 1004.760010
242.580994 666.482971 1002.960022
242.621994 666.447021 1001.729980
242.641006 666.890991 1001.359985
241.841003 666.690979 986.150024
242.080994 666.333984 983.643005
241.863998 666.336975 984.606995
241.802994 666.437988 984.940002
230.662994 665.484009 971.471008
229.817001 665.578979 969.392029
229.069000 665.716003 967.202026
229.199997 665.646973 964.801025
229.410004 665.538025 964.695984
229.457001 665.424011 962.086975
229.533005 665.187012 960.844971
233.945007 665.421021 976.895996
233.820999 665.344971 976.646973
233.983994 665.697998 977.213989
233.406998 665.197998 975.296021
233.774994 665.255981 976.395996
231.740005 665.489990 973.185974
234.266006 665.913025 977.700012
234.615005 665.853027 977.708008
234.074005 665.864990 977.578979
235.065994 665.744019 977.622009
227.884995 663.807983 954.164978
228.503006 663.578003 953.635010
229.395004 662.929993 950.387024
229.134003 665.161987 959.903015
228.212997 664.901001 958.039001
227.492004 664.250000 955.231995
229.074997 662.502991 947.301025
227.630997 661.791992 944.049011
229.315994 661.223999 939.419006
225.869003 660.836975 938.568970
232.761993 661.070007 935.685974
237.425003 661.177002 938.379028
234.447998 660.960022 934.870972
240.052002 666.346985 975.840027
236.854996 665.820984 977.132996
235.705002 665.695007 977.413025
243.082993 668.411987 1003.150024
243.709000 668.528015 1005.799988
243.660995 668.395996 1005.780029
243.845993 667.409973 1007.409973
243.768005 667.343018 1007.109985
243.087006 666.434021 1006.489990
243.550003 666.671021 1007.219971
242.669998 666.497986 1005.469971
242.595993 666.505981 1005.179993
242.537003 666.424011 1004.960022
242.520996 666.528015 1004.510010
242.641006 666.767029 1003.059998
242.695007 666.854980 1001.940002
241.817993 666.903015 985.864014
230.763000 665.611023 972.120972
230.421005 665.586975 971.356995
229.550003 665.684021 969.150024
228.977997 665.804993 967.432983
229.059006 665.737976 964.818970
229.309998 665.573975 962.234009
229.347000 665.375977 961.234009
229.296997 665.216980 960.510986
233.703003 665.684998 977.020020
233.658997 665.500977 976.786011
233.664993 665.343018 976.474976
233.830002 665.755005 977.307983
233.287003 665.267029 975.323975
232.654007 665.390015 974.203979
231.770004 665.616028 973.432007
234.257004 666.025024 977.804993
234.565002 666.017029 977.867981
234.921005 665.969971 977.862000
234.102997 666.210022 977.731018
234.121002 665.968994 977.706970
233.932999 665.937988 977.588013
235.391006 666.015015 977.838013
227.529999 663.825989 953.674011
228.404007 663.135010 950.515991
228.824997 663.023987 950.486023
228.904007 662.674011 947.976013
228.938004 665.270996 959.853027
228.947998 665.125977 959.526978
227.927002 665.093018 958.164001
227.046005 664.851990 956.382996
227.186005 664.281982 954.713989
226.731995 661.780029 943.924988
227.613998 662.317017 946.090027
225.376999 661.091003 940.244019
228.578003 660.448975 933.947998
224.434998 660.124023 934.013000
225.300003 659.877991 932.158997
232.500000 660.219971 929.601990
238.492996 660.474976 936.814026
235.779999 660.895996 935.598999
237.847000 660.265015 935.812988
234.354996 660.377014 930.997009
233.229996 659.716980 926.583984
239.147995 666.859009 976.851013
238.524994 667.129028 977.382019
236.884003 666.164001 977.458008
236.091003 665.973999 977.585999
242.988007 668.049988 1003.049988
243.679993 668.309021 1005.830017
243.401001 668.598999 1004.969971
243.757004 667.572998 1006.770020
243.628998 668.140015 1005.869995
243.119995 666.580994 1006.409973
243.643005 667.343994 1006.619995
242.725998 666.695984 1005.460022
242.673004 666.784973 1005.099976
242.589996 666.690002 1004.729980
242.699005 667.073975 1003.380005
242.841003 667.525024 1004.049988
230.735001 665.786011 972.427002
230.354004 665.684998 971.554016
229.710007 665.752991 970.085022
228.832001 665.903015 967.380005
229.197006 665.817017 968.859009
228.798996 665.854980 966.619995
228.733994 665.924011 966.596008
228.983002 665.820984 964.554993
229.179993 665.737000 962.484985
229.240005 665.614014 961.739990
229.255005 665.502014 961.331970
229.257996 665.359985 960.882996
229.154999 665.323975 960.396973
233.501999 665.734009 976.973022
233.612000 665.840027 977.250000
233.524002 665.481995 976.554993
233.205994 665.414001 975.484009
233.742004 665.935974 977.463989
232.707993 665.452026 974.448975
232.445007 665.530029 974.171997
232.272003 665.588989 973.966980
231.692001 665.770020 973.541016
234.251007 666.153015 977.901001
234.494003 666.127991 977.952026
234.904007 666.142029 978.012024
235.350998 666.210022 978.018982
233.992004 666.020020 977.690002
233.977005 665.864990 977.737000
234.089996 666.153015 977.831970
235.914993 666.182007 977.843994
227.283005 663.888977 953.293030
228.005997 663.307007 950.739990
228.395996 662.898010 948.429016
228.397995 662.765991 947.885986
228.843002 665.405029 959.903015
228.783997 665.226990 959.445007
227.707993 665.189026 958.070007
226.662994 665.208008 956.770020
226.843994 664.773987 955.671997
226.994003 664.104980 953.505005
225.283997 661.508972 942.458984
225.003006 661.159973 940.533997
226.985001 662.244019 945.578979
224.209000 660.419006 935.713013
229.149994 659.815979 928.818970
223.451996 659.974976 932.599976
224.201004 659.659973 930.299011
226.824005 659.492981 927.578003
230.585007 659.361023 924.530029
237.363998 660.174011 934.922974
235.227997 660.317993 931.458984
239.042007 658.947021 931.474976
234.468002 659.723022 927.538025
230.300003 659.007996 921.395996
233.158005 658.817993 921.450989
238.084000 667.328979 977.726013
236.501007 666.343018 977.760986
240.283005 657.934998 927.013977
243.190994 668.304016 1004.479980
243.326996 668.388977 1004.900024
243.587997 668.070007 1005.820007
243.369003 668.166016 1005.390015
243.272995 667.211975 1006.070007
242.992004 667.507019 1005.140015
242.865997 667.426025 1004.690002
230.921997 665.960022 972.864014
230.505005 665.849976 972.132996
230.113998 665.791016 971.382996
228.766998 665.929016 967.606018
228.697998 666.036011 966.934021
229.365997 665.939026 969.668030
228.912003 665.950012 964.370972
228.686996 665.969971 966.317017
229.147003 665.783020 962.580017
229.108002 665.802002 962.127014
229.126007 665.705994 961.354980
229.179993 665.492981 961.004028
229.076004 665.432983 960.456970
233.479996 665.981018 977.213989
233.419006 665.718018 976.726990
233.369003 665.919006 977.000977
233.556000 666.064026 977.403992
233.108002 665.573975 975.609009
233.710007 666.129028 977.599976
232.634003 665.565002 974.434998
232.416000 665.672974 974.221985
231.679993 665.971008 973.713989
234.481995 666.254028 978.036987
234.289001 666.338013 977.981995
234.699005 666.299988 978.120972
234.815994 666.242981 978.091003
235.203995 666.325989 978.132996
235.748001 666.340027 978.020996
233.897995 666.169983 977.755005
234.033005 666.267029 977.880005
236.253998 666.481995 977.958984
227.714996 663.474976 950.883972
228.098999 663.098999 948.780029
228.005997 663.020020 948.106018
227.981995 662.861023 947.658997
228.709000 665.450989 959.604980
228.809998 665.526001 959.974976
228.768005 665.333984 959.570007
228.440002 665.258972 959.028992
227.447006 665.322998 957.965027
226.634995 665.392029 957.119019
226.350006 665.466980 956.820007
226.475006 665.187012 956.216003
226.690002 664.562012 954.429993
226.865997 664.096008 952.909973
227.535004 663.578979 950.702026
224.869003 661.557007 942.387024
224.552994 661.163025 940.163025
223.766006 660.482971 935.888000
226.651993 662.262024 945.408997
222.945999 660.015015 932.258972
223.404999 659.752014 930.203979
225.403000 659.554993 926.937012
228.121002 659.314026 924.156982
236.945999 660.085999 933.932007
238.169998 659.005981 930.927002
237.574005 659.158020 930.844971
235.587997 660.190002 931.398987
235.744995 659.442017 928.221008
236.102005 658.859009 926.210022
235.190994 658.633972 922.505981
229.319000 658.934021 919.953979
231.393005 658.455017 918.435974
234.375000 658.023010 918.054993
237.623001 667.353027 977.914978
238.445999 658.039001 924.276978
240.707001 655.468018 914.494995
242.369003 655.156006 913.601013
230.712006 666.041016 972.638000
230.975998 666.114990 973.111023
230.362000 665.918030 971.984009
230.050003 665.901978 971.450012
228.794006 665.771973 967.893005
228.684006 666.125977 967.228027
228.623993 666.072998 966.463013
229.401993 666.015991 969.838013
228.839996 666.007996 964.377991
229.072998 665.874023 962.445007
229.065994 665.838989 961.395020
229.042999 665.994019 961.981995
229.100006 665.560974 960.896973
228.996994 665.539001 960.437988
233.348007 666.155029 977.210022
233.311005 666.270020 977.278015
233.429001 666.176025 977.346008
233.281006 666.052002 976.937012
233.283005 665.796997 976.629028
233.542007 666.297974 977.594971
233.378006 666.310974 977.398987
233.067001 665.734009 975.741028
232.800003 665.661011 974.716980
233.729996 666.476013 977.737000
232.641006 665.645020 974.466980
232.552994 665.768005 974.416016
232.419006 665.893005 974.348999
232.669006 665.755981 974.546021
231.612000 666.564026 974.008972
234.554993 666.385010 978.127014
234.794006 666.450012 978.197998
234.162994 666.333984 977.973999
234.197006 666.421997 978.026978
234.397003 666.416992 978.093994
234.985992 666.460022 978.213989
235.115997 666.427002 978.200012
235.488007 666.492981 978.169983
236.143005 666.609985 978.062988
233.979004 666.382996 977.931030
227.862000 663.242981 948.479980
227.789001 663.181030 948.070984
227.757996 662.982971 947.638977
226.464996 662.325012 945.380981
228.621002 665.580017 959.612976
228.373993 665.466980 959.166016
228.414993 665.330994 959.080017
228.798004 665.629028 960.067993
227.311005 665.468018 958.005981
226.539993 665.585999 957.385986
226.291000 665.708008 957.252014
226.110001 665.749023 957.068970
226.167999 665.551025 956.585999
226.345001 665.176025 955.815979
226.541000 664.533997 953.614014
227.279007 663.775024 950.931030
227.119995 663.937012 950.789978
227.677994 663.476990 948.968018
224.677002 661.619019 942.434021
224.292007 661.265991 940.476013
223.205002 660.596985 936.382019
223.345993 660.419983 935.440979
222.699997 660.190002 933.335999
222.507996 659.997009 930.638000
222.996994 659.848999 929.898987
225.098007 659.656982 926.346008
228.218002 659.273010 921.885010
236.414993 659.687988 930.893005
237.490997 657.754028 920.080994
229.097000 658.846985 919.064026
229.929001 657.828979 915.710022
231.509995 657.715027 915.747009
233.334000 657.133972 914.622009
237.789001 656.909973 917.455017
235.311996 656.939026 915.510986
237.326996 667.497986 978.065002
240.697998 656.481995 918.869995
237.031006 655.796021 913.296021
238.789993 655.487976 912.635010
230.744003 666.187012 972.818970
230.960999 666.271973 973.237976
230.416000 666.106018 972.257996
230.084000 666.036987 971.700989
228.707001 666.078003 967.747986
228.632996 666.229980 967.231018
229.371994 666.088013 969.784973
228.585999 666.172974 966.568970
228.778000 666.172974 964.362000
228.604996 666.262024 965.898987
228.639999 666.047974 965.921997
229.029007 665.986023 962.453003
229.052994 665.968018 961.382996
229.080002 665.710999 960.963013
229.013000 666.171021 961.989014
229.024994 665.619019 960.554016
233.225006 666.281982 977.158020
233.237000 666.377014 977.213013
233.149994 666.075989 976.635986
233.141998 666.301025 976.953979
233.660995 666.452026 977.765015
233.487000 666.426025 977.541016
233.337997 666.421997 977.325012
232.987000 665.963989 975.804016
232.809998 665.840027 974.882019
233.863998 666.481995 977.898010
232.304001 666.856018 974.950989
232.235001 666.523010 974.565979
232.425995 666.848999 975.174988
232.748993 665.867981 974.697021
231.895996 667.497986 974.976013
231.462997 667.568970 974.583984
231.660995 667.265015 974.479004
230.981995 667.367981 973.892029
231.169998 667.244995 973.995972
231.003998 667.101990 973.754028
231.173004 666.690979 973.669006
234.535004 666.528015 978.174988
234.733994 666.547974 978.218994
234.936996 666.646973 978.271973
235.089005 666.625977 978.291016
234.031998 666.518982 977.981995
234.199997 666.507019 978.049011
234.307999 666.580017 978.101990
235.272003 666.640991 978.294983
235.871994 666.708984 978.187012
227.675995 663.403015 948.403992
227.626999 663.299011 947.968018
227.595993 663.090027 947.627014
226.653000 662.507996 945.879028
224.684006 661.817993 942.828979
228.636002 665.736023 959.831970
228.285004 665.578003 959.158020
228.473999 665.672974 959.495972
228.013000 665.432007 958.687012
228.042007 665.500000 958.780029
228.878998 665.687988 960.307983
227.192993 665.546021 957.960022
226.513000 665.763977 957.651001
226.358002 665.771973 957.465027
226.175995 665.856995 957.317017
226.056000 665.841980 957.085999
226.009995 665.731995 956.724976
226.080002 665.510010 956.120972
226.259995 665.174011 955.393005
226.332993 664.828003 953.924988
226.475006 664.512024 952.854980
226.893997 664.174988 950.921021
227.251007 663.973022 949.052979
227.445999 663.700012 948.827026
224.444000 661.578979 942.080994
224.098999 661.318970 940.528992
222.953995 660.564026 936.179993
222.460007 660.226013 933.177002
222.207993 660.117004 930.466003
222.886002 659.932007 928.986023
222.516006 660.046021 929.244019
224.878998 659.793030 925.810974
227.477005 659.450012 921.909973
228.389999 659.193970 920.039978
228.809006 658.823975 918.413025
229.192993 658.099976 916.172974
230.873001 656.862976 912.643005
233.518997 656.091980 911.713013
236.001999 656.023987 913.473999
237.069000 667.620972 978.164978
235.871002 666.875000 978.260010
237.460999 654.455994 909.179016
236.709000 654.236023 908.252014
238.531998 654.476013 909.145020
240.304001 653.461975 903.745972
239.026993 653.629028 905.903992
230.860992 666.674988 973.307007
230.628006 666.669983 972.950989
229.921997 666.132019 971.432983
230.459000 666.655029 972.656006
228.761002 666.094971 968.012024
228.632996 666.296997 967.411011
228.830994 666.020020 968.203003
228.561996 666.322021 966.771973
229.330002 666.184021 969.666016
228.576004 666.325989 966.161011
228.770004 666.351990 964.067017
228.985001 666.107971 962.495972
229.041000 666.085999 961.434998
229.063995 665.872986 960.994995
229.042999 665.726013 960.643982
229.014008 666.252014 961.653015
228.972000 666.333984 962.195007
233.098007 666.429993 976.981018
233.207001 666.463989 977.164978
233.044006 666.293030 976.658997
233.714996 666.622986 977.830994
233.550003 666.585022 977.645996
233.384003 666.554993 977.411987
233.216995 666.609985 977.267029
232.809998 666.413025 975.924988
232.552002 666.771973 975.413025
233.884995 666.640015 977.932007
231.998993 667.822998 975.489014
232.169006 667.752014 975.689026
232.391006 667.510010 975.887024
232.264999 667.606995 975.697998
231.865997 667.869995 975.333008
231.089005 668.046021 974.802979
231.649002 668.060974 975.348999
231.080002 667.625977 974.257019
230.794998 667.508972 973.784973
230.796005 667.262024 973.622009
230.934006 667.624023 974.067993
234.776001 666.726013 978.255005
234.574997 666.734009 978.213989
234.973999 666.828979 978.317993
235.128006 666.784973 978.341003
235.324997 666.809021 978.344971
234.072998 666.630981 978.020020
234.192001 666.747986 978.086975
234.404999 666.827026 978.181030
227.479996 663.594971 948.330994
227.438004 663.268982 947.543030
227.481003 663.484985 947.911987
227.451004 663.137024 947.466003
226.397003 662.521973 945.630005
224.550003 661.903992 942.810974
224.320007 661.643005 942.091003
228.679993 665.806030 959.971985
228.494995 665.794983 959.604980
228.044006 665.586975 958.843994
228.281998 665.692993 959.244995
227.164993 665.653992 958.072021
227.115997 665.780029 958.143982
228.910995 665.776978 960.411987
226.354004 665.940979 957.682007
226.287003 665.895020 957.533020
226.136993 665.965027 957.379028
225.949997 665.866028 956.846008
226.020996 665.937988 957.117981
225.921997 665.783997 956.478027
225.925003 665.682983 956.119019
226.074997 665.377991 955.374023
226.199997 664.981995 953.768982
226.714996 664.418030 950.924011
227.117996 664.182983 948.848999
227.279999 663.883972 948.593994
227.195999 664.031982 948.403992
223.977997 661.388977 940.601990
222.916000 660.684998 936.703979
222.457001 660.335999 934.870972
222.281998 660.229980 932.458008
222.044998 660.203979 930.552979
222.098999 660.234009 929.523987
224.779007 659.947021 925.182007
222.490005 660.193970 928.460999
223.990997 660.132019 925.934998
227.240997 659.601990 921.508972
228.018005 659.328979 919.810974
228.457001 658.999023 918.533020
228.720001 658.267029 916.221985
229.182999 657.604980 914.507019
230.580994 656.874023 912.263000
234.313995 654.870972 907.880005
234.884995 654.713989 908.090027
235.789001 654.500977 908.354980
236.774002 667.695984 978.236023
235.912994 667.033020 978.286987
237.520004 653.651001 906.393982
236.556000 653.765015 906.419006
240.020996 654.362000 908.156982
238.076996 653.505005 904.982971
230.632996 667.296021 973.395996
230.542999 667.385986 973.179016
230.604996 667.237000 973.250000
230.559006 667.203003 973.098999
230.300003 666.643005 972.344971
229.800003 666.302979 971.117004
230.479004 667.297974 972.966003
228.899994 666.203979 968.440002
228.686996 666.304993 967.723022
228.589996 666.453979 967.073975
228.542999 666.442017 966.528015
228.557007 666.598999 966.000000
228.753006 666.502014 963.997009
229.046005 666.059021 961.135986
229.028000 665.877991 960.697998
229.024994 666.234009 961.184021
228.992004 666.414978 961.745972
228.945007 666.512024 962.258972
228.763000 666.638000 963.742004
232.742996 666.979004 976.484009
233.106995 666.598022 977.114014
232.753006 666.783997 976.294006
233.546005 666.770996 977.681030
233.733002 666.812988 977.830017
233.388000 666.731018 977.489990
233.227005 666.768982 977.328003
232.828003 667.288025 976.742004
232.766998 667.137024 976.588989
233.957001 666.781006 977.976990
231.994995 667.956970 975.638000
231.878006 667.966003 975.460999
232.134995 667.890015 975.806030
232.307999 667.718994 975.929993
232.436005 667.567993 976.039978
231.080994 668.317017 975.129028
230.953995 667.892029 974.471985
230.455002 668.638977 974.956970
230.520996 668.354004 974.669006
230.412994 668.570007 974.838989
231.046005 668.469971 975.294983
231.813995 668.120972 975.580017
230.598999 668.094971 974.380005
230.576996 667.960999 974.075012
230.619003 667.575012 973.544983
230.660995 667.413025 973.557007
234.802002 666.905029 978.291016
234.613007 666.974976 978.257019
235.186996 666.952026 978.375977
235.022995 666.989014 978.366028
235.388000 666.963013 978.364014
234.160995 666.908997 978.099976
234.382996 667.030029 978.205994
227.281998 663.807007 948.137024
227.354996 663.518982 947.612976
227.203995 663.356018 947.293030
226.347000 662.705017 945.760010
227.188004 663.866028 947.802002
226.205994 662.544983 945.452026
224.444000 661.981995 942.804993
224.233002 661.731995 942.176025
223.794006 661.494995 940.661987
223.871002 661.437012 940.617004
228.733994 665.869019 960.119019
228.559006 665.901978 959.771973
228.363998 665.820007 959.440002
228.026001 665.702026 958.882996
227.804993 665.682983 958.614014
228.171997 665.758972 959.148010
227.078995 665.906006 958.181030
226.274002 666.088013 957.695984
226.447006 666.117004 957.867004
228.897003 665.906006 960.427979
226.216003 666.034973 957.570984
226.128998 666.085022 957.468018
225.992004 666.070007 957.215027
225.871002 666.025024 956.919006
225.830002 665.984985 956.650024
225.830002 665.883972 956.346985
225.901993 665.606995 955.479004
226.097000 665.109009 953.497009
226.582001 664.666992 950.705017
226.998001 664.406006 948.830017
227.076996 664.267029 948.432007
227.143005 664.070007 948.046997
222.923996 660.776001 937.030029
222.800003 660.767029 936.859009
222.324997 660.405029 934.833008
222.162994 660.302979 932.849976
222.013000 660.346008 932.396973
221.888000 660.320007 930.164001
221.932007 660.465027 928.947021
222.337997 660.408997 928.059998
226.582001 659.953979 921.502991
224.199997 660.364014 924.885010
227.587997 659.567993 920.056030
227.992996 659.301025 918.968994
228.328003 658.973999 917.945007
228.410004 658.442017 916.268005
228.832001 657.726990 914.479980
230.216003 656.984985 912.174988
233.972000 654.969971 907.669983
235.764008 653.924011 906.192017
236.518005 667.810974 978.283997
235.595001 667.161987 978.367004
236.906998 653.625977 905.320007
239.041000 653.520020 902.239014
230.492004 667.559021 973.338013
230.464005 667.581970 973.091980
230.373001 667.781982 973.236023
230.050995 666.695007 971.706970
230.408005 667.161011 972.674988
229.203995 666.310974 969.314026
230.373001 667.447021 972.541992
230.408997 667.572998 972.817993
228.781006 666.273987 968.064026
228.748993 666.395020 967.953979
228.610001 666.489990 967.312988
228.544006 666.682983 966.599976
228.542007 666.882996 965.911011
228.988007 666.031982 960.789978
229.011002 666.419006 961.270996
228.955994 666.211975 960.783997
228.966003 666.549988 961.968994
228.753006 666.796997 963.684998
232.445999 667.609009 976.140991
233.408005 666.864014 977.547974
233.522003 666.924988 977.651001
233.682007 666.984009 977.783020
233.919006 666.940002 977.953979
233.276993 666.919983 977.405029
232.904007 667.443970 976.856018
232.425995 667.802979 976.187012
232.529999 667.898987 976.356995
232.024994 668.057983 975.778992
231.938995 668.044983 975.635986
232.164993 667.932983 975.883972
232.298996 667.836975 976.026978
230.270004 668.625000 974.797974
230.255005 668.672974 974.854980
230.354996 668.703979 974.981018
230.233994 668.606018 974.721985
230.205002 668.562012 974.588989
230.315002 668.489014 974.630981
231.623993 668.353027 975.653992
231.067993 668.568970 975.403015
230.567001 668.718018 975.185974
231.906998 668.211975 975.763000
230.350006 668.163025 974.057007
230.222000 668.200012 973.885986
234.837997 667.049988 978.341003
234.630997 667.119995 978.294006
235.356003 667.166992 978.393982
235.063995 667.145020 978.388977
234.154999 667.056030 978.098022
234.408997 667.182983 978.195984
227.169006 663.716980 947.447021
227.037003 663.513977 947.156982
225.910004 662.616028 945.159973
225.916000 662.770020 945.278015
227.007996 664.080994 947.554993
227.037994 664.232971 947.825989
224.320999 662.046021 942.718018
224.106003 661.830994 942.193970
224.022995 661.679016 941.708008
223.694000 661.554016 940.481018
222.785004 660.898987 937.155029
222.779007 660.827026 937.000977
228.697006 665.966980 960.077026
228.556000 666.036011 959.799988
228.386993 665.919006 959.531982
228.195999 665.862976 959.258972
228.044006 665.840027 958.989014
227.785995 665.859009 958.711975
227.070007 666.028992 958.258972
226.296997 666.197998 957.742004
226.184006 666.166016 957.585022
226.445007 666.252991 957.914001
228.807007 666.065002 960.307007
228.897003 666.038025 960.520996
226.063004 666.190002 957.442017
225.899002 666.164978 957.127991
225.768997 666.137024 956.786987
225.723007 666.116028 956.518005
225.824005 665.830994 956.028992
225.723999 666.075989 956.312988
225.929001 665.445984 954.083984
226.110992 665.068970 952.755981
226.414001 665.002991 950.614990
226.798996 664.807007 948.546997
226.880997 664.695007 948.268982
227.018997 664.385010 948.081970
222.216003 660.489014 934.781006
221.940002 660.427979 932.588989
221.785995 660.395996 930.307983
221.740005 660.556030 929.388977
221.817993 660.758972 928.465027
222.255997 660.698975 927.541992
223.970001 660.617004 924.671997
226.292007 660.333008 920.908020
227.136002 659.963013 919.659973
227.587997 659.614990 919.254028
227.880005 659.348022 918.473022
228.061005 659.120972 917.843018
228.123001 658.632019 916.262024
228.354004 657.989014 914.705994
228.563004 657.799011 914.081970
230.207993 656.979980 911.674988
233.744995 655.033997 907.484009
235.279007 654.062988 905.853027
236.134995 653.786987 905.237000
236.283997 667.911011 978.304993
237.503006 653.690002 903.145996
231.414993 668.924988 975.784973
230.826004 669.138977 975.510010
232.464996 668.742004 976.388977
232.201004 668.620972 976.179993
230.378006 667.794006 973.393005
230.330002 667.767029 972.903015
230.110992 668.197998 973.385010
230.147003 668.234009 973.700989
230.317993 667.362000 972.172974
229.686996 666.713013 970.671997
230.212006 667.174011 971.914978
229.141998 666.429993 969.146973
230.292007 667.671997 972.383972
229.843994 667.916016 970.747986
229.800995 668.111023 970.840027
230.242004 667.815979 972.531982
228.632004 666.544983 967.520020
228.789001 666.552979 968.020996
228.570999 666.719971 966.934021
228.544006 667.581970 966.187988
228.554001 667.656982 965.552002
229.022003 666.909973 960.877991
229.026001 667.052979 961.263000
228.901993 666.265991 960.533997
228.990997 666.854004 960.703979
228.990997 667.166992 961.695984
228.783997 667.434998 963.377991
233.382996 666.995972 977.539978
233.546005 667.062012 977.700012
233.772003 667.112976 977.831970
233.985001 667.130005 977.969971
232.970993 667.536011 977.002014
232.632004 668.020996 976.521973
232.313995 667.947021 976.086975
232.419006 667.893982 976.205994
232.436996 668.052002 976.268005
232.535004 667.981995 976.388000
232.095001 668.132019 975.914001
232.203003 667.971985 975.952026
230.080994 668.718994 974.684998
230.149994 668.695984 974.762024
230.141998 668.752991 974.815979
230.376999 668.773987 975.078003
230.207001 668.817017 974.939026
230.013000 668.689026 974.513000
230.093994 668.533997 974.359009
231.128998 668.663025 975.530029
231.811996 668.419983 975.812012
230.552002 668.804016 975.254028
229.972000 668.559021 974.143005
229.908005 668.703003 974.309998
234.895004 667.236023 978.351013
234.675003 667.307007 978.252991
235.369995 667.314026 978.393982
235.192001 667.398987 978.359009
234.214005 667.215027 978.083984
234.419006 667.346008 978.135986
226.944000 663.880005 947.193970
226.830994 663.679993 946.913025
225.781006 662.883972 945.171021
224.300995 662.143005 942.768005
226.912994 664.478027 947.692993
226.850998 664.270020 947.286987
226.899994 664.635010 947.921021
223.972000 661.828003 941.948975
223.679993 661.635010 940.594971
222.738007 660.942017 937.083008
228.675003 666.218994 960.002991
228.417007 666.085022 959.575989
228.537003 666.276001 959.734985
228.248001 666.020020 959.353027
228.104004 666.010986 959.120972
227.863007 665.994995 958.838013
227.031006 666.193970 958.294006
227.496002 666.101013 958.562012
226.223999 666.349976 957.744995
226.186996 666.268982 957.653992
226.087997 666.289001 957.551025
226.565002 666.349976 958.065979
226.298996 666.427979 957.864014
228.813995 666.322998 960.291992
225.953995 666.317993 957.364990
225.809006 666.262024 957.036011
225.718002 666.260010 956.770996
225.682999 666.254028 956.570007
225.731003 665.973999 955.711975
225.669998 666.169983 956.062988
225.664993 666.260986 956.403015
225.889008 665.544983 953.638000
226.018005 665.263977 952.655029
226.244003 665.723022 950.078003
226.542007 665.763977 947.981018
226.628006 665.616028 947.551025
222.119003 660.580994 934.731995
221.880005 660.513000 932.505981
221.641006 660.549988 930.258972
221.604004 660.732971 929.437988
221.695007 660.958984 928.419006
222.136993 660.995972 927.254028
224.061996 660.888000 923.956970
223.626999 661.155029 924.306030
226.119995 660.697021 920.403015
227.063995 660.192993 919.088013
227.531998 659.716003 918.828979
227.811005 659.362000 917.802979
227.921997 658.781006 916.190002
228.119995 658.172974 914.757996
228.102005 658.140991 914.289001
228.574997 657.767029 913.763000
230.132004 657.070984 911.307983
233.427002 655.177979 907.145020
233.552002 655.107971 907.299988
235.052002 654.169983 905.443970
236.037994 653.890015 904.505005
235.983994 667.929993 978.304016
230.585007 669.005981 975.361023
231.227005 668.794983 975.655029
230.662003 668.906982 975.380005
231.889999 668.534973 975.935974
232.149002 668.442993 976.096985
232.593002 668.406006 976.478027
232.445007 668.450989 976.346985
232.722000 668.685974 976.556030
232.694000 668.478027 976.554993
232.373001 668.344971 976.258972
232.949005 668.697998 976.716003
229.964996 668.367981 973.081970
229.779999 668.737976 973.875000
229.878006 668.640991 974.088989
230.052002 667.487976 971.414001
229.406006 666.780029 969.796997
229.695007 667.710022 970.062988
229.701996 668.320984 970.827026
229.488007 668.328003 969.690002
228.962006 668.573975 968.169983
229.561996 668.036011 969.656006
229.067993 668.372986 968.221985
229.255005 668.645996 969.054993
228.623993 667.348022 967.122009
228.576996 667.461975 966.682007
228.707993 667.224976 967.538025
228.570999 668.258972 966.541016
228.955002 666.835022 960.507019
229.031998 667.380981 960.551025
233.126999 667.578979 977.176025
233.656998 667.237000 977.741028
233.261993 667.695984 977.265991
233.888000 667.322021 977.846985
234.153000 667.317993 978.004028
232.735001 668.192993 976.629028
232.533005 668.213013 976.401978
232.274994 668.065979 976.080017
232.324997 668.232971 976.179993
232.085999 668.304016 975.979980
232.210007 668.200012 976.062012
229.988998 668.836975 974.676025
230.059998 668.799988 974.744995
230.070007 668.880981 974.817993
230.309006 668.879028 975.091003
230.167007 668.940979 974.976990
229.927002 668.791992 974.541992
230.442001 668.921997 975.232971
229.794998 668.793030 974.174011
229.843994 668.799988 974.312012
229.895004 668.822998 974.473022
235.044998 667.526001 978.289978
234.785004 667.572021 978.185974
235.729004 667.968018 978.260010
234.414993 667.531006 978.052002
226.740997 664.039978 946.890991
226.589996 663.794983 946.562012
225.630005 663.000977 944.991028
224.272003 662.262024 942.731018
224.009995 661.995972 942.148010
226.848999 664.617981 947.390991
226.643997 665.455994 947.104980
226.729004 664.445007 946.943970
223.804001 661.815979 941.505005
223.604996 661.705017 940.426025
222.710007 660.997009 937.030029
228.763000 666.793030 960.033997
228.658005 666.791016 959.833984
228.358994 666.252991 959.469971
228.535995 666.789978 959.635986
228.184998 666.221985 959.242004
227.904999 666.211975 958.931030
227.546997 666.260010 958.638977
227.042999 666.408997 958.356018
226.087006 666.408020 957.638977
226.205994 666.851013 957.859985
225.962006 666.440002 957.502991
226.569000 666.801025 958.138000
226.367996 666.840027 958.028992
228.865997 666.802002 960.254028
225.820999 666.400024 957.179016
225.917999 666.888977 957.479980
225.712006 666.392029 956.918030
225.671997 666.375977 956.668030
225.772995 665.866028 954.375000
225.641006 666.354004 956.379028
225.615997 666.318970 955.799988
225.899994 665.599976 952.810974
225.964005 666.168030 951.119019
226.391998 666.482971 947.257996
222.044998 660.672974 934.622009
222.509995 660.948975 936.372986
221.828995 660.609985 932.437012
221.503998 660.788025 930.193970
221.490005 660.898010 929.591003
221.559006 661.057007 928.765991
221.761993 661.215027 927.807983
222.190002 661.320984 926.713013
223.718994 661.543030 923.640015
225.996994 661.168030 919.880005
226.654999 660.617004 919.262024
227.104004 660.315002 918.671997
227.509995 659.737976 918.343994
227.639999 659.567017 917.583008
227.778000 658.939026 916.148987
227.860992 658.427979 914.802979
227.994995 658.242004 914.205017
228.455002 657.869995 913.497986
230.039001 657.226013 911.015991
233.255997 655.304993 907.002991
234.947998 654.322021 904.908020
237.119995 654.088989 901.914978
229.690002 668.898987 973.612976
230.401001 669.046021 975.247986
230.389999 669.114990 975.241028
232.612000 668.265015 976.505005
232.848007 668.416992 976.711975
233.067993 668.461975 976.872009
233.289993 668.656006 976.956970
229.720001 668.892029 974.018005
229.679001 667.466980 970.075012
229.151001 667.250977 968.640991
229.112000 668.192017 968.239990
229.123993 667.833984 968.257019
229.139999 668.043030 968.244019
228.733002 668.377014 967.331970
228.807007 668.109009 967.463989
228.681000 668.228027 967.034973
228.585999 668.445007 966.797974
228.966995 667.330994 960.328003
228.977997 667.560974 960.409973
232.835007 668.249023 976.718994
233.466003 667.851990 977.356995
234.123001 667.495972 977.906982
233.733002 667.994019 977.460022
229.929001 668.869019 974.578003
229.940002 668.914978 974.614014
230.042999 668.989990 974.848999
230.261002 668.994019 975.119995
230.121994 669.041992 974.982971
229.839996 668.864014 974.351013
229.744995 668.937988 974.174988
235.425003 668.023987 978.177979
235.063004 668.091980 978.046021
234.671005 668.163025 977.853027
234.130005 668.161011 977.603027
226.580994 664.116028 946.583984
225.528000 663.140015 944.825989
226.369995 663.846008 946.156006
224.251999 662.361023 942.692993
223.973999 662.103027 942.094971
223.794998 661.919006 941.541016
226.503006 665.427002 946.185974
226.511002 664.533997 946.388000
226.328995 665.431030 945.427002
223.554001 661.776001 940.307983
223.261002 661.405029 938.882019
228.906006 667.432007 960.171997
228.802002 667.367004 959.968994
228.350006 666.794006 959.408020
228.675003 667.348999 959.767029
228.141006 666.806030 959.197021
227.880005 666.851013 958.971985
227.365005 666.890015 958.625977
226.084000 666.895996 957.755981
226.320999 667.344971 957.984985
226.410004 667.181030 958.072021
226.201996 667.341003 957.869019
226.001007 666.906006 957.643982
226.565994 667.229004 958.182983
227.341003 667.299988 958.695007
225.832993 666.929993 957.294983
225.945999 667.424011 957.474976
226.037994 667.505005 957.664978
226.072998 667.353027 957.736023
225.761002 666.976013 957.088989
225.718002 667.015991 956.817993
225.757996 665.978027 954.044006
225.677994 667.073975 956.528015
225.593002 666.492981 955.968018
225.667999 666.315979 954.700012
