174.896 1078.13 2982.88
175.345 1077.55 2981.5
175.139 1074.33 2974.2
175.177 1074.2 2974.14
175.097 1073.96 2973.92
174.995 1073.6 2973.44
175.065 1073.8 2973.58
174.136 1077.68 2987.05
174.224 1077.82 2986.82
174.336 1077.93 2986.51
174.904 1073.12 2972.83
175.038 1073.04 2972.63
174.97 1073.34 2973
175.022 1073.51 2973.18
164.79 1053.3 2961.01
165.3 1053.45 2960.18
164.175 1053.39 2962.01
164.01 1053.73 2962.54
166.807 1056.8 2958.66
166.019 1054.87 2958.76
166.465 1055.24 2956.94
165.596 1053.66 2959.54
162.769 1053.72 2963.91
161.776 1053.59 2964.83
157.84 1050.36 2973.51
157.856 1049.56 2974.18
159.852 1051.21 2968.22
160.364 1052.57 2967.87
160.607 1052.92 2967.05
160.357 1052.68 2967.96
160.875 1053.1 2965.99
161.021 1053.3 2965.77
159.317 1050.91 2969.5
159.539 1050.06 2968.4
159.381 1049.96 2968.71
159.342 1050.06 2969.06
158.503 1051.17 2971.66
157.94 1050.8 2972.98
157.876 1050.38 2973.18
161.069 1053.2 2965.56
161.249 1053.31 2965.31
161.44 1053.27 2965.01
161.572 1053.46 2964.95
175.255 1072.44 2971.65
175.555 1072.77 2971.78
174.644 1071.77 2971.29
173.305 1070.02 2969.69
175.717 1073.02 2971.89
167.761 1059.79 2960.33
168.306 1061.46 2961.05
168.043 1060.04 2960.12
167.126 1057.17 2958.34
170.022 1063.28 2961.44
169.474 1062.21 2960.57
174.349 1070.19 2968.51
172.983 1067.75 2965.24
173.685 1068.9 2966.61
173.027 1066.85 2963.51
172.01 1064.68 2961.19
170.712 1063.09 2960.31
157.863 1048.87 2975.18
157.785 1048.25 2974.86
156.063 1043.73 2971.15
153.815 1039.12 2967.61
153.73 1038.43 2968.77
153.952 1038.23 2970.13
157.604 1047.09 2973.81
158.074 1047.41 2971.3
157.787 1047.92 2974.42
158.24 1048.17 2972.56
156.331 1042.75 2974.69
155.777 1041.32 2973.49
154.096 1037.96 2970.9
157.033 1044.18 2978.09
158.392 1045.28 2982.98
156.453 1042.39 2975.16
159.385 1043.97 2984.81
157.845 1048.63 2974.6
159.716 1042.51 2984.41
159.985 1041.63 2984.29
160.145 1041.18 2984.46
166.41 1026.91 3006.26
162.783 1025.47 3002.51
161.129 1025.12 3001.28
160.52 1024.85 3000.48
169.524 1027.55 3008.37
160.241 1024.87 3000.26
170.697 1027.72 3009.38
171.463 1027.72 3009.94
171.999 1027.7 3010.25
172.727 1027.48 3009.37
172.805 1027.42 3009.59
172.643 1027.55 3009.2
172.486 1027.62 3008.91
172.872 1027.36 3009.77
172.931 1027.3 3009.87
173.042 1027.45 3011.93
173.132 1027.48 3012.43
156.186 1034.18 2995.06
156.198 1033.74 2995.05
156.22 1033.36 2995.13
156.328 1033.03 2995.13
157.021 1032.21 2994.9
157.743 1031.99 2993.96
158.098 1031.19 2993.9
158.627 1029.68 2994.22
158.959 1029.21 2993.87
159.16 1028.76 2994.05
159.043 1028.37 2995.3
159.108 1026.77 2998.14
159.472 1025.54 2999.35
159.776 1025.15 2999.58
159.648 1025.34 2999.42
159.868 1025.01 2999.79
160.054 1024.96 3000.15
159.999 1024.94 2999.97
159.892 1040.24 2985.73
159.752 1040.11 2985.89
160.116 1040.38 2985.37
160.089 1040.26 2985.48
160.227 1040.9 2984.68
160.277 1040.73 2984.85
160.28 1040.4 2985.08
160.458 1040.42 2984.76
156.698 1033.97 2994.5
156.774 1033.5 2994.5
157.48 1032.69 2993.91
156.812 1033.12 2994.51
158.348 1030.75 2993.59
158.868 1030.55 2988.8
158.914 1030.17 2989.12
158.83 1030.12 2989.75
158.828 1029.78 2991.7
158.751 1029.72 2993.36
159.204 1030.71 2987.73
159.103 1030.44 2988.19
159.302 1032.71 2986.86
159.387 1037.02 2985.62
159.477 1036.17 2985.53
159.521 1038.48 2985.8
159.751 1039.72 2985.85
159.558 1035.23 2985.51
172.538 1026.38 3006.67
172.19 1025.95 3005.22
173.168 1026.88 3010.24
172.503 1026.53 3006.6
172.245 1025.53 3003.28
172.132 1025.83 3004.55
172.222 1025.39 3003.22
172.293 1025.13 3001.91
172.189 1024.84 3001.59
173.117 1027.04 3010.22
173.063 1027.16 3010.22
169.731 1021.44 2997.45
171.518 1023.85 2999.66
172.05 1024.64 3000.77
166.751 1016.88 2994.21
164.937 1013.47 2992.28
164.359 1012.06 2991.68
164.051 1011.02 2991.41
164.085 1011.31 2991.2
163.282 1009.99 2992.9
162.526 1008.93 2994.14
161.839 1008.16 2996.71
163.74 1010.38 2991.91
163.893 1010.59 2991.52
161.006 1006.86 2997.42
160.813 1006.35 2997.22
160.561 1005.63 2997.72
160.455 1005.04 2998.11
160.663 1006 2997.26
160.727 1006.16 2997.2
160.541 1003.71 2998.73
160.797 1002.98 2998.61
161.499 1001.35 2998.3
160.419 1004.51 2998.41
160.479 1003.99 2998.47
170.464 987.506 2998.99
162.156 999.965 2997.89
162.035 1000.26 2997.93
162.385 998.738 2997.14
162.171 999.977 2997.51
162.803 996.946 2996.43
163.002 996.291 2996.42
164.131 993.968 2995.87
165.1 991.987 2995.31
165.285 991.402 2995.09
165.413 990.79 2994.84
165.499 989.888 2993.47
165.39 988.02 2991.62
165.303 986.62 2990.18
166.159 985.037 2991.12
167.284 983.173 2992.71
167.11 983.123 2992.07
168.57 983.242 2995.13
168.387 983.858 2995.24
170.084 983.599 2998.15
168.605 985.404 2995.97
170.512 982.965 2998.48
171.819 981.307 2999.76
173.891 979.504 3002.63
173.872 977.719 3000.8
174.421 975.765 3000.91
173.913 1078.73 2985.83
173.998 1078.59 2986
174.028 1078.39 2986.32
174.045 1078.18 2986.65
174.197 1078 2986.7
174.773 1078.74 2980.99
174.8 1078.77 2981.52
174.209 1078.78 2984.75
174.07 1078.7 2985.58
174.762 1078.8 2982.07
174.428 1078.86 2983.46
170.712 1069.89 2955.19
170.918 1068.67 2955.27
171.256 1068.99 2956.03
170.649 1067.09 2954.27
170.498 1067.74 2954.05
172.942 1069.05 2958.51
170.701 1070.18 2955.05
174.279 1071.68 2963.83
174.338 1072.09 2964.34
175.215 1072.82 2966.06
174.257 1071.32 2963.39
174.289 1070.8 2962.39
171.89 1071.08 2959.29
173.018 1070.27 2959.61
174.262 1069.8 2960.79
174.123 1070.08 2960.86
172.999 1070.96 2960.62
174.167 1070.28 2961.13
174.377 1070.15 2961.32
174.327 1069.46 2960.67
175.457 1074.55 2968.59
176.383 1074.24 2969.63
176.525 1074.18 2969.74
174.547 1075.02 2968.54
174.57 1075 2969.31
174.508 1075.07 2970.88
174.941 1074.8 2972.2
176.427 1073.56 2968.52
176.583 1073.73 2968.95
176.673 1073.92 2969.45
176.687 1073.81 2969.35
176.646 1074.09 2969.71
176.585 1074.21 2969.97
175.153 1074.65 2972.33
175.334 1074.5 2972.71
175.308 1074.54 2972.53
175.298 1074.56 2972.37
175.334 1074.43 2972.8
175.135 1074.28 2973.99
175.224 1074.38 2973.3
175.217 1074.24 2973.68
175.237 1074.3 2973.44
175.311 1074.38 2972.9
175.274 1074.34 2973.04
174.865 1078.28 2982.94
174.807 1078.42 2982.94
174.565 1078.62 2983.67
174.551 1078.46 2984.19
170.759 1070.86 2955.11
170.726 1070.56 2954.76
170.781 1070.56 2954.54
170.846 1071 2954.79
170.933 1071.03 2954.57
171.094 1071.36 2954.57
170.696 1070.28 2954.85
173.218 1078.39 2956.27
171.892 1075.84 2956.2
171.296 1072.5 2955.17
171.544 1072.99 2955.27
173.931 1077.95 2955.71
174.71 1078.28 2954.91
174.632 1078.04 2955.13
174.61 1077.66 2955.13
174.559 1077.15 2955.13
171.643 1072.58 2954.91
171.627 1072.14 2954.54
171.245 1071.66 2954.55
171.27 1071.43 2954.28
174.427 1078.09 2986.06
174.452 1078.33 2985.01
175.201 1074.22 2973.91
175.16 1074.04 2973.75
175.094 1073.7 2973.25
175.126 1073.61 2972.99
175.161 1073.92 2973.42
174.291 1078.14 2986.35
174.353 1078.29 2985.94
175.207 1073.33 2972.6
175.796 1073.22 2971.98
175.148 1073.5 2972.8
164.588 1052.81 2960.93
163.779 1053.16 2962.39
164.144 1052.99 2961.8
165.321 1053 2959.74
163.656 1053.45 2962.73
166.888 1054.84 2955.38
166.515 1053.4 2955.02
165.984 1054.25 2958.18
166.833 1053.75 2954.4
165.748 1053.53 2958.79
165.589 1053.16 2959.18
162.554 1053.51 2963.98
161.718 1053.42 2964.76
157.863 1049.54 2973.76
157.894 1048.82 2974.16
160.447 1052.4 2967.57
160.324 1051.86 2967.6
159.934 1051.04 2967.97
159.776 1050.24 2967.94
160.64 1052.8 2966.78
160.903 1052.95 2965.78
158.864 1049.77 2971.26
159.149 1049.96 2970.15
159.291 1050.46 2969.58
159.344 1049.68 2968.49
159.592 1049.83 2968.01
159.2 1049.57 2968.93
158.885 1049.22 2970.68
158.787 1049.85 2971.53
158.493 1050.98 2971.7
157.98 1050.71 2972.8
157.955 1049.53 2973.35
157.983 1050.47 2972.77
161.229 1053.13 2965.23
161.12 1053.02 2965.38
161.342 1053.01 2964.99
161.594 1053.23 2964.78
175.863 1072.25 2970.45
175.406 1071.87 2970.44
176.142 1072.68 2970.85
176.32 1073.13 2971.24
167.799 1058.65 2959.22
169.119 1061.46 2960.09
168.639 1060.47 2959.72
169.122 1059.95 2958.62
167.454 1057.06 2957.38
167.265 1055.16 2954.92
170.321 1062.14 2959.41
173.504 1067.34 2963.57
174.565 1070.1 2967.77
175.47 1071.71 2970
173.657 1068.43 2965.28
172.025 1064.49 2960.72
170.647 1062.43 2959.3
157.868 1048.23 2974.26
157.216 1045.9 2970.96
155.434 1042.36 2967.78
153.709 1039.13 2966.56
152.5 1036.69 2965.82
152.522 1036.31 2966.83
152.772 1035.9 2968.37
158.779 1048.73 2970.3
158.929 1048.76 2968.74
158.559 1047.83 2968.35
156.96 1045.08 2967.81
156.097 1041.12 2974.35
154.57 1038.14 2971.96
153.278 1035.77 2970.02
157.19 1043.87 2978.34
156.825 1042.44 2976.21
158.527 1044.46 2982.71
156.633 1041.56 2975.52
159.416 1042.86 2983.59
157.919 1048.45 2974.1
159.836 1041.91 2984
160.125 1041.29 2984.19
160.04 1041.44 2983.87
160.273 1040.92 2984.42
160.237 1041.05 2984.2
166.033 1026.59 3005.47
162.684 1025.35 3002.07
161.154 1025 3001.07
160.714 1024.82 3000.45
160.407 1024.83 3000.23
169.305 1027.46 3007.77
160.188 1024.86 3000.11
170.416 1027.59 3007.54
171.108 1027.7 3007.79
171.666 1027.72 3008.43
172.043 1027.71 3008.53
172.274 1027.69 3008.68
171.992 1027.51 3006.46
172.164 1027.65 3007.23
172.105 1027.39 3006.46
172.041 1027.74 3007.12
171.895 1027.8 3007
172.989 1027.23 3009.93
172.218 1027.23 3006.46
156.931 1032.7 2994.61
158.979 1029.42 2991.87
159.106 1029.15 2992.06
159.278 1028.87 2992.24
159.438 1028.23 2994.59
159.151 1027.46 2996.86
159.277 1026.3 2998.71
159.444 1025.7 2999.17
159.596 1025.54 2999.21
159.852 1025.14 2999.48
159.914 1024.99 2999.74
159.739 1025.34 2999.29
160.099 1024.87 2999.93
159.987 1040.04 2985.62
160.393 1040.12 2985.07
160.345 1039.93 2985.17
160.221 1039.84 2985.34
160.485 1040.58 2984.55
160.474 1040.66 2984.35
160.525 1040.16 2984.86
161.054 1040.02 2984.35
161.082 1039.83 2984.43
159.153 1030.08 2988.49
159.003 1029.83 2989.45
159.533 1030.81 2987.12
159.504 1030.5 2987.35
159.328 1030.25 2987.85
159.724 1034.58 2985.45
159.657 1033.49 2986.07
159.583 1031.8 2986.8
159.62 1036.93 2985.33
159.674 1036.28 2985.26
159.839 1035.08 2985.15
159.936 1039.46 2985.63
159.687 1038.26 2985.57
160.061 1039.71 2985.52
172.166 1026.07 3004.78
172.181 1026.2 3005.26
172.448 1026.68 3006.54
172.137 1026.26 3004.78
172.264 1025.7 3003.3
172.343 1025.35 3001.74
172.368 1025.51 3002
172.272 1025.81 3003.23
172.239 1025.06 3001.35
172.422 1026.86 3006.58
172.35 1027.06 3006.63
170.05 1022.26 2997.55
171.563 1024.16 2999.59
172.052 1024.83 3000.48
165.653 1015.74 2992.6
164.458 1013.08 2991.21
164.187 1011.97 2991.04
163.903 1010.4 2991.04
163.945 1010.66 2990.93
163.964 1011.19 2990.71
163.126 1009.57 2992.45
162.478 1008.72 2993.37
162.146 1008.26 2994.85
161.692 1007.84 2996.47
163.567 1009.89 2991.68
163.716 1010.12 2991.52
163.786 1010.03 2991.12
161.476 1007.3 2996.26
161.305 1006.86 2996.19
160.56 1005.53 2997.48
160.662 1005.91 2997.17
160.51 1005.1 2997.74
160.45 1004.52 2998.21
161.206 1006.49 2996.18
161.254 1006.67 2996.16
160.745 1003.1 2998.46
161.502 1001.35 2998.08
160.52 1003.92 2998.28
160.675 1003.26 2998.39
162.058 1000.26 2997.69
162.464 998.639 2996.79
162.193 1000.01 2997.14
162.09 1000.26 2997.36
162.885 996.828 2996.19
163.014 996.369 2996.2
164.053 994.236 2995.64
165.03 992.281 2995.08
165.215 991.79 2994.83
165.349 991.199 2994.56
165.407 990.75 2994.35
165.43 990.65 2993.83
165.477 989.921 2992.79
165.307 988.154 2991.21
165.106 986.736 2989.09
165.325 985.954 2988.85
165.183 986.054 2988.19
165.794 985.394 2989.9
166.589 984.11 2991.33
166.969 983.259 2991.57
167.669 982.673 2992.91
167.397 982.735 2992.39
167.894 981.099 2990.35
167.861 980.935 2989.69
168.811 982.961 2995.22
170.68 982.477 2998.29
172.338 979.978 2999.44
171.278 981.842 2998.81
173.159 979.099 3000.65
173.481 977.509 2999.12
173.836 977.035 2999.83
174.174 975.478 2999.89
174.837 971.839 2998.75
175.271 970.938 2998.99
176.755 969.017 3000.45
174.133 1078.52 2985.97
174.191 1078.27 2986.33
174.25 1078.44 2985.9
174.341 1078.61 2984.88
170.408 1068.1 2953.8
171.246 1067.81 2955.58
171.09 1066.55 2955.13
172.965 1068.67 2958.38
170.887 1065.37 2954.84
170.443 1064.37 2954.16
170.259 1064.12 2953.65
174.406 1069.23 2960.7
170.435 1068.98 2953.93
174.405 1071.43 2963.87
174.402 1071.19 2963.5
174.406 1071.83 2964.28
175.299 1072.66 2966.12
174.581 1071.75 2964.48
176.296 1073.2 2968.01
174.466 1070.69 2962.62
174.533 1070.12 2961.64
174.508 1069.83 2961.24
174.604 1069.56 2961.21
175.499 1074.58 2968.96
176.309 1074.32 2969.81
176.395 1074.36 2970.2
176.504 1074.31 2970.14
175.437 1074.65 2969.42
174.717 1074.94 2970.08
174.61 1075.01 2970.96
174.989 1074.82 2971.87
175.19 1074.67 2972.1
176.544 1073.39 2968.69
176.677 1073.68 2969.17
176.675 1074.08 2969.82
176.729 1073.98 2969.67
176.77 1073.85 2969.55
176.636 1074.21 2970.19
176.604 1074.26 2970.39
175.258 1074.6 2972.2
175.532 1074.39 2972.62
175.482 1074.44 2972.49
175.813 1074.43 2971.9
175.731 1074.49 2971.82
175.494 1074.34 2972.71
175.269 1074.27 2973.18
175.23 1074.12 2973.56
175.272 1074.2 2973.39
175.393 1074.27 2972.86
175.347 1074.21 2972.97
170.459 1069.25 2953.54
170.425 1069.08 2953.67
170.681 1069.83 2953.41
170.53 1069.49 2953.46
170.865 1070.75 2954.49
171.045 1070.97 2954.19
173.719 1077.35 2955.7
172.293 1076.59 2956.21
171.486 1073.43 2955.54
172.748 1073.87 2954.98
172.802 1073.72 2954.81
174.26 1076.4 2955.21
174.803 1077.89 2954.87
174.733 1077.52 2954.97
174.649 1076.88 2954.98
174.432 1076.31 2955.09
172.818 1073.55 2954.61
172.765 1073.27 2954.35
171.503 1071.55 2954
171.517 1071.76 2954.26
171.352 1070.86 2953.05
171.071 1070.14 2952.43
175.181 1073.83 2973.17
175.217 1073.75 2972.93
175.278 1073.61 2972.7
175.252 1074.02 2973.26
175.823 1073.35 2972.06
175.852 1073.51 2972.16
176.406 1073.48 2971.57
176.413 1073.25 2971.22
164.454 1052.35 2960.93
163.607 1053.02 2962.55
163.306 1053.28 2963.01
165.241 1052.47 2959.54
165.399 1052.68 2959.37
167.455 1053.54 2952.51
166.343 1052.33 2954.76
167.02 1052.67 2952.86
166.63 1051.98 2953.53
166.094 1052.94 2956.49
167.267 1053 2952.49
165.72 1053.1 2958.68
165.545 1052.73 2959.08
162.354 1053.3 2964.07
157.994 1048.72 2973.75
160.548 1052.23 2967.37
160.708 1052.68 2966.59
160.422 1051.64 2967.38
160.225 1051.24 2967.63
160.013 1050.47 2967.7
159.974 1050.05 2967.62
161.008 1052.86 2965.56
158.383 1048.67 2972.73
158.294 1048.4 2972.81
159.162 1049.2 2968.51
159.307 1049.2 2968.05
159.647 1049.42 2967.67
159.805 1049.88 2967.75
158.644 1049.76 2971.93
158.476 1050.36 2971.96
158.079 1049.61 2972.97
161.18 1052.84 2965.18
161.33 1052.88 2964.94
161.537 1053.07 2964.76
162.245 1053.12 2964.12
176.081 1072.4 2970.3
175.884 1072.07 2969.96
176.288 1072.75 2970.68
169.809 1060.63 2958.33
169.603 1058.84 2956.34
169.087 1057.07 2954.4
168.683 1054.97 2951.89
168.381 1054.06 2951.3
173.819 1067.69 2963.52
173.693 1066.77 2962.29
174.831 1070.35 2967.65
173.94 1068.75 2965.15
172.545 1065.08 2960.86
170.947 1062.72 2959.05
170.549 1062.1 2958.79
170.102 1061.12 2958.32
153.826 1039.33 2965.47
152.626 1037.07 2965.01
152.343 1036.28 2964.75
152.241 1035.89 2965.54
152.279 1035.72 2966.26
152.445 1035.35 2967.31
152.869 1035.14 2968.93
158.937 1048.4 2967.93
157.478 1045.55 2966.6
154.415 1040.18 2964.89
156.349 1039.44 2974.91
154.679 1037.25 2972.39
153.46 1035.06 2970.47
157.406 1043.37 2978.43
157.181 1042.09 2976.85
158.484 1043.84 2981.76
157.495 1040.56 2976.78
159.344 1042.32 2981.85
159.751 1041.84 2983.31
160.185 1041.16 2983.75
159.963 1041.4 2982.95
160.441 1040.76 2984.15
160.382 1040.87 2983.95
165.728 1026.36 3004.69
162.564 1025.28 3001.63
161.237 1024.97 3000.89
160.674 1024.82 3000.27
160.383 1024.84 3000.06
168.953 1027.34 3006.84
169.271 1027.54 3003.07
169.326 1027.47 3001.8
170.096 1027.65 3003.92
170.632 1027.63 3004.42
171.427 1027.82 3006.53
170.802 1027.48 3003.81
171.356 1026.99 3002.8
171.541 1026.78 3002.54
171.735 1026.68 3002.76
171.178 1027.14 3003
171.89 1026.58 3002.96
171.009 1027.35 3003.53
172.785 1027.18 3008.04
171.885 1026.83 3004.77
171.999 1026.44 3002.98
159.097 1029.54 2989.87
159.441 1028.71 2992.09
159.253 1029.49 2989.42
159.576 1027.92 2995.01
159.656 1028.46 2992.38
159.298 1027.3 2996.92
159.428 1026.2 2998.6
159.732 1025.52 2999.1
159.875 1025.26 2999.24
159.956 1025.09 2999.48
160.059 1024.9 2999.76
159.829 1025.44 2999.06
160.346 1024.84 2999.86
160.977 1039.5 2984.71
161.04 1039.62 2984.62
160.926 1039.43 2984.79
160.26 1039.55 2985.29
161.043 1040.03 2984.21
160.998 1040.15 2984.05
161.099 1039.69 2984.52
161.656 1039.33 2984.06
161.665 1039.4 2983.95
161.581 1039.34 2984.19
159.388 1029.91 2988.08
159.21 1029.77 2988.81
159.86 1031.75 2986.44
159.755 1030.71 2986.87
159.769 1030.32 2987.09
159.547 1030.04 2987.58
160.017 1034.34 2985.14
159.859 1034.33 2985.35
160.034 1033.39 2985.63
159.897 1036.69 2985.03
159.998 1036.05 2984.9
159.917 1035.54 2985
160.117 1035.27 2984.78
160.055 1034.7 2984.98
160.192 1039.37 2985.34
160.057 1039.17 2985.43
160.028 1038.03 2985.22
172.268 1025.93 3003.18
172.003 1026.59 3004.76
172.073 1026.42 3004.69
172.231 1026.05 3003.12
172.234 1025.22 3001.01
172.33 1025.54 3001.48
172.35 1025.66 3001.83
170.478 1023.36 2997.9
168.121 1020.23 2995.09
171.549 1024.38 2999.49
172.041 1025.01 3000.33
164.963 1016.17 2991.29
164.053 1013.06 2990.38
163.92 1011.84 2990.31
163.888 1010.19 2990.67
163.838 1009.92 2990.77
163.902 1010.46 2990.55
163.844 1010.84 2990.27
163.022 1009.21 2992.13
162.517 1008.67 2992.93
162.06 1007.96 2994.59
162.335 1008.27 2993.22
163.522 1009.64 2991.49
163.651 1009.78 2991.28
163.753 1009.69 2990.93
161.992 1007.67 2994.48
160.658 1005.8 2997.08
160.631 1005.58 2997.15
160.614 1005.31 2997.31
160.513 1004.73 2997.86
161.157 1006.21 2996.15
161.934 1007.19 2994.21
161.89 1006.84 2994.2
161.949 1007.43 2994.42
161.522 1001.35 2997.87
160.563 1003.96 2998.11
161.412 1001.79 2997.62
161.521 1001.44 2997.68
162.217 1000.15 2996.88
162.613 998.958 2996.16
162.982 996.6 2996.07
163.101 996.32 2995.89
163.923 994.679 2995.45
164.996 993.3 2993.95
165.172 992.917 2993.7
165.36 992.129 2993.85
165.434 991.676 2993.51
165.501 991.16 2992.68
165.517 990.585 2991.73
165.27 988.49 2990.91
165.017 986.883 2988.48
165.161 985.501 2985.17
165.332 984.816 2984.88
165.454 984.428 2984.36
165.22 985.209 2985.19
165.78 985.033 2988.7
166.872 983.381 2990.89
168.785 982.579 2994.64
168.211 981.19 2991.38
168.152 980.72 2990.36
168.62 978.917 2987.76
167.843 980.824 2988.96
168.3 979.497 2987.88
168.541 978.937 2987.26
170.31 982.534 2997.43
171.153 981.745 2998.22
172.112 980.154 2998.88
173.315 977.497 2998.36
173.668 976.783 2998.74
173.98 975.413 2998.96
174.612 972.158 2998.34
174.823 970.239 2997.18
175.062 969.321 2997.22
175.777 968.4 2998.05
176.379 967.27 2998.24
170.225 1066.99 2952.81
170.049 1064.86 2952.48
172.923 1067.63 2958.2
173.237 1068.31 2958.7
172.849 1067.05 2958.14
174.452 1069.01 2960.7
170.969 1064.09 2955.63
172.77 1066.51 2958.17
170.745 1062.95 2955.92
170.533 1062.52 2955.54
170.173 1063.04 2953.6
170.468 1062.29 2955.34
174.662 1069.4 2961.22
170.192 1067.99 2952.85
170.186 1067.87 2952.73
174.492 1071.09 2963.68
174.529 1071.33 2964.12
174.592 1070.58 2962.77
175.554 1072.5 2966.49
174.68 1071.3 2964.54
174.689 1069.93 2961.76
174.759 1069.77 2961.78
176.259 1074.41 2970.18
176.341 1074.41 2970.55
176.457 1074.35 2970.57
176.554 1074.3 2970.52
175.372 1074.72 2970.03
176.046 1074.5 2970.41
175.419 1074.72 2970.68
174.97 1074.87 2971.39
175.645 1074.6 2971.52
175.666 1074.55 2971.69
176.575 1073.32 2968.86
176.745 1073.61 2969.32
176.704 1074.15 2970.24
176.748 1074.08 2970.12
176.79 1074.01 2970.03
176.79 1073.84 2969.73
176.807 1073.96 2969.96
176.683 1074.19 2970.56
176.619 1074.25 2970.76
176.017 1074.26 2972.12
175.959 1074.33 2972.05
175.885 1074.39 2971.97
176.36 1074.29 2971.45
176.472 1074.3 2971.22
176.341 1074.36 2971.28
176.219 1074.42 2971.28
175.589 1074.26 2972.71
176.042 1074.2 2972.16
175.31 1074.15 2973.16
175.535 1074.19 2972.78
175.413 1074.12 2972.94
170.184 1067.94 2952.43
170.218 1068.12 2952.26
170.293 1068.45 2952.32
170.748 1069.82 2953.01
170.398 1068.66 2952.1
170.855 1069.13 2951.21
173.531 1076.83 2955.64
172.337 1076.23 2956.02
173.837 1075.64 2955.28
174.041 1075.71 2955.19
172.609 1074.4 2955.39
172.693 1074.06 2955.16
174.014 1075.23 2954.97
173.958 1075.33 2955.09
174.009 1075.01 2954.82
174.156 1075.67 2955.09
174.799 1077.31 2954.78
174.89 1077.81 2954.52
174.722 1076.81 2954.85
174.502 1076.16 2954.95
174.266 1075.68 2955
173.943 1074.78 2954.63
172.74 1073.02 2953.98
174.105 1074.9 2954.42
172.776 1072.91 2953.61
172.898 1072.91 2953.17
171.726 1070.78 2951.17
171.483 1069.93 2950.2
175.288 1073.89 2972.95
175.408 1073.78 2972.69
175.359 1073.69 2972.67
175.886 1073.65 2972.22
175.342 1074.01 2972.99
176.436 1073.61 2971.65
176.484 1073.57 2971.54
176.513 1073.43 2971.29
176.43 1072.98 2970.75
164.75 1052.16 2960.2
163.988 1052.2 2961.51
163.571 1052.74 2962.46
163.61 1052.84 2962.46
163.178 1053.15 2963.1
163.36 1053.05 2962.86
165.363 1052.42 2959.31
165.221 1052.32 2959.51
166.333 1051.17 2953.98
166.217 1051.07 2954.35
167.796 1052.41 2951.27
168.051 1052.85 2950.97
166.817 1051.92 2953
166.502 1051.33 2953.59
166.142 1051.99 2955.58
165.878 1053.15 2958.02
165.829 1052.81 2958.2
165.708 1052.73 2958.64
165.575 1052.56 2958.9
160.595 1052.04 2967.13
160.778 1052.54 2966.39
160.537 1051.57 2967.13
160.439 1051.21 2967.31
160.355 1050.88 2967.41
160.225 1050.36 2967.44
160.029 1049.66 2967.38
160.263 1049.98 2967.3
161.075 1052.76 2965.43
159.348 1048.75 2967.48
158.93 1048.07 2967.4
160.003 1049.25 2967.08
159.535 1048.56 2966.95
161.199 1052.74 2965.18
161.298 1052.77 2965
161.355 1052.86 2964.92
161.474 1052.93 2964.8
162.138 1052.96 2964.19
163.013 1053.02 2963.25
176.355 1072.7 2970.3
176.206 1072.41 2969.95
170.443 1058.55 2954.34
170.143 1056.63 2951.84
174.104 1068.12 2963.5
173.947 1067.12 2962.3
175.23 1070.87 2967.94
174.145 1069.15 2965.54
174.1 1068.85 2964.77
172.378 1064.77 2960.35
173.908 1066.93 2961.9
171.109 1062.84 2958.59
170.511 1061.85 2958.29
170.071 1060.54 2957.59
170.607 1059.09 2954.64
152.923 1037.45 2964.07
152.516 1036.47 2963.92
152.338 1035.83 2963.79
152.202 1035.7 2964.69
152.134 1035.29 2965.32
152.188 1035.08 2966.01
152.426 1034.78 2967.23
152.901 1034.54 2968.97
157.863 1045.74 2965.66
155.223 1041.23 2964.31
153.234 1037.65 2963.27
156.258 1036.54 2974.77
154.404 1035.32 2972.12
153.51 1034.18 2970.4
154.416 1033.85 2972
158.383 1042.44 2979.37
158.464 1041.58 2978.73
158.437 1040.87 2978.3
159.699 1041.51 2981.19
160.68 1040.36 2982.03
160.375 1037.63 2980.17
158.574 1036.96 2977.79
160.751 1040.37 2982.42
160.839 1040.41 2983.26
160.8 1040.41 2982.87
160.973 1040.24 2983.83
160.922 1040.32 2983.54
165.636 1026.26 3003.97
162.154 1025.14 3001.02
161.196 1024.89 3000.64
160.622 1024.84 3000.05
161.011 1024.84 3000.36
169.33 1027.45 3005.04
166.634 1027.19 2998.84
166.376 1027.11 2997.44
169 1027.24 2999.68
166.53 1027.04 2996.83
169.38 1027.06 2999.4
171.282 1026.54 3000.7
170.25 1026.73 2999.54
171.718 1026.32 3001.03
171.944 1026.24 3001.41
169.916 1026.88 2999.55
172.099 1026.31 3003.01
172.088 1026.11 3001.48
159.49 1029.39 2988.96
159.335 1029.7 2988.35
159.853 1027.75 2994.87
159.816 1028.31 2992.35
159.613 1029.22 2989.14
159.605 1027.37 2996.34
159.488 1026.85 2997.6
159.58 1026.1 2998.56
159.763 1026.02 2998.5
159.933 1025.4 2998.98
159.981 1025.22 2999.21
160.093 1025.06 2999.45
160.174 1024.92 2999.65
159.94 1025.96 2998.46
160.379 1024.88 2999.69
160.612 1024.86 2999.85
161.521 1039.21 2984.3
161.697 1039.11 2984.18
161.655 1039.2 2984.18
160.933 1039.23 2984.8
161.738 1038.94 2984.17
161.647 1038.88 2984.25
161.633 1039.51 2983.86
161.562 1039.65 2983.77
161.752 1039.17 2984.08
161.855 1039.08 2983.99
161.798 1039.2 2983.95
161.742 1039.32 2983.87
161.812 1039.25 2983.8
159.653 1029.76 2987.74
160.159 1032.24 2985.88
160.034 1030.54 2986.67
159.813 1029.97 2987.28
160.155 1030.22 2986.73
160.314 1034.29 2984.82
160.265 1036.25 2984.65
160.263 1035.72 2984.62
160.216 1034.93 2984.74
160.424 1035.41 2984.48
160.91 1038.9 2984.8
160.93 1039.06 2984.79
160.89 1038.62 2984.76
160.684 1037.71 2984.67
160.8 1036.7 2984.34
172.339 1025.79 3001.8
172.172 1026.18 3003.07
172.298 1025.89 3001.76
172.213 1025.43 3000.85
172.276 1025.71 3001.29
170.795 1024.22 2998.32
171.624 1024.68 2999.56
168.683 1022.86 2995.45
167.615 1020.98 2994.15
172.038 1025.24 3000.33
164.074 1018 2989.64
162.784 1015.46 2988.04
163.696 1012 2989.71
162.754 1013.5 2988.05
163.747 1011.07 2989.79
163.885 1010.14 2990.39
163.868 1009.82 2990.52
163.835 1009.62 2990.66
163.857 1010.4 2990.14
163.777 1010.53 2989.77
163.025 1009.05 2991.95
162.482 1008.43 2992.72
162.315 1008.03 2993.01
163.501 1009.42 2991.34
163.651 1009.61 2991.17
163.779 1009.45 2990.84
161.086 1005.94 2996.22
160.66 1005.16 2997.27
161.064 1005.73 2996.28
160.716 1005.52 2996.96
160.582 1004.62 2997.72
161.874 1006.52 2994.21
162.316 1007.82 2992.86
162.313 1007.6 2992.77
160.709 1003.57 2997.99
161.599 1001.66 2997.27
162.138 1002.14 2996.07
162.378 1002.51 2994.99
162.851 1000.01 2994.45
162.644 1000.77 2994.64
162.956 997.855 2995.75
163.046 996.627 2995.81
163.637 997.383 2994.42
163.09 998.681 2994.99
163.647 998.125 2993.42
163.773 995.476 2995.12
164.482 994.876 2993.97
164.442 997.284 2991.17
165.181 993.576 2992.57
165.265 993.264 2992.22
165.513 991.958 2991.5
165.535 991.361 2990.11
165.319 989.34 2990.16
165.345 989.531 2987.36
165.007 987.409 2988.89
165.1 986.629 2985.41
165.15 985.826 2984.61
165.248 984.76 2981.64
165.178 986.023 2982.61
165.306 984.383 2981.17
165.355 984.089 2980.05
165.623 983.995 2983.6
165.49 983.772 2979.78
165.777 984.785 2987.73
166.765 983.885 2989.31
166.703 983.966 2988.78
166.903 983.301 2990.73
169.04 982.102 2994.29
170.274 982.285 2996.72
168.999 979.34 2989.64
168.779 978.903 2988.32
168.965 978.402 2987.44
168.861 978.448 2986.88
167.648 981.36 2989.08
168.091 979.947 2987.47
168.342 979.333 2987.46
167.403 982.208 2990.41
169.149 978.177 2985.31
168.565 978.913 2986.66
170.972 981.82 2997.61
171.435 981.194 2997.91
172.143 979.992 2998.43
172.912 978.245 2997.92
173.527 976.846 2997.91
174.035 974.537 2998.14
174.47 972.407 2998.01
174.725 970.795 2997.2
174.625 969.999 2996.42
174.671 969.309 2996.35
173.965 966.875 2994.22
174.323 966.666 2994.75
174.403 965.912 2994.46
175.053 965.831 2995.3
176.977 965.334 2997.27
170.206 1066.93 2952.44
170.031 1065.06 2952.01
169.876 1063.86 2952.04
174.326 1068.68 2960.41
174.357 1068.42 2960.47
174.709 1069.22 2961.27
174.685 1068.97 2961.18
172.902 1066.24 2958.63
171.177 1063.66 2956.6
174.311 1068.11 2960.5
170.952 1062.89 2956.87
170.622 1062.3 2956.28
170.477 1061.89 2955.9
169.851 1063.53 2951.82
170.102 1062.8 2953.05
170.368 1062.03 2954.87
170.419 1061.7 2955.61
174.779 1069.5 2961.58
170.201 1066.99 2952.1
174.578 1071.06 2964.05
174.553 1070.89 2963.72
174.658 1070.46 2962.87
175.643 1072.38 2966.64
174.848 1071.21 2964.88
174.658 1070.89 2964.32
174.812 1069.75 2962
176.24 1074.45 2970.61
176.28 1074.44 2970.89
176.397 1074.39 2970.82
176.534 1074.32 2970.8
176.166 1074.48 2970.85
175.624 1074.64 2971.25
176.266 1074.43 2971.11
176.457 1073.03 2968.39
176.626 1073.25 2969.11
176.813 1073.57 2969.48
176.763 1074.13 2970.55
176.807 1074.07 2970.5
176.817 1074.02 2970.47
176.821 1073.72 2969.86
176.825 1073.92 2970.32
176.822 1073.98 2970.4
176.699 1074.17 2970.79
176.554 1074.3 2971
176.621 1074.23 2970.97
176.43 1074.23 2971.46
176.483 1074.17 2971.46
176.549 1074.23 2971.16
176.451 1074.37 2971.03
176.058 1074.12 2972.2
176.449 1074.12 2971.64
175.574 1074.08 2972.7
176.059 1074.04 2972.23
175.527 1073.99 2972.72
170.241 1067.19 2951.8
170.316 1068.28 2951.91
170.254 1068.09 2952.02
170.689 1068.72 2951.2
170.69 1068.22 2950.76
171.226 1068.88 2949.6
173.072 1075.95 2955.64
172.612 1074.91 2955.57
174.299 1075.58 2954.92
174.265 1075.3 2954.74
174.85 1077.19 2954.5
174.759 1076.7 2954.7
174.609 1076.22 2954.83
174.414 1075.76 2954.89
174.002 1074.68 2954.25
174.233 1074.99 2954.15
174.402 1075.47 2954.64
173.013 1072.97 2952.75
174.297 1075.02 2953.76
173.133 1073.08 2952.21
171.953 1070.98 2950.32
171.492 1069.72 2949.61
175.469 1073.89 2972.71
175.969 1073.83 2972.25
175.93 1073.76 2972.24
176.429 1073.66 2971.7
176.583 1073.65 2971.42
176.564 1073.68 2971.46
176.617 1073.54 2971.24
176.549 1073.23 2970.9
176.518 1072.94 2970.44
164.799 1052.03 2960.05
164.246 1051.86 2960.82
163.916 1052.02 2961.56
163.576 1052.57 2962.4
163.303 1052.88 2962.89
165.418 1052.28 2959.15
165.251 1052.21 2959.42
166.222 1050.58 2954.21
166.34 1050.62 2953.89
166.149 1050.7 2954.56
167.528 1052.02 2951.67
166.573 1051.13 2953.4
166.139 1051.46 2955.47
165.98 1052.75 2957.39
165.833 1052.59 2958.22
165.948 1052.59 2957.7
165.704 1052.46 2958.54
165.536 1052.29 2958.84
160.647 1051.84 2966.89
160.836 1052.39 2966.19
160.703 1051.56 2967
160.556 1051.34 2967.13
160.668 1051.31 2967.06
160.637 1051.1 2967.08
160.484 1051.01 2967.25
160.513 1050.88 2967.2
160.363 1050.6 2967.34
161.108 1050.37 2966.69
161.135 1050.18 2966.63
161.207 1049.91 2966.42
161.202 1049.59 2966.18
161.131 1052.68 2965.37
158.425 1046.46 2965.63
160.032 1048.72 2966.46
161.65 1049.18 2965.34
158.822 1046.68 2965.2
161.279 1052.65 2965.1
161.408 1052.8 2964.89
161.493 1052.88 2964.79
161.641 1052.85 2964.66
161.974 1052.83 2964.33
162.612 1052.77 2963.73
162.967 1052.88 2963.3
176.361 1072.54 2969.79
176.586 1072.93 2970.1
171.053 1058.26 2952.8
174.342 1068.48 2963.38
174.272 1067.65 2962.41
175.424 1071.12 2967.81
174.282 1069.37 2965.67
174.217 1068.96 2964.43
174.272 1069.24 2965.03
172.578 1064.99 2960.22
174.335 1067.67 2962.18
173.962 1066.93 2961.58
172.352 1064.66 2959.58
171.047 1062.74 2957.89
170.667 1062.04 2957.99
170.317 1061.14 2957.59
170.178 1059.98 2956.61
170.793 1059.38 2954.52
171.182 1058.9 2953.27
152.789 1036.7 2963.1
152.579 1035.94 2962.9
152.442 1035.6 2963.16
152.223 1035.45 2964.02
152.147 1035.15 2964.5
152.125 1034.85 2965.19
152.202 1034.51 2965.89
152.47 1034.27 2967.18
153.115 1033.95 2969.34
156.365 1042.6 2963.76
154.037 1038.66 2962.8
153.374 1037.19 2962.17
155.62 1033.91 2973.72
154.11 1033.33 2971.33
154.913 1032.8 2972.48
160.875 1039.74 2981.69
160.944 1038.92 2981.25
161.131 1039.1 2981.63
161.612 1039.24 2982.67
161.563 1039.47 2982.84
161.357 1037.14 2981.44
161.269 1035.33 2980.87
161.482 1035.71 2981.31
158.997 1034.96 2977.99
161.525 1039.63 2983.14
161.509 1039.73 2983.65
161.606 1039.6 2983.47
166.348 1026.47 3003.84
161.441 1024.99 3000.3
162.536 1025.28 3000.97
160.925 1024.9 3000.09
168.082 1027.34 3002.42
164.547 1026.92 2997.28
164.196 1026.9 2996.16
164.078 1026.89 2994.95
166.533 1026.95 2996.27
166.914 1026.89 2996.24
164.483 1026.81 2994.29
167.147 1026.79 2996.09
171.304 1026.38 3000.25
170.18 1026.55 2999.03
167.206 1026.64 2995.8
167.313 1026.45 2995.6
171.87 1026.07 3000.77
172.199 1026 3001.57
172.038 1025.96 3000.98
159.733 1029.41 2988.23
159.718 1029.58 2987.95
160.123 1027.99 2992.98
160.083 1027.49 2995.28
159.777 1029.12 2989.07
159.929 1028.89 2989.57
159.864 1029.33 2988.2
159.852 1027.1 2996.7
159.764 1026.76 2997.49
160.12 1025.92 2998.39
160.081 1025.37 2998.97
160.178 1025.18 2999.25
160.363 1025.03 2999.46
159.996 1026.62 2997.58
160.623 1024.94 2999.61
160.884 1024.94 2999.83
161.787 1039.09 2984.09
161.804 1038.91 2984.11
161.836 1038.87 2984.07
161.578 1038.71 2984.29
161.684 1038.58 2984.17
161.782 1038.59 2984.09
161.747 1039.37 2983.74
161.719 1039.47 2983.64
161.846 1038.97 2984.04
161.877 1038.96 2984
161.909 1039.06 2983.82
161.94 1038.95 2983.89
161.853 1039.25 2983.58
161.878 1039.15 2983.77
161.919 1039.09 2983.66
159.991 1029.72 2987.39
160.382 1032 2985.75
160.408 1030.47 2986.37
160.115 1029.96 2986.94
160.512 1029.97 2986.61
160.597 1030.18 2986.39
160.431 1034.51 2984.67
160.537 1033.96 2984.75
160.918 1036.2 2984.19
160.479 1034.95 2984.53
160.983 1035.85 2984.13
161.038 1035.53 2984.12
161.541 1038.35 2984.25
161.385 1037.66 2984.18
161.395 1036.67 2983.97
172.169 1025.86 3001.24
172.116 1025.55 3000.6
171.245 1024.9 2998.97
171.734 1024.99 2999.75
169.765 1024.06 2996.93
166.153 1023.41 2992.52
164.881 1021.55 2990.72
171.846 1025.39 3000.01
163.088 1021.17 2988.44
162.189 1019.89 2987.01
161.823 1016.65 2986.25
162.466 1012.99 2987.39
163.504 1011.2 2989.09
161.559 1014.63 2985.94
163.645 1010.65 2989.28
163.898 1009.7 2990.31
163.88 1009.96 2990.14
163.887 1009.54 2990.44
163.884 1009.39 2990.58
163.838 1009.97 2989.81
163.753 1010.2 2989.47
163.043 1008.86 2991.79
162.486 1008.19 2992.51
163.659 1009.42 2991.08
163.553 1009.23 2991.2
163.72 1009.24 2990.94
163.843 1009.2 2990.71
161.557 1005.93 2995.34
161.032 1005.45 2996.44
160.674 1004.97 2997.35
161.542 1005.74 2995.43
161.389 1005.75 2995.71
161.24 1002.77 2997.38
161.806 1005.99 2994.51
162.17 1006.84 2993.15
162.193 1007.25 2992.99
162.353 1007.5 2992.64
162.567 1007.92 2992.23
161.849 1002.52 2996.56
161.938 1003.24 2996.19
161.803 1003.84 2996.19
161.727 1004.51 2995.8
162.068 1003.38 2995.76
162.034 1004.11 2995
162.583 1001.77 2994.26
162.031 1004.67 2994.43
162.644 1002.95 2993.63
162.623 1003.34 2993.46
162.78 1000.88 2993.53
163.298 1000.16 2992.57
163.356 996.994 2995.14
163.58 996.273 2994.95
163.875 999.791 2991.14
164.519 997.415 2990.57
163.894 1000.48 2990.51
164.905 995.528 2990.32
165.24 993.002 2990.7
165.231 992.499 2989.06
165.139 991.543 2987.27
165.188 988.284 2985.11
165.117 987.428 2986.68
165.04 987.053 2982.58
164.774 985.92 2979.5
165.081 988.292 2984.44
164.519 985.694 2977.21
164.855 984.727 2976.71
165.807 983.765 2983.67
165.61 983.538 2979.6
164.833 984.574 2975.81
166.291 984.204 2987.61
166.884 983.653 2989.8
167.055 983.256 2987.28
166.954 983.294 2986.84
167.235 982.786 2986.82
167.244 983.182 2988.55
167.169 983.028 2989.99
169.301 980.401 2991.93
171.11 980.699 2994.88
171.666 980.415 2995.33
172.081 980.086 2995.51
169.51 978.431 2988.83
169.13 978.47 2988.14
169.509 977.704 2985.44
169.468 977.789 2986.38
169.332 978.112 2987.65
169.606 977.637 2984.31
167.353 982.623 2989.53
167.499 981.949 2988.26
167.686 981.233 2987.15
167.951 980.57 2986.62
168.379 979.258 2986.87
169.255 978.213 2984.29
169.881 977.663 2981.52
170.07 977.425 2981.27
171.745 980.708 2996.36
172.126 980.24 2996.43
172.04 980.233 2997.75
172.485 979.771 2996.49
172.593 979.008 2997.49
173.338 977.35 2997.47
173.564 976.697 2997.26
174.102 974.055 2997.59
174.577 971.521 2997.12
174.597 970.694 2996.52
174.442 969.625 2995.7
173.758 967.58 2993.92
173.895 967.271 2994.2
173.01 965.135 2991.74
172.997 965.717 2991.95
173.321 964.96 2992.23
173.768 964.316 2992.48
173.523 964.189 2991.99
175.908 964.202 2994.99
177.224 962.998 2995.62
177.99 961.999 2996.18
177.549 962.205 2995.54
170.037 1065.11 2951.54
169.826 1063.84 2951.57
169.842 1063.79 2951.13
174.665 1068.73 2961.15
174.822 1069.33 2961.63
174.829 1069.12 2961.6
173.028 1066.07 2959.07
174.322 1067.88 2960.68
172.356 1064.98 2958.53
174.625 1068.48 2961.14
171.162 1063.04 2957.53
170.708 1062.23 2957.05
170.517 1061.73 2956.55
170.445 1061.35 2956.27
170.122 1062.48 2952.84
170.339 1061.96 2954.48
170.436 1061.38 2955.34
170.417 1061.1 2955.96
174.845 1069.59 2962.01
174.589 1070.75 2963.86
174.709 1070.32 2962.95
175.68 1072.22 2966.79
174.747 1070.77 2964.63
174.913 1071.09 2965.12
174.624 1070.6 2964.05
176.454 1072.92 2968.44
176.741 1073.26 2969.44
176.48 1072.88 2968.7
176.874 1073.54 2969.67
176.768 1074.1 2970.78
176.791 1074.03 2970.77
176.81 1073.96 2970.76
176.82 1073.64 2970.05
176.839 1073.83 2970.45
176.832 1073.89 2970.68
176.676 1074.17 2970.96
176.598 1074.17 2971.15
176.606 1074.09 2971.32
176.664 1074.11 2971.1
176.528 1074.05 2971.62
176.035 1073.97 2972.25
176.504 1073.98 2971.75
176.001 1073.9 2972.25
170.335 1067.22 2951.41
170.173 1064.83 2950.39
170.527 1067.46 2950.86
170.596 1066.38 2950.02
174.392 1075.61 2954.81
174.814 1076.69 2954.3
174.772 1076.58 2954.55
174.572 1075.99 2954.74
174.501 1075.49 2954.19
174.627 1075.98 2954.41
174.327 1075.1 2953.41
174.563 1075.6 2953.82
173.219 1073.24 2951.64
176.508 1073.82 2971.71
176.468 1073.74 2971.7
176.682 1073.65 2971.18
176.697 1073.43 2970.9
176.592 1073.75 2971.45
176.658 1073.71 2971.25
176.618 1073.14 2970.58
176.631 1073.07 2970.15
164.828 1051.86 2959.91
164.329 1051.67 2960.6
164.201 1051.73 2960.84
163.802 1051.97 2961.78
163.471 1052.52 2962.58
163.216 1052.71 2962.99
165.491 1052.14 2959.05
165.324 1052.12 2959.28
166.282 1049.53 2954.62
166.361 1049.46 2954.31
166.456 1049.48 2954.06
166.403 1050.46 2953.77
166.243 1049.69 2954.9
167.395 1051.75 2951.9
166.53 1050.6 2953.5
166.215 1050.41 2955.48
166.086 1052.41 2956.79
165.857 1052.39 2958.22
166.036 1052.35 2957.25
165.958 1052.37 2957.84
165.67 1052.25 2958.54
165.612 1052.17 2958.77
160.891 1052.31 2966.08
160.791 1051.81 2966.72
160.89 1051.66 2966.82
160.854 1051.35 2966.89
161.239 1050.69 2966.63
161.527 1050.8 2966.35
161.094 1050.53 2966.74
162.689 1050.27 2965.18
162.713 1050.15 2965.08
162.675 1050 2965.02
163.327 1049.49 2963.87
163.323 1049.12 2963.56
161.186 1052.58 2965.33
157.057 1043.25 2963.27
161.487 1048.74 2965.03
159.461 1046.98 2964.8
163.13 1048.33 2963.01
163.587 1048.38 2962.62
157.599 1043.69 2962.96
161.317 1052.57 2965.1
161.483 1052.7 2964.83
162.015 1052.71 2964.29
162.811 1052.59 2963.56
162.946 1052.69 2963.34
176.441 1072.66 2969.64
174.517 1068.81 2963.27
174.497 1068.09 2962.45
175.572 1071.35 2967.64
174.462 1069.63 2965.41
174.327 1069.27 2964.69
174.574 1068.15 2962.22
174.412 1067.73 2961.77
174.133 1067.19 2961.2
172.523 1064.94 2959.42
170.588 1061.85 2957.57
170.32 1060.8 2956.98
170.337 1060.02 2956.15
170.905 1059.55 2954.41
171.317 1059.28 2953.38
171.346 1058.83 2952.75
152.933 1036.41 2962.29
152.916 1036.04 2962.02
152.728 1035.72 2962.34
152.604 1035.32 2962.66
152.275 1035.14 2963.69
152.174 1034.73 2964.38
152.16 1034.43 2965.13
152.291 1034.05 2965.8
152.675 1033.76 2967.5
153.553 1033.19 2970.02
154.75 1038.82 2961.58
154.186 1037.51 2960.97
153.374 1036.59 2961.5
156.264 1033.08 2974.32
154.34 1032.5 2971.38
155.026 1032.18 2972.37
155.813 1032.22 2973.46
161.629 1038.93 2982.4
161.556 1038.63 2982.07
161.748 1039.16 2982.85
161.806 1038.84 2982.7
161.664 1039.42 2982.99
161.614 1037.11 2981.82
161.754 1035.7 2981.73
160.11 1034.74 2979.2
161.633 1034.74 2981.07
161.76 1035.04 2981.55
161.744 1035.38 2981.64
161.724 1039.41 2983.25
161.797 1039.33 2983.4
166.253 1026.54 3002.83
161.669 1025.12 3000.14
161.194 1025.01 2999.98
162.559 1025.32 3000.69
165.703 1026.97 2999.33
164.16 1026.8 2997.79
163.054 1026.83 2996.29
162.867 1026.71 2996.95
163.072 1026.93 2995.26
163.391 1026.91 2993.72
164.768 1026.69 2993.78
165.152 1026.61 2993.79
164.101 1026.78 2993.25
165.147 1026.5 2993.41
170.353 1026.29 2998.8
171.432 1026.18 3000.07
167.472 1026.22 2995.47
165.237 1026.34 2993.21
165.376 1026.14 2993.11
171.851 1025.88 3000.37
171.999 1025.67 3000.43
159.995 1029.5 2987.72
160.4 1027.84 2993.01
160.195 1028.71 2989.72
160.625 1027.61 2993.73
160.262 1027.2 2995.96
160.004 1029.22 2988.23
160.345 1029 2988.36
160.23 1029.38 2987.56
160.009 1029.4 2987.85
160.166 1026.87 2996.92
160.332 1025.89 2998.33
160.291 1026.54 2997.55
160.27 1025.33 2999.01
160.415 1025.2 2999.21
160.656 1025.12 2999.37
160.875 1025 2999.61
161.187 1025.08 2999.67
161.879 1038.51 2983.97
161.926 1038.66 2983.94
161.87 1038.82 2984.03
161.665 1037.61 2983.94
161.777 1037.62 2983.84
161.886 1037.62 2983.75
161.93 1038.83 2983.94
162.021 1038.81 2983.66
162.011 1038.8 2983.79
161.998 1038.73 2983.82
161.951 1039.06 2983.49
161.901 1039.14 2983.36
162.056 1038.76 2983.44
160.289 1029.76 2986.99
160.211 1029.58 2987.29
160.714 1031.76 2985.6
161.634 1030.36 2985.69
160.717 1029.7 2986.67
160.798 1029.8 2986.51
161.751 1029.88 2985.91
161.791 1030.1 2985.75
160.676 1034.37 2984.53
160.836 1033.5 2984.73
161.506 1036.29 2983.86
161.508 1036.02 2983.86
161.114 1035.19 2984.11
161.624 1035.72 2983.79
161.524 1037.57 2984.06
161.546 1036.95 2983.89
161.615 1036.59 2983.81
170.63 1024.99 2998.24
167.771 1024.32 2994.63
164.451 1024.24 2990.73
165.057 1024.73 2991.71
171.611 1025.6 2999.77
162.892 1022.86 2988.37
164.078 1024.66 2990.24
161.851 1020.1 2986.46
161.588 1016.9 2985.71
161.621 1020.08 2986.01
161.473 1014.11 2985.62
162.509 1012.17 2987.15
161.328 1014.7 2985.33
163.605 1010.42 2989.05
163.92 1009.6 2990.04
163.937 1009.48 2990.22
163.933 1009.35 2990.37
163.937 1009.21 2990.52
163.855 1009.76 2989.58
163.952 1009.52 2989.84
163.758 1009.96 2989.25
163.111 1008.64 2991.6
163.604 1009.06 2991.07
163.755 1009.07 2990.88
163.858 1009 2990.75
163.955 1009.04 2990.58
161.501 1005.51 2995.63
161.058 1004.55 2996.9
160.762 1005.02 2997.18
161.85 1005.59 2994.42
162.419 1007.48 2992.48
162.178 1006.28 2993.25
162.293 1006.99 2992.81
162.644 1007.82 2992.09
161.421 1003.34 2997.06
161.686 1003.81 2996.49
161.505 1004.63 2996.27
161.501 1005.24 2995.79
162.703 1001.99 2993.46
162.775 1001.11 2993.3
162.807 1001.45 2993.03
162.329 1004.56 2993.6
161.585 1005.53 2995.37
162.805 1002.29 2993.03
162.728 1003.35 2993.18
163.241 1000.87 2992.19
163.73 1000.8 2991
163.82 1000.67 2990.7
163.802 1001.01 2990.74
163.969 1000.31 2989.99
164.452 997.976 2989.43
163.907 1001.06 2990.09
163.862 1001.42 2990.5
164.929 995.131 2989.08
164.801 996.448 2986.47
164.973 994.328 2991.06
164.89 994.699 2987.24
164.928 993.316 2987.31
164.791 994.51 2985.86
164.524 992.271 2985.07
164.591 991.552 2985.22
164.765 990.279 2985.1
164.599 988.317 2982.09
164.679 989.658 2984.3
164.125 987.439 2978.57
163.815 987.662 2977.46
163.87 987.011 2976.45
163.898 986.209 2974.36
163.55 986.406 2972.72
166.344 983.394 2984.63
165.922 983.173 2981.85
165.894 983.105 2980.88
165.896 983.207 2979.02
164.925 984.396 2975.38
163.766 985.912 2972.07
166.936 982.902 2985.34
167.154 982.641 2985.73
167.191 982.456 2985.04
167.317 982.679 2987.12
167.526 981.947 2985.73
167.31 982.271 2985.33
167.289 983.039 2988.63
170.861 979.622 2992.77
173.096 977.829 2992.63
173.857 977.248 2992.64
173.791 977.737 2993.84
174.275 976.75 2992.22
169.754 977.941 2988.02
171.176 978.379 2991.11
171.386 977.932 2990.45
170.815 976.661 2981.85
170.951 976.599 2980.74
170.725 976.836 2980.51
169.756 977.572 2986.4
170.961 976.568 2982.09
170.713 976.943 2979.92
167.382 982.54 2987.56
167.508 981.938 2986.25
167.908 981.244 2985.2
168.754 979.292 2984.75
168.919 979.581 2981.36
169.941 978.083 2979.62
170.151 977.821 2979.31
170.611 977.393 2978.68
174.103 977.389 2993.96
172.763 979.348 2996.43
174.11 977.322 2994.22
172.969 978.955 2996.45
173.106 977.912 2997.26
173.496 977.09 2996.94
174.098 974.254 2996.69
174.075 974.199 2997.17
174.512 971.905 2996.66
174.559 971.277 2996.59
174.48 970.206 2995.79
174.512 970.804 2996.03
174.334 969.778 2995.15
173.592 967.668 2993.44
172.873 965.813 2991.63
172.82 965.217 2991.31
172.829 964.763 2991.11
173.121 964.418 2991.45
174.522 962.288 2991.52
174.947 962.534 2992.4
173.347 963.81 2991.31
174.29 962.18 2990.99
176.392 960.867 2992.81
178.572 958.603 2995.41
177.071 957.964 2992.07
176.379 959.591 2991.73
174.777 1068.82 2961.49
174.858 1069.38 2961.97
174.855 1069.1 2961.81
174.224 1067.49 2960.83
174.568 1068.2 2961.2
172.732 1065.32 2959.32
174.708 1068.53 2961.37
170.499 1061.57 2957.09
170.412 1061.08 2956.68
170.41 1060.77 2956.26
170.326 1061.97 2953.84
170.316 1061.97 2954.16
170.375 1061.66 2954.56
170.401 1061.58 2955.01
170.442 1061.34 2955.31
170.441 1060.98 2955.72
170.45 1060.64 2955.89
174.752 1070.18 2962.99
175.656 1071.99 2966.86
174.682 1070.49 2964.37
174.789 1070.66 2964.85
174.931 1070.94 2965.26
174.642 1070.4 2963.99
174.766 1070.05 2963.04
176.472 1072.8 2968.99
176.686 1073.12 2969.61
176.851 1073.44 2969.78
175.669 1071.82 2967.02
176.728 1074.1 2970.95
176.747 1074 2970.96
176.753 1073.89 2970.97
176.836 1073.52 2970.18
176.86 1073.65 2970.47
176.844 1073.72 2970.69
176.771 1073.79 2970.94
176.721 1074.01 2971.06
176.676 1074.01 2971.25
176.647 1073.96 2971.45
176.543 1073.91 2971.73
175.119 1077.48 2953.22
174.72 1076.14 2954.04
174.556 1075.96 2952.36
174.753 1076.33 2952.96
175.026 1077.08 2953.02
176.629 1073.84 2971.42
176.787 1073.43 2970.72
176.77 1073.62 2970.93
176.705 1073.21 2970.35
176.695 1073.77 2971.15
176.703 1073.17 2969.93
164.902 1051.79 2959.83
164.335 1051.53 2960.57
164.203 1051.58 2960.82
164.143 1051.6 2960.96
164.099 1051.48 2961.06
163.8 1051.79 2961.83
163.457 1052.23 2962.57
163.367 1052.42 2962.74
163.137 1052.5 2963.09
165.598 1052.09 2958.98
165.394 1052.03 2959.21
166.377 1048.47 2955.04
166.469 1048.35 2954.64
166.617 1048.36 2954.2
166.55 1049.53 2953.84
166.689 1048.62 2953.96
166.829 1048.7 2953.69
166.372 1048.71 2955.34
167.207 1051.27 2952.28
166.691 1049.65 2953.56
166.212 1051.35 2956.05
166.26 1050.24 2955.66
166.346 1048.82 2955.65
166.346 1049.31 2955.75
166.144 1051.95 2956.63
165.913 1052.2 2958.16
165.814 1052.16 2958.41
166.14 1051.94 2956.97
166.052 1052.14 2957.51
165.993 1052.11 2957.96
165.702 1052.08 2958.6
165.731 1052.08 2958.73
160.965 1052.22 2966
160.975 1051.79 2966.56
160.998 1051.47 2966.71
161.719 1050.87 2966.16
162.867 1050.52 2965.05
162.641 1050.41 2965.27
163.111 1050.72 2964.77
163.142 1050.4 2964.74
163.134 1050.22 2964.66
163.071 1050.03 2964.6
163.605 1049.62 2963.65
163.878 1048.7 2962.58
163.989 1048.98 2962.66
163.883 1048.4 2962.38
161.264 1052.44 2965.26
156.23 1040.23 2960.85
161.324 1047.12 2963.22
163.505 1047.37 2961.95
160.225 1047.21 2964.28
158.117 1043.91 2962.57
164.041 1047.67 2961.81
164.508 1047.92 2961.69
156.86 1040.49 2960.27
161.472 1052.44 2964.97
161.493 1052.57 2964.87
162.062 1052.63 2964.27
162.783 1052.46 2963.64
162.987 1052.43 2963.35
176.457 1072.72 2969.45
174.645 1069.15 2963.22
174.427 1069.39 2964.26
174.706 1068.54 2962.32
175.673 1071.56 2967.49
174.661 1070.03 2965.39
174.493 1069.63 2964.73
174.659 1068.28 2961.98
174.519 1067.98 2961.41
170.359 1060.38 2956.3
170.544 1060.04 2955.62
170.979 1059.83 2954.41
171.361 1059.51 2953.44
171.436 1059.37 2953.14
171.453 1059.04 2952.66
153.364 1036.21 2961.29
153.154 1035.68 2961.44
152.959 1035.4 2961.81
152.787 1034.94 2962.29
153.191 1035.04 2961.35
152.406 1034.8 2963.43
152.298 1034.36 2964.14
152.248 1034.15 2964.8
152.487 1033.39 2965.28
152.506 1033.45 2966.15
152.93 1033.19 2967.6
154.155 1032.3 2970.77
155.717 1038.71 2959.73
155.295 1037.86 2959.55
154.244 1036.96 2960.46
157.648 1033.06 2975.84
154.753 1031.86 2971.74
155.503 1031.57 2972.66
156.295 1031.61 2973.63
157.81 1032.42 2975.67
161.723 1038.52 2982.35
161.815 1039.17 2983.02
161.895 1038.83 2982.89
161.84 1038.44 2982.57
161.803 1037.13 2982.17
161.873 1035.65 2981.99
161.99 1035.37 2982.05
160.658 1034.22 2979.58
161.687 1034.2 2980.7
162.023 1034.57 2981.48
162.135 1034.96 2982.07
161.888 1039.11 2983.21
165.061 1026.32 3001.31
161.524 1025.17 2999.78
162.322 1025.36 3000.21
164.453 1026.71 2998.74
163.118 1026.46 2998.02
162.329 1026.75 2996.54
162.148 1026.89 2995.94
162.311 1026.42 2997.45
162.281 1027.03 2994.82
161.839 1027.16 2994.2
163.371 1026.96 2992.68
164.446 1026.67 2992.91
163.87 1026.83 2992.51
164.591 1026.59 2992.71
170.35 1025.86 2998.36
167.539 1025.97 2995.29
171.4 1025.87 2999.66
164.688 1026.5 2992.53
165.402 1025.93 2992.84
164.833 1026.28 2992.4
160.568 1028.66 2989.27
161.69 1028.15 2989.9
162.048 1027.29 2992.9
160.846 1027.12 2995.64
160.477 1026.97 2996.4
160.269 1029.23 2987.83
160.776 1028.95 2987.92
160.687 1029.46 2986.98
160.851 1029.08 2987.51
160.885 1029.25 2987.14
160.59 1026.73 2997.02
160.556 1025.85 2998.33
160.595 1026.5 2997.47
160.776 1025.8 2998.37
160.951 1025.13 2999.41
161.068 1025.74 2998.46
161.832 1025.69 2998.83
161.421 1025.7 2998.59
161.983 1037.62 2983.65
162.014 1038.5 2983.76
161.753 1036.7 2983.71
161.835 1036.63 2983.62
161.947 1036.64 2983.56
162.111 1038.44 2983.44
162.077 1038.47 2983.58
162.051 1038.75 2983.3
