217.632996 822.539978 2368.649902 
220.529999 824.146973 2365.969971 
219.220001 824.187988 2365.629883 
222.259995 821.320007 2357.879883 
218.871994 824.234985 2365.100098 
218.817993 824.234009 2365.489990 
218.731003 824.218994 2364.610107 
218.360001 824.250977 2364.330078 
218.753998 823.716003 2362.679932 
219.438004 823.393005 2362.260010 
221.794006 821.174988 2357.260010 
223.384995 820.447021 2355.879883 
226.660995 820.565979 2356.320068 
206.763000 833.223022 2374.590088 
206.457993 833.140015 2373.620117 
206.335999 833.263977 2373.669922 
205.908997 833.450989 2372.239990 
204.792999 833.963989 2369.169922 
203.705994 834.442993 2365.989990 
202.893005 834.921997 2363.939941 
202.539993 835.081970 2362.699951 
202.584000 834.994995 2362.320068 
203.082001 834.543030 2361.260010 
203.445007 833.835999 2358.500000 
204.921005 832.510010 2356.729980 
207.145004 832.005981 2362.530029 
208.462006 830.987976 2360.830078 
207.304993 830.955994 2357.290039 
209.516998 831.065979 2364.790039 
211.391998 829.905029 2370.520020 
212.789993 828.978027 2371.479980 
211.016998 830.750977 2368.219971 
211.395996 830.554016 2368.669922 
211.841003 830.302002 2369.030029 
211.602005 829.872986 2370.260010 
210.852005 830.807007 2366.739990 
212.423996 830.306030 2367.679932 
212.498001 830.284973 2367.919922 
211.100998 830.666016 2366.570068 
212.835007 830.127014 2368.199951 
213.789993 828.260986 2371.340088 
214.479996 827.848022 2371.149902 
214.647995 827.702026 2371.139893 
214.714005 827.697998 2371.040039 
214.763000 827.581970 2371.110107 
214.813004 827.468994 2371.149902 
215.261993 826.682007 2371.260010 
215.218994 826.817993 2371.300049 
215.345001 826.739990 2371.419922 
215.158997 826.940002 2371.239990 
215.084000 827.067993 2371.139893 
214.970001 827.193970 2371.189941 
214.882004 827.413025 2371.040039 
214.938004 827.291016 2371.070068 
215.315994 826.567017 2371.239990 
214.380005 822.341003 2368.760010 
213.533997 822.617981 2368.739990 
213.748993 822.505981 2368.649902 
213.311996 822.750000 2368.800049 
214.985992 822.208008 2368.550049 
214.406006 822.306030 2368.709961 
215.766006 822.218994 2368.330078 
215.117996 822.182983 2368.389893 
213.630997 823.622986 2369.939941 
213.283005 823.028992 2369.260010 
213.212997 823.447998 2369.570068 
213.238007 823.586975 2369.669922 
213.227997 823.223022 2369.389893 
215.281998 826.469971 2371.120117 
215.343994 826.237976 2371.159912 
215.472000 826.051025 2371.270020 
214.973999 824.770996 2370.889893 
213.162994 822.859009 2368.840088 
213.173996 822.940002 2368.989990 
210.768997 832.853027 2383.600098 
210.345993 832.739990 2382.909912 
209.789001 832.716980 2381.830078 
208.669998 832.840027 2379.360107 
207.410995 833.343018 2376.540039 
207.412994 833.245972 2376.489990 
206.612000 833.427002 2374.570068 
206.649002 833.333008 2374.540039 
219.718994 823.275024 2367.850098 
215.850998 822.271973 2368.149902 
219.955002 824.060974 2366.189941 
219.240997 824.200989 2365.850098 
218.787003 824.205017 2365.750000 
218.494003 824.322998 2365.020020 
218.589996 824.273010 2365.340088 
218.447998 824.249023 2365.639893 
218.145996 824.398010 2364.820068 
218.091995 824.372986 2364.379883 
218.419998 823.802002 2362.570068 
220.845993 821.357971 2356.830078 
221.246002 821.268982 2357.070068 
222.457001 820.461975 2355.560059 
223.544006 820.268982 2355.360107 
226.391998 820.396973 2355.820068 
206.199997 833.380981 2373.550049 
205.835007 833.614014 2372.510010 
205.927002 833.507019 2372.540039 
205.059998 833.929016 2370.229980 
204.166000 834.338989 2367.820068 
203.296997 834.723022 2365.370117 
202.764999 835.077026 2364.080078 
202.520004 835.202026 2363.100098 
201.188004 835.681030 2360.610107 
201.334000 835.601990 2360.780029 
201.365997 835.526978 2360.500000 
201.595993 835.383972 2360.570068 
202.080002 835.018005 2360.129883 
203.072006 834.447021 2360.520020 
201.167007 835.203003 2357.080078 
202.367996 834.190002 2355.649902 
203.498993 833.198975 2354.610107 
207.673004 830.286011 2354.729980 
208.811005 829.570984 2355.649902 
209.837006 829.796997 2359.620117 
209.626999 830.929016 2364.199951 
210.279999 829.992004 2361.600098 
211.464005 827.716003 2356.290039 
210.225006 830.724976 2365.399902 
212.858002 829.013000 2371.110107 
213.052002 829.994019 2368.600098 
212.391006 829.862000 2369.649902 
213.326004 829.783020 2369.030029 
212.837997 829.148987 2370.770020 
213.141998 829.989014 2367.830078 
213.182007 829.971985 2368.080078 
211.332001 830.578003 2366.550049 
213.261993 829.921021 2367.709961 
213.595993 829.749023 2368.530029 
213.460007 828.671997 2370.969971 
214.184998 828.138977 2371.000000 
214.518997 827.984985 2370.850098 
214.636002 827.833008 2370.919922 
214.791000 827.715027 2370.889893 
214.737000 827.838989 2370.780029 
214.819000 827.575012 2371.010010 
215.195999 826.828979 2371.169922 
215.173996 826.754028 2371.110107 
215.225006 826.624023 2371.120117 
215.147995 826.960022 2371.100098 
215.104996 827.046997 2370.979980 
215.029007 827.172974 2371.020020 
214.983994 827.307007 2370.909912 
214.932999 827.429016 2370.860107 
214.878006 827.520020 2370.909912 
213.770996 822.492004 2368.550049 
213.382004 822.655029 2368.560059 
213.173004 822.760010 2368.540039 
212.988007 822.872986 2368.510010 
214.507996 822.314026 2368.320068 
214.074997 822.460022 2368.350098 
214.968994 822.218994 2368.179932 
213.354004 823.747009 2369.770020 
213.005997 823.216980 2369.120117 
212.951004 823.086975 2368.870117 
213.097000 823.357971 2369.379883 
213.080994 823.518982 2369.489990 
213.095993 823.646973 2369.560059 
215.182007 826.489990 2371.000000 
215.214005 826.229004 2371.020020 
215.272995 826.026001 2371.080078 
215.283005 825.755981 2371.159912 
214.593002 824.789978 2370.659912 
212.875000 822.981995 2368.590088 
210.660995 832.927002 2383.409912 
210.056000 832.929016 2382.300049 
208.705994 833.007019 2379.479980 
208.509995 832.994019 2379.020020 
206.772995 833.632019 2375.110107 
206.522003 833.617981 2374.530029 
206.572006 833.518982 2374.570068 
206.128998 833.546021 2373.610107 
206.089005 833.635010 2373.620117 
206.156006 833.471008 2373.570068 
218.559006 823.085999 2367.649902 
215.733002 822.301025 2367.989990 
215.011002 822.270020 2368.010010 
219.541000 823.989014 2366.350098 
218.824997 824.096008 2366.080078 
218.429001 824.197021 2365.860107 
218.222000 824.375000 2365.370117 
218.076004 824.452026 2365.169922 
218.085999 824.369995 2365.580078 
217.944000 824.482971 2365.010010 
217.947006 824.439026 2364.709961 
217.834000 824.557007 2364.350098 
217.957993 824.419006 2364.149902 
218.078003 823.992004 2362.659912 
220.188995 821.752014 2357.060059 
221.373001 820.768982 2355.449951 
221.779999 820.603027 2355.429932 
222.738998 820.309998 2355.189941 
223.886993 820.174011 2355.020020 
226.539001 820.312988 2355.479980 
205.720001 833.760010 2372.379883 
204.951996 834.054993 2370.239990 
204.110992 834.437012 2367.939941 
203.177994 834.872986 2365.399902 
203.001007 834.914001 2364.949951 
202.692001 835.172974 2364.110107 
202.459000 835.328003 2363.229980 
201.533997 835.627991 2361.500000 
200.121994 836.132019 2358.520020 
199.664993 836.184998 2356.750000 
199.425995 836.375000 2356.580078 
199.817993 836.018005 2356.580078 
201.059998 835.448975 2358.850098 
200.162003 835.801025 2356.989990 
199.199997 836.114990 2354.750000 
200.598007 835.593018 2357.760010 
200.296997 835.445984 2354.689941 
199.785004 835.601990 2353.850098 
204.052002 832.794006 2354.239990 
208.459000 829.656982 2354.350098 
210.697998 828.018005 2354.889893 
210.796005 828.007019 2355.399902 
211.216995 828.604004 2358.899902 
211.602997 828.945984 2361.159912 
213.451996 828.091003 2361.729980 
213.751007 827.867981 2361.600098 
210.209000 830.286987 2362.800049 
210.014008 830.763977 2364.969971 
213.123993 826.312988 2355.760010 
213.835007 826.296997 2358.370117 
213.417007 826.304016 2356.889893 
211.481003 830.463013 2366.419922 
210.649002 830.520020 2365.370117 
210.334000 830.580017 2365.090088 
213.511002 829.747009 2368.850098 
213.684998 829.698975 2368.719971 
213.145996 829.447021 2369.949951 
213.699005 829.523010 2369.330078 
213.985001 829.406982 2369.120117 
213.554001 829.148987 2370.100098 
213.778000 829.653992 2368.129883 
213.940994 829.557007 2368.389893 
213.343994 829.815979 2367.550049 
213.921005 829.541016 2367.979980 
214.080002 829.461975 2368.620117 
214.098007 829.419983 2368.810059 
214.039993 829.489014 2368.659912 
214.050995 828.763977 2370.159912 
214.352005 828.531006 2370.169922 
214.608994 828.395020 2370.090088 
214.895004 828.135986 2370.060059 
214.869995 827.674988 2370.780029 
214.787994 828.258972 2370.060059 
215.130005 826.908020 2371.020020 
215.147003 826.723999 2371.050049 
215.113998 826.825989 2370.979980 
215.138000 826.679016 2370.989990 
215.106995 827.054993 2370.850098 
215.054993 827.177979 2370.879883 
215.104996 826.943970 2370.879883 
215.011993 827.286011 2370.750000 
214.977997 827.401978 2370.679932 
214.934006 827.554016 2370.689941 
213.529007 822.567993 2368.310059 
213.404999 822.625000 2368.389893 
213.128998 822.728027 2368.250000 
212.947998 822.827026 2368.260010 
212.768005 822.997986 2368.389893 
212.813004 822.927002 2368.280029 
214.369995 822.362976 2367.959961 
213.834000 822.466003 2368.199951 
213.343002 823.947998 2369.760010 
213.106003 823.773987 2369.580078 
212.737000 823.341980 2368.870117 
212.925995 823.442993 2369.209961 
212.679993 823.223999 2368.659912 
212.682007 823.101990 2368.479980 
212.957001 823.612000 2369.330078 
212.955994 823.752014 2369.399902 
215.072006 826.612000 2370.879883 
215.091003 826.299011 2370.909912 
215.123001 826.020020 2370.949951 
215.084000 825.752991 2370.989990 
214.279007 824.841980 2370.399902 
210.358002 833.218018 2382.639893 
210.156006 833.078979 2382.419922 
208.684006 833.104980 2379.429932 
208.820999 833.174988 2379.699951 
206.817001 833.713013 2375.209961 
206.792999 833.835999 2375.139893 
205.962006 833.844971 2373.500000 
205.619003 834.083008 2372.350098 
206.048996 833.737000 2373.629883 
205.649002 833.888000 2372.340088 
205.593994 833.992981 2372.250000 
218.246002 823.119995 2367.449951 
215.371002 822.335999 2367.879883 
214.673996 822.364990 2367.830078 
219.065002 823.952026 2366.399902 
218.382004 824.153015 2366.020020 
218.056000 824.294006 2365.780029 
218.220993 824.234009 2365.879883 
217.884003 824.494019 2365.340088 
217.856995 824.547974 2365.179932 
217.817993 824.479980 2365.489990 
217.936005 824.471008 2365.620117 
217.763000 824.617004 2365.080078 
217.740997 824.651001 2364.800049 
217.692001 824.695007 2364.949951 
217.720993 824.656006 2364.590088 
217.688004 824.596985 2363.989990 
217.639999 824.708984 2364.320068 
217.656998 824.356018 2363.080078 
218.089996 823.560974 2360.530029 
220.078995 821.682983 2356.280029 
220.927994 820.942017 2355.229980 
221.541000 820.666992 2355.050049 
222.057007 820.466003 2355.080078 
222.906006 820.263977 2354.959961 
224.011002 820.140015 2354.760010 
226.671005 820.257019 2355.189941 
204.462997 834.385010 2369.100098 
204.031006 834.544006 2367.850098 
203.123993 834.973022 2365.479980 
202.638000 835.255005 2364.139893 
202.410995 835.447998 2363.350098 
201.466003 835.770996 2361.689941 
201.462997 835.708984 2361.540039 
199.977997 836.271973 2358.479980 
199.227005 836.556030 2356.389893 
198.628998 836.666016 2355.040039 
198.867996 836.409973 2354.959961 
198.742996 836.534973 2355.000000 
199.009003 836.289978 2354.879883 
198.477005 836.434021 2354.010010 
198.457993 836.405029 2353.760010 
199.787994 835.591003 2353.629883 
204.429993 832.521973 2354.020020 
208.714996 829.474976 2354.100098 
210.856995 827.861023 2354.350098 
211.063995 827.687012 2354.610107 
213.199997 826.174011 2354.959961 
213.675003 827.632996 2360.929932 
213.815002 826.539978 2358.979980 
211.453995 829.083008 2361.439941 
212.220993 828.637024 2361.429932 
213.916000 827.979004 2362.270020 
215.214005 827.505005 2363.379883 
215.177002 827.520996 2363.189941 
215.317001 827.392029 2363.179932 
210.153000 830.406006 2363.000000 
211.143997 829.344971 2361.629883 
210.132996 830.679016 2364.719971 
215.505005 824.745972 2355.679932 
215.309006 825.064026 2357.620117 
214.682999 825.586975 2358.280029 
215.916000 825.291992 2361.159912 
216.276001 824.973999 2361.149902 
211.824005 830.252991 2366.409912 
210.731995 830.408020 2365.280029 
210.477997 830.427979 2364.909912 
210.328003 830.543030 2364.679932 
214.011002 829.473022 2368.870117 
214.093002 829.330994 2369.320068 
214.195999 829.336975 2369.070068 
214.227005 829.380005 2368.340088 
214.266998 829.356995 2368.560059 
214.188004 829.356018 2368.739990 
213.817001 829.484009 2367.610107 
213.951996 829.476990 2367.850098 
214.276001 829.309021 2368.250000 
214.326996 829.257996 2368.949951 
214.268997 829.164978 2369.360107 
214.496002 828.961975 2369.419922 
214.817993 828.752014 2369.250000 
214.731003 828.916992 2369.219971 
214.990997 828.010010 2370.080078 
214.778000 828.614990 2369.300049 
214.904999 828.633972 2369.159912 
214.959000 828.458984 2369.280029 
215.093994 826.809021 2370.870117 
215.072006 827.151001 2370.750000 
215.113007 827.015015 2370.729980 
215.104004 826.908997 2370.760010 
215.022995 827.344971 2370.550049 
215.059006 827.215027 2370.610107 
215.076004 827.809021 2370.000000 
215.046997 827.900024 2370.050049 
213.412003 822.598999 2368.070068 
213.229996 822.671997 2368.100098 
213.014999 822.770996 2368.040039 
212.852005 822.864990 2368.090088 
212.639999 823.054993 2368.260010 
212.703995 822.960999 2368.129883 
213.606003 822.534973 2368.050049 
214.037003 822.492004 2367.870117 
214.447998 822.388000 2367.820068 
213.238007 824.075012 2369.649902 
213.031998 823.937012 2369.459961 
212.776001 823.546997 2369.000000 
212.621002 823.484985 2368.790039 
212.569000 823.377014 2368.629883 
212.531006 823.171997 2368.340088 
212.507996 823.275024 2368.439941 
212.813995 823.749023 2369.120117 
212.828003 823.929993 2369.189941 
215.039993 826.650024 2370.770020 
215.084000 826.797974 2370.760010 
215.085007 826.744995 2370.830078 
214.970001 826.414001 2370.800049 
214.979996 826.137024 2370.830078 
214.867996 825.872986 2370.760010 
214.056000 824.960022 2370.179932 
209.128006 833.629028 2379.939941 
208.815002 833.309021 2379.610107 
208.841995 833.461975 2379.550049 
206.819000 833.968994 2375.149902 
205.595993 834.205994 2372.280029 
205.619003 834.328003 2372.320068 
204.330002 834.765015 2368.939941 
204.811005 834.421021 2370.179932 
204.475998 834.458984 2369.209961 
217.677994 823.080994 2367.320068 
215.229996 822.440979 2367.729980 
214.684006 822.445984 2367.689941 
214.138000 822.505981 2367.709961 
218.729004 823.932007 2366.379883 
218.244003 823.921021 2366.370117 
218.067001 824.187012 2366.060059 
218.164001 824.362976 2365.810059 
217.725006 824.588013 2365.229980 
217.667999 824.573975 2365.360107 
217.649002 824.504028 2365.530029 
217.794006 824.476990 2365.739990 
217.468994 824.567017 2365.639893 
217.623001 824.685974 2365.080078 
217.556000 824.806030 2364.620117 
217.587997 824.783997 2364.800049 
217.533997 824.807983 2364.959961 
217.457993 824.739014 2363.659912 
217.492996 824.838013 2364.090088 
217.251999 824.616028 2362.800049 
217.453003 824.892029 2364.399902 
217.248993 824.098022 2359.820068 
218.449005 822.836975 2356.389893 
220.987000 820.918030 2354.939941 
218.848007 822.414978 2354.760010 
218.806000 822.463989 2355.020020 
221.720993 820.614014 2354.719971 
222.294998 820.393982 2354.780029 
223.102997 820.218018 2354.699951 
224.160004 820.114990 2354.530029 
226.753006 820.213989 2354.790039 
226.712006 820.223999 2354.979980 
203.197006 835.099976 2365.889893 
203.132004 835.046997 2365.639893 
202.860992 835.129028 2364.969971 
202.626007 835.327026 2364.179932 
202.389999 835.546997 2363.449951 
201.473999 835.828979 2361.800049 
199.796997 836.414001 2358.189941 
198.513000 836.784973 2355.010010 
198.123993 836.734009 2354.090088 
198.007996 836.874023 2354.060059 
198.283997 836.591003 2354.050049 
198.093994 836.679993 2353.800049 
198.412994 836.450012 2353.580078 
198.018005 836.721008 2353.610107 
201.602997 834.453003 2353.580078 
205.056000 832.088013 2353.909912 
209.070999 829.239014 2353.939941 
211.026993 827.752014 2354.169922 
212.561996 826.643982 2354.629883 
211.703003 827.156982 2354.379883 
213.787003 825.781006 2354.830078 
214.522995 825.176025 2354.669922 
215.666000 824.549011 2354.850098 
214.369995 827.219971 2361.260010 
214.983002 825.986023 2360.320068 
211.636002 828.979980 2361.639893 
212.223999 828.632019 2361.649902 
212.904007 828.346985 2361.739990 
214.035995 827.945007 2362.439941 
215.020996 827.606995 2363.500000 
215.636993 827.213013 2363.590088 
215.496994 827.330994 2363.800049 
215.660995 827.234009 2363.780029 
215.587997 827.156006 2363.209961 
215.800995 827.034973 2363.530029 
210.257004 830.299011 2362.729980 
210.126007 830.643982 2364.219971 
210.910004 829.630005 2361.949951 
211.436005 829.109985 2361.790039 
211.134995 829.288025 2361.889893 
215.710007 825.523987 2361.270020 
216.750000 824.992004 2362.570068 
212.082001 830.038025 2366.389893 
210.970001 830.244019 2365.399902 
210.681000 830.304016 2365.110107 
210.477005 830.400024 2364.639893 
210.511993 830.286011 2364.850098 
214.494995 829.114990 2369.149902 
214.520996 829.158020 2368.600098 
214.348007 829.250000 2368.709961 
214.425003 829.176025 2368.860107 
213.761993 829.400024 2367.419922 
213.968994 829.364014 2367.669922 
214.151001 829.268982 2367.840088 
214.233994 829.276978 2368.060059 
214.623993 829.028992 2368.459961 
214.699997 829.021973 2369.020020 
214.886002 828.828003 2369.070068 
215.100006 828.309998 2369.360107 
215.041000 828.596985 2369.010010 
214.901993 828.778992 2368.969971 
215.095993 828.463013 2369.080078 
215.104996 827.096985 2370.600098 
215.104996 826.969971 2370.629883 
215.080994 826.867981 2370.649902 
215.059998 827.335999 2370.439941 
215.098999 827.716003 2369.959961 
215.093994 827.236023 2370.439941 
215.143005 828.231995 2369.260010 
215.156006 828.120972 2369.280029 
213.285995 822.668030 2367.870117 
213.184998 822.702026 2367.929932 
213.014999 822.780029 2367.899902 
212.837997 822.851990 2367.919922 
212.664993 822.942993 2367.949951 
212.567001 823.044006 2368.060059 
212.513000 823.133972 2368.179932 
213.134995 822.463989 2368.050049 
213.139999 824.164001 2369.530029 
212.901001 824.083984 2369.239990 
212.675003 823.630981 2368.899902 
212.542999 823.603027 2368.699951 
212.487000 823.471008 2368.550049 
212.449005 823.354980 2368.389893 
212.462997 823.239990 2368.239990 
212.675003 823.796997 2368.939941 
212.699005 824.002991 2368.969971 
215.003998 826.612000 2370.669922 
215.059006 826.755005 2370.699951 
214.843994 826.198975 2370.689941 
214.923996 826.414001 2370.659912 
214.639008 825.953979 2370.489990 
213.925995 825.083984 2370.020020 
209.175995 833.856995 2379.770020 
207.207001 834.518982 2375.449951 
206.988998 834.320984 2375.250000 
206.850998 834.135986 2375.129883 
205.632996 834.479980 2372.300049 
204.395996 834.853027 2369.110107 
204.488998 834.955994 2369.310059 
204.035004 834.780029 2368.080078 
203.203003 835.270020 2366.030029 
203.186005 835.393005 2366.030029 
203.134003 835.208984 2365.830078 
217.117004 823.059998 2367.229980 
214.891006 822.536011 2367.590088 
214.322006 822.552979 2367.560059 
213.468002 822.585022 2367.760010 
216.703995 823.098999 2367.139893 
217.968002 823.947021 2366.350098 
217.798996 824.190002 2366.120117 
217.835999 824.315002 2365.949951 
217.576996 824.655029 2365.209961 
217.513000 824.640991 2365.340088 
217.417999 824.671997 2365.409912 
217.347000 824.671021 2365.510010 
217.307999 824.554993 2365.770020 
217.574997 824.396973 2365.929932 
217.268005 824.622986 2365.659912 
217.473999 824.780029 2365.090088 
217.386993 824.963013 2364.629883 
217.429993 824.921997 2364.790039 
217.393997 824.913025 2364.959961 
217.332993 824.945984 2363.709961 
217.352005 825.018005 2364.139893 
217.324005 825.049011 2364.439941 
218.796005 822.453979 2354.570068 
221.145004 820.869995 2354.699951 
215.647995 824.539001 2354.590088 
221.906998 820.606018 2354.399902 
222.503998 820.369019 2354.459961 
223.324005 820.203979 2354.469971 
226.718994 820.215027 2354.600098 
224.483002 820.129028 2354.350098 
202.768997 835.250977 2364.870117 
202.632996 835.437012 2364.300049 
202.539993 835.539001 2363.750000 
202.363998 835.653992 2363.500000 
201.492004 835.893005 2361.929932 
199.802002 836.486023 2358.340088 
198.464996 836.890015 2355.070068 
197.863007 837.067017 2353.979980 
197.841003 836.965027 2353.770020 
197.899002 836.869019 2353.770020 
197.768005 837.088013 2353.770020 
197.824997 836.893982 2353.570068 
198.315994 836.526978 2353.429932 
197.998001 836.726990 2353.459961 
199.386002 835.862000 2353.389893 
197.845993 836.864990 2353.429932 
202.617004 833.823975 2353.489990 
205.309006 831.921021 2353.750000 
209.154999 829.200012 2353.790039 
211.108002 827.710022 2354.030029 
212.498001 826.693970 2354.360107 
213.292007 826.119995 2354.250000 
213.912994 825.671021 2354.550049 
214.893005 826.883972 2361.560059 
216.087006 825.510010 2362.070068 
211.878998 828.815002 2361.830078 
212.304001 828.594971 2361.889893 
212.843994 828.380005 2361.919922 
213.908005 827.997009 2362.820068 
213.994995 827.966003 2362.610107 
214.834000 827.702026 2363.449951 
215.069000 827.560974 2363.850098 
215.569000 827.273010 2364.030029 
215.960999 827.065979 2364.020020 
216.147995 826.882019 2364.010010 
215.945999 827.054016 2364.199951 
215.873993 826.875977 2363.290039 
216.093994 826.786011 2363.659912 
210.177002 830.419006 2363.010010 
210.181000 830.583984 2363.800049 
210.264999 830.437012 2364.330078 
211.050003 829.476990 2362.050049 
210.569000 830.036011 2362.530029 
211.623993 828.997986 2361.939941 
211.268005 829.184998 2362.060059 
212.317001 829.768005 2366.340088 
210.774002 830.109985 2365.100098 
211.085999 830.005981 2365.350098 
210.490005 830.257019 2364.629883 
210.556000 830.145996 2364.860107 
214.501007 829.101990 2368.770020 
214.679993 828.971008 2368.709961 
214.690994 828.979980 2368.919922 
213.753998 829.197021 2367.209961 
214.063004 829.219971 2367.610107 
214.380005 829.012024 2367.810059 
214.554993 829.002991 2368.179932 
214.720001 828.921021 2368.600098 
215.110001 828.390991 2369.050049 
214.912003 828.721008 2368.889893 
215.054001 828.567017 2368.899902 
214.697998 828.922974 2368.840088 
215.110992 827.085022 2370.489990 
215.089005 826.966980 2370.510010 
215.052002 826.796997 2370.600098 
215.123993 827.635986 2369.899902 
215.167999 828.002991 2369.300049 
215.136993 827.585022 2369.820068 
215.095001 827.236023 2370.340088 
215.112000 828.283997 2369.000000 
215.132996 828.140991 2369.060059 
213.235001 822.650024 2367.760010 
213.197006 822.752991 2367.729980 
213.121994 822.765015 2367.810059 
212.925995 822.843994 2367.800049 
212.738007 822.913025 2367.810059 
212.554993 822.989014 2367.810059 
212.503998 823.056030 2367.919922 
212.475006 823.155029 2368.070068 
213.041000 824.254028 2369.379883 
212.779007 824.169983 2369.030029 
212.567993 823.784973 2368.750000 
212.421005 823.572998 2368.469971 
212.464996 823.708008 2368.560059 
212.389999 823.442993 2368.340088 
212.419006 823.333008 2368.239990 
212.429993 823.260986 2368.100098 
212.675995 824.077026 2368.899902 
212.524002 823.877991 2368.679932 
215.020996 826.770996 2370.489990 
214.942001 826.596985 2370.489990 
214.796997 826.328003 2370.469971 
214.570007 826.013000 2370.379883 
213.878006 825.197998 2369.899902 
208.725006 834.377014 2378.310059 
206.050003 835.231018 2372.320068 
205.285004 835.070007 2371.050049 
205.358002 835.254028 2370.969971 
205.225998 834.895020 2371.090088 
204.317993 835.221985 2368.780029 
203.225006 835.518005 2366.120117 
203.268997 835.655029 2366.189941 
202.632004 835.669983 2364.469971 
202.634003 835.538025 2364.399902 
202.645996 835.809998 2364.520020 
214.712006 822.629028 2367.479980 
213.710007 822.703003 2367.530029 
214.151001 822.687988 2367.459961 
213.324005 822.752014 2367.600098 
216.330002 823.179993 2367.030029 
217.626999 823.981018 2366.330078 
217.427002 824.226013 2366.110107 
217.453995 824.737976 2365.229980 
217.380005 824.775024 2365.350098 
217.309998 824.776978 2365.449951 
217.240005 824.771973 2365.560059 
217.194000 824.481018 2365.899902 
217.089996 824.695984 2365.760010 
217.035004 824.619019 2365.840088 
217.134003 824.830017 2365.629883 
217.028000 824.831970 2365.729980 
217.378998 824.880981 2365.110107 
217.339996 825.070007 2364.729980 
217.328995 825.107971 2364.590088 
217.337006 825.039001 2364.889893 
217.319000 825.007019 2365.030029 
217.123001 825.254028 2363.879883 
217.261002 825.208984 2364.310059 
217.171005 825.320007 2364.169922 
218.776993 822.487000 2354.429932 
215.641006 824.565979 2354.379883 
221.190002 820.903015 2354.489990 
214.606003 825.119995 2354.340088 
222.110001 820.583984 2354.169922 
222.729004 820.343994 2354.250000 
223.645004 820.187988 2354.290039 
226.802994 820.241028 2354.429932 
224.587006 820.172974 2354.199951 
202.406998 835.724976 2363.620117 
201.518005 835.955017 2362.050049 
199.804993 836.552002 2358.469971 
198.378006 837.005005 2355.030029 
197.772003 837.187988 2353.979980 
197.664993 837.203979 2353.669922 
197.712006 837.078003 2353.570068 
197.744995 837.010010 2353.510010 
197.653000 837.163025 2353.520020 
197.768997 836.966003 2353.399902 
197.994995 836.763000 2353.300049 
198.264999 836.585022 2353.280029 
199.524002 835.809021 2353.250000 
197.889008 836.853027 2353.300049 
197.811005 836.963013 2353.270020 
202.699997 833.804016 2353.330078 
205.373001 831.914001 2353.610107 
209.145004 829.247986 2353.649902 
211.246002 827.625977 2353.919922 
212.578995 826.671021 2354.080078 
213.735001 825.825989 2354.419922 
213.735992 825.836975 2354.219971 
214.522003 825.234985 2354.120117 
215.255997 826.698975 2361.939941 
216.253998 825.614990 2362.649902 
211.968002 828.773987 2362.070068 
212.746994 828.390991 2362.179932 
212.334000 828.562988 2362.100098 
213.811005 827.981018 2363.520020 
214.789001 827.713989 2363.780029 
215.649994 827.200012 2364.300049 
214.751999 827.627991 2364.610107 
215.945007 827.010010 2364.360107 
216.227005 826.909973 2364.320068 
216.307999 826.843018 2364.510010 
216.436996 826.625000 2364.189941 
216.365005 826.796997 2364.370117 
216.535004 826.601013 2364.429932 
216.343002 826.796021 2364.679932 
216.085007 826.596008 2363.350098 
216.404007 826.458008 2363.860107 
210.233002 830.463013 2363.330078 
210.216995 830.491028 2363.790039 
210.339996 830.294006 2364.280029 
210.959000 829.616028 2362.260010 
211.145996 829.359985 2362.199951 
210.656006 830.005005 2362.590088 
210.287994 830.317993 2362.979980 
211.654007 828.992981 2362.110107 
211.375000 829.155029 2362.189941 
212.408005 829.104980 2365.929932 
211.352997 829.377991 2365.199951 
210.770004 829.661011 2364.760010 
210.992996 829.533997 2364.929932 
210.464005 830.133972 2364.419922 
210.501999 830.122009 2364.639893 
210.639999 829.708008 2364.580078 
214.804993 828.804993 2368.780029 
213.597000 828.838013 2366.709961 
213.925003 828.723999 2366.909912 
214.108002 828.645020 2367.110107 
214.264008 828.557007 2367.239990 
214.582993 828.883972 2368.129883 
214.559006 828.778015 2367.939941 
214.731995 828.882996 2368.479980 
214.852005 828.757996 2368.689941 
215.091995 828.442993 2368.919922 
215.016998 828.591980 2368.830078 
215.100006 827.155029 2370.330078 
215.072998 826.939026 2370.419922 
215.098999 827.090027 2370.300049 
215.164001 827.984985 2369.149902 
215.136993 827.528992 2369.729980 
215.175003 827.903015 2369.169922 
215.089996 828.427979 2368.879883 
215.095001 828.271973 2368.850098 
215.085007 828.401001 2368.830078 
215.113007 828.148987 2368.879883 
213.425995 822.893982 2367.510010 
213.029007 822.874023 2367.620117 
213.005997 822.843994 2367.709961 
212.768997 822.940979 2367.699951 
212.522003 823.033997 2367.709961 
212.449005 823.101013 2367.800049 
212.445999 823.172974 2367.959961 
212.921997 824.322998 2369.179932 
212.729004 824.213989 2368.919922 
212.393997 823.700012 2368.370117 
212.343994 823.539001 2368.280029 
212.436005 823.827026 2368.479980 
212.373993 823.396973 2368.179932 
212.373993 823.330994 2368.020020 
212.544998 824.012024 2368.669922 
214.929993 826.747009 2370.250000 
215.009003 826.909973 2370.229980 
214.776993 826.487000 2370.250000 
214.520996 826.098022 2370.219971 
213.824997 825.283997 2369.760010 
206.440002 835.591003 2372.520020 
204.080002 836.659973 2366.709961 
203.901993 836.284973 2366.850098 
203.380997 836.250977 2365.879883 
203.240997 836.096008 2365.760010 
203.110001 836.007996 2365.570068 
202.738998 836.083008 2364.679932 
202.682007 835.945984 2364.590088 
202.397003 835.942017 2363.679932 
202.404007 835.820007 2363.659912 
202.419998 836.088989 2363.739990 
214.524002 822.734009 2367.389893 
213.477997 822.841003 2367.439941 
213.834000 822.846008 2367.360107 
213.222000 822.864014 2367.489990 
213.098007 822.895996 2367.520020 
216.039993 823.289001 2366.929932 
217.194000 824.015015 2366.320068 
217.093994 824.294983 2366.090088 
217.378998 824.841980 2365.250000 
217.300003 824.916016 2365.320068 
217.268005 824.879028 2365.409912 
217.205002 824.870972 2365.520020 
216.917007 824.502014 2365.989990 
216.917007 824.760010 2365.860107 
217.119003 824.966003 2365.580078 
217.020004 824.994019 2365.659912 
216.923004 824.997986 2365.750000 
217.311005 824.966003 2365.179932 
217.317001 825.224976 2364.679932 
217.322998 825.174988 2364.840088 
217.272003 825.276001 2364.489990 
217.309006 825.138977 2365.000000 
217.281006 825.120972 2365.139893 
216.662994 825.908020 2363.830078 
216.848999 825.872009 2364.219971 
216.929001 825.848999 2364.429932 
218.606003 822.645996 2354.290039 
215.746994 824.528992 2354.199951 
218.768997 822.577026 2354.209961 
221.345993 820.913025 2354.300049 
221.714005 820.828003 2354.100098 
222.408997 820.505981 2354.050049 
222.994995 820.328979 2354.129883 
223.931000 820.226013 2354.090088 
226.619995 820.304016 2354.250000 
223.404007 821.017029 2353.530029 
223.455994 821.370972 2353.429932 
222.197998 822.614990 2353.300049 
222.074997 822.192993 2353.379883 
223.899002 820.687012 2353.620117 
226.612000 820.382019 2354.110107 
224.016998 820.390991 2353.820068 
224.057007 820.504028 2353.719971 
224.048996 820.299011 2353.939941 
201.477997 836.039978 2362.030029 
199.779007 836.632019 2358.479980 
198.335999 837.101990 2355.070068 
197.733002 837.237976 2354.020020 
197.617004 837.244019 2353.699951 
197.597000 837.234985 2353.500000 
197.660995 837.114014 2353.350098 
197.729996 837.047974 2353.290039 
197.591995 837.205017 2353.350098 
198.080994 836.767029 2353.169922 
197.962006 836.880981 2353.129883 
198.281998 836.624023 2353.129883 
199.570999 835.818970 2353.139893 
197.865997 836.943970 2353.159912 
197.770996 837.052979 2353.159912 
202.697998 833.838989 2353.199951 
205.298996 832.023010 2353.500000 
205.432999 831.981995 2353.399902 
209.194000 829.273010 2353.550049 
211.352005 827.586975 2353.820068 
212.600006 826.697021 2353.959961 
213.746994 825.856018 2354.080078 
214.591003 825.244995 2354.000000 
215.947998 826.208008 2362.709961 
212.106995 828.684021 2362.179932 
211.897995 828.859009 2362.239990 
212.237000 828.338013 2362.830078 
212.419006 828.265991 2363.000000 
211.972000 828.440002 2362.709961 
212.695999 828.156006 2363.459961 
214.595001 827.729980 2364.399902 
212.647995 828.114014 2364.040039 
213.664001 827.903992 2364.709961 
214.238007 827.762024 2364.879883 
215.022003 827.466003 2364.810059 
215.817001 827.080017 2364.530029 
216.143005 826.890015 2364.659912 
214.352005 827.716980 2365.219971 
214.528000 827.666992 2365.370117 
216.494995 826.671021 2364.550049 
216.505005 826.637024 2364.689941 
216.643005 826.431030 2364.389893 
216.636993 826.362000 2364.270020 
216.630997 826.458008 2364.500000 
216.414993 826.715027 2364.830078 
210.279999 830.435974 2363.370117 
210.255997 830.367981 2363.919922 
210.259003 830.442017 2363.590088 
210.384003 830.179993 2364.159912 
211.014999 829.500000 2362.350098 
211.186996 829.320984 2362.290039 
210.807999 829.703979 2362.530029 
210.533005 830.187012 2362.760010 
210.304993 830.284973 2363.070068 
211.554001 828.945984 2362.270020 
211.345001 829.075989 2362.330078 
212.257004 828.663025 2365.389893 
211.244995 828.840027 2364.719971 
213.457001 828.427979 2366.270020 
213.735992 828.306030 2366.389893 
211.059006 828.995972 2364.659912 
210.682007 829.093994 2364.330078 
210.832001 829.028992 2364.439941 
210.542999 829.599976 2364.330078 
210.460007 829.604980 2364.159912 
210.587006 829.088013 2364.179932 
213.951004 828.190979 2366.510010 
213.770004 828.169983 2366.340088 
214.406998 828.357971 2367.300049 
214.113998 828.125977 2366.669922 
214.733994 828.773010 2368.300049 
214.746994 828.612976 2368.080078 
214.893005 828.706970 2368.590088 
215.042999 828.544983 2368.760010 
215.126999 827.469971 2369.639893 
215.065994 827.070984 2370.120117 
215.132996 828.057007 2368.909912 
215.162994 827.921021 2369.050049 
215.065994 828.255981 2368.669922 
215.061005 828.375000 2368.679932 
215.018997 828.517029 2368.620117 
215.098007 828.138000 2368.709961 
212.843002 822.995972 2367.520020 
212.783005 822.978027 2367.600098 
212.505005 823.080017 2367.610107 
212.367996 823.132996 2367.699951 
212.397003 823.232971 2367.879883 
212.384003 823.221008 2367.770020 
212.916000 824.414001 2369.090088 
212.660004 824.216003 2368.790039 
212.363998 823.750000 2368.260010 
212.414993 823.880005 2368.320068 
212.414993 823.810974 2368.389893 
212.302002 823.599976 2368.199951 
212.317993 823.473022 2368.110107 
212.451004 823.958008 2368.449951 
212.335999 823.346008 2367.879883 
212.298004 823.453979 2367.979980 
212.488998 824.023987 2368.520020 
214.936005 826.882996 2369.989990 
214.813995 826.684021 2369.969971 
215.029999 827.288025 2369.389893 
214.559998 826.293030 2369.959961 
213.776993 825.375977 2369.590088 
204.716995 837.031982 2367.260010 
201.524994 837.653015 2360.780029 
201.074997 837.421021 2360.320068 
202.035004 837.002991 2362.639893 
201.828003 836.846985 2362.429932 
201.750000 836.705994 2362.399902 
201.710007 836.572998 2362.409912 
202.440002 836.242981 2363.780029 
201.595001 836.481995 2362.250000 
201.503998 836.296021 2362.139893 
201.494003 836.117981 2362.090088 
201.477997 836.210999 2362.080078 
201.546997 836.385986 2362.189941 
214.292007 822.851990 2367.320068 
213.358994 822.948975 2367.350098 
213.591003 823.002014 2367.260010 
213.179001 822.981995 2367.370117 
213.059998 822.960022 2367.429932 
212.858994 823.052979 2367.429932 
215.759995 823.390991 2366.870117 
216.770996 824.068970 2366.340088 
216.660995 824.226990 2366.260010 
217.268005 825.043030 2365.260010 
217.251007 824.997986 2365.379883 
217.209000 824.965027 2365.479980 
216.645004 824.484009 2366.129883 
216.641006 824.783020 2366.000000 
216.731003 824.987000 2365.860107 
217.199997 825.068970 2365.530029 
217.048996 825.138977 2365.600098 
216.714996 825.492004 2365.689941 
216.559006 825.494019 2365.780029 
216.975998 825.789001 2364.590088 
217.013000 825.739014 2364.750000 
217.054993 825.682983 2364.909912 
217.041000 825.669983 2365.050049 
217.013000 825.656006 2365.149902 
217.033997 825.612976 2365.219971 
216.733002 826.304016 2364.479980 
215.796005 824.546997 2354.030029 
218.837006 822.593018 2354.110107 
221.779999 820.870972 2353.969971 
218.921997 822.617981 2354.010010 
222.455994 820.556030 2353.939941 
223.119995 820.421997 2353.969971 
222.822998 820.898987 2353.620117 
221.669006 821.890991 2353.500000 
221.729004 821.572021 2353.590088 
216.748001 825.702026 2353.139893 
218.988007 824.887024 2353.110107 
217.203003 824.963989 2353.270020 
223.063004 820.715027 2353.659912 
223.100998 820.567993 2353.800049 
199.856003 836.666992 2358.699951 
198.315994 837.200012 2355.120117 
197.656006 837.288025 2353.939941 
197.606003 837.333008 2353.729980 
197.587997 837.322021 2353.530029 
197.552002 837.302979 2353.360107 
197.679993 837.135010 2353.209961 
197.585999 837.226013 2353.260010 
198.160004 836.812988 2353.000000 
198.024994 836.931030 2352.989990 
197.903000 837.036987 2352.979980 
197.826996 837.031982 2353.070068 
198.384995 836.661011 2352.949951 
199.751999 835.750000 2353.040039 
197.694000 837.155029 2353.120117 
203.018997 833.687012 2353.100098 
205.651001 831.892029 2353.310059 
210.363998 828.476990 2353.550049 
211.440994 827.583008 2353.719971 
212.612000 826.747986 2353.840088 
213.787003 825.880005 2353.979980 
214.632004 825.281982 2353.899902 
211.701004 828.588013 2362.639893 
211.468002 828.697021 2362.649902 
211.302002 828.400024 2363.360107 
211.509003 828.312012 2363.510010 
211.628006 828.286011 2363.659912 
211.169998 828.497986 2363.209961 
212.496994 828.158997 2364.330078 
211.490997 828.322021 2363.750000 
213.985001 827.827026 2365.090088 
213.563995 827.950989 2364.929932 
215.278000 827.286987 2364.909912 
214.710999 827.570984 2365.360107 
216.203003 826.836975 2364.830078 
214.354996 827.685974 2365.469971 
214.039993 827.843994 2365.409912 
214.514008 827.651978 2365.570068 
214.416000 827.672974 2365.600098 
216.634995 826.463989 2364.610107 
216.565002 826.567993 2364.830078 
216.677002 826.435974 2364.760010 
216.781006 826.260986 2364.620117 
216.404999 826.679016 2364.939941 
210.281998 830.291016 2363.290039 
210.272995 830.234985 2363.830078 
210.302994 830.314026 2363.449951 
210.235992 830.190002 2363.610107 
210.369995 829.622009 2363.979980 
211.052994 829.359985 2362.419922 
210.880005 829.458984 2362.500000 
211.201996 829.205017 2362.389893 
210.621994 830.075012 2362.760010 
210.716995 829.599976 2362.649902 
210.347000 830.219971 2363.080078 
211.210999 828.754028 2362.669922 
211.078995 828.835022 2362.689941 
212.223999 828.513000 2365.159912 
211.227997 828.734985 2364.590088 
213.406006 828.348022 2366.090088 
211.039001 828.875000 2364.540039 
213.615997 828.142029 2366.179932 
210.725998 828.875977 2364.199951 
210.621002 828.906982 2364.070068 
210.845993 828.768982 2364.189941 
210.505997 829.049988 2364.020020 
210.421005 829.106995 2363.899902 
213.817001 828.132996 2366.219971 
214.141998 827.981018 2366.260010 
214.181000 828.039001 2366.479980 
213.699997 828.117981 2366.159912 
214.544006 828.182007 2367.389893 
214.279007 828.026001 2366.800049 
214.281006 827.976990 2366.570068 
214.873001 828.653992 2368.429932 
214.914001 828.528015 2368.340088 
215.098999 827.372009 2369.560059 
215.117004 827.750000 2368.909912 
215.156998 827.903992 2368.959961 
215.132996 828.017029 2368.790039 
214.998001 828.403015 2368.479980 
215.018005 828.258972 2368.459961 
215.070999 828.130981 2368.580078 
212.686996 823.184998 2367.399902 
212.561996 823.103027 2367.510010 
212.281006 823.176025 2367.530029 
212.263000 823.179016 2367.610107 
212.330002 823.250977 2367.669922 
212.317001 823.348999 2367.770020 
212.889999 824.517029 2368.929932 
212.557999 824.166992 2368.560059 
212.300995 823.737000 2368.149902 
212.369995 823.864014 2368.219971 
212.432007 824.026001 2368.330078 
212.399994 823.966980 2368.239990 
212.251007 823.593994 2368.070068 
212.464996 824.054993 2368.409912 
212.272995 823.458008 2367.860107 
212.233002 823.559021 2367.939941 
214.837006 827.116028 2368.810059 
214.621994 826.539001 2369.649902 
214.800995 826.963989 2369.080078 
214.848007 827.471985 2368.110107 
214.835999 827.353027 2368.199951 
213.794006 825.528015 2369.399902 
202.733002 837.982971 2362.340088 
200.016006 838.541992 2356.879883 
199.203003 838.353027 2355.830078 
200.192001 837.398010 2358.709961 
198.729996 838.148987 2355.260010 
200.274002 837.127014 2359.179932 
200.190002 836.971008 2359.209961 
200.145004 836.836975 2359.250000 
200.138000 836.716003 2359.320068 
200.037003 836.666992 2359.120117 
214.108002 823.005981 2367.219971 
213.335007 823.052979 2367.280029 
213.783005 823.172974 2367.149902 
212.940002 823.099976 2367.370117 
213.136993 823.104004 2367.320068 
212.714005 823.223022 2367.360107 
215.481995 823.497986 2366.830078 
215.063004 823.752014 2366.729980 
215.212006 823.598022 2366.790039 
217.039993 825.564026 2365.320068 
217.294998 825.062988 2365.439941 
216.354004 824.676025 2366.139893 
216.188004 825.291992 2366.010010 
216.087997 825.672974 2365.939941 
216.983002 825.521973 2365.489990 
216.865005 825.518982 2365.570068 
216.587006 825.864014 2365.620117 
215.843994 826.247986 2365.790039 
216.417999 826.075989 2365.590088 
215.929001 826.130981 2365.850098 
216.811005 826.252014 2364.770020 
216.835999 826.229004 2364.919922 
216.804001 826.213013 2365.070068 
216.740997 826.244995 2365.189941 
215.839996 824.596008 2353.889893 
218.908005 822.728027 2353.909912 
221.209000 821.320984 2353.889893 
222.429001 820.655029 2353.820068 
215.947998 824.620972 2353.790039 
222.404999 820.812988 2353.719971 
221.449005 821.494995 2353.689941 
216.675003 824.974976 2353.360107 
216.677994 824.703003 2353.469971 
214.828995 827.614014 2352.919922 
212.184006 828.405029 2353.000000 
210.227997 830.205017 2352.820068 
198.380005 837.273010 2355.310059 
197.710007 837.390015 2353.979980 
197.582001 837.429993 2353.560059 
197.643997 837.458008 2353.760010 
197.533997 837.393982 2353.419922 
197.531006 837.333008 2353.290039 
197.595001 837.229980 2353.189941 
198.074997 837.010986 2352.830078 
198.238998 836.877014 2352.820068 
197.949997 837.080994 2352.879883 
197.819000 837.182983 2352.909912 
197.778000 837.133972 2353.020020 
198.632996 836.728027 2352.719971 
200.302994 835.463013 2352.959961 
200.248001 835.583008 2352.860107 
197.692993 837.247009 2353.000000 
197.613007 837.281006 2353.090088 
203.994995 833.111023 2353.070068 
208.975006 829.556030 2353.399902 
213.139999 826.543030 2353.649902 
213.460999 826.224976 2353.760010 
213.824005 825.924011 2353.879883 
211.014008 828.575989 2363.199951 
210.934998 828.609985 2363.159912 
210.966995 828.500000 2363.389893 
211.149002 828.424011 2363.500000 
211.380005 828.348022 2363.610107 
212.423004 828.197998 2364.560059 
211.397003 828.354004 2363.860107 
211.279007 828.385010 2363.709961 
213.727997 827.934998 2365.239990 
216.141006 826.840027 2364.919922 
215.427994 827.150024 2364.959961 
214.884995 827.372009 2365.280029 
214.695999 827.525024 2365.439941 
214.251999 827.708008 2365.689941 
214.132004 827.784973 2365.629883 
213.910004 827.914978 2365.669922 
213.636002 827.999023 2365.459961 
213.729996 827.978027 2365.570068 
214.431000 827.642029 2365.699951 
214.537003 827.570984 2365.639893 
214.292999 827.682007 2365.790039 
216.578995 826.526978 2364.959961 
216.735992 826.375000 2364.929932 
216.356995 826.659973 2365.040039 
210.287003 830.127991 2363.270020 
210.296997 829.601990 2363.790039 
210.255997 830.078003 2363.469971 
210.264999 829.601013 2363.649902 
210.345993 829.119995 2363.760010 
210.830994 829.129028 2362.760010 
210.975998 828.979004 2362.699951 
210.677002 829.185974 2362.870117 
210.582001 829.890015 2362.850098 
210.410995 830.148987 2363.060059 
210.552994 829.247986 2362.979980 
210.862000 828.651978 2363.110107 
210.794998 828.737000 2363.040039 
212.218002 828.416016 2365.030029 
211.257996 828.630981 2364.479980 
213.332993 828.338013 2365.929932 
210.988007 828.645020 2364.199951 
213.580994 828.197021 2366.060059 
210.820999 828.684021 2364.090088 
210.684998 828.770996 2364.020020 
210.587997 828.838013 2363.899902 
210.518005 828.952026 2363.919922 
210.406998 829.018005 2363.800049 
213.723999 828.130981 2366.070068 
214.003006 827.999023 2366.060059 
214.401993 827.857971 2366.379883 
214.440002 827.809021 2366.139893 
214.416000 827.913025 2366.870117 
214.653000 828.106995 2367.550049 
214.335007 827.927979 2366.669922 
214.403000 827.877014 2366.489990 
214.397995 827.791992 2366.500000 
215.110992 827.864990 2368.699951 
214.845993 827.765015 2367.989990 
214.716003 828.046997 2367.689941 
214.783997 827.969971 2367.830078 
214.789993 827.838989 2367.820068 
212.470993 823.210999 2367.429932 
212.250000 823.301025 2367.560059 
212.326004 823.317017 2367.459961 
212.272995 823.320984 2367.610107 
212.289993 823.374023 2367.689941 
212.255005 823.466980 2367.770020 
212.882996 824.596985 2368.739990 
212.636002 824.320007 2368.520020 
212.496994 824.142029 2368.389893 
212.335007 823.880005 2368.149902 
212.259995 823.760986 2368.060059 
212.436005 824.096008 2368.219971 
212.563004 824.271973 2368.340088 
212.367004 823.981018 2368.139893 
212.210007 823.658997 2367.989990 
212.227997 823.546021 2367.830078 
212.214996 823.612000 2367.879883 
214.554001 827.064026 2367.580078 
214.535995 826.893005 2367.810059 
213.813995 825.669983 2369.169922 
214.535995 826.659973 2368.969971 
214.550995 826.831970 2368.290039 
214.841995 827.604004 2368.020020 
214.604996 827.393982 2367.449951 
214.574997 827.216980 2367.439941 
201.082993 839.065002 2357.620117 
199.250000 839.023010 2354.870117 
198.610001 838.591003 2354.459961 
198.294006 838.301025 2354.260010 
198.485992 837.927979 2355.030029 
198.100998 838.033020 2354.250000 
198.729996 837.687012 2355.709961 
198.516998 837.570007 2355.409912 
198.455994 837.458984 2355.389893 
198.449005 837.359985 2355.419922 
213.419006 823.159973 2367.219971 
212.882004 823.242981 2367.320068 
213.050003 823.234985 2367.270020 
212.714996 823.335999 2367.300049 
212.552002 823.309998 2367.350098 
214.886002 823.875977 2366.719971 
213.410004 823.234985 2367.199951 
217.029007 825.533020 2365.399902 
216.677002 826.202026 2365.290039 
216.735001 825.981018 2365.429932 
215.994995 824.866028 2366.209961 
215.854996 825.429993 2366.110107 
215.483994 825.846008 2366.149902 
215.326996 826.333984 2366.030029 
215.195999 826.112976 2366.189941 
216.658997 825.935974 2365.520020 
216.511993 826.127014 2365.489990 
215.841003 826.405029 2365.689941 
215.240997 826.620972 2365.889893 
215.218002 826.458984 2366.030029 
215.843994 826.520996 2365.610107 
216.729996 826.349976 2365.060059 
216.669006 826.354004 2365.179932 
216.570999 824.335999 2353.709961 
221.177002 821.471008 2353.790039 
217.126007 824.103027 2353.659912 
209.817001 831.166016 2352.719971 
216.802994 824.445007 2353.570068 
212.212997 828.000977 2353.139893 
212.158997 827.802002 2353.239990 
208.130005 830.929016 2352.939941 
207.860992 831.455994 2352.850098 
205.005005 833.838989 2352.590088 
204.966003 834.270996 2352.500000 
197.785995 837.510010 2354.020020 
197.580994 837.521973 2353.550049 
197.518997 837.491028 2353.439941 
197.673004 837.580017 2353.719971 
197.494995 837.440979 2353.350098 
197.533997 837.409973 2353.219971 
197.554001 837.322021 2353.179932 
197.957993 837.156006 2352.800049 
198.078995 837.127991 2352.709961 
198.306000 837.010010 2352.669922 
197.837006 837.275024 2352.830078 
197.723007 837.322998 2352.899902 
198.785004 836.890015 2352.520020 
200.014008 835.885986 2352.709961 
202.862000 833.958008 2352.899902 
197.664001 837.349976 2352.969971 
197.600998 837.380981 2353.060059 
205.886993 831.844971 2353.189941 
210.565002 828.484985 2353.409912 
213.606995 826.382996 2353.550049 
210.867004 828.554993 2363.360107 
210.778000 828.622986 2363.310059 
210.940002 828.494019 2363.530029 
210.871002 828.523987 2363.489990 
211.095993 828.447998 2363.610107 
213.481995 828.049011 2365.370117 
212.315994 828.267029 2364.729980 
211.237000 828.416992 2364.040039 
211.238998 828.401978 2363.879883 
211.289001 828.390991 2363.979980 
211.078003 828.458008 2363.739990 
215.598007 826.981018 2365.149902 
214.882996 827.309021 2365.429932 
214.679001 827.474976 2365.530029 
214.003998 827.882019 2365.850098 
