612.245 77.6467 1298.97
612.593 77.7949 1299.14
612.461 77.7535 1298.91
613.079 77.8864 1299.1
612.785 77.8361 1299.06
613.129 77.8839 1299.28
613.401 77.877 1299.16
613.653 77.867 1299.26
614.219 77.8446 1299.31
613.036 78.6554 1297.42
613.588 79.4849 1296.35
613.606 79.5204 1295.94
611.75 77.7647 1295.52
613.43 79.3633 1295.65
612.178 77.6319 1294.36
611.936 76.5216 1292.57
612.552 77.7987 1298.67
607.207 74.8166 1291.21
608.541 74.8158 1290.98
609.218 75.0189 1290.05
609.838 75.1461 1290.07
611.939 76.509 1291.25
611.931 76.4381 1291.9
613.08 77.3206 1291.95
612.906 77.3043 1292.74
613.239 77.43 1292.44
610.267 75.4083 1289.65
611.862 76.7331 1289.86
607.556 74.9525 1289.68
608.123 74.8073 1290.47
608.307 74.9686 1289.59
619.115 78.5565 1297.72
619.983 79.324 1296.27
618.578 78.304 1295.44
618.663 78.1282 1294.46
618.976 78.0725 1293.46
620.987 79.2673 1293.53
621.641 79.7755 1291.86
622.392 80.4587 1291.72
623.279 81.6348 1292.03
629.643 99.3527 1299.95
625.305 85.7227 1291.97
630.133 96.5645 1291.81
631.611 99.6492 1295.44
630.604 98.1156 1296.83
616.648 77.5271 1299.64
616.895 77.4129 1299.41
617.761 77.3598 1298.67
618.101 77.5811 1298.54
616.887 77.1698 1298.98
616.849 77.2675 1299.16
617.503 77.2374 1298.86
617.18 77.1571 1298.84
631.19 106.106 1302.56
605.702 76.6775 1286.27
606.728 76.6012 1283.56
607.679 76.5159 1281.66
607.277 75.8862 1287.88
607.23 75.0986 1289.24
606.477 76.428 1287.23
606.363 76.5823 1285.36
606.501 76.5591 1286.78
607.235 75.059 1289.5
610.188 76.2999 1280.41
609.79 77.3221 1278.32
611.087 76.8218 1278.41
611.649 77.0724 1277.56
601.702 81.5471 1272.23
611.732 77.961 1275.37
602.348 81.2675 1272.73
603.092 81.1567 1271.74
602.072 81.7737 1270.74
604.968 80.9919 1269.26
608.39 79.4257 1268.09
607.405 79.9662 1268.61
607.708 79.8697 1268.11
608.013 79.641 1267.8
611.953 77.9939 1274.6
612.082 78.3231 1273.49
612.866 78.4651 1272.71
613.196 78.468 1272.45
611.678 78.6012 1270.55
612.758 78.6684 1271.46
612.759 78.708 1271.68
613.447 78.4842 1271.86
613.487 78.4881 1272.27
608.288 79.4279 1267.43
609.272 78.8045 1266.99
608.713 78.965 1266.06
607.999 79.4166 1264.33
611.05 77.8489 1266.75
610.537 78.0914 1265.6
611.567 77.8026 1268.07
611.243 78.1201 1268.97
604.019 73.1838 1237.52
607.512 72.9264 1238.87
605.19 73.1355 1239.78
604.61 73.0624 1239.16
603.395 73.2468 1240.86
603.175 73.2437 1240.56
602.013 73.8971 1241.92
610.598 72.9538 1238.33
609.481 72.7199 1238.56
608.702 72.7772 1238.77
616.875 75.7901 1235.37
615.149 74.8906 1237.54
614.9 74.908 1237.93
613.135 73.9852 1237.87
619.135 76.8957 1233.98
618.856 76.8045 1234.3
617.139 75.9468 1235.74
619.415 76.8782 1233.56
620.366 74.4882 1229.6
619.846 75.5623 1231.25
620.376 74.7413 1230.17
619.846 76.5888 1232.95
619.65 76.7897 1233.29
619.51 76.818 1233.35
600.284 82.9403 1257.62
600.075 82.5306 1256.66
600.566 82.1659 1256.2
601.569 81.9229 1256.68
603.327 81.7845 1258.29
603.722 81.7741 1257.25
601.719 81.8689 1254.92
602.556 81.914 1253.46
602.107 81.6337 1252.32
600.774 81.2637 1252.42
600.573 81.0704 1252.05
598.598 77.0037 1248.31
598.645 76.5572 1247.59
600.661 80.913 1251.77
599.854 78.5991 1249.83
600.533 80.4962 1251.33
599.444 76.7995 1248.41
599.337 76.4965 1247.96
599.128 76.3927 1247.74
598.772 76.5954 1247.87
598.971 76.358 1247.58
601.303 74.2093 1242.25
599.12 75.8914 1246.32
600.86 74.3749 1241.34
603.051 73.4132 1239.58
600.761 82.3319 1270.73
601.406 83.6106 1268.45
601.921 85.598 1265.33
602.532 85.2664 1264.99
602.879 85.2269 1264.04
602.689 85.4949 1263.34
602.776 85.424 1262.86
600.938 84.0518 1259.08
601.882 84.9141 1260.53
602.079 85.2312 1261.23
602.727 85.2247 1262.13
620.06 99.3283 1318.07
620.1 99.7038 1317.59
620.206 98.2357 1319.26
620.061 98.7243 1318.72
620.475 99.9084 1317.15
620.36 99.8184 1317.4
620.624 99.9711 1316.93
620.767 99.9092 1316.83
620.868 99.8608 1316.74
620.954 99.8454 1316.51
621.1 99.7746 1316.28
622.472 97.6279 1314.35
622.332 97.7776 1314.55
622.194 98.0138 1314.89
621.637 98.8612 1315.5
621.247 99.5541 1316.29
622.726 97.4514 1314.29
622.873 97.3437 1314.1
623.044 97.3066 1313.97
623.265 97.368 1313.9
623.546 97.4538 1313.85
623.889 97.5561 1313.8
624.715 98.1863 1313.23
624.389 97.8686 1313.49
624.291 97.772 1313.72
626.586 100.797 1312.12
628.596 103.744 1310.79
629.565 104.123 1309.27
630.454 104.121 1307.12
630.565 104.947 1304.71
631.15 106.351 1303
615.518 77.4916 1299.24
616.486 77.3777 1299.4
616.534 77.2377 1299.14
612.753 77.816 1298.85
613.275 77.9015 1298.97
613.705 77.8645 1298.96
614.089 77.8185 1299.06
615.537 77.4198 1299.1
612.724 77.8415 1298.45
613.361 78.7812 1297.5
614.05 79.7724 1296.16
614.192 79.7838 1296.34
613.99 79.786 1295.99
613.935 79.7446 1296.06
613.808 79.6752 1295.74
613.927 79.7419 1295.59
614.193 79.9269 1295.78
613.656 79.4965 1295.35
613.099 78.364 1294.27
613.069 77.4925 1293.07
613.895 79.6168 1295.21
609.559 75.2082 1289.35
608.704 75.1892 1288.98
613.446 77.5634 1291.77
613.406 77.4981 1292.22
613.391 77.4968 1292.07
613.424 77.5365 1292.83
613.436 77.5171 1292.5
609.895 76.1988 1288.2
610.899 76.3909 1288.64
613.612 77.7601 1291.26
614.091 78.1678 1291.2
613.42 78.1567 1289.29
611.099 77.1937 1287.39
607.952 75.1583 1288.89
618.485 78.0256 1297.83
618.581 78.3668 1296.51
618.344 78.2397 1296.24
618.225 78.1855 1295.46
618.376 78.0092 1294.47
618.458 77.8495 1293.55
618.793 77.9586 1293.1
619.823 78.515 1292.37
621.365 79.7021 1288.27
622.168 80.2609 1286.44
622.599 80.8501 1286.98
623.455 82.3946 1287.95
631.911 104.758 1300.29
632.925 102.496 1295.91
626.399 88.7119 1288.23
630.362 97.1607 1288.06
632.758 101.401 1291.04
618.127 77.8032 1297.73
617.642 77.3861 1298.45
616.579 77.1627 1299.01
616.805 77.1444 1298.9
617.384 77.249 1298.69
617.02 77.1224 1298.69
631.44 106.78 1302.8
631.745 106.984 1302.46
632.847 105.626 1299.55
607.408 76.451 1282.91
608.75 76.2706 1281.8
607.658 76.5754 1286.82
608.03 75.9096 1287.61
607.441 75.1709 1288.97
608.038 76.3497 1283.44
607.772 76.6744 1286.29
606.49 76.5955 1286.54
606.855 76.5592 1286.77
608.216 76.7072 1286.5
610.936 76.1645 1280.34
611.962 76.2899 1279.37
612.179 76.2839 1279.47
613.281 77.2867 1277.32
612.221 77.9366 1274.88
612.43 77.8022 1275.46
601.833 82.1577 1270.06
602.836 83.898 1266.73
606.221 80.9212 1268.51
606.639 80.8552 1268.28
605.203 81.6399 1268.04
604.029 82.2394 1267.84
606.9 80.7953 1268.06
607.045 80.719 1267.8
607.152 80.6523 1267.44
607.853 79.7202 1267.06
607.98 79.5196 1265.85
612.442 78.2452 1273.45
612.74 78.2161 1273.48
613.375 78.4406 1272.87
613.58 78.4553 1272.49
614.405 78.5467 1273.19
612.797 77.8196 1269.39
613.485 77.4389 1269.16
614.506 78.2804 1271.61
614.284 78.5234 1272.58
608.375 79.2893 1266.78
608.152 79.3247 1265.01
607 80.0496 1263.68
606.06 80.5808 1262.84
605.896 80.8413 1261.88
607.589 79.7671 1263.12
608.869 78.9257 1264.75
612.081 77.5533 1267.49
611.789 77.5684 1266.65
608.893 79.0937 1263.83
610.482 78.2373 1264.91
611.114 78.3219 1263.85
610.593 78.6949 1263.19
611.773 77.5948 1266.11
620.991 74.2884 1229.28
621.354 74.1952 1228.94
607.511 73.0452 1239.29
606.677 73.1595 1239.35
605.336 73.3663 1240.35
603.718 73.2867 1240.99
602.334 73.973 1242.2
602.447 73.7968 1241.64
601.259 74.4598 1243.05
599.673 75.5181 1245.61
612.621 74.1088 1238.54
609.625 72.902 1238.82
607.645 73.1294 1239.44
607.758 73.2995 1239.71
615.5 75.0193 1237.71
615.39 75.1283 1238.25
614.498 74.8829 1238.22
615.14 75.0873 1238.26
619.392 76.9156 1233.89
619.175 76.8795 1234.38
617.596 76.0782 1236.01
617.599 76.177 1235.55
616.045 75.248 1237.6
619.639 76.8703 1233.58
620.872 74.4228 1229.84
619.987 75.6718 1231.5
620.245 75.7471 1231.84
620.922 74.5485 1230.37
619.929 76.7574 1233.42
601.757 82.6024 1258.53
602.106 82.2866 1258.42
601.772 82.1707 1257.77
603.336 81.8799 1258.88
606.443 81.66 1257.84
604.534 81.682 1260.12
605.097 81.7548 1257.4
603.31 82.0854 1254.41
605.067 82.0528 1251.75
605.329 82.2178 1252.41
602.472 81.3491 1251.25
601.08 81.2634 1252.23
604.645 81.655 1250.52
602.943 80.5357 1249.62
600.469 78.7199 1249.73
599.8 77.0222 1248.51
599.67 76.588 1248
600.254 75.6173 1245.78
599.483 76.4821 1247.91
600.127 75.4574 1245.5
599.313 76.1282 1247.23
603.252 84.1745 1265.73
603.65 84.0882 1265.09
603.946 83.9379 1264.42
603.127 85.1516 1263.19
603.018 85.1861 1262.61
601.968 83.7255 1259.59
602.684 84.873 1261.38
603.222 84.8359 1262.29
620.265 99.6766 1317.63
620.262 98.8863 1318.54
620.427 98.2096 1319.31
620.61 99.9031 1317.11
620.492 99.8105 1317.36
620.776 99.8621 1316.99
620.963 99.799 1316.74
620.889 99.8 1316.95
621.12 99.7139 1316.53
622.551 97.5968 1314.47
622.441 97.7001 1314.66
622.174 97.9621 1315.02
621.653 98.8427 1315.59
621.33 99.4207 1316.47
622.802 97.4053 1314.37
622.933 97.3023 1314.2
623.066 97.2524 1314.11
623.28 97.3448 1314
623.465 97.4128 1313.94
623.681 97.4192 1314.02
624.027 97.5669 1313.95
624.797 98.184 1313.63
626.756 100.949 1312.6
624.525 97.8717 1313.89
624.361 97.6503 1314.05
628.595 103.784 1311.21
629.06 104.201 1310.68
629.764 104.343 1309.5
630.747 104.549 1307.51
630.751 104.456 1306.68
630.855 105.416 1304.91
631.328 106.791 1303.19
631.355 106.889 1303.51
612.983 77.8659 1298.73
613.405 77.9371 1298.73
613.726 77.9056 1298.82
614.323 77.7651 1298.87
615.615 77.4249 1298.97
616.632 77.1446 1298.91
613.113 78.0332 1298.44
613.861 78.9149 1297.56
614.493 79.8657 1296.42
614.524 79.9921 1295.98
614.366 80.0012 1295.82
614.213 79.9005 1295.99
614.675 79.9843 1296.13
614.13 79.8112 1295.34
614.22 79.9313 1295.58
614.463 80.033 1295.6
613.53 78.6559 1294.24
614.083 79.5396 1294.89
613.431 77.8202 1293.32
613.538 77.6583 1293.04
614.209 79.7804 1295.19
609.137 75.9013 1287.7
608.568 75.8629 1287.65
613.871 77.7804 1292.11
613.798 77.771 1291.98
613.663 77.6332 1292.24
613.777 77.7014 1292.52
613.885 77.7754 1293.03
613.855 77.7344 1292.81
613.613 77.6031 1292.64
609.738 76.7589 1286.77
614.467 78.2936 1291.44
614.587 78.7026 1290.3
614.42 78.6151 1289.96
612.392 77.8477 1287.51
610.805 77.2165 1286.76
618.132 78.1325 1295.85
618.194 78.1737 1296.28
618.101 78.1085 1296.7
618.07 78.1385 1295.27
617.982 77.9154 1294.54
617.957 77.7245 1293.78
618.234 77.7562 1293.38
618.501 77.8648 1293.1
619.699 78.6657 1290.57
620.404 79.0672 1289.76
621.421 79.7509 1286.09
621.737 79.7294 1284.36
622.541 79.3914 1281.17
624.929 81.2924 1281.37
623.889 82.0752 1284.89
626.624 88.4709 1286.5
633.63 103.225 1295.15
633.502 102.77 1294.56
632.307 99.9104 1286.9
633.725 102.652 1290.31
633.95 102.628 1287.54
617.943 77.7171 1297.78
617.746 77.6978 1297.64
617.199 77.2272 1298.43
616.799 77.1335 1298.72
631.677 107.164 1302.76
633.685 105.624 1298.34
633.299 106.839 1300.42
610.271 75.9921 1281.24
609.058 76.624 1286.7
608.141 76.591 1285.24
609.512 76.1649 1282.59
610.603 75.9855 1281.85
611.139 76.0934 1280.75
609.442 76.8215 1286.4
609.294 76.7742 1286.07
611.87 76.2266 1279.68
613.158 76.7946 1278.82
612.34 76.2563 1279.83
613.497 76.6031 1279.85
615.097 77.7563 1276.84
612.606 77.9469 1274.78
604.424 82.5914 1267.04
604.217 82.9618 1266.28
606.1 81.6615 1267.64
606.356 81.5689 1267.51
605.457 82.0261 1267.31
606.507 81.4957 1267.22
606.591 81.4249 1266.83
607.255 80.5366 1266.94
607.164 80.5806 1266.21
606.347 80.9387 1264.75
606.515 80.3911 1263.67
613.052 78.1999 1273.69
613.767 78.2981 1274.07
615.593 78.5636 1273.87
615.578 78.4885 1274.65
617.024 78.2662 1275.72
612.79 77.07 1267.34
613.101 76.4207 1266.12
613.265 76.2678 1265.92
613.959 77.5835 1269.67
613.451 76.1909 1266.02
615.377 78.3177 1272.28
614.951 78.0467 1270.8
614.128 77.0346 1268.29
615.224 78.0326 1270.88
605.554 81.0537 1262.42
605.837 80.8089 1262.23
605.252 81.2823 1261.57
606.434 80.6449 1261.51
605.033 81.4138 1261.13
605.028 81.4645 1260.86
608.692 79.6199 1261.92
612.627 76.9409 1266.58
612.014 77.4365 1266.25
609.85 78.9012 1263.19
611.385 78.151 1263.86
609.952 79.2949 1261.36
609.721 79.3869 1261.54
621.343 74.2749 1229.85
621.69 74.1914 1229.69
621.766 74.1702 1228.48
621.83 74.2372 1229.22
605.588 73.6468 1240.83
604.081 73.462 1241.21
603.101 73.7514 1241.8
603.595 73.3359 1241.16
612.415 75.2131 1239.89
614.302 75.3807 1239.08
614.453 75.1253 1238.66
609.982 73.1812 1239.04
605.65 73.9758 1241.32
615.558 75.1144 1238.05
615.868 75.1794 1238.08
615.785 75.1814 1238.58
615.351 75.2053 1238.68
614.898 75.1156 1238.53
619.642 76.8769 1233.92
619.404 76.9092 1234.31
619.318 76.8127 1234.69
617.81 75.9942 1236.35
616.293 75.2459 1237.89
619.924 76.8154 1233.7
621.517 74.2892 1230.61
620.477 75.7128 1232.15
620.054 76.7573 1233.33
620.146 76.7488 1233.47
621.268 74.4594 1230.81
603.399 82.3715 1259.92
603.845 82.0601 1260.26
603.92 81.9153 1260.01
604.517 81.6724 1260.53
605.658 81.5935 1259.95
605.079 81.5602 1260.46
607.332 81.5647 1257.77
608.59 81.4087 1256.34
607.259 81.888 1254.16
604.905 81.9768 1254.72
604.072 82.0969 1254.75
604.916 82.205 1253.14
604.891 82.2374 1252.83
607.644 82.045 1251.53
607.636 81.5302 1249.83
606.156 82.1938 1252.45
607.707 82.1603 1252.3
604.998 80.2147 1247.75
607.102 80.8048 1248.38
601.071 78.8884 1249.54
601.966 78.2264 1247.79
603.075 77.5937 1245.9
604.25 76.9732 1244.67
605.035 79.4822 1246.69
600.088 76.8828 1248.14
600.149 76.0722 1246.58
601.09 75.3069 1244.69
603.218 73.9803 1242.13
604.788 82.6557 1265.89
604.166 83.7308 1263.83
605.22 82.3365 1265.48
603.346 84.8924 1262.88
602.93 83.5897 1260.41
603.762 83.4156 1261.65
604.604 82.7895 1263.08
620.429 99.6469 1317.63
620.43 99.0245 1318.33
620.461 98.3329 1319.11
620.677 99.7882 1317.24
621.104 99.6672 1316.75
620.972 99.7155 1316.97
620.84 99.7324 1317.16
622.659 97.5295 1314.56
622.48 97.5902 1314.76
622.234 97.7552 1315.02
621.688 98.671 1315.85
621.657 98.7989 1315.69
621.31 99.372 1316.73
623.03 97.2446 1314.28
622.888 97.3262 1314.44
623.154 97.1998 1314.23
623.282 97.2592 1314.13
623.463 97.3163 1314.11
623.671 97.2874 1314.23
624.034 97.4553 1314.17
626.761 99.5958 1314.91
625.237 97.5134 1315.22
624.681 97.7985 1314.19
628.481 103.511 1311.83
624.502 97.5024 1314.45
629.05 104.227 1311.07
628.76 103.949 1311.35
630.048 104.546 1309.59
631.058 104.762 1307.08
631.159 104.901 1306.47
631.188 105.841 1304.96
631.557 107.147 1303.18
631.512 107.073 1303.72
631.649 107.259 1303.37
613.517 78.0586 1298.49
613.896 77.9755 1298.62
614.381 77.799 1298.74
615.725 77.4669 1298.83
616.602 77.1962 1298.78
614.482 78.9272 1297.64
613.858 78.1601 1298.34
614.791 79.6676 1296.84
614.769 79.879 1296.46
614.882 79.9935 1296.22
614.775 80.0804 1295.92
614.566 80.0381 1295.88
614.759 80.0446 1296
614.628 80.0691 1295.82
614.957 80.1058 1296.01
614.851 80.031 1296.11
614.339 79.9831 1295.42
614.43 79.9914 1295.39
614.431 79.8919 1295.19
614.716 80.0844 1295.62
613.948 78.8095 1294.02
614.569 79.7693 1294.89
614.024 77.9608 1293.19
614.167 77.8789 1292.22
613.96 77.7154 1292.33
614.01 77.7761 1292.51
614.093 77.8662 1292.73
614.286 77.8954 1293.03
614.138 77.8647 1292.88
614.794 78.3381 1291.52
615.037 78.7845 1290.81
614.924 78.8362 1290.46
614.37 77.8975 1292.14
616.102 79.1878 1288.83
609.915 76.9545 1286.18
611.454 77.453 1286.01
615.889 79.0267 1287.35
618.077 78.1253 1296.29
617.927 78.0805 1295.58
617.932 78.0647 1296.65
617.885 78.1012 1295.22
617.769 77.8499 1294.51
617.684 77.6652 1293.85
617.825 77.6221 1293.55
618.035 77.6888 1293.15
618.174 77.7807 1292.83
618.574 78.0054 1292.43
619.213 78.4021 1291.18
620.576 79.3492 1288.22
619.886 78.8212 1289.95
621.091 79.625 1287.13
620.946 79.6761 1286.08
620.86 79.3614 1284.02
621.85 78.9204 1280.63
622.322 78.5192 1278.52
625.446 81.1686 1279.45
626.209 82.5117 1281.76
628.395 83.7537 1280.5
625.291 83.5592 1283.92
628.335 91.2094 1285.56
634.004 103.344 1294.66
633.818 102.954 1293.64
632.16 98.5455 1285.59
634.312 102.45 1286.37
634.275 103.164 1290.13
634.574 103.436 1287.81
634.763 103.293 1286.97
617.534 77.6419 1297.66
617.829 78.0293 1296.65
616.919 77.2313 1298.49
631.897 107.336 1302.72
634.559 105.157 1296.6
634.198 103.644 1295
633.817 106.925 1299.94
609.582 76.6816 1285.02
610.129 76.2206 1282.84
611.909 76.1765 1281.03
611.734 76.1929 1281.95
615.917 77.2027 1279.51
617.127 77.5804 1278.18
617.089 78.1279 1276.39
618.012 77.9746 1276.97
604.883 82.4281 1266.74
605.631 82.0614 1266.77
606.098 81.8074 1267.32
605.615 82.027 1267.11
605.768 81.9826 1266.48
605.948 81.8276 1266.16
605.314 82.1703 1264.86
605.733 81.3091 1264.2
605.337 81.3042 1262.59
617.127 78.273 1275.43
618.259 78.0208 1276.46
618.588 77.992 1277.01
613.072 76.284 1264.45
613.196 76.2022 1264.11
613.36 76.1721 1265.63
613.291 76.1353 1263.58
613.29 76.211 1265.53
613.563 76.1158 1265
615.593 78.2741 1272.44
617.294 78.2109 1275.22
615.567 78.0438 1270.96
615.852 78.0458 1271.1
615.837 78.0497 1271.53
615.153 77.9703 1270.41
614.406 77.048 1268.11
613.736 76.1134 1264.9
615.534 78.0702 1270.56
604.767 81.7179 1261.45
604.708 81.6248 1261.12
604.795 81.53 1261.08
606.007 81.4115 1260.23
607.35 80.6709 1260.4
608.327 79.9203 1260.96
608.935 79.8445 1260.57
612.616 76.7299 1264.75
612.906 76.3724 1264.11
611.753 77.7604 1263.79
610.135 79.1866 1261.22
610.272 79.0486 1261.08
609.203 79.7397 1260.5
609.313 79.7303 1260.18
621.875 74.1547 1230.73
622.219 74.03 1230.84
622.162 73.9974 1231.18
622.106 74.306 1228.78
622.15 74.2127 1229.67
614.075 76.4132 1240.23
614.8 78.3649 1242.34
614.035 77.4991 1241.4
613.01 77.4363 1242.26
611.014 76.8847 1242.68
607.544 75.356 1241.96
614.764 75.3716 1239.02
614.634 75.2099 1238.76
614.74 76.7555 1240.48
602.431 75.1427 1243.84
601.245 75.7925 1245.23
616.28 75.1548 1238.48
615.916 75.1657 1238.32
616.583 75.1374 1239
616.011 75.2478 1239.03
615.474 75.3598 1239.06
619.773 76.8711 1234.12
619.547 76.8888 1234.41
619.243 76.3924 1235.72
618.346 75.7633 1237.08
617.211 75.1329 1238.24
616.793 75.1277 1238.42
620.061 76.7867 1233.85
621.67 74.302 1231.38
621.914 74.0756 1231.62
621.379 74.461 1231.15
621.285 74.6007 1231.43
620.73 75.6396 1232.52
620.244 76.6703 1233.52
604.532 82.0011 1261.45
607.595 81.3505 1258.1
608.534 81.2965 1256.79
608.938 81.5095 1255.71
609.133 81.3523 1256.22
609.121 81.8178 1254.48
607.542 82.1296 1252.72
607.072 82.2878 1252.54
608.22 82.0411 1252.87
608.975 82.0569 1252.98
609.078 82.0216 1252.26
609.163 81.7701 1250.66
609.424 81.2615 1248.99
607.863 82.1112 1252.56
608.858 82.1014 1252.66
607.588 78.8355 1245.62
606.357 79.792 1247
606.304 79.7903 1246.99
610.503 81.061 1247.93
600.6 76.4466 1246.81
620.603 99.618 1317.55
620.635 99.0478 1318.17
620.564 98.4062 1318.94
621.099 99.5103 1317.01
620.819 99.5802 1317.41
620.962 99.5428 1317.26
622.652 97.4338 1314.7
622.417 97.4627 1314.92
622.149 97.7952 1315.18
621.711 98.4567 1316.1
621.335 99.1879 1316.87
623.063 97.1489 1314.43
622.843 97.2374 1314.6
623.246 97.1328 1314.35
623.38 97.1946 1314.26
623.496 97.166 1314.34
623.681 97.0674 1314.49
624.048 97.2193 1314.44
628.543 102.515 1313.66
628.495 103.358 1312.25
628.991 102.037 1315.46
624.437 95.8151 1316.42
624.642 96.8317 1315.3
629.035 103.193 1313.26
628.784 103.928 1311.59
624.165 96.4202 1315.34
629.454 104.462 1310.98
629.066 104.195 1311.47
630.188 104.615 1309.83
631.314 104.992 1307.65
631.432 105.024 1306.8
631.553 105.289 1306.32
631.474 106.184 1304.98
631.874 107.428 1303.02
631.778 107.364 1303.56
631.73 107.177 1303.95
631.922 107.478 1303.32
614.02 78.0519 1298.46
614.691 77.8238 1298.64
615.796 77.5098 1298.68
616.674 77.2931 1298.58
615.018 78.7882 1297.69
614.575 77.9931 1298.46
615.151 79.6801 1296.82
615.008 79.8477 1296.54
615.106 80.005 1296.29
615.034 80.0347 1296.23
615.176 80.13 1296.08
615.08 80.1762 1295.85
614.953 80.1442 1295.74
615.266 80.201 1295.89
614.713 80.0647 1295.41
614.842 79.9743 1295.14
615.191 80.1845 1295.52
614.468 78.8963 1293.98
614.982 79.7725 1294.79
614.53 78.1616 1293.23
614.293 77.7923 1292.29
614.206 77.746 1292.42
614.247 77.7672 1292.6
614.393 77.7505 1292.72
614.461 77.7798 1292.86
614.918 77.7068 1292.93
614.692 77.9519 1293.05
615.453 78.2293 1291.76
614.522 77.8461 1292.18
615.439 78.84 1290.81
615.237 78.8895 1290.45
615.745 78.9811 1289.71
615.187 78.9216 1290.19
616.999 79.3597 1288.69
617.932 79.6865 1287.78
617.724 79.6115 1286.8
612.582 77.638 1284.89
615.766 78.812 1285.49
617.954 78.0624 1296.09
617.765 78.0556 1295.54
617.69 78.035 1295.03
617.647 78.071 1295.34
617.665 77.8386 1294.54
617.489 77.67 1294.02
617.579 77.6005 1293.51
617.445 77.6135 1293.67
617.664 77.6185 1293.3
617.856 77.6572 1293.19
617.902 77.6968 1292.97
619.078 78.4733 1290.79
620.558 79.4749 1287.72
620.873 79.5981 1287.04
619.62 79.7063 1286.59
619.663 78.5936 1281.19
619.223 79.1071 1283.72
621.278 78.5992 1280.17
621.661 78.2498 1278.54
621.79 78.3422 1278.88
621.588 78.2849 1277.06
622.678 78.7487 1277.96
626.465 82.0541 1279.04
630.819 87.2923 1280.27
628.389 83.6938 1280.05
626.833 83.3898 1281.94
630.436 86.8569 1280.73
630.517 87.3518 1281.22
629.067 87.1054 1282.45
634.225 103.314 1293.95
634.414 103.593 1294.73
634.173 102.991 1292.04
630.885 92.3348 1283.58
634.408 101.514 1285.28
635.031 102.86 1286.03
634.704 103.493 1290.21
634.766 103.738 1288.5
635.115 103.765 1287.46
635.228 103.399 1286.41
617.31 77.6122 1297.74
617.642 77.9537 1296.8
617.667 77.8671 1297.16
617.825 78.0261 1296.36
632.041 107.418 1302.68
633.58 107.152 1300.59
634.885 105.259 1296.51
634.479 103.847 1295.08
634.687 103.839 1295
635.093 106.707 1298.02
610.909 76.5053 1283.57
614.025 76.6732 1280.89
613.238 76.6099 1281.87
615.713 77.1914 1280.57
617.579 77.6904 1279.33
620.244 78.0742 1277.75
618.397 77.984 1276.27
619.05 77.9578 1276.55
612.925 76.2207 1262.06
612.853 76.2625 1262.25
612.942 76.211 1261.77
613.395 76.0432 1262.43
613.026 76.2014 1261.64
613.248 76.0414 1262.16
617.597 77.7058 1274.27
618.595 77.471 1275.23
618.279 77.9512 1275.98
615.841 78.083 1270.78
616.762 77.5927 1271.65
616.727 77.6378 1271.24
616.867 77.5597 1272.31
616.117 77.9538 1271.43
615.501 78.0422 1270.1
615.188 77.9764 1269.92
614.486 76.9926 1267.37
613.883 76.1344 1263.74
615.802 78.1208 1270.51
615.847 78.1456 1270.25
608.664 80.5478 1258.74
611.755 77.5641 1262.11
612.248 76.8568 1261.53
612.302 76.7648 1261.21
610.442 78.8043 1260.84
610.243 78.5448 1259.74
609.468 79.5597 1259.93
609.088 80.2111 1258.71
622.122 73.8945 1232.08
622.258 73.4219 1233.4
622.25 73.724 1232.7
622.111 73.2627 1233.83
624.065 75.5301 1229.61
622.936 74.7919 1229.16
622.275 74.3112 1229.46
615.397 78.6921 1242.62
615.694 79.2729 1243.43
615.912 81.664 1245.79
613.949 80.4735 1245.55
611.413 78.6695 1244.74
615.107 75.5956 1239.36
615.263 77.038 1240.77
615.983 78.5636 1242.49
617.086 75.0919 1238.98
616.965 75.1203 1239.39
617.305 75.035 1239.34
616.355 75.3183 1239.43
615.778 75.6166 1239.6
619.887 76.8023 1234.23
619.611 76.8389 1234.53
619.43 76.2471 1235.96
618.685 75.4944 1237.78
617.9 75.0933 1238.58
617.471 75.0186 1238.82
620.162 76.6926 1233.94
621.587 74.3464 1231.87
621.841 74.0727 1232.09
622.027 73.8312 1232.46
621.318 74.6217 1231.94
620.802 75.6214 1232.89
620.339 76.5652 1233.71
608.68 81.0087 1257.25
608.989 81.1705 1256.69
609.511 81.488 1255.71
609.604 81.6817 1255.3
609.343 81.0715 1256.58
609.603 81.3353 1255.98
610.127 81.9098 1254.85
609.956 82.0167 1254.43
609.368 82.0489 1253.19
609.803 82.0771 1253.73
609.463 82.0391 1252.43
609.845 81.9441 1251.37
610.206 81.416 1248.95
609.967 81.7584 1250.17
610.473 81.2827 1248.36
611.209 80.4632 1246.91
614.122 82.6772 1248.18
620.843 98.9915 1318.02
620.72 98.475 1318.73
620.75 98.2582 1319.03
621.128 98.7824 1317.74
621.004 98.9115 1317.88
622.583 97.3265 1314.84
622.761 97.1617 1314.76
622.467 97.2335 1315.04
622.307 97.4499 1315.18
622.044 97.8284 1315.51
621.719 97.149 1316.76
621.297 98.4953 1317.56
622.96 97.0356 1314.65
623.147 97.0245 1314.56
623.336 97.0518 1314.46
623.441 96.9891 1314.56
623.782 96.2079 1315.35
623.459 96.0765 1315.4
624.017 95.6071 1316.18
629.378 103.549 1313.07
629.786 102.959 1314.51
623.664 95.3326 1316.27
629.681 104.539 1311.02
629.447 104.431 1311.35
629.423 104.348 1311.63
629.152 104.187 1311.69
630.36 104.653 1309.97
631.266 104.972 1308.19
631.737 105.21 1306.86
631.795 105.506 1306.22
631.701 106.342 1305.04
632.036 107.517 1302.98
632.019 107.464 1303.61
631.965 107.236 1304.07
632.122 107.56 1303.25
616.089 77.7488 1298.16
616.013 77.5495 1298.51
617.063 77.6327 1297.79
615.604 78.7553 1297.55
615.47 79.8056 1296.62
615.334 79.9594 1296.38
615.391 80.1222 1296.09
615.44 80.164 1295.88
615.274 80.203 1295.65
615.405 80.1761 1295.7
614.814 80.0392 1295.29
615.172 80.1179 1295.32
615.183 79.9321 1295.01
615.164 80.0356 1295.16
615.414 80.1919 1295.39
615.426 80.1952 1295.5
614.923 78.9422 1293.9
615.316 79.7855 1294.81
614.959 78.0968 1293.16
614.434 77.7679 1292.33
614.471 77.7386 1292.45
614.63 77.7343 1292.59
615.327 77.6489 1292.87
615.675 77.6374 1292.86
615.57 77.7659 1293.12
616.184 77.6334 1293.19
616.08 78.8346 1290.94
616.708 78.374 1291.73
617.231 78.1157 1291.67
614.637 77.8857 1292.11
614.637 77.7822 1292.32
616.268 78.9655 1290.14
617.396 79.3554 1288.91
618.265 79.688 1288.1
619.846 79.7183 1287.08
614.134 77.4463 1282.98
618.21 78.3309 1280.91
617.698 78.0231 1295.79
617.566 78.0601 1295.25
617.46 77.8362 1294.55
617.56 78.0602 1295.5
616.905 77.6869 1293.57
616.589 77.6619 1293.06
616.995 77.7254 1293.41
616.243 77.6589 1292.82
617.61 77.6794 1292.89
619.498 79.546 1288.15
619.875 79.6974 1287.44
621.164 78.1517 1277.23
620.545 78.0214 1276.14
620.36 77.7348 1275.12
620.848 78.0176 1274.94
622 78.5218 1276.95
621.967 78.7167 1275.51
624.037 80.5973 1275.92
631.097 87.7224 1279.81
633.798 91.5462 1280.39
633.935 91.5945 1280
633.483 91.4136 1280.82
634.041 92.3823 1280.67
633.997 92.6767 1281.49
634.557 103.51 1294.22
634.583 103.307 1293.18
634.562 103.16 1291.88
634.68 103.613 1294.46
633.678 96.7988 1283.57
635.35 101.899 1284.85
635.672 102.92 1285.52
635.456 102.721 1285.4
635.047 103.618 1290.26
635.101 103.928 1288.75
635.458 103.736 1286.92
635.34 103.929 1287.81
635.733 103.345 1286.06
617.514 77.9264 1296.9
617.652 77.9631 1296.48
633.983 107.206 1300.29
635.157 106.917 1298.36
635.219 105.299 1296.44
634.869 103.665 1294.58
635.363 103.755 1294.85
635.35 106.763 1297.99
616.964 77.7312 1280.67
620.016 77.9656 1276.32
618.769 77.891 1276.3
618.97 77.4739 1275.47
619.609 77.9838 1276.46
619.346 77.4775 1275.44
612.342 76.7414 1260.98
612.363 76.7422 1260.73
612.426 76.7292 1260.61
613.57 76.1942 1262.05
613.089 76.2675 1261.44
612.492 76.7412 1260.5
618.37 77.0082 1273.9
618.039 77.011 1273.31
618.687 77.0376 1274.27
618.48 76.9839 1273.87
615.991 78.1146 1270.52
617.891 77.023 1272.82
616.78 77.7117 1270.96
617.859 77.1575 1272.1
618.016 77.0366 1272.65
615.478 78.0642 1269.69
617.875 79.2673 1268.51
614.847 77.139 1266.83
614.192 76.2658 1264.19
613.964 76.2387 1262.76
616.05 78.188 1270.3
617.806 79.098 1269.22
616.109 78.2794 1270.11
609.29 80.5487 1257.37
611.049 77.8746 1260.37
610.754 78.2954 1260.54
611.288 77.5463 1260.19
611.338 77.407 1260.05
611.398 77.3433 1259.91
609.953 78.897 1259.15
610.708 77.7888 1259.29
609.863 79.0817 1258.49
610.038 79.242 1257.92
621.855 73.2796 1233.85
622.46 73.678 1232.84
621.342 72.6455 1236.78
621.546 72.6966 1236.69
621.982 73.2053 1233.89
621.663 72.8499 1234.97
624.974 76.1823 1231.17
628.276 79.888 1234.87
626.196 77.8237 1233.18
622.85 74.1257 1232.38
616.678 80.744 1244.77
616.362 81.8701 1245.88
616.335 83.3101 1247.48
616.457 78.5477 1242.5
617.53 74.9126 1239.21
617.157 75.1987 1239.79
617.437 74.9972 1239.65
617.639 74.8582 1239.49
616.787 75.5148 1239.99
616.285 75.8759 1240.12
619.74 76.7317 1234.61
620 76.6258 1234.42
619.655 76.153 1236.01
618.871 75.3592 1237.98
618.137 74.9322 1238.87
617.761 74.8878 1239.01
620.227 76.5337 1234.13
621.718 74.0461 1232.59
621.613 74.2205 1232.32
621.857 73.8732 1232.75
621.728 73.3544 1233.88
621.388 74.4849 1232.46
620.871 75.52 1233.25
620.406 76.3951 1233.95
609.304 80.8508 1256.94
610.065 81.6799 1255.28
609.94 81.4794 1255.62
609.795 80.9043 1256.46
609.905 81.2096 1256
610.247 81.4054 1255.69
611.508 82.7564 1254.37
610.589 81.9317 1255.03
611.331 82.8314 1254.02
611.14 82.8405 1253.52
609.948 82.1823 1252.87
609.666 82.0748 1252.67
610.456 82.0166 1250.66
610.286 82.2619 1252.29
613.442 82.9135 1249.28
616.044 83.7609 1248.52
620.879 98.4296 1318.59
620.898 98.1891 1318.91
621.178 98.1026 1318.39
621.029 98.2139 1318.59
622.65 97.056 1314.96
622.847 96.8838 1314.9
622.361 96.001 1315.84
622.216 96.1848 1315.94
622.036 96.5429 1316.11
621.619 96.7225 1317.4
621.322 97.9063 1318.12
621.838 95.5378 1317.02
621.905 95.5485 1316.77
623.035 96.869 1314.8
623.229 96.9044 1314.67
623.195 95.9606 1315.47
623.22 95.0064 1316.47
622.916 94.9088 1316.48
623.462 95.0827 1316.56
629.677 103.759 1312.98
630.13 103.187 1314.42
630.483 104.673 1310.06
629.743 104.482 1311.42
629.567 104.454 1311.48
629.982 103.873 1312.88
630.97 104.807 1308.95
631.261 104.979 1308.38
631.633 105.117 1307.68
631.864 105.235 1307.11
631.99 105.378 1306.67
632.011 105.562 1306.17
631.93 106.382 1305.14
632.794 107.471 1302.05
632.141 107.518 1303.54
632.158 107.446 1303.75
632.122 107.236 1304.14
632.282 107.56 1303.17
632.248 107.587 1302.99
633.998 107.294 1300.61
632.216 107.517 1303.5
616.804 78.0191 1297.45
617.167 77.9559 1297.09
617.371 77.9202 1296.92
616.114 78.8215 1297.18
615.732 79.7229 1296.56
615.678 79.9169 1296.24
615.596 80.0478 1296.06
615.632 80.1488 1295.83
615.595 80.1577 1295.71
615.57 80.1804 1295.58
615.349 80.0339 1295.21
615.482 79.9226 1295.09
615.547 80.0718 1295.3
615.591 80.1975 1295.45
615.361 78.851 1293.97
615.571 79.7576 1294.85
615.737 77.9372 1293.34
616.41 77.8615 1293.48
616.291 78.0447 1293.59
616.862 77.7493 1293.74
618.062 78.8532 1290.26
616.981 78.906 1290.4
616.746 77.8959 1292.44
616.271 77.7183 1292.68
617.785 79.2987 1289.15
617.568 77.9827 1295.98
617.489 78.0564 1295.16
617.487 78.0577 1295.49
617.339 77.8763 1294.6
619.778 77.5456 1275.36
620.135 77.6689 1275.32
619.457 77.1599 1274.41
619.539 77.2091 1273.93
619.636 77.4278 1273.2
621.002 79.6203 1270.36
630.868 87.5611 1279.34
629.191 86.2809 1277.85
623.038 81.3304 1271.74
621.039 80.7634 1267.52
634.146 91.8399 1279.78
633.758 91.5712 1279.4
634.291 92.1139 1280.61
634.258 91.971 1280.4
634.413 92.0486 1280.17
634.624 92.1431 1279.92
634.606 92.7166 1281.09
634.472 92.4193 1280.87
634.455 93.253 1281.53
634.847 103.541 1293.99
635.772 103.377 1293.04
635.013 103.248 1291.81
634.744 97.4242 1283.24
636.053 101.616 1284.37
635.811 102.233 1284.85
636.275 102.784 1285.2
636.24 102.451 1284.9
635.543 103.686 1290.33
635.34 104.007 1288.94
635.763 103.882 1287.27
635.595 104.002 1288.08
636.041 103.499 1286.4
636.617 102.793 1285.17
617.492 77.9245 1296.57
634.112 107.299 1300.42
634.75 107.103 1299.44
635.235 107.112 1298.76
635.298 107.021 1298.45
635.552 105.253 1296.38
635.394 103.591 1294.53
634.985 103.562 1294.16
636.259 103.939 1295.15
636.047 103.684 1294.77
635.565 106.738 1297.94
635.45 106.985 1298.37
618.832 77.0044 1274.2
619.281 77.1226 1274.5
611.468 77.308 1259.8
611.564 77.305 1259.72
611.636 77.302 1259.57
613.843 76.3807 1261.95
613.465 76.2959 1261.58
613.317 76.3832 1261.23
613.159 76.3319 1261.26
612.568 76.7815 1260.37
611.73 77.3323 1259.39
618.357 76.9199 1273.44
616.289 78.281 1270.2
617.245 77.953 1270.6
618 77.2384 1271.89
618.337 77.0965 1272.52
618.332 77.0093 1272.82
618.631 76.929 1273.49
616.555 78.7723 1268.1
618.519 79.7136 1266.63
618.408 79.5153 1265.42
620.54 80.2636 1268.1
614.53 76.4908 1263.66
615.839 77.8532 1265.78
614.308 76.4843 1262.73
618.138 78.2769 1270.48
619.826 78.7862 1270.7
609.587 80.644 1256.94
610.228 79.3154 1257.53
610.841 77.667 1259.18
610.963 77.6457 1259.15
610.593 78.0158 1258.56
610.74 78.1388 1258.01
621.424 72.822 1235.28
620.957 72.6052 1237.21
621.751 72.8116 1236.68
620.999 72.5753 1237.4
620.473 72.4911 1239.3
620.057 72.4188 1239.77
620.819 72.573 1238.96
623.43 74.5692 1233.26
625.026 76.3218 1232.07
625.333 76.5973 1231.89
627.8 80.2573 1236.55
629.752 83.5276 1244.03
625.939 77.8959 1233.93
621.665 72.818 1237.64
617.174 82.9798 1246.91
616.746 83.2187 1247.21
616.633 83.6057 1247.89
616.759 76.8775 1241.05
617.313 78.6418 1242.82
617.384 80.5372 1244.62
617.461 82.3497 1246.34
617.836 74.7859 1239.34
617.368 75.2727 1240.14
617.593 75.0116 1239.96
617.836 74.7893 1239.79
617.912 74.7172 1239.63
617.066 75.56 1240.23
620.202 76.3714 1234.51
619.822 76.1018 1235.93
619.022 75.1731 1238.11
618.274 74.7231 1239.14
618.017 74.7751 1239.17
621.6 73.4393 1233.94
621.499 73.5011 1233.98
621.55 74.1089 1232.92
621.388 72.8918 1235.12
621.406 74.2658 1233
620.901 75.2409 1233.75
620.365 76.2571 1234.41
610.46 81.7123 1255.32
610.424 79.4477 1257.17
610.323 81.0219 1256.04
610.695 79.5423 1256.89
610.628 81.2513 1255.78
610.77 81.6119 1255.45
611.607 82.5915 1254.68
612.608 83.3207 1254.23
612.826 83.5926 1253.85
612.676 83.6058 1253.64
611.156 82.8744 1253.07
612.744 83.6598 1253.31
613.077 83.7417 1252.84
611.508 82.8134 1251.63
611.227 82.8616 1252.5
614.024 83.6064 1250.53
616.233 83.94 1248.83
614.501 83.7919 1250.56
621.163 97.9576 1318.7
621.292 97.8444 1318.47
622.573 95.9417 1315.71
622.795 95.8834 1315.62
622.037 95.1662 1316.7
622.19 95.0634 1316.59
621.952 95.3334 1316.77
621.629 96.4413 1317.76
621.847 95.2697 1317.21
622.999 95.8993 1315.56
622.657 94.8882 1316.45
630.671 104.651 1310.09
630.032 104.532 1311.3
631.748 105.151 1307.68
630.344 103.991 1312.55
631.615 103.841 1312.63
631.648 105.124 1307.8
632.15 105.371 1306.65
632.196 105.575 1306.17
632.164 106.402 1305.16
632.254 107.449 1303.74
632.23 107.221 1304.16
632.97 107.426 1302.44
634.197 107.265 1300.54
632.317 107.52 1303.36
635.342 107.127 1298.77
632.307 107.503 1303.53
617.077 78.1528 1296.93
616.414 78.9379 1296.81
617.329 78.006 1296.63
615.934 79.901 1296.15
615.823 80.082 1295.89
615.78 80.1613 1295.68
615.768 80.1727 1295.55
615.767 79.7913 1295.02
615.684 79.9798 1295.23
615.736 80.1044 1295.39
615.831 78.7963 1294.07
616.999 77.9984 1294.33
616.15 78.9458 1294.33
616.742 78.163 1294.15
617.44 77.9838 1296.07
617.399 78.0679 1295.29
617.379 78.1323 1295.59
619.126 77.0288 1273.84
619.013 77.007 1274.07
619.244 77.1345 1273.43
618.742 77.2454 1272.54
619.127 79.871 1265.65
619.022 79.8983 1265.38
629.108 89.0916 1275.46
625.876 87.3038 1270.6
631.822 92.5519 1276.19
633.78 91.9338 1278.88
621.122 83.5964 1264.01
619.129 80.1263 1264.95
618.456 80.0218 1264.09
616.28 79.9342 1260.97
634.564 92.1371 1279.69
634.639 92.3236 1279.39
634.648 92.3699 1280.61
634.577 92.2547 1280.42
634.822 92.3059 1280.24
635.024 92.3737 1280.11
635.042 92.3631 1279.91
634.746 92.5582 1280.82
634.986 92.7554 1280.92
634.713 92.9012 1281.2
634.837 93.7483 1281.7
635.865 103.519 1294.18
637.113 103.573 1293.53
636.351 103.412 1291.75
635.75 97.8585 1283.02
636.732 101.403 1284.06
636.197 103.765 1290.08
635.674 104.029 1288.99
636.04 103.897 1287.43
635.96 104.008 1288.18
636.171 103.731 1286.97
636.5 103.635 1287.17
636.87 102.896 1285.43
635.828 105.307 1296.47
636.454 103.682 1294.81
636.748 103.639 1294.71
636.557 103.724 1295
636.542 103.862 1295.2
636.399 104.159 1295.47
635.742 106.574 1297.77
635.657 106.924 1298.31
635.835 106.611 1297.92
635.572 106.945 1298.29
635.532 106.995 1298.48
618.646 76.8954 1273.74
611.021 77.6888 1258.99
611.084 77.7217 1258.74
611.166 77.7349 1258.47
614.047 76.6628 1261.63
613.502 76.556 1261.1
612.664 76.8613 1260.27
612.778 76.9888 1260.16
611.804 77.4683 1259.12
611.317 77.7682 1258.29
618.426 77.1722 1272.41
618.798 77.0317 1273.23
617.369 79.1573 1265.99
617.398 78.9661 1264.89
616.04 77.81 1264.01
614.943 76.7617 1263.83
614.553 76.7602 1262.47
610.762 78.2639 1257.8
610.745 77.8884 1258.58
610.873 78.2202 1257.72
610.889 77.8767 1258.33
610.99 77.9831 1257.97
621.199 72.7851 1236.25
621.288 72.7245 1236.25
620.552 72.5592 1238.2
619.832 72.399 1239.85
619.687 72.4055 1239.78
620.194 72.5059 1240.06
619.946 72.4207 1240.05
619.696 72.3977 1240.13
620.867 72.6692 1239.24
620.366 72.6181 1240.2
624.562 76.3898 1235.95
622.273 73.4276 1237.8
621.68 72.9471 1238.27
626.876 80.748 1240.74
627.057 81.9496 1243.9
626.632 79.1655 1236.21
631.093 84.8602 1246.27
630.365 84.5245 1247.67
629.013 83.6136 1246.47
627.183 82.5954 1245.74
621.013 72.8247 1239.41
617.393 83.0922 1247.12
617.128 83.4848 1247.54
616.712 83.7691 1248.22
617.366 76.6744 1241.15
617.592 78.6836 1242.96
617.629 80.574 1244.75
617.656 82.2588 1246.3
618.063 74.6498 1239.44
617.708 75.0689 1240.27
617.457 75.4109 1240.4
617.892 74.7716 1240.09
618.089 74.5685 1239.86
618.012 74.6311 1239.99
618.165 74.514 1239.65
620.093 75.7183 1235.97
619.872 75.8038 1236.44
619.181 74.9817 1238.14
618.328 74.5771 1239.24
621.097 72.8802 1236.23
621.456 73.5343 1234.01
620.962 73.0512 1236.16
621.333 73.609 1234.13
620.675 74.3435 1235.56
611.712 82.4185 1254.93
611.062 79.7762 1256.6
611.056 78.3464 1257.5
611.948 80.6789 1256.09
611.848 82.0328 1255.28
612.703 83.1765 1254.47
613.02 83.5304 1254.03
613.17 83.7302 1253.68
613.224 83.8253 1253.32
612.569 83.5189 1252.54
613.457 83.9233 1252.77
614.641 83.8765 1250.75
616.569 83.9747 1248.81
616.184 84.0524 1249.25
621.376 97.5899 1318.59
622.348 94.9373 1316.5
622.494 94.89 1316.48
631.252 104.498 1310.35
630.294 104.491 1311.23
631.784 105.06 1307.93
630.572 104.14 1312.07
631.424 104.015 1312.16
631.901 104.035 1311.81
632.274 105.305 1306.71
632.381 106.379 1305.12
632.434 105.493 1306.26
632.352 107.437 1303.71
632.441 107.245 1303.99
634.538 107.174 1300.56
632.449 107.465 1303.38
634.308 107.243 1300.58
634.985 107.106 1299.76
635.405 107.152 1299.06
635.476 107.083 1298.75
616.549 79.08 1296.44
617.18 78.2513 1296.46
617.371 78.1238 1296.15
616.071 79.9087 1295.96
615.932 80.0944 1295.75
615.961 80.065 1295.61
615.913 80.0529 1295.45
615.966 79.6877 1295.04
615.851 79.9408 1295.28
617.184 78.2609 1294.99
616.411 78.9359 1294.55
616.557 79.0488 1294.88
617.24 78.2607 1295.29
617.198 78.3661 1295.55
617.241 78.3423 1295.92
619.049 77.0613 1273.39
616.079 78.2074 1262.98
629.758 93.295 1272.96
628.51 92.1178 1270.97
626.602 91.7741 1266.24
628.309 93.2657 1268.26
622.49 87.3454 1262.21
632.759 93.6068 1276.18
631.167 94.1419 1274.06
634.343 93.0616 1278.08
619.002 83.2972 1260.56
614.366 76.9124 1261.68
613.607 78.6525 1258.8
616.053 81.7735 1258.45
635.099 92.4692 1279.65
635.216 92.6853 1279.33
634.93 92.5088 1280.62
634.918 92.4226 1280.43
635.204 92.5426 1280.3
635.338 92.512 1280.12
635.419 92.5099 1279.93
635.148 93.0289 1281.13
635.331 92.8671 1280.96
635.219 92.6923 1280.75
635.128 93.3782 1281.39
635.472 94.0006 1281.69
636.89 103.598 1294.63
637.436 103.646 1294.05
637.167 103.613 1294.66
637.69 103.498 1292.5
637.115 103.535 1291.34
636.4 97.6512 1282.86
637.055 101.199 1283.93
636.166 104.005 1288.9
636.739 103.744 1289.84
636.352 103.955 1288.26
636.081 105.321 1296.63
636.858 103.744 1295
637.123 103.64 1294.9
636.635 104.095 1295.65
636.82 103.877 1295.33
635.826 106.815 1298.33
635.66 106.963 1298.56
636.072 106.46 1298.02
636.415 105.272 1296.87
611.026 77.7703 1258.3
611.195 77.9629 1257.94
612.965 77.6609 1259.37
612.973 77.1292 1260.1
611.91 77.6043 1258.94
612.24 77.882 1258.68
611.59 77.8942 1258.16
611.396 78.0045 1257.84
611.086 78.0986 1257.72
620.4 72.6378 1238.32
619.559 72.4677 1239.76
619.541 72.4661 1240.11
619.455 72.575 1240.02
620.064 72.5568 1240.39
620.177 72.6306 1240.48
619.798 72.5055 1240.41
619.564 72.4882 1240.39
620.548 72.777 1240.25
620.241 72.6757 1240.51
624.554 77.9489 1241.15
621.9 73.4013 1238.96
621.447 73.1718 1239.43
623.655 77.9768 1243.98
626.642 82.0756 1245.45
633.247 87.923 1249.14
630.205 84.5713 1247.97
631.677 86.524 1249.29
628.829 83.7458 1247.01
627.346 82.9468 1246.26
626.585 82.2642 1245.95
621.21 74.1998 1241.85
617.374 83.4164 1247.53
617.722 82.7144 1246.87
617.06 83.7093 1248
617.797 76.5123 1241.33
617.77 78.6594 1243.03
617.843 80.5492 1244.91
617.803 82.0235 1246.15
618.32 74.3983 1239.49
617.823 75.2136 1240.51
618.094 74.7356 1240.39
618.639 73.797 1240.43
618.715 73.6462 1239.96
618.645 73.6951 1240.19
619.683 74.2736 1237.96
618.514 74.4262 1239.21
620.16 72.8333 1238.44
620.288 72.725 1238.42
620.883 73.2217 1236.12
619.961 73.0386 1238.5
620.528 73.3044 1237.23
612.715 82.8471 1254.81
611.319 78.4563 1257.36
611.3 78.1881 1257.58
613.225 82.1091 1255.37
612.473 79.9644 1256.58
613.409 81.2716 1255.95
611.51 78.4121 1257.41
613.033 83.1525 1254.52
613.131 83.442 1254.15
613.404 83.7431 1253.66
613.559 83.8799 1253.27
613.785 84.0003 1252.71
614.249 83.9213 1251.59
615.184 83.9131 1250.11
616.814 83.9661 1248.76
616.448 84.0917 1249.24
615.529 84.0031 1250.11
633.143 104.265 1308.53
632.376 103.961 1310.84
631.978 104.02 1310.84
632.255 104.979 1307.66
632.614 106.313 1305.03
632.733 105.335 1306.15
633.146 104.777 1306.85
632.523 107.409 1303.58
632.692 107.17 1303.87
632.695 107.327 1303.49
632.672 107.392 1303.22
634.674 107.071 1300.66
635.729 106.911 1298.96
635.606 107.001 1298.89
616.636 79.1238 1296.09
616.166 79.8215 1295.8
616.129 79.8809 1295.47
616.232 79.7486 1295.65
616.069 79.8274 1295.27
616.633 79.1501 1295.19
616.7 79.1257 1295.47
616.71 79.0913 1295.82
629.376 93.4041 1271.15
630.094 93.8448 1272.93
627.836 93.765 1266.55
626.406 91.8478 1264.99
625.659 90.7898 1264.78
628.85 94.0395 1268.15
625.211 90.3353 1263.87
624.633 90.2597 1262.15
619.706 84.2671 1260
622.014 87.2939 1260.58
633.169 94.0797 1275.93
632.45 94.7386 1274.75
630.965 94.4256 1273.41
633.859 93.7127 1276.68
634.521 93.6092 1277.46
635.184 93.1745 1278.64
616.678 82.3876 1258.33
612.934 79.7107 1256.93
613.895 80.7117 1256.62
614.226 80.8661 1256.7
635.518 92.6521 1279.7
635.527 93.201 1278.82
635.202 92.6163 1280.53
635.451 92.5331 1280.28
635.436 92.5637 1280.47
635.578 92.5182 1280.14
635.7 92.6062 1279.87
635.755 92.5386 1280.05
635.451 93.2539 1281.25
635.49 92.7442 1280.86
635.638 92.9362 1281.08
635.463 92.6656 1280.68
635.66 93.4664 1281.38
636.063 93.8919 1281.68
638.313 103.277 1292.2
637.317 103.466 1291.05
637.63 96.962 1282.91
636.591 103.947 1288.72
637.108 103.691 1289.67
636.495 104.311 1295.87
637.123 103.703 1295.21
637.297 103.573 1295
637.12 103.799 1295.63
637.032 104.056 1296.05
636.9 103.991 1295.78
636.017 106.653 1298.4
635.786 106.893 1298.64
636.79 105.097 1297.19
636.345 106.195 1298.17
612.073 78.2638 1257.81
611.89 77.9937 1258.13
611.677 78.1727 1257.68
619.515 72.5791 1239.67
619.36 72.6573 1239.99
619.43 72.5415 1240.34
619.3 72.6424 1240.32
619.885 72.6309 1240.65
620.162 73.9105 1242.43
620.436 74.0413 1242.48
619.658 72.6141 1240.68
619.465 72.6282 1240.64
620.799 74.3255 1242.69
624.223 81.7154 1248.06
633.173 89.1937 1252.19
631.219 86.2189 1249.35
630.84 86.0398 1249.41
631.882 87.8127 1251.04
628.763 83.9928 1247.47
627.208 83.3401 1246.96
626.719 82.6991 1246.47
625.933 83.0183 1247.4
622.152 79.3597 1247.93
617.603 83.1406 1247.47
617.198 83.7319 1248.13
617.96 82.4153 1246.84
617.939 81.9872 1246.24
618.171 76.2278 1241.49
617.932 78.5651 1243.09
618.045 80.3902 1245.02
618.812 73.5888 1239.77
618.933 73.6492 1239.47
618.163 74.8512 1240.63
618.628 74.0111 1240.64
618.499 77.2626 1243.04
619.122 73.2766 1240.99
619.181 72.8395 1240.59
619.146 72.7933 1240.44
619.186 72.7711 1240.22
619.283 72.7654 1239.91
619.309 72.8641 1239.69
613.486 82.2681 1255.18
613.693 81.3161 1255.84
613.556 81.0132 1256.2
611.9 78.4444 1257.49
613.708 81.223 1256.09
613.414 83.2724 1254.28
613.507 83.6631 1253.76
613.699 83.8522 1253.38
613.869 83.9306 1253.12
613.977 84.0258 1252.8
614.404 83.9852 1251.73
616.943 83.932 1248.79
616.57 84.0985 1249.25
616.649 84.1047 1249.28
615.689 84.0089 1250.13
633.363 104.065 1309.16
634.062 104.268 1307.38
634.947 104.45 1305.7
636.648 104.205 1304.79
633.257 105.956 1304.77
633.126 105.128 1305.9
633.133 104.887 1306.48
634.139 104.974 1305.13
634.353 104.731 1305.38
634.545 106.153 1302.76
634.455 106.952 1301.32
635.79 106.842 1299.14
635.9 106.81 1298.76
629.868 94.0399 1271.03
630.3 94.477 1270.93
628.23 94.2763 1266.54
627.095 92.8008 1264.91
629.172 94.4668 1267.93
628.751 94.7359 1266.73
625.119 90.8483 1261.72
624.45 90.5086 1260.43
624.099 90.1337 1260.75
623.838 89.8413 1260.5
619.215 83.9018 1259.24
620.013 84.7038 1259.01
622.312 87.5908 1259.32
633.685 94.4562 1275.75
633.105 94.9296 1274.99
632.174 94.8103 1274.34
632.841 95.0637 1274.6
631.853 94.8363 1273.75
634.224 93.7265 1276.82
634.303 93.9843 1276.44
634.845 93.7921 1277.3
617.244 82.8868 1258.29
614.739 81.2635 1256.81
615.52 81.9008 1257.23
613.836 80.8923 1256.36
614.089 80.9302 1256.39
614.354 81.0229 1256.43
635.82 92.6789 1279.73
636.228 93.1267 1279.17
636.052 93.6249 1278.31
635.703 92.4372 1280.45
635.786 92.4687 1280.32
635.708 92.4754 1280.63
635.932 92.5054 1280.22
635.964 92.5693 1279.98
635.776 93.1066 1281.23
635.723 92.6966 1280.95
635.713 92.5802 1280.79
636.511 92.6046 1281.26
636.429 92.457 1281.12
636.644 92.8855 1281.45
636.848 93.3278 1281.73
637.525 103.459 1295.08
637.934 93.429 1282.04
637.373 103.62 1295.4
637.42 103.746 1296.04
637.615 103.522 1295.65
637.41 103.92 1296.57
636.339 106.255 1298.53
637.342 104.665 1298.22
619.32 72.6618 1240.56
619.799 74.0016 1242.57
619.99 74.2161 1242.89
620.455 75.7362 1244.9
620.389 78.8239 1248.26
620.944 79.3115 1248.64
620.589 75.6143 1244.76
620.964 75.9614 1245.06
619.626 73.9616 1242.43
619.461 74.0363 1242.39
621.552 79.3331 1248.37
624.384 87.0126 1254.53
633.119 89.8522 1253.62
631.659 87.3798 1250.48
630.465 86.0892 1249.63
631.994 88.8196 1252.74
631.292 88.0642 1251.8
628.905 85.3113 1248.98
627.567 85.76 1249.71
626.523 83.7175 1247.7
626.378 86.0333 1250.68
621.813 83.6541 1253.16
617.376 83.5213 1248.11
617.813 82.8892 1247.55
618.239 81.8095 1246.59
618.119 81.6914 1246.2
618.087 78.3622 1243.11
619.208 74.1249 1241.85
619.075 75.6188 1243.47
619.277 75.1485 1243.45
618.687 78.3685 1245.01
619.215 73.0866 1240.94
619.338 73.8958 1241.88
613.89 81.4202 1255.62
613.629 82.2663 1255.12
613.628 83.2027 1254.26
614.016 81.6252 1255.31
613.889 81.1805 1255.93
614.067 81.2609 1255.71
613.936 81.0273 1256.24
613.998 81.093 1256.09
613.677 83.6825 1253.64
613.889 83.8591 1253.25
614.093 83.9482 1252.85
614.106 84.0104 1252.7
614.476 83.9833 1251.82
617.082 83.8111 1248.78
616.73 84.0718 1249.3
616.427 84.0873 1249.49
616.489 84.0738 1249.56
615.794 84.0059 1250.13
615.014 83.8135 1250.99
635.061 104.793 1304.82
635.304 104.853 1304.05
635.907 104.991 1302.91
636.354 105.391 1301.52
636.144 106.191 1299.78
636.623 105.823 1299.22
630.821 94.8601 1270.59
629.371 94.7439 1267.66
628.236 94.3849 1266.05
628.423 94.5148 1266.42
627.636 93.3312 1264.48
626.278 91.5972 1262.75
628.987 94.9286 1266.59
628.649 94.7208 1266.32
625.528 91.2032 1261.33
624.228 90.2219 1259.78
624.835 90.8324 1260.04
618.821 83.706 1258.48
619.816 84.2995 1257.59
623.114 88.0323 1257.95
634.312 94.8294 1275.35
633.986 95.3103 1274.66
633.309 95.1805 1274.73
632.891 95.1854 1274.32
633.782 95.4912 1274.25
633.316 95.6049 1272.42
634.685 93.9499 1276.62
634.777 94.1793 1276.23
635.232 93.9002 1277.28
615.575 81.9904 1257
617.064 82.862 1257.88
614.629 81.204 1256.38
614.182 81.0388 1256.2
614.401 81.074 1256.19
636.191 92.6678 1279.85
637.425 92.8233 1279.69
637.872 93.4345 1279
637.764 93.6164 1278.63
636.448 92.1325 1280.73
636.507 92.1125 1280.62
636.557 92.1564 1280.5
636.405 92.2175 1280.84
636.609 92.2013 1280.38
636.699 92.3256 1280.21
636.38 92.3164 1280.97
637.319 92.3918 1281.42
637.291 92.2148 1281.29
637.061 92.0705 1281.11
637.841 92.8307 1281.75
637.905 103.426 1297.21
638.091 103.211 1296.92
637.667 104.652 1300.07
619.846 77.7689 1247.09
620.108 75.715 1244.92
620.031 77.4981 1246.87
620.219 78.0632 1247.48
619.361 81.8187 1251.65
619.263 81.1072 1250.75
621.458 82.9223 1252.42
619.668 77.7503 1246.98
619.427 73.7141 1241.84
619.428 74.9108 1243.4
619.527 77.3933 1246.5
624.94 90.5144 1258.82
626.275 89.9013 1256.49
620.6 84.2104 1255.45
620.945 83.7501 1254.04
633.022 91.2048 1257.1
629.895 89.1021 1253.31
