658.855 162.302 2266.39
658.959 162.298 2266.64
658.95 162.315 2266.79
681.747 165.67 2248.11
683.19 164.673 2248.33
684.081 163.763 2247.3
685.915 162.025 2245.14
644.135 176.981 2292.04
642.588 176.201 2291.14
639.798 175.003 2286.51
635.976 175.459 2286.09
635.031 175.442 2285.63
638.934 175.172 2284.74
638.639 175.012 2285.48
653.717 178.235 2283.39
654.501 178.376 2281.58
654.693 178.167 2282.36
654.913 178.289 2281.15
655.184 178.298 2280.67
656.681 179.087 2280.49
656.952 180.327 2281.93
658.494 182.418 2280.67
655.283 178.008 2275.94
655.865 178.201 2275.23
657.271 179.311 2274.66
658.865 180.279 2276.88
659.32 180.452 2276.47
658.708 180.256 2275.23
658.577 180.298 2273.8
658.352 180.115 2273.67
659.174 182.656 2279.58
659.599 182.836 2279.03
654.833 177.913 2276.84
654.786 178.055 2278.21
660.12 182.981 2278.35
660.325 182.99 2278.22
660.846 182.839 2277.91
660.501 182.93 2278.05
660.756 182.813 2277.69
661.039 182.722 2277.51
663.148 179.709 2280.27
663.241 179.646 2280.66
663.622 179.599 2281.24
663.491 179.47 2280.68
663.765 179.646 2281.44
664.101 179.446 2281.24
663.386 178.965 2278.46
664.568 179.372 2280.97
665.067 179.35 2280.77
666.033 179.331 2279.51
666.997 179.322 2278.56
667.358 179.231 2278.31
667.618 179.181 2278.34
661.918 182.003 2277.34
662.213 181.597 2277.01
662.89 180.041 2277.49
661.661 182.286 2277.38
661.331 182.584 2277.54
661.619 182.365 2277.2
661.451 182.529 2277.24
661.264 182.644 2277.36
644.946 177.426 2291.63
646.466 179.662 2287.59
646.14 179.94 2287
648.083 179.539 2286.18
646.808 179.864 2286.94
650.866 179.38 2283.39
653.122 179.168 2281.44
668.012 176.748 2276.35
667.9 176.72 2276.02
667.061 177.07 2275.9
666.81 177.099 2275.51
667.091 177.003 2274.33
667.996 176.699 2272.74
667.923 176.669 2272.4
668.944 175.3 2269.36
670.582 175.017 2270.19
672.19 174.94 2271.8
672.651 171.958 2269.98
672.213 172.007 2269.39
671.307 172.207 2267.53
670.638 171.704 2266.03
670.368 171.429 2265.69
663.432 164.014 2265.73
663.198 163.99 2265.79
663.058 163.917 2265.81
669.956 170.679 2265.56
668.017 166.126 2266.54
666.666 166.437 2265.34
665.095 164.245 2265.91
663.593 164.056 2265.65
663.784 164.106 2265.57
664.34 164.331 2265.59
662.806 163.658 2265.83
660.963 162.956 2266.34
660.962 163.06 2266.38
659.469 162.475 2266.93
659.096 162.369 2266.91
658.805 162.32 2266.86
660.263 164.628 2259.83
660.856 164.876 2259.82
662.692 166.548 2258.11
664.913 168.431 2255.59
665.579 168.299 2251.66
666.215 168.798 2253.58
666.935 168.737 2252.73
666.601 168.776 2252.96
667.373 168.26 2250.3
669.043 167.989 2251.79
668.465 167.698 2249.95
669.574 167.946 2252.56
669.546 167.953 2252.12
669.997 167.981 2252.36
671.985 168.402 2251.39
672.64 168.359 2251.21
671.039 168.201 2252
673.973 168.069 2250.86
676.006 167.402 2249.97
678.835 166.641 2248.73
680.571 166.284 2247.61
658.347 162.465 2265.94
658.302 162.404 2266.21
658.164 162.762 2265.36
658.825 163.504 2263.35
659.492 164.496 2260.39
659.684 164.542 2259.54
659.924 164.564 2259.42
659.95 164.543 2259.93
658.432 162.342 2266.47
658.552 162.295 2266.7
682.455 164.825 2244.68
683.275 164.379 2245.16
683.431 164.305 2246.48
685.162 162.805 2244.14
628.164 171.647 2283.23
645.199 179.74 2286.71
645.665 179.532 2287.89
645.793 179.991 2286.61
642.552 177.172 2287.35
640.666 176.152 2283.84
644.707 179.693 2285.66
639.207 175.437 2283.63
634.41 175.143 2286.05
637.519 175.082 2286.63
635.16 175.529 2284.44
637.186 175.302 2285.15
633.66 175.114 2284.38
634.048 175.325 2283.43
638.099 175.083 2283.89
638.413 175.135 2283.24
654.392 178.52 2280.76
654.678 178.371 2280.28
655.009 178.313 2280.56
654.902 178.261 2279.63
654.725 178.285 2279.52
658.326 180.099 2277.91
658.237 181.076 2279.42
658.733 182.406 2279.98
654.723 177.671 2275.46
655.165 177.875 2275.52
655.34 177.821 2274.95
655.629 177.84 2274.62
657.304 179.205 2274.09
655.998 178.108 2274.63
659.383 180.577 2276.77
659.487 180.445 2276.02
659.48 180.564 2276.64
659.808 180.66 2276.41
659.827 180.572 2276.13
659.106 180.419 2274.84
658.892 180.45 2273.67
658.651 180.3 2273.5
658.4 180.03 2273.18
658.688 180.205 2273.13
658.541 180.043 2272.97
659.635 182.635 2278.47
660.043 182.853 2278.19
654.325 177.539 2275.43
654.578 177.989 2278.06
653.673 177.52 2275.95
660.353 182.891 2277.92
660.57 182.847 2277.78
661.327 182.543 2277.03
661.184 182.557 2277.13
661.514 182.436 2276.87
663.65 178.786 2279.47
663.472 178.959 2279.33
663.762 178.673 2279.59
663.834 179.578 2281.28
663.937 179.416 2281.01
663.747 179.346 2280.69
663.911 178.635 2279.7
664.12 179.226 2280.82
663.916 177.979 2277.54
663.779 177.986 2276.19
663.164 179.428 2275.98
663.94 177.745 2276.33
664.471 179.203 2280.65
664.882 179.293 2280.64
665.905 179.256 2279.27
664.992 179.253 2280.46
666.951 179.267 2278.34
667.362 179.211 2278.04
667.583 179.168 2278.08
667.858 179.027 2277.93
662.066 181.898 2276.83
662.253 181.635 2276.54
662.469 180.988 2276.08
662.005 181.981 2276.75
661.86 182.134 2276.79
661.679 182.295 2276.84
646.555 180.133 2286.37
646.183 180.238 2285.92
646.887 180.146 2286.06
647.816 179.753 2285.69
649.057 179.258 2285.16
650.59 179.532 2283.01
651.946 179.973 2280.62
653.479 179.125 2280.68
652.583 179.818 2280.14
668.24 176.755 2276.62
666.98 177.12 2276.06
667.14 177.136 2276.21
666.766 177.144 2275.79
666.557 177.075 2274.46
667.451 176.668 2272.19
667.053 176.187 2271.11
666.777 175.26 2268.53
666.666 174.915 2267.17
668.168 174.386 2266.4
669.682 174.201 2266.76
671.033 174.394 2268.86
672.455 174.216 2270.53
672.616 172.678 2269.84
672.124 172.734 2269.14
671.215 172.812 2267.37
670.639 172.328 2265.98
670.392 171.993 2265.6
670.144 171.582 2265.44
663.259 164.074 2265.74
663.087 164.048 2265.8
662.871 163.916 2265.82
668.309 169.607 2264.73
666.526 169.275 2263.57
665.666 166.741 2264.68
663.387 164.142 2265.65
663.245 164.322 2265.56
663.829 164.498 2265.43
664.654 167.018 2264.27
660.921 163.258 2266.39
659.408 162.532 2266.96
659.398 162.694 2266.98
658.989 162.403 2267
658.644 162.373 2266.92
658.424 162.328 2266.74
660.421 164.676 2259.05
660.14 164.584 2258.99
660.87 164.91 2259.09
662.561 166.526 2257.49
664.6 168.29 2255.34
665.195 168.206 2252.42
666.322 168.41 2250.91
664.25 167.315 2249.62
664.157 167.475 2247.62
664.584 167.784 2246.4
665.794 168.005 2248.19
666.668 168.445 2250.72
666.974 168.354 2250.33
667.277 168.253 2250.13
667.207 168.127 2249.6
668.239 167.474 2248.76
668.271 167.439 2248.06
667.849 167.678 2246.56
666.695 167.814 2246.12
669.309 167.491 2250.43
669.484 167.883 2251.7
669.137 167.113 2249.05
669.835 167.909 2251.79
669.848 167.962 2252.1
671.036 168.198 2251.6
672.266 168.417 2250.9
672.779 168.34 2250.7
673.467 168.209 2250.61
674.095 168.013 2250.05
675.671 167.433 2249.44
678.561 166.701 2248.18
680.611 166.136 2246.7
658.039 162.493 2266.13
658.019 162.613 2265.81
658.025 162.447 2266.39
658.365 163.694 2263.25
657.848 162.899 2265.33
659.182 164.53 2260.51
659.415 164.569 2259.55
659.546 164.538 2259.67
659.716 164.528 2258.87
659.689 164.541 2259.08
659.882 164.492 2258.63
658.184 162.411 2266.56
682.858 163.935 2242.06
630.98 173.431 2283.66
629.584 172.5 2281.18
625.764 171.151 2280.52
645.224 180.009 2285.52
645.753 180.177 2285.66
643.202 178.291 2284.29
640.973 176.534 2282.09
638.925 175.329 2282.62
644.682 179.792 2284.68
634.993 175.055 2281.19
636.438 175.013 2282.16
634.096 175.242 2282.29
633.058 174.96 2282.88
633.103 174.949 2282.1
633.513 175.054 2281.81
637.496 174.729 2281.6
637.87 174.933 2282.33
638.205 174.931 2281.76
638.69 175.157 2281.97
654.384 178.427 2279.74
653.636 179.078 2279.89
654.682 178.341 2279.71
654.423 178.244 2279
653.818 177.816 2277.3
654.435 178.066 2278.4
659.057 180.579 2277.31
659.25 182.306 2278.7
659.44 181.553 2277.71
654.754 177.456 2274.74
655.482 177.151 2273.67
655.966 177.381 2273.49
656.357 178.219 2274.17
658.161 179.696 2273.02
657.198 178.258 2272.69
659.916 180.704 2276.42
659.762 180.826 2276.71
659.685 180.434 2275.55
660.131 180.543 2275.96
660.305 180.613 2276.01
659.989 180.61 2276.16
659.936 180.464 2275.7
659.377 180.504 2274.59
659.224 180.559 2273.66
658.863 180.362 2273.27
659.063 180.429 2273.21
658.128 178.684 2271.68
658.878 180.283 2273.06
659.057 180.278 2272.85
658.737 179.993 2272.66
660.089 182.689 2277.89
659.954 182.491 2277.83
660.362 182.769 2277.73
653.87 177.338 2275.06
652.479 177.533 2276.27
660.524 182.831 2277.71
660.918 182.562 2277.26
661.673 182.109 2276.52
661.537 182.061 2276.5
661.386 181.268 2275.93
661.832 181.952 2276.41
664.09 177.762 2277.35
664.057 177.98 2278.53
663.969 179.146 2280.6
664.034 178.612 2279.8
664.078 178.597 2279.81
664.116 177.993 2278.73
664.18 178.582 2279.84
664.293 178.57 2279.81
664.04 177.599 2276.21
663.205 179.215 2275.69
663.821 177.708 2275.85
663.922 177.576 2275.82
664.42 178.57 2279.77
664.688 179.126 2280.46
664.864 178.992 2280.21
665.717 179.017 2278.95
666.844 179.242 2278.1
666.465 179.245 2278.19
667.186 179.117 2277.79
667.533 179.128 2277.86
667.688 179.075 2277.86
667.804 178.952 2277.72
662.256 181.559 2276.17
662.489 180.815 2275.71
662.178 181.628 2276.13
662.014 181.789 2276.26
646.519 180.274 2285.74
646.055 180.244 2285.37
646.828 180.216 2285.61
647.616 179.826 2285.37
648.409 179.423 2285.07
649.058 179.297 2284.53
650.311 179.633 2282.59
651.578 180.051 2280.52
652.17 179.989 2280.04
652.763 179.754 2279.73
669.483 176.665 2277.32
667.251 177.211 2276.47
667.274 177.158 2276.34
666.742 177.207 2276.13
666.947 177.213 2276.33
666.49 177.223 2276.01
665.783 177.22 2275.96
665.766 177.131 2274.67
666.011 176.981 2273.05
666.534 176.845 2272.64
665.132 176.05 2270.26
664.597 175.288 2267.92
666.473 174.746 2266.82
668.177 174.2 2266.1
669.399 174.019 2266.32
669.876 174.139 2266.71
670.979 174.201 2268.34
670.074 173.911 2266.49
672.369 173.971 2270.12
672.643 173.061 2269.75
672.096 173.171 2269.12
671.155 173.265 2267.41
670.573 172.73 2265.93
670.37 172.464 2265.61
670.16 172.125 2265.39
669.982 171.996 2265.27
668.322 170.282 2264.55
662.932 164.149 2265.75
660.917 163.363 2266.4
665.688 169.967 2263.07
666.255 170.048 2263.28
665.393 169.476 2263.14
662.743 164.361 2265.65
663.057 164.834 2265.36
662.442 164.721 2265.54
663.615 167.315 2264.09
664.346 169.808 2262.84
659.262 162.93 2267.02
658.92 162.449 2267.06
658.893 162.564 2267.1
658.554 162.465 2267
658.282 162.454 2266.83
658.39 162.448 2266.91
658.069 162.5 2266.7
658.265 162.434 2266.74
660.237 164.169 2256.55
659.752 163.87 2256.02
660.115 164.507 2258.56
660.72 164.502 2256.78
662.383 166.107 2255.43
664.472 167.855 2253.17
661.689 165.268 2252.02
661.068 165.024 2250.71
658.95 165.41 2246.49
660.281 167.688 2241.37
660.851 167.97 2240.35
665.025 167.864 2245.53
669.201 167.073 2248.25
668.829 167.283 2247.23
669.949 167.3 2245.71
669.31 167.23 2246.69
666.701 167.68 2244.97
668.936 167.564 2244.04
667.893 167.474 2244.47
661.281 168.031 2239.49
661.646 167.987 2239.02
669.613 167.461 2250.5
669.469 167.074 2249.16
669.484 167.017 2248.54
671.106 168.127 2251.16
669.906 167.496 2250.56
672.352 168.339 2250.47
673.013 168.242 2250.17
673.456 168.189 2250.26
674.277 167.373 2248.16
678.786 166.469 2247.23
680.454 166.065 2246.04
681.419 164.671 2242.66
657.841 162.563 2266.25
657.725 162.695 2265.96
657.843 162.532 2266.6
657.724 162.587 2266.5
657.891 164.104 2262.95
658.868 164.64 2260.5
657.482 163.124 2265.33
659.157 164.64 2259.65
659.38 164.586 2258.85
659.508 164.523 2258.74
659.679 164.436 2258.36
659.262 163.649 2255.56
659.715 164.045 2256.8
631.354 173.734 2281.98
630.329 172.788 2280.57
626.179 171.102 2278.98
629.808 172.434 2279.34
623.93 170.133 2279.15
645.14 180.041 2284.88
645.474 180.118 2285.1
643.667 178.647 2283.23
640.664 176.288 2281.31
639.441 175.523 2281.76
642.584 177.451 2281.32
644.706 179.744 2284.18
634.784 174.66 2279.73
635.573 174.484 2278.85
636.222 174.322 2278.52
637.824 174.428 2280.21
631.985 174.043 2281.34
633.941 174.675 2280.45
633.049 174.838 2281.49
638.085 174.632 2280.74
638.689 174.794 2280.75
638.977 175.085 2281.17
639.257 175.338 2281.49
653.594 178.991 2279.23
654.279 178.457 2279.63
654.069 178.284 2278.68
654.291 178.338 2279.17
653.8 177.979 2277.7
652.643 177.787 2276.94
660.113 181.659 2277.02
653.203 177.056 2274.87
654.953 176.928 2273.78
654.402 176.159 2272.71
655.71 176.5 2272.28
656.836 177.094 2271.47
655.955 176.743 2272.48
656.311 177.063 2272.52
660.359 180.792 2276.21
660.212 180.723 2276.18
659.632 180.52 2274.43
659.92 180.427 2275.37
660.455 180.458 2275.64
660.588 180.557 2275.78
661.024 180.688 2275.7
660.96 180.506 2275.52
660.13 180.424 2275.51
659.304 180.507 2273.2
659.447 180.579 2273.47
659.213 180.341 2272.83
659.253 180.419 2272.95
658.47 179.243 2271.95
658.101 177.648 2270.24
658.996 179.987 2272.42
659.207 180.145 2272.54
659.137 180.186 2272.63
658.609 178.881 2271.38
660.34 182.572 2277.54
660.78 182.337 2277.1
652.042 177.922 2277.29
662.028 181.303 2275.79
661.681 180.746 2275.38
661.402 181.343 2276.03
661.167 180.297 2275.12
660.882 180.347 2275.34
662.206 181.177 2275.67
664.237 177.615 2277.1
664.186 177.403 2275.94
664.032 177.483 2275.83
664.303 177.567 2277.14
664.206 178.056 2278.95
664.248 177.8 2278.47
664.328 177.799 2278.57
664.452 177.814 2278.51
663.195 179.148 2275.44
662.637 180.271 2275.29
663.579 177.991 2275.5
663.746 177.577 2275.48
663.866 177.441 2275.49
664.595 178.495 2279.59
665.373 177.56 2277.38
665.18 178.065 2278.36
665.603 178.615 2278.44
666.426 179.083 2278
666.698 179.132 2277.91
667.049 179.007 2277.63
666.854 179.064 2277.75
667.444 179.024 2277.66
667.607 179.022 2277.73
667.695 178.88 2277.59
662.449 180.808 2275.54
662.348 180.989 2275.54
646.291 180.276 2285.28
645.687 180.144 2284.73
646.447 180.277 2285.23
647.309 179.884 2285.12
648.111 179.415 2284.82
648.515 179.322 2284.53
648.845 179.296 2284.07
649.93 179.63 2282.24
651.36 180.084 2280.35
651.738 180.083 2280
652.312 179.961 2279.71
652.824 179.706 2279.33
652.627 179.82 2279.64
669.309 177.496 2277.68
669.21 176.816 2277.32
667.186 177.297 2276.66
667.485 177.213 2276.62
666.894 177.294 2276.57
666.7 177.295 2276.42
666.474 177.294 2276.31
666.335 177.266 2276.19
665.586 177.342 2276.67
664.983 177.198 2275.77
664.91 177.406 2277.12
664.842 177.052 2274.79
664.781 176.78 2273.21
665.265 176.666 2272.11
663.867 176.468 2272.61
663.731 176.035 2270.26
663.395 175.546 2268.71
663.999 176.316 2271.29
663.779 174.634 2267.23
664.618 174.953 2267.42
665.906 174.317 2266.43
667.764 174.137 2265.92
669.137 173.648 2265.81
669.73 173.729 2266.05
669.931 173.796 2266.23
671.043 173.897 2267.89
670.3 173.705 2266.38
670.075 173.57 2266.05
672.437 173.743 2269.88
672.722 173.27 2269.77
672.078 173.524 2269.17
671.138 173.579 2267.63
670.578 173.069 2266.05
670.393 172.823 2265.7
670.156 172.517 2265.41
669.947 172.424 2265.26
669.045 171.546 2264.95
669.117 171.139 2264.99
667.46 170.284 2264.07
662.436 164.03 2265.78
660.843 163.538 2266.38
659.54 163.16 2266.92
659.158 163.208 2267
665.091 170.453 2262.81
664.474 170.343 2262.7
665.6 170.541 2262.98
660.899 163.867 2266.28
660.698 166.929 2264.87
660.842 164.315 2266.12
663.378 169.787 2262.86
663.514 170.239 2262.67
658.581 162.759 2267.06
658.686 163.045 2267.02
658.527 162.544 2267.07
658.194 162.56 2266.93
658.285 162.573 2266.98
657.853 162.646 2266.91
657.715 162.648 2266.78
659.642 163.522 2253.43
658.911 163.157 2253.44
658.147 162.976 2253.25
659.014 163.304 2252.69
659.426 163.447 2252.87
657.394 163.289 2250.93
656.394 163.46 2249.22
654.54 162.627 2248.01
656.077 165.076 2243.15
658.328 168.014 2238.18
658.923 168.311 2237.54
659.24 168.361 2236.95
671.08 167.313 2244.38
671.728 167.146 2246.08
670.71 167.074 2247.34
669.936 167.587 2243.23
665.957 167.371 2243.17
667.158 167.125 2243.34
668.662 167.518 2243.73
669.606 167.573 2242.97
667.432 167.028 2242.96
668.589 167.44 2243.37
659.503 168.304 2236.59
661.9 167.789 2238.48
669.808 167.041 2248.99
670.159 167.498 2250.49
671.18 167.729 2249.9
672.468 167.813 2248.76
672.21 167.833 2248.94
671.029 167.214 2248.37
672.858 167.695 2248.34
672.169 167.124 2246.23
672.378 167.002 2245.89
672.419 166.926 2245.42
673.745 166.411 2245.17
675.267 166.527 2246.45
677.052 166.092 2246.3
678.932 165.76 2245.38
680.437 165.438 2244.33
680.904 165.369 2244.28
680.572 164.667 2242.12
680.979 162.931 2237.12
657.472 162.79 2266.24
657.3 163.044 2265.78
657.432 162.803 2266.52
657.651 162.658 2266.71
656.873 165.856 2261.5
658.645 164.885 2260.12
659.094 164.713 2259.11
656.139 164.965 2264.07
659.304 164.653 2258.4
659.429 164.526 2258.09
659.637 164.351 2257.87
659.534 164.015 2256.67
658.671 163.305 2254.5
657.373 162.927 2253.56
657.42 162.888 2253.22
658.151 163.272 2254.4
630.98 173.035 2280.38
630.592 172.807 2280.09
628.332 171.777 2278.13
626.133 170.833 2278.28
630.053 172.337 2278.8
631.126 172.509 2278.87
630.834 172.236 2278.37
623.439 169.826 2278.64
624.382 169.976 2278.52
623.92 169.868 2278.55
645.079 179.95 2284.38
643.923 178.768 2282.88
640.889 176.306 2280.79
642.948 177.588 2281.04
644.634 179.54 2283.6
634.347 173.671 2276.27
635.372 174.17 2277.32
635.122 174.153 2277.32
635.575 174.163 2277.34
637.694 174.184 2279.51
637.279 174.007 2278.95
636.158 173.922 2277.24
634.658 173.368 2274.64
634.76 173.04 2273.86
635.104 173.024 2274.04
638.294 174.012 2279.31
638.391 174.521 2280.21
632.775 173.976 2280.3
634.336 174.135 2278.98
639.237 175.072 2280.81
639.436 174.915 2280.25
638.748 174.681 2280.38
653.394 178.895 2278.68
653.489 178.177 2277.85
653.026 178.025 2277.39
660.793 181.515 2276.47
651.78 178.943 2278.45
651.511 177.488 2276.49
653.338 176.033 2273.08
653.281 175.609 2272.37
653.85 175.663 2271.73
654.753 176.085 2272.13
655.783 176.261 2270.17
656.626 176.777 2271.04
657.603 177.183 2269.96
660.034 180.455 2274.93
659.868 180.524 2274.18
659.586 180.569 2273.58
660.253 180.359 2275.17
660.579 180.326 2275.33
659.346 180.353 2272.8
659.467 180.531 2273.19
659.613 180.55 2273.31
658.479 177.84 2270.15
658.173 177.275 2269.46
658.998 179.086 2271.34
658.844 179.235 2271.6
659.288 180.01 2272.32
652.372 178.887 2278.29
662.225 180.698 2275.2
661.762 180.323 2274.98
661.28 180.053 2274.76
660.833 180.24 2275.14
660.945 180.281 2275.21
661.028 180.166 2274.97
662.385 180.534 2275.15
664.188 177.286 2275.64
664.091 177.317 2275.55
663.984 177.382 2275.53
664.357 177.656 2277.82
664.522 177.372 2276.52
664.327 177.228 2275.61
664.555 177.327 2276.37
663.087 179.063 2275.22
662.468 180.446 2275.16
662.602 180.089 2275.04
663.389 178.029 2275.22
663.52 177.704 2275.21
663.636 177.437 2275.21
663.77 177.336 2275.23
665.056 177.663 2277.77
666.043 177.525 2276.93
666.545 177.418 2276.57
666.026 178.407 2277.72
666.136 177.658 2277.1
666.641 178.969 2277.73
666.758 178.308 2277.22
667.454 178.87 2277.49
667.11 178.264 2277.13
667.407 178.083 2277.06
667.879 178.617 2277.44
645.946 180.167 2284.68
645.184 179.852 2283.93
646.218 180.192 2284.76
646.965 179.868 2284.77
647.799 179.398 2284.64
648.006 179.247 2284.37
648.267 179.187 2283.93
648.721 179.238 2283.54
649.567 179.528 2281.92
650.908 180.006 2280.54
650.246 179.793 2281.45
651.345 180.095 2280.15
651.432 180.069 2279.96
651.923 180.033 2279.66
652.508 179.859 2279.37
652.738 179.608 2278.97
667.706 177.967 2277.05
667.564 177.322 2276.77
666.767 177.43 2276.63
666.911 177.515 2276.76
664.45 177.095 2274.93
664.075 176.81 2274.18
663.305 176.588 2273.68
663.817 176.792 2274.23
663.434 176.466 2272.44
663.16 176.323 2270.86
662.945 175.992 2269.66
662.941 174.815 2267.46
665.05 172.863 2265.04
665.757 172.982 2265.31
666.746 173.638 2265.69
668.125 173.693 2265.67
669.483 173.233 2265.54
669.87 173.381 2265.75
670.377 173.439 2266.15
670.192 173.315 2265.85
672.657 173.514 2269.84
670.394 173.131 2265.89
670.181 172.791 2265.5
669.97 172.777 2265.38
669.77 172.584 2265.25
668.958 171.868 2264.96
667.938 171.398 2264.67
667.088 170.742 2263.9
659.138 163.385 2266.92
658.66 163.434 2266.97
664.558 170.94 2262.67
664.137 170.798 2262.56
663.584 170.58 2262.57
665.353 170.961 2262.97
659.415 164.018 2266.6
661.987 170.316 2262.91
659.131 169.132 2264.23
657.145 167.202 2265.61
657.964 165.578 2266.15
661.924 170.927 2262.77
658.34 162.814 2267.04
658.228 162.635 2267.03
658.321 163.264 2267
657.844 162.704 2266.98
658.001 162.693 2267.01
657.466 162.927 2266.86
657.48 162.831 2266.78
657.354 162.88 2266.61
656.828 163.078 2251.62
655.882 163.192 2249.65
655.753 163.177 2250.21
653.836 162.21 2248.64
652.438 161.583 2247.68
653.007 161.969 2246.47
655.463 164.779 2242.45
657.893 167.746 2237.92
658.536 168.204 2237.05
658.877 168.308 2236.68
659.079 168.25 2236.31
671.455 167.204 2244.26
672.061 167.067 2245.79
670.271 167.548 2243.01
670.655 167.402 2243.05
670.347 167.522 2243.04
671.968 167.223 2246.9
670.759 167.095 2247.78
669.965 167.557 2242.84
670.304 167.443 2242.66
665.925 167.017 2241.85
666.755 166.553 2241.14
667.259 166.508 2241.24
669.619 167.487 2242.5
669.929 167.46 2242.41
668.466 167.185 2242.46
668.621 166.877 2241.55
659.192 168.122 2235.99
659.646 168.076 2236.08
662.995 167.009 2237.76
672.232 167.013 2245.72
672.297 166.695 2243.36
675.097 165.361 2241.66
676.339 164.911 2240.86
678.286 164.981 2242.81
677.855 164.023 2238.17
676.87 163.766 2236.9
657.019 163.225 2266.06
657.07 163.223 2265.85
656.089 164.789 2264.59
656.976 163.279 2266.25
654.925 166.72 2262.86
655.632 167.393 2260.68
656.6 167.93 2258.52
657.789 166.373 2259.12
658.897 164.891 2258.99
659.169 164.783 2258.23
654.861 166.61 2263.35
659.258 164.666 2257.82
659.369 164.476 2257.53
659.461 164.19 2257.07
659.035 163.776 2255.6
656.813 162.955 2253.64
656.866 162.902 2253.26
656.352 163.061 2251.95
657.739 163.285 2254.35
656.663 163.063 2253.85
627.864 171.428 2277.58
629.87 171.962 2277.95
626.138 170.029 2277.11
630.563 171.47 2276.73
629.073 170.733 2276.36
627.012 169.396 2275.41
621.259 169.617 2277.58
623.469 169.617 2278.13
623.753 169.687 2278.28
624.574 169.316 2277.47
624.132 169.167 2277.48
643.948 178.469 2281.93
644.206 178.808 2282.52
640.794 176.098 2280.46
642.236 176.999 2280.2
633.976 173.523 2276.37
634.351 173.385 2274.81
632.633 172.212 2272.5
633.074 172.318 2272.26
638.147 173.175 2277.97
637.543 173.045 2277.35
638.237 172.503 2276.95
636.361 172.491 2274.57
635.572 173.258 2275.04
633.533 172.212 2271.74
634.07 171.671 2270.41
634.435 171.537 2270.14
635.179 172.586 2273.31
635.096 171.739 2271.32
634.745 171.329 2270.05
638.798 174.432 2279.84
640.61 173.318 2278.13
638.82 172.764 2277.41
638.948 173.105 2277.85
632.957 173.17 2278.29
639.576 174.455 2279.57
641.006 176.046 2280.15
639.932 174.921 2280.01
653.112 178.906 2278.44
652.798 178.919 2278.33
652.087 179.738 2279.15
651.514 179.836 2279.45
651.271 179.757 2279.49
651.253 179 2278.79
650.564 178.172 2278.28
650.41 177.703 2277.62
651.56 176.686 2275.21
652.904 175.261 2272.22
654.599 175.549 2269.41
654.803 175.754 2269.65
657.128 176.586 2268.27
656.09 176.008 2267.4
660.043 180.446 2273.94
659.726 180.515 2273.3
660.42 180.31 2274.82
660.672 180.223 2275.05
659.514 180.513 2273.1
659.525 180.434 2272.89
659.43 180.13 2272.4
659.662 180.437 2273.01
658.726 177.487 2269.48
657.758 176.624 2267.77
659.225 179.104 2271.29
659.049 177.88 2269.91
652.491 179.737 2279.08
661.844 180.08 2274.83
662.323 180.262 2274.95
661.359 179.844 2274.6
661.107 179.907 2274.46
660.947 180.059 2274.74
660.803 180.15 2274.93
662.53 180.036 2274.93
664.211 177.219 2275.3
663.916 177.284 2275.27
664.017 177.248 2275.24
663.894 177.326 2275.32
664.34 177.126 2275.02
664.098 177.151 2275
662.953 178.912 2275.04
663.23 177.866 2275.09
663.364 177.565 2275.01
663.504 177.349 2274.96
663.446 177.433 2274.99
663.648 177.223 2274.94
663.648 177.306 2275.07
666.415 177.53 2276.78
666.675 177.592 2276.77
666.359 178.364 2277.45
645.352 179.789 2283.8
645.619 179.779 2283.85
644.3 178.349 2281.6
643.843 178.096 2281.29
645.6 178.11 2281.87
647.319 179.006 2283.91
647.452 178.886 2283.68
647.6 178.844 2283.46
648.149 179.011 2283.29
649.387 179.395 2281.56
651.018 180.004 2280.16
651.375 180.037 2279.88
651.573 179.978 2279.64
652.11 179.896 2279.38
663.745 176.872 2274.4
663.141 176.626 2273.8
662.946 176.626 2273.59
662.999 176.538 2272.4
662.522 176.547 2271.08
662.645 176.256 2270.12
662.353 175.254 2268
662.734 173.167 2264.72
664.466 172.298 2263.98
665.196 171.887 2263.58
666.67 172.364 2264.78
663.351 172.704 2264.18
666.791 172.669 2265.11
667.346 173.271 2265.42
668.334 172.725 2265.21
669.713 172.956 2265.38
670.014 173.109 2265.59
670.2 173.03 2265.65
668.743 172.282 2265.03
667.516 171.85 2264.7
666.818 171.117 2263.86
658.52 163.87 2266.81
658.017 163.812 2266.87
664.002 171.335 2262.59
663.879 171.121 2262.54
663.696 170.966 2262.51
661.994 171.305 2262.7
664.867 171.343 2262.93
660.312 171.036 2263.08
658.459 169.858 2264.31
657.079 167.87 2265.5
656.768 167.454 2265.63
656.808 166.887 2265.74
657.473 165.37 2266.27
660.151 171.789 2262.98
657.993 163.071 2267.02
657.854 162.881 2267.01
657.76 163.644 2266.91
657.54 162.976 2266.92
657.107 163.268 2266.66
657.053 163.235 2266.5
655.551 163.207 2250.68
653.792 162.239 2249.25
655.415 163.073 2249.96
655.358 163.146 2250.33
652.031 161.395 2248.2
652.128 161.34 2247.53
652.332 161.354 2246.6
654.884 164.281 2241.98
657.219 167.085 2237.14
658.119 167.891 2236.69
658.353 167.937 2236.09
658.687 168.069 2236.03
658.864 168.078 2235.93
671.919 166.571 2241.66
670.491 167.183 2241.89
666.414 166.225 2240.08
667.113 166.092 2240.21
667.665 166.241 2240.61
670.025 167.243 2241.87
670.069 166.928 2241.23
669.076 166.384 2240.58
658.945 167.83 2235.51
658.691 167.822 2235.58
659.265 167.825 2235.53
660.034 167.763 2235.8
659.677 167.693 2235.51
663.845 166.154 2237.09
666.706 165.75 2239.45
673.571 165.255 2239.11
675.935 164.367 2237.65
674.658 164.067 2236.1
656.099 164.672 2265.21
656.071 164.726 2264.94
654.961 166.388 2263.75
656.133 164.662 2265.46
654.428 166.967 2263.44
654.425 167.097 2262.72
655.055 167.663 2260.77
656.046 168.255 2258.53
656.433 168.167 2258.09
657.014 167.75 2257.92
658.124 166.246 2258.29
658.989 164.968 2258.2
659.071 164.832 2257.54
654.612 166.773 2263.9
659.224 164.502 2257.15
659.147 164.149 2256.5
658.827 163.905 2255.7
658.392 163.565 2254.86
656.287 163.068 2253.47
656.513 162.968 2253.35
655.996 163.12 2252.28
655.4 163.266 2250.98
657.495 163.325 2254.33
656.79 163.197 2254.09
656.339 163.153 2253.81
627.698 170.694 2276.71
628.787 171.239 2277.06
624.463 168.632 2276.67
630.724 171.122 2273.46
628.628 169.798 2274.16
624.361 168.434 2276.28
625.404 168.653 2275.41
626.339 168.65 2274.07
627.198 168.702 2273.66
628.715 169.511 2273.51
627.951 169.027 2273.55
627.465 168.894 2273.79
622.096 169.022 2276.98
623.758 169.118 2277.49
624.046 168.459 2276.62
623.863 168.6 2276.89
642.488 177.008 2279.98
631.99 172.177 2275.27
632.299 171.888 2272
632.806 172.018 2271.72
632.464 171.933 2271.86
638.656 172.377 2276.95
638.442 172.012 2276.25
639.528 170.759 2275.66
638.791 170.475 2274.62
636.509 171.079 2272.05
635.625 169.694 2268.74
635.11 170.918 2269.71
633.515 171.778 2270.74
633.937 171.529 2270.14
634.19 170.545 2268.98
634.475 170.376 2268.79
634.815 170.196 2268.74
641.13 173.789 2278.69
639.779 172.577 2277.21
642.615 172.465 2276.7
643.014 172.995 2277.41
639.795 171.087 2276.13
640.258 174.656 2279.58
641.048 175.809 2279.8
642.255 176.756 2279.79
651.154 179.967 2279.85
650.907 179.671 2279.62
650.785 179.806 2279.93
650.484 178.888 2279.21
649.425 178.386 2279.71
650.346 176.283 2275.82
652.192 175.083 2272.89
654.166 175.126 2269.4
655.811 175.647 2266.99
656.307 175.936 2266.9
656.833 176.203 2266.94
659.87 180.387 2273.13
659.765 180.423 2273.1
660.108 180.403 2273.81
660.514 180.256 2274.45
660.61 180.217 2274.77
659.563 180.317 2272.61
659.538 180.086 2272.31
659.431 179.144 2271.33
659.677 180.305 2272.69
658.334 176.59 2267.5
657.311 176.186 2266.53
659.324 177.687 2269.58
661.473 179.571 2274.54
662.026 179.65 2274.7
661.223 179.659 2274.37
660.856 180.08 2274.47
660.978 179.857 2274.28
660.731 180.155 2274.64
662.34 178.73 2274.71
663.817 177.177 2274.98
663.495 176.903 2274.45
662.848 177.521 2274.84
662.727 177.734 2274.82
662.937 177.255 2274.68
663.102 177.11 2274.6
663.261 176.978 2274.51
644.5 177.522 2280.53
643.362 177.127 2279.84
642.897 176.993 2279.76
645.517 176.89 2280.22
646.331 177.715 2281.76
646.61 177.75 2281.8
647.416 178.47 2282.65
646.929 177.77 2281.72
647.917 178.721 2282.6
649.051 179.077 2281.27
650.699 179.85 2280.17
663.006 176.678 2273.99
663.257 176.72 2274.14
662.737 176.706 2273.89
662.602 176.669 2273.33
662.555 176.643 2272.37
662.085 176.809 2272.27
661.981 176.556 2270.29
662.226 176.252 2269.68
661.877 175.399 2267.94
661.43 173.979 2264.85
663.224 172.283 2263.42
661.333 173.357 2263.98
666.008 171.761 2263.82
663.978 171.853 2262.93
667.138 172.298 2264.89
666.694 171.484 2263.97
657.044 165.043 2266.37
663.822 171.581 2262.68
662.023 171.89 2262.81
663.723 171.319 2262.55
662.055 171.61 2262.72
659.992 172.395 2263.07
664.059 171.645 2262.78
659.741 171.488 2263.17
659.295 171.86 2263.37
657.634 171.026 2264.72
656.74 168.431 2265.58
655.54 170.108 2266.24
656.485 168.023 2265.7
656.373 167.654 2265.69
656.535 167.218 2265.67
656.655 166.656 2265.79
659.549 172.387 2263.24
657.405 163.535 2266.85
657.404 163.276 2266.87
656.802 164.941 2266.31
657.104 163.378 2266.71
657.302 163.152 2266.8
656.382 164.878 2265.99
656.223 164.782 2265.82
656.176 164.679 2265.7
655.252 163.233 2250.69
655.131 163.012 2250.09
654.104 162.448 2249.83
652.703 161.809 2249.27
651.891 161.503 2248.74
655.102 163.163 2250.47
651.701 161.269 2248.41
651.697 161.102 2247.97
651.662 160.823 2247.43
650.952 159.185 2245.71
654.286 163.548 2240.92
657.409 167.02 2235.81
655.941 164.535 2234.6
657.607 166.911 2235.11
658.16 167.393 2235.26
671.651 166.429 2241.05
672.583 165.916 2240.75
671.275 166.329 2240.62
667.629 165.968 2240.07
667.157 165.839 2239.73
671.039 166.049 2240.13
668.157 165.769 2239.89
669.321 166.092 2240.15
670.838 165.777 2239.71
658.185 166.313 2233.85
658.851 167.069 2234.66
657.771 166.301 2234
659.179 166.701 2234.31
660.199 167.145 2235.13
659.786 166.597 2234.36
664.07 164.837 2235.65
667.356 163.172 2237.01
667.179 165.493 2239.35
667.843 163.701 2238.24
673.34 165.145 2238.68
674.473 164.117 2236.15
674.275 163.983 2235.83
655.153 166.31 2264.5
654.997 166.352 2264.13
655.185 166.19 2264.27
655.354 166.115 2264.67
654.279 166.985 2263.94
654.086 167.172 2263.22
654.059 167.116 2263.72
654.011 167.354 2262.53
654.476 167.908 2260.57
655.557 168.375 2258.68
655.969 168.411 2258.15
656.38 168.254 2257.68
655.999 168.465 2257.78
656.933 167.843 2257.49
657.397 167.406 2257.58
658.252 166.179 2257.72
658.912 165.042 2257.65
658.279 165.994 2257.01
658.973 164.62 2256.86
654.736 166.64 2264.17
654.415 166.966 2264.2
654.699 166.761 2264.35
658.818 164.229 2256.16
658.556 164.067 2255.58
658.514 163.807 2255.2
657.427 163.405 2254.44
655.993 163.233 2253.49
655.707 163.243 2252.47
655.419 163.413 2252.52
655.256 163.318 2251.31
655.111 163.315 2250.94
656.396 163.242 2254
656.07 163.354 2253.85
630.661 170.855 2272.78
625.006 168.444 2275.06
623.934 168.281 2276.11
625.526 168.372 2273.6
625.976 168.365 2273.32
626.791 168.517 2273.49
628.11 168.191 2272.49
627.726 168.016 2272.45
629.569 168.673 2271.97
630.876 170.66 2272.11
628.882 168.283 2272.11
620.27 168.826 2276.38
621.576 168.32 2275.95
620.798 168.025 2275.61
622.696 168.438 2276.32
623.614 168.549 2276.78
623.783 168.406 2276.52
632.324 171.578 2271.32
632.834 171.735 2271.11
632.998 171.918 2271.28
639.359 170.279 2274.98
640 168.085 2273.32
641.167 168.224 2274.09
636.747 169.589 2270.33
638.917 168.247 2272.54
635.328 169.892 2268.68
635.141 169.079 2267.69
635.449 168.758 2267.49
635.711 168.546 2267.44
635.09 170.025 2268.7
633.412 171.602 2270.46
633.907 170.65 2269.18
634.113 169.494 2267.85
634.313 169.539 2267.92
634.216 169.296 2267.5
634.634 169.221 2267.53
634.388 169.145 2267.27
634.842 169.139 2267.52
641.695 173.876 2278.66
643.767 173.357 2277.52
640.374 171.745 2276.61
641.453 169.605 2275.38
643.333 172.305 2276.45
643.901 172.794 2276.87
641.487 175.571 2279.43
641.172 174.335 2279.02
642.543 176.647 2279.52
647.728 177.597 2280.65
648.4 176.489 2277.84
647.539 176.045 2277.75
648.266 175.61 2276.99
649.886 175.472 2275.57
651.293 174.209 2273.22
653.713 174.611 2269.53
655.597 175.332 2266.89
656.565 175.789 2266.44
656.953 176.043 2266.5
659.932 180.23 2272.9
659.797 180.262 2272.79
660.232 180.292 2273.69
660.65 180.163 2274.32
659.626 179.075 2271.33
659.65 180.086 2272.39
659.559 178.051 2270.14
659.27 176.549 2267.49
659.705 180.233 2272.6
658.805 176.455 2267.22
657.677 176.04 2266.17
658.226 176.001 2266.11
657.306 175.858 2266.05
661.419 179.255 2274.38
661.084 179.53 2274.18
660.784 180.001 2274.2
660.884 179.731 2274.06
661.647 178.308 2274.31
662.192 177.521 2274.55
662.865 176.796 2274.17
662.337 177.224 2274.45
662.451 177.003 2274.31
662.657 176.892 2274.26
643.929 176.733 2279.45
645.27 176.561 2279.39
645.651 176.443 2279.12
645.062 176.345 2279
643.069 176.849 2279.54
645.953 176.801 2280.09
646.483 176.799 2279.94
647.1 177.753 2281.61
647.078 176.92 2279.88
662.684 176.759 2274.05
662.417 176.771 2273.7
662.497 176.829 2274.07
662.411 176.731 2273.38
661.793 176.986 2272.33
662.143 176.862 2273.51
661.563 176.84 2270.58
661.099 175.931 2268.05
660.178 176.398 2267.7
659.8 176.58 2267.77
659.862 175.095 2265.22
663.132 172.094 2263.15
661.351 173.008 2263.61
659.59 175.034 2265
663.69 171.839 2262.86
656.299 166.732 2265.72
662.956 171.737 2262.84
661.565 172.208 2262.97
660.362 173.084 2263.39
659.839 172.945 2263.31
659.681 173.573 2263.7
658.409 173.83 2264.36
656.465 172.586 2265.46
657.65 173.707 2264.77
654.949 169.742 2266.46
653.724 170.49 2267.03
655.337 168.83 2266.19
655.809 167.699 2265.76
655.825 167.913 2265.84
656.176 167.441 2265.67
656.284 167.057 2265.69
656.521 164.964 2266.14
656.046 166.671 2265.64
655.749 166.468 2265.38
655.465 166.391 2265.13
655.278 166.349 2264.84
654.917 163.275 2250.82
654.816 162.991 2250.27
653.845 162.514 2250.13
652.399 161.846 2249.51
651.437 161.343 2248.8
651.512 161.571 2249.13
654.634 163.105 2250.58
654.869 163.209 2250.68
651.354 161.046 2248.45
651.35 160.748 2248.05
651.166 160.364 2247.84
650.703 159.255 2247.34
649.674 157.725 2247.68
649.941 157.754 2245.75
650.28 157.177 2242.58
650.631 157.634 2242.42
652.986 160.8 2239.31
656.464 164.742 2233.55
653.006 160.004 2236.95
655.578 163.138 2232.91
654.941 162.608 2233.36
656.811 164.781 2233.05
672.196 165.454 2239.51
667.565 165.647 2239.65
671.826 165.315 2239.24
668.203 165.431 2239.57
669.981 165.613 2239.6
671.533 165.181 2239.09
657.434 164.597 2232.62
657.188 164.686 2232.72
658.39 165.776 2233.29
657.002 164.717 2232.81
659.193 165.79 2233.41
660.561 166.147 2234.29
659.934 165.554 2233.5
661.639 165.522 2234.38
662.176 164.642 2234.2
664.508 163.116 2234.53
666.451 162.597 2235.17
665.386 162.582 2234.53
667.802 161.873 2235.88
668.74 161.702 2237.03
667.664 165.241 2239.33
668.098 163.863 2238.61
668.928 161.822 2237.36
673.021 164.943 2238.22
674.279 164.125 2236.1
674.086 163.955 2235.79
673.106 164.529 2237.29
654.891 166.7 2264.59
654.21 167.1 2264.21
654.019 167.199 2264.11
653.854 167.274 2263.29
653.775 167.267 2263.78
653.766 167.438 2262.4
654.187 167.953 2260.55
654.859 168.529 2258.69
653.823 167.995 2260.51
655.595 168.573 2258.07
656.081 168.439 2257.43
656.837 167.93 2257.2
655.71 168.57 2257.64
657.28 167.532 2257.01
657.598 167.212 2257.18
658.337 166.031 2257.36
658.225 165.738 2256.53
657.392 167.297 2256.55
658.461 164.561 2255.99
654.396 167.107 2264.42
654.61 167.09 2264.67
658.288 164.237 2255.43
658.26 163.815 2255.04
657.288 163.539 2254.52
656.336 163.424 2254.12
655.767 163.433 2253.6
655.143 163.639 2252.62
654.989 163.465 2251.4
654.697 163.707 2251.68
654.857 163.407 2251.02
655.926 163.549 2253.97
624.527 168.28 2274.72
622.884 168.303 2276
623.058 168.213 2275.65
623.521 168.171 2274.24
624.102 168.073 2272.65
624.617 167.977 2272.28
627.344 167.844 2272.27
628.876 167.476 2271.12
629.741 167.583 2270.68
628.367 167.483 2271.45
628.261 167.363 2271.25
631.409 169.695 2270.89
631.974 168.764 2269.53
630.459 167.821 2270.43
633.012 170.588 2269.76
629.859 167.745 2270.86
621.143 168.068 2275.55
621.698 168.222 2275.64
619.959 167.551 2275.12
621.923 168.337 2275.89
623.526 168.377 2276.46
633.427 170.637 2269.46
639.868 167.069 2272.52
639.167 167.028 2271.85
640.58 167.086 2273.02
642.071 167.373 2273.84
637.424 168.405 2270.35
636.983 167.537 2268.64
638.588 167.162 2271.24
635.259 168.664 2267.02
634.933 168.735 2266.71
636.744 167.324 2267.62
635.572 168.291 2266.67
633.846 169.594 2268.07
633.955 169.324 2267.48
634.064 168.994 2266.83
634.258 168.546 2265.78
634.534 168.926 2266.86
634.739 168.571 2266.13
642.144 174.084 2278.66
642.961 174.065 2278.47
645.465 174.449 2277.5
645.558 173.005 2276.45
643.089 171.666 2276.07
642.069 169.777 2275.51
643.124 168.069 2274.58
642.891 167.452 2274.12
641.754 175.387 2279.2
642.605 176.308 2279.27
642.687 175.202 2278.92
642.909 176.587 2279.35
647.408 176.291 2278.16
646.019 176.022 2278.46
645.988 175.602 2278.05
647.82 171.311 2274.82
649.381 171.493 2273.68
650.477 171.647 2272.56
652.447 172.169 2269.67
655.253 174.927 2266.95
656.175 175.343 2266.32
656.843 175.503 2265.97
659.789 180.051 2272.51
659.951 180.027 2272.68
660.332 180.171 2273.57
659.774 179.039 2271.38
659.738 178.001 2270.15
658.331 175.333 2265.32
658.608 175.487 2265.47
658.258 175.009 2265.08
661.252 179.078 2274.17
660.961 179.397 2273.87
660.42 179.979 2273.45
660.58 179.15 2272.69
661.423 178.303 2274.05
661.863 177.548 2274.3
662.06 177.259 2274.3
662.174 177.108 2274.27
662.292 176.991 2274.2
643.674 176.533 2279.29
644.911 176.117 2278.77
646.375 176.339 2278.81
662.228 176.918 2273.97
661.913 177.021 2273.51
661.656 177.158 2272.6
662.035 176.969 2273.73
661.249 177.269 2271.24
661.117 177.12 2270.51
660.273 177.909 2270.54
659.964 178.004 2270.3
662.489 172.033 2263.13
663.035 171.911 2262.95
661.596 172.426 2263.13
660.308 173.519 2263.72
659.589 174.679 2264.58
655.959 167.046 2265.65
659.485 174.352 2264.25
658.155 174.533 2264.83
656.411 174.985 2265.91
654.583 172.781 2266.83
653.731 169.726 2266.85
653.14 169.561 2267.07
654.33 169.248 2266.55
655.393 168.165 2266
655.646 167.671 2265.72
655.888 167.381 2265.64
655.836 166.815 2265.49
655.656 167.13 2265.48
655.438 166.923 2265.26
655.166 166.869 2265.07
654.946 166.892 2264.86
654.693 163.343 2250.9
654.618 163.217 2250.76
653.644 162.618 2250.3
652.719 162.153 2250.04
652.283 161.985 2249.8
651.556 161.794 2249.57
650.949 161.24 2248.89
651.163 161.472 2249.08
651.133 161.078 2248.61
651.191 161.692 2249.43
654.248 163.146 2250.66
651.152 160.822 2248.34
650.994 160.398 2248.18
650.391 159.138 2248
649.643 157.914 2248.11
649.19 157.486 2248.38
649.126 157.211 2248.05
649.448 157.393 2247.43
649.701 157.501 2245.85
649.868 157.523 2244.15
649.903 156.851 2242.75
651.002 157.254 2240.67
650.693 156.806 2240.61
650.334 156.488 2241.23
656.022 163.4 2232.52
652.563 159.389 2236.78
655.321 162.824 2232.45
655.724 163.028 2232.23
654.664 162.334 2232.48
656.411 163.596 2232.16
656.131 163.334 2232.23
671.773 164.891 2238.66
668.388 164.074 2238.88
669.584 165.422 2239.48
668.755 164.176 2239.01
670.927 164.905 2239
671.372 164.941 2238.84
657.866 164.387 2232.55
656.487 163.491 2232.05
656.712 163.45 2232.03
659.371 165.216 2233.08
661.148 163.604 2233.11
663.196 162.907 2233.68
664.283 162.463 2233.9
663.847 162.367 2233.56
666.773 162.12 2234.73
666.283 162.311 2234.61
665.179 162.094 2233.92
663.837 162.094 2233.33
664.004 161.981 2233.32
667.928 161.625 2235.37
668.869 161.356 2236.53
669.042 161.487 2236.97
668.899 162.391 2237.9
669.123 161.614 2237.24
669.197 161.559 2237.17
669.119 161.783 2237.42
673.609 163.884 2235.76
672.674 164.504 2237.41
654.088 167.277 2264.45
653.768 167.305 2264.18
653.526 167.333 2263.3
653.434 167.321 2263.87
654.732 168.664 2258.12
653.054 167.283 2263.12
652.887 167.901 2260.41
653.423 168.573 2258.23
655.244 168.68 2257.79
656.143 168.341 2257.11
655.725 168.535 2257.27
656.691 168.019 2257.05
657.099 167.64 2256.71
655.251 168.646 2257.5
657.952 165.658 2255.98
657.441 167.062 2256.28
657.149 167.437 2256.37
657.7 165.599 2255.63
654.319 167.355 2264.83
654.747 167.323 2265.06
657.981 164.037 2255.01
657.148 163.756 2254.61
656.188 163.659 2254.21
655.002 164.298 2253.43
654.92 164.011 2252.91
654.217 164.603 2252.39
654.721 163.555 2251.28
653.99 164.724 2252.28
654.573 163.454 2251.01
655.275 164.465 2253.9
621.938 168.149 2275.32
622.511 168.092 2273.86
622.808 168.007 2272.53
622.971 167.927 2272.14
625.241 167.567 2271.57
621.947 167.237 2271.23
622.965 167.852 2271.97
622.959 167.036 2270.71
626.42 167.161 2270.92
629.833 167.286 2269.98
630.451 167.418 2269.61
628.428 167.05 2270.21
629.354 167.044 2269.68
631.919 168.3 2268.86
633.173 169.259 2268.32
620.862 167.834 2275.21
633.588 169.288 2267.82
633.36 169.265 2268.09
639.666 166.803 2272.01
638.479 166.833 2270.63
638.909 166.705 2271.03
641.11 166.932 2273.07
640.388 166.706 2272.38
642.439 167.019 2273.58
635.366 168.183 2265.91
635.322 167.803 2264.42
636.985 166.774 2265.62
638.101 166.617 2269.58
633.602 168.281 2265.25
633.854 168.211 2264.87
634.139 168.135 2264.5
634.673 168.013 2264.32
634.414 167.992 2264.02
634.954 167.919 2264.34
643.836 174.804 2278.49
644.487 175.61 2278.59
646.766 171.057 2275.27
646.072 170.815 2275.37
643.599 170.42 2275.58
644.194 168.952 2274.95
644.454 168.391 2274.52
643.211 167.621 2274.2
643.06 167.081 2273.69
643.998 167.589 2273.95
643.486 176.208 2279.12
644.496 175.996 2278.8
646.421 169.201 2274.55
646.87 168.853 2274.03
648.528 169.337 2273.22
649.763 169.717 2272.29
650.743 168.883 2269.64
653.92 172.659 2267.47
652.249 169.562 2267.89
655.716 174.891 2266.44
659.95 179.019 2271.5
660.151 179.055 2271.75
659.796 178.064 2270.3
661.215 178.479 2273.73
661.121 178.383 2273.39
661.258 177.739 2272.79
660.786 177.619 2270.92
661.465 177.363 2272.61
661.787 177.469 2274.15
661.943 177.209 2274.11
662.073 177.046 2274.08
661.924 177.115 2273.93
655.537 167.469 2265.59
652.921 169.909 2267.38
653.573 169.35 2266.75
652.712 169.111 2267.06
653.127 169.019 2266.69
654.083 168.96 2266.43
655.51 167.826 2265.82
655.284 167.912 2265.86
655.355 167.31 2265.45
655.162 167.256 2265.31
654.369 163.377 2250.89
653.359 162.736 2250.46
652.81 162.354 2250.25
651.94 162.202 2250.09
651.076 162.028 2249.87
650.641 162.228 2250.07
650.271 161.271 2249.25
650.781 160.898 2248.69
650.943 162.69 2250.54
653.076 164.119 2251.29
650.701 160.472 2248.5
650.026 159.061 2248.48
649.288 157.801 2248.59
648.945 157.278 2248.49
649.044 157.562 2248.65
649.016 157.04 2247.83
648.853 157.076 2248.29
649.502 157.322 2245.92
649.562 157.258 2243.97
649.63 156.707 2242.86
649.847 156.2 2241.69
650.532 156.582 2240.17
650.203 156.273 2240.85
652.328 159.232 2236.27
655.349 162.778 2231.99
655.905 163.081 2231.91
655.694 162.965 2231.96
655.603 162.895 2231.75
654.842 162.492 2231.85
652.204 159.486 2235.22
656.233 163.263 2231.9
671.484 164.67 2238.53
672.352 164.264 2237.21
669.158 162.411 2238
669.3 164.294 2239.01
670.054 163.935 2238.69
669.396 162.735 2238.23
670.918 164.636 2238.77
671.117 164.429 2238.51
656.879 163.107 2231.8
658.932 162.28 2231.94
659.29 163.552 2232.48
656.458 163.233 2231.77
656.275 163.155 2231.72
656.576 163.091 2231.66
662.582 162.434 2233.24
661.618 161.935 2232.57
662.863 161.929 2232.97
666.735 161.99 2234.28
666.387 162.093 2234.3
665.434 161.872 2233.61
669.051 161.227 2236.41
669.145 161.313 2236.76
669.323 161.331 2236.95
669.339 161.441 2237.13
669.154 161.881 2237.53
669.335 161.671 2237.38
653.913 167.618 2264.97
653.774 167.464 2264.57
653.542 167.359 2264.27
653.147 167.287 2263.75
653.936 168.625 2257.6
652.567 167.152 2263.09
652.805 167.215 2263.69
651.282 167.163 2260.76
652.322 168.38 2257.99
652.639 168.513 2257.52
655.738 168.414 2257
655.456 168.559 2257.17
656.345 168.013 2256.71
656.811 167.782 2256.61
654.043 168.535 2257.13
657.17 167.112 2256.01
656.897 167.488 2256.27
657.397 165.517 2255.34
656.976 166.881 2255.71
654.377 167.761 2265.35
654.922 167.631 2265.48
656.586 165.137 2254.84
655.626 164.685 2254.27
654.423 165.386 2253.67
654.452 163.686 2251.26
654.238 165.98 2254.11
653.405 165.451 2252.83
653.886 164.26 2251.5
654.263 163.646 2251.13
654.87 165.827 2254.34
620.365 167.509 2274.72
621.87 167.886 2273.7
621.163 167.126 2271.53
620.915 166.522 2270.25
622.481 166.416 2269.84
624.389 166.546 2269.7
625.822 166.265 2268.34
627.579 166.793 2269.34
630.474 166.671 2266.53
631.477 167.644 2267.73
629.464 166.228 2265.66
632.596 167.804 2265.63
639.372 166.521 2271.14
638.225 166.455 2269.37
641.496 166.689 2272.84
640.305 166.495 2271.96
642.704 166.67 2273.06
635.807 167.551 2264.48
635.208 167.533 2263.14
635.761 167.168 2262.89
636.246 167.033 2263.33
637.366 166.006 2262.9
637.957 166.103 2266.38
638.302 165.478 2263.65
632.863 167.055 2263.42
633.993 167.506 2262.96
633.736 167.59 2263.3
634.14 167.685 2263.18
634.408 167.715 2263.13
634.582 167.756 2263.26
634.932 167.548 2262.9
645.839 169.168 2274.76
645.892 168.614 2274.31
643.214 166.803 2273.28
646.1 167.159 2272.39
647.463 167.695 2272.37
648.363 167.872 2271.89
649.215 168.294 2271.47
650.234 167.264 2268.42
651.934 168.611 2267.35
661.812 177.307 2274.01
655.25 167.641 2265.64
653.546 169.014 2266.5
652.575 168.615 2266.67
653.15 168.522 2266.13
652.788 168.359 2266.11
653.899 168.654 2266.17
654.556 168.243 2265.92
654.523 168.581 2266.22
653.469 164.186 2251.36
652.332 163.82 2251.17
651.79 162.664 2250.54
651.458 164.206 2251.46
651.003 164.164 2251.61
650.211 162.288 2250.32
649.753 161.474 2249.73
650.04 160.861 2249.15
652.051 165.465 2252.2
652.425 165.416 2252.23
651.95 165.228 2251.95
649.322 159.577 2249.25
649.171 157.888 2248.76
648.756 157.115 2248.5
648.874 157.398 2248.67
648.901 157.666 2248.85
648.668 156.954 2248.26
648.806 156.972 2248.13
648.837 156.951 2247.81
649.259 157.171 2246.2
649.277 157.188 2244.28
649.448 156.623 2242.88
649.677 156.031 2241.41
650.287 156.404 2239.88
650.083 156.159 2240.78
655.26 162.743 2231.57
655.889 162.944 2231.54
656.05 163.097 2231.74
655.64 162.813 2231.41
654.53 162.467 2231.38
651.883 159.737 2234.27
650.038 156.386 2239.21
672.112 163.933 2236.99
669.283 162.145 2237.81
670.314 163.481 2238.33
669.778 162.257 2237.75
669.595 162.253 2237.81
669.395 161.921 2237.61
670.579 162.987 2237.77
656.639 162.834 2231.45
657.078 162.69 2231.55
657.52 162.087 2231.42
659.782 161.103 2231.4
656.316 163.012 2231.51
656.1 162.947 2231.4
656.078 163.045 2231.64
656.36 162.869 2231.28
666.465 161.883 2233.85
665.492 161.678 2233.05
669.408 161.406 2237.15
669.576 161.566 2237.27
669.699 161.744 2237.4
654.034 168.06 2265.59
653.49 167.705 2265.05
653.365 167.47 2264.66
653.133 167.322 2264.18
652.927 167.263 2263.99
652.581 168.42 2256.8
651.245 166.431 2263.55
652.501 167.146 2263.76
652.805 167.277 2264.13
649.541 165.709 2263.49
648.939 165.713 2262.13
649.929 166.778 2259.54
651.653 168.145 2257.81
652.006 168.33 2257.19
652.165 168.348 2256.78
653.983 168.365 2256.7
655.408 168.327 2256.83
655.947 168.044 2256.6
656.519 167.651 2256.31
652.536 168.25 2256.31
656.802 167.285 2255.97
656.545 167.158 2255.79
656.05 166.594 2255.3
654.873 166.587 2255
653.64 166.965 2254.82
652.825 165.775 2253.03
653.159 164.968 2251.91
653.757 164.174 2251.34
618.077 166.278 2273.44
619.145 166.33 2271.11
620.325 166.37 2270.04
623.625 166.036 2268.38
631.805 166.569 2263.9
631.649 166.435 2263.71
625.919 165.699 2266.82
629.127 166.104 2265.01
631.362 166.272 2263.36
631.645 166.344 2263.38
638.588 166.022 2267.39
638.441 166.34 2269.37
639.742 166.383 2271.21
641.077 166.375 2271.9
