727.709 126.626 1759.6
727.854 127.855 1762.49
729.262 126.442 1761.27
724.689 127.469 1757.58
725.225 126.143 1754.61
725.832 125.463 1753.94
724.841 125.91 1753.03
723.305 126.629 1752.57
724.574 126.163 1753.38
723.894 124.892 1747.94
722.647 126.327 1749.86
722.882 125.607 1748.75
723.134 125.043 1748.08
723.271 124.893 1747.7
722.881 124.903 1747.69
722.542 124.786 1747.45
722.793 124.58 1746.84
722.591 123.658 1744.32
721.31 122.713 1741.37
721.99 123.016 1742.74
719.815 122.066 1739.92
718.105 121.414 1739.98
716.985 121.09 1738.92
717.143 120.81 1737.98
716.504 120.361 1736.9
714.767 119.728 1736.09
713.861 119.097 1735.06
701.014 140.094 1799.9
700.619 139.78 1800.01
701.75 140.57 1799.52
701.245 139.874 1799.59
702.211 140.461 1799.24
702.574 139.155 1799.09
702.459 139.961 1799.13
702.773 138.23 1799.1
702.506 138.602 1799.06
702.707 137.694 1799
702.373 138.149 1798.99
712.345 131.664 1807.32
713.186 133.391 1808.91
708.117 128.669 1800.32
709.873 130.594 1804.35
710.707 130.143 1805.21
711.043 130.012 1805.43
706.112 126.976 1796.2
707.379 126.477 1797.37
706.616 126.141 1796.15
706.167 126.759 1796.16
706.118 126.684 1796.07
706.28 125.453 1795.27
705.99 125.686 1795.06
706.122 125.507 1795.09
702.604 136.659 1798.07
704.377 132.917 1798.19
705.614 129.835 1796.75
705.755 127.613 1795.68
702.31 137.109 1798.25
702.712 136.622 1798.26
702.168 137.955 1798.82
701.981 137.933 1798.63
702.011 137.62 1798.49
701.823 137.691 1798.25
715.037 133.118 1809.41
720.37 131.536 1807.26
719.492 132.146 1808.15
719.474 131.987 1807.89
721.775 131.145 1806.72
722.491 130.088 1804.66
723.68 129.589 1803.17
720.725 128.983 1803.38
719.879 128.564 1802.74
720.268 128.695 1802.9
719.976 128.525 1802.48
717.224 126.968 1801.74
719.416 127.9 1801.29
720.119 128.31 1800.98
720.774 128.743 1800.87
721.944 129.893 1799.45
722.497 130.775 1797.8
722.625 130.904 1797.42
722.653 130.889 1797.66
722.641 130.904 1797.21
722.47 130.781 1797.17
722.323 130.574 1796.92
722.596 129.189 1795.24
722.781 129.089 1794.9
723.109 129.117 1794.6
723.453 129.206 1794.59
723.483 129.241 1794.74
722.122 130.21 1796.65
721.876 129.32 1796.09
722.249 129.045 1795.44
723.462 129.168 1794.26
723.562 129.211 1794.48
723.441 129.291 1793.21
723.184 129.105 1794.09
723.805 129.417 1791.24
723.401 129.393 1791.81
723.555 128.805 1788.88
724.611 128.437 1787.15
725.168 128.186 1786.07
727.022 128.343 1784.67
728.109 128.583 1783.38
728.478 128.7 1781.4
728.834 128.732 1781.43
728.022 128.667 1779.06
726.094 129.051 1774.57
724.397 129.918 1768.02
725.357 129.264 1772.3
724.219 130.244 1764.32
726.315 129.601 1766.32
725.859 129.855 1765.22
726.411 129.552 1765.35
731.425 126.117 1768.86
727.649 127.184 1760.96
727.461 126.731 1759.9
726.438 126.966 1758.78
728.211 127.227 1761.41
725.024 129.883 1763.49
726.109 129.072 1762.86
726.073 128.852 1762.16
726.075 127.768 1760.47
726.402 127.391 1760.1
724.093 128.34 1759.38
723.47 127.71 1756.86
724.77 126.451 1754.61
726.457 127.178 1759.5
722.637 126.918 1752.76
722.139 126.581 1750.36
722.336 126.258 1749.63
722.56 125.57 1748.5
722.2 125.396 1748.28
721.746 125.261 1748.23
722.232 124.535 1747.18
722.141 124.023 1746.05
719.851 122.28 1745.09
722.425 123.711 1744.61
721.56 122.898 1743.25
719.258 121.852 1741.76
715.19 120.968 1739.74
716.82 121.146 1739.58
715.499 121.046 1739
715.5 120.98 1738.7
716.167 120.623 1737.88
714.052 120.044 1736.89
713.121 118.889 1734.64
700.265 139.538 1800.26
700.933 139.53 1799.63
700.478 139.229 1799.64
701.561 139.893 1799.42
701.361 139.525 1799.35
701.879 139.549 1799.18
702.222 138.604 1799.07
702.107 139.085 1799.16
701.982 138.321 1798.89
701.936 138.693 1799.06
713.29 131.52 1807.7
712.408 128.577 1805.02
713.082 128.118 1805.05
710.135 129.848 1803.12
709.66 128.999 1801.97
708.457 128.177 1800.19
708.583 127.201 1799.31
710.815 129.694 1804.12
711.688 129.093 1804.84
712.392 128.294 1804.7
710.304 129.973 1803.44
705.792 126.012 1794.92
707.732 126.141 1797.33
707.856 126.456 1798.02
706.926 125.751 1796.02
706.635 125.144 1795.22
706.273 125.169 1794.75
706.167 125.41 1795.01
705.883 125.42 1794.27
705.804 125.653 1794.47
705.633 125.739 1793.96
702.718 136.439 1797.8
701.96 137.444 1798
702.246 137.026 1797.68
703.934 133.829 1797.66
704.842 132.895 1793.91
705.097 130.455 1793.48
704.973 127.158 1792.3
701.662 138.452 1798.77
701.512 138.334 1798.58
701.536 138.062 1798.34
701.559 137.875 1797.98
701.352 138.081 1798.14
714.781 131.027 1807.82
716.071 132.249 1808.86
719.963 131.187 1806.84
718.544 131.886 1808.04
720.33 130.116 1805.56
718.711 132.001 1808.17
719.91 129.55 1804.8
723.783 129.792 1803.54
723.611 129.546 1803.22
719.283 129.101 1803.97
718.76 127.977 1802.35
716.803 127.893 1803.87
715.049 126.449 1803.17
715.284 125.955 1801.45
716.355 125.984 1800.17
718.615 127.071 1799.98
717.932 126.547 1799.95
717.395 126.097 1799.81
719.14 127.491 1800.14
720.04 128.206 1800.34
721.328 129.553 1799
719.596 127.796 1799.69
721.699 129.798 1799.22
722.293 130.636 1797.74
722.425 130.746 1797.45
722.27 130.614 1797.2
721.79 129.891 1796.75
721.847 130.144 1797.1
722.43 128.939 1795.01
722.489 128.854 1794.64
722.808 128.974 1794.52
723.239 129.144 1794.48
720.286 127.438 1797.02
721.852 128.624 1795.43
723.186 129.12 1794.35
723.28 129.271 1793.16
722.838 128.958 1794.28
723.012 129.169 1792.92
723.07 129.255 1791.61
723.195 128.842 1789.58
722.3 128.065 1787.33
723.599 128.037 1786.51
722.126 127.953 1785.81
721.878 127.934 1786.18
723.755 127.615 1784.22
726.11 128.182 1783.07
722.061 127.811 1780.75
724.254 128.733 1775.49
723.911 129.521 1769.54
723.186 130.021 1768.05
722.241 130.472 1767.03
722.556 130.496 1766.65
723.413 130.326 1765.54
725.223 129.942 1764.55
722.253 130.495 1763.49
724.216 130.196 1763.32
722.372 130.579 1762.32
723.445 130.41 1762.33
725.107 128.776 1761.06
727.044 126.991 1760.02
723.296 130.277 1761.7
723.871 130.13 1761.86
724.918 129.639 1762.46
723.711 130.034 1761.45
723.047 129.412 1760.17
722.672 128.502 1758.59
722.79 127.845 1756.72
722.222 127.025 1752.74
721.546 126.741 1750.64
721.836 127.049 1752.58
721.813 126.599 1750.36
721.947 126.305 1749.68
721.65 126.179 1749.43
721.258 126.224 1749.68
719.786 125.536 1749.84
720.358 124.808 1748.53
721.556 124.176 1747.07
719.023 122.322 1746.52
716.257 120.064 1746.22
716.184 119.793 1745.42
718.949 121.61 1744.31
715.926 119.777 1743.66
716.085 119.705 1744.61
716.778 121.021 1741.34
713.861 120.693 1739.71
713.028 120.659 1739.25
712.949 120.663 1738.97
713.932 120.872 1738.77
715.471 121.052 1739.37
713.97 120.841 1738.46
714.685 120.899 1738.32
715.583 120.82 1738.27
713.941 120.721 1738.15
713.364 120.595 1738.09
712.97 120.423 1737.73
712.864 119.704 1736.27
712.529 118.714 1734.2
692.589 137.778 1796.47
693.653 139.684 1799.21
693.929 138.865 1795.23
694.07 139.917 1798.96
694.47 140.056 1798.83
694.897 140.139 1798.87
699.685 139.403 1800.93
700.012 139.356 1800.44
700.922 139.222 1799.34
701.089 139.432 1799.42
700.133 139.106 1799.79
700.58 139.074 1799.32
701.521 139.341 1799.23
701.341 139.322 1799.27
701.186 139.172 1799.22
701.737 139.117 1799.14
702.026 138.864 1799.17
701.618 138.803 1798.97
713.899 128.409 1805.58
713.403 126.895 1804.17
713.299 126.982 1804.21
713.678 126.879 1804.22
710.987 128.375 1802.45
711.801 128.369 1803.46
710.941 127.518 1801.64
708.865 126.631 1798.8
710.34 127.247 1800.5
712.678 127.094 1803.18
712.502 126.733 1802.4
713.3 126.821 1804.02
708.078 125.93 1797.29
707.418 125.439 1796.02
706.634 124.974 1794.92
706.887 124.914 1794.91
707.063 125.004 1795.3
706.392 125.003 1794.44
705.864 125.127 1793.45
705.632 125.523 1793.5
705.693 125.269 1793.17
705.02 126.804 1791.93
702.633 136.514 1796.95
701.697 137.609 1797.46
702.133 137.134 1796.67
704.116 134.44 1794.96
704.068 135.77 1792.2
704.535 134.549 1791.82
704.836 130.688 1792.02
704.619 134.138 1791.57
704.355 128.771 1791.03
704.212 128.601 1790.52
704.085 128.84 1790.46
701.348 138.748 1798.88
701.205 138.567 1798.66
701.221 138.365 1798.41
700.954 138.181 1797.92
701.384 137.843 1797.45
701.026 138.306 1798.24
715.537 130.909 1807.87
714.329 128.479 1805.74
716.441 131.815 1808.5
719.025 130.913 1806.72
718.516 131.607 1807.67
717.09 131.991 1808.58
715.969 129.898 1806.84
718.482 129.874 1805.65
718.281 129.384 1805.09
718.464 129.037 1804.21
718.892 128.527 1803.08
716.537 129.179 1805.81
714.95 126.744 1803.73
714.532 126.429 1803.41
714.805 125.804 1801.37
715.785 125.406 1799.39
716.8 125.724 1799.57
718.786 126.781 1799.02
718.199 126.389 1799.32
719.16 127.343 1799.37
717.875 125.273 1798.48
717.415 125.046 1798.54
721.007 129.285 1798.61
722.146 130.526 1797.61
720.667 128.876 1798.26
721.899 130.306 1797.46
720.494 128.532 1797.88
722.082 128.613 1794.99
722.381 128.767 1794.56
722.622 128.859 1794.21
722.493 128.788 1794.24
718.576 125.681 1798.2
718.765 125.077 1797.48
720.373 126.736 1796.14
722.791 129.024 1793.25
722.584 128.923 1793.02
722.836 129.126 1791.58
722.78 128.714 1789.9
722.085 127.975 1788.67
722.543 128.167 1787.98
721.627 127.809 1787.41
718.368 127.384 1782.3
722.348 127.922 1785.44
723.17 127.854 1785.51
723.44 127.612 1784.34
721.25 127.893 1784.28
721.539 127.95 1784.03
722.761 127.699 1782.53
721.295 127.896 1782.34
720.512 127.738 1782.62
718.485 128.097 1774.79
721.796 129.81 1768.77
721.724 130.415 1766.92
721.744 130.409 1765.8
722.255 130.426 1765.85
720.991 130.525 1763.37
719.993 130.678 1762.14
720.524 130.704 1761.98
720.791 130.611 1761.54
722.181 130.471 1761.49
722.216 130.28 1761.01
721.253 129.281 1759.34
721.822 128.532 1758.5
721.914 128.191 1757.86
721.544 127.816 1756.52
721.202 126.801 1750.95
721.461 126.99 1752.32
721.445 126.677 1750.44
721.284 126.611 1750.38
719.738 125.96 1750.66
720.929 126.66 1750.75
718.073 124.955 1750.37
718.389 124.61 1749.59
716.812 121.55 1747.93
717.751 124.407 1749.53
717.946 124.132 1749.16
718.897 122.702 1747.38
716.213 120.347 1746.96
714.996 119.084 1746.79
714.818 118.816 1746.35
714.887 118.716 1745.81
714.334 118.538 1744.65
714.581 118.526 1745.3
715.271 119.755 1742.74
714.141 119.631 1742.11
713.439 119.465 1742.13
713.499 120.506 1740
712.841 120.556 1739.44
713.021 120.409 1739.93
712.748 120.626 1738.73
713.118 120.679 1738.56
713.012 120.591 1738.2
712.708 120.548 1738.11
712.692 120.352 1737.4
712.822 120.466 1737.74
712.421 119.74 1736.22
712.244 118.802 1734.4
692.647 137.061 1793.58
694.438 139.174 1795.03
694.142 138.573 1793.22
694.895 139.373 1794.85
695.733 140.37 1799.58
695.337 139.48 1794.66
695.442 140.106 1797.75
699.821 139.181 1800.11
700.97 139.038 1799.14
700.855 139 1799.11
700.229 138.998 1799.41
700.581 138.94 1799.1
701.453 139.065 1799.11
701.118 138.966 1799
713.573 126.749 1803.94
713.467 126.679 1803.77
714.074 126.679 1803.93
714.725 128.56 1805.81
713.806 126.488 1803.67
711.533 127.057 1801.7
710.927 127.251 1801.31
708.979 126.258 1798.31
710.686 126.525 1799.67
712.791 126.365 1801.86
708.396 125.822 1797.26
707.874 125.26 1796.01
706.666 124.897 1794.42
707.498 124.722 1795.06
707.273 124.729 1794.86
707.571 124.813 1795.29
705.996 124.999 1793.4
705.911 125.05 1792.9
705.753 125.148 1792.9
705.12 126.64 1791.6
704.138 128.674 1790.18
704.426 128.233 1790.36
704.102 128.718 1789.8
703.366 136.16 1794.51
702.919 136.88 1794.32
701.627 137.531 1796.22
702.519 137.324 1794.1
703.625 136.659 1792.36
703.788 136.399 1792.04
704.088 135.684 1791.86
704.189 135.354 1791.55
704.601 131.406 1791.39
704.381 134.655 1791.31
704.121 129.208 1790.72
703.864 129.075 1790.09
703.738 129.418 1790.31
703.771 129.262 1790.2
701.048 138.786 1798.79
700.956 138.647 1798.62
700.738 138.548 1798.52
699.933 138.848 1798.78
700.608 138.415 1798.22
698.225 139.571 1799.06
699.912 138.595 1796.57
715.926 130.771 1807.76
714.472 126.844 1804.05
714.11 126.341 1803.34
714.421 125.766 1801.34
715.208 125.103 1798.92
716.223 124.699 1798.4
716.755 124.851 1798.57
717.794 124.524 1797.88
718.313 124.735 1797.67
718.023 124.522 1797.71
717.42 124.425 1797.95
720.464 126.693 1795.72
722.061 128.482 1794.48
722.27 128.629 1793.98
718.766 124.88 1797.2
718.27 124.533 1797.4
722.059 128.516 1793.08
721.048 127.563 1791.3
722.206 128.417 1790.22
719.929 126.547 1789.19
719.21 126.313 1787.96
717.024 126.228 1784.73
720.609 127.593 1785.44
713.773 127.191 1776.44
711.267 125.822 1778.07
722.37 127.76 1783.7
721.485 127.939 1782.58
715.296 128.243 1770.78
713.747 128.202 1771.43
717.402 128.409 1770.28
720.452 129.666 1768.61
721.185 130.271 1766.02
719.463 129.513 1767.33
720.321 130.427 1763.61
719.341 130.545 1762.15
719.685 130.547 1761.43
719.388 130.211 1760.38
720.501 130.309 1760.74
721.328 130.056 1760.51
720.274 129.982 1760.18
719.645 129.19 1758.68
720.543 128.27 1757.68
720.686 128.009 1757.18
719.738 128.069 1756.86
720.393 127.525 1755.32
721.084 126.925 1752.19
720.663 126.821 1752.18
720.729 127.09 1753.8
719.566 126.273 1752.13
718.333 125.469 1751.29
717.862 125.335 1751.17
717.434 124.988 1750.69
717.01 124.489 1749.89
715.031 123.911 1749.83
716.004 121.552 1748.32
716.001 120.535 1747.52
714.422 119.232 1747.53
714.36 119.745 1747.96
714.701 119.264 1747.41
714.952 119.274 1747.2
716.001 124.445 1749.95
714.801 119.042 1747.07
714.572 118.8 1746.73
714.55 118.665 1746.3
714.534 118.552 1745.92
714.077 118.377 1745.05
713.877 118.448 1744.48
714.238 118.418 1745.62
713.049 119.561 1741.9
713.572 118.395 1744.62
712.719 120.446 1739.85
712.569 120.507 1739.25
712.636 120.572 1739.11
712.576 120.583 1738.58
712.633 120.582 1738.85
712.788 120.605 1738.39
712.513 120.535 1738.02
712.589 120.571 1738.24
712.436 120.319 1737.22
712.173 119.818 1736.17
712.043 118.911 1734.48
691.249 135.436 1793.67
692.773 136.936 1793.16
694.1 138.398 1792.92
694.638 138.794 1792.93
694.438 138.684 1792.97
694.85 138.961 1793.1
696.164 140.397 1799.66
695.864 140.071 1797.39
695.695 139.383 1794.13
695.154 138.961 1792.91
699.356 139.418 1800.89
699.919 139.064 1799.55
700.313 138.902 1799.11
700.828 138.833 1798.89
700.656 138.749 1798.81
713.726 126.372 1803.41
713.929 126.217 1803.11
709.124 126.047 1798
710.277 126.167 1798.77
713.153 125.787 1800.02
711.388 126.051 1799.22
710.294 125.729 1797.49
709.088 125.122 1796.01
706.576 124.864 1793.96
706.126 124.936 1793.42
707.543 124.661 1794.77
708.454 124.522 1794.85
708.479 124.637 1795.08
706.116 125.012 1792.79
705.864 125.96 1791.26
706.105 125.737 1791.37
705.402 126.481 1791.13
704.341 128.454 1789.61
703.755 129.129 1789.64
703.724 129.207 1789.83
703.451 129.412 1789.2
703.844 129.039 1789.2
703.481 136.833 1792.61
703.267 137.195 1792.34
702.005 137.713 1793.82
702.887 137.576 1792.41
703.489 136.927 1791.97
703.729 136.473 1791.81
703.894 136.019 1791.54
704.375 134.455 1791.15
704.441 131.703 1791.14
704.001 129.75 1790.72
703.995 135.508 1791.19
704.123 135.26 1791.23
703.846 129.452 1790.48
703.645 129.662 1790.4
703.51 129.501 1790.01
703.448 129.664 1790.15
700.218 138.808 1798.81
699.286 139.356 1800.43
697.622 139.996 1800.92
696.658 139.942 1797.46
697.727 139.676 1797.43
698.279 139.501 1797.37
699.157 138.955 1795.27
701.585 137.976 1793.39
714.122 125.697 1800.96
714.737 125.017 1798.62
715.481 124.594 1798.1
716.591 124.197 1797.84
717.006 124.233 1797.87
717.849 124.34 1797.62
717.579 124.367 1797.79
720.568 126.809 1794.71
718.874 124.893 1796.83
718.372 124.502 1797.08
718.035 124.317 1797.31
719.716 126.019 1794.75
719.277 126.184 1792.94
718.509 125.619 1791.28
717.343 124.895 1789.9
715.91 124.425 1789.4
714.773 124.931 1786.45
714.501 124.058 1788.7
713.967 125.796 1782.2
712.3 125.533 1780.81
711.479 126.97 1774.23
710.328 124.977 1779.76
709.262 124.567 1779.14
709.432 125.257 1777.57
709.895 126.106 1775.7
713.909 128.232 1770.21
715.345 128.527 1767.35
716.791 128.317 1769.86
716.736 128.746 1766.57
713.967 128.244 1768.91
718.67 129.771 1764.52
717.583 129.654 1763.83
716.929 129.41 1763.68
718.819 130.275 1761.35
718.879 130.068 1760.46
718.932 128.978 1758.41
719.296 129.155 1758.61
719.457 127.799 1756.19
719.891 126.968 1753.98
719.918 127.295 1754.79
718.717 126.466 1754.11
718.005 125.939 1753.69
718.348 125.663 1752.27
717.92 125.512 1751.65
716.662 125.527 1751.71
716.652 125.348 1751.28
716.401 124.774 1750.34
716.492 125.124 1750.87
712.563 123.614 1750.36
711.552 122.201 1749.48
713.372 121.603 1749.14
714.722 122.581 1749.32
714.041 119.337 1747.69
714.075 118.983 1747.31
714.5 119.015 1747.22
714.273 119.043 1747.36
715.268 124.906 1750.59
714.804 124.762 1750.54
714.268 118.804 1747.03
714.078 118.726 1746.85
714.274 118.536 1746.27
713.794 118.342 1745.14
713.915 118.386 1745.7
714.11 118.427 1745.99
712.758 119.604 1741.86
713.29 118.52 1744.21
713.505 118.347 1745.3
713.3 118.414 1744.71
712.428 120.41 1739.88
712.392 120.482 1739.13
712.416 120.558 1738.54
712.348 120.524 1737.87
712.241 120.384 1737.14
712.001 119.912 1736.1
711.873 119.051 1734.48
691.433 135.26 1793.19
692.932 136.698 1792.74
694.225 138.216 1792.54
694.404 138.504 1792.67
694.668 138.655 1792.67
694.956 138.767 1792.64
696.29 139.6 1794.81
695.688 139.013 1793.08
695.421 138.808 1792.59
713.879 126.133 1802.92
711.509 125.851 1798.28
712.249 125.626 1797.73
713.347 125.202 1797.83
714.228 125.024 1798.33
712.185 125.447 1797.37
710.745 124.709 1795.92
710.081 124.312 1795.24
708.747 124.4 1794.41
706.264 124.924 1793.15
708.48 124.43 1794.62
710.04 124.146 1794.88
710.034 124.236 1795.07
706.409 124.988 1792.69
706.39 125.543 1791.52
707.281 125.995 1787.16
705.945 127.363 1786.87
706.681 126.121 1789.87
703.343 129.538 1789.49
703.426 129.516 1789.78
703.019 129.761 1789.28
703.201 129.592 1788.92
702.123 130.234 1788.89
703.219 137.279 1792.06
702.641 137.74 1792.45
702.942 137.562 1792.11
703.41 137.028 1791.8
703.58 136.692 1791.61
703.647 136.502 1791.41
704.335 134.25 1791.01
704.027 135.171 1790.98
704.225 132.197 1790.92
703.909 130.415 1790.7
703.65 130.107 1790.5
703.682 136.328 1791.22
703.447 130.044 1790.29
703.242 129.797 1789.86
703.247 129.997 1790.08
697.884 139.616 1796.52
698.966 138.813 1794.38
701.429 138.045 1793.1
702.48 137.809 1792.47
713.908 124.338 1796.99
714.81 124.031 1796.91
715.584 124.025 1797.07
716.957 124.149 1797.68
717.453 124.232 1797.65
718.707 124.742 1796.67
718.268 124.438 1796.93
717.887 124.257 1797.25
717.698 124.238 1797.46
719.062 125.465 1795.09
718.546 124.642 1796.58
718.663 125.767 1793.64
718.678 125.819 1793.22
718.078 125.553 1792.97
717.15 124.969 1791.2
715.65 124.285 1789.86
714.424 123.954 1789.1
714.541 124.008 1788.99
713.98 123.972 1788.64
712.877 124.86 1785.93
712.704 125.536 1784.13
715.311 125.92 1783.68
711.984 125.48 1783.94
710.645 124.954 1780.7
709.724 126.134 1775.22
711.899 127.279 1772.62
709.76 126.119 1774.88
709.019 124.433 1779.63
708.952 124.494 1779.2
709.072 124.484 1779.31
709.025 125.209 1777.66
708.787 124.545 1779.01
709.325 125.899 1776.1
709.471 125.984 1775.84
709.483 126.03 1775.51
709.667 126.086 1775.46
715.435 128.57 1766.53
713.969 128.125 1767.45
715.465 128.675 1764.63
718.29 129.83 1760.57
718.381 128.557 1758.14
716.397 126.251 1756.71
716.48 126.088 1756.08
716.597 125.965 1755.33
717.661 125.803 1753.53
718.039 125.615 1752.3
717.611 125.565 1752.43
716.86 125.703 1752.7
716.467 125.847 1753.23
715.539 125.643 1752.03
715.268 125.385 1751.5
715.542 125.193 1751.03
711.627 123.604 1750.85
710.477 122.087 1749.78
711.429 121.623 1748.95
712.879 120.787 1748.58
713.726 119.175 1747.55
713.78 118.812 1747.05
714.495 124.983 1751.05
713.931 118.493 1746.3
713.585 118.425 1746
712.944 118.714 1743.98
712.459 119.821 1741.46
713.279 118.418 1745.4
713.079 118.465 1744.78
712.279 120.46 1739.81
712.326 120.625 1738.99
712.288 120.611 1738.42
712.183 120.578 1737.71
712.06 120.554 1737.19
711.876 120.018 1736.03
711.634 119.127 1734.14
691.543 134.962 1792.82
693.177 136.512 1792.41
694.475 138.116 1792.28
694.736 138.502 1792.45
695.146 138.573 1792.33
695.41 138.588 1792.32
698.185 138.75 1793.68
696.857 138.595 1792.92
695.891 138.774 1792.61
695.75 138.567 1792.27
713.447 124.876 1797.31
711.581 124.598 1796.03
711.774 123.992 1795.57
713.06 124.552 1796.54
711.909 123.898 1795.45
708.464 124.51 1793.93
712.411 123.785 1795.35
712.643 123.803 1795.16
710.106 124.165 1795
712.481 123.814 1795.53
708.637 124.58 1793.56
706.753 125.421 1791.65
706.897 125.964 1790.31
707.514 125.862 1787.23
708.552 125.379 1784.43
708.679 125.418 1782.86
702.243 130.452 1787.81
701.668 130.609 1788.6
705.178 128.499 1785.52
706.198 128.227 1783.06
707.545 126.718 1782.56
703.712 129.44 1787.34
708.101 125.539 1786.29
707.058 126.012 1789.7
703.238 129.666 1789.52
703.157 129.784 1789.59
702.903 129.923 1789.58
701.952 130.291 1789.65
702.025 130.249 1789.31
700.667 131.009 1790.05
700.558 131.188 1789.54
700.881 130.969 1789.27
703.145 137.345 1791.86
702.68 137.718 1792.25
702.805 137.629 1792.03
703.399 136.99 1791.61
703.476 136.764 1791.38
704.137 134.619 1790.88
703.737 135.898 1791
704.022 132.614 1790.79
703.751 130.76 1790.64
703.497 130.434 1790.45
703.389 136.708 1791.23
703.218 130.344 1790.21
703.004 130.043 1789.77
703.032 130.18 1789.98
701.051 138.098 1793.13
701.239 138.053 1792.81
702.488 137.826 1792.26
712.696 124.078 1795.87
713.203 123.828 1795.82
714.136 123.807 1796.27
715.501 123.958 1796.7
716.994 124.114 1797.56
717.375 124.15 1797.47
718.044 124.324 1796.99
718.283 124.494 1796.65
717.692 124.205 1797.15
718.335 124.585 1796.4
718.374 125.072 1795.22
717.156 125.172 1793.59
716.493 124.975 1792.6
715.712 124.483 1790.85
714.359 123.894 1789.64
713.908 123.884 1789.12
713.139 123.953 1788.44
713.307 124.071 1788.06
712.089 124.664 1786.25
711.312 125.124 1785.06
710.799 125.144 1785.14
710.302 125.175 1785.27
709.435 124.719 1781.67
710.851 125.09 1782.08
709.426 126.024 1775.29
709.482 126.037 1775.07
709.78 126.074 1774.5
711.968 127.277 1771.6
709.54 126.039 1774.79
708.807 124.4 1779.61
708.621 124.453 1779.5
708.547 124.522 1779.14
708.705 125.235 1777.76
709.066 125.898 1776.28
709.251 125.994 1775.53
709.074 126.018 1775.81
709.367 126.002 1775.63
713.56 127.644 1766.43
712.105 127.227 1770.34
714.539 127.901 1764.35
716.424 128.898 1761.89
716.798 127.94 1759.33
715.257 126.304 1758.57
714.436 125.583 1758.19
714.829 125.624 1757.38
714.971 125.613 1756.82
715.929 125.981 1756.4
714.458 125.525 1754.61
715.799 125.772 1753.99
717.455 125.719 1753.45
714.514 125.381 1752.23
714.251 125.151 1751.63
714.983 125.452 1751.92
715.122 125.197 1751.14
710.791 123.589 1751.44
709.37 122.537 1750.74
710.27 121.853 1749.4
711.271 121.285 1748.5
712.567 120.308 1748.17
713.32 119.028 1747.32
713.552 118.709 1746.79
713.338 118.651 1746.47
713.225 118.497 1745.92
712.723 118.88 1743.82
712.282 119.902 1741.39
713.02 118.489 1745.37
712.83 118.564 1745
712.213 120.637 1739.59
712.188 120.794 1738.99
712.129 120.68 1738.05
711.961 120.753 1737.17
711.701 120.279 1735.84
711.47 119.287 1733.91
691.138 134.569 1792.73
692.01 134.148 1792.19
693.873 135.873 1791.81
695.233 137.311 1791.58
694.932 138.291 1792.18
695.182 138.386 1792.15
695.855 137.935 1791.73
696.078 138.086 1791.83
698.443 138.286 1792.9
699.467 138.093 1792.69
701.253 137.949 1792.53
696.512 138.26 1792.14
697.852 137.718 1791.71
696.333 138.197 1791.96
712.544 123.874 1794.83
713.878 123.773 1795.34
707.875 125.377 1792.02
710.292 124.941 1792.72
712.64 124.327 1793.6
713.633 123.927 1794.66
707.163 125.863 1790.6
707.319 125.967 1789.97
709.045 125.084 1782.35
708.772 125.264 1782.06
708.053 126.093 1782.01
698.634 133.8 1787.55
698.669 134.045 1786.94
701.797 130.986 1787.37
703.156 130.2 1786.79
703.482 131.779 1784.38
704.169 131.361 1783.24
705.422 129.523 1780.7
706.28 128.07 1781.04
708.148 125.537 1786.93
709.238 124.941 1782.4
707.371 125.964 1789.52
702.771 130.072 1789.86
701.943 130.328 1789.89
700.722 131.019 1790.61
700.666 131.028 1790.39
700.4 131.216 1790.32
700.282 131.352 1790.2
698.84 133.396 1788.24
702.914 137.53 1791.88
703.069 137.383 1791.68
702.655 137.706 1792.03
702.8 137.576 1791.84
703.24 137.133 1791.49
703.798 135.264 1790.87
703.447 136.408 1791.1
703.857 132.892 1790.71
703.523 130.841 1790.53
703.307 130.517 1790.37
703.127 136.86 1791.22
703.12 137.163 1791.39
702.994 130.316 1790.13
703.065 130.483 1790.24
702.845 130.168 1790.06
702.427 137.812 1792.08
716.006 124.021 1796.68
718.064 124.355 1796.84
717.945 124.342 1796.74
716.098 124.079 1796.25
716.101 124.368 1795.16
715.377 124.712 1793.04
715.382 124.736 1792.35
714.681 124.71 1791.98
714.736 124.308 1790.96
714.137 123.911 1789.91
713.404 123.875 1789.03
712.593 124.02 1788.17
712.359 124.26 1787.33
711.813 124.661 1786.28
711.281 124.978 1785.58
711.39 125.054 1785.26
710.69 125.076 1785.66
709.295 125.221 1785.65
710.329 125.141 1785.81
709.47 125.028 1783.78
709.055 124.638 1780.8
708.784 124.446 1780.07
709.329 126.009 1775.08
709.297 125.979 1774.76
709.458 125.916 1774.44
709.964 126.071 1774.01
708.582 124.45 1779.92
708.413 124.508 1779.99
708.399 124.495 1779.52
708.288 124.584 1779.25
708.397 125.38 1777.8
708.819 126.014 1776.28
708.838 126.083 1775.88
709.133 126.039 1775.19
708.974 126.085 1775.49
712.974 127.258 1766.66
712.774 127.35 1767.46
712.223 125.533 1763.41
709.818 125.132 1772.19
711.343 125.917 1768.9
712.009 124.214 1760.52
712.465 123.883 1758.86
712.432 123.765 1758.27
712.319 123.765 1757.62
711.892 124.516 1754.87
709.705 123.619 1753.69
710.086 123.577 1752.37
708.937 122.655 1751.41
708.908 122.521 1750.93
709.157 122.388 1750.44
710.03 121.617 1748.88
711.142 120.963 1747.95
712.327 120.046 1747.81
713.068 118.971 1747.07
713.011 118.748 1746.52
712.885 118.637 1745.83
712.582 118.925 1744.07
712.186 120.036 1741.34
712.66 118.679 1745.16
712.073 120.988 1739.06
712.082 120.916 1739.45
712.03 120.931 1737.91
711.908 121.089 1737.41
711.768 121.284 1736.84
711.555 120.663 1735.67
710.613 121.165 1732.6
691.205 132.487 1791.58
692.973 133.665 1791.56
694.719 135.271 1791.16
695.563 137.665 1791.65
696.331 137.059 1790.98
696.264 136.59 1790.68
696.41 137.297 1791.15
696.883 136.617 1790.26
697.089 136.709 1790.25
696.775 137.69 1791.49
698.569 137.533 1791.54
700.148 137.925 1792.67
701.341 137.802 1792.3
702.35 137.677 1791.86
702.604 137.659 1791.86
697.238 137.302 1790.96
697.523 136.933 1790.3
708.153 125.793 1791.12
709.45 125.766 1791.23
710.991 125.364 1791.55
712.709 124.83 1792.43
713.876 124.179 1793.98
714.146 124.483 1793.22
708.236 125.886 1790.56
708.284 125.92 1789.9
708.624 124.83 1781.12
709.117 125.012 1782.06
708.76 124.736 1781.07
708.301 125.131 1781.08
708.458 124.955 1781.08
707.293 126.206 1780.18
707.764 125.738 1780.78
697.404 135.15 1787.37
697.681 134.888 1787.54
697.145 135.558 1787
700.141 134.337 1785.06
702.443 134.156 1783.15
702.637 134.223 1782.64
703.057 133.779 1782.36
703.935 132.345 1780.04
702.892 134.023 1782.28
707.243 126.963 1778.02
707.812 125.093 1779.28
707.667 125.276 1779.62
705.707 129.954 1777.31
707.75 125.843 1788.85
709.262 125.566 1788.55
708.914 124.682 1780.97
701.923 130.418 1790.13
700.739 131.057 1790.76
700.412 131.246 1790.96
700.357 131.244 1790.79
700.331 131.25 1790.58
700.04 131.621 1790.32
700.055 131.584 1790.54
698.955 133.188 1788.81
697.87 134.735 1787.71
702.911 137.413 1791.62
703.576 135.386 1790.88
703.273 136.35 1791.06
703.655 133.012 1790.66
703.364 131.067 1790.51
703.2 130.697 1790.37
702.978 136.8 1791.19
702.816 137.173 1791.39
702.868 137.315 1791.49
702.816 130.289 1790.19
702.915 130.62 1790.34
702.734 130.474 1790.24
702.551 130.291 1790.03
714.631 124.709 1792.51
713.952 124.724 1792.27
714.167 124.239 1790.93
713.904 124.697 1792
713.599 123.899 1789.54
712.968 123.939 1789
712.674 123.975 1788.6
711.23 124.648 1786.94
711.443 124.644 1786.54
710.098 125.193 1787.36
709.067 126.005 1774.84
709.057 125.827 1774.48
709.155 124.913 1773.14
708.963 124.936 1773.32
709.368 124.937 1772.84
708.253 124.578 1780.02
708.285 124.528 1779.73
708.203 124.583 1779.6
708.055 124.763 1779.3
708.018 125.764 1777.83
708.482 126.306 1776.16
708.58 126.239 1775.79
708.808 126.1 1775.39
708.705 126.107 1775.61
708.925 126.078 1775.08
710.121 124.109 1767.43
710.302 123.515 1762.72
709.193 123.921 1770.93
710.589 122.865 1760.77
711.129 122.701 1759.62
710.974 122.576 1759.55
710.815 122.446 1759.32
710.65 122.349 1759.04
711.405 123.477 1756.81
709.73 123.548 1755.47
708.614 123.057 1754.58
709.169 123.351 1755.73
708.451 122.921 1754.24
708.212 122.712 1753.27
708.803 122.446 1750.79
708.826 122.403 1750.55
709.784 121.521 1748.59
712.152 119.904 1747.46
711.108 120.715 1747.41
712.089 119.738 1746.86
712.123 119.522 1746.49
712.506 118.966 1744.52
712.075 120.271 1741.26
712.133 119.632 1744.79
712.227 119.372 1745.9
712.016 120.349 1742.59
711.983 121.229 1738.6
711.846 121.534 1737.81
711.088 123.082 1735.02
711.441 123.918 1737.71
710.48 124.541 1733.74
709.811 123.186 1731.5
709.872 122.727 1730.96
691.104 132.178 1791.39
693.604 133.784 1791.23
695.006 135.049 1790.84
696.728 136.333 1790.08
696.346 135.912 1790.06
696.797 135.595 1789.25
697.499 136.379 1789.67
697.414 135.894 1789.16
697.153 135.622 1789.01
699.089 137.652 1791.93
698.101 137.135 1790.85
697.606 136.363 1789.66
697.739 136.341 1789.71
699.966 137.739 1792.32
700.35 137.756 1792.43
701.37 137.66 1792.12
702.275 137.575 1791.75
702.676 137.543 1791.72
709.75 125.765 1790.89
711.206 125.376 1791.2
712.745 124.94 1792.05
713.837 124.683 1792.57
709.994 125.722 1790.56
709.332 125.795 1789.77
708.517 125.847 1789.09
708.187 124.682 1780.21
707.934 124.931 1780
697.38 135.16 1787.62
697.072 135.389 1787.44
697.603 134.973 1787.77
696.836 135.687 1787.09
697.155 136.718 1785.62
699.601 136.625 1782.6
697.781 137.744 1783.7
701.205 135.138 1782.96
701.436 135.211 1782.36
701.587 135.2 1781.89
701.293 135.07 1777.96
705.222 130.548 1775.39
707.193 128.086 1776.1
708.014 126.811 1776.16
707.884 124.926 1779.63
706.799 128.584 1774.58
711.015 125.231 1789.65
711.345 125.344 1790.87
701.97 130.418 1790.23
701.029 130.954 1790.8
700.598 131.23 1791.07
700.389 131.311 1791.14
700.24 131.383 1790.92
700.172 131.439 1790.75
699.858 131.906 1790.72
699.995 131.677 1790.65
699.049 133.13 1789.36
698.043 134.581 1788.06
697.861 134.781 1788.05
703.323 135.401 1790.89
703.069 136.291 1791.04
703.369 133.155 1790.66
703.172 131.364 1790.57
703.051 130.918 1790.46
702.595 137.147 1791.4
702.82 136.669 1791.19
702.624 137.454 1791.62
702.411 137.421 1791.6
702.466 130.429 1790.18
702.762 130.949 1790.47
701.791 131.001 1790.78
701.841 130.748 1790.6
712.89 124.924 1791.83
713.848 124.546 1791.67
714.053 124.27 1790.85
713.649 123.961 1789.96
713.193 124.785 1791.58
713.475 124.79 1791.9
713.007 123.994 1789.38
712.361 124.064 1788.57
711.078 124.682 1787.61
708.775 126.016 1774.78
708.839 125.857 1774.48
708.797 124.99 1773.44
708.901 123.909 1771.55
708.614 123.983 1772.09
708.073 124.695 1779.78
708.131 126.725 1775.72
708.31 126.496 1775.6
708.559 126.191 1775.37
708.435 126.348 1775.5
708.643 126.063 1775.01
709.745 123.825 1767.6
709.936 123.47 1763.79
709.233 123.63 1769.43
710.247 122.659 1760.92
710.626 122.359 1759.71
710.445 122.222 1759.57
710.615 122.346 1759.69
710.499 122.333 1758.87
710.266 122.12 1759.42
710.528 123.076 1757.09
709.498 123.324 1756.14
708.88 123.268 1755.94
709.268 123.266 1756.36
708.322 123.02 1755.48
708.11 122.635 1752.99
707.854 122.755 1755.03
708.735 122.379 1750.38
708.018 122.58 1752.78
708.616 122.363 1750.12
708.993 122.077 1749.6
709.003 121.843 1748.94
710.11 121.02 1747.39
711.108 120.573 1747.01
711.413 120.294 1746.69
711.615 120.181 1746.36
711.666 120.579 1745.2
711.437 120.517 1745.89
711.589 122.9 1740.91
711.421 123.535 1741.96
711.025 126.06 1735.92
711.107 126.422 1737.06
710.818 126.308 1735.37
710.122 125.12 1733.37
709.544 123.488 1731.28
709.659 123.076 1730.97
709.779 122.798 1730.52
686.624 130.885 1788.57
690.195 131.015 1790.45
691.054 131.841 1790.99
691.828 132.552 1791.27
693.831 133.736 1790.97
695.061 134.79 1790.58
696.572 135.692 1789.55
696.645 135.631 1789.42
696.187 135.388 1789.66
696.492 135.41 1789.27
696.869 135.444 1788.97
696.604 135.361 1789.08
697.356 135.588 1788.84
697.483 135.681 1788.96
697.149 135.41 1788.75
698.738 137.321 1791.48
699.365 137.436 1791.92
699.856 137.536 1792.15
697.996 136.268 1789.87
697.861 136.315 1789.79
697.559 135.615 1788.92
700.327 137.582 1792.23
701.459 137.475 1791.92
697.052 135.272 1787.79
697.174 135.211 1787.97
697.37 135.174 1787.92
697.158 135.276 1787.65
696.781 135.348 1787.82
696.792 135.501 1787.46
697.628 135.017 1788.03
696.682 136.824 1785.87
697.179 137.917 1784.24
698.902 137.625 1782.04
699.97 136.639 1781.93
697.676 138.039 1783.22
700.086 136.614 1781.46
699.191 137.556 1780.43
698.799 137.631 1775.38
702.463 133.862 1771.26
703.971 131.729 1775.67
702.989 132.523 1774.9
703.879 131.706 1774.82
704.73 132.101 1767.09
707.116 128.045 1774.46
706.315 129.071 1771.73
706.024 129.633 1771.66
705.914 130.796 1765.93
708.053 126.746 1775.34
711.478 124.819 1789.28
712.495 124.53 1790.26
713.463 124.31 1790.6
702.058 130.458 1790.35
701.161 130.975 1790.88
700.694 131.274 1791.22
700.481 131.318 1791.3
700.223 131.612 1791.24
700.17 131.57 1791.06
699.971 131.751 1790.82
699.949 131.859 1790.98
699.798 132.089 1790.93
699.01 133.571 1789.94
699.196 133.019 1789.87
698.224 134.623 1788.6
697.975 134.844 1788.31
697.852 135 1788.31
702.885 135.93 1791.02
703.004 133.31 1790.74
702.837 131.409 1790.59
701.58 137.196 1791.72
701.693 136.857 1791.59
701.727 131.236 1790.88
701.799 131.563 1790.97
700.757 131.371 1791.3
700.623 131.552 1791.39
700.821 131.675 1791.39
712.317 124.167 1788.95
708.478 126.002 1774.63
708.653 125.851 1774.45
708.58 125.033 1773.5
708.512 124.087 1772.32
708.761 123.757 1771.22
709.01 123.576 1769.74
708.543 123.75 1771.41
708.158 126.654 1775.5
708.305 126.428 1775.25
708.451 126.193 1775.04
709.536 123.702 1767.65
709.58 123.515 1765.2
709.275 123.556 1767.74
710.057 122.574 1760.89
709.252 123.339 1764.98
710.293 122.172 1759.73
710.37 122.212 1759.79
710.22 122.217 1759.06
710.2 122.156 1759.78
710.11 122.111 1759.68
710.033 122.161 1759.34
710.113 122.859 1757.46
709.785 122.744 1757.84
708.872 123.287 1756.25
708.659 123.285 1756.08
709.225 123.207 1756.82
708.934 123.37 1756.49
708.184 123.028 1755.67
707.704 122.708 1755.03
707.911 122.574 1752.74
708.814 121.9 1748.72
708.49 122.429 1750.08
708.475 122.452 1750.22
709.538 121.163 1747.18
709.904 120.999 1747.12
710.148 120.925 1747.04
710.705 120.744 1746.96
710.979 120.651 1746.71
711.232 120.526 1746.38
711.318 121.03 1745.22
711.276 123.582 1742.43
711.146 120.775 1745.94
711.002 126.646 1738.6
711.049 126.752 1737.6
710.919 126.726 1739
711.022 126.554 1736.52
710.844 126.763 1736.02
710.56 126.54 1734.97
709.816 125.29 1733.03
709.291 123.597 1731.11
709.373 123.275 1730.81
686.225 129.83 1782.53
685.915 130.639 1787.69
689.172 132.33 1785.79
688.59 131.057 1789.05
689.117 132.304 1786.46
689.173 132.198 1787.04
689.912 131.036 1789.62
690.042 130.98 1790.03
690.235 131.048 1790.23
690.554 131.258 1790.55
693.943 133.722 1790.26
690.863 131.505 1790.49
693.304 133.247 1790.09
692.417 132.708 1790.8
694.982 134.57 1790.42
696 135.155 1789.54
696.36 135.224 1789.04
696.127 135.177 1789.28
696.696 135.314 1788.82
696.971 135.321 1788.68
697.38 135.426 1788.63
697.135 135.25 1788.47
697.24 135.319 1788.57
698.872 137.038 1791.38
699.335 136.877 1791.66
699.687 136.937 1791.84
699.887 137.241 1792.01
700.298 137.32 1792.06
698.182 136.225 1790.03
697.922 135.222 1788.73
697.763 135.256 1788.67
697.53 135.358 1788.53
696.938 135.227 1788.06
697.389 135.208 1788.15
697.187 135.209 1788.2
696.74 135.274 1788.15
696.481 135.331 1788.03
696.407 135.537 1787.6
697.64 135.156 1788.31
696.34 136.82 1785.99
696.758 138.223 1784.08
696.981 138.228 1783.89
698.632 137.978 1780.54
697.879 138.21 1781.38
698.633 138.176 1777.67
698.323 138.023 1774.96
699.069 137.058 1771.58
701.271 136.547 1764.22
703.88 134.805 1761.47
705.712 132.821 1760.67
707.076 126.771 1772.62
707.865 126.778 1774.91
707.498 126.211 1773.5
706.834 127.297 1767.77
706.29 129.793 1767.84
706.14 130.64 1764.7
706.373 131.559 1760.55
708.09 126.482 1774.94
700.447 131.487 1791.36
700.261 131.803 1791.37
700.038 131.923 1791.19
700.145 132.045 1791.4
699.837 132.318 1791.13
699.077 134.042 1790.5
698.328 135.135 1789.38
698.096 134.998 1788.75
701.81 136.308 1791.43
701.927 133.912 1791.17
701.794 131.921 1791.06
700.256 137.033 1791.96
700.491 136.363 1791.79
700.87 132.197 1791.47
700.607 131.848 1791.46
700.424 131.785 1791.43
708.265 126.24 1774.84
708.112 125.22 1773.56
708.314 125.084 1773.57
708.3 124.206 1772.59
708.364 123.906 1771.89
708.837 123.545 1769.85
709.013 123.471 1767.9
708.431 123.709 1771.28
708.547 123.526 1770.25
708.728 123.468 1769.54
709.059 123.245 1764.67
709.982 122.441 1760.51
709.809 122.447 1760.6
710.041 122.131 1759.71
709.852 122.244 1759.3
709.886 122.182 1759.66
709.989 122.147 1759.68
709.575 122.733 1758.07
708.634 123.426 1756.29
709.007 123.321 1756.99
708.903 123.41 1756.7
708.055 123.073 1755.82
707.596 122.677 1754.91
707.636 122.733 1755.22
707.713 122.722 1755.28
707.876 122.604 1752.17
707.567 122.691 1754.84
708.327 122.543 1750.1
708.224 122.594 1749.98
708.617 122.016 1748.38
709.107 121.416 1747.05
708.695 121.719 1747.09
710.128 120.933 1746.81
710.877 120.817 1746.36
710.999 121.217 1745.35
711.041 123.675 1742.73
710.768 126.69 1739.66
709.98 121.328 1746.06
710.932 127.037 1738.01
710.916 126.996 1736.92
710.826 127.078 1738.7
710.776 127.26 1736.98
710.647 126.924 1735.83
710.382 126.645 1734.74
709.481 125.344 1732.75
708.991 123.808 1731.01
709.066 123.506 1730.73
689.813 132.274 1783.47
688.224 131.861 1785.62
686.346 129.564 1779.95
684.534 128.195 1780.91
689.42 131.565 1780.29
684.896 128.739 1778.64
692.034 133.652 1784.62
692.14 133.832 1785.93
689.322 131.491 1788.42
691.588 133.409 1786.39
690.338 132.067 1787.95
691.087 132.379 1788.08
690.414 131.275 1789.68
692.652 132.822 1789.9
695.805 134.989 1789.17
696.11 135.114 1788.92
696.09 135.141 1789.14
696.828 135.282 1788.54
696.333 135.154 1788.65
697.387 135.294 1788.41
697.288 135.245 1788.35
697.001 135.222 1788.3
698.702 136.582 1790.97
699.131 136.621 1791.39
699.556 136.378 1791.61
699.918 136.275 1791.75
699.926 136.858 1791.88
698.208 135.682 1789.61
696.727 135.262 1788.35
696.358 135.199 1788.39
696.03 135.165 1788.43
696.095 135.414 1787.93
695.926 136.761 1786.06
696.514 138.237 1784.09
696.681 138.396 1783.73
696.936 138.364 1783.55
698.256 138.405 1777.14
697.567 138.366 1780.58
697.949 138.51 1776.86
698.011 138.22 1774.84
698.214 137.652 1771.13
698.275 138.055 1767.13
702.644 136.344 1759.99
705.206 134.625 1757.66
705.691 134.114 1758.2
706.201 133.443 1757.76
707.612 124.777 1771.84
707.465 124.799 1767.97
707.783 125.699 1773.62
707.729 124.682 1772.25
707.045 128.361 1761.05
707.81 124.716 1761.39
706.466 133.006 1757.18
706.707 132.291 1757.23
707.947 125.415 1773.61
700.191 132.433 1791.51
699.906 132.474 1791.29
699.604 134.398 1791.37
699.211 134.32 1790.89
698.588 135.852 1790.41
700.834 134.222 1791.59
700.236 136.17 1791.78
700.481 134.228 1791.65
700.586 132.442 1791.56
700.39 132.408 1791.56
708.028 124.303 1772.41
708.174 124.179 1772.47
708.263 123.838 1771.62
708.813 123.437 1767.97
708.83 123.269 1765.05
708.414 123.575 1770.34
708.62 123.459 1768
709.766 122.387 1760.21
708.779 123.174 1764.49
709.929 122.193 1759.82
709.742 122.272 1759.62
709.579 122.399 1759.48
709.31 122.673 1761.14
709.354 122.81 1758.26
708.495 123.483 1756.44
708.73 123.488 1756.74
708.85 123.418 1757.13
707.947 123.161 1755.88
707.557 122.782 1755.26
707.992 122.626 1750.96
707.545 122.751 1753.6
707.556 122.704 1754.73
707.508 122.787 1754.89
707.804 122.795 1750.95
707.865 122.756 1750.92
708.275 122.389 1748.2
708.72 121.724 1746.69
709.18 121.449 1746.58
708.353 122.071 1746.73
710.081 121.041 1746.53
709.808 121.787 1745.42
710.686 123.867 1742.84
710.606 126.775 1739.84
710.671 127.205 1738.92
708.631 121.99 1746.14
708.478 122.52 1745.38
710.765 127.33 1737.93
710.69 127.353 1738.34
710.636 127.43 1737.29
710.679 127.238 1736.58
710.447 126.995 1735.53
710.08 126.663 1734.38
709.165 125.405 1732.59
708.665 123.889 1730.9
708.757 123.695 1730.61
691.153 132.684 1782.35
686.851 129.913 1778.19
690.953 132.346 1780.4
684.457 129.953 1772.43
692.366 133.755 1783.29
694.22 136.007 1784.96
693.3 134.576 1786.98
694.696 134.339 1789.36
695.626 134.9 1789.03
696.003 135.087 1788.73
698.969 136.196 1791.06
699.942 134.381 1791.58
699.752 134.342 1791.47
700.185 134.304 1791.65
695.447 134.919 1788.76
695.51 135.167 1788.3
695.433 136.456 1786.3
696.194 138.109 1784.17
696.436 138.388 1783.82
696.642 138.446 1783.51
696.884 138.412 1783.34
697.768 138.316 1774.91
697.139 138.276 1782.53
697.619 138.37 1779.33
697.462 138.68 1776.6
697.639 137.876 1770.04
696.886 138.387 1768.4
698.067 138.606 1765.11
699.597 138.122 1762.91
700.864 137.311 1760.68
702.51 136.358 1758.62
703.448 135.909 1757.04
704.483 135.245 1756.93
706.046 133.764 1757.24
705.657 134.156 1756.82
707.751 124.203 1767.74
708.083 123.99 1761.71
707.896 124.459 1772.32
707.916 124.283 1771.87
707.197 129.199 1757.93
707.946 125.352 1758.34
708.031 125.052 1759.09
708.261 124.354 1758.47
706.243 133.436 1756.76
706.523 132.756 1756.67
707.108 127.294 1755.85
699.408 134.333 1791.18
708.079 124.059 1771.78
708.18 123.983 1771.89
708.244 123.772 1771.18
708.41 123.56 1768.2
708.45 123.358 1765.68
708.603 123.135 1763.83
709.48 122.528 1760.1
709.056 122.79 1760.78
708.502 123.137 1763.46
708.809 123.113 1760.08
708.433 123.589 1756.63
708.583 123.57 1756.97
707.87 123.311 1755.99
707.492 122.908 1755.26
707.529 122.849 1752.83
707.406 123.016 1754.73
707.439 122.894 1754.53
707.713 122.967 1750.84
707.413 123.074 1753.13
708.013 122.766 1747.98
708.025 122.516 1746.45
708.258 122.286 1746.22
708.206 123.788 1744.07
709.618 124.02 1743.16
710.421 126.727 1740.07
710.467 127.261 1739.12
710.566 127.419 1738.49
707.637 123.956 1744.64
707.832 123.86 1744.42
710.582 127.488 1737.91
710.499 127.517 1737.45
710.57 127.427 1736.97
710.596 127.286 1736.55
710.596 127.23 1736.4
710.271 127.037 1735.33
709.723 126.661 1734.14
709.16 126.529 1733.67
708.739 125.457 1732.51
708.313 124.14 1731.06
688.674 131.502 1775.65
690.931 132.417 1778.56
685.235 130.809 1771.12
683.4 130.122 1770.43
693.917 135.711 1780.45
692.764 134.475 1776.43
695.584 137.449 1782.58
695.949 137.982 1783.67
694.774 135.787 1786.85
696.033 138.038 1783.96
696.233 138.234 1783.9
696.411 138.436 1783.64
696.582 138.377 1783.14
696.821 138.423 1783.16
697.505 138.338 1774.99
697.52 137.904 1771.43
696.866 138.244 1782.44
697.298 138.122 1781.37
697.199 138.355 1779.19
697.266 138.659 1776.93
697.337 138.679 1776.39
697.191 137.92 1770.29
695.936 138.417 1768.97
695.732 138.97 1767.17
697.647 138.645 1763.97
698.697 138.414 1763.49
699.3 138.222 1762.75
699.492 138.19 1761.83
699.875 137.809 1760.9
700.896 137.046 1758.36
701.819 136.051 1755.47
704.528 135.021 1756.28
702.881 135.133 1754.14
705.921 133.695 1756.34
708.012 123.813 1767.58
708.491 123.42 1760.88
708.444 123.88 1758.06
708.011 124.73 1757.48
708.27 124.133 1757.53
706.316 133.04 1756.31
706.467 131.385 1755.57
706.467 129.782 1754.3
706.919 126.253 1752.66
706.878 127.516 1750.36
707.481 124.341 1755.96
707.236 123.604 1754.95
707.109 123.859 1754.08
708.2 123.602 1767.39
708.272 123.407 1765.56
708.472 123.74 1757.32
708.322 123.731 1756.78
707.771 123.566 1756.05
707.416 123.096 1755.21
707.298 123.314 1754.84
707.315 123.297 1753.41
707.311 123.263 1754.16
707.602 123.316 1750.56
707.49 123.864 1747.21
707.248 124.174 1745.41
707.382 124.083 1745.02
707.542 125.14 1743.14
707.716 125.409 1742.53
709.308 125.548 1741.71
710.238 127.03 1739.67
710.264 127.374 1739.01
710.413 127.446 1738.64
710.416 127.548 1738.03
706.822 125.655 1743.69
707.021 125.681 1743.03
710.361 127.581 1737.49
710.431 127.515 1737.09
710.484 127.407 1736.76
710.405 127.262 1736.17
710.173 127.15 1735.6
709.563 126.743 1734.27
708.5 126.65 1733.74
708.313 126.424 1733.4
707.225 125.427 1732.45
706.756 124.722 1731.75
707.306 124.115 1730.91
692.906 134.887 1774.85
689.725 133.646 1772.72
687.347 133.867 1766.43
683.011 129.778 1768.49
695.055 137.128 1779.56
695.103 137.334 1775.61
694.887 136.989 1773.48
696.056 137.903 1782.38
695.647 137.672 1779.31
696.205 138.291 1783.6
696.343 138.329 1783.19
696.61 138.164 1782.35
697.159 138.348 1775.18
697.181 137.931 1771.91
696.944 138.061 1781.33
696.733 138.252 1779.13
696.991 138.624 1776.82
696.459 137.782 1770.84
695.081 138.216 1769.59
694.99 138.971 1767.49
695.663 138.953 1765.51
698.711 137.56 1758.64
699.945 137.307 1758.22
700.255 135.868 1753.14
701.069 135.317 1752.38
703.328 133.821 1752.69
701.698 134.051 1751.18
704.762 133.563 1754.02
708.397 123.912 1757.73
708.045 124.272 1756.95
708.22 123.961 1756.96
705.844 132.029 1754.95
706.178 130.38 1754.32
706.228 129.957 1753.56
706.401 129.349 1750.88
707.321 124.191 1750.59
706.74 126.73 1746.99
707.604 123.952 1756
707.369 123.381 1755.33
707.212 123.554 1753.66
706.002 126.68 1744.94
706.271 126.169 1744.72
706.521 125.824 1744.41
707.21 125.787 1742.43
707.721 125.827 1741.89
709.182 126.286 1740.84
710.024 127.261 1739.32
710.218 127.469 1738.75
710.281 127.573 1738.15
706.488 125.949 1743.85
706.576 125.996 1743.13
706.763 125.981 1742.6
710.3 127.502 1736.94
710.207 127.616 1737.63
709.766 127.041 1735.17
706.693 126.818 1734.57
705.349 126.6 1733.95
705.604 126.152 1733.29
706.126 124.694 1731.65
704.355 125.989 1733.55
704.671 125.557 1732.86
705.06 124.889 1731.62
694.184 136.53 1773.08
692.054 135.707 1772.17
689.184 134.723 1769.77
691.485 136.816 1769.45
685.297 132.374 1765.04
689.323 135.183 1767.94
691.228 136.781 1767.33
690.611 136.743 1763.94
688.478 135.775 1762.35
695.624 137.745 1775.38
695.141 137.242 1772.61
696.337 138.061 1782.3
696.171 138.313 1783.28
696.211 138.035 1779.22
696.636 137.97 1781.27
696.719 138.293 1775.41
696.625 137.855 1772.22
696.639 138.546 1776.85
695.646 137.529 1771.78
695.327 137.534 1771.29
694.089 137.606 1770.52
694.414 138.711 1768.26
694.435 138.871 1767.6
694.843 138.981 1766.94
695.304 138.671 1763.86
696.704 137.56 1758.57
698.877 136.199 1753.42
699.662 135.4 1751.91
700.144 134.487 1750.71
702.572 133.074 1750.7
702.468 132.756 1749.89
702.948 132.398 1749.92
703.121 132.479 1750.52
704.821 131.271 1752.58
701.267 132.992 1749.3
706.105 129.922 1750.94
706.245 129.694 1750.39
705.054 130.83 1752.15
706.168 129.308 1747.73
706.043 127.968 1746.13
705.209 127.711 1744.4
705.427 127.215 1743.88
706.188 126.266 1744.09
706.307 126.136 1744.47
706.975 125.985 1742.17
707.318 125.976 1741.91
707.301 126.1 1741.57
707.758 126.06 1741.4
709.082 126.694 1740.25
709.995 127.43 1738.88
710.12 127.578 1738.3
706.123 126.322 1743.21
706.21 126.322 1742.37
706.543 126.213 1741.95
710.163 127.545 1737.1
710.068 127.629 1737.71
708.236 127.069 1735.47
705.21 126.84 1735.31
704.432 126.959 1735.4
702.405 127.382 1735.5
701.621 127.715 1735.57
694.678 137.071 1772.19
693.54 138.171 1768.84
690.991 136.579 1769.03
693.623 138.413 1767.92
685.649 133.32 1761.51
687.184 134.672 1761.22
693.503 138.201 1765.97
691.14 137.102 1762.74
689.662 136.542 1761.73
696.209 138.109 1775.52
695.549 137.444 1773.11
696.036 137.722 1772.92
694.394 138.863 1767.05
693.867 137.95 1762.71
695.48 137.148 1757.47
697.929 136.024 1753
698.326 135.47 1751.69
698.434 134.317 1750.07
700.009 132.87 1748.23
702.407 132.121 1748.41
703.079 131.947 1748.8
703.002 132.13 1749.23
704.109 131.376 1750.4
701.172 132.321 1747.75
705.748 130.286 1750.79
705.626 130.188 1748.22
706.145 129.709 1748.72
705.601 129.961 1747.18
705.525 129.834 1746.65
705.174 129.018 1745.43
704.603 128.126 1743.63
704.298 129.648 1744.8
705.049 127.369 1742.88
705.711 126.74 1743.38
706.784 126.186 1741.59
