489.784 69.6344 1810.23
486.987 65.8693 1803.12
486.632 65.6257 1798.75
486.158 62.5122 1792.4
489.233 63.8418 1779.59
487.008 60.6073 1786.6
490.381 65.0501 1782.97
491.195 71.2844 1808.67
497.1 78.0727 1812.71
489.286 68.2008 1805.24
488.229 67.1682 1801.57
487.221 66.1562 1798.24
501.69 82.1636 1814.34
486.161 60.2854 1788.37
486.788 60.458 1787.78
486.654 62.6027 1791.58
487.364 65.2673 1795.74
490.564 65.0091 1771.83
493.058 68.8877 1779.11
489.104 61.8081 1787.95
488.619 61.343 1788.58
492.026 65.6645 1785.56
493.648 69.2085 1781.08
490.632 69.7163 1805.93
492.016 71.8967 1807.98
498.439 79.3602 1812.05
494.052 74.8799 1811
504.084 83.7532 1809.3
488.501 67.2603 1800.45
487.729 66.5458 1798.33
490.199 68.8324 1803.88
504.047 82.9422 1816.18
502.55 83.3164 1811.8
486.836 60.6798 1788.53
486.476 60.7076 1789.01
488.379 61.2159 1788.92
487.169 62.9258 1791.51
487.932 65.2096 1794.71
493.213 66.6926 1770.34
494.89 68.5472 1772.73
493.981 69.5718 1780.21
491.971 63.9668 1789.67
491.765 63.9194 1788.9
489.995 61.9862 1789.87
493.788 65.8502 1789.15
494.389 67.7309 1785.81
494.348 69.5824 1781.7
491.405 70.2699 1805.97
492.499 72.0859 1807.64
493.898 74.4092 1810.1
499.798 80.3958 1811.36
504.307 83.618 1808.16
496.488 76.891 1811.71
506.705 84.7405 1809.11
509.136 85.5803 1805.1
510.18 85.7199 1803.75
489.951 67.5596 1799.88
488.218 66.7861 1798.26
490.087 68.3962 1802.68
503.974 83.4696 1812.56
507.981 84.8282 1814.02
488.24 61.2374 1789.34
486.788 61.0725 1789.39
489.703 61.8031 1790.03
487.647 63.1794 1791.51
488.225 64.6777 1793.07
488.515 65.7603 1795.46
496.562 66.6645 1764.44
499.659 71.2761 1767.8
501.473 72.829 1769.15
500.15 71.3113 1766.37
494.713 69.1156 1775.49
498.116 69.7859 1772.5
494.682 69.9022 1780.52
494.781 69.7525 1781.88
491.985 63.9871 1790.24
493.919 65.9138 1790.32
494.209 66.0221 1789.81
490.337 62.3503 1790.48
494.667 66.334 1789.12
495.534 67.9435 1786.64
491.989 70.642 1806.14
491.119 69.1387 1803.68
492.799 72.1087 1807.44
494.304 74.0868 1809.24
496.251 74.0551 1807.95
501.024 80.6726 1809.58
508.997 85.0205 1803.93
510.498 85.6653 1803.17
498.633 76.6586 1809.2
511.376 86.0937 1814.22
512.812 86.7737 1812.3
512.176 86.4524 1804.8
513.299 87.1922 1809.96
512.711 86.2554 1800.94
513.121 86.1934 1800.18
491.377 68.4418 1801.97
493.434 69.3892 1802.95
493.667 69.0585 1799.95
489.89 67.2882 1798.51
491.503 67.6855 1798.46
488.253 61.3874 1789.77
489.586 61.8018 1790.26
489.608 61.9489 1790.5
487.126 61.452 1789.78
489.887 62.061 1790.48
488.006 63.2664 1791.48
489.427 64.9023 1793.18
489.137 65.1551 1793.65
489.942 66.5056 1796.64
501.529 71.6006 1764.9
501.485 69.6119 1762.12
501.801 70.1461 1762.96
502.164 73.5502 1766.43
505.772 76.283 1768.03
503.743 74.3403 1770.46
511.732 81.3452 1771.2
502.128 73.3734 1766.12
495.023 69.3221 1776.86
497.56 69.3911 1775.02
501.944 71.6221 1774.08
499.684 70.3265 1774.47
499.805 70.0502 1775.98
495.214 69.9751 1780.9
495.119 69.8799 1781.65
495.733 69.4203 1783.68
491.772 63.9706 1790.87
493.273 65.9094 1791.75
494.593 66.2275 1790.3
494.193 66.5375 1791.95
495.867 66.6358 1789.62
497.055 67.1578 1790.58
491.366 63.9273 1791.48
496.33 66.8563 1789.21
496.414 68.1397 1786.88
496.848 67.211 1788.57
493.636 71.9363 1806.95
492.563 70.1681 1805.17
491.886 69.1866 1803.59
494.913 72.3435 1806.82
493.707 70.4381 1805.22
495.093 70.9004 1804.26
498.139 74.1362 1806.21
496.759 72.0491 1804.35
501.71 79.9422 1808.03
507.864 84.4021 1804.44
510.64 85.2971 1802.63
512.66 85.7578 1800.05
511.56 85.408 1801.58
512.204 85.3031 1800.26
512.541 85.9183 1800.66
499.74 75.7338 1807.18
500.458 76.4736 1807.27
514.238 87.4036 1810.55
513.796 87.2764 1810.67
513.782 87.0038 1806.48
513.91 87.2791 1808.76
513.749 86.5954 1802.42
514.008 86.399 1798.77
513.992 86.446 1799.18
514.171 87.3526 1810.1
513.594 86.3237 1799.13
513.905 86.3086 1798.54
513.477 86.1625 1799.06
493.192 69.6491 1804
494.793 70.1143 1802.59
495.758 70.5233 1801.71
495.069 69.7947 1799.44
494.213 69.155 1797.97
492.967 68.3954 1798.01
491.09 66.6883 1796.43
492.597 67.0514 1795.48
488.237 61.7223 1790.21
489.331 61.9425 1790.59
490.864 63.7682 1791.78
490.362 63.5038 1791.77
488.852 62.9548 1791.34
489.314 64.6536 1792.87
491.181 65.5649 1793.75
489.855 63.3096 1791.73
502.89 73.879 1766.11
503.025 72.7261 1764.6
503.93 71.6553 1762.44
504.962 75.5883 1767.37
510.951 80.0908 1768.1
511.455 80.8163 1768.91
511.213 80.7195 1769.39
505.174 71.1216 1778.15
507.272 73.6715 1777.33
511.654 80.7785 1773.76
514.692 84.1038 1772.15
515.406 85.9029 1779.56
495.702 69.6034 1778.45
497.832 69.4882 1777.69
499.035 69.6659 1777.1
501.834 70.3789 1777.14
504.23 69.8729 1779.08
500.126 69.5869 1777.97
495.726 69.9543 1781.15
496.018 69.5886 1783.09
496.655 68.9155 1785.53
495.193 66.9515 1792.12
493.882 67.2821 1794.74
494.113 67.0573 1793.94
497.371 67.1986 1788.94
497.569 67.2051 1789.24
500.296 68.2138 1793.07
499.673 68.0651 1792.21
499.821 68.0508 1791.43
498.406 67.6158 1790.15
498.081 67.3517 1789.43
498.449 67.513 1793.95
496.465 67.166 1791.98
497.316 67.5061 1788.01
496.757 68.1841 1786.87
497.707 67.3655 1788.45
496.383 71.1935 1802.77
498.129 73.485 1805.37
497.109 71.8154 1803.73
503.761 80.6231 1806.3
509.255 84.506 1803.32
513.436 86.024 1798.86
513.54 85.8309 1798.52
511.719 84.4904 1800.36
513.462 85.2801 1798.24
500.304 75.5818 1806.72
498.693 73.8209 1805.5
501.397 77.022 1806.89
501.12 75.9302 1806.6
515.925 87.3077 1808.37
515.165 86.9149 1805.15
515.722 87.1826 1808.06
514.215 86.436 1798.92
514.345 86.3544 1798.55
514.302 86.3086 1798.31
513.903 86.1547 1798.31
514.237 86.2088 1798.16
495.394 69.9172 1799.46
494.249 68.9656 1797.37
493.896 68.0734 1796.09
504.634 74.0142 1765.22
504.493 75.1346 1766.9
506.062 72.5772 1762.59
509.34 74.0899 1762.23
506.792 76.6073 1767.54
510.445 78.5314 1766.25
513.447 82.8246 1769.61
514.828 83.2955 1769.1
514.815 81.7002 1766.12
504.753 67.6119 1783.51
504.162 67.3334 1782.99
507.536 72.1479 1781.32
512.884 81.7375 1781.72
515.004 84.0503 1771.06
518.477 85.7494 1769.75
519.105 87.1811 1773.11
516.402 87.3121 1780.43
516.065 87.4853 1782.63
514.486 83.953 1790.03
496.396 69.6557 1780.07
497.341 69.4094 1778.68
499.178 69.2644 1778.81
503.239 69.1172 1779.73
501.455 69.4877 1778.9
503.78 67.1561 1782.93
500.84 69.0069 1779.86
496.611 69.5607 1782.85
498.057 69.2743 1781.45
497.119 69.029 1785.13
497.367 68.1925 1786.78
495.224 67.2585 1793.53
494.504 67.2556 1794.2
494.385 67.5244 1794.92
494.432 68.4984 1796.47
498.168 67.3196 1788.99
497.874 67.2899 1788.82
502.455 68.8906 1793.59
501.197 68.3959 1792.27
503.194 69.3883 1791.81
503.946 69.7148 1792.19
499.28 67.7265 1790.14
501.103 68.1244 1790.97
498.259 67.438 1794.62
496.591 67.1774 1793.37
501.471 68.0998 1795.77
500.203 67.8196 1796.2
498.03 67.4909 1787.9
498.329 67.3328 1788.27
498.371 67.2986 1788.65
496.691 71.2988 1802.67
496.508 70.9093 1802.03
497.381 71.6883 1803.49
496.87 71.073 1802.35
497.845 72.0856 1804
506.079 78.9578 1804.61
509.517 83.4878 1802.76
513.879 85.6548 1798.06
509.01 78.3738 1801.35
513.279 83.6394 1797.95
514.092 84.3947 1797.52
500.633 75.1566 1806.37
499.285 74.1165 1805.65
502.842 75.3633 1806.06
504.041 77.0288 1805.7
502.212 74.487 1806.02
516.183 87.4834 1808.48
516.762 87.9882 1808.45
516.469 87.6318 1808.49
517.258 87.1721 1806.65
517.166 87.0891 1806.43
517.363 86.9116 1804.17
516.908 86.8252 1804.12
516.477 86.4203 1801.35
515.074 86.3945 1800.05
514.68 86.3309 1798.56
514.628 86.2534 1798.27
514.462 86.1739 1798.09
514.169 85.9571 1798.02
514.327 86.0013 1797.94
495.691 69.8983 1799.29
494.822 69.2298 1797.56
505.493 73.7595 1764.67
506.448 75.1634 1766.17
507.567 75.5561 1765.88
507.214 73.8952 1764.26
508.155 73.8433 1763.36
510.058 74.958 1762.87
510.391 77.0631 1764.72
513.382 77.6247 1762.09
516.359 81.6127 1764.3
505.175 67.9402 1783.84
504.953 67.631 1784.75
504.338 66.9657 1784.71
503.947 66.797 1784.23
507.187 71.7915 1786.1
509.365 75.3007 1793.95
521.469 87.6509 1769.36
521.381 88.7027 1775.89
518.322 87.9587 1779.2
524.315 90.2429 1775.01
516.666 87.973 1782.04
516.648 87.9686 1782.66
516.082 86.8474 1785.17
515.482 86.1701 1785.5
515.691 85.7121 1789.2
515.241 84.4229 1792.51
516.213 84.3596 1794.86
514.958 83.1251 1795.68
499.232 68.952 1780.27
500.546 68.6617 1780.91
502.645 68.4951 1780.57
503.491 67.2194 1782.55
503.539 66.5427 1784.41
503.281 66.6194 1784
502.218 67.9406 1781.6
498.691 68.9337 1782.67
498.05 68.2027 1786.37
496.085 67.217 1794.05
495.878 67.3205 1794.57
494.882 67.4409 1794.57
494.931 68.4833 1796.39
500.768 66.8146 1787.73
503.8 68.4126 1794.57
504.419 68.8106 1794.11
502.249 68.7675 1791.38
504.825 70.3139 1790.64
505.176 70.6323 1791.23
505.232 69.4882 1793.7
500.747 67.2464 1789.04
499.831 67.1314 1788.73
501.933 68.3235 1790.54
501.498 68.282 1791.04
501.892 67.238 1788.84
497.863 67.4301 1794.94
502.712 67.6302 1796.71
502.857 67.806 1796.02
503.316 68.1284 1795.11
501.945 67.6488 1797
501.174 66.7728 1786.18
501.149 66.6955 1786.8
500.872 66.7591 1787.42
496.541 70.7691 1801.87
497.596 71.4524 1803.15
496.958 70.5529 1801.25
496.024 69.8913 1799.34
498.18 71.8857 1803.81
499.341 73.575 1805.22
504.236 73.4954 1805.2
504.932 73.161 1804.47
514.484 84.9221 1797.44
505.611 71.8908 1802.89
509.996 76.6158 1799.22
513.65 82.2008 1797.2
514.788 83.6431 1796.84
515.151 84.3073 1796.95
501.574 73.7518 1805.78
503.679 72.9155 1805.24
502.969 72.3488 1805.17
517.783 87.3971 1806.27
518.417 87.8174 1805.46
518.245 86.8005 1802
517.686 87.0409 1804.51
517.2 86.6568 1802.12
517.483 85.875 1798.99
517.053 85.6991 1798.75
516.448 85.4794 1798.34
516.135 85.6876 1798.85
515.17 86.2523 1799.24
515.359 85.7611 1798.05
515.41 85.9479 1798.56
515.182 85.7228 1797.82
515.028 85.6286 1797.66
514.699 85.1753 1797.47
514.892 85.4265 1797.53
495.349 69.3771 1797.81
505.442 69.3619 1787.55
504.295 66.9631 1785.72
503.932 66.6487 1785.3
503.554 66.456 1785.14
506.214 71.53 1790.48
510.615 76.9139 1797.89
506.075 70.0692 1798.45
506.145 70.3933 1793.58
505.494 68.8461 1796.26
522.35 89.5021 1778.79
518.737 88.4618 1780.74
525.064 90.6158 1778.26
517.046 88.1244 1782.53
516.798 87.9549 1783.14
516.382 86.9679 1785.4
516.206 86.2586 1788.95
515.935 85.9676 1790.56
516.013 85.1451 1792.45
516.799 84.9301 1794.12
516.518 84.7087 1795.65
518.157 85.8401 1796.34
517.506 85.4532 1794.07
515.482 83.9189 1796.32
514.216 82.3332 1796.38
501.854 67.6072 1782.56
503.11 66.8208 1783.46
503.207 66.3693 1784.93
502.962 66.3678 1784.69
502.76 66.5765 1784.19
500.425 67.6231 1784.67
495.892 67.4637 1795.02
497.538 67.5135 1795.24
495.694 67.6959 1795.47
495.906 68.5035 1796.67
495.75 69.3193 1797.71
502.637 66.3922 1786.84
502.951 66.2916 1785.92
502.76 66.2591 1785.61
504.043 67.4811 1796.15
503.745 67.3862 1796.35
504.501 67.7621 1796.07
503.64 69.5367 1790.88
503.816 69.4613 1790.34
505.073 70.2522 1789.87
506.16 71.3026 1791.55
504.899 68.0997 1796.25
502.947 66.4424 1786.83
503.524 67.9734 1788.67
502.675 67.5133 1788.81
503.299 66.704 1787.22
500.846 67.7838 1797.06
503.671 67.3285 1796.74
503.616 67.4171 1797.07
502.654 66.3493 1785.07
498.973 70.8137 1803.13
498.135 69.7446 1800.52
496.216 69.602 1798.79
500.49 72.5597 1804.93
499.33 71.356 1803.84
504.341 71.9628 1804.29
515.436 84.696 1797.06
505.085 70.617 1802.53
506.03 70.9025 1801.41
514.73 83.1902 1796.57
515.34 84.0745 1796.7
515.716 84.5228 1796.76
502.109 71.5605 1804.72
503.598 71.799 1804.62
502.702 71.3842 1804.57
519.158 86.936 1799.16
516.111 84.8665 1796.9
516.622 84.9658 1796.35
516.356 84.898 1796.62
516.069 85.0407 1797.23
515.929 85.1854 1797.64
515.717 85.097 1797.35
515.516 84.9681 1797.24
504.553 68.5956 1788.13
503.898 66.9098 1786.73
503.568 66.5598 1786.28
503.303 66.3891 1785.97
503.241 66.3299 1785.61
505.3 69.3922 1799.16
504.9 68.0976 1796.72
524.081 90.0081 1778.74
521.865 89.2692 1779.79
518.204 88.3325 1781.78
526.102 89.3446 1782.96
517.241 88.131 1782.84
516.903 87.8922 1783.54
516.754 87.3531 1784.73
516.668 86.5712 1786.71
516.47 86.3965 1787.18
516.405 86.3657 1788.99
516.541 85.7061 1791.95
516.294 84.6848 1796.15
519.594 86.6 1795.73
521.491 86.5446 1792.05
518.013 85.774 1793.31
515.823 84.3939 1796.43
503.02 66.2901 1785.46
497.003 67.8223 1795.91
497.508 67.7638 1795.77
498.211 67.8891 1796.07
497.58 68.2669 1796.7
502.979 66.3252 1786.21
504.135 67.4268 1796.47
503.873 67.3428 1796.62
504.397 67.6152 1796.64
498.592 68.4233 1797.83
501.949 67.8827 1797.92
503.536 67.5447 1797.44
503.766 67.3823 1796.91
503.818 67.5009 1797.25
500.394 70.2424 1803.22
500.822 70.7344 1803.86
500.048 69.9275 1802.58
499.56 69.4776 1801.09
499.599 68.8785 1799.65
504.317 70.7598 1803.31
515.789 84.8683 1797.07
505.088 70.0276 1801.83
516.182 84.7309 1796.45
502.183 70.8875 1804.09
503.44 70.9436 1803.95
522.139 87.0319 1792.67
521.052 87.2653 1794.85
505.053 69.5835 1800.36
504.538 68.4782 1798.22
504.519 67.8566 1797.14
523.507 88.4325 1781.73
521.647 89.0411 1780.5
518.28 88.2698 1782.26
524.427 87.1005 1785.9
517.17 87.4249 1784.68
517.169 86.5193 1787.1
516.813 86.4453 1787.29
516.702 86.4046 1788.85
516.912 85.9966 1791.57
522.431 86.83 1791.68
521.544 86.4597 1790.94
525.059 87.0172 1787.59
519.002 86.0753 1791.97
503.984 67.4085 1796.86
504.242 67.5725 1796.97
502.401 68.6518 1799.19
503.673 67.7346 1797.76
503.888 67.4291 1797.04
504.073 67.6179 1797.28
502.376 70.0535 1802.71
502.452 70.3743 1803.34
500.083 69.4305 1801.2
504.182 70.31 1802.98
504.555 70.2401 1802.64
504.08 70.1712 1802.81
504.791 70.2209 1802.43
504.653 69.9169 1802.09
504.608 69.4121 1800.59
504.153 68.3425 1798.45
523.027 86.9587 1784.49
522.293 86.826 1784.35
522.595 88.1729 1781.92
519.097 87.1688 1784.66
525.184 87.1043 1787.04
524.801 86.9256 1787.18
522.992 86.7889 1785.25
518.178 86.3244 1788.34
517.027 86.4047 1788.81
517.171 86.1537 1791.09
520.295 86.3712 1788.6
523.231 86.6813 1786.72
502.85 68.4823 1798.87
501.479 69.5779 1801.26
503.251 69.6362 1801.38
503.986 69.401 1800.93
503.98 68.9461 1799.56
503.816 68.3334 1798.61
504.292 69.7627 1802.09
504.318 69.3752 1800.76
521.835 86.5734 1785.14
