909.164 -1624.63 -1930.64
907.177 -1625.38 -1930.42
905.517 -1626 -1930.34
903.741 -1626.75 -1930.23
910.675 -1623.77 -1931.38
909.208 -1623.75 -1932.37
907.729 -1624.47 -1931.86
905.971 -1624.86 -1932.28
904.335 -1625.69 -1931.89
902.633 -1626.34 -1931.8
901.685 -1627.46 -1930.43
918.327 -1622.41 -1934.49
916.547 -1622.04 -1934.53
914.244 -1622.19 -1933.84
915.238 -1621.87 -1935.01
910.529 -1623.07 -1932.98
909.126 -1623.18 -1933.78
907.603 -1623.9 -1933.26
905.906 -1624.22 -1934.01
904.067 -1625.04 -1933.55
902.261 -1625.71 -1933.51
900.952 -1626.86 -1932.29
899.66 -1627.78 -1931.39
898.182 -1628.47 -1931.87
919.833 -1621.82 -1937.65
917.638 -1621.91 -1936.18
918.697 -1621.45 -1937.71
916.076 -1621.63 -1936.29
912.886 -1622.07 -1934.41
913.704 -1621.76 -1935.36
911.908 -1622.6 -1933.64
914.753 -1621.6 -1936.33
910.611 -1622.55 -1934.51
909.121 -1622.75 -1935.2
907.466 -1623.45 -1934.64
905.775 -1623.68 -1935.78
904.381 -1624.37 -1935.02
902.584 -1624.88 -1935.34
901.088 -1625.58 -1934.84
900.188 -1626.44 -1933.84
899.138 -1627.34 -1932.99
897.943 -1627.78 -1933.74
896.964 -1628.87 -1932.63
895.888 -1629.95 -1931.88
945.372 -1621.87 -1949.77
932.655 -1621.99 -1944.08
920.33 -1621.24 -1939.23
917.03 -1621.24 -1937.95
918.737 -1621.16 -1938.95
922.043 -1621.26 -1939.88
915.75 -1621.18 -1937.84
925.402 -1621.7 -1941.53
923.767 -1621.55 -1940.58
926.975 -1621.55 -1942.63
928.582 -1621.53 -1943.88
912.083 -1622.07 -1935.26
913.078 -1621.61 -1936.41
914.388 -1621.36 -1937.55
910.571 -1622.21 -1935.99
909.26 -1622.35 -1937
907.76 -1622.94 -1936.12
904.757 -1623.53 -1937.7
906.436 -1623.09 -1937.21
903.703 -1624.03 -1936.65
901.865 -1624.59 -1937.26
900.555 -1625.16 -1936.41
899.482 -1625.96 -1935.62
898.736 -1626.79 -1934.75
896.796 -1628.18 -1934.62
897.599 -1627.02 -1935.65
895.907 -1629.32 -1933.7
894.748 -1630.51 -1933.2
893.365 -1631.69 -1932.89
949.472 -1621.52 -1955.18
947.61 -1621.29 -1954.93
946.436 -1621.41 -1953.19
945.056 -1621.46 -1951.66
943.449 -1621.61 -1950.37
941.695 -1621.59 -1949.67
950.614 -1621.29 -1956.97
935.265 -1621.86 -1945.88
933.321 -1621.63 -1945.73
931.314 -1621.33 -1945.61
919.775 -1620.63 -1940.52
921.198 -1620.6 -1940.99
917.121 -1621.02 -1939.21
918.435 -1620.66 -1940.35
922.566 -1620.67 -1941.62
915.637 -1621.01 -1939.24
925.355 -1621.13 -1943.08
923.927 -1620.77 -1942.17
926.744 -1620.99 -1944.3
929.677 -1621.19 -1945.38
927.895 -1620.85 -1945.59
911.798 -1621.75 -1936.65
912.734 -1621.51 -1938
914.145 -1621.21 -1938.97
910.699 -1621.89 -1937.76
907.794 -1622.58 -1938.07
909.316 -1622.09 -1939.05
906.084 -1622.88 -1938.89
902.914 -1623.93 -1938.52
904.278 -1623.32 -1939.55
900.932 -1624.38 -1939
899.743 -1625 -1938.01
898.725 -1625.62 -1937.3
898.209 -1626.23 -1936.6
896.477 -1627.44 -1936.53
895.687 -1628.69 -1935.55
896.919 -1626.47 -1937.59
894.719 -1629.84 -1934.86
893.48 -1631.08 -1934.7
892.061 -1632.28 -1934.31
890.616 -1633.55 -1934.06
939.608 -1621.68 -1948.7
937.715 -1621.68 -1948.08
935.888 -1621.58 -1947.69
948.671 -1621.09 -1956.99
946.937 -1620.91 -1956.88
945.579 -1621.08 -1955.05
944.321 -1621.2 -1953.48
943.082 -1621.26 -1952.02
941.246 -1621.17 -1951.71
940.021 -1621.39 -1950.39
933.917 -1621.32 -1947.36
931.816 -1621.06 -1947.17
929.626 -1620.78 -1946.88
919.156 -1620.11 -1942.1
920.585 -1620.05 -1942.21
922.043 -1620.11 -1942.65
916.708 -1620.6 -1940.78
918.038 -1620.28 -1941.64
923.433 -1620.25 -1943.18
915.086 -1620.89 -1940.61
924.765 -1620.59 -1944.37
926.095 -1620.64 -1945.69
927.521 -1620.51 -1946.97
911.494 -1621.66 -1939.32
913.233 -1621.25 -1940.03
907.375 -1622.42 -1939.82
908.585 -1622.09 -1940.88
910.467 -1621.79 -1940.81
905.481 -1622.68 -1940.58
902.179 -1623.73 -1940.34
903.596 -1623.14 -1941.19
898.963 -1624.77 -1939.66
900.208 -1624.18 -1940.64
897.989 -1625.2 -1939
897.353 -1625.77 -1938.34
895.874 -1626.81 -1938.39
895.312 -1627.94 -1937.44
894.507 -1629.21 -1936.52
896.267 -1625.84 -1939.46
893.509 -1630.55 -1935.98
892.191 -1631.74 -1935.91
890.812 -1632.99 -1935.85
889.4 -1634.24 -1935.55
938.158 -1621.35 -1950.03
936.435 -1621.25 -1949.48
934.637 -1621.14 -1949.01
945.108 -1620.82 -1956.78
943.287 -1620.92 -1955.04
942.142 -1620.97 -1953.47
940.065 -1620.97 -1953.28
938.914 -1621.17 -1951.84
932.621 -1620.89 -1948.67
930.595 -1620.67 -1948.34
928.647 -1620.43 -1948.26
918.799 -1619.96 -1943.3
920.249 -1619.81 -1943.55
921.673 -1619.91 -1943.65
922.951 -1619.95 -1944.12
916.205 -1620.48 -1942.08
917.678 -1620.18 -1942.58
914.315 -1620.91 -1941.83
924.157 -1620.03 -1945.48
925.546 -1620.2 -1946.77
926.719 -1620.25 -1948.11
912.35 -1621.42 -1941.43
906.833 -1622.34 -1941.74
909.601 -1621.87 -1942.41
908.019 -1622.07 -1943.09
911.319 -1621.6 -1942.96
905.011 -1622.56 -1942.38
901.532 -1623.56 -1942.2
903.282 -1622.95 -1942.82
898.374 -1624.54 -1941.17
897.419 -1624.83 -1940.62
899.601 -1624.01 -1942.32
896.783 -1625.27 -1940.07
895.302 -1626.2 -1940.06
894.718 -1627.16 -1939.38
894.06 -1628.53 -1938.39
893.17 -1630.08 -1937.49
895.609 -1625.42 -1941.21
892.189 -1631.28 -1937.15
890.849 -1632.46 -1937.56
889.514 -1633.77 -1937.24
888.103 -1635.03 -1937.05
936.86 -1621.05 -1951.49
935.254 -1621.01 -1950.74
933.35 -1620.82 -1950.3
943.393 -1620.75 -1956.77
941.018 -1620.77 -1954.92
941.647 -1620.67 -1956.59
938.877 -1620.77 -1954.73
937.73 -1620.95 -1953.18
931.384 -1620.61 -1950.05
929.468 -1620.43 -1949.79
927.543 -1620.28 -1949.63
919.649 -1619.7 -1944.79
918.368 -1619.92 -1944.33
920.943 -1619.7 -1944.83
922.425 -1619.74 -1945.06
917.118 -1620.08 -1943.84
915.281 -1620.55 -1943.5
913.28 -1621.13 -1943.26
923.767 -1619.92 -1946.42
924.803 -1619.99 -1948.14
925.735 -1620.05 -1949.61
906.024 -1622.24 -1943.74
909.806 -1621.77 -1944.42
907.428 -1621.95 -1944.91
912.032 -1621.38 -1944.76
904.227 -1622.52 -1944.29
902.171 -1623.09 -1944.21
900.305 -1623.61 -1944.01
898.05 -1624.29 -1942.76
897.023 -1624.63 -1942.21
896.266 -1625.03 -1941.6
898.434 -1623.97 -1944.17
894.668 -1625.98 -1941.47
894.017 -1626.92 -1940.88
893.43 -1628.04 -1940.18
892.68 -1629.5 -1939.34
891.754 -1630.95 -1938.58
894.596 -1625.71 -1942.7
895.417 -1625.18 -1942.83
890.475 -1632.02 -1939.3
889.349 -1633.38 -1938.81
888.063 -1634.5 -1938.83
886.703 -1635.67 -1938.64
885.04 -1637.06 -1938.33
935.685 -1620.84 -1952.99
934.282 -1620.81 -1951.89
932.271 -1620.63 -1951.62
939.809 -1620.64 -1956.49
936.704 -1620.77 -1954.65
937.947 -1620.64 -1956.38
930.263 -1620.45 -1951.43
928.361 -1620.29 -1951.09
926.505 -1620.15 -1951.12
918.961 -1619.69 -1946.09
920.315 -1619.7 -1946.2
917.785 -1619.87 -1945.74
922.007 -1619.75 -1946.06
916.134 -1620.22 -1945.33
914.153 -1620.82 -1945.05
922.879 -1619.78 -1947.84
923.712 -1619.83 -1949.47
924.498 -1620 -1950.98
905.187 -1622.17 -1945.78
910.904 -1621.56 -1946.23
908.895 -1621.8 -1946.15
906.77 -1621.94 -1946.79
912.965 -1621.03 -1946.55
903.111 -1622.62 -1945.86
901.107 -1623.09 -1945.86
899.207 -1623.61 -1945.63
897.065 -1624.35 -1943.94
896.165 -1624.77 -1943.18
897.279 -1624.06 -1945.64
893.642 -1626.55 -1942.37
892.892 -1627.62 -1941.68
892.138 -1628.98 -1941.03
891.206 -1630.49 -1940.39
893.634 -1626.17 -1943.67
894.622 -1625.44 -1944.11
895.436 -1624.93 -1944.57
889.942 -1631.49 -1941.29
889.201 -1632.8 -1940.41
888.001 -1633.86 -1940.58
886.833 -1634.91 -1940.63
885.486 -1636.17 -1940.11
884.116 -1637.17 -1940.43
883.57 -1638.06 -1939.09
934.597 -1620.74 -1954.59
933.408 -1620.67 -1953.17
931.235 -1620.57 -1953.07
936.251 -1620.7 -1956.35
929.301 -1620.45 -1952.77
927.384 -1620.35 -1952.77
925.395 -1620.18 -1952.62
919.69 -1619.67 -1947.66
918.245 -1619.73 -1947.61
921.281 -1619.66 -1947.71
916.838 -1620.01 -1947.19
914.91 -1620.44 -1946.91
922.028 -1619.67 -1949.41
922.638 -1619.83 -1951.12
923.547 -1620.07 -1952.74
905.271 -1622.03 -1948.04
903.815 -1622.32 -1947.47
911.787 -1621.19 -1948.03
909.899 -1621.58 -1947.91
908.163 -1621.7 -1948.03
906.779 -1621.66 -1949.12
913.658 -1620.69 -1948.48
902.087 -1622.68 -1947.63
900.232 -1623.13 -1947.41
898.508 -1623.62 -1946.93
896.315 -1624.54 -1944.67
896.983 -1624 -1947.12
896.167 -1624.45 -1946.04
892.605 -1627.27 -1943.04
891.754 -1628.49 -1942.52
890.774 -1629.91 -1942.05
893.756 -1625.85 -1944.99
892.842 -1626.72 -1944.03
894.555 -1625.28 -1945.53
895.321 -1624.83 -1946.35
889.421 -1631.23 -1942.82
888.466 -1632.74 -1942.04
887.137 -1633.95 -1942.36
885.482 -1635.51 -1941.95
883.966 -1636.7 -1942.15
882.838 -1638.11 -1941.33
934.539 -1620.76 -1956.35
932.334 -1620.69 -1954.6
932.862 -1620.76 -1956.3
930.21 -1620.6 -1954.54
928.317 -1620.51 -1954.46
926.378 -1620.43 -1954.44
924.491 -1620.32 -1954.45
920.253 -1619.69 -1949.29
918.756 -1619.7 -1949.25
917.222 -1619.93 -1949.1
915.535 -1620.24 -1948.77
920.836 -1619.74 -1950.94
921.542 -1619.96 -1952.68
922.541 -1620.21 -1954.41
905.086 -1621.87 -1949.86
903.212 -1622.23 -1949.32
910.588 -1621.27 -1949.57
912.364 -1620.84 -1949.97
908.705 -1621.42 -1949.97
906.906 -1621.47 -1950.8
914.107 -1620.43 -1950.31
901.477 -1622.6 -1949.1
899.665 -1623.1 -1948.74
898.183 -1623.54 -1948.35
897.124 -1623.94 -1948.74
896.017 -1624.4 -1947.5
891.476 -1628.13 -1943.93
890.428 -1629.6 -1943.35
893.574 -1625.88 -1945.99
892.797 -1626.6 -1945.33
892.017 -1627.39 -1945
894.469 -1625.23 -1947.14
895.071 -1624.86 -1947.81
889.062 -1631.01 -1944.17
888.049 -1632.58 -1943.39
886.868 -1633.51 -1944.24
885.884 -1634.74 -1943.39
884.316 -1635.95 -1943.84
882.925 -1637.49 -1943.31
881.772 -1638.98 -1942.8
880.427 -1640.65 -1942.38
879.366 -1641.6 -1943.98
931.023 -1620.73 -1956.27
929.174 -1620.69 -1956.27
927.332 -1620.64 -1956.27
925.503 -1620.63 -1956.25
923.629 -1620.58 -1956.24
919.175 -1619.73 -1950.93
917.521 -1619.86 -1950.8
915.851 -1620.13 -1950.58
919.685 -1619.92 -1952.63
920.598 -1620.17 -1954.39
921.783 -1620.51 -1956.24
905.472 -1621.74 -1951.34
903.883 -1622.07 -1950.75
902.321 -1622.35 -1950.68
910.566 -1621.01 -1951.17
912.533 -1620.62 -1951.68
908.756 -1621.2 -1951.7
907.164 -1621.36 -1952.33
914.335 -1620.33 -1952
900.644 -1622.81 -1950.13
898.812 -1623.32 -1949.91
896.219 -1624.35 -1949.14
897.66 -1623.81 -1950.21
890.892 -1628.47 -1945.33
890.086 -1629.58 -1944.63
892.601 -1626.71 -1946.64
893.434 -1626.03 -1947.43
891.844 -1627.46 -1946.28
894.266 -1625.43 -1948.32
895.4 -1624.81 -1949.49
888.707 -1631.05 -1945.27
887.855 -1632.26 -1944.66
887.159 -1632.88 -1945.66
885.739 -1634.49 -1945.01
884.302 -1635.73 -1945.59
883.005 -1637 -1945.18
881.883 -1638.38 -1944.76
880.608 -1640.03 -1944.28
879.503 -1640.99 -1946
878.277 -1642.58 -1945.35
917.915 -1619.95 -1952.56
916.095 -1620.11 -1952.17
918.689 -1620.21 -1954.39
919.966 -1620.56 -1956.18
905.684 -1621.73 -1952.87
903.94 -1622.08 -1951.84
901.932 -1622.52 -1951.73
910.762 -1620.87 -1952.58
912.673 -1620.63 -1953.19
909.077 -1621.1 -1952.96
907.525 -1621.3 -1953.45
914.616 -1620.4 -1953.6
900.201 -1622.97 -1951.15
899.003 -1623.37 -1951.15
896.754 -1624.23 -1950.43
897.94 -1623.86 -1951.31
890.738 -1628.64 -1946.78
889.71 -1629.88 -1946.11
892.645 -1626.81 -1948
891.771 -1627.65 -1947.58
893.454 -1626.16 -1948.74
894.443 -1625.52 -1949.66
895.761 -1624.89 -1950.76
888.302 -1631.47 -1946.38
887.204 -1632.77 -1947.22
886.036 -1633.95 -1946.38
884.681 -1635.13 -1947.11
883.137 -1636.59 -1946.95
881.856 -1637.98 -1946.87
880.777 -1639.37 -1946.08
879.124 -1640.88 -1947.92
880.26 -1639.48 -1947.77
878.197 -1642.24 -1947.14
877.124 -1643.72 -1946.44
916.471 -1620.21 -1953.75
917.08 -1620.38 -1955.18
918.233 -1620.66 -1956.47
906.144 -1621.72 -1954.46
904.483 -1622.1 -1953.64
903.122 -1622.32 -1952.6
900.53 -1623.01 -1952.26
902.02 -1622.61 -1952.88
910.94 -1620.9 -1954.13
913.016 -1620.65 -1954.68
909.211 -1621.12 -1954.22
907.916 -1621.43 -1954.94
915.137 -1620.5 -1955.23
899.209 -1623.57 -1952.8
896.972 -1624.74 -1952.27
898.045 -1624.29 -1952.93
890.528 -1629.15 -1948.28
889.483 -1630.19 -1947.51
892.86 -1627 -1949.59
891.738 -1628.01 -1948.96
893.833 -1626.2 -1950.36
894.793 -1625.62 -1951.08
895.776 -1625.53 -1952.53
888.265 -1631.53 -1948.04
887.051 -1633.03 -1948.87
885.851 -1634.09 -1948.04
884.544 -1635.13 -1949.17
883.461 -1636.11 -1948.52
882.212 -1637.26 -1948.68
881.039 -1638.49 -1948.71
879.53 -1640 -1949.37
878.436 -1641.53 -1948.97
877.434 -1643.08 -1948.15
876.881 -1643.96 -1948.92
916.411 -1620.73 -1956.77
904.931 -1622.12 -1955.34
906.912 -1621.84 -1955.95
903.426 -1622.42 -1954.51
900.645 -1623.17 -1953.48
902.236 -1622.73 -1954.33
911.614 -1620.89 -1955.79
909.772 -1621.17 -1955.68
913.401 -1620.73 -1956.1
908.225 -1621.66 -1956.55
914.701 -1620.79 -1956.96
899.27 -1623.99 -1954.35
897.802 -1624.87 -1954.19
896.727 -1625.54 -1954.11
889.274 -1630.62 -1949.24
890.454 -1629.5 -1949.71
893.242 -1627.14 -1951.22
891.878 -1628.3 -1950.45
894.514 -1626.34 -1952.35
895.433 -1626.32 -1954.03
888.054 -1631.97 -1949.67
887.078 -1633.08 -1950.76
885.88 -1634.1 -1949.78
884.203 -1635.34 -1951
882.847 -1636.5 -1950.44
881.538 -1637.73 -1950.47
880.477 -1638.84 -1950.2
879.657 -1639.66 -1951.12
878.704 -1640.87 -1950.55
877.663 -1642.56 -1950.12
905.661 -1622.27 -1956.39
904.281 -1622.72 -1956.27
903.091 -1622.74 -1955.9
900.904 -1623.32 -1954.78
901.93 -1623.24 -1955.93
913.016 -1620.88 -1957.02
911.315 -1621.11 -1956.84
909.695 -1621.42 -1956.81
899.019 -1624.83 -1955.73
900.417 -1624.05 -1955.87
897.669 -1625.67 -1955.7
896.179 -1626.53 -1955.52
889.517 -1630.67 -1950.98
888.348 -1631.86 -1951.1
890.802 -1629.53 -1951.31
893.667 -1627.31 -1952.8
892.221 -1628.4 -1952.03
894.318 -1627.24 -1954.27
894.795 -1627.41 -1955.48
885.764 -1634.18 -1951.47
887.458 -1632.8 -1952.55
884.531 -1635.03 -1952.92
883.061 -1636.22 -1952.49
881.821 -1637.35 -1952.27
880.646 -1638.57 -1952.05
879.925 -1639.44 -1953.52
879.106 -1640.37 -1952.36
878.187 -1641.69 -1952.03
902.793 -1623.94 -1956.55
901.225 -1624.67 -1956.51
898.332 -1626.25 -1956.52
899.759 -1625.47 -1956.52
896.842 -1626.78 -1956.4
895.315 -1627.65 -1956.39
890.008 -1630.52 -1952.7
888.762 -1631.62 -1952.53
891.304 -1629.43 -1952.98
892.743 -1628.44 -1953.7
893.416 -1628.35 -1955.3
893.797 -1628.5 -1956.35
886.086 -1633.94 -1953.12
888.185 -1632.33 -1954.25
886.797 -1633.42 -1954.53
885.073 -1634.6 -1954.77
883.626 -1635.69 -1954.4
882.239 -1636.94 -1954.15
881.066 -1638.15 -1953.86
879.657 -1640.19 -1955.38
880.649 -1638.85 -1955.48
878.826 -1640.95 -1953.9
877.887 -1642.46 -1953.87
896.749 -1627.31 -1956.61
894.918 -1628.26 -1956.61
890.633 -1630.26 -1954.4
889.417 -1631.29 -1954.31
891.814 -1629.39 -1954.64
892.429 -1629.26 -1956.11
893.167 -1629.18 -1956.61
888.724 -1631.99 -1956.05
887.347 -1633.02 -1956.17
885.901 -1634.04 -1956.21
884.482 -1635.05 -1956.22
883.077 -1636.28 -1955.84
881.786 -1637.58 -1955.69
878.655 -1641.83 -1955.66
891.446 -1630.02 -1956.25
890.171 -1630.87 -1955.93
