884.858 -1799.9 -1114.51
884.705 -1799.82 -1116.36
884.772 -1801.76 -1113.58
884.609 -1801.62 -1115.41
884.509 -1801.52 -1117.32
884.801 -1803.64 -1112.69
884.502 -1803.53 -1114.63
884.511 -1801.26 -1119.55
884.405 -1803.5 -1116.34
884.406 -1803.19 -1118.44
884.504 -1805.2 -1113.66
884.804 -1805.79 -1112.04
884.341 -1805.68 -1115.33
884.684 -1807.78 -1111.7
884.221 -1805.13 -1117.38
884.202 -1804.97 -1119.59
884.409 -1807.13 -1113.63
884.126 -1808.25 -1114.98
884.142 -1807.16 -1116.53
884.489 -1809.82 -1111.35
884.287 -1809.19 -1113.24
884.117 -1806.76 -1118.59
883.948 -1810.59 -1114.68
883.926 -1809.63 -1116.26
883.994 -1808.56 -1117.78
884.541 -1812.66 -1109.48
884.297 -1811.9 -1111.23
884.068 -1811.29 -1112.99
883.976 -1808.67 -1119.69
883.751 -1811.82 -1116.39
883.763 -1812.72 -1114.71
883.826 -1810.48 -1118.12
884.045 -1813.97 -1111.08
884.306 -1814.72 -1109.25
883.847 -1813.33 -1112.86
883.698 -1812.43 -1118.25
883.643 -1814.03 -1116.43
883.648 -1814.76 -1114.4
883.858 -1815.92 -1110.55
883.723 -1815.35 -1112.43
884.054 -1816.72 -1108.81
883.61 -1814.29 -1118.66
883.551 -1815.99 -1117.39
883.571 -1816.21 -1115.37
883.586 -1816.7 -1113.41
883.585 -1817.19 -1111.56
883.692 -1817.84 -1109.88
883.804 -1818.62 -1108.45
883.89 -1819.46 -1106.94
883.713 -1821.16 -1105.94
883.584 -1816.01 -1119.61
883.592 -1817.78 -1118.44
883.579 -1818 -1116.44
883.562 -1818.43 -1114.44
883.528 -1818.86 -1112.53
883.507 -1819.06 -1110.76
883.4 -1819.76 -1109.42
883.443 -1820.48 -1107.7
883.189 -1822.33 -1106.66
883.641 -1819.74 -1117.74
883.605 -1820.03 -1115.68
883.483 -1820.68 -1113.64
883.371 -1820.72 -1111.91
883.178 -1821 -1110.16
883.156 -1821.6 -1108.38
882.853 -1824.28 -1106.24
882.879 -1825.2 -1104.89
882.826 -1823.27 -1107.55
883.769 -1821.3 -1119.17
883.726 -1821.68 -1117.11
883.603 -1821.89 -1115.09
883.287 -1822.5 -1112.57
883.429 -1823.22 -1113.76
883.06 -1822.61 -1110.75
882.912 -1823.01 -1108.97
883.167 -1826.51 -1103.1
883.132 -1828.03 -1101.74
883.599 -1828.74 -1100.18
882.634 -1825.72 -1105.59
882.782 -1824.79 -1107.5
882.701 -1826.71 -1104.3
883.877 -1823.16 -1118.47
883.724 -1823.52 -1116.19
883.031 -1824.05 -1111.19
883.273 -1825.06 -1112.65
883.561 -1824.69 -1114.57
882.862 -1824.44 -1109.47
882.751 -1828.11 -1103.01
882.986 -1829.1 -1101.57
883.338 -1829.43 -1100.09
882.672 -1826.16 -1106.28
882.684 -1827.48 -1104.58
882.757 -1825.61 -1108.11
884.119 -1824.4 -1120.01
883.918 -1824.92 -1117.61
883.756 -1825.85 -1115.87
882.934 -1825.56 -1110.28
883.462 -1826.53 -1113.69
883.168 -1826.84 -1111.59
884.048 -1832.05 -1096.93
884.494 -1832.8 -1095.31
882.7 -1828.91 -1103.12
882.969 -1830.03 -1101.59
883.242 -1830.45 -1100.07
882.683 -1827.33 -1107.01
882.72 -1827.8 -1105.64
882.665 -1828.78 -1104.45
882.771 -1826.83 -1108.77
883.579 -1831.81 -1098.57
884.545 -1826.09 -1121.34
884.236 -1825.9 -1119.1
884.061 -1827.1 -1117.35
883.768 -1827.65 -1115.18
882.919 -1827.84 -1109.82
883.45 -1828.28 -1113.03
883.216 -1829 -1111.11
884.115 -1833.11 -1096.91
884.605 -1834.09 -1095.43
882.741 -1829.8 -1103.04
883.011 -1830.96 -1101.78
883.32 -1831.51 -1100.31
882.759 -1828.74 -1107.96
882.792 -1829.25 -1106.09
882.701 -1829.71 -1104.44
883.784 -1832.66 -1098.61
884.527 -1827.41 -1119.49
884.877 -1828.16 -1121.05
884.179 -1829 -1116.53
884.566 -1828.84 -1118.48
883.839 -1829.56 -1114.52
882.991 -1829.84 -1109.25
883.567 -1830.3 -1112.53
883.348 -1831.08 -1110.62
885.347 -1834.53 -1093.4
884.251 -1834.04 -1097.2
884.832 -1835.57 -1096.03
885.278 -1835.86 -1094.38
882.967 -1831.19 -1103.67
883.281 -1832.06 -1101.95
883.542 -1832.57 -1100.41
882.95 -1830.55 -1107.38
882.92 -1830.96 -1105.61
884.021 -1833.85 -1099.05
886.486 -1837.83 -1091.27
885.941 -1836.23 -1092.37
887.06 -1839.65 -1090.37
887.541 -1841.41 -1089.36
885.384 -1829.46 -1122.27
885.071 -1829.9 -1120.06
884.343 -1830.89 -1115.99
884.776 -1830.66 -1117.92
883.982 -1831.48 -1113.97
883.195 -1831.73 -1108.76
883.747 -1832.26 -1112.05
883.581 -1832.95 -1110.2
884.484 -1835.43 -1097.85
885.029 -1837.12 -1096.77
885.349 -1837.51 -1095.14
885.821 -1837.76 -1093.39
883.216 -1832.46 -1104.94
883.549 -1833.13 -1103.1
883.822 -1833.7 -1100.98
883.181 -1832.34 -1106.89
884.337 -1835.24 -1099.89
886.494 -1839.53 -1092.26
887.042 -1841.27 -1091.19
887.655 -1842.98 -1089.99
885.716 -1831.31 -1121.43
885.379 -1831.94 -1119.36
885.002 -1832.79 -1117.25
884.477 -1832.74 -1115.41
884.201 -1833.48 -1113.57
883.49 -1833.56 -1108.4
884.001 -1834.21 -1111.79
883.88 -1834.8 -1109.9
884.816 -1836.91 -1098.7
885.384 -1838.75 -1097.74
885.598 -1839.1 -1095.91
885.993 -1839.34 -1094.11
883.577 -1834.04 -1106.43
883.769 -1834.29 -1104.62
884.205 -1835.05 -1102.22
884.703 -1836.67 -1100.94
886.602 -1841.03 -1092.97
887.251 -1842.8 -1091.88
888.26 -1844.58 -1089.04
887.89 -1844.53 -1090.74
886.413 -1832.72 -1122.73
886.084 -1833.38 -1120.76
885.75 -1833.97 -1118.81
885.45 -1835.06 -1117.16
884.838 -1834.56 -1115.39
884.552 -1835.43 -1113.57
883.826 -1835.2 -1108.09
884.298 -1836.01 -1111.61
884.248 -1836.55 -1109.74
885.18 -1838.38 -1099.89
885.713 -1840.24 -1099.1
885.971 -1840.75 -1096.95
886.259 -1840.94 -1094.95
884.177 -1835.96 -1106.15
884.425 -1836.13 -1103.93
884.946 -1837.75 -1102.49
886.888 -1842.62 -1093.89
887.647 -1844.41 -1092.53
888.998 -1846.03 -1088.12
888.559 -1845.97 -1089.74
888.365 -1846.14 -1091.46
887.016 -1834.1 -1124.05
886.735 -1834.78 -1122.04
886.332 -1835.62 -1119.85
886 -1836.77 -1117.87
885.292 -1836.6 -1115.43
884.851 -1837.21 -1113.21
884.351 -1836.83 -1108.17
884.694 -1837.74 -1111.23
884.832 -1838.36 -1109.41
885.456 -1839.74 -1101.43
886.057 -1841.66 -1100.42
886.307 -1842.15 -1098.21
886.671 -1842.64 -1096.01
884.842 -1838 -1106.88
884.903 -1837.83 -1104.81
885.48 -1839.55 -1103.58
887.445 -1844.41 -1094.42
888.165 -1846.16 -1093.48
889.274 -1847.28 -1088.93
889.004 -1847.53 -1090.74
888.737 -1847.72 -1092.78
887.604 -1835.38 -1125.53
887.411 -1836.08 -1123.62
887.114 -1836.82 -1121.66
886.801 -1837.78 -1119.91
886.563 -1838.75 -1118.3
885.953 -1838.38 -1116.39
885.482 -1838.55 -1114.5
885.154 -1839.01 -1112.64
885.199 -1839.54 -1111.01
885.463 -1840.4 -1109.6
885.313 -1839.61 -1107.94
886.001 -1841.52 -1102.58
886.494 -1843.34 -1101.68
886.642 -1843.58 -1099.71
886.924 -1844.11 -1097.83
887.309 -1844.68 -1096.21
885.462 -1839.71 -1105.79
885.985 -1841.29 -1104.65
887.939 -1846.39 -1095.37
888.524 -1848.09 -1094.68
889.935 -1848.21 -1088.42
889.75 -1848.89 -1090.37
889.363 -1849.1 -1092.04
889.106 -1849.59 -1093.84
888.052 -1837.43 -1125.21
887.818 -1838.14 -1123.35
887.542 -1839.04 -1121.52
887.273 -1840.21 -1119.67
886.644 -1840.34 -1117.32
886.156 -1840.42 -1115.49
885.793 -1840.49 -1113.85
885.644 -1840.83 -1112.45
885.789 -1841.56 -1111.14
886.015 -1842.2 -1109.28
885.9 -1841.35 -1107.23
886.572 -1843.32 -1103.91
887.03 -1844.92 -1102.82
887.139 -1845.2 -1100.74
887.341 -1845.65 -1098.99
887.717 -1846.41 -1097.15
886.383 -1842.7 -1105.84
888.307 -1848.34 -1096.33
888.909 -1850.18 -1095.37
890.628 -1849.74 -1089.07
889.99 -1850.36 -1091.92
890.673 -1850.81 -1090.64
889.523 -1850.53 -1093.41
889.39 -1851.57 -1094.92
888.686 -1838.72 -1126.99
888.542 -1839.38 -1125.16
888.32 -1840.14 -1123.34
888.034 -1841.13 -1121.53
887.243 -1841.88 -1118.23
887.844 -1842.43 -1119.86
886.806 -1842.28 -1116.34
886.385 -1842.33 -1114.43
886.208 -1842.65 -1112.66
886.324 -1843.32 -1111.03
886.716 -1844.25 -1109.59
886.531 -1843.4 -1107.73
887.021 -1844.49 -1105.85
887.389 -1845.65 -1104.5
887.587 -1846.54 -1101.85
887.934 -1847.19 -1103.57
887.835 -1847.45 -1100.22
887.913 -1847.56 -1098.44
888.334 -1849.17 -1097.63
888.804 -1850.66 -1096.81
889.234 -1852.01 -1096.17
891.605 -1851.53 -1089.34
890.661 -1851.96 -1092.21
889.976 -1851.88 -1093.64
891.509 -1852.44 -1090.88
889.691 -1853.25 -1095.81
890.081 -1853.42 -1094.84
889.181 -1840.58 -1127.18
888.99 -1841.23 -1125.23
888.807 -1842.08 -1123.41
888.567 -1843.13 -1121.65
887.626 -1843.8 -1117.87
888.339 -1844.35 -1119.81
887.088 -1844.02 -1115.72
886.783 -1844.14 -1113.93
886.723 -1844.4 -1112.39
887.02 -1845.22 -1111.26
887.264 -1845.32 -1107.83
887.426 -1846.11 -1109.81
887.791 -1846.47 -1106.28
888.365 -1847.89 -1105.16
888.207 -1848.25 -1102.06
888.916 -1849.31 -1103.96
888.448 -1849.5 -1100.62
888.318 -1849.32 -1099.16
888.781 -1851 -1098.22
889.227 -1852.5 -1097.3
889.688 -1853.68 -1096.86
890.678 -1853.47 -1093.67
891.423 -1853.5 -1092.36
892.36 -1853.83 -1091.18
890.229 -1854.73 -1096.32
890.662 -1854.83 -1095.12
889.644 -1842.47 -1126.93
889.492 -1843.12 -1125.15
889.35 -1844.03 -1123.41
889.134 -1844.95 -1121.75
887.787 -1845.37 -1116.87
888.421 -1845.84 -1118.53
889.161 -1846.17 -1120.54
887.376 -1845.61 -1114.8
887.326 -1846.02 -1113.15
887.671 -1846.99 -1111.7
887.948 -1847.18 -1108.24
888.112 -1847.88 -1110.26
888.633 -1848.39 -1106.92
889.333 -1849.73 -1105.87
888.87 -1849.96 -1102.23
889.915 -1851.17 -1104.96
889.664 -1851.37 -1103.21
888.866 -1851.18 -1099.5
889.258 -1851.5 -1101.09
889.299 -1852.7 -1098.49
889.771 -1853.93 -1098.02
890.267 -1855.2 -1097.56
891.303 -1854.8 -1093.93
892.14 -1854.77 -1092.71
893.428 -1855.32 -1091.57
890.809 -1856.07 -1096.47
890.806 -1856.42 -1097.48
891.201 -1855.99 -1095.44
890.277 -1844.55 -1126.73
890.013 -1844.92 -1124.78
889.999 -1846.18 -1123.05
888.059 -1846.68 -1116.11
888.677 -1847.41 -1117.4
889.317 -1847.59 -1119.37
890.113 -1847.6 -1121.62
887.903 -1847.25 -1114.45
888.163 -1848.15 -1113.19
888.518 -1849 -1111.84
888.838 -1848.97 -1108.76
888.955 -1849.71 -1110.49
889.558 -1850.19 -1107.49
890.24 -1851.53 -1106.56
890.616 -1852.84 -1105.73
890.51 -1853.19 -1104.03
890.127 -1853.16 -1102.11
889.685 -1853.01 -1100.15
889.95 -1854.19 -1099.24
890.404 -1855.57 -1098.63
890.893 -1856.92 -1098.49
891.876 -1856.01 -1094.46
893.009 -1855.98 -1093.19
894.465 -1856.82 -1092.47
891.513 -1857.25 -1096.62
891.422 -1857.76 -1097.63
891.476 -1858.11 -1098.57
892.135 -1857.61 -1095.97
890.656 -1846.43 -1125.19
890.819 -1847.81 -1123.64
888.622 -1848.39 -1115.58
889.189 -1849.05 -1116.67
889.742 -1849.13 -1118.36
890.359 -1849.15 -1120.33
891.098 -1849.32 -1122.28
888.741 -1849.16 -1114.26
889.022 -1850.2 -1112.86
889.395 -1851.26 -1111.42
889.627 -1850.94 -1109.28
890.337 -1852 -1107.99
890.913 -1853.68 -1106.96
891.163 -1854.61 -1105.2
890.985 -1854.99 -1103.17
890.525 -1854.84 -1101.17
890.6 -1855.72 -1099.88
891.065 -1856.97 -1099.84
891.518 -1858.27 -1099.67
892.706 -1857.13 -1094.74
893.909 -1857.44 -1093.83
892.136 -1858.71 -1097.36
892.12 -1859.18 -1098.47
892.052 -1859.28 -1099.54
892.823 -1859.17 -1096.9
893.023 -1858.45 -1095.78
891.516 -1848.04 -1125.71
891.814 -1849.56 -1124.25
889.356 -1850.28 -1115.25
890.037 -1850.77 -1116.94
890.674 -1850.78 -1118.95
891.406 -1850.91 -1120.93
892.12 -1851.13 -1122.84
889.446 -1851.03 -1113.94
889.733 -1852.06 -1112.63
890.213 -1853.27 -1111.53
890.08 -1852.59 -1110.15
890.714 -1853.7 -1108.68
891.304 -1855.32 -1108.38
891.599 -1855.78 -1106.68
891.691 -1856.46 -1105.07
891.271 -1856.54 -1101.56
891.602 -1856.9 -1103.29
891.758 -1858.09 -1101.21
892.295 -1859.54 -1100.8
894.129 -1858.82 -1095.04
892.745 -1859.86 -1098.08
892.559 -1860.09 -1099.44
892.802 -1860.48 -1100.66
893.687 -1859.7 -1096.44
893.467 -1860.25 -1097.47
892.805 -1851.38 -1124.75
890.313 -1852.21 -1115.48
890.991 -1852.32 -1117.51
891.731 -1852.43 -1119.5
892.499 -1852.67 -1121.44
893.175 -1852.91 -1123.35
890.195 -1852.65 -1113.84
890.564 -1853.86 -1112.67
890.975 -1855.08 -1111.49
890.772 -1854.52 -1110.2
891.506 -1856.26 -1110.01
891.969 -1857.22 -1108.34
892.234 -1857.78 -1106.56
892.224 -1858.3 -1104.65
892.033 -1858.35 -1102.77
892.492 -1859.68 -1102.36
892.998 -1860.75 -1102.06
894.846 -1859.93 -1095.54
896.117 -1861.05 -1095.79
893.402 -1860.74 -1098.68
893.031 -1860.6 -1099.34
893.362 -1861.25 -1100.64
893.429 -1861.51 -1101.9
894.502 -1860.58 -1096.79
894.155 -1861.01 -1098.02
893.785 -1853.19 -1125.14
891.27 -1853.73 -1116.17
890.974 -1854.21 -1114.21
892.063 -1853.96 -1118.15
892.892 -1854.21 -1120.06
893.595 -1854.43 -1121.97
894.2 -1854.67 -1123.81
891.373 -1855.62 -1112.79
891.785 -1856.88 -1111.39
892.24 -1858.09 -1109.91
892.585 -1858.95 -1108.14
892.739 -1859.44 -1106.21
892.693 -1859.7 -1104.19
893.182 -1860.91 -1103.73
893.533 -1861.58 -1103.49
895.3 -1861.5 -1097.45
894.169 -1861.56 -1099.37
893.981 -1861.73 -1100.28
893.856 -1862.13 -1101.84
893.924 -1862.18 -1103.33
894.889 -1861.96 -1098.96
891.796 -1855.28 -1115.31
892.465 -1855.46 -1116.97
891.934 -1856.29 -1113.95
893.329 -1855.78 -1118.8
894.102 -1855.99 -1120.67
894.719 -1856.18 -1122.45
895.259 -1856.4 -1124.24
892.262 -1857.56 -1112.53
892.585 -1858.69 -1111.04
892.989 -1859.78 -1109.52
893.178 -1860.43 -1107.76
893.168 -1860.67 -1105.73
893.652 -1861.57 -1105.25
894.133 -1862.35 -1104.85
896.121 -1862.41 -1098.54
894.917 -1862.48 -1100.44
894.652 -1862.69 -1101.69
894.686 -1863.01 -1103.13
894.793 -1863.23 -1104.45
895.777 -1863.02 -1100.16
892.771 -1856.93 -1115.52
893.635 -1857.23 -1117.35
892.854 -1858.02 -1113.93
894.545 -1857.58 -1119.29
895.264 -1857.79 -1121.11
895.858 -1857.88 -1123.01
893.163 -1859.33 -1112.45
893.447 -1860.43 -1110.98
893.795 -1861.38 -1109.29
893.79 -1861.57 -1107.26
894.33 -1862.48 -1106.51
894.97 -1863.37 -1106.06
895.724 -1863.48 -1101.55
895.561 -1863.65 -1102.9
895.668 -1863.91 -1104.27
895.659 -1863.97 -1105.76
896.98 -1863.95 -1101.12
893.812 -1858.58 -1115.72
894.749 -1858.97 -1117.72
893.764 -1859.63 -1114.03
895.728 -1859.49 -1119.63
896.369 -1859.4 -1121.74
896.994 -1859.63 -1123.63
894.133 -1861.08 -1112.56
894.279 -1861.89 -1111.04
894.397 -1862.5 -1108.45
894.56 -1862.57 -1109.97
894.881 -1863.29 -1107.87
895.536 -1863.97 -1107.46
896.67 -1864.26 -1102.7
896.527 -1864.46 -1104.16
896.579 -1864.6 -1105.78
896.477 -1864.64 -1107.35
898.187 -1864.82 -1102.2
894.777 -1860.2 -1115.98
895.727 -1860.69 -1117.73
894.628 -1861.08 -1114.24
896.781 -1861.58 -1119.13
896.931 -1860.89 -1120.69
897.566 -1861.22 -1122.34
895.333 -1862.44 -1113.89
895.062 -1862.71 -1112.26
895.246 -1863.32 -1111.24
895.137 -1863.44 -1109.88
895.457 -1863.9 -1109.06
896.397 -1864.7 -1108.94
897.803 -1865.1 -1104.04
897.644 -1865.29 -1105.82
897.611 -1865.45 -1107.52
897.523 -1865.61 -1109.05
899.45 -1865.61 -1103.26
895.647 -1861.92 -1115.72
896.5 -1862.3 -1117.32
898.027 -1862.72 -1120.77
897.669 -1863.24 -1118.81
898.578 -1862.85 -1122.77
896.425 -1863.37 -1115.34
895.934 -1863.47 -1113.61
896.114 -1864.14 -1112.56
896.001 -1864.25 -1111.41
896.195 -1864.57 -1110.34
897.433 -1865.66 -1110.37
899.213 -1865.89 -1105.32
898.882 -1866.17 -1107.15
898.749 -1866.44 -1108.92
898.722 -1866.65 -1110.32
900.42 -1866.48 -1104.22
897.287 -1863.71 -1116.96
899.076 -1864.17 -1121.55
898.72 -1864.35 -1119.67
898.444 -1864.78 -1117.86
897.06 -1864.67 -1114.31
897.821 -1864.88 -1115.98
897.354 -1865.3 -1113.05
897.35 -1865.5 -1111.7
898.547 -1866.58 -1111.67
900.172 -1866.71 -1106.08
899.844 -1867.03 -1107.91
900.004 -1867.6 -1109.46
899.783 -1867.72 -1111.12
899.732 -1865.54 -1120.53
900.497 -1866.2 -1121.91
899.55 -1865.93 -1118.61
899.174 -1866.09 -1116.78
898.521 -1866 -1114.88
898.553 -1866.43 -1113.13
899.647 -1867.53 -1112.52
900.97 -1867.49 -1106.48
901.027 -1868.16 -1108.02
900.834 -1868.72 -1110.6
901.451 -1869.06 -1109.34
900.876 -1868.84 -1112.24
900.604 -1866.89 -1119.61
901.703 -1867.83 -1122.46
901.373 -1867.75 -1120.75
900.482 -1867.32 -1117.64
900.072 -1867.34 -1115.93
899.65 -1867.27 -1114.28
900.568 -1868.36 -1113.57
901.757 -1869.77 -1111.57
902.317 -1870.22 -1110.52
902.288 -1870.46 -1112.84
901.647 -1869.64 -1113.84
901.475 -1868.44 -1118.88
902.34 -1869.32 -1120.74
902.702 -1869.49 -1122.9
901.435 -1868.85 -1116.94
900.968 -1868.6 -1115.17
903.02 -1871.22 -1111.89
903.699 -1871.68 -1110.73
902.856 -1871.23 -1114.49
903.474 -1871.99 -1113.39
902.122 -1870.13 -1115.5
902.385 -1869.88 -1118.56
903.398 -1870.99 -1121.76
903.176 -1870.94 -1119.88
902.683 -1870.68 -1117
904.136 -1872.53 -1112.36
905.001 -1873.01 -1111.1
903.528 -1872.05 -1116.11
904.038 -1872.8 -1114.87
904.598 -1873.35 -1113.87
903.663 -1871.88 -1118.36
904.44 -1872.45 -1122.64
904.189 -1872.3 -1120.47
905.332 -1873.84 -1112.67
906.497 -1874.29 -1111.16
904.473 -1873.09 -1117.6
904.83 -1873.69 -1116.34
905.291 -1874.22 -1115.2
905.913 -1874.78 -1114.01
904.989 -1873.59 -1119.46
905.461 -1873.74 -1123.47
905.151 -1873.53 -1121.59
906.695 -1875.27 -1112.77
907.643 -1875.79 -1111.91
905.662 -1874.51 -1118.02
906.184 -1875.19 -1116.54
906.632 -1875.75 -1115.18
907.268 -1876.24 -1114.03
905.99 -1874.62 -1120.9
906.555 -1875.35 -1119.44
906.476 -1875 -1122.95
908.118 -1876.87 -1113.19
908.963 -1877.08 -1111.88
907.078 -1876.09 -1117.91
907.589 -1876.72 -1116.37
907.903 -1877.06 -1115.2
908.61 -1877.65 -1114.26
907.244 -1875.96 -1121.31
907.883 -1876.86 -1119.63
907.915 -1876.52 -1123.13
909.606 -1878.1 -1113.05
908.433 -1877.6 -1118.04
908.875 -1878.04 -1116.71
909.126 -1878.22 -1115.57
910.019 -1878.81 -1114.74
908.611 -1877.51 -1121.4
909.217 -1878.29 -1119.75
909.384 -1878.06 -1123.18
910.222 -1878.78 -1124.81
910.896 -1879.27 -1113.81
909.823 -1878.93 -1118.11
910.394 -1879.37 -1116.58
911.387 -1880.03 -1115.44
910.079 -1878.93 -1121.47
910.641 -1879.62 -1119.79
910.835 -1879.65 -1123.13
911.671 -1880.38 -1124.69
912.414 -1880.4 -1113.88
911.24 -1880.19 -1118.23
912.076 -1880.74 -1116.91
913.099 -1881.33 -1115.53
912.46 -1881.06 -1126.19
911.515 -1880.38 -1121.54
912.016 -1880.89 -1119.91
912.425 -1881.21 -1123.24
913.348 -1882.08 -1124.8
912.844 -1881.57 -1118.47
913.824 -1882.21 -1117.19
913.489 -1882.07 -1127.2
912.972 -1881.74 -1121.65
913.41 -1882.17 -1120.1
914.006 -1882.73 -1123.18
914.38 -1883.12 -1126
915.019 -1883.82 -1124.58
914.519 -1883.08 -1119.15
915.34 -1883.47 -1117.43
914.408 -1883.13 -1121.39
915.411 -1884.17 -1122.93
915.668 -1884.4 -1126.35
916.464 -1885.25 -1124.74
915.92 -1884.3 -1119.17
915.594 -1884.21 -1120.96
917.123 -1884.82 -1117.28
916.659 -1885.35 -1122.76
916.964 -1885.52 -1126.87
917.955 -1886.45 -1125.73
917.854 -1886.39 -1124.01
916.921 -1885.36 -1120.93
917.295 -1885.32 -1119.18
917.349 -1885.57 -1129.08
918.061 -1886.43 -1122.16
918.317 -1886.62 -1127.74
919.489 -1887.67 -1126.67
919.402 -1887.63 -1124.93
919.341 -1887.55 -1123.2
918.439 -1886.47 -1120.33
919.607 -1887.57 -1121.45
919.779 -1887.74 -1128.65
921.062 -1888.89 -1125.88
920.901 -1888.71 -1127.55
920.757 -1888.63 -1124.03
920.905 -1888.72 -1122.37
921.163 -1888.63 -1120.57
921.341 -1888.9 -1129.31
922.258 -1889.84 -1127.72
922.713 -1890.35 -1126.12
922.016 -1889.76 -1124.77
922.163 -1889.88 -1123.24
922.347 -1889.86 -1121.54
921.78 -1888.9 -1131.17
922.744 -1890.14 -1129.63
923.672 -1891.23 -1128.06
924.018 -1891.75 -1126.05
923.349 -1891.06 -1124.2
923.066 -1890.12 -1131.71
924.054 -1891.39 -1130.42
924.925 -1892.38 -1129.28
925.14 -1892.68 -1127.44
924.658 -1892.37 -1124.46
925.604 -1893.27 -1125.65
924.771 -1892.41 -1123.02
924.515 -1891.58 -1132.35
925.711 -1892.92 -1131.13
926.25 -1893.58 -1129.1
926.627 -1893.97 -1127.14
927.065 -1894.41 -1125.22
926.995 -1894.05 -1132.48
927.173 -1894.33 -1130.61
927.693 -1894.83 -1128.71
928.09 -1895.22 -1126.7
928.589 -1895.7 -1124.85
928.386 -1895.24 -1131.93
928.842 -1895.67 -1130.18
929.313 -1896.03 -1128.18
929.741 -1896.54 -1126.3
