952.995 -1886.25 -1767.92
955.646 -1886.31 -1768.67
962.993 -1885.58 -1771.95
964.283 -1885.19 -1773.15
958.702 -1886.25 -1769.7
952.094 -1886.26 -1768.76
954.09 -1886.36 -1769.18
950.135 -1886.08 -1768.37
955.764 -1886.43 -1770.27
957.202 -1886.38 -1769.86
959.918 -1886.12 -1770.99
961.45 -1885.91 -1772.49
962.821 -1885.65 -1773.7
964.084 -1885.23 -1775.01
965.367 -1884.83 -1776.44
966.634 -1884.42 -1777.86
958.411 -1886.35 -1771.26
947.082 -1886.03 -1767.75
945.05 -1885.77 -1767.81
948.108 -1886.04 -1768.81
951.206 -1886.14 -1769.51
952.89 -1886.27 -1770.05
954.543 -1886.38 -1770.82
949.353 -1885.99 -1769.94
956.13 -1886.37 -1771.98
957.269 -1886.39 -1771.49
943.434 -1885.47 -1767.51
943.557 -1885.58 -1768.55
959.794 -1886.15 -1772.59
961.514 -1885.88 -1774.32
962.819 -1885.57 -1775.52
964.003 -1885.19 -1776.91
967.625 -1884.03 -1779.41
965.163 -1884.86 -1778.43
966.287 -1884.55 -1779.9
958.6 -1886.27 -1772.83
946.189 -1885.88 -1768.91
944.347 -1885.72 -1769.13
947.401 -1885.87 -1770.21
950.921 -1885.93 -1771.09
952.979 -1886.01 -1771.41
954.786 -1886.14 -1772.37
948.669 -1885.64 -1771.18
956.57 -1886.1 -1773.41
957.64 -1886.16 -1773.25
942.207 -1885.25 -1768.74
941.154 -1884.7 -1768.5
941.824 -1885.25 -1769.91
942.877 -1885.51 -1770.01
959.937 -1886.05 -1774.06
960.548 -1885.87 -1775.45
961.932 -1885.7 -1775.8
962.772 -1885.43 -1777.34
963.884 -1885.13 -1778.74
967.305 -1884.07 -1781.39
964.964 -1884.82 -1780.32
966.056 -1884.42 -1781.81
958.995 -1886.03 -1774.59
945.57 -1885.74 -1770.28
943.803 -1885.59 -1770.6
946.55 -1885.54 -1771.27
949.792 -1885.41 -1772.28
951.698 -1885.57 -1772.36
953.478 -1885.62 -1772.98
955.237 -1885.72 -1773.84
947.723 -1885.14 -1772.65
956.955 -1885.78 -1774.85
958.271 -1885.97 -1774.91
940.804 -1884.87 -1769.95
939.849 -1884.36 -1769.98
940.359 -1884.91 -1771.3
941.147 -1885.16 -1771.3
942.33 -1885.34 -1771.46
938.678 -1883.64 -1769.81
961.609 -1885.6 -1777.2
960.09 -1885.83 -1776.13
962.792 -1885.26 -1778.86
963.932 -1884.96 -1780.4
967.067 -1884.05 -1783.22
968.687 -1883.39 -1782.86
964.865 -1884.65 -1782.07
965.79 -1884.31 -1783.55
969.55 -1882.89 -1784.61
944.669 -1885.45 -1771.47
942.894 -1885.26 -1772.31
945.642 -1885.14 -1772.74
948.815 -1884.79 -1774.11
950.513 -1884.97 -1773.84
952.051 -1884.93 -1774.46
953.815 -1885.08 -1774.95
955.568 -1885.24 -1775.83
946.707 -1884.73 -1774.32
957.45 -1885.37 -1776.63
959.031 -1885.74 -1776.46
939.416 -1884.49 -1771.48
938.423 -1884.03 -1771.52
938.871 -1884.46 -1772.9
939.962 -1884.82 -1772.62
941.055 -1885.1 -1772.64
937.365 -1883.4 -1771.42
960.562 -1885.42 -1777.88
961.704 -1885.18 -1779.22
962.848 -1884.96 -1780.71
963.849 -1884.7 -1782.28
968.124 -1883.53 -1784.72
966.753 -1883.99 -1784.96
964.675 -1884.45 -1784.01
965.61 -1884.16 -1785.47
969.139 -1882.91 -1786.7
943.82 -1885.04 -1773.29
941.814 -1884.97 -1773.77
944.817 -1884.71 -1774.6
947.988 -1884.29 -1775.77
950.246 -1884.34 -1775.69
952.198 -1884.34 -1776.35
954.061 -1884.53 -1776.99
955.975 -1884.74 -1777.68
945.961 -1884.25 -1776.11
957.856 -1884.97 -1778.42
959.297 -1885.25 -1778.27
937.93 -1884.13 -1773.07
936.959 -1883.68 -1772.99
937.387 -1884.13 -1774.54
938.621 -1884.43 -1774.17
939.79 -1884.76 -1773.74
940.308 -1884.7 -1774.63
970.547 -1882.05 -1788.23
960.44 -1885.05 -1779.77
961.648 -1884.87 -1781.15
962.684 -1884.65 -1782.63
963.613 -1884.48 -1784.23
967.82 -1883.5 -1786.28
966.574 -1883.84 -1786.82
964.587 -1884.2 -1786.06
965.459 -1883.91 -1787.5
969.043 -1882.74 -1788.68
967.758 -1883.29 -1787.98
942.796 -1884.68 -1774.98
941.011 -1884.55 -1775.67
943.967 -1884.26 -1776.36
949.044 -1883.8 -1777.1
947.264 -1883.64 -1777.73
950.84 -1883.77 -1777.63
952.707 -1883.79 -1778.43
954.632 -1884.02 -1779.04
956.614 -1884.29 -1779.57
945.186 -1883.73 -1778.01
958.896 -1884.78 -1780.14
936.21 -1883.64 -1774.36
935.276 -1883.13 -1774.16
936.155 -1883.76 -1775.83
935.381 -1883.49 -1775.7
937.552 -1884.14 -1775.67
938.664 -1884.42 -1775.46
939.359 -1884.29 -1776.42
934.015 -1882.61 -1775.26
970.419 -1881.93 -1790.28
973.465 -1880.21 -1795.52
978.723 -1878.37 -1800.85
980.802 -1877.96 -1802.13
982.254 -1877.65 -1804.11
986.923 -1876.75 -1807.61
960.296 -1884.66 -1781.56
961.351 -1884.5 -1783.07
962.421 -1884.37 -1784.54
963.54 -1884.24 -1786.05
966.646 -1883.53 -1788.68
964.524 -1883.84 -1788.16
965.571 -1883.56 -1789.45
969.034 -1882.52 -1790.61
967.746 -1883.07 -1789.8
942.036 -1884.24 -1776.86
940.157 -1884.08 -1777.47
943.269 -1883.85 -1778.22
949.272 -1883.33 -1778.72
946.199 -1883.28 -1779.53
947.891 -1883.13 -1779.66
950.894 -1883.26 -1779.38
953.953 -1883.41 -1780.65
952.383 -1883.23 -1780.12
955.617 -1883.69 -1781.12
957.483 -1884.04 -1781.24
944.222 -1883.27 -1780.18
958.848 -1884.17 -1782.27
934.701 -1883.16 -1775.54
935.852 -1883.68 -1776.98
934.97 -1883.41 -1777.23
934.245 -1883.06 -1777.05
937.362 -1883.93 -1776.88
937.981 -1883.92 -1777.55
938.523 -1883.82 -1778.28
933.47 -1882.55 -1776.68
969.683 -1882.01 -1792.32
970.953 -1881.35 -1793.37
971.77 -1880.91 -1795.01
972.138 -1880.63 -1796.85
983.523 -1877.45 -1805.94
976.964 -1878.83 -1799.93
977.074 -1878.84 -1802.15
978.904 -1878.37 -1802.73
980.298 -1878.07 -1804.23
981.401 -1877.9 -1806.03
984.699 -1877.21 -1807.73
985.34 -1877.11 -1809.6
987.084 -1876.73 -1809.59
959.976 -1884.2 -1783.7
961.234 -1884.13 -1784.98
962.31 -1884.06 -1786.38
963.49 -1883.91 -1787.73
966.746 -1883.15 -1790.67
964.489 -1883.41 -1790.36
963.466 -1883.55 -1789.49
965.744 -1883.1 -1791.48
968.072 -1882.64 -1791.75
941.258 -1883.81 -1778.65
939.512 -1883.6 -1779.37
942.395 -1883.5 -1779.83
949.47 -1882.9 -1780.54
945.823 -1882.9 -1781.32
947.683 -1882.8 -1781.67
951.021 -1882.96 -1781.15
954.694 -1883.2 -1782.66
952.769 -1883 -1782.02
956.639 -1883.54 -1782.97
944.212 -1882.74 -1782.48
942.451 -1883.02 -1781.61
958.346 -1883.62 -1784.19
935.115 -1883.21 -1778.7
936.199 -1883.58 -1778.22
933.942 -1882.86 -1778.51
932.979 -1882.37 -1778.19
936.982 -1883.51 -1779.12
937.91 -1883.32 -1780.22
932.197 -1881.79 -1777.67
975.282 -1879.46 -1798.84
969.832 -1881.65 -1794.32
968.282 -1882.24 -1793.62
970.656 -1881.2 -1795.9
972.35 -1880.38 -1798.73
970.99 -1880.85 -1797.65
973.803 -1879.92 -1799.81
982.559 -1877.63 -1807.8
975.385 -1879.37 -1800.95
975.331 -1879.33 -1802.93
976.745 -1878.99 -1804.1
978.342 -1878.56 -1804.5
979.292 -1878.35 -1806.16
980.484 -1878.03 -1807.86
983.487 -1877.44 -1809.62
988.22 -1876.45 -1811.14
984.526 -1877.26 -1811.55
986.349 -1876.9 -1811.5
989.443 -1876.1 -1812.59
990.684 -1875.73 -1813.94
991.816 -1875.32 -1815.26
959.694 -1883.67 -1785.71
961.078 -1883.72 -1787.06
962.438 -1883.73 -1788.27
966.901 -1882.71 -1792.63
963.333 -1883.16 -1791.38
964.935 -1882.98 -1792.31
962.16 -1883.32 -1790.17
965.9 -1882.64 -1793.43
940.767 -1883.31 -1780.64
939.077 -1883.11 -1781.31
949.514 -1882.68 -1782.46
946.035 -1882.56 -1783.24
947.884 -1882.56 -1783.77
951.272 -1882.73 -1783.15
953.1 -1882.83 -1783.89
954.992 -1882.94 -1784.58
956.637 -1883.13 -1784.93
942.549 -1882.57 -1783.47
944.437 -1882.31 -1784.62
940.753 -1882.8 -1782.53
957.837 -1883.11 -1786.39
935.527 -1883.15 -1779.83
933.946 -1882.71 -1779.68
934.421 -1882.73 -1780.57
932.55 -1882.14 -1779.86
931.844 -1881.67 -1779.3
936.307 -1883.04 -1780.86
937.39 -1882.85 -1781.97
929.98 -1880 -1778.04
930.999 -1880.98 -1778.67
968.883 -1881.79 -1795.27
967.275 -1882.27 -1794.49
969.458 -1881.36 -1796.79
971.149 -1880.57 -1799.48
972.511 -1880.17 -1800.68
969.707 -1880.99 -1798.43
973.886 -1879.76 -1801.78
981.507 -1877.78 -1809.6
973.849 -1879.59 -1803.83
975.279 -1879.24 -1805.11
977.166 -1878.83 -1806.13
978.51 -1878.48 -1807.91
979.4 -1878.2 -1809.6
982.662 -1877.55 -1811.44
987.531 -1876.59 -1813.13
983.824 -1877.33 -1813.33
985.674 -1877.03 -1813.48
988.754 -1876.18 -1814.65
990.059 -1875.74 -1816.11
991.647 -1875.2 -1817.27
959.261 -1883.22 -1787.83
960.705 -1883.31 -1789.08
961.915 -1882.91 -1792.11
963.371 -1882.74 -1793.23
964.672 -1882.5 -1794.24
960.6 -1882.96 -1791
966.108 -1882.14 -1795.26
938.908 -1882.62 -1783.11
949.751 -1882.53 -1784.58
946.273 -1882.31 -1785.2
948.106 -1882.33 -1785.82
951.571 -1882.52 -1785.27
953.625 -1882.66 -1785.81
955.742 -1882.69 -1786.7
940.777 -1882.29 -1784.46
942.603 -1882.17 -1785.21
943.828 -1881.85 -1786.71
945.755 -1881.92 -1786.98
957.203 -1882.66 -1788.33
934.906 -1882.66 -1781.5
932.924 -1882.19 -1780.98
933.602 -1882.13 -1782.03
931.471 -1881.5 -1781.47
931.077 -1881.24 -1780.8
930.588 -1880.86 -1780.19
935.805 -1882.49 -1782.69
937.047 -1882.3 -1783.78
928.38 -1878.88 -1779.27
929.644 -1880.05 -1779.68
967.691 -1881.77 -1796.27
968.112 -1881.25 -1798.09
969.87 -1880.68 -1800.09
971.314 -1880.23 -1801.26
972.423 -1879.99 -1802.7
968.377 -1880.78 -1800.05
980.688 -1877.86 -1811.31
972.239 -1879.8 -1804.55
973.531 -1879.43 -1805.9
975.214 -1879.13 -1807.01
976.809 -1878.8 -1808.04
977.349 -1878.53 -1809.94
978.768 -1878.17 -1811.25
981.72 -1877.53 -1813.05
986.842 -1876.63 -1815.15
982.791 -1877.24 -1814.83
984.92 -1876.93 -1815.44
988.227 -1876.14 -1816.71
989.826 -1875.59 -1818.23
992.116 -1874.92 -1819.06
958.683 -1882.75 -1789.88
960.435 -1882.51 -1793.08
961.753 -1882.42 -1794.14
963.14 -1882.25 -1795.16
964.632 -1881.99 -1796.11
959.032 -1882.53 -1791.79
966.384 -1881.65 -1797.11
938.792 -1882.1 -1784.79
949.985 -1882.31 -1786.75
947.707 -1881.97 -1787.62
952.024 -1882.29 -1787.27
954.059 -1882.43 -1787.55
955.343 -1882.32 -1788.9
939.84 -1881.73 -1786.19
941.63 -1881.79 -1786.62
942.647 -1881.38 -1788.34
944.523 -1881.46 -1788.71
946.317 -1881.5 -1789.01
956.573 -1882.27 -1790.42
934.336 -1881.98 -1783.2
932.066 -1881.48 -1782.45
932.804 -1881.4 -1783.61
930.311 -1880.62 -1782.61
930.765 -1880.72 -1783.35
929.72 -1880.28 -1781.79
929.239 -1879.86 -1780.92
935.673 -1881.73 -1784.84
937.377 -1881.72 -1785.63
926.919 -1877.85 -1780.25
927.95 -1878.86 -1780.88
925.746 -1877.06 -1781.43
966.564 -1881.15 -1799.02
969.453 -1880.35 -1801.83
970.865 -1880.06 -1803.14
966.559 -1880.66 -1800.86
967.768 -1880.33 -1802.2
979.534 -1877.91 -1812.97
970.643 -1879.77 -1805.06
971.807 -1879.52 -1806.66
973.571 -1879.22 -1807.89
975.282 -1878.9 -1809.1
975.679 -1878.64 -1811.02
977.354 -1878.26 -1812.32
980.679 -1877.5 -1814.67
986.323 -1876.55 -1817.1
981.506 -1877.15 -1816.54
983.421 -1876.93 -1816.62
984.704 -1876.6 -1817.92
987.858 -1876 -1818.66
990.779 -1875.2 -1820.08
989.11 -1875.54 -1820.31
957.347 -1882.13 -1792.14
960.107 -1881.98 -1795.12
958.665 -1882.06 -1793.76
961.518 -1881.84 -1796.12
963.281 -1881.7 -1797.03
965.056 -1881.47 -1797.89
949.39 -1881.95 -1788.58
951.227 -1881.93 -1789.01
947.975 -1881.49 -1789.87
953.205 -1882.05 -1789.2
954.378 -1881.9 -1790.74
938.444 -1881.23 -1787.33
940.475 -1881.26 -1788.06
941.528 -1880.85 -1789.76
943.683 -1880.95 -1790.36
945.743 -1881.03 -1790.89
955.482 -1881.76 -1792.35
933.877 -1881.25 -1785.01
931.412 -1880.71 -1784.09
932.241 -1880.66 -1785.28
928.466 -1879.45 -1782.95
929.02 -1879.73 -1783.71
929.667 -1879.94 -1784.54
928.014 -1879.15 -1782.1
934.771 -1880.93 -1786.64
936.476 -1881.11 -1786.97
926.803 -1878.25 -1782.51
924.265 -1875.99 -1782.29
925.378 -1877.26 -1783.35
965.122 -1880.91 -1799.9
969.073 -1879.97 -1803.8
965.484 -1880.25 -1802.31
966.82 -1879.96 -1803.79
986.188 -1876.24 -1819.3
984.432 -1876.31 -1819.95
987.49 -1875.8 -1820.9
990.7 -1874.99 -1822.02
988.925 -1875.29 -1822.44
956.734 -1881.66 -1794.06
958.236 -1881.56 -1795.7
959.754 -1881.34 -1797.19
961.79 -1881.29 -1798.03
963.413 -1881.08 -1799.07
949.936 -1881.51 -1790.57
952.1 -1881.65 -1790.95
947.692 -1881.02 -1791.73
953.498 -1881.45 -1792.63
937.238 -1880.55 -1788.85
939.215 -1880.69 -1789.33
940.181 -1880.27 -1791.08
942.249 -1880.4 -1791.7
944.342 -1880.46 -1792.44
946.189 -1880.53 -1793.16
954.702 -1881.34 -1794.29
932.88 -1880.39 -1786.73
930.726 -1879.92 -1785.97
927.058 -1878.53 -1783.85
927.748 -1878.9 -1784.63
928.41 -1879.17 -1785.44
929.098 -1879.3 -1786.39
933.47 -1880.05 -1788.22
935.331 -1880.36 -1788.55
925.43 -1877.53 -1784.76
922.689 -1875.02 -1783.27
923.975 -1876.25 -1784.28
985.811 -1875.96 -1821.49
956.249 -1881.21 -1795.92
957.578 -1880.98 -1797.53
958.737 -1880.69 -1799.13
960.606 -1880.84 -1799.14
949.651 -1881.1 -1792.35
951.554 -1881.22 -1792.79
948.218 -1880.63 -1793.76
952.585 -1880.93 -1794.64
936.03 -1879.8 -1790.46
937.933 -1880.02 -1790.78
938.893 -1879.66 -1792.39
940.787 -1879.77 -1793.13
942.773 -1879.93 -1793.65
944.703 -1879.87 -1794.78
946.756 -1880.08 -1795.21
954.34 -1880.9 -1796.21
931.379 -1879.68 -1787.67
929.835 -1879.25 -1787.64
926.266 -1878.06 -1785.41
927.141 -1878.42 -1786.23
927.894 -1878.6 -1787.37
928.51 -1878.54 -1788.72
932.024 -1879.26 -1789.47
934.019 -1879.56 -1790.03
923.633 -1876.37 -1785.77
924.65 -1877.14 -1786.31
922.302 -1875.22 -1785.15
955.474 -1880.66 -1797.88
956.72 -1880.41 -1799.43
950.341 -1880.76 -1794.28
948.871 -1880.25 -1795.7
950.918 -1880.43 -1796.13
952.659 -1880.54 -1796.68
934.871 -1879.11 -1791.88
936.87 -1879.28 -1792.63
938.779 -1879.11 -1794.11
940.701 -1879.2 -1795.07
942.717 -1879.39 -1795.43
943.888 -1879.21 -1796.93
945.728 -1879.48 -1796.89
947.704 -1879.69 -1797.19
953.6 -1880.27 -1798.44
930.094 -1878.83 -1789.33
925.515 -1877.57 -1787.03
926.36 -1877.91 -1787.75
926.781 -1877.89 -1788.99
927.549 -1877.79 -1790.24
932.719 -1878.8 -1791.4
922.115 -1875.48 -1786.89
923.283 -1876.42 -1787.78
924.237 -1876.92 -1788.35
920.713 -1874.32 -1786.18
954.685 -1880.02 -1799.94
949.756 -1879.93 -1797.64
951.669 -1880.02 -1798.32
935.197 -1878.57 -1793.87
936.893 -1878.65 -1794.74
938.519 -1878.57 -1795.98
940.083 -1878.64 -1796.87
941.868 -1878.87 -1797.1
942.708 -1878.63 -1798.79
944.653 -1878.9 -1798.78
946.615 -1879.15 -1798.88
948.642 -1879.42 -1799.06
952.556 -1879.7 -1800.43
925.201 -1877.25 -1789.19
925.783 -1877.14 -1790.61
926.782 -1877.12 -1791.83
920.443 -1874.48 -1788
921.863 -1875.49 -1788.53
922.354 -1875.78 -1789.58
923.623 -1876.43 -1789.7
919.196 -1873.43 -1787.3
950.603 -1879.6 -1799.73
924.236 -1876.45 -1790.89
925.088 -1876.44 -1792.42
920.542 -1874.74 -1789.63
919.086 -1873.69 -1789.45
920.971 -1874.97 -1790.99
922.533 -1875.67 -1791.05
916.376 -1871.85 -1788.84
917.934 -1872.74 -1788.32
923.336 -1875.75 -1792.46
924.293 -1875.68 -1794.11
919.505 -1874.07 -1791.16
917.436 -1872.71 -1790.12
917.998 -1873.24 -1791.25
919.902 -1874.27 -1792.63
921.5 -1875.03 -1792.52
915.861 -1871.99 -1790.97
922.455 -1875.09 -1793.94
918.219 -1873.49 -1792.8
916.621 -1872.57 -1792.45
918.95 -1873.73 -1794.25
920.549 -1874.41 -1794.07
913.861 -1870.96 -1791.08
914.757 -1871.71 -1792.53
921.445 -1874.47 -1795.43
917.139 -1872.89 -1794.19
915.541 -1872.16 -1793.8
917.91 -1873.12 -1795.7
919.779 -1873.79 -1796
912.731 -1870.64 -1792.61
913.673 -1871.19 -1793.91
915.903 -1872.36 -1795.51
914.483 -1871.65 -1795.14
916.759 -1872.55 -1796.91
918.457 -1873.09 -1797.47
910.847 -1869.56 -1793
911.832 -1870.28 -1794.29
912.848 -1870.8 -1795.72
915.256 -1871.87 -1797.68
914.108 -1871.43 -1796.75
916.809 -1872.32 -1798.74
910.065 -1869.28 -1794.82
911.13 -1869.93 -1796.22
912.36 -1870.49 -1797.48
913.638 -1871.06 -1798.55
915.115 -1871.56 -1799.66
908.347 -1868.41 -1795.15
909.35 -1869.07 -1796.65
910.574 -1869.63 -1798.03
911.949 -1870.14 -1799.32
906.594 -1867.69 -1795.5
913.384 -1870.73 -1800.35
907.66 -1868.23 -1797.07
908.828 -1868.82 -1798.42
910.125 -1869.32 -1799.86
911.576 -1869.88 -1801.07
905.931 -1867.57 -1797.49
906.993 -1868.11 -1799.07
908.299 -1868.6 -1800.31
909.764 -1869.07 -1801.69
911.224 -1869.55 -1802.84
905.172 -1867.52 -1799.48
903.312 -1866.84 -1799.86
906.322 -1867.95 -1801.11
908.039 -1868.43 -1802.01
909.419 -1868.71 -1803.74
904.346 -1867.3 -1801.38
902.441 -1866.58 -1801.65
905.369 -1867.56 -1803
907.238 -1868.07 -1803.4
908.142 -1868.13 -1805.32
903.284 -1866.92 -1803.08
901.479 -1866.25 -1803.42
904.123 -1867.1 -1804.68
906.105 -1867.63 -1804.9
906.88 -1867.63 -1806.94
902.181 -1866.45 -1804.77
902.945 -1866.6 -1806.24
904.965 -1867.22 -1806.45
