1111.87 -1754.32 -1219.27
1106.45 -1745.39 -1220.74
1104.8 -1742.57 -1221.64
1105.84 -1744.08 -1221.97
1103.41 -1740.05 -1222.79
1102.7 -1739.14 -1223.99
1104.48 -1741.75 -1223.01
1111.68 -1752.66 -1221.1
1112.56 -1754.16 -1221.03
1110.82 -1751.13 -1221.52
1109.47 -1749.73 -1220.23
1113.28 -1755.84 -1220.27
1114.11 -1757.64 -1219.63
1108.59 -1748.3 -1220.85
1114.66 -1760.59 -1217.44
1114.6 -1759.29 -1218.62
1107.76 -1746.85 -1221.7
1106.93 -1745.46 -1222.47
1105.71 -1743.51 -1223.28
1103.89 -1740.69 -1224.34
1103.09 -1739.93 -1225.78
1102.21 -1739.01 -1227.36
1105.04 -1742.45 -1224.61
1111.95 -1752.61 -1222.65
1112.95 -1754.13 -1222.46
1113.81 -1755.54 -1222.03
1111.05 -1751 -1223.15
1109.88 -1749.62 -1221.94
1114.65 -1757.26 -1221.3
1115.36 -1758.91 -1220.48
1108.99 -1748.17 -1222.72
1115.73 -1761.72 -1218.52
1115.79 -1760.44 -1219.67
1108.04 -1746.77 -1223.66
1106.92 -1745.08 -1223.88
1106.21 -1744.1 -1225.04
1104.39 -1741.51 -1226.06
1103.43 -1740.74 -1227.61
1105.54 -1743.25 -1226.37
1112.12 -1752.47 -1224.05
1113.36 -1754.14 -1223.81
1114.25 -1755.55 -1223.08
1115.06 -1756.95 -1222.65
1111.32 -1751.2 -1224.69
1110.13 -1749.69 -1223.51
1115.78 -1758.51 -1221.93
1116.42 -1759.88 -1221.48
1109.29 -1748.36 -1224.41
1116.54 -1764.23 -1218.46
1116.59 -1762.56 -1219.4
1116.64 -1761.32 -1220.48
1107.48 -1745.77 -1225.37
1108.49 -1747.23 -1225.29
1106.84 -1745.1 -1226.63
1104.7 -1742.4 -1227.82
1116.5 -1766.13 -1217.51
1117.12 -1767.55 -1218.79
1105.97 -1744.19 -1228
1112.66 -1752.95 -1225.11
1113.86 -1754.55 -1225.12
1114.67 -1755.71 -1224.38
1115.52 -1756.89 -1223.94
1116.04 -1758.06 -1223.19
1111.6 -1751.63 -1225.98
1110.37 -1749.89 -1225.04
1116.72 -1759.46 -1223.02
1117.12 -1760.82 -1222.12
1109.48 -1748.65 -1226.01
1117.15 -1765.44 -1219.47
1117.19 -1763.43 -1220.24
1117.19 -1762.23 -1221.01
1108.22 -1747.06 -1226.76
1107.15 -1746.07 -1227.91
1105 -1743.38 -1229.58
1117.28 -1769.42 -1219.17
1117.81 -1768.36 -1220.54
1117.65 -1766.5 -1220.46
1106.22 -1745.09 -1229.61
1112.99 -1753.24 -1226.44
1115.04 -1755.98 -1225.73
1114.1 -1754.83 -1226.5
1115.84 -1757.08 -1225.09
1116.47 -1758.22 -1224.35
1111.84 -1752.06 -1227.51
1110.64 -1750.34 -1226.79
1117.13 -1759.58 -1224.57
1117.39 -1760.59 -1223.3
1117.62 -1762.18 -1222.38
1109.54 -1749.04 -1227.55
1117.65 -1764.61 -1220.92
1117.72 -1763.2 -1221.61
1108.42 -1747.79 -1228.33
1107.4 -1746.74 -1229.7
1105.36 -1744.5 -1231.36
1117.7 -1773.13 -1219.65
1117.66 -1770.9 -1220.1
1117.97 -1767.53 -1221.44
1117.97 -1769.65 -1221.24
1117.87 -1765.66 -1221.48
1106.63 -1746.31 -1231.4
1113.13 -1753.6 -1227.81
1116 -1757.3 -1226.17
1115.24 -1756.32 -1226.97
1114.3 -1755.21 -1227.81
1116.66 -1758.52 -1225.56
1111.99 -1752.41 -1229.02
1110.8 -1750.8 -1228.46
1117.57 -1760.59 -1224.81
1117.23 -1759.86 -1226.04
1117.79 -1761.77 -1223.63
1117.96 -1763.17 -1222.87
1109.56 -1749.57 -1229.16
1118 -1764.23 -1222.19
1108.4 -1748.27 -1230.17
1107.86 -1748.26 -1231.95
1117.9 -1777.22 -1219.57
1118 -1775.29 -1220.16
1118.33 -1773.98 -1221.6
1118.14 -1771.95 -1221.44
1118.25 -1768.66 -1222.63
1118.2 -1766.27 -1222.69
1118.32 -1770.83 -1222.76
1113.21 -1753.95 -1229.13
1116.65 -1758.57 -1226.35
1115.95 -1757.42 -1227.17
1115.26 -1756.64 -1228.15
1114.31 -1755.53 -1229.33
1110.68 -1751.2 -1229.87
1111.76 -1752.78 -1230.62
1117.84 -1761.67 -1224.72
1117.53 -1760.72 -1225.86
1117.1 -1759.75 -1226.68
1118.03 -1763.18 -1223.92
1118.16 -1764.55 -1223.28
1109.25 -1749.89 -1230.98
1108.87 -1750.06 -1232.86
1118.38 -1777.91 -1221.42
1118.47 -1776.21 -1221.75
1118.74 -1775.09 -1223.14
1118.59 -1773 -1223.06
1118.37 -1767.87 -1223.97
1118.53 -1769.99 -1224.07
1118.36 -1765.97 -1224.05
1118.67 -1772.03 -1224.34
1113.08 -1754.32 -1230.43
1116.49 -1758.49 -1227.29
1115.74 -1757.53 -1228.43
1114.94 -1756.86 -1229.73
1113.91 -1755.75 -1230.93
1110.27 -1751.45 -1231.67
1112.41 -1754.15 -1231.8
1111.14 -1752.9 -1232.6
1117.97 -1763.13 -1224.82
1117.72 -1762.1 -1225.72
1117.39 -1760.97 -1226.81
1116.89 -1759.83 -1227.73
1118.2 -1764.72 -1224.97
1109.75 -1751.66 -1233.66
1118.6 -1779.38 -1222.58
1118.85 -1777.33 -1223.3
1118.9 -1774.16 -1224.57
1119.02 -1776.01 -1224.33
1118.52 -1769.04 -1225.18
1118.38 -1766.83 -1225.37
1118.66 -1771.14 -1225.54
1118.97 -1773.27 -1225.89
1116.15 -1758.6 -1228.71
1115.23 -1757.99 -1230.21
1114.35 -1756.99 -1231.34
1112.99 -1755.47 -1232.22
1111.75 -1754.28 -1233.5
1110.56 -1753.21 -1234.59
1117.99 -1763.97 -1225.99
1117.62 -1762.86 -1226.95
1117.07 -1761.67 -1228.18
1116.52 -1760.08 -1229.19
1118.16 -1765.83 -1226.48
1109.25 -1752.02 -1235.69
1118.37 -1783.37 -1222.54
1118.71 -1781 -1223.45
1118.96 -1779.1 -1224.49
1119.15 -1777.41 -1225.22
1119.17 -1775.54 -1225.91
1118.36 -1768.06 -1226.39
1118.51 -1770.17 -1226.68
1118.87 -1772.22 -1227.21
1119.08 -1774.38 -1227.26
1115.6 -1759.2 -1230.55
1114.57 -1758.31 -1231.99
1113.41 -1756.82 -1232.88
1112.17 -1755.64 -1234.14
1111.06 -1754.6 -1235.47
1109.87 -1753.6 -1236.57
1117.86 -1764.92 -1227.45
1117.51 -1763.75 -1228.03
1116.56 -1761.56 -1229.64
1117.01 -1763.19 -1229.33
1115.87 -1760.77 -1230.95
1118.09 -1767 -1227.61
1118.66 -1782.49 -1224.24
1118.57 -1784.25 -1224.69
1118.55 -1786.07 -1225.24
1118.61 -1787.92 -1225.87
1118.93 -1780.75 -1225.36
1119.14 -1779.04 -1226.09
1119.27 -1777.41 -1226.97
1119.27 -1775.98 -1227.48
1118.34 -1769.23 -1227.73
1118.5 -1771.09 -1228.46
1118.84 -1773.09 -1228.83
1119.08 -1775 -1228.69
1115.01 -1759.91 -1232.23
1113.66 -1758.16 -1233.74
1114.14 -1759.65 -1233.84
1112.53 -1757.16 -1234.99
1111.49 -1756.21 -1236.27
1110.39 -1755.18 -1237.49
1117.69 -1766.22 -1228.38
1117.28 -1765.12 -1229.13
1116.31 -1762.78 -1231.02
1116.7 -1764.89 -1230.86
1115.47 -1762.02 -1232.59
1117.91 -1768.13 -1228.96
1118.75 -1790 -1226.62
1118.77 -1782.63 -1226.06
1118.66 -1784.54 -1226.68
1118.62 -1786.38 -1227.17
1118.68 -1788.33 -1227.8
1118.99 -1780.91 -1226.88
1119.2 -1779.23 -1227.82
1119.24 -1777.64 -1228.68
1119.21 -1776.16 -1228.98
1118.16 -1770.25 -1229.45
1118.53 -1772.2 -1230.22
1118.85 -1774.3 -1230.08
1119.04 -1775.59 -1230.03
1114.59 -1761.44 -1234.03
1113.06 -1758.94 -1235.55
1113.59 -1760.64 -1235.68
1111.94 -1758.07 -1237.01
1110.9 -1756.99 -1238.19
1117.28 -1766.97 -1230.17
1115.87 -1764.09 -1232.59
1116.54 -1766.48 -1232.1
1115.01 -1763.68 -1234.35
1117.72 -1769.16 -1230.53
1118.8 -1791.79 -1227.4
1118.8 -1790.25 -1228.66
1118.77 -1782.86 -1227.52
1118.67 -1784.79 -1228.39
1118.59 -1786.71 -1228.91
1118.66 -1788.62 -1229.68
1118.93 -1781.16 -1228.77
1119.11 -1779.4 -1229.5
1119.13 -1777.61 -1230.05
1118.06 -1771.23 -1231.2
1118.5 -1773.2 -1231.34
1118.74 -1775 -1231.38
1118.82 -1776.49 -1231.4
1114.15 -1762.53 -1235.67
1112.54 -1759.93 -1237.4
1113.24 -1761.88 -1237.35
1111.43 -1758.98 -1239.02
1117.23 -1768.28 -1231.6
1115.79 -1765.66 -1233.62
1115.84 -1767.25 -1234.64
1116.66 -1768.35 -1233.28
1115.02 -1765.5 -1235.57
1114.1 -1764.06 -1236.84
1117.5 -1770.19 -1232.22
1118.82 -1793.5 -1228.14
1118.79 -1792.17 -1229.35
1118.72 -1790.69 -1230.53
1118.69 -1783.14 -1229.34
1118.53 -1785.15 -1230.12
1118.49 -1787.05 -1230.64
1118.57 -1789.1 -1231.46
1118.75 -1781.55 -1230.47
1118.92 -1779.72 -1230.67
1118.78 -1778.46 -1231.61
1117.8 -1772.31 -1232.88
1118.24 -1774.3 -1232.84
1118.42 -1775.82 -1232.76
1118.46 -1777.77 -1232.82
1112.27 -1761.09 -1239
1113.13 -1763.17 -1238.7
1116.18 -1769.21 -1235.24
1115.28 -1767.76 -1236.48
1117 -1770.36 -1233.86
1114.45 -1766.22 -1237.44
1113.67 -1765.09 -1238.64
1118.57 -1798.31 -1229.76
1118.69 -1796.36 -1229.54
1118.74 -1794.26 -1229.69
1118.69 -1792.85 -1231.23
1118.55 -1791.17 -1232.39
1118.52 -1783.57 -1231.03
1118.31 -1785.19 -1231.91
1118.38 -1787.39 -1232.31
1118.34 -1789.33 -1233.22
1118.4 -1782.43 -1232.19
1118.49 -1780.4 -1232.21
1117.17 -1772.1 -1234.51
1117.58 -1773.85 -1234.45
1117.88 -1775.51 -1234.33
1117.96 -1777.34 -1234.34
1118.08 -1779.55 -1233.88
1112.95 -1764.56 -1240.38
1115.47 -1769.74 -1237.25
1116.34 -1771.07 -1236
1114.57 -1767.92 -1238.46
1113.6 -1766.58 -1240.02
1118.48 -1797.22 -1231.5
1118.47 -1799.09 -1231.83
1118.6 -1795.27 -1231.27
1118.5 -1794.14 -1232.61
1118.34 -1792.73 -1233.74
1118.18 -1791.07 -1234.36
1118.06 -1785.71 -1233.53
1118.04 -1783.79 -1233.6
1118.02 -1787.41 -1234.18
1117.97 -1789.23 -1235.1
1118.04 -1781.62 -1233.89
1116.68 -1772.94 -1236.16
1117.05 -1774.9 -1236.12
1117.3 -1776.74 -1235.97
1117.48 -1778.87 -1235.67
1117.48 -1780.97 -1235.7
1115.68 -1771.87 -1237.98
1114.84 -1769.92 -1239.07
1114.05 -1768.56 -1240.28
1118.27 -1798.03 -1233.51
1118.32 -1796.15 -1233.19
1118.16 -1794.69 -1234.47
1117.92 -1792.98 -1235.78
1117.78 -1791.1 -1236.07
1117.63 -1785.21 -1235.3
1117.57 -1782.98 -1235.39
1117.62 -1787.38 -1236.05
1117.51 -1789.44 -1237.02
1116.15 -1774.01 -1237.85
1116.46 -1776.01 -1237.8
1116.72 -1778.01 -1237.49
1116.89 -1780.06 -1237.39
1117.02 -1782 -1237.17
1115.25 -1773.26 -1239.7
1114.78 -1771.43 -1240.02
1113.96 -1770.07 -1241.47
1117.97 -1796.92 -1235.28
1117.84 -1795.03 -1236.13
1117.16 -1783.92 -1236.88
1117.21 -1785.96 -1237.27
1115.56 -1775.14 -1239.56
1115.85 -1777.12 -1239.44
1116.17 -1779.03 -1239.15
1116.32 -1781.04 -1239.11
1116.5 -1782.93 -1238.95
1116.75 -1784.74 -1238.62
1115.43 -1778.18 -1240.96
1115.73 -1780.16 -1240.71
