1095.57 -1771.27 -1652.82
1095.51 -1766.46 -1652.49
1095.5 -1772.77 -1653.38
1095.33 -1774.21 -1653.99
1095.36 -1764.12 -1652.41
1094.71 -1776.8 -1654
1095.24 -1775.38 -1654.63
1095.93 -1770.35 -1654.09
1095.8 -1768.5 -1653.44
1095.86 -1771.68 -1654.67
1095.97 -1767 -1654.41
1095.81 -1765.03 -1654.01
1095.74 -1773.41 -1655.32
1095.54 -1774.69 -1655.89
1095.32 -1761.94 -1652.32
1095.47 -1759.9 -1652.38
1095.46 -1756.91 -1652.85
1094.45 -1751.6 -1654.51
1093.97 -1750.09 -1655.37
1094.79 -1753.14 -1653.76
1095.28 -1754.28 -1654.51
1095.35 -1755.36 -1653.57
1095.79 -1762.94 -1653.94
1094.3 -1779.02 -1656.54
1094.59 -1777.78 -1655.45
1095.25 -1776.11 -1656.04
1096.09 -1770.59 -1655.85
1096.09 -1768.84 -1655.08
1095.99 -1772.03 -1656.5
1096.02 -1765.7 -1655.22
1096.14 -1767.34 -1655.65
1096.06 -1763.92 -1655.33
1095.81 -1773.88 -1657
1095.58 -1775.34 -1657.47
1095.85 -1760.88 -1653.86
1095.8 -1758.73 -1653.88
1095.68 -1756.95 -1654.52
1094.97 -1752.89 -1655.48
1094.59 -1751.22 -1656.39
1093.99 -1749.55 -1657.38
1093.16 -1747.72 -1657.76
1092.21 -1745.78 -1658
1095.61 -1755.68 -1655.31
1095.48 -1754.46 -1656.21
1096.07 -1762.01 -1655.29
1093.86 -1780.15 -1657.75
1094.64 -1778.5 -1658.43
1094.99 -1777.36 -1657.21
1096.18 -1770.84 -1657.66
1096.24 -1769.08 -1656.64
1095.99 -1772.63 -1658.04
1096.09 -1765.3 -1656.49
1096.21 -1767.33 -1657.35
1096.15 -1763.17 -1656.63
1095.75 -1774.16 -1658.56
1095.18 -1776.81 -1658.73
1095.54 -1775.45 -1659.06
1096.06 -1760.09 -1655.18
1095.97 -1758.37 -1655.32
1095.79 -1757.18 -1656.05
1095.01 -1752.68 -1657.13
1094.56 -1751.06 -1657.99
1093.66 -1748.36 -1659.18
1094.14 -1749.73 -1659.06
1092.89 -1746.69 -1659.46
1092.06 -1744.94 -1659.83
1095.73 -1755.79 -1656.92
1095.35 -1754.14 -1657.89
1096.16 -1760.95 -1656.45
1093.27 -1781.26 -1659.03
1094.14 -1779.56 -1659.57
1094.72 -1777.83 -1660.21
1096.1 -1771.13 -1658.81
1096.2 -1769.19 -1658.31
1095.79 -1772.92 -1659.67
1096.12 -1765.83 -1657.87
1096.1 -1764.05 -1657.9
1096.13 -1767.54 -1658.98
1096.13 -1761.8 -1657.57
1095.52 -1774.61 -1660.41
1095.2 -1776.32 -1660.32
1096.06 -1758.96 -1656.36
1095.87 -1757.47 -1657.54
1094.9 -1752.42 -1658.75
1094.49 -1750.88 -1659.72
1094.06 -1749.27 -1660.86
1093.44 -1747.59 -1660.81
1092.62 -1745.86 -1661.23
1091.73 -1744.1 -1661.64
1090.65 -1742.28 -1661.83
1095.63 -1755.56 -1658.38
1095.12 -1753.65 -1659.55
1096.05 -1759.65 -1657.43
1092.59 -1782.39 -1660.39
1093.57 -1780.64 -1660.95
1094.25 -1779 -1661.26
1094.7 -1777.45 -1661.73
1095.96 -1771.26 -1660.32
1096.07 -1769.36 -1659.62
1095.59 -1772.96 -1661.27
1096.04 -1765.77 -1659.44
1096.01 -1762.57 -1658.85
1095.84 -1764.09 -1659.86
1095.98 -1767.46 -1660.44
1095.97 -1760.52 -1658.63
1095.17 -1775.84 -1661.53
1095.26 -1774.48 -1662.12
1095.59 -1756.62 -1659.04
1095.81 -1758.51 -1658.75
1094.75 -1751.89 -1660.19
1094.34 -1750.61 -1661.54
1093.9 -1749.29 -1662.86
1093.66 -1748.18 -1662.28
1092.96 -1746.67 -1662.67
1092.17 -1745.02 -1663.06
1091.36 -1743.34 -1663.47
1090.41 -1741.6 -1663.6
1089.59 -1739.86 -1663.81
1095.31 -1754.93 -1659.88
1094.89 -1753.57 -1661.31
1089.15 -1738.78 -1665.34
1090.99 -1785.17 -1662
1091.89 -1783.45 -1661.87
1092.82 -1781.75 -1662.13
1093.69 -1779.89 -1662.59
1094.06 -1778.5 -1663.31
1094.69 -1776.54 -1663.05
1095.65 -1771.18 -1661.92
1095.85 -1769.35 -1661.17
1095.3 -1772.9 -1662.81
1095.82 -1765.69 -1660.83
1095.76 -1761.77 -1660.27
1095.53 -1763.27 -1661.48
1095.69 -1767.53 -1662
1095.56 -1759.63 -1660
1094.79 -1774.87 -1663.66
1095.38 -1757.57 -1660.46
1095.14 -1755.59 -1660.99
1094.56 -1751.84 -1661.74
1094.16 -1750.62 -1663.02
1093.72 -1749.03 -1664.1
1093.28 -1747.64 -1664.03
1092.6 -1745.95 -1664.38
1091.87 -1744.2 -1664.72
1090.94 -1742.46 -1665.11
1090.1 -1740.67 -1665.37
1094.71 -1754.63 -1662.74
1094.4 -1752.55 -1663.27
1088.65 -1737.7 -1666.96
1089.68 -1739.61 -1666.96
1091.29 -1784.22 -1663.68
1090.63 -1785.48 -1664.62
1092.14 -1782.56 -1663.87
1092.99 -1781.01 -1663.59
1093.22 -1779.97 -1664.7
1094.03 -1777.76 -1664.48
1093.29 -1779.04 -1665.73
1094.26 -1776.6 -1664.65
1095.21 -1771.21 -1663.64
1095.48 -1769.31 -1662.85
1094.86 -1773.04 -1664.41
1095.57 -1766.15 -1662.72
1095.33 -1764.35 -1662.8
1095.34 -1760.86 -1661.69
1095.06 -1762.2 -1663.22
1095.27 -1767.7 -1664.02
1095.09 -1758.81 -1661.89
1094.39 -1774.74 -1665.34
1094.96 -1756.75 -1662.34
1093.86 -1750.6 -1664.57
1093.38 -1749.34 -1665.92
1093.18 -1748.01 -1665.4
1092.64 -1746.5 -1665.85
1092.08 -1744.91 -1665.96
1091.32 -1743.23 -1666.41
1090.49 -1741.46 -1666.83
1094.46 -1755.92 -1664.12
1094.27 -1753.92 -1664.54
1093.92 -1752.08 -1665.02
1089.09 -1738.48 -1668.6
1088.23 -1736.59 -1668.78
1090.01 -1740.38 -1668.26
1091.51 -1783.4 -1665.5
1090.23 -1786.22 -1666.41
1090.93 -1784.43 -1666.92
1092.41 -1781.5 -1665.54
1092.51 -1780.57 -1667.12
1093.54 -1777.78 -1666.17
1092.84 -1779.02 -1667.61
1093.71 -1776.16 -1666.53
1094.75 -1771.24 -1665.21
1095.09 -1769.56 -1664.41
1094.4 -1772.93 -1665.93
1095.05 -1765.62 -1664.41
1094.79 -1763.61 -1664.64
1094.75 -1760.07 -1663.49
1094.48 -1761.41 -1665
1094.67 -1769.1 -1666.02
1094.69 -1766.92 -1665.86
1094.68 -1757.98 -1663.87
1093.79 -1774.34 -1667.16
1093.42 -1750.9 -1666.65
1092.85 -1748.94 -1667.56
1092.7 -1747.62 -1667.03
1092.08 -1745.79 -1667.68
1091.62 -1744.22 -1667.6
1090.89 -1742.44 -1668.23
1094.15 -1757.09 -1665.64
1093.94 -1755.02 -1665.89
1093.67 -1753.08 -1666.37
1089.5 -1739.32 -1669.95
1088.66 -1737.28 -1670.25
1087.77 -1735.44 -1670.78
1090.21 -1741.07 -1669.46
1091.74 -1782.46 -1667.25
1090.39 -1785.56 -1668.58
1091.03 -1783.78 -1668.84
1091.71 -1781.97 -1668.93
1092.15 -1780.39 -1669.09
1093.05 -1777.6 -1667.97
1092.38 -1778.86 -1669.44
1093.17 -1775.74 -1668.35
1094.27 -1770.95 -1666.85
1093.8 -1772.61 -1667.62
1094.42 -1764.93 -1666.19
1094.27 -1762.8 -1666.37
1094.29 -1759.27 -1665.4
1093.89 -1760.55 -1666.94
1094.19 -1767.87 -1667.27
1093.87 -1769.69 -1668.12
1093.93 -1766.06 -1667.88
1093.18 -1773.68 -1669
1093.14 -1752.18 -1668.02
1092.78 -1750.18 -1668.48
1092.32 -1748.4 -1669.22
1092.26 -1747.03 -1668.56
1091.33 -1743.9 -1669.01
1091.6 -1745.29 -1669.4
1090.62 -1742.36 -1670.1
1093.46 -1756.24 -1667.47
1093.64 -1758.32 -1667.15
1093.3 -1754.28 -1667.83
1089 -1738.32 -1671.39
1089.88 -1740.54 -1671.14
1088.33 -1736.68 -1672.11
1087.7 -1735.29 -1672.8
1086.83 -1733.83 -1672.33
1085.92 -1732.08 -1672.07
1090.32 -1785.4 -1670.31
1090.95 -1783.53 -1670.45
1091.41 -1781.89 -1670.58
1091.7 -1780.36 -1670.74
1092.54 -1777.21 -1669.75
1091.85 -1778.7 -1671.09
1092.59 -1775.26 -1670.08
1093.37 -1771.55 -1669.11
1093.83 -1764.25 -1667.93
1093.7 -1762.43 -1668.13
1093.34 -1760.79 -1668.81
1093.19 -1759.01 -1668.86
1093.55 -1767.94 -1669.1
1093.12 -1769.57 -1670.09
1093.29 -1764.51 -1669.63
1093.31 -1766.33 -1669.92
1092.55 -1773.14 -1670.79
1092.71 -1753.35 -1669.38
1092.45 -1751.37 -1669.71
1092.03 -1749.64 -1670.42
1091.63 -1748 -1670.87
1091.69 -1746.69 -1670.26
1090.94 -1743.83 -1670.78
1090.99 -1745.35 -1671.46
1090.22 -1742.17 -1671.81
1092.84 -1755.23 -1669.47
1092.99 -1757.13 -1669.14
1089.22 -1739.24 -1672.42
1088.53 -1737.63 -1673.33
1089.6 -1740.68 -1673
1087.96 -1736.1 -1674.35
1087.06 -1734.16 -1674.15
1086.2 -1732.48 -1673.96
1085.22 -1730.79 -1673.74
1084.63 -1729.48 -1675.25
1089.8 -1786.78 -1671.87
1090.31 -1785.05 -1671.91
1090.73 -1783.42 -1671.95
1091.03 -1781.82 -1672.1
1091.18 -1780.02 -1672.51
1091.9 -1776.82 -1671.5
1091.23 -1778.06 -1672.95
1091.95 -1775 -1671.77
1092.66 -1771.17 -1670.93
1093.04 -1762.57 -1670.01
1092.76 -1760.46 -1670.56
1092.55 -1758.49 -1670.76
1092.81 -1767.95 -1671.15
1092.25 -1769.55 -1672.31
1092.58 -1764 -1671.46
1092.54 -1765.87 -1671.69
1091.68 -1773.62 -1672.81
1092 -1771.72 -1672.57
1092.07 -1752.6 -1670.96
1092.02 -1754.52 -1671.46
1091.67 -1750.75 -1671.91
1091.26 -1748.79 -1672.32
1091.08 -1746.77 -1672.17
1090.49 -1743.7 -1672.49
1090.58 -1745.29 -1673.24
1089.82 -1742.26 -1673.74
1092.32 -1756.51 -1671.11
1088.89 -1739.03 -1674.17
1088.25 -1737.45 -1675.18
1089.17 -1740.56 -1674.89
1087.22 -1734.71 -1675.6
1087.65 -1736.05 -1676.24
1086.42 -1732.83 -1675.56
1085.51 -1731.24 -1675.69
1084.18 -1728.1 -1676.54
1084.88 -1729.94 -1677.15
1089.34 -1788.1 -1673.59
1089.86 -1786.22 -1673.62
1090.19 -1784.61 -1673.62
1090.47 -1783.08 -1673.7
1090.63 -1781.44 -1673.81
1090.66 -1779.42 -1674.27
1091.24 -1776.06 -1673.34
1090.64 -1777.27 -1674.77
1092.37 -1761.9 -1671.88
1092.05 -1759.9 -1672.42
1091.82 -1757.94 -1672.69
1092.06 -1767.32 -1672.91
1091.49 -1770.6 -1674.12
1091.59 -1768.66 -1674.15
1091.82 -1765.16 -1673.59
1091.96 -1763.33 -1673.18
1090.91 -1774.55 -1674.44
1091.12 -1772.54 -1674.47
1091.43 -1752.87 -1672.69
1091.04 -1754.15 -1673.95
1091.5 -1755.91 -1673.07
1090.96 -1751.35 -1673.71
1090.76 -1749.48 -1673.86
1090.56 -1747.3 -1673.94
1089.88 -1743.76 -1674.39
1089.89 -1745.37 -1675.06
1089.33 -1742.19 -1675.67
1088.52 -1738.89 -1675.96
1087.88 -1737.49 -1677.14
1088.66 -1740.47 -1676.79
1086.96 -1734.59 -1677.42
1086.54 -1733.3 -1676.8
1087.25 -1735.91 -1678.2
1085.84 -1731.55 -1677.31
1083.67 -1726.81 -1677.83
1084.42 -1728.37 -1678.47
1084.94 -1730.02 -1678.96
1088.39 -1791.07 -1675.53
1088.9 -1789.41 -1675.24
1089.41 -1787.55 -1675.12
1089.74 -1785.69 -1675.28
1089.87 -1784.23 -1675.63
1090.11 -1782.66 -1675.44
1090.15 -1780.85 -1675.59
1090.05 -1778.66 -1676.09
1090.33 -1775.6 -1675.84
1089.81 -1776.88 -1677.02
1091.57 -1761.4 -1673.85
1091.31 -1759.49 -1674.35
1091.13 -1757.54 -1674.57
1091.36 -1766.7 -1674.8
1090.87 -1769.83 -1675.83
1090.57 -1771.71 -1676.17
1090.85 -1768.13 -1676.09
1091.3 -1763.12 -1674.98
1091.13 -1764.93 -1675.66
1090.3 -1773.57 -1676.29
1090.47 -1752.59 -1675.12
1090.68 -1755.63 -1675.18
1090.2 -1753.99 -1676.31
1090.2 -1750.69 -1675.53
1090.09 -1748.65 -1675.52
1089.83 -1746.81 -1675.85
1089.34 -1743.86 -1676.28
1089.17 -1745.54 -1677.4
1088.73 -1742.12 -1677.57
1088 -1739.06 -1678.01
1087.38 -1737.53 -1679.18
1088.09 -1740.78 -1678.89
1086.28 -1733.02 -1678.37
1086.49 -1734.38 -1679.39
1086.68 -1735.93 -1680.3
1085.67 -1731.45 -1679.05
1083.71 -1726.65 -1679.68
1082.85 -1724.8 -1679.75
1084.48 -1728.63 -1680.29
1085.13 -1730.73 -1680.83
1082.45 -1723.56 -1681.52
1081.79 -1722.41 -1683.1
1088.14 -1791.73 -1677.72
1088.48 -1790.55 -1677.06
1088.92 -1788.81 -1676.78
1089.3 -1787.04 -1676.53
1089.34 -1785.72 -1677.39
1089.5 -1783.74 -1677.35
1089.6 -1781.88 -1677.21
1089.6 -1779.93 -1677.33
1089.33 -1778.24 -1678.36
1089.68 -1774.72 -1677.7
1089.21 -1776.23 -1678.92
1090.86 -1761.15 -1675.86
1090.63 -1759.11 -1676.22
1090.36 -1757.29 -1676.38
1090.64 -1766.57 -1676.85
1090.17 -1770.45 -1677.53
1090.18 -1768.51 -1677.96
1089.71 -1772.52 -1678.14
1090.66 -1763.25 -1676.81
1090.28 -1764.97 -1677.75
1089.72 -1751.98 -1677.17
1089.96 -1755.73 -1677.3
1089.52 -1753.84 -1678.25
1089.62 -1749.66 -1677.14
1089.37 -1747.63 -1677.44
1088.75 -1743.75 -1678.08
1088.49 -1744.71 -1679.55
1088.15 -1742.56 -1679.62
1087.49 -1739.21 -1680.06
1086.83 -1737.63 -1681.27
1087.63 -1740.8 -1680.9
1085.84 -1732.71 -1680.19
1085.95 -1734.33 -1681.42
1086.22 -1735.94 -1682.4
1083.84 -1727.21 -1681.57
1083.09 -1725.39 -1681.37
1084.43 -1729.1 -1682.05
1085.39 -1732.61 -1681.94
1084.89 -1730.74 -1682.74
1080.53 -1719.68 -1685.09
1079.93 -1718.61 -1686.97
1081.32 -1721.4 -1684.93
1082.5 -1724.08 -1683
1082.01 -1723.05 -1684.73
1087.67 -1792.86 -1679.55
1087.02 -1794.63 -1680.14
1088.11 -1791.41 -1679.01
1088.51 -1789.71 -1678.62
1086.28 -1796.55 -1680.45
1088.93 -1787.78 -1678.3
1088.77 -1786.72 -1679.45
1089 -1784.93 -1679.04
1089.08 -1782.8 -1679.07
1089.16 -1780.81 -1678.83
1088.88 -1779.36 -1679.92
1088.72 -1777.53 -1680.54
1089.21 -1774.07 -1679.31
1088.77 -1775.64 -1680.73
1090.27 -1761.59 -1677.7
1090.04 -1759.81 -1677.87
1089.88 -1757.82 -1678.24
1090 -1766.7 -1678.76
1089.62 -1770.42 -1679.11
1089.56 -1768.52 -1679.75
1089.19 -1772.1 -1679.97
1090.02 -1763.21 -1678.75
1089.67 -1764.83 -1679.71
1089.4 -1755.76 -1679.06
1086.92 -1739.4 -1682.14
1086.32 -1737.73 -1683.29
1085.5 -1734.25 -1683.46
1085.81 -1736.2 -1684.39
1083.8 -1727.72 -1683.44
1083.18 -1725.93 -1683.05
1084.21 -1729.32 -1684.09
1085.02 -1732.32 -1683.56
1084.44 -1730.83 -1684.8
1080.77 -1720.44 -1686.72
1078.93 -1716.73 -1687.74
1080.22 -1719.49 -1688.51
1079.38 -1717.76 -1689.02
1081.55 -1722.29 -1686.49
1082.62 -1724.71 -1684.48
1082.22 -1724.27 -1686.27
1087.15 -1793.78 -1681.65
1087.67 -1792.14 -1681.13
1086.49 -1795.65 -1682.06
1088.07 -1790.51 -1680.61
1088.42 -1788.6 -1680.17
1085.72 -1797.67 -1682.21
1088.16 -1787.54 -1681.62
1088.42 -1785.87 -1681.02
1088.58 -1783.78 -1680.72
1088.63 -1781.34 -1680.8
1088.38 -1779.28 -1681.84
1089.64 -1761.3 -1679.52
1089.47 -1759.32 -1679.75
1089.46 -1766.7 -1680.63
1089.2 -1770.2 -1680.88
1089.13 -1768.38 -1681.71
1089.43 -1762.93 -1680.75
1085.13 -1734.65 -1685.51
1084.77 -1732.78 -1685.25
1085.45 -1736.5 -1686.36
1083.22 -1726.37 -1684.69
1083.59 -1727.96 -1685.49
1083.82 -1729.47 -1686.31
1084.14 -1731.32 -1686.73
1080.96 -1721.43 -1688.29
1080.42 -1720.73 -1690.19
1079.71 -1718.84 -1690.52
1078.9 -1716.99 -1690.99
1081.68 -1723.33 -1688
1082.87 -1726.27 -1686.45
1082.32 -1725.46 -1687.99
1087.09 -1792.95 -1683.22
1086.56 -1794.87 -1683.6
1087.52 -1791.19 -1682.72
1085.97 -1796.69 -1683.72
1087.89 -1789.46 -1682.14
1085.24 -1798.77 -1683.93
1087.59 -1788.2 -1683.64
1087.81 -1786.43 -1683.13
1088.03 -1784.54 -1682.7
1088.19 -1782.62 -1682.24
1088.04 -1780.91 -1683.06
1089.1 -1760.82 -1681.29
1084.53 -1733.28 -1687.13
1083.15 -1727.89 -1687.67
1083.53 -1729.88 -1688.29
1083.92 -1731.97 -1688.67
1081.07 -1722.56 -1689.89
1080.53 -1721.89 -1691.81
1079.88 -1720.03 -1692.11
1079.18 -1718.16 -1692.47
1078.4 -1716.21 -1692.88
1081.72 -1724.48 -1689.52
1082.51 -1726.82 -1689.33
1086.51 -1793.91 -1685.16
1086.91 -1791.92 -1684.73
1086 -1795.96 -1685.41
1087.33 -1790.13 -1684.15
1085.48 -1797.77 -1685.41
1084.44 -1800.8 -1683.96
1084.76 -1799.8 -1685.73
1087.22 -1786.88 -1685.14
1087.02 -1788.81 -1685.69
1087.45 -1784.78 -1684.73
1087.68 -1782.81 -1684.18
1082.94 -1728.64 -1689.91
1083.37 -1730.72 -1690.23
1081.2 -1723.86 -1691.38
1080.71 -1723.39 -1693.19
1079.93 -1721.33 -1693.78
1079.36 -1719.46 -1694.05
1078.64 -1717.49 -1694.29
1081.87 -1725.76 -1690.85
1082.17 -1727.47 -1691.67
1085.96 -1794.89 -1686.99
1086.38 -1792.81 -1686.68
1086.76 -1790.77 -1686.17
1085.48 -1796.91 -1687.34
1085.01 -1798.8 -1687.09
1084.12 -1801.58 -1686.03
1084.33 -1800.67 -1687.99
1086.65 -1787.26 -1687.25
1086.94 -1785.39 -1686.6
1086.49 -1789.35 -1687.69
1081.42 -1725.57 -1692.76
1080.12 -1722.83 -1695.01
1079.37 -1720.72 -1695.97
1078.83 -1718.8 -1695.87
1085.88 -1793.53 -1688.61
1085.53 -1795.46 -1689.01
1086.23 -1791.43 -1688.14
1085.11 -1797.25 -1689.35
1084.75 -1798.95 -1688.88
1083.65 -1802.78 -1687.8
1083.75 -1802.13 -1689.74
1084.24 -1800.29 -1690.29
1086.19 -1787.79 -1689.24
1086 -1789.95 -1689.64
1083.08 -1804.27 -1689.18
1085.31 -1794.25 -1690.62
1085.7 -1792.07 -1690.05
1084.99 -1796.34 -1691.14
1084.59 -1798.54 -1690.82
1083.2 -1803.61 -1691.26
1083.67 -1801.7 -1691.86
1084.04 -1800.01 -1692.3
1085.54 -1790.59 -1691.53
1082.56 -1805.6 -1690.85
1084.83 -1794.7 -1692.72
1085.23 -1792.61 -1691.92
1084.35 -1798.32 -1692.68
1084.58 -1796.58 -1693.1
1082.65 -1804.89 -1692.93
1083.06 -1803.18 -1693.42
1083.44 -1801.51 -1693.9
1083.76 -1799.78 -1694.35
1084.22 -1796.03 -1694.91
1084.85 -1792.8 -1693.74
1083.98 -1797.99 -1694.76
1081.99 -1806.39 -1694.41
1082.44 -1804.7 -1695.1
1082.83 -1803.02 -1695.49
1083.18 -1801.21 -1696.03
1083.43 -1799.25 -1696.48
1081.34 -1807.97 -1695.38
1083.95 -1795.22 -1696.83
1083.68 -1797.2 -1696.72
1081.68 -1806.53 -1696.56
1082.17 -1804.57 -1697.07
1082.62 -1802.66 -1697.56
1082.97 -1800.52 -1698.21
1083.25 -1798.29 -1698.45
1080.91 -1808.08 -1698.06
1081.44 -1806.15 -1698.56
1081.89 -1804.31 -1699.09
1082.31 -1802.43 -1699.59
1082.55 -1800.66 -1700.24
