964.909 -1904.56 -1526.71
966.215 -1904.79 -1527.76
972.57 -1904.42 -1533.74
974.066 -1904.24 -1535.18
975.342 -1904.19 -1536.8
977.18 -1904.22 -1537.97
970.814 -1904.56 -1533.06
978.957 -1904.23 -1539.15
980.959 -1904.13 -1542.15
979.189 -1904.2 -1541.25
983.306 -1903.93 -1544.88
961.574 -1903.99 -1525.91
960.628 -1903.96 -1524.03
963.45 -1904.28 -1525.31
967.602 -1904.87 -1529.1
963.039 -1904.33 -1527.29
964.517 -1904.61 -1528.56
966.018 -1904.78 -1529.63
969.096 -1904.71 -1532.06
967.561 -1904.82 -1530.84
972.022 -1904.36 -1535.44
973.029 -1904.16 -1536.98
973.986 -1904.09 -1538.4
975.633 -1904.14 -1539.13
977.378 -1904.25 -1540.18
970.386 -1904.45 -1535.03
968.912 -1904.58 -1534.05
979.319 -1904.17 -1543.42
981.3 -1904.09 -1544.17
977.484 -1904.19 -1542.25
981.958 -1903.99 -1546.2
983.757 -1903.81 -1546.85
985.199 -1903.42 -1550.39
987.117 -1903.02 -1550.98
984.165 -1903.65 -1548.82
957.539 -1903.61 -1522.52
958.673 -1903.79 -1524.05
959.622 -1903.97 -1525.69
960.055 -1904.13 -1527.42
961.347 -1904.22 -1528.25
962.861 -1904.33 -1529.33
964.419 -1904.63 -1530.4
965.964 -1904.7 -1531.5
967.458 -1904.68 -1532.79
970.959 -1904.24 -1537.09
971.98 -1904.12 -1538.87
973.713 -1904.09 -1540.21
975.61 -1904.17 -1541.19
968.977 -1904.35 -1536.31
967.408 -1904.44 -1534.78
978.556 -1904.1 -1545.21
977.155 -1904.15 -1544.15
980.201 -1904.08 -1545.65
975.507 -1904.18 -1543.17
980.668 -1903.97 -1547.73
982.401 -1903.81 -1548.28
983.093 -1903.64 -1550.33
983.836 -1903.49 -1552.16
985.724 -1903.17 -1552.51
987.76 -1902.77 -1553.02
988.779 -1902.5 -1554.83
989.744 -1902.28 -1556.49
990.416 -1902.14 -1558.15
992.08 -1901.7 -1558.97
997.398 -1900.47 -1563.1
955.436 -1903.14 -1522.53
951.371 -1902.65 -1521.84
953.292 -1902.88 -1522.41
956.644 -1903.47 -1524.29
957.813 -1903.84 -1525.92
958.351 -1903.9 -1527.66
959.172 -1904.18 -1529.29
960.995 -1904.35 -1529.96
962.586 -1904.28 -1531.1
964.148 -1904.38 -1532.21
965.783 -1904.41 -1533.45
969.906 -1904.14 -1538.39
970.392 -1904.09 -1540.11
971.946 -1904.05 -1541.08
973.755 -1904.11 -1542.21
967.085 -1904.16 -1536.73
968.335 -1904.09 -1538.31
965.513 -1904.13 -1535.41
977.068 -1904.03 -1546.38
978.888 -1904.01 -1547.21
975.528 -1904.08 -1545.24
973.75 -1904.1 -1544.19
979.369 -1903.89 -1549.2
981.268 -1903.87 -1549.78
981.964 -1903.76 -1551.8
982.585 -1903.65 -1553.76
984.415 -1903.33 -1554.18
986.56 -1902.91 -1554.49
987.58 -1902.69 -1556.31
993.678 -1901.34 -1560.28
995.496 -1900.91 -1561.63
988.492 -1902.58 -1558.24
990.417 -1902.21 -1560.21
991.835 -1901.85 -1561.16
998.243 -1900.38 -1564.94
995.425 -1901.08 -1563.66
996.603 -1900.89 -1565.39
949.394 -1902.31 -1521.1
954.619 -1903.17 -1524.25
949.844 -1902.7 -1523.03
951.264 -1902.94 -1523.79
952.857 -1903.03 -1524.29
955.579 -1903.4 -1526.03
956.403 -1903.56 -1527.73
957.371 -1903.81 -1529.47
957.948 -1904.19 -1531.14
959.555 -1904.18 -1530.98
960.861 -1904.27 -1531.9
962.276 -1904.13 -1532.99
963.877 -1904.15 -1534.15
968.656 -1903.97 -1540.32
970.084 -1904 -1542.07
971.899 -1904.03 -1543.09
965.135 -1903.84 -1537.4
966.672 -1903.89 -1538.65
963.581 -1903.83 -1536.14
975.579 -1903.93 -1547.55
977.439 -1903.89 -1548.44
974.008 -1904 -1546.26
972.158 -1903.96 -1545.15
978.131 -1903.81 -1550.44
980.074 -1903.87 -1551.13
980.818 -1903.8 -1553.09
981.476 -1903.69 -1555.04
983.327 -1903.45 -1555.83
985.265 -1903.04 -1555.89
986.62 -1902.85 -1557.79
993.552 -1901.54 -1562.29
988.816 -1902.55 -1560.22
987.144 -1902.8 -1559.78
989.963 -1902.35 -1562.06
991.787 -1902.02 -1563.02
998.29 -1900.51 -1566.95
1000.26 -1900.07 -1568.27
993.54 -1901.64 -1564.24
994.878 -1901.46 -1565.78
996.3 -1901.16 -1567.38
1003.56 -1899.43 -1573.44
947.68 -1901.97 -1521.43
948.321 -1902.45 -1523
953.532 -1903.13 -1526.05
949.486 -1902.93 -1524.84
951.45 -1903.1 -1525.68
954.332 -1903.3 -1527.78
955.264 -1903.52 -1529.51
956.231 -1903.74 -1531.2
957.2 -1904.1 -1532.82
958.89 -1903.94 -1532.49
960.229 -1903.88 -1533.68
961.943 -1903.78 -1534.84
966.764 -1903.73 -1540.47
968.275 -1903.8 -1542.33
970.244 -1903.88 -1544.13
963.176 -1903.48 -1538.21
964.811 -1903.6 -1539.39
961.709 -1903.5 -1536.88
974.108 -1903.78 -1548.6
976.144 -1903.79 -1549.66
972.535 -1903.78 -1547.3
970.633 -1903.73 -1546.22
976.85 -1903.67 -1551.7
978.996 -1903.81 -1552.26
979.745 -1903.73 -1554.32
980.251 -1903.57 -1556.23
982.053 -1903.46 -1556.97
983.658 -1903.24 -1558.06
984.739 -1903.13 -1557.42
985.52 -1902.95 -1559.14
987.976 -1902.59 -1561.69
986.223 -1902.79 -1561.11
988.977 -1902.36 -1563.38
990.679 -1902.23 -1563.98
992.253 -1901.96 -1564.87
997.907 -1900.74 -1568.76
999.211 -1900.42 -1570.03
1001.16 -1899.91 -1570.37
993.419 -1901.85 -1566.3
994.664 -1901.58 -1567.85
996.178 -1901.25 -1569.36
1001.69 -1899.9 -1572.58
1005.48 -1898.96 -1576.26
1003.7 -1899.49 -1575.56
1002 -1899.96 -1574.67
946.034 -1901.59 -1521.96
946.861 -1902.26 -1523.55
947.671 -1902.76 -1524.75
952.281 -1903.11 -1527.55
949.804 -1903.03 -1526.48
947.956 -1902.91 -1526.28
950.437 -1903.02 -1528.03
953.233 -1903.24 -1529.39
954.202 -1903.36 -1531.08
955.321 -1903.8 -1532.46
956.336 -1903.61 -1534.1
958.246 -1903.7 -1534.33
960.009 -1903.59 -1535.56
966.413 -1903.54 -1542.19
964.639 -1903.37 -1541.21
966.668 -1903.51 -1543.93
968.431 -1903.69 -1544.3
968.825 -1903.58 -1546.16
961.262 -1903.19 -1539.12
962.786 -1903.22 -1540.26
959.989 -1903.3 -1537.63
972.4 -1903.41 -1549.7
974.582 -1903.54 -1550.56
971.05 -1903.55 -1548.21
969.22 -1903.45 -1548.04
975.093 -1903.34 -1552.47
976.593 -1903.41 -1553.88
978.139 -1903.64 -1553.49
978.472 -1903.51 -1555.41
979.242 -1903.33 -1557.5
980.925 -1903.31 -1558.19
982.62 -1903.13 -1559.13
984.364 -1902.96 -1560.1
987.2 -1902.58 -1563.01
985.119 -1902.73 -1561.96
988.473 -1902.31 -1564.83
989.965 -1902.21 -1565.27
991.693 -1902.03 -1566.14
997.713 -1900.84 -1570.93
999.84 -1900.33 -1571.85
993.189 -1901.8 -1567.78
994.5 -1901.54 -1569.5
996.032 -1901.24 -1570.97
1000.28 -1900.27 -1573.86
1003.83 -1899.41 -1577.69
1005.66 -1898.92 -1578.39
1006.16 -1898.69 -1580.4
1007.98 -1898.11 -1580.97
1002.19 -1899.89 -1576.67
1000.54 -1900.15 -1575.68
944.265 -1901.15 -1522.4
945.186 -1901.87 -1523.9
945.97 -1902.48 -1525.27
946.297 -1902.73 -1526.47
951.354 -1903 -1529.58
948.428 -1902.91 -1527.94
946.617 -1902.76 -1527.78
949.303 -1902.85 -1529.63
952.196 -1903 -1531.19
953.261 -1903.05 -1532.56
954.605 -1903.36 -1533.82
956.492 -1903.36 -1535.65
954.501 -1903.18 -1535.34
958.212 -1903.41 -1536.25
964.728 -1903.22 -1543.15
962.821 -1903.05 -1542.2
965.19 -1903.17 -1545.14
967.011 -1903.44 -1545.86
967.392 -1903.32 -1547.76
959.525 -1902.99 -1539.81
960.825 -1902.85 -1541.32
958.466 -1903.15 -1538.17
971.012 -1903.05 -1551.55
970.097 -1903.27 -1549.86
972.974 -1903.21 -1551.64
967.964 -1903.14 -1549.66
973.45 -1903.03 -1553.46
974.781 -1903.06 -1554.73
976.394 -1903.18 -1555.79
977.672 -1903.2 -1556.98
979.578 -1903.04 -1559.5
977.784 -1902.94 -1558.82
981.358 -1902.93 -1560.26
983.211 -1902.83 -1561.22
986.824 -1902.36 -1565.04
985.884 -1902.53 -1563.51
983.755 -1902.53 -1563.29
988.35 -1902.1 -1566.56
989.883 -1902.07 -1566.75
991.605 -1901.86 -1567.72
997.172 -1900.84 -1572.75
998.647 -1900.7 -1572.74
993.041 -1901.76 -1569.33
994.128 -1901.42 -1571.05
995.481 -1901.13 -1572.29
1008.57 -1897.9 -1583
998.894 -1900.54 -1574.63
1002.44 -1899.73 -1578.81
1004.38 -1899.22 -1579.63
1005.11 -1898.92 -1581.62
1006.72 -1898.45 -1582.48
1000.76 -1900.03 -1577.53
998.957 -1900.31 -1576.36
942.484 -1900.66 -1522.62
943.371 -1901.37 -1524.14
943.993 -1901.98 -1525.55
944.425 -1902.34 -1526.75
944.673 -1902.5 -1527.87
950.254 -1902.8 -1531.31
947.252 -1902.7 -1529.27
945.24 -1902.51 -1529.21
948.16 -1902.56 -1531.01
951.247 -1902.68 -1533.13
952.949 -1902.9 -1534.34
954.862 -1902.78 -1537.02
956.751 -1902.95 -1537.51
952.696 -1902.75 -1536.41
963.207 -1902.9 -1544.2
961.297 -1902.67 -1543.31
963.692 -1902.84 -1546.2
965.594 -1903.13 -1547.21
966.025 -1903 -1549.21
957.507 -1902.73 -1539.54
958.476 -1902.57 -1541.27
959.368 -1902.37 -1542.83
968.845 -1903.01 -1551.44
969.788 -1902.82 -1553.31
971.653 -1902.84 -1553.5
966.676 -1902.81 -1551.18
972.775 -1902.76 -1555.42
974.255 -1902.84 -1556.7
975.908 -1902.89 -1557.76
977.971 -1902.63 -1560.7
979.852 -1902.63 -1561.43
975.99 -1902.65 -1559.6
981.792 -1902.57 -1562.24
985.01 -1902.24 -1565.01
986.398 -1902.06 -1566.7
983.108 -1902.09 -1565.47
987.94 -1901.73 -1568.26
989.711 -1901.85 -1568.36
991.421 -1901.69 -1569.29
995.953 -1900.89 -1573.94
997.653 -1900.63 -1574.59
992.775 -1901.48 -1571.12
993.97 -1901.14 -1572.95
1007.41 -1898.14 -1584.64
1009.24 -1897.6 -1585.03
1001.28 -1899.82 -1579.43
1003.23 -1899.33 -1580.82
1004.33 -1898.97 -1583
1005.87 -1898.55 -1583.89
999.397 -1900 -1578.47
997.784 -1900.24 -1577.64
996.991 -1900.52 -1575.78
940.702 -1900.15 -1522.66
941.55 -1900.86 -1524.25
942.139 -1901.55 -1525.75
942.521 -1901.94 -1527.05
942.898 -1902.17 -1528.25
943.261 -1902.3 -1529.35
949.094 -1902.44 -1532.79
946.036 -1902.42 -1530.66
943.968 -1902.21 -1530.73
946.967 -1902.24 -1532.43
949.74 -1902.35 -1534.61
951.526 -1902.62 -1535.19
953.512 -1902.32 -1538.27
955.617 -1902.58 -1538.91
950.545 -1902.3 -1536.57
951.426 -1902.14 -1538.06
961.832 -1902.5 -1545.35
960.038 -1902.22 -1544.72
964.081 -1902.76 -1548.19
962.273 -1902.46 -1547.41
964.452 -1902.65 -1550.03
956.42 -1902.22 -1540.84
957.154 -1901.95 -1542.64
958.246 -1901.84 -1544.28
967.841 -1902.69 -1553.05
968.95 -1902.52 -1555.05
970.906 -1902.63 -1555.38
964.922 -1902.47 -1551.69
965.936 -1902.41 -1553.2
972.159 -1902.59 -1557.47
974.032 -1902.63 -1558.63
976.287 -1902.3 -1561.57
974.379 -1902.34 -1560.62
984.463 -1901.83 -1566.95
985.932 -1901.59 -1568.44
987.315 -1901.27 -1570.05
989.396 -1901.49 -1569.96
991.082 -1901.41 -1570.88
994.903 -1900.79 -1575.01
992.272 -1901.18 -1572.61
993.094 -1900.83 -1574.35
1006.5 -1898.26 -1586.28
1008.17 -1897.82 -1586.7
1010.02 -1897.35 -1586.97
1011.02 -1897.01 -1588.7
1000.14 -1899.71 -1580.27
1001.67 -1899.52 -1581.16
1002.76 -1899.17 -1582.62
1003.43 -1898.79 -1584.58
1005.03 -1898.57 -1584.97
998.35 -1899.82 -1579.67
995.87 -1900.35 -1576.96
996.546 -1899.93 -1578.9
939.678 -1900.27 -1524.06
940.311 -1901.05 -1525.73
940.664 -1901.55 -1527.1
940.891 -1901.83 -1528.36
941.378 -1901.95 -1529.55
941.979 -1901.99 -1530.74
947.79 -1901.99 -1534.23
944.918 -1902.07 -1532.3
942.837 -1901.84 -1532.26
945.709 -1901.8 -1534.11
948.483 -1901.93 -1536.15
952.333 -1901.73 -1539.76
954.406 -1902.08 -1540.25
949.199 -1901.65 -1537.95
950.197 -1901.49 -1539.59
960.484 -1902.08 -1546.69
958.695 -1901.62 -1546.07
962.604 -1902.38 -1549.44
960.864 -1902 -1548.67
962.959 -1902.21 -1551.42
955.131 -1901.62 -1542.19
956.535 -1901.39 -1544.3
955.064 -1901.06 -1544.01
957.029 -1901.11 -1546
967.153 -1902.35 -1554.82
968.047 -1902.21 -1556.73
970.024 -1902.41 -1557.01
963.761 -1902.07 -1553.29
965.055 -1902.03 -1554.91
970.685 -1902.26 -1558.79
972.429 -1902.3 -1559.67
974.608 -1901.92 -1562.68
972.827 -1901.96 -1561.68
990.301 -1901.07 -1572.37
993.885 -1900.43 -1576.42
990.831 -1900.71 -1574.28
991.991 -1900.46 -1575.8
1004.98 -1898.34 -1586.8
1005.99 -1898.12 -1588.45
1007.52 -1897.88 -1588.45
1009.12 -1897.57 -1588.75
1010.05 -1897.18 -1590.46
998.987 -1899.4 -1581.67
1000.63 -1899.37 -1582.2
1001.63 -1899.04 -1583.7
1001.74 -1898.7 -1585.45
1003.3 -1898.48 -1586.65
997.072 -1899.51 -1580.94
994.539 -1900.02 -1578.34
995.071 -1899.5 -1580.3
935.533 -1898.57 -1523.34
936.459 -1899.17 -1523.65
937.754 -1899.77 -1524.16
938.594 -1900.52 -1525.43
938.78 -1901.06 -1526.96
939.194 -1901.38 -1528.2
939.31 -1901.58 -1529.45
940.144 -1901.67 -1530.75
940.707 -1901.63 -1532.16
946.596 -1901.5 -1535.85
943.738 -1901.61 -1534
941.609 -1901.45 -1533.78
944.65 -1901.27 -1535.98
947.009 -1901.28 -1537.7
951.097 -1901.14 -1541.29
953.169 -1901.35 -1541.63
948.02 -1901.05 -1539.5
948.987 -1901.16 -1541.32
959.094 -1901.66 -1547.99
957.368 -1901.07 -1547.52
961.068 -1901.86 -1550.61
959.41 -1901.56 -1550.03
961.388 -1901.73 -1552.5
953.552 -1900.94 -1543.55
955.24 -1900.66 -1545.79
953.731 -1900.36 -1545.55
955.568 -1900.48 -1547.34
966.288 -1901.94 -1556.47
966.279 -1901.62 -1558.37
968.491 -1902.01 -1558.36
962.006 -1901.64 -1554.08
963.253 -1901.7 -1555.45
964.54 -1901.61 -1556.99
969.3 -1901.86 -1560.03
970.846 -1901.89 -1561.05
973.165 -1901.49 -1563.94
971.543 -1901.52 -1562.95
1004.35 -1898.13 -1588.65
1005.07 -1897.92 -1590.43
1006.81 -1897.81 -1590.34
1008.3 -1897.55 -1590.69
997.711 -1899.06 -1583.07
999.816 -1898.98 -1583.9
999.963 -1898.54 -1586
1001.44 -1898.34 -1587.37
1002.77 -1898.23 -1588.68
933.655 -1897.34 -1523.01
934.267 -1898.19 -1523.8
934.989 -1899.13 -1524.93
936.039 -1899.65 -1525.16
937.163 -1900.4 -1526.05
937.342 -1900.82 -1527.52
937.886 -1901.13 -1528.71
938.467 -1901.31 -1530.91
937.433 -1901.04 -1530.02
938.829 -1901.29 -1532.23
939.586 -1901.2 -1533.87
945.025 -1900.94 -1537.92
942.636 -1901.2 -1535.63
940.561 -1901.09 -1535.34
943.127 -1900.79 -1537.6
945.896 -1900.74 -1539.6
951.769 -1900.76 -1543.09
949.71 -1900.58 -1542.85
946.92 -1900.57 -1541.23
947.761 -1900.43 -1542.88
957.713 -1901.1 -1549.3
955.883 -1900.46 -1548.66
959.7 -1901.41 -1552.06
957.967 -1901.14 -1551.24
960.001 -1901.32 -1554.07
952.292 -1900.3 -1545.07
953.932 -1900.03 -1547.29
952.449 -1899.82 -1547
954.081 -1899.85 -1548.74
964.114 -1901.23 -1558.82
965.38 -1901.12 -1560.32
967.325 -1901.51 -1560.05
961.315 -1901.33 -1555.84
962.584 -1901.29 -1557.39
968.574 -1901.38 -1561.69
969.812 -1901.27 -1563.01
971.279 -1901.01 -1564.93
1003.18 -1897.93 -1590.68
1006.2 -1897.65 -1592.08
1004.51 -1897.68 -1592.44
1007.74 -1897.37 -1592.78
996.183 -1898.65 -1584.48
998.144 -1898.63 -1585.06
999.709 -1898.15 -1588.23
1001.27 -1898.05 -1589.55
931.696 -1895.61 -1523.2
932.524 -1897.03 -1523.79
933.071 -1898.07 -1524.64
933.738 -1898.74 -1525.23
934.567 -1899.5 -1526.19
933.43 -1899.04 -1526.32
935.879 -1900.1 -1526.64
935.901 -1900.4 -1527.94
936.342 -1900.69 -1529.09
937.094 -1900.87 -1532.13
936.053 -1900.61 -1531.01
937.827 -1900.87 -1533.78
938.455 -1900.72 -1535.7
943.712 -1900.4 -1539.57
941.214 -1900.76 -1537.17
939.448 -1900.67 -1536.84
941.735 -1900.32 -1539.18
944.653 -1900.22 -1541.21
950.559 -1900.08 -1544.55
948.666 -1899.95 -1544.55
945.707 -1900.03 -1542.87
946.692 -1899.82 -1544.57
956.229 -1900.59 -1550.48
954.384 -1899.93 -1550.2
958.214 -1901.09 -1553.12
956.555 -1900.66 -1552.54
958.278 -1900.95 -1554.86
959.488 -1901.06 -1556.08
951.127 -1899.85 -1546.28
952.387 -1899.37 -1548.59
950.799 -1899.09 -1548.06
952.675 -1899.41 -1550.17
962.026 -1900.93 -1559.2
963.37 -1900.82 -1560.72
964.669 -1900.68 -1562.28
966.581 -1900.99 -1561.95
960.551 -1900.98 -1557.66
967.781 -1900.82 -1563.57
969.268 -1900.78 -1564.75
969.733 -1900.43 -1566.44
1001.33 -1897.83 -1591.42
1002.68 -1897.69 -1592.79
930.577 -1895.3 -1524.44
931.533 -1896.82 -1524.95
932.095 -1897.8 -1525.52
932.571 -1898.38 -1526.03
934.473 -1899.79 -1527.46
933.32 -1899.28 -1527.51
932.291 -1898.63 -1527.3
934.552 -1899.96 -1528.85
935.002 -1900.2 -1530.03
935.267 -1900.25 -1532.63
936.142 -1900.45 -1533.93
934.145 -1899.89 -1531.57
936.767 -1900.44 -1535.37
936.503 -1900.16 -1537.1
937.918 -1900.28 -1537.95
942.366 -1899.97 -1541.24
939.766 -1900.31 -1538.62
940.279 -1899.94 -1540.55
943.682 -1899.75 -1542.89
949.584 -1899.54 -1546.26
947.762 -1899.53 -1546.3
944.704 -1899.61 -1544.71
945.85 -1899.43 -1546.45
954.896 -1900.12 -1551.8
953.078 -1899.67 -1552.15
956.556 -1900.59 -1554.44
954.829 -1900.14 -1553.58
957.677 -1900.62 -1556.53
958.655 -1900.64 -1557.95
951.064 -1898.94 -1549.57
949.581 -1898.69 -1549.5
948.957 -1899.05 -1547.84
951.407 -1898.95 -1551.35
960.02 -1900.61 -1559.52
961.327 -1900.55 -1561.07
962.588 -1900.41 -1562.54
965.941 -1900.48 -1563.98
963.894 -1900.26 -1564.04
967.438 -1900.29 -1565.7
968.282 -1899.93 -1567.66
929.241 -1894.57 -1525.7
930.333 -1896.2 -1526.07
931.021 -1897.32 -1526.59
931.438 -1898.05 -1527.23
933.269 -1899.45 -1528.88
932.111 -1898.85 -1528.66
931.19 -1898.32 -1528.72
933.409 -1899.59 -1530.33
933.397 -1899.58 -1533.14
934.282 -1899.8 -1534.38
935.082 -1899.96 -1535.59
932.377 -1899.2 -1531.86
934.713 -1899.74 -1537.34
935.401 -1899.73 -1538.83
936.645 -1899.85 -1539.56
938.342 -1899.94 -1540
941.853 -1899.51 -1543.37
940.403 -1899.57 -1542.41
938.502 -1899.57 -1541.94
942.906 -1899.23 -1544.98
946.898 -1899.58 -1548.03
943.958 -1898.93 -1546.59
945.212 -1898.63 -1548.11
951.489 -1899.14 -1553.36
953.082 -1899.63 -1554.31
954.604 -1899.98 -1555.32
956.062 -1900.3 -1556.18
956.585 -1900.13 -1558.14
958.07 -1900.2 -1559.67
949.798 -1898.58 -1550.88
947.992 -1898.77 -1549.21
947.849 -1898.27 -1550.63
949.935 -1898.73 -1552.56
959.324 -1900.16 -1561.28
960.515 -1900.08 -1562.91
961.773 -1899.96 -1564.24
965.276 -1900.02 -1565.72
963.169 -1899.77 -1565.74
966.291 -1899.72 -1567.43
929.07 -1895.5 -1527.3
929.829 -1896.72 -1527.76
930.197 -1897.5 -1528.68
932.081 -1899.01 -1530.09
931.058 -1898.48 -1530.2
930.066 -1897.86 -1530.19
932.003 -1899.09 -1533.68
932.37 -1899.23 -1535.13
933.4 -1899.48 -1536.16
931.017 -1898.58 -1531.64
930.815 -1898.57 -1533.2
933.226 -1899.3 -1537.97
933.993 -1899.33 -1539.51
934.945 -1899.3 -1541.03
936.688 -1899.51 -1541.49
940.876 -1898.97 -1545.08
939.125 -1899.19 -1543.91
937.127 -1899.19 -1543.51
942.041 -1898.6 -1546.77
946.318 -1898.37 -1549.5
943.206 -1898.36 -1548.41
944.371 -1898.16 -1549.89
949.828 -1898.81 -1554.43
951.403 -1899.27 -1555.23
952.975 -1899.56 -1556.18
954.667 -1899.74 -1557.27
954.763 -1899.49 -1559.16
956.322 -1899.79 -1560.04
957.369 -1899.75 -1561.51
948.581 -1898.24 -1551.95
946.772 -1898.05 -1552.15
945.713 -1897.95 -1551.13
948.058 -1898.38 -1553.53
958.566 -1899.76 -1563
959.666 -1899.65 -1564.71
960.975 -1899.53 -1565.87
964.258 -1899.48 -1567.33
962.233 -1899.28 -1567.27
927.629 -1894.81 -1528.69
928.472 -1895.85 -1528.79
928.857 -1896.67 -1529.51
929.004 -1897.21 -1530.42
929.794 -1897.93 -1531.62
928.749 -1897.35 -1531.67
930.641 -1898.6 -1534.93
931.795 -1898.91 -1537.42
930.89 -1898.69 -1536.28
929.504 -1897.96 -1533.03
929.44 -1898.07 -1534.65
932.379 -1898.88 -1539.53
933.211 -1898.89 -1541.26
933.791 -1898.75 -1542.95
935.363 -1899.01 -1543.01
939.13 -1898.77 -1545.8
940.205 -1898.44 -1547.26
937.38 -1898.78 -1545.5
935.71 -1898.72 -1545
941.254 -1898.18 -1548.81
942.372 -1898.03 -1550.35
943.718 -1897.87 -1551.65
948.216 -1898.6 -1555.14
949.654 -1898.91 -1556.04
951.281 -1899.12 -1556.89
952.998 -1899.21 -1558.02
955.119 -1899.27 -1561.4
953.252 -1898.94 -1560.02
956.518 -1899.36 -1563.03
946.156 -1898.39 -1553.79
944.803 -1897.93 -1552.9
946.501 -1898.33 -1555.37
957.772 -1899.4 -1564.45
958.899 -1899.22 -1566.3
960.24 -1899.1 -1567.35
961.083 -1898.67 -1568.85
917.604 -1888.12 -1538.53
918.676 -1888.46 -1536.87
915.396 -1887.19 -1541.12
916.626 -1887.87 -1540.07
926.388 -1893.69 -1529.43
927.373 -1895.61 -1530.18
926.581 -1894.88 -1530.46
927.524 -1896.13 -1530.89
927.765 -1896.67 -1531.68
928.272 -1897.29 -1533.03
927.234 -1896.6 -1532.95
929.335 -1898.04 -1536.45
930.902 -1898.44 -1539.18
929.985 -1898.21 -1537.77
928.256 -1897.45 -1534.32
928.224 -1897.49 -1535.76
931.609 -1898.44 -1541.18
932.295 -1898.39 -1543.01
934.126 -1898.51 -1544.82
932.767 -1898.22 -1544.89
938.13 -1898.35 -1547.45
939.202 -1898.09 -1549.1
936.257 -1898.33 -1547.23
934.675 -1898.29 -1546.65
940.247 -1897.9 -1550.74
941.506 -1897.87 -1552.2
942.935 -1897.9 -1553.39
947.812 -1898.43 -1556.66
949.555 -1898.6 -1557.7
951.37 -1898.75 -1558.76
953.326 -1898.6 -1561.93
954.738 -1898.8 -1563.41
951.597 -1898.39 -1560.67
955.975 -1898.96 -1564.87
944.612 -1898.05 -1554.78
945.532 -1898.07 -1556.45
957.307 -1899.02 -1565.95
958.88 -1898.64 -1568.24
957.352 -1898.62 -1567.54
958.912 -1898 -1569.85
917.871 -1889.1 -1539.98
918.855 -1889.51 -1538.42
919.987 -1889.99 -1536.88
920.932 -1890.46 -1535.44
912.945 -1886.05 -1542.67
914.545 -1886.97 -1542.44
915.939 -1888.05 -1542.29
916.869 -1888.57 -1541.31
921.942 -1890.49 -1533.55
924.256 -1892.12 -1531.29
925.382 -1893.56 -1530.85
926.24 -1895.39 -1531.84
925.579 -1894.62 -1531.8
926.523 -1895.88 -1532.39
926.786 -1896.52 -1534.4
925.979 -1895.82 -1533.86
927.972 -1897.31 -1537.24
928.405 -1897.45 -1538.58
930.111 -1897.97 -1541.1
929.557 -1897.9 -1539.46
927.147 -1896.85 -1535.5
926.661 -1896.55 -1536.93
930.732 -1897.95 -1542.84
931.415 -1897.91 -1544.72
933.226 -1898.04 -1546.75
931.894 -1897.77 -1546.79
937.255 -1898.01 -1549.21
938.131 -1897.85 -1550.95
935.439 -1897.95 -1549
933.999 -1897.92 -1548.44
939.314 -1897.72 -1552.63
940.697 -1897.78 -1554.16
942.625 -1897.87 -1555.04
946.581 -1898 -1557.62
948.083 -1898.24 -1558.41
949.76 -1898.28 -1559.52
953.058 -1898.15 -1564.02
951.592 -1897.88 -1562.52
954.459 -1898.43 -1565.56
949.901 -1897.8 -1561.38
955.812 -1898.55 -1566.66
943.83 -1897.74 -1556.38
944.792 -1897.56 -1558.13
957.184 -1898.04 -1569.11
955.506 -1898.09 -1568.22
957.3 -1897.48 -1570.65
918.053 -1889.67 -1541.17
919.102 -1890.26 -1539.6
920.186 -1890.9 -1538.13
921.28 -1891.52 -1536.52
922.162 -1891.79 -1534.78
912.023 -1885.58 -1544.02
913.723 -1886.62 -1543.91
915.41 -1887.89 -1543.52
917.066 -1889.07 -1542.67
923.112 -1892.22 -1533.34
924.341 -1893.4 -1532.45
925.468 -1895.26 -1533.48
924.863 -1894.44 -1533.07
925.841 -1895.99 -1536.16
925.39 -1895.59 -1535.41
924.829 -1895 -1534.92
926.876 -1896.61 -1538.45
928.627 -1897.38 -1540.66
927.379 -1896.73 -1540.19
929.086 -1897.39 -1542.51
925.425 -1895.72 -1538.08
929.743 -1897.44 -1544.19
930.481 -1897.46 -1545.98
932.86 -1897.65 -1548.8
931.527 -1897.37 -1548.86
930.697 -1897.34 -1547.62
936.116 -1897.75 -1550.92
937.132 -1897.6 -1552.65
934.199 -1897.57 -1550.56
938.218 -1897.56 -1554.27
941.39 -1897.57 -1556.16
939.485 -1897.48 -1555.75
946.426 -1897.59 -1559.32
948.091 -1897.67 -1560.21
951.305 -1897.41 -1564.66
952.702 -1897.73 -1566.14
949.938 -1897.29 -1563.33
954.041 -1897.92 -1567.37
948.297 -1897.22 -1562.11
942.482 -1897.37 -1557.69
944.923 -1897.09 -1560.34
943.447 -1897.25 -1559.21
955.471 -1897.49 -1569.96
953.781 -1897.36 -1569.17
904.082 -1878.91 -1550.7
905.121 -1879.91 -1549.27
918.551 -1890.32 -1542.11
919.444 -1890.89 -1540.6
920.426 -1891.59 -1539.25
921.383 -1892.22 -1537.96
922.241 -1892.76 -1536.62
922.75 -1892.92 -1535.33
923.527 -1893.24 -1533.97
910.983 -1884.88 -1545.19
912.836 -1886.13 -1545.42
914.68 -1887.48 -1544.86
916.385 -1888.73 -1544.29
917.904 -1889.83 -1543.71
924.156 -1894.14 -1534.44
924.694 -1895.23 -1537.23
924.145 -1894.7 -1536.48
923.527 -1893.9 -1535.82
925.941 -1895.94 -1539.66
927.746 -1896.75 -1542.09
926.077 -1895.84 -1541.45
928.219 -1896.73 -1544.08
924.715 -1895.13 -1540.01
924.078 -1894.77 -1538.95
929.108 -1897.01 -1545.65
929.492 -1896.87 -1547.54
932.842 -1897.29 -1550.69
930.32 -1896.9 -1549.21
931.357 -1896.94 -1550.64
935.115 -1897.45 -1552.56
936.202 -1897.27 -1554.24
933.768 -1897.19 -1552.49
937.402 -1897.19 -1555.81
940.392 -1897.14 -1557.84
938.595 -1897.07 -1557.32
946.459 -1897.16 -1561.33
949.521 -1896.76 -1565.28
950.866 -1896.92 -1566.6
952.332 -1897.21 -1568.01
948.359 -1896.77 -1563.97
946.901 -1896.67 -1563.09
941.63 -1896.89 -1559.42
943.265 -1896.72 -1561.12
944.968 -1896.54 -1562.53
954.367 -1896.78 -1571.22
952.933 -1896.63 -1570.8
951.884 -1896.62 -1569.7
900.36 -1875.8 -1557.46
902.034 -1877.12 -1554.05
902.994 -1877.97 -1552.6
905.537 -1880.21 -1551.45
904.303 -1879.14 -1552.57
906.579 -1881.06 -1549.59
907.666 -1882.09 -1548.01
908.329 -1882.97 -1546.03
920.093 -1891.62 -1541.64
919.349 -1890.99 -1543.07
921.009 -1892.25 -1540.22
921.854 -1892.88 -1538.71
922.82 -1893.57 -1537.36
909.926 -1884.11 -1546.57
911.648 -1885.25 -1546.85
913.07 -1886.33 -1547.2
914.18 -1887.16 -1546.2
915.736 -1888.28 -1545.98
917.234 -1889.31 -1545.32
918.717 -1890.4 -1544.74
923.385 -1894.21 -1538.13
926.767 -1896.04 -1543.23
924.351 -1894.7 -1541.7
925.291 -1895.1 -1543.13
927.025 -1895.89 -1544.91
928.14 -1896.39 -1546.26
923.301 -1894.07 -1540.59
922.531 -1893.5 -1539.56
928.116 -1896.01 -1548.04
929.242 -1896.28 -1549.33
932.616 -1896.84 -1552.54
930.081 -1896.37 -1550.8
931.216 -1896.45 -1552.14
934.483 -1897.01 -1554.3
935.792 -1896.97 -1555.82
933.336 -1896.65 -1554.4
936.944 -1896.83 -1557.3
939.756 -1896.72 -1559.67
938.162 -1896.65 -1558.78
947.8 -1896.26 -1565.58
949.103 -1896.3 -1567.06
950.501 -1896.42 -1568.42
946.181 -1896.22 -1564.49
941.369 -1896.45 -1561.31
942.912 -1896.29 -1563.01
944.315 -1896.09 -1564.62
951.404 -1896 -1571.47
950.068 -1895.98 -1570.21
896.59 -1872.5 -1560.86
898.071 -1873.69 -1559.93
899.301 -1874.86 -1559.05
900.648 -1876.28 -1559.26
901.642 -1877.11 -1557.57
902.417 -1877.66 -1555.77
903.532 -1878.61 -1554.53
905.041 -1879.85 -1553.9
906.49 -1880.97 -1553.25
907.102 -1881.4 -1551.46
908.16 -1882.3 -1550.19
909.031 -1883.28 -1547.66
909.52 -1883.39 -1549.46
920.965 -1892.22 -1542.57
921.786 -1892.88 -1541.16
920.23 -1891.6 -1544.14
910.554 -1884.43 -1548.18
911.967 -1885.44 -1548.69
913.448 -1886.54 -1548.79
914.853 -1887.57 -1547.75
916.518 -1888.77 -1547.23
918.073 -1889.84 -1546.47
919.615 -1890.95 -1545.83
925.442 -1894.93 -1544.92
923.736 -1894.06 -1543.52
922.761 -1893.54 -1542.22
926.731 -1895.44 -1546.65
926.564 -1894.89 -1548.47
927.874 -1895.33 -1549.85
929.037 -1895.67 -1551.24
931.768 -1896.2 -1553.92
930.116 -1895.82 -1552.66
934.317 -1896.61 -1556.02
935.43 -1896.54 -1557.6
933.096 -1896.12 -1556.26
936.832 -1896.45 -1559.05
938.159 -1896.32 -1560.44
939.624 -1896.24 -1561.74
945.954 -1895.98 -1566.34
947.366 -1895.97 -1567.56
948.666 -1895.93 -1568.92
941.129 -1896.03 -1563.29
942.49 -1895.87 -1564.96
944.032 -1895.84 -1566.64
949.594 -1895.4 -1571.83
948.186 -1895.49 -1570.63
896.594 -1872.84 -1562.79
897.925 -1873.8 -1561.66
899.503 -1875.22 -1560.79
902.157 -1877.63 -1559.14
901.001 -1876.66 -1560.8
903.027 -1878.32 -1557.1
904.364 -1879.37 -1555.9
905.875 -1880.55 -1555.32
907.491 -1881.68 -1554.8
908.192 -1882.28 -1552.78
909.547 -1883.33 -1551.37
911.031 -1884.6 -1550.35
921.851 -1892.71 -1543.58
921.143 -1892 -1545.21
912.654 -1885.81 -1550.52
914.499 -1887.13 -1549.82
915.991 -1888.19 -1549
917.65 -1889.28 -1548.33
919.183 -1890.37 -1547.64
920.776 -1891.44 -1547.01
923.972 -1893.85 -1545.52
925.211 -1894.36 -1546.95
922.679 -1893.06 -1544.79
925.034 -1893.72 -1548.88
926.395 -1894.22 -1550.35
927.746 -1894.68 -1551.77
928.979 -1895.02 -1553.17
930.281 -1895.39 -1554.36
931.574 -1895.73 -1555.59
934.053 -1896.08 -1557.89
935.205 -1896.06 -1559.43
931.824 -1895.31 -1557.27
933.067 -1895.51 -1558.38
936.814 -1895.98 -1560.83
938.129 -1895.93 -1562.14
939.511 -1895.84 -1563.66
945.383 -1895.67 -1568.12
946.744 -1895.62 -1569.32
940.921 -1895.68 -1565.03
942.371 -1895.6 -1566.72
943.689 -1895.45 -1568.13
946.365 -1895.08 -1570.82
896.536 -1872.89 -1564.76
897.701 -1873.84 -1563.61
898.946 -1874.75 -1562.5
900.154 -1875.84 -1562.41
902.351 -1877.73 -1560.95
903.869 -1879.05 -1557.88
903.222 -1878.47 -1559.4
901.503 -1876.98 -1562.54
905.215 -1880.05 -1557.17
906.792 -1881.17 -1556.7
908.432 -1882.22 -1556.48
909.002 -1882.8 -1554.67
909.662 -1883.4 -1553.02
911.169 -1884.51 -1552.25
922.415 -1892.57 -1546.47
912.646 -1885.51 -1552.4
914.084 -1886.56 -1551.62
915.78 -1887.68 -1550.96
917.354 -1888.73 -1550.17
918.923 -1889.83 -1549.55
920.452 -1890.84 -1548.93
922.083 -1891.97 -1548.32
923.682 -1893.18 -1547.57
924.888 -1893.02 -1550.82
923.474 -1892.52 -1549.51
926.298 -1893.52 -1552.32
927.544 -1893.9 -1553.74
929.033 -1894.44 -1555.04
930.315 -1894.92 -1556.09
934.126 -1895.54 -1559.79
935.308 -1895.53 -1561.22
930.466 -1894.44 -1557.69
931.719 -1894.56 -1559.11
932.897 -1894.79 -1560.2
936.931 -1895.5 -1562.64
938.207 -1895.49 -1563.83
939.19 -1895.23 -1565.53
944.882 -1895.18 -1569.52
940.862 -1895.37 -1566.6
941.854 -1895.08 -1568.19
942.829 -1894.76 -1569.65
944.611 -1894.67 -1570.78
897.814 -1873.93 -1565.6
899.098 -1874.89 -1564.17
900.543 -1876.04 -1564.1
902.953 -1877.99 -1562.46
903.709 -1878.74 -1560.78
904.597 -1879.56 -1559.15
902.134 -1877.18 -1564.14
906.026 -1880.54 -1558.54
907.672 -1881.53 -1558.23
909.25 -1882.53 -1557.82
909.909 -1883.27 -1555.9
910.609 -1883.95 -1554.14
912.279 -1885 -1554.12
913.877 -1886.04 -1553.6
915.477 -1887.09 -1552.86
917.115 -1888.2 -1552.11
918.778 -1889.28 -1551.47
923.319 -1891.89 -1551.43
924.826 -1892.42 -1552.72
925.844 -1892.56 -1554.34
927.482 -1893.18 -1555.58
929.004 -1893.74 -1556.95
934.113 -1894.91 -1561.41
935.501 -1895.13 -1562.53
930.197 -1893.65 -1559.26
931.208 -1893.5 -1561.02
932.801 -1893.93 -1562.05
936.332 -1894.84 -1564.02
937.564 -1894.97 -1564.83
938.265 -1894.52 -1566.63
939.84 -1894.8 -1567.5
940.771 -1894.4 -1569.19
898.593 -1874.4 -1567.04
899.553 -1875.13 -1565.66
901.108 -1876.2 -1565.81
903.689 -1878.16 -1564.06
904.502 -1879.03 -1562.26
905.293 -1879.86 -1560.44
902.541 -1877.09 -1565.81
906.966 -1880.89 -1560.06
908.673 -1881.88 -1559.69
910.765 -1883.5 -1557.42
910.329 -1882.85 -1559.35
911.587 -1884.32 -1555.68
913.578 -1885.44 -1555.58
915.286 -1886.58 -1554.76
927.365 -1892.46 -1557.41
928.633 -1892.84 -1558.68
934.422 -1894.23 -1563.25
929.237 -1892.52 -1560.55
931.603 -1892.8 -1563.12
933.261 -1893.22 -1564.12
935.176 -1893.78 -1565.04
936.771 -1894.19 -1565.9
938.978 -1893.97 -1568.57
937.378 -1893.62 -1567.77
900.195 -1875.33 -1567.37
901.778 -1876.28 -1567.59
903.879 -1877.81 -1565.92
905.392 -1878.74 -1565.47
905.572 -1879.3 -1563.69
906.232 -1880.11 -1561.88
903.355 -1877.13 -1567.7
908.023 -1881.2 -1561.46
933.923 -1892.64 -1566.06
935.759 -1893.2 -1566.95
