851.656 -1765.56 -1495.99
850.552 -1761.62 -1500.42
851.738 -1757.32 -1502.97
851.189 -1759.07 -1502.29
850.566 -1760.42 -1501.93
851.924 -1755.85 -1504.14
851.079 -1767.19 -1496.17
851.304 -1768.25 -1494.95
850.897 -1766.21 -1497.47
850.766 -1764.79 -1499.06
850.409 -1763.45 -1500.46
850.034 -1762.13 -1502.03
850.754 -1758.42 -1503.73
850.856 -1757.14 -1504.85
849.991 -1759.79 -1503.89
849.603 -1761.24 -1503.6
852.271 -1754.46 -1505.42
850.97 -1755.64 -1506.08
850.105 -1767.78 -1497.88
850.438 -1768.59 -1496.58
850.842 -1769.9 -1495.44
850.027 -1766.57 -1499.09
849.695 -1765.27 -1500.67
849.401 -1763.89 -1502.11
848.854 -1762.93 -1503.55
849.757 -1758.47 -1505.44
849.859 -1756.95 -1506.67
848.932 -1759.99 -1505.77
848.574 -1761.64 -1505.16
851.325 -1754.22 -1507.31
850.218 -1755.31 -1507.82
849.276 -1768.15 -1499.45
849.645 -1769.04 -1498.23
850.056 -1770.07 -1496.95
850.543 -1771.7 -1495.8
849.074 -1766.89 -1500.7
848.763 -1765.62 -1502.13
848.277 -1764.48 -1503.58
848.289 -1763 -1504.7
849.016 -1758.28 -1507.01
849.317 -1756.65 -1508.15
848.041 -1761.02 -1506.77
848.311 -1759.44 -1507.52
847.8 -1762.21 -1506.2
853.65 -1750.33 -1508.68
853.017 -1751.63 -1507.87
851.74 -1752.73 -1508.6
850.583 -1753.88 -1509.16
849.854 -1755.09 -1509.21
848.436 -1767.62 -1501.45
848.775 -1768.86 -1500.23
848.991 -1769.7 -1499.23
849.386 -1770.82 -1498.17
849.8 -1771.78 -1497.15
849.918 -1773.26 -1496.83
850.739 -1773.59 -1495.4
851.74 -1774.38 -1493.89
848.047 -1766.2 -1502.98
847.667 -1765.36 -1504.25
847.814 -1763.76 -1505.2
855.54 -1741.38 -1515.3
855.021 -1743.2 -1514.42
854.404 -1745.05 -1513.64
851.986 -1777.95 -1493.79
848.635 -1757.89 -1508.45
849.028 -1756.48 -1509.54
847.792 -1760.29 -1508.17
847.546 -1761.56 -1507.56
847.992 -1759.02 -1509.12
847.402 -1762.93 -1506.87
853.081 -1748.73 -1512.06
853.186 -1749.67 -1510.62
852.486 -1751.05 -1509.72
853.67 -1747 -1512.97
851.228 -1752.24 -1510.32
850.323 -1753.45 -1510.72
849.608 -1754.91 -1510.48
847.944 -1767.52 -1502.79
848.109 -1768.88 -1501.84
848.529 -1770.07 -1500.84
848.796 -1771.11 -1499.53
849.312 -1772.64 -1498.23
849.455 -1774.24 -1497.91
850.195 -1774.87 -1496.25
851.295 -1775.28 -1494.72
851.48 -1776.47 -1494.29
847.485 -1764.51 -1505.88
847.396 -1765.95 -1505.25
847.697 -1766.82 -1503.87
856.572 -1736.72 -1518.6
855.999 -1738.64 -1518.01
855.338 -1740.69 -1517.16
856.449 -1735.91 -1520.55
854.599 -1742.68 -1516.42
854.025 -1744.48 -1515.58
853.264 -1746.31 -1514.89
851.12 -1777.72 -1494.52
851.79 -1779.02 -1494.16
850.958 -1778.57 -1494.49
848.313 -1757.74 -1510.15
848.91 -1756.15 -1511.04
847.409 -1760.3 -1509.86
847.181 -1761.52 -1509.12
846.982 -1762.88 -1508.56
847.672 -1759.09 -1510.99
847.099 -1763.87 -1507.73
852.607 -1748.18 -1513.97
851.922 -1749.9 -1512.98
852.069 -1750.54 -1511.47
851.015 -1751.72 -1511.99
849.514 -1754.59 -1511.79
850.247 -1752.87 -1512.32
847.807 -1768.7 -1503.22
848.062 -1770.35 -1502.36
848.444 -1771.66 -1501.07
848.851 -1772.72 -1499.61
848.967 -1774.45 -1499.49
849.135 -1775.83 -1498.72
849.801 -1775.85 -1497
850.827 -1776.1 -1495.29
850.87 -1776.84 -1494.81
847.167 -1765.29 -1507.07
847.27 -1766.91 -1506.48
847.567 -1767.73 -1504.76
858.843 -1728.8 -1523.98
859.639 -1725.49 -1525.9
855.575 -1738.06 -1520.2
855.01 -1740 -1519.08
854.272 -1742.14 -1518.24
858.043 -1730.87 -1523.72
857.263 -1732.91 -1523.23
856.392 -1734.84 -1522.6
855.625 -1736.81 -1522.12
853.611 -1744 -1517.67
853.035 -1745.73 -1516.59
852.323 -1747.61 -1515.7
850.534 -1778.03 -1494.82
850.881 -1779.51 -1494.56
850.283 -1778.92 -1494.83
848.284 -1757.37 -1511.81
848.934 -1755.71 -1512.93
846.82 -1761.75 -1510.7
847.042 -1760.77 -1511.77
846.481 -1763.05 -1510.39
846.51 -1764.02 -1509.55
847.645 -1758.86 -1512.49
846.728 -1764.72 -1508.87
851.677 -1749.51 -1514.61
850.914 -1751.24 -1513.72
849.684 -1753.96 -1513.28
850.216 -1752.36 -1514.15
847.693 -1769.45 -1504.2
847.882 -1770.97 -1503.47
848.186 -1772.5 -1502.41
848.496 -1773.56 -1501.03
848.527 -1775.28 -1501.01
848.752 -1776.38 -1500.12
849.136 -1777.74 -1499.17
849.451 -1777.19 -1497.66
850.617 -1776.38 -1495.59
850.39 -1776.93 -1496.71
850.271 -1777.41 -1495.08
846.971 -1766.22 -1508.21
847.192 -1767.95 -1507.73
847.494 -1768.71 -1505.95
858.803 -1727.56 -1525.82
857.927 -1729.71 -1525.55
858.621 -1726.32 -1527.75
854.726 -1738.62 -1522.2
854.454 -1740.07 -1520.93
854.038 -1741.63 -1519.81
853.298 -1743.57 -1519.62
857.154 -1731.88 -1525.16
856.273 -1733.82 -1524.73
855.548 -1735.68 -1524.16
854.875 -1737.37 -1523.78
852.912 -1745.22 -1518.27
852.264 -1746.97 -1517.17
851.702 -1748.8 -1516.09
851.381 -1782.5 -1497.12
851.551 -1783.9 -1497.7
849.882 -1778.34 -1495.18
850.427 -1779.98 -1494.77
849.768 -1779.24 -1495.13
848.192 -1757.37 -1513.59
849.475 -1754.22 -1514.5
848.83 -1755.81 -1514.77
846.365 -1762.56 -1512.29
846.415 -1762.13 -1513.33
847.075 -1760.43 -1513.18
846.031 -1763.78 -1512.13
846.018 -1764.52 -1511.23
846.244 -1765.07 -1510.5
847.488 -1759.31 -1514.51
846.53 -1765.93 -1509.66
850.873 -1750.82 -1515.35
850.048 -1752.56 -1515.53
847.725 -1770.77 -1505.26
848.133 -1772.36 -1504.26
848.273 -1773.86 -1503.38
848.472 -1774.53 -1502.06
848.329 -1776.16 -1501.95
848.372 -1777.05 -1501.55
848.544 -1778.09 -1500.64
848.802 -1779.1 -1500.34
849.503 -1778.96 -1498.98
849.887 -1777.85 -1497.66
850.881 -1777.2 -1495.92
850.027 -1776.34 -1495.63
849.795 -1777.46 -1495.4
846.851 -1767.31 -1509.18
847.427 -1769.72 -1506.97
847.143 -1768.94 -1508.67
857.775 -1728.54 -1527.38
856.988 -1730.76 -1526.96
859.523 -1722.87 -1529.51
858.834 -1724.68 -1529.1
858.049 -1725.86 -1530.1
857.582 -1727.6 -1529.17
853.922 -1740.39 -1522.48
854.01 -1739.24 -1524.05
853.645 -1741.93 -1521.15
853.051 -1743.56 -1521.3
852.662 -1745.07 -1520.1
856.135 -1732.78 -1526.64
855.34 -1734.66 -1526.13
854.795 -1736.29 -1525.62
854.28 -1737.86 -1525.31
852.231 -1746.65 -1518.82
851.697 -1748.25 -1517.66
851.167 -1749.78 -1516.58
851.364 -1785.35 -1498.65
851.132 -1780.96 -1496.62
850.242 -1780.86 -1495.39
850.535 -1781.66 -1498.62
850.761 -1783.48 -1499.12
849.323 -1778.86 -1495.46
850.049 -1780.05 -1495.15
849.461 -1779.73 -1495.46
848.162 -1757.57 -1515.45
849.472 -1754.02 -1515.88
848.849 -1755.85 -1516.5
845.676 -1763.97 -1513.62
846.635 -1761.47 -1514.54
845.772 -1763.41 -1514.64
845.461 -1765.41 -1512.27
845.424 -1764.98 -1513.08
845.615 -1765.7 -1511.72
845.995 -1766.19 -1510.95
847.59 -1759.18 -1516.49
846.898 -1760.85 -1515.93
846.34 -1767.13 -1510.38
850.57 -1751.31 -1516.75
850.01 -1752.74 -1517.2
847.447 -1771.58 -1506.75
847.743 -1772.63 -1505.97
847.983 -1773.82 -1505.16
848.28 -1775.33 -1503.71
848.152 -1776.7 -1503.2
847.862 -1777.62 -1502.71
847.785 -1778.47 -1501.83
846.98 -1778.63 -1502.27
848.18 -1779.36 -1501.49
849.569 -1780.26 -1499.6
848.925 -1780.8 -1500.89
850.331 -1780.26 -1498.24
850.1 -1779.01 -1497.93
850.497 -1778.5 -1496.76
850.708 -1777.92 -1496.21
849.676 -1776.84 -1495.82
849.391 -1777.96 -1495.65
846.754 -1768.59 -1509.85
847.294 -1770.46 -1508.11
847.181 -1770.23 -1509.13
856.802 -1729.73 -1528.7
856.078 -1731.83 -1528.22
859.246 -1722.27 -1531.68
858.55 -1724.04 -1531.01
857.841 -1725.14 -1532.04
857.298 -1727.01 -1531.22
856.703 -1728.9 -1530.38
853.552 -1740.57 -1524.14
853.389 -1742.01 -1522.69
853.635 -1739.31 -1525.99
852.492 -1745.27 -1521.94
852.86 -1743.74 -1523.1
852.065 -1746.7 -1520.58
855.212 -1733.89 -1527.8
854.5 -1735.8 -1527.42
854.027 -1737.52 -1526.99
860.643 -1718.83 -1533.72
860.007 -1720.45 -1532.59
851.63 -1748.15 -1519.26
851.129 -1749.63 -1517.89
863.06 -1713.24 -1535.83
850.644 -1785.7 -1500
849.966 -1780.49 -1495.77
850.776 -1780.03 -1496.94
849.828 -1781.86 -1500.09
850.034 -1784.03 -1500.55
848.99 -1779.5 -1495.71
848.925 -1778.6 -1495.89
848.285 -1757.54 -1517.39
849.461 -1754.21 -1517.45
848.956 -1755.94 -1518.25
844.923 -1765.08 -1515.15
844.821 -1765.79 -1514.39
846 -1762.74 -1515.81
845.037 -1764.55 -1516.19
844.819 -1766.44 -1513.53
844.925 -1766.74 -1512.82
845.263 -1766.83 -1512.04
845.701 -1767.19 -1511.4
847.667 -1759.08 -1518.34
847.009 -1760.67 -1517.7
846.188 -1762.23 -1517.17
846.212 -1768.48 -1510.88
850.573 -1751.16 -1518.28
850.036 -1752.84 -1518.76
847.39 -1772.2 -1508.04
847.942 -1773.15 -1507.39
848.227 -1773.97 -1506.82
848.287 -1774.8 -1505.67
848.336 -1775.88 -1504.99
847.995 -1777.1 -1504.34
847.721 -1777.97 -1503.84
847.41 -1778.55 -1504.19
847.156 -1778.27 -1503.25
847.818 -1779.54 -1503.07
847.339 -1778.85 -1504.01
848.14 -1780.62 -1502.47
848.501 -1781.96 -1502.33
849.261 -1782.52 -1501.39
850.366 -1779.19 -1496.94
849.302 -1778.01 -1496.2
848.925 -1778.53 -1496.37
849.325 -1777.43 -1496
846.691 -1770.04 -1510.5
847.121 -1771.78 -1508.9
847.074 -1771.56 -1509.98
856.037 -1730.97 -1529.8
855.34 -1732.93 -1529.25
858.943 -1721.77 -1533.74
858.319 -1723.38 -1532.95
857.13 -1726.47 -1533.15
857.652 -1724.59 -1533.86
856.616 -1728.35 -1532.15
856.075 -1730.22 -1531.33
853.212 -1740.9 -1525.75
853.037 -1742.31 -1524.44
853.557 -1738.79 -1527.95
853.136 -1740.5 -1527.49
852.345 -1745.45 -1523.69
852.005 -1746.87 -1522.33
852.573 -1743.97 -1525.02
851.602 -1748.21 -1520.88
854.568 -1734.91 -1528.97
854.034 -1736.84 -1528.65
862.247 -1715.24 -1535.35
861.341 -1717.17 -1534.82
860.059 -1718.68 -1535.95
859.643 -1720.1 -1534.53
851.141 -1749.58 -1519.46
863.246 -1711.12 -1538.71
862.616 -1712.9 -1537.88
861.878 -1714.73 -1537.23
850.73 -1787.35 -1500.68
849.778 -1785.97 -1501.67
849.539 -1780.04 -1496.05
849.106 -1784.22 -1502.02
848.73 -1779.37 -1495.85
848.442 -1757.63 -1519.25
849.545 -1754.5 -1519.4
849.087 -1756.19 -1520.17
844.28 -1766.12 -1516.86
844.198 -1766.78 -1515.77
844.177 -1767.38 -1514.84
845.244 -1763.94 -1517.2
844.44 -1765.44 -1518.08
844.232 -1767.7 -1514.28
844.438 -1767.78 -1513.47
844.887 -1768.06 -1512.49
845.391 -1768.48 -1511.9
847.1 -1760.71 -1519.42
847.879 -1759.25 -1520.2
846.267 -1762.1 -1518.66
845.338 -1763.69 -1518.38
845.871 -1769.91 -1511.37
850.621 -1751.36 -1520.04
850.125 -1753.1 -1520.68
847.916 -1773.03 -1508.52
848.167 -1773.85 -1508.29
848.321 -1774.59 -1508.09
848.452 -1775.13 -1507.6
848.547 -1775.85 -1506.9
848.341 -1776.4 -1505.91
847.716 -1777.11 -1505.02
847.388 -1778.17 -1504.6
847.041 -1778.95 -1504.88
846.987 -1779.42 -1505.14
847.417 -1780.79 -1504.13
847.042 -1779.81 -1504.44
846.848 -1779.98 -1505.29
847.785 -1782.22 -1503.87
848.236 -1783.69 -1503.27
849.197 -1779.36 -1496.29
848.49 -1778.89 -1496.22
846.573 -1771.73 -1511.05
847.242 -1772.69 -1509.21
846.985 -1772.94 -1509.97
855.484 -1732.03 -1530.82
854.808 -1733.96 -1530.45
859.01 -1720.79 -1535.6
858.26 -1722.68 -1535.01
856.918 -1726.3 -1535.11
856.451 -1728.11 -1533.99
857.533 -1724.38 -1535.49
856.028 -1729.79 -1533.09
855.527 -1731.36 -1532.65
852.786 -1742.45 -1526.42
853.637 -1738.1 -1529.78
853.119 -1740.2 -1529.44
851.986 -1747.07 -1524.12
851.601 -1748.45 -1522.67
851.143 -1749.94 -1521.37
854.177 -1735.98 -1530.19
861.016 -1716.72 -1536.65
860.072 -1717.88 -1537.75
859.319 -1719.59 -1537.28
864.387 -1707.81 -1540.48
863.761 -1709.38 -1539.75
864.577 -1706.79 -1542.01
862.2 -1712.4 -1539.89
862.808 -1710.57 -1540.82
861.526 -1714.21 -1539.21
860.882 -1716 -1538.41
849.922 -1787.69 -1502.11
850.806 -1789.02 -1501.45
848.509 -1785.34 -1503.33
848.826 -1786.81 -1503.3
848.781 -1779.67 -1496
848.615 -1757.89 -1521.12
849.667 -1754.86 -1521.31
849.272 -1756.61 -1522.13
843.638 -1767.62 -1517.1
843.689 -1766.95 -1518.29
843.623 -1768.25 -1516.06
843.624 -1768.73 -1515.35
844.698 -1764.98 -1519.42
843.995 -1766.31 -1519.41
843.675 -1769.04 -1514.78
844.009 -1769.27 -1513.78
844.432 -1769.47 -1512.98
845.018 -1769.85 -1512.51
847.295 -1760.87 -1521.14
846.37 -1762.19 -1520.31
848.088 -1759.57 -1521.96
845.487 -1763.59 -1519.64
845.191 -1771.44 -1512.24
850.662 -1751.73 -1521.99
850.228 -1753.53 -1522.54
848.183 -1774.52 -1509.27
847.956 -1773.97 -1509.59
848.358 -1775.32 -1509.11
848.429 -1775.79 -1508.81
848.457 -1776.12 -1508.51
848.552 -1776.61 -1507.8
848.341 -1777.25 -1506.78
847.371 -1777.64 -1505.32
846.886 -1778.4 -1505.42
846.838 -1778.89 -1505.85
846.854 -1779.35 -1506.5
846.456 -1780.09 -1506.76
846.747 -1781.04 -1505.7
847.046 -1782.32 -1505.43
846.324 -1781.1 -1506.79
847.467 -1784.2 -1504.83
846.192 -1772.71 -1511.55
846.739 -1773.62 -1510.49
847.735 -1774.54 -1510.37
854.995 -1733.14 -1532.21
854.422 -1735.07 -1531.89
858.574 -1721.32 -1536.9
857.875 -1723.09 -1536.82
857.14 -1725.19 -1536.93
856.274 -1728.17 -1535.68
856.553 -1726.98 -1537.2
855.8 -1730.18 -1534.52
855.19 -1732.27 -1534.23
853.869 -1737.09 -1531.59
853.362 -1739.1 -1531.35
851.611 -1748.87 -1524.59
851.159 -1750.27 -1523.25
860.113 -1717.1 -1539.55
859.508 -1718.63 -1539.17
858.777 -1720.32 -1538.94
864.814 -1705.65 -1543.7
863.497 -1708.74 -1541.91
863.826 -1707.42 -1543.67
861.888 -1712.06 -1541.71
861.274 -1713.8 -1541.01
862.505 -1710.28 -1542.53
860.655 -1715.63 -1540.34
848.915 -1788.23 -1503.69
849.931 -1789.17 -1502.92
850.851 -1790.57 -1502.5
847.753 -1786.09 -1504.72
847.947 -1787.66 -1504.81
850.86 -1791.84 -1503.55
848.859 -1758.3 -1523.01
849.875 -1755.26 -1523.18
849.52 -1757.07 -1524.05
843.177 -1769.01 -1517.2
843.182 -1768.41 -1518.39
843.36 -1767.81 -1519.61
843.229 -1769.66 -1516.21
843.203 -1770.14 -1515.65
844.894 -1764.79 -1520.7
844.281 -1765.79 -1520.63
843.691 -1767.15 -1520.68
843.387 -1770.54 -1515.06
843.74 -1770.69 -1514.18
844.341 -1770.94 -1513.46
847.606 -1761.04 -1522.96
846.522 -1762.46 -1522.01
845.546 -1763.82 -1520.99
848.495 -1759.81 -1523.95
844.273 -1772.19 -1513.24
844.906 -1773.21 -1512.67
850.768 -1752.16 -1523.75
850.429 -1754.03 -1524.37
848.041 -1775.22 -1510.12
848.254 -1775.73 -1509.86
848.387 -1776.11 -1509.62
848.385 -1776.39 -1509.45
848.403 -1776.66 -1509.1
848.52 -1777.09 -1508.56
848.294 -1777.73 -1507.84
847.804 -1777.98 -1506.41
846.774 -1778.35 -1506.1
846.263 -1779 -1506.5
846.088 -1779.55 -1507.01
845.753 -1780.38 -1507.6
845.806 -1781.38 -1507.76
846.399 -1782.51 -1506.72
846.669 -1783.93 -1506.3
846.067 -1782.21 -1507.7
846.984 -1785.61 -1506
845.508 -1774.39 -1512.15
846.301 -1774.21 -1511.1
847.326 -1775.31 -1510.94
847.724 -1775.62 -1510.63
854.641 -1734.25 -1533.88
854.114 -1736.2 -1533.49
858.12 -1722.07 -1538.59
857.42 -1723.96 -1538.46
856.815 -1725.85 -1538.87
855.831 -1729.74 -1536.33
856.079 -1728.7 -1537.94
856.317 -1727.65 -1539.52
851.874 -1748.11 -1528.02
851.627 -1749.4 -1526.46
851.256 -1750.75 -1525.03
859.831 -1717.25 -1541.23
859.151 -1719.15 -1540.82
858.324 -1721.14 -1540.83
864.666 -1705.18 -1545.97
863.838 -1706.69 -1545.48
862.954 -1708.98 -1543.65
862.982 -1708.32 -1545.32
861.789 -1711.49 -1543.43
861.151 -1713.32 -1542.82
860.48 -1715.41 -1541.98
862.181 -1710.1 -1544.75
848.319 -1788.99 -1505
849.673 -1790.3 -1504.07
847.225 -1787.21 -1505.99
847.499 -1788.76 -1506.08
849.906 -1791.85 -1505.02
850.935 -1793.31 -1504.76
849.261 -1758.64 -1524.98
850.166 -1755.67 -1525.12
849.895 -1757.53 -1526.01
842.919 -1769.77 -1518.45
842.941 -1770.32 -1517.24
842.933 -1769.17 -1519.75
843.125 -1768.58 -1520.88
842.947 -1770.97 -1516.41
843.024 -1771.2 -1515.59
844.647 -1765.37 -1522.04
844.083 -1766.6 -1521.86
843.516 -1768.02 -1521.88
843.219 -1771.85 -1514.95
843.647 -1771.95 -1514.1
847.982 -1761.31 -1524.8
846.861 -1762.59 -1523.69
845.568 -1764.2 -1522.42
848.929 -1760.07 -1525.8
843.962 -1773.07 -1514.02
844.211 -1774.18 -1513.51
844.635 -1775.41 -1512.9
850.926 -1752.66 -1525.49
850.691 -1754.58 -1526.42
847.992 -1776.21 -1510.45
848.288 -1776.38 -1510.06
848.353 -1776.82 -1510.07
848.436 -1776.98 -1509.82
848.442 -1777.23 -1509.43
848.38 -1777.53 -1508.98
847.681 -1778.2 -1507.21
848.159 -1778.04 -1508.74
846.483 -1778.27 -1506.65
845.877 -1779.22 -1506.97
845.376 -1779.7 -1507.7
845.221 -1780.34 -1508.33
845.373 -1781.07 -1508.56
845.892 -1782.13 -1508.73
845.571 -1781.65 -1508.82
846.197 -1783.76 -1507.47
846.357 -1785.25 -1507.2
846.016 -1783.4 -1508.53
846.628 -1786.93 -1507.01
845.357 -1775.51 -1512.29
846.578 -1775.51 -1511.47
847.28 -1776.38 -1511.33
847.656 -1776.38 -1510.96
857.709 -1722.89 -1540.09
857.175 -1724.58 -1540.44
851.845 -1749.17 -1529.97
851.668 -1750.13 -1528.32
851.374 -1751.33 -1526.85
859.93 -1716.51 -1543.28
859.357 -1718.23 -1542.84
858.742 -1719.94 -1542.52
857.629 -1722.96 -1541.86
865.7 -1703.52 -1546.54
864.859 -1704.34 -1548
863.942 -1706.05 -1547.57
863.092 -1707.58 -1547.15
862.309 -1709.26 -1546.76
861.293 -1712.25 -1544.75
860.549 -1714.7 -1543.7
861.62 -1710.95 -1546.35
847.571 -1789.59 -1506.54
848.716 -1790.52 -1505.53
846.925 -1788.48 -1507.07
847 -1789.64 -1507.51
849.12 -1792.32 -1506.59
850.17 -1793.48 -1506.07
850.872 -1794.81 -1506.15
849.708 -1759.02 -1526.96
850.444 -1756.24 -1526.99
850.377 -1757.77 -1528.28
842.749 -1770.8 -1518.28
842.784 -1770.25 -1519.65
842.763 -1771.29 -1517.11
842.868 -1769.66 -1520.92
843.146 -1769.29 -1521.88
842.87 -1771.94 -1516.32
843.054 -1772.39 -1515.75
844.939 -1765.4 -1523.43
844.32 -1766.55 -1523.26
843.885 -1767.73 -1523.07
843.561 -1768.73 -1522.95
843.342 -1773.39 -1515.45
843.593 -1773.09 -1514.68
848.451 -1761.59 -1526.42
847.283 -1763.02 -1525.41
846.052 -1764.13 -1524.05
849.305 -1760.62 -1527.59
843.907 -1774.57 -1513.81
844.279 -1775.79 -1513.09
845.135 -1776.73 -1512.42
844.652 -1777.07 -1512.6
851.068 -1753.25 -1527.21
850.876 -1755.58 -1528.39
851.194 -1754.04 -1528.78
848.183 -1776.9 -1510.47
847.912 -1777.07 -1510.84
848.08 -1777.37 -1510.53
848.18 -1777.42 -1510.21
848.19 -1777.61 -1509.87
848.169 -1777.85 -1509.43
847.682 -1778.35 -1508.53
846.808 -1777.52 -1507.39
847.829 -1778.45 -1509.39
846.384 -1778.92 -1507.52
845.711 -1779.56 -1507.85
845.191 -1779.95 -1508.8
844.733 -1780.28 -1509.06
844.72 -1781.01 -1509.59
845.098 -1781.32 -1509.82
845.665 -1781.49 -1510.21
845.722 -1782.55 -1510.09
846.083 -1784.85 -1508.43
846.254 -1786.48 -1508.18
845.83 -1784.19 -1509.93
846.417 -1788.17 -1508.17
846.249 -1776.47 -1512.01
847.456 -1777.31 -1511.19
846.46 -1777.21 -1511.8
851.676 -1751.22 -1530.11
851.912 -1750.22 -1531.66
851.46 -1752.17 -1528.63
860.077 -1715.77 -1545.29
859.463 -1717.62 -1544.87
858.788 -1719.63 -1544.65
866.734 -1701.38 -1548.99
865.658 -1702.93 -1548.69
864.865 -1703.64 -1550.06
864.055 -1705.31 -1549.58
863.296 -1706.81 -1549.14
862.513 -1708.44 -1548.74
861.82 -1710.13 -1548.34
860.968 -1712.75 -1546.65
860.675 -1713.88 -1545.2
861.203 -1711.83 -1548.12
847.34 -1790.86 -1507.95
848.089 -1791.1 -1506.92
846.573 -1789.46 -1508.44
846.866 -1790.74 -1508.77
848.232 -1792.38 -1508.03
849.513 -1794 -1507.72
850.679 -1795.84 -1507.6
850.035 -1759.61 -1528.81
850.979 -1756.9 -1529.93
850.669 -1758.7 -1530.21
842.705 -1770.91 -1519.31
842.642 -1771.73 -1518.01
842.73 -1770.69 -1520.77
842.694 -1772.22 -1517.04
842.909 -1770.41 -1521.83
843.262 -1769.97 -1522.81
842.867 -1772.83 -1516.63
843.133 -1773.64 -1516.25
845.772 -1765.11 -1525.22
844.817 -1766.34 -1524.66
844.181 -1767.69 -1524.51
843.837 -1768.41 -1524.36
843.621 -1769.16 -1524.22
843.627 -1774.84 -1515.4
843.805 -1774.68 -1514.54
848.758 -1762.31 -1528.19
847.814 -1763.16 -1527.07
846.729 -1764.51 -1526.56
849.675 -1761.42 -1529.34
844.195 -1776.06 -1513.73
844.29 -1777.4 -1513
845.382 -1777.72 -1512.11
844.818 -1778.48 -1512.41
851.315 -1755.22 -1530.29
851.554 -1753.22 -1530.35
847.537 -1777.71 -1510.92
847.675 -1777.91 -1510.61
847.795 -1778.07 -1510.31
847.752 -1778.34 -1509.92
847.117 -1779.15 -1509.22
846.792 -1779.19 -1510.26
846.027 -1779.77 -1509.11
845.537 -1779.88 -1509.72
844.849 -1780.03 -1510.31
844.56 -1780.35 -1510.26
844.364 -1780.68 -1510.3
844.973 -1780.45 -1511.32
845.249 -1780.66 -1511.37
845.519 -1780.83 -1511.68
845.472 -1781.7 -1511.69
845.429 -1783.11 -1511.67
845.959 -1785.9 -1509.63
846.091 -1787.67 -1509.51
845.65 -1785.21 -1511.19
846.245 -1789.36 -1509.48
846.322 -1778.04 -1511.66
851.833 -1752.28 -1531.9
860.437 -1714.48 -1547.23
859.826 -1716.47 -1547.02
868.967 -1698.19 -1549.69
867.908 -1699.74 -1549.18
866.842 -1700.46 -1550.76
865.81 -1702.07 -1550.54
864.139 -1704.51 -1551.56
865.042 -1702.77 -1551.95
863.412 -1706.05 -1551.2
862.67 -1707.69 -1550.7
861.971 -1709.47 -1550.28
861.286 -1711.32 -1549.97
860.708 -1713.37 -1549.26
850.657 -1796.93 -1508.97
847.519 -1792.14 -1509.07
846.491 -1790.61 -1509.71
847.055 -1792 -1509.89
848.395 -1793.65 -1509.2
849.507 -1795.23 -1509.14
850.409 -1760.55 -1530.61
851.193 -1757.87 -1531.72
851.463 -1756.26 -1531.88
850.938 -1759.76 -1531.97
842.668 -1772.01 -1519.12
842.71 -1772.05 -1520.48
842.633 -1772.97 -1517.5
842.632 -1773.02 -1518.49
842.814 -1771.42 -1521.7
843.052 -1771.2 -1522.7
843.511 -1770.69 -1524.16
842.897 -1773.71 -1517.04
843.408 -1775.06 -1516.27
845.606 -1765.83 -1526.35
844.922 -1767.14 -1526.04
844.452 -1768.33 -1525.84
844.147 -1769 -1525.75
844.017 -1770.26 -1525.66
844.229 -1776.29 -1515.4
844.297 -1776.29 -1514.57
847.961 -1764.14 -1528.63
849.135 -1763.23 -1529.83
846.71 -1765.24 -1527.78
850.049 -1762.37 -1531.08
844.27 -1777.6 -1513.75
844.53 -1778.96 -1512.94
845.764 -1778.74 -1511.93
845.44 -1779.31 -1512.19
851.694 -1754.32 -1531.97
846.51 -1778.69 -1511.29
846.377 -1778.58 -1511.51
846.635 -1778.85 -1511.05
846.714 -1779.04 -1510.83
845.789 -1779.68 -1510.89
845.202 -1780.09 -1511.21
845.474 -1780.02 -1511.62
845.111 -1780.08 -1512
845.064 -1780.1 -1512.34
845.249 -1780.36 -1512.74
845.06 -1781.49 -1512.89
844.792 -1782.81 -1513.46
845.204 -1784.34 -1512.64
845.863 -1787.05 -1511.02
846.09 -1788.96 -1510.73
845.392 -1786.12 -1512.94
846.227 -1790.35 -1510.87
851.978 -1753.34 -1533.69
860.137 -1715.32 -1549.11
867.858 -1698.9 -1551.02
868.885 -1697.38 -1551.71
866.926 -1699.61 -1552.58
866.03 -1701.09 -1552.38
864.395 -1703.72 -1553.4
863.638 -1705.27 -1553.29
865.351 -1701.8 -1553.71
862.894 -1706.93 -1552.69
862.13 -1708.82 -1552.28
861.444 -1710.67 -1551.93
869.809 -1695.98 -1552.64
850.759 -1798.15 -1510.37
850.944 -1799.39 -1511.73
849.564 -1796.5 -1510.5
847.706 -1793.47 -1510.27
846.689 -1791.85 -1510.93
847.203 -1793.21 -1511.05
848.44 -1794.89 -1510.56
850.721 -1761.56 -1532.4
851.577 -1757.25 -1533.6
851.297 -1759.03 -1533.4
851.81 -1755.39 -1533.72
851.072 -1760.93 -1533.72
842.708 -1773.16 -1519.81
842.833 -1772.79 -1521.23
842.824 -1773.87 -1518.05
842.805 -1773.86 -1519.13
843.022 -1772.07 -1522.48
843.494 -1772.02 -1523.87
843.957 -1771.77 -1525.56
843.268 -1774.87 -1517.19
843.958 -1776.68 -1516.36
845.803 -1766.79 -1527.51
845.338 -1767.86 -1527.35
844.955 -1768.81 -1527.21
844.694 -1770.01 -1527.06
844.551 -1771.5 -1527.03
844.338 -1777.8 -1515.5
844.248 -1778.07 -1514.55
848.355 -1764.99 -1530.16
847.031 -1766.11 -1529.08
849.5 -1764.16 -1531.53
850.343 -1763.22 -1532.9
844.221 -1779.21 -1513.62
845.289 -1779.77 -1512.74
845.894 -1779.24 -1511.77
845.403 -1779.75 -1512.12
845.979 -1779.4 -1511.5
845.993 -1779.62 -1511.28
845.579 -1779.78 -1511.83
844.923 -1780.07 -1513.83
844.843 -1781.29 -1514.37
844.951 -1784.27 -1514.3
844.852 -1782.46 -1515.03
845.768 -1788.06 -1512.4
846.071 -1789.85 -1512.03
844.983 -1785.69 -1514.74
845.422 -1787.55 -1514.16
846.374 -1791.37 -1512.19
852.077 -1754.33 -1535.45
867.852 -1698.17 -1552.71
868.723 -1696.81 -1553.57
866.998 -1698.79 -1554.26
866.091 -1700.26 -1554.41
864.675 -1702.83 -1554.98
863.863 -1704.49 -1555.44
863.108 -1706.34 -1554.83
865.358 -1701.11 -1555.77
862.361 -1708.17 -1554.26
861.621 -1710.11 -1553.89
873.643 -1692.29 -1553.82
870.859 -1694.75 -1553.69
872.125 -1693.31 -1554.73
869.481 -1695.58 -1554.67
849.759 -1797.76 -1511.9
849.949 -1799.05 -1513.42
851.34 -1800.58 -1513.05
848.59 -1796.16 -1511.91
847.794 -1794.78 -1511.79
846.783 -1792.93 -1512.32
847.274 -1794.11 -1512.36
851.933 -1801.85 -1514.36
850.984 -1762.49 -1534.39
851.943 -1756.49 -1535.49
851.668 -1758.46 -1535.18
851.367 -1760.29 -1534.94
851.403 -1761.86 -1535.99
842.914 -1773.93 -1520.43
843.246 -1774.27 -1521.47
843.102 -1773.06 -1522.22
843.153 -1775.2 -1518.33
842.998 -1774.78 -1519.58
843.462 -1772.92 -1523.47
843.992 -1772.84 -1525
844.55 -1772.69 -1526.89
843.605 -1776.3 -1517.36
844 -1778.46 -1516.36
843.923 -1777.69 -1517.13
846.266 -1767.62 -1528.89
845.636 -1768.69 -1528.9
845.368 -1769.79 -1528.62
845.24 -1771.09 -1528.38
845.146 -1772.54 -1528.36
843.732 -1779.25 -1515.47
843.784 -1779.83 -1514.49
847.539 -1766.74 -1530.47
848.7 -1765.96 -1531.84
849.735 -1765 -1533.24
850.515 -1764.23 -1534.65
843.881 -1780.91 -1515.57
844.462 -1783.59 -1515.63
843.862 -1781.91 -1516.29
845.83 -1789.43 -1513.6
846.137 -1790.88 -1513.26
844.731 -1785.55 -1515.91
845.173 -1787.36 -1515.6
845.593 -1789.19 -1515.17
846.489 -1792.55 -1513.78
867.817 -1697.67 -1554.44
868.511 -1696.44 -1555.47
866.558 -1699.01 -1555.85
867.548 -1697.55 -1556.11
865.844 -1700 -1556.96
864.557 -1702.63 -1556.76
863.79 -1704.34 -1557.67
865.155 -1701.07 -1558.16
873.318 -1691.91 -1555.79
870.595 -1694.35 -1555.65
871.756 -1693.06 -1556.78
869.442 -1695.24 -1556.65
848.936 -1797.52 -1513.18
849.388 -1799.16 -1514.98
850.478 -1800.44 -1514.86
848.068 -1796.23 -1513.19
847.629 -1795.35 -1513.4
847.052 -1794.14 -1513.63
852.387 -1803.1 -1515.87
851.011 -1801.67 -1516.12
851.116 -1763.52 -1536.14
852.229 -1756.63 -1537.4
852.001 -1758.31 -1536.98
851.681 -1760.16 -1536.58
851.86 -1761.49 -1537.99
851.486 -1763.06 -1537.76
843.348 -1775.42 -1520.45
843.574 -1774.2 -1522.79
843.812 -1775.81 -1521.52
843.406 -1776.3 -1519.18
843.605 -1777.1 -1518.14
843.95 -1773.81 -1524.41
844.426 -1773.51 -1525.98
845.079 -1773.99 -1527.4
845.444 -1773.57 -1528.48
843.849 -1779.18 -1517.15
843.652 -1780.41 -1516.71
843.95 -1778.19 -1517.97
846.799 -1767.97 -1530.36
846.116 -1769.49 -1530.26
845.829 -1770.79 -1530.14
845.723 -1771.92 -1529.85
845.901 -1773.16 -1529.98
847.866 -1767.41 -1531.89
848.944 -1766.79 -1533.41
849.907 -1766.06 -1534.83
850.74 -1765.32 -1536.28
844.109 -1783.97 -1516.52
843.637 -1782.3 -1516.78
846.054 -1790.96 -1514.57
844.751 -1784.97 -1517.37
845.198 -1786.92 -1517.19
845.546 -1788.94 -1516.78
846.014 -1790.86 -1516.07
846.837 -1794 -1515.07
846.42 -1792.54 -1515.38
852.415 -1755.8 -1539.27
868.401 -1696.3 -1557.31
866.764 -1698.34 -1557.59
867.616 -1697.1 -1558.02
866.074 -1699.34 -1558.89
864.387 -1702.77 -1558.58
865.325 -1700.51 -1560.27
874.487 -1690.55 -1556.82
872.949 -1691.68 -1557.8
870.401 -1694.07 -1557.76
871.44 -1692.87 -1558.83
869.298 -1695.02 -1558.65
848.678 -1797.85 -1514.33
848.995 -1799.2 -1516.28
849.876 -1800.67 -1516.65
847.904 -1796.62 -1514.63
847.412 -1795.45 -1514.95
852.56 -1804.22 -1517.64
851.486 -1802.91 -1517.43
850.47 -1801.99 -1518.03
851.139 -1764.76 -1537.87
852.336 -1757.81 -1538.96
852.105 -1759.65 -1538.5
852.088 -1760.83 -1540.05
851.896 -1762.65 -1539.59
851.635 -1764.35 -1539.44
843.96 -1777.02 -1520.37
844.18 -1775.97 -1522.6
844.471 -1775.32 -1524.14
844.618 -1777.45 -1521.57
843.818 -1777.74 -1519.05
844.859 -1774.84 -1525.79
845.687 -1775.7 -1527.34
845.972 -1774.87 -1528.98
846.338 -1774.11 -1530.5
844.266 -1779.44 -1517.47
843.636 -1780.96 -1517.38
844.144 -1778.57 -1518.76
847.189 -1768.89 -1531.83
846.802 -1770.43 -1531.74
846.482 -1771.81 -1531.63
846.443 -1772.73 -1531.36
846.747 -1773.66 -1531.84
848.023 -1768.41 -1533.48
849.09 -1767.91 -1534.87
850.15 -1767.11 -1536.38
850.834 -1766.49 -1537.92
843.956 -1782.81 -1517.45
844.401 -1783.61 -1518.39
844.972 -1785.11 -1519.03
845.329 -1786.74 -1518.83
845.661 -1788.61 -1518.41
845.99 -1790.59 -1517.8
846.443 -1792.38 -1517.16
847.281 -1795.45 -1516.3
846.833 -1793.94 -1516.73
852.437 -1757.02 -1540.81
868.211 -1696.14 -1559.34
867.069 -1697.6 -1559.61
872.595 -1691.47 -1559.83
870.182 -1693.87 -1559.87
871.25 -1692.51 -1560.81
869.068 -1694.88 -1560.84
848.485 -1798.04 -1515.5
848.516 -1798.54 -1517.01
849.131 -1800.06 -1517.78
849.794 -1801.33 -1518.74
847.89 -1797.02 -1516.04
851.3 -1803.59 -1519.1
852.405 -1804.99 -1519.29
853.33 -1806.46 -1519.68
850.428 -1802.68 -1519.85
851.404 -1765.94 -1539.5
852.197 -1758.98 -1540.48
852.2 -1762.26 -1541.29
852.208 -1760.28 -1542
852.155 -1764.04 -1541.14
851.963 -1765.7 -1540.94
844.294 -1778.15 -1520.07
845.071 -1777.37 -1523.48
845.475 -1776.58 -1525.31
845.297 -1778.97 -1522.88
844.774 -1778.81 -1521.16
846.436 -1776.89 -1528.61
846.081 -1777.53 -1526.77
846.694 -1776 -1530.33
846.956 -1775.05 -1532.09
844.39 -1779.95 -1518.5
843.885 -1781.52 -1518.4
844.102 -1779.36 -1519.54
847.469 -1770.01 -1533.45
847.162 -1771.68 -1533.23
847.177 -1772.97 -1533.12
847.467 -1774.45 -1533.5
848.361 -1769.46 -1535.01
849.432 -1768.72 -1536.39
850.092 -1768.09 -1538.08
850.783 -1767.57 -1539.6
844.315 -1782.95 -1519.64
844.891 -1784.81 -1520.47
845.137 -1786.66 -1520.27
845.63 -1788.42 -1520.02
846.035 -1790.3 -1519.52
846.353 -1792.17 -1518.96
846.821 -1793.87 -1518.44
847.277 -1795.45 -1517.89
847.728 -1796.84 -1517.44
867.764 -1696.43 -1560.93
870.04 -1693.56 -1561.82
848.154 -1797.9 -1517.65
848.676 -1799.32 -1518.63
849.282 -1800.69 -1519.56
849.935 -1802.02 -1520.54
851.263 -1804.22 -1520.66
852.219 -1805.62 -1520.76
852.763 -1806.8 -1521.69
850.659 -1803.52 -1521.48
851.471 -1767.29 -1540.98
852.293 -1762.08 -1542.84
852.035 -1763.84 -1542.86
852.147 -1765.51 -1542.57
852.002 -1767.05 -1542.46
845.717 -1778.39 -1524.89
845.703 -1780.12 -1524.64
845.157 -1780.8 -1522.81
844.419 -1780.01 -1521.16
846.958 -1777.84 -1530
846.685 -1778.59 -1528.33
846.248 -1779.42 -1526.52
847.263 -1776.93 -1531.82
847.732 -1776.26 -1533.56
844.033 -1781.22 -1519.74
847.945 -1770.89 -1534.77
847.821 -1772.35 -1534.71
847.865 -1773.78 -1534.87
848.168 -1775.49 -1535.19
848.819 -1770.16 -1536.41
849.501 -1769.55 -1537.92
850.129 -1769.17 -1539.47
850.863 -1768.92 -1540.89
844.892 -1783.35 -1521.16
844.54 -1781.82 -1521.27
845.579 -1786.32 -1521.89
845.525 -1784.65 -1522.33
845.763 -1788.22 -1521.55
846.111 -1790.06 -1521.17
846.445 -1791.96 -1520.75
846.908 -1793.7 -1520.27
847.386 -1795.37 -1519.75
847.793 -1796.89 -1519.15
848.231 -1798.07 -1519.19
848.841 -1799.77 -1520.13
849.51 -1801.23 -1521.15
850.074 -1802.5 -1522.26
851.584 -1805.25 -1522.16
852.406 -1806.78 -1523.27
853.424 -1808.26 -1522.97
850.829 -1804.12 -1523.11
851.431 -1768.65 -1542.39
852.4 -1763.09 -1544.41
852.123 -1764.97 -1544.4
852.315 -1766.86 -1543.87
852.008 -1768.4 -1543.95
845.653 -1782.09 -1524.43
846.299 -1781.37 -1526.26
845.283 -1782.78 -1522.72
847.374 -1778.7 -1531.46
847.121 -1779.99 -1530.07
846.64 -1780.61 -1528.18
847.77 -1778.16 -1533.33
848.217 -1777.59 -1535.21
848.512 -1771.47 -1536.33
848.488 -1772.88 -1536.49
848.581 -1774.32 -1536.82
848.643 -1776.21 -1536.95
849.549 -1770.66 -1538.24
850.344 -1770.43 -1539.93
850.711 -1770.37 -1541.69
845.949 -1786.08 -1523.76
846.115 -1787.89 -1523.26
845.877 -1784.16 -1524.09
846.369 -1789.82 -1522.87
846.669 -1791.62 -1522.51
846.975 -1793.41 -1522.19
847.456 -1795.15 -1521.71
847.913 -1796.79 -1521.15
848.367 -1798.31 -1520.77
848.992 -1800.08 -1521.83
849.581 -1801.52 -1522.93
850.231 -1803 -1524.03
851.624 -1805.64 -1523.92
852.295 -1807.09 -1524.96
853.121 -1808.5 -1524.96
854.129 -1809.79 -1524.29
850.971 -1804.62 -1525
851.607 -1770.2 -1543.47
852.451 -1766.67 -1545.23
852.435 -1768.38 -1545.51
852.042 -1769.85 -1545.21
846.278 -1783.4 -1525.84
846.771 -1782.67 -1527.76
847.648 -1780.05 -1532.5
847.481 -1781.68 -1531.48
847.086 -1782.11 -1529.71
848.075 -1779.63 -1534.5
848.763 -1778.04 -1537.01
848.651 -1779.67 -1536.29
849.015 -1772.09 -1537.85
849.188 -1773.59 -1538.48
849.233 -1775.25 -1538.69
849.321 -1777.25 -1538.62
849.991 -1772.34 -1539.54
850.287 -1772.27 -1541.24
851.113 -1772.04 -1542.94
846.281 -1785.57 -1525.59
846.28 -1787.53 -1525.21
846.393 -1789.43 -1524.68
846.818 -1791.26 -1524.4
847.1 -1793.05 -1524.05
847.501 -1794.91 -1523.66
848.01 -1796.72 -1523.05
848.517 -1798.5 -1522.54
849.127 -1800.22 -1523.86
849.805 -1802.05 -1524.76
850.407 -1803.41 -1526.1
851.752 -1806.27 -1525.91
852.547 -1808.04 -1526.65
853.639 -1809.72 -1526.62
854.573 -1811.36 -1527.34
855.318 -1812.98 -1528.43
851.167 -1805.23 -1526.92
851.838 -1771.69 -1544.66
852.704 -1767.61 -1546.76
852.799 -1769.7 -1547.15
852.41 -1771.19 -1546.35
846.636 -1784.72 -1527.29
847.035 -1784.06 -1529.31
847.951 -1781.53 -1533.67
847.471 -1783.98 -1531.27
847.807 -1783.14 -1532.85
848.515 -1781.48 -1535.42
849.255 -1779.46 -1538.34
849.002 -1781.3 -1537.43
849.932 -1774.16 -1540.42
849.869 -1776.26 -1540.26
849.846 -1778.31 -1540.07
850.688 -1773.81 -1542.41
851.544 -1773.5 -1544.3
846.609 -1786.96 -1527.16
846.77 -1789.05 -1526.47
846.933 -1790.85 -1526.2
847.196 -1792.77 -1525.84
847.577 -1794.57 -1525.63
848.077 -1796.44 -1525
848.574 -1798.23 -1524.39
849.039 -1799.53 -1525.7
849.602 -1801.37 -1525.63
849.986 -1802.42 -1527.35
850.73 -1804.14 -1528.13
851.986 -1807.12 -1527.64
852.749 -1808.9 -1528.26
853.529 -1810.42 -1528.68
854.227 -1811.76 -1529.34
854.768 -1812.98 -1530.6
851.484 -1806.13 -1528.69
852.159 -1772.94 -1546.12
852.998 -1770.57 -1549.22
852.707 -1771.64 -1547.93
846.813 -1785.84 -1528.75
847.3 -1785.81 -1530.66
848.322 -1783.61 -1534.73
847.955 -1785.07 -1533.33
847.799 -1786.57 -1532.33
848.766 -1783.05 -1536.43
849.701 -1780.23 -1539.9
849.455 -1781.78 -1539.21
849.181 -1783.34 -1538.3
850.555 -1775.68 -1541.98
850.419 -1777.74 -1541.73
850.265 -1779.81 -1541.57
851.192 -1775.24 -1543.95
851.961 -1774.78 -1545.97
847.094 -1788.68 -1528.14
847.25 -1787.45 -1529.38
847.234 -1790.63 -1528.3
847.311 -1792.25 -1527.46
847.643 -1794.18 -1527.56
848.1 -1796.09 -1526.94
848.591 -1797.84 -1526.52
849.061 -1799.25 -1527.88
849.465 -1800.74 -1527.15
850.268 -1802.98 -1529.41
849.672 -1801.24 -1528.89
850.977 -1804.87 -1530.01
852.22 -1807.94 -1529.44
852.999 -1809.83 -1530.13
853.82 -1811.56 -1530.9
854.507 -1813.13 -1532.3
855.65 -1814.51 -1531.86
856.658 -1816.18 -1533.15
851.675 -1806.83 -1530.55
852.718 -1773.59 -1547.78
853.156 -1772.7 -1549.42
847.691 -1788.04 -1531.11
848.861 -1784.81 -1536.92
848.457 -1785.7 -1535.38
848.219 -1787.18 -1534.2
848.101 -1788.65 -1532.98
850.067 -1781.86 -1541.09
849.805 -1783.58 -1540.25
849.372 -1785.21 -1538.9
851.068 -1777.22 -1543.44
850.954 -1779.33 -1543.22
850.692 -1781.45 -1542.85
851.746 -1776.74 -1545.18
852.735 -1775.44 -1548.11
852.269 -1776.51 -1546.86
847.505 -1789.52 -1529.85
847.672 -1791.46 -1530.26
847.509 -1792.81 -1529.11
847.973 -1794.52 -1529.69
848.212 -1795.84 -1528.63
848.664 -1797.67 -1528.75
849.239 -1799.68 -1529.8
849.878 -1801.65 -1530.74
850.52 -1803.55 -1531.4
851.169 -1805.49 -1531.89
852.34 -1808.53 -1531.35
853.087 -1810.33 -1532.08
853.795 -1811.9 -1532.95
854.52 -1813.54 -1534.16
855.399 -1814.69 -1533.83
856.206 -1816.21 -1535.25
857.343 -1817.69 -1535.14
851.79 -1807.26 -1532.56
853.224 -1774.59 -1549.48
847.919 -1790.09 -1531.68
849.056 -1786.65 -1537.54
848.761 -1787.81 -1536.13
848.531 -1789.22 -1534.86
848.26 -1790.61 -1533.62
850.462 -1783.54 -1542.26
849.947 -1785.41 -1540.72
849.633 -1787.13 -1539.58
851.664 -1778.81 -1544.88
851.418 -1780.93 -1544.58
851.205 -1782.97 -1544.18
852.203 -1778.39 -1546.62
853.208 -1776.68 -1549.66
852.777 -1777.69 -1548.32
848.043 -1792.01 -1532.24
847.923 -1793.3 -1530.95
848.326 -1795.06 -1531.66
848.456 -1796.44 -1530.44
848.926 -1798.32 -1530.92
849.484 -1800.3 -1531.77
850.101 -1802.13 -1532.6
850.785 -1804.14 -1533.31
851.382 -1805.95 -1533.84
852.425 -1809.08 -1533.3
853.098 -1810.67 -1534.17
853.852 -1812.4 -1534.74
855.103 -1814.94 -1535.83
854.4 -1813.89 -1536.05
856.805 -1817.55 -1537.07
855.657 -1816.12 -1537.45
852.035 -1807.97 -1534.37
853.572 -1775.81 -1550.92
849.331 -1788.56 -1538.25
848.995 -1789.8 -1536.78
848.653 -1791.19 -1535.54
848.389 -1792.53 -1534.16
851.001 -1784.86 -1544.09
850.398 -1785.48 -1542.44
850.159 -1787.28 -1541.54
849.862 -1789.02 -1540.4
852.077 -1780.41 -1546.32
851.887 -1782.4 -1546.01
851.71 -1784.34 -1545.87
852.634 -1779.74 -1547.98
853.186 -1778.88 -1549.6
853.535 -1777.93 -1550.79
848.329 -1793.8 -1532.92
848.676 -1797.06 -1532.35
848.572 -1795.8 -1533.53
849.183 -1799 -1532.99
849.769 -1800.75 -1533.84
850.406 -1802.65 -1534.47
851.08 -1804.58 -1535.41
851.68 -1806.62 -1535.56
852.624 -1809.51 -1535.4
853.273 -1811.28 -1535.9
853.816 -1812.68 -1536.41
854.807 -1815.1 -1537.69
854.198 -1813.85 -1537.86
856.211 -1817.45 -1539.07
857.433 -1819.04 -1538.49
855.239 -1816.24 -1539.36
858.662 -1820.66 -1537.81
852.259 -1808.26 -1536.52
849.306 -1790.51 -1538.62
849.066 -1791.81 -1537.46
848.727 -1793.12 -1535.99
848.558 -1794.55 -1534.67
851.462 -1786.32 -1545.48
850.725 -1786.94 -1543.68
850.583 -1788.63 -1542.71
850.337 -1790.38 -1542.05
849.793 -1790.98 -1540.32
852.472 -1781.74 -1547.72
852.308 -1783.77 -1547.6
852.102 -1785.79 -1547.31
853.035 -1780.85 -1549.37
853.467 -1780.06 -1550.89
849.004 -1797.74 -1534.22
848.879 -1796.48 -1535.37
849.434 -1799.44 -1535.05
850 -1801.17 -1535.81
850.553 -1802.87 -1536.3
850.991 -1804.05 -1537.59
851.601 -1805.9 -1537.14
853.015 -1810.45 -1537.31
853.552 -1812.2 -1537.71
854.48 -1815.14 -1539.54
854.035 -1813.68 -1539.3
855.808 -1817.43 -1540.9
856.863 -1818.85 -1540.49
858.143 -1820.47 -1539.83
855.015 -1816.32 -1541.03
852.145 -1807.3 -1538.46
852.633 -1809.12 -1538.21
849.509 -1792.64 -1539.32
849.055 -1793.7 -1537.77
848.854 -1795.13 -1536.49
851.171 -1788.28 -1545.11
851.777 -1787.77 -1547.03
850.867 -1789.85 -1544.13
850.59 -1791.71 -1543.36
850.087 -1792.53 -1541.39
852.866 -1782.87 -1549.16
852.645 -1784.98 -1549.01
852.376 -1786.92 -1548.87
853.335 -1782.04 -1550.94
853.669 -1781.2 -1552.28
849.32 -1798.31 -1536.21
849.226 -1797.04 -1537.2
849.715 -1799.98 -1537.11
850.373 -1801.85 -1537.97
850.92 -1803.39 -1539.45
851.608 -1805.34 -1539.11
853.127 -1810.39 -1539.59
853.529 -1811.87 -1539.17
854.516 -1815.12 -1541.11
854.036 -1813.42 -1540.52
855.717 -1817.45 -1542.54
856.526 -1818.85 -1542.3
857.659 -1820.37 -1541.83
858.867 -1821.97 -1541.14
855.069 -1816.2 -1542.76
852.705 -1808.68 -1540.13
849.924 -1794.32 -1541.14
849.4 -1794.33 -1539.45
849.239 -1795.67 -1538.32
851.472 -1789.79 -1546.51
851.915 -1789.03 -1548.32
851.088 -1791.17 -1545.27
850.429 -1793.6 -1543
850.895 -1793.05 -1544.85
853.036 -1783.81 -1550.23
852.798 -1786.14 -1550.36
852.429 -1788.31 -1549.99
853.481 -1782.98 -1552.07
849.517 -1798.83 -1538.1
849.456 -1797.5 -1539.08
850.037 -1800.18 -1539.03
850.521 -1801.65 -1540.14
851.046 -1803.18 -1541.51
853.226 -1810.07 -1541.71
853.628 -1811.79 -1541.06
854.196 -1813.58 -1542.18
854.727 -1815.11 -1543.07
855.742 -1817.52 -1544.2
856.478 -1818.91 -1543.93
857.361 -1820.34 -1543.62
858.522 -1822.02 -1543.11
855.126 -1815.94 -1544.69
850.376 -1795.15 -1542.86
849.652 -1796.07 -1540.19
850.127 -1796.47 -1541.94
851.398 -1792.27 -1546.63
851.782 -1791.07 -1548.05
852.167 -1790.38 -1549.9
850.771 -1794.92 -1544.63
851.211 -1794.35 -1546.39
853.158 -1784.87 -1551.66
852.845 -1787.68 -1551.63
849.767 -1798.96 -1540.03
849.817 -1797.82 -1541.01
850.165 -1800.28 -1541.1
850.668 -1801.53 -1542.2
853.756 -1811.71 -1543
854.303 -1813.3 -1544.17
854.755 -1814.7 -1545.37
855.746 -1817.41 -1546.04
856.428 -1818.91 -1545.68
857.243 -1820.46 -1545.33
858.082 -1821.79 -1545.03
859.288 -1823.54 -1544.29
855.268 -1815.9 -1546.79
850.56 -1796.7 -1544.03
850.276 -1798.06 -1543.04
851.678 -1793.29 -1548.17
852.027 -1792.39 -1549.79
850.996 -1796.42 -1545.92
851.533 -1795.27 -1547.96
850.047 -1799.26 -1542.05
850.38 -1800.45 -1543.17
854.932 -1814.41 -1547.62
855.874 -1817.32 -1548.17
856.297 -1818.69 -1547.48
857.054 -1820.32 -1547.07
857.854 -1821.78 -1547.16
858.868 -1823.2 -1546.11
855.449 -1815.97 -1548.82
850.734 -1798.26 -1545.07
850.491 -1799.47 -1544.07
851.939 -1794.57 -1549.81
851.259 -1797 -1547.57
855.098 -1814.14 -1549.73
855.976 -1817.36 -1550.22
856.432 -1818.89 -1549.55
856.825 -1820 -1548.73
857.411 -1821.32 -1548.94
858.714 -1823.36 -1547.98
858.051 -1822.67 -1549.54
859.414 -1824.58 -1548.54
860.432 -1825.86 -1548.38
855.538 -1815.73 -1550.92
856.074 -1817.48 -1552.08
856.642 -1819.49 -1551.47
857.011 -1820.64 -1550.4
857.549 -1821.94 -1550.97
858.803 -1824.15 -1550.16
858.241 -1823.54 -1551.59
859.705 -1825.49 -1550.29
860.942 -1826.97 -1550.07
856.515 -1819 -1553.29
856.158 -1817.47 -1554.28
857.229 -1821.32 -1552.21
856.922 -1820.55 -1553.62
857.772 -1822.87 -1552.9
859.054 -1825.11 -1552.06
858.57 -1824.6 -1553.48
860.065 -1826.53 -1551.82
856.665 -1819.39 -1555.37
857.36 -1822.06 -1554.17
857.1 -1821.2 -1555.62
858.084 -1823.81 -1554.84
859.531 -1826.25 -1553.45
858.629 -1825.15 -1555.97
859.043 -1825.78 -1554.78
860.571 -1827.65 -1553.43
857.052 -1820.77 -1557.37
857.592 -1822.81 -1555.96
857.52 -1822.53 -1557.55
858.106 -1824.13 -1557.26
859.909 -1827.23 -1555.13
858.83 -1825.77 -1557.99
859.347 -1826.66 -1556.78
861.07 -1828.62 -1554.98
862.846 -1830.63 -1554.84
857.884 -1823.42 -1559.28
858.354 -1824.67 -1559.23
860.41 -1828.23 -1556.63
858.898 -1826.01 -1560.27
859.37 -1826.91 -1559.22
859.95 -1827.79 -1558.23
861.639 -1829.59 -1556.46
862.836 -1831.08 -1556.68
857.803 -1822.84 -1561.02
858.327 -1824.64 -1561.26
860.907 -1829.14 -1558.39
858.929 -1826.36 -1562.22
859.479 -1827.3 -1561.22
860.269 -1828.57 -1560.14
862.105 -1830.58 -1558.33
858.1 -1823.77 -1562.89
858.592 -1825.49 -1563.52
861.406 -1830.12 -1560.02
859.1 -1827 -1564.44
859.562 -1827.77 -1563.22
860.195 -1828.83 -1562.11
860.98 -1829.95 -1561.55
862.74 -1831.83 -1559.78
858.221 -1824.38 -1565.13
858.734 -1826.06 -1565.78
862.094 -1831.51 -1561.51
859.27 -1827.64 -1566.63
859.782 -1828.6 -1565.39
860.349 -1829.45 -1564.17
860.911 -1830.23 -1563.21
861.766 -1831.6 -1563.25
863.384 -1833.22 -1561.17
864.784 -1834.93 -1560.83
858.301 -1824.75 -1567.15
858.845 -1826.54 -1567.91
862.763 -1833.03 -1562.98
859.474 -1828.3 -1568.7
860.05 -1829.4 -1567.38
860.675 -1830.46 -1566.1
861.257 -1831.21 -1564.92
862.095 -1832.75 -1564.95
863.998 -1834.63 -1562.64
858.426 -1825.36 -1569.27
858.959 -1827.12 -1570
863.201 -1834.3 -1564.45
859.653 -1828.89 -1570.81
860.254 -1830.05 -1569.47
860.859 -1831.22 -1568.06
861.563 -1832.27 -1566.74
862.672 -1834.12 -1566.19
864.495 -1835.97 -1564.1
863.687 -1835.59 -1565.89
860.408 -1830.66 -1571.65
861.005 -1831.81 -1570.34
861.584 -1832.83 -1568.95
862.288 -1833.87 -1567.79
863.239 -1835.49 -1567.81
864.921 -1837.19 -1565.62
864.18 -1836.8 -1567.35
860.564 -1831.25 -1573.71
861.234 -1832.54 -1572.47
861.858 -1833.62 -1571.06
862.56 -1834.64 -1569.53
863.376 -1836.08 -1569.61
864.31 -1837.43 -1569.04
865.355 -1838.42 -1567.39
861.427 -1833.28 -1574.58
862.065 -1834.42 -1573.13
862.781 -1835.49 -1571.59
863.794 -1837.09 -1571.08
864.743 -1838.45 -1570.75
865.575 -1839.2 -1569.16
866.648 -1840.91 -1569.52
861.553 -1833.85 -1576.73
862.223 -1835.07 -1575.47
862.832 -1836.04 -1574.02
863.494 -1837.02 -1572.78
864.531 -1838.74 -1572.73
865.634 -1839.92 -1571.22
866.576 -1841.5 -1571.61
862.397 -1835.87 -1577.74
863.049 -1836.89 -1576.09
863.758 -1837.92 -1574.53
864.715 -1839.65 -1574.69
865.558 -1840.47 -1573.19
866.483 -1842.1 -1573.68
867.557 -1843.72 -1573.96
863.401 -1837.97 -1577.87
863.027 -1837.49 -1579.45
864.008 -1838.84 -1576.34
865.694 -1841.44 -1575.14
864.925 -1840.61 -1576.58
866.68 -1843.17 -1575.62
867.788 -1844.66 -1575.63
864 -1839.51 -1579.71
864.308 -1839.87 -1578.14
865.946 -1842.39 -1577.1
865.166 -1841.45 -1578.41
866.974 -1844.19 -1577.61
868.124 -1845.59 -1577.08
869.123 -1847.17 -1577.69
864.42 -1840.42 -1581.52
865.018 -1841.5 -1580.13
866.052 -1843.07 -1578.99
867.988 -1845.9 -1578.77
866.977 -1844.65 -1579.8
869.131 -1847.75 -1579.4
865.391 -1842.24 -1581.86
866.032 -1843.38 -1580.8
868.074 -1846.48 -1580.49
867.095 -1845.15 -1581.56
869.211 -1848.26 -1581.11
865.77 -1842.79 -1583.81
866.377 -1844.03 -1582.56
868.142 -1846.85 -1582.25
867.367 -1845.69 -1583.3
