865.908 -1785.91 -1363.12
866.253 -1788.31 -1361.05
865.504 -1786.81 -1364.36
865.753 -1787.56 -1362.86
865.569 -1789.46 -1362.49
866.004 -1790.12 -1360.85
865.752 -1791.68 -1360.65
865.958 -1792.77 -1359.39
866.974 -1798.01 -1357.83
865.388 -1786.29 -1365.79
865.084 -1788.23 -1365.61
865.234 -1788.74 -1364.2
864.948 -1790.38 -1363.74
865.263 -1791.31 -1362.42
865.664 -1792.99 -1361.42
865.723 -1794.03 -1360.22
866.074 -1795.08 -1358.93
866.365 -1796.87 -1359.42
866.477 -1798.76 -1359.52
865.39 -1786.06 -1367.59
865.139 -1787.66 -1367.07
864.675 -1790.27 -1365.3
864.731 -1789.58 -1366.85
864.745 -1791.65 -1364.22
865.043 -1793.12 -1363.24
865.288 -1794.66 -1362.45
865.823 -1795.74 -1360.9
865.816 -1797.79 -1361.05
865.949 -1799.62 -1361.24
866.818 -1800.4 -1359.57
867.531 -1801.62 -1358.27
868.15 -1803.09 -1357.12
865.242 -1786.85 -1369
864.917 -1788.71 -1368.54
864.363 -1791.34 -1366.94
864.373 -1792.06 -1365.87
864.442 -1790.7 -1368.32
864.514 -1793.22 -1364.98
864.546 -1794.85 -1364.75
864.797 -1796.22 -1363.8
865.281 -1796.94 -1362.46
865.298 -1798.78 -1362.62
866.259 -1801.3 -1361.07
865.33 -1801 -1362.79
867.157 -1802.35 -1359.49
867.78 -1803.52 -1358.59
868.377 -1805.01 -1357.45
868.59 -1807 -1357.73
869.258 -1810.67 -1357.47
865.073 -1787.92 -1370.52
864.674 -1789.9 -1370.1
864.086 -1792.39 -1368.58
864.046 -1793.08 -1367.43
864.133 -1794.13 -1366.35
864.289 -1791.9 -1370.07
864.305 -1797.03 -1365.34
863.976 -1795.95 -1366.62
864.644 -1798.23 -1364.2
864.758 -1799.82 -1363.95
865.834 -1802.95 -1362.23
866.757 -1803.17 -1360.61
864.498 -1801.63 -1364.58
864.955 -1803.11 -1363.77
867.467 -1804.58 -1359.7
868.056 -1805.29 -1358.61
868.674 -1808.73 -1358.27
868.056 -1806.73 -1359.09
868.644 -1810.15 -1358.97
868.961 -1811.75 -1359.12
864.569 -1791.04 -1371.78
863.961 -1793.68 -1370.14
863.896 -1793.93 -1369.05
863.865 -1794.97 -1367.99
864.174 -1793 -1371.84
863.866 -1797.79 -1366.97
864.127 -1799.04 -1365.71
863.675 -1796.61 -1368.28
864.239 -1800.24 -1365.25
865.631 -1804.87 -1363.04
866.606 -1804.82 -1361.37
863.954 -1802.02 -1366.08
864.311 -1803.48 -1365.15
864.898 -1805.04 -1364.41
867.33 -1806.4 -1360.45
868.021 -1808.19 -1359.67
867.822 -1809.42 -1360.44
868.109 -1810.76 -1360.55
868.411 -1812.07 -1361.03
869.235 -1813.26 -1360.11
869.721 -1813.21 -1358.57
870.158 -1814.66 -1359.24
864.519 -1792.05 -1373.58
863.852 -1794.73 -1371.35
863.725 -1795.52 -1369.68
864.183 -1794.05 -1373.48
863.616 -1798.42 -1368.35
863.778 -1799.66 -1367.2
863.836 -1800.92 -1366.62
863.57 -1797.45 -1369.5
866.361 -1806.57 -1362.22
865.527 -1806.62 -1363.67
863.754 -1802.66 -1367.37
864.002 -1803.66 -1366.4
864.391 -1805.05 -1365.69
864.974 -1806.54 -1364.88
867.116 -1807.98 -1361.32
867.005 -1809.52 -1362.03
867.311 -1810.9 -1362.42
867.681 -1812.19 -1362.87
868.805 -1813.51 -1361.81
869.805 -1814.82 -1360.97
870.65 -1816.15 -1360.2
871.091 -1817.79 -1361.16
864.633 -1792.71 -1375.24
863.841 -1795.68 -1372.53
863.646 -1796.47 -1370.83
863.998 -1796.05 -1374.03
864.426 -1794.67 -1375.43
863.562 -1800.23 -1368.51
863.515 -1799.44 -1369.56
863.626 -1801.56 -1367.87
863.516 -1798.37 -1370.77
866.157 -1808.12 -1362.95
865.472 -1808.08 -1364.29
863.71 -1803.13 -1368.33
863.97 -1804.56 -1367.15
864.525 -1806.26 -1366.08
865.061 -1807.97 -1365.37
866.139 -1809.39 -1363.64
866.55 -1810.91 -1364.07
866.95 -1812.25 -1364.6
868.039 -1813.56 -1363.67
869.352 -1815.05 -1362.75
870.334 -1816.42 -1362
870.758 -1818.16 -1362.95
863.641 -1797.36 -1372.28
864.152 -1796.72 -1375.66
863.815 -1797.86 -1373.95
863.564 -1801.57 -1369.34
863.503 -1800.34 -1370.75
863.572 -1799.12 -1372.29
865.594 -1809.38 -1364.95
863.685 -1803.27 -1369.54
863.884 -1804.67 -1368.39
864.237 -1806.15 -1367.26
864.758 -1807.75 -1366.4
865.254 -1809.34 -1365.98
865.999 -1810.81 -1365.39
867.378 -1813.6 -1365.42
866.446 -1812.21 -1365.94
868.609 -1815.09 -1364.63
869.798 -1816.6 -1363.79
871.099 -1819.89 -1364.07
871.901 -1821.56 -1362.99
872.569 -1823.66 -1363.13
870.176 -1818.14 -1364.72
864.028 -1798.48 -1375.67
864.393 -1797.6 -1377.34
863.784 -1799.65 -1373.98
863.636 -1802.05 -1370.86
863.626 -1800.88 -1372.38
863.818 -1803.71 -1370.95
863.883 -1804.73 -1369.63
864.2 -1806.28 -1368.48
864.578 -1807.75 -1367.68
865.034 -1809.26 -1367.02
865.641 -1810.74 -1366.51
866.926 -1813.57 -1366.84
868.041 -1815.15 -1366.36
866.155 -1812.19 -1367.11
869.177 -1816.63 -1365.55
870.386 -1819.42 -1365.95
871.202 -1821.17 -1365.56
871.886 -1822.61 -1364.65
873.19 -1825.59 -1363.69
872.387 -1824.38 -1365.25
869.569 -1817.95 -1366.52
864.357 -1799.2 -1377.39
864.109 -1800.32 -1375.64
863.899 -1801.48 -1373.95
863.796 -1802.58 -1372.42
864.084 -1805.26 -1370.93
864.06 -1804.28 -1372.36
864.199 -1806.29 -1369.7
864.541 -1807.82 -1369.15
864.949 -1809.25 -1368.18
865.489 -1810.78 -1367.52
873.852 -1827.49 -1364.29
866.764 -1813.61 -1367.91
867.641 -1815.05 -1367.79
868.688 -1816.58 -1367.21
866.041 -1812.21 -1368.28
869.634 -1818.67 -1367.79
870.574 -1820.5 -1367.2
871.555 -1822.86 -1366.6
873.014 -1826.25 -1365.76
872.238 -1824.9 -1367.07
864.524 -1801.1 -1377.28
864.296 -1802.2 -1375.59
864.1 -1803.24 -1373.85
864.392 -1805.87 -1372.36
864.469 -1807.04 -1370.77
864.478 -1804.96 -1373.88
864.895 -1808.69 -1370.57
865.007 -1809.4 -1369.36
865.479 -1810.85 -1368.69
873.605 -1828.1 -1366.32
874.451 -1829.42 -1364.94
866.701 -1813.65 -1369.07
867.519 -1815.16 -1368.92
868.556 -1816.85 -1368.51
866.024 -1812.19 -1369.49
869.213 -1818.32 -1369.18
870.234 -1820.32 -1368.77
870.979 -1821.96 -1368.06
871.614 -1823.76 -1368.47
872.898 -1826.79 -1367.48
872.239 -1825.58 -1368.8
864.836 -1802.97 -1377.2
864.625 -1803.95 -1375.48
864.909 -1806.69 -1373.85
864.815 -1807.6 -1372.19
865.044 -1805.75 -1375.52
865.303 -1809.31 -1371.91
865.512 -1810.63 -1370.13
873.572 -1828.66 -1368.05
874.282 -1829.95 -1366.78
875.132 -1831.36 -1365.48
866.755 -1813.66 -1370.41
867.454 -1815.15 -1370.14
868.315 -1816.69 -1369.93
866.238 -1812.31 -1370.81
869.756 -1819.62 -1369.97
869.035 -1818.15 -1370.76
870.407 -1821.14 -1370.62
870.926 -1822.3 -1369.68
871.608 -1824.2 -1370.22
872.969 -1827.37 -1369.25
872.33 -1826.02 -1370.51
865.166 -1804.75 -1377.16
865.389 -1808.53 -1373.65
865.572 -1807.66 -1375.51
865.709 -1806.71 -1377.23
865.814 -1810.87 -1371.63
866.019 -1810.38 -1373.5
873.743 -1829.24 -1369.78
874.332 -1830.57 -1368.55
875.034 -1831.76 -1367.3
875.894 -1833.25 -1366.47
866.904 -1813.44 -1372.15
867.543 -1815.09 -1371.51
868.28 -1816.63 -1371.3
866.476 -1812.08 -1372.73
869.834 -1819.8 -1371.6
869.177 -1818.26 -1372.19
870.613 -1821.4 -1372.45
871.107 -1822.85 -1371.4
871.852 -1824.71 -1371.88
873.126 -1827.92 -1371.17
872.619 -1826.58 -1372.5
866.084 -1809.42 -1375.26
866.327 -1808.55 -1377.34
866.747 -1811.52 -1375.05
874.006 -1829.76 -1371.63
874.584 -1831.23 -1370.27
875.362 -1832.69 -1368.88
876.34 -1834.56 -1367.98
867.105 -1813.13 -1374.04
867.713 -1814.89 -1373.24
868.425 -1816.56 -1372.63
870.066 -1819.9 -1373.39
869.282 -1818.01 -1373.74
870.892 -1821.61 -1374.36
871.405 -1823.22 -1373.21
872.172 -1825.14 -1373.79
873.418 -1828.4 -1373.25
867.667 -1813.27 -1376.03
874.803 -1831.63 -1372.2
875.429 -1833.01 -1371.03
876.076 -1834.31 -1369.86
868.052 -1814.67 -1375.07
868.66 -1816.3 -1374.43
