877.871 -1773.34 -1232.96
877.499 -1771.02 -1237.95
877.398 -1772.51 -1236.6
877.569 -1772.87 -1234.84
877.566 -1775.33 -1232.28
877.372 -1774.93 -1234.12
877.787 -1783.37 -1225.16
877.532 -1784.88 -1224.52
877.148 -1772.88 -1238.59
877.111 -1774.59 -1235.81
876.991 -1774.34 -1237.44
877.295 -1777.3 -1231.44
877.03 -1776.99 -1233.47
877.151 -1779.14 -1230.58
876.816 -1776.48 -1235.26
877.479 -1781.58 -1227.89
876.835 -1789.52 -1222.65
877.057 -1787.91 -1223.44
877.31 -1783.44 -1227.03
876.947 -1785.33 -1226.32
877.027 -1786.54 -1224.77
876.932 -1773.12 -1240.71
876.853 -1774.67 -1239.14
876.717 -1776.24 -1237.26
876.748 -1778.83 -1232.56
876.505 -1778.73 -1234.6
876.631 -1780.83 -1231.68
876.932 -1781.2 -1229.91
876.437 -1777.88 -1236.24
876.875 -1783.07 -1229.04
876.332 -1789.36 -1224.62
876.052 -1791.07 -1223.86
876.662 -1791.39 -1222.04
876.481 -1787.77 -1225.71
876.654 -1793.27 -1221.27
876.588 -1784.86 -1228.17
876.227 -1786.91 -1227.44
876.35 -1795.07 -1221.18
876.62 -1796.54 -1220.24
876.851 -1797.96 -1219.83
876.685 -1775.22 -1240.77
876.585 -1776.59 -1239.07
876.243 -1778.4 -1237.79
876.402 -1780.4 -1233.46
876.115 -1779.77 -1236.34
875.932 -1780.98 -1234.91
876.344 -1782.75 -1231.04
876.063 -1782.31 -1233.03
876.134 -1784.61 -1230.07
875.499 -1790.79 -1225.81
875.724 -1789.18 -1226.8
875.876 -1792.78 -1223.3
875.351 -1792.66 -1225.02
875.791 -1794.35 -1222.76
875.782 -1786.52 -1229.37
875.399 -1788.46 -1228.57
875.435 -1795.78 -1223.19
875.97 -1796.52 -1221.85
876.115 -1798.2 -1221.6
876.772 -1799.39 -1220.17
876.554 -1776.15 -1242.53
876.429 -1777.12 -1240.92
876.313 -1778.29 -1239.43
875.892 -1780.55 -1237.95
876.009 -1779.98 -1239.46
875.546 -1781.76 -1236.43
875.613 -1782.93 -1234.89
875.826 -1784.29 -1231.96
875.531 -1784.06 -1233.61
875.41 -1786.19 -1231.23
874.953 -1790.63 -1227.96
874.849 -1792.18 -1226.92
875.106 -1794.37 -1224.46
874.663 -1793.9 -1226.13
874.992 -1788.12 -1230.41
874.694 -1789.86 -1229.63
876.95 -1801.07 -1220.33
874.851 -1796.25 -1224.74
875.268 -1797.21 -1223.44
875.334 -1798.7 -1223.27
876.15 -1800.09 -1221.86
876.245 -1778.08 -1242.72
876.143 -1779.05 -1241.09
875.625 -1781.78 -1239.37
875.338 -1782.62 -1237.88
875.85 -1780.88 -1240.96
875.249 -1783.79 -1236.21
875.092 -1785.1 -1234.74
875.171 -1785.93 -1233.1
874.754 -1787.71 -1232.34
874.283 -1791.83 -1228.84
874.422 -1793.49 -1227.83
874.53 -1795.42 -1225.92
874.183 -1795.27 -1227.45
874.328 -1789.43 -1231.47
874.109 -1790.85 -1230.49
877.356 -1803.09 -1220.6
876.511 -1802.07 -1221.93
874.662 -1797.69 -1224.94
874.334 -1796.86 -1226.43
874.688 -1799.22 -1224.98
875.34 -1800.03 -1223.61
875.677 -1801.54 -1223.52
875.449 -1782.62 -1240.91
875.142 -1783.55 -1239.22
874.997 -1784.53 -1237.53
875.95 -1781.88 -1242.76
874.763 -1785.75 -1235.94
874.682 -1787.21 -1234.4
874.166 -1789.12 -1233.19
873.954 -1793.28 -1229.54
873.846 -1792.29 -1230.79
874.041 -1794.69 -1228.99
873.998 -1796.26 -1228.14
873.792 -1790.97 -1232.12
876.97 -1804.1 -1222.01
877.86 -1805.23 -1220.57
876.035 -1803.4 -1223.57
874.271 -1798.4 -1226.2
874.003 -1797.79 -1227.57
874.479 -1800.08 -1226.24
874.882 -1800.84 -1225.08
875.306 -1802.54 -1224.87
875.714 -1783.72 -1242.47
875.309 -1784.38 -1240.53
874.805 -1785.37 -1239.1
874.546 -1786.31 -1237.35
874.406 -1787.53 -1235.96
874.117 -1788.97 -1234.74
873.707 -1790.58 -1233.7
873.736 -1794.04 -1230.94
873.534 -1792.88 -1231.99
873.766 -1795.52 -1230.1
873.721 -1797.21 -1229.25
873.47 -1792.28 -1233.38
876.569 -1805.32 -1223.55
877.46 -1806.12 -1222.09
875.708 -1804.42 -1224.95
874.173 -1799.44 -1227.4
873.89 -1798.88 -1229.14
874.759 -1801.96 -1226.08
874.435 -1801.3 -1227.38
875.023 -1803.6 -1226.37
875.295 -1785.48 -1242.28
874.992 -1786.11 -1240.42
874.51 -1787.14 -1238.87
874.287 -1788.15 -1237.38
874.038 -1789.33 -1236.19
873.688 -1790.34 -1235.01
873.428 -1791.84 -1234.79
873.373 -1794.11 -1232.87
873.433 -1795.55 -1232.15
873.562 -1796.77 -1231.06
873.66 -1798.31 -1231.08
873.29 -1793.65 -1234.26
877.216 -1807.29 -1223.48
877.87 -1808.74 -1222.85
876.208 -1806.24 -1225.07
875.493 -1805.62 -1226.37
874.129 -1800.78 -1229.08
873.876 -1800.12 -1230.93
874.679 -1803.11 -1227.59
874.475 -1802.7 -1229.11
874.961 -1804.97 -1227.76
875.559 -1786.76 -1243.98
875.186 -1787.32 -1242.22
874.705 -1788.07 -1240.44
874.362 -1789.15 -1239
873.943 -1790.19 -1237.67
873.63 -1791.05 -1236.23
873.265 -1792.99 -1236.04
873.366 -1795.5 -1234.06
873.44 -1797.14 -1232.9
873.548 -1799 -1232.98
873.193 -1794.69 -1235.75
878.254 -1810.97 -1223.52
876.799 -1807.95 -1225.09
877.556 -1809.49 -1224.43
875.999 -1807.54 -1226.7
875.427 -1806.88 -1227.81
874.165 -1802.23 -1230.73
873.926 -1801.34 -1232.48
874.706 -1804.55 -1229.08
874.503 -1804.4 -1230.83
875.064 -1806.52 -1228.92
875.065 -1789.2 -1243.64
874.819 -1789.09 -1241.85
874.329 -1790.19 -1240.47
873.851 -1791.2 -1239.04
873.566 -1792.11 -1237.54
873.304 -1793.93 -1237.54
873.191 -1796.26 -1235.99
873.315 -1797.43 -1234.67
873.441 -1799.33 -1235.13
873.751 -1800.73 -1234.1
873.276 -1795.46 -1237.59
877.635 -1811.02 -1225.58
878.285 -1812.61 -1224.83
876.829 -1809.37 -1226.4
875.938 -1808.92 -1228.25
875.396 -1808.15 -1229.1
874.142 -1803.47 -1232.5
873.921 -1802.73 -1234.3
874.823 -1806.22 -1230.22
874.35 -1805.44 -1232.83
874.602 -1806.55 -1231.86
874.981 -1807.93 -1230.65
874.679 -1791.26 -1243.96
874.434 -1790.85 -1242.14
874.02 -1792.05 -1240.74
873.562 -1793.11 -1239.17
873.412 -1794.82 -1239.25
873.27 -1797.25 -1237.94
873.409 -1798.28 -1236.54
873.636 -1801.51 -1235.8
873.488 -1800.29 -1236.99
873.289 -1796.52 -1239.35
877.674 -1812.53 -1226.88
876.857 -1810.85 -1227.65
878.368 -1814.18 -1226.13
875.424 -1809.43 -1230.3
876.115 -1810.78 -1229.49
874.063 -1804.77 -1234.49
873.73 -1803.54 -1236.16
874.315 -1807.06 -1233.75
874.064 -1806.32 -1235.12
874.724 -1808.03 -1232.43
874.966 -1809.58 -1232.09
879.024 -1815.94 -1225.69
874.533 -1793.38 -1244.45
874.253 -1792.72 -1242.55
873.74 -1793.83 -1240.97
873.47 -1795.53 -1240.89
873.338 -1798.28 -1239.7
873.302 -1799.2 -1238.37
873.526 -1802.31 -1237.55
873.456 -1801.1 -1238.76
873.462 -1797.33 -1241.04
876.921 -1812.47 -1228.95
877.729 -1814.08 -1228.15
878.478 -1815.65 -1227.57
875.428 -1811.05 -1231.3
876.191 -1812.42 -1230.93
873.815 -1805.43 -1236.49
873.638 -1804.3 -1237.95
874.652 -1809.04 -1233.85
874.285 -1808.21 -1235.23
874.095 -1807.24 -1236.49
874.972 -1810.79 -1234.04
875.227 -1811.11 -1232.84
874.786 -1794.93 -1245.8
874.047 -1794.5 -1242.61
874.235 -1795.4 -1244.08
873.828 -1796.34 -1242.53
873.428 -1800.1 -1240.06
873.582 -1799.03 -1241.44
873.58 -1803.03 -1239.19
873.579 -1801.9 -1240.41
873.814 -1797.98 -1242.94
877.101 -1814.09 -1230.11
878.042 -1815.85 -1229.48
878.785 -1817.49 -1228.9
875.766 -1812.65 -1232.78
876.616 -1814.22 -1232.12
873.849 -1806.12 -1237.97
873.746 -1804.88 -1239.38
874.671 -1810.18 -1235.28
874.354 -1809.18 -1236.68
874.252 -1808.06 -1237.99
875.415 -1812.49 -1234.02
875.116 -1812.21 -1235.58
879.168 -1819.3 -1229.54
874.298 -1797.02 -1244.8
873.637 -1800.77 -1241.7
873.896 -1799.86 -1243.14
873.741 -1803.8 -1240.74
873.819 -1802.54 -1242.19
874.212 -1798.89 -1244.5
877.542 -1815.73 -1231.26
878.459 -1817.78 -1230.76
876.065 -1814.29 -1233.97
876.799 -1815.69 -1233.42
874.037 -1806.82 -1239.41
874.007 -1805.66 -1240.78
874.878 -1811.05 -1236.92
874.509 -1809.91 -1238.36
874.44 -1808.72 -1239.62
875.589 -1813.58 -1235.33
875.117 -1812.74 -1237.59
875.372 -1813.84 -1236.78
878.914 -1819.91 -1231.33
879.12 -1821.99 -1232.57
874.111 -1801.54 -1243.62
874.525 -1800.4 -1245.4
874.058 -1804.46 -1242.3
874.255 -1803.33 -1243.83
877.682 -1817.03 -1232.45
878.139 -1818.66 -1232.72
875.899 -1815.32 -1235.67
876.559 -1816.48 -1234.93
877.303 -1817.72 -1234.21
874.331 -1807.55 -1241.03
874.425 -1806.31 -1242.51
874.976 -1811.74 -1238.81
874.867 -1810.53 -1240.1
874.789 -1809.27 -1241.52
875.54 -1813.62 -1239.2
875.609 -1814.59 -1238.21
875.945 -1815.83 -1237.1
878.523 -1820.39 -1233.08
879.64 -1823.94 -1232.59
878.949 -1823.33 -1234.36
878.38 -1821.48 -1234.47
874.649 -1802.47 -1245.42
874.523 -1805.18 -1243.95
874.845 -1804.34 -1245.63
877.799 -1819.5 -1234.5
876.574 -1817.21 -1236.4
877.191 -1818.51 -1235.81
874.812 -1807.85 -1243.2
874.937 -1806.54 -1245.05
875.307 -1812.42 -1240.51
875.278 -1811.15 -1241.99
875.197 -1809.77 -1243.44
875.852 -1814.35 -1241.02
875.935 -1815.44 -1239.87
876.11 -1816.42 -1238.72
876.625 -1817.71 -1237.88
879.642 -1825.11 -1234.11
878.446 -1822.49 -1235.93
879.147 -1824.62 -1236.04
877.777 -1820.49 -1235.97
875.302 -1805.51 -1247.04
877.227 -1819.28 -1237.34
875.213 -1808.39 -1245.04
875.435 -1807.36 -1246.96
875.767 -1813.13 -1242.37
875.639 -1811.76 -1243.86
875.552 -1810.35 -1245.25
876.2 -1816.26 -1241.8
876.14 -1815.08 -1243.01
876.41 -1817.27 -1240.57
876.738 -1818.23 -1239.24
877.264 -1819.93 -1238.91
879.805 -1826.31 -1235.31
877.892 -1821.42 -1237.55
878.582 -1823.51 -1237.28
879.147 -1825.35 -1238.07
879.715 -1826.74 -1236.85
880.494 -1828.16 -1235.39
875.704 -1809.16 -1246.88
876.025 -1813.71 -1244.37
875.981 -1812.35 -1245.77
876.014 -1811.06 -1247
876.538 -1816.91 -1243.77
876.702 -1818.14 -1242.36
876.38 -1815.49 -1245.06
876.99 -1819.14 -1240.83
877.509 -1820.94 -1240.97
877.837 -1821.72 -1239.42
878.379 -1823.29 -1238.8
878.77 -1824.64 -1239.94
879.354 -1826.42 -1240.02
879.82 -1827.58 -1238.53
880.513 -1828.85 -1237.11
876.758 -1817.39 -1245.6
877.015 -1819 -1244.19
877.195 -1819.99 -1242.54
877.705 -1821.99 -1242.64
878.176 -1823.07 -1241.06
878.821 -1825.26 -1241.77
879.403 -1827.12 -1241.94
879.917 -1828.41 -1240.42
880.569 -1829.63 -1238.9
877.139 -1819.04 -1246.38
877.41 -1820.3 -1245.56
877.521 -1820.99 -1244.09
877.946 -1822.88 -1244.46
878.362 -1823.92 -1242.97
878.957 -1826.1 -1243.73
879.509 -1828.01 -1243.64
879.931 -1829.17 -1242.38
880.518 -1830.35 -1240.85
881.135 -1831.65 -1239.36
877.598 -1820.74 -1247.36
877.841 -1822.15 -1246.06
878.327 -1824.17 -1246.51
878.524 -1824.59 -1244.8
878.922 -1826.18 -1245.81
879.426 -1827.98 -1245.28
879.951 -1829.85 -1244.48
880.47 -1830.98 -1242.77
881.121 -1832.32 -1241.29
878.871 -1826.02 -1247.57
879.39 -1827.89 -1247.1
879.868 -1829.75 -1246.37
880.402 -1831.62 -1246.09
880.502 -1831.65 -1244.43
881.051 -1832.98 -1243.11
881.769 -1834.24 -1241.71
879.821 -1829.31 -1248.49
880.206 -1830.96 -1248
880.676 -1832.51 -1247.64
881.089 -1833.37 -1245.01
881.201 -1833.79 -1246.62
881.679 -1834.8 -1243.64
881.788 -1835.2 -1245.41
881.935 -1835.46 -1247.39
882.376 -1836.66 -1244.22
882.549 -1837 -1246.11
883.054 -1838.62 -1244.9
