962.519 -1643.37 -1504.78
955.306 -1644.44 -1502.72
953.152 -1645.22 -1502.09
951.318 -1645.86 -1501.43
949.481 -1646.17 -1501.15
947.879 -1646.57 -1500.94
946.034 -1646.89 -1500.96
945.278 -1648.1 -1500.23
943.95 -1648.44 -1500.22
959.629 -1643.07 -1504.31
958.018 -1642.7 -1504.51
956.845 -1643.39 -1503.66
961.014 -1642.57 -1505.29
964.011 -1642.04 -1507.18
962.465 -1642.41 -1505.92
965.541 -1642.26 -1507.89
955.174 -1643 -1504.18
953.59 -1643.94 -1503.39
951.659 -1644.42 -1502.79
949.926 -1644.71 -1502.45
948.191 -1645.15 -1502.1
946.583 -1645.47 -1501.94
944.872 -1645.86 -1501.83
944.449 -1647.1 -1501.06
942.9 -1647.24 -1501.3
942.422 -1648.61 -1500.61
941.122 -1649.6 -1500.38
958.928 -1641.9 -1505.45
957.468 -1641.23 -1505.79
956.494 -1642.03 -1504.97
961.261 -1641.34 -1506.74
959.995 -1641.33 -1506.26
967.697 -1641.83 -1510.03
966.196 -1641.5 -1509.43
962.879 -1640.48 -1508.38
964.556 -1640.98 -1508.82
962.439 -1641.27 -1507.25
954.928 -1641.37 -1505.73
953.518 -1642.45 -1504.79
952.04 -1643.24 -1504.03
950.346 -1643.21 -1503.93
948.568 -1643.74 -1503.31
946.996 -1644.21 -1502.89
945.483 -1644.61 -1502.64
943.942 -1644.86 -1502.59
943.547 -1646.08 -1501.9
941.712 -1646.43 -1502.06
940.994 -1648.07 -1501.31
939.459 -1649.2 -1501.14
937.868 -1649.93 -1501.18
958.527 -1640.43 -1506.74
957.341 -1639.96 -1506.96
956.179 -1640.72 -1506.18
961.168 -1640.18 -1507.91
959.887 -1640.23 -1507.3
972.01 -1641.34 -1513.01
970.069 -1641.2 -1512.45
968.385 -1641.09 -1511.65
966.806 -1640.76 -1511.02
965.057 -1640.25 -1510.16
963.468 -1639.9 -1509.48
961.657 -1639.59 -1508.92
954.325 -1640.32 -1506.7
953.174 -1641.18 -1505.96
951.711 -1642 -1505.12
950.124 -1641.71 -1505.22
948.848 -1642.44 -1504.54
947.493 -1643.08 -1503.79
945.962 -1643.44 -1503.46
944.608 -1643.65 -1503.29
942.503 -1645.36 -1502.5
943.257 -1644.26 -1502.99
940.571 -1645.82 -1502.55
940.265 -1647.15 -1502.02
938.943 -1648.01 -1501.85
937.602 -1648.66 -1502
936.374 -1649.11 -1502.12
935.344 -1650.07 -1502.15
974.737 -1641.28 -1515.25
976.155 -1641.48 -1516.7
973.402 -1641.22 -1514.01
958.702 -1639.55 -1507.7
957.493 -1639.16 -1507.87
956.61 -1639.21 -1507.69
956.052 -1639.91 -1506.9
959.933 -1639.45 -1508.23
971.764 -1640.49 -1514.59
970.152 -1640.47 -1513.83
968.559 -1640.39 -1513.15
967.322 -1640.12 -1512.41
965.601 -1639.75 -1511.63
964.021 -1639.47 -1510.57
962.346 -1639.3 -1509.84
960.824 -1639.08 -1509.14
955.005 -1639.64 -1507.43
953.479 -1639.79 -1507.54
952.658 -1640.24 -1506.91
951.479 -1640.87 -1506.2
950.081 -1640.55 -1506.31
948.795 -1641.13 -1505.57
947.634 -1641.89 -1504.73
946.467 -1642.54 -1504.12
945.03 -1642.63 -1504
943.74 -1643.21 -1503.47
941.697 -1644.87 -1502.91
942.415 -1643.83 -1503.25
940.186 -1644.76 -1503.08
939.248 -1645.39 -1502.95
939.048 -1646.62 -1502.46
937.634 -1647.32 -1502.59
936.372 -1647.82 -1502.94
935.351 -1648.83 -1502.86
934.32 -1649.75 -1503.06
974.588 -1640.57 -1517.21
973.065 -1640.51 -1515.85
976.272 -1640.69 -1518.65
979.641 -1641.4 -1520.39
958.47 -1638.86 -1508.61
957.109 -1638.71 -1508.56
955.839 -1638.96 -1508.14
959.405 -1638.99 -1508.67
971.301 -1639.92 -1516.2
969.882 -1639.91 -1515.13
968.301 -1639.68 -1514.36
966.879 -1639.67 -1513.19
965.111 -1639.14 -1512.27
963.394 -1639.01 -1511.11
961.974 -1638.87 -1510.27
960.356 -1638.7 -1509.6
933.178 -1651 -1503.28
954.038 -1639.36 -1508.09
952.749 -1639.38 -1508.21
952.004 -1639.67 -1507.37
950.916 -1640.11 -1506.78
948.962 -1640.01 -1506.54
949.67 -1639.65 -1507.03
947.821 -1640.54 -1505.71
946.874 -1640.88 -1505.22
946.186 -1641.79 -1504.61
944.898 -1641.42 -1504.46
943.762 -1641.74 -1504.13
942.946 -1642.64 -1503.68
941.093 -1643.98 -1503.29
941.718 -1642.94 -1503.56
939.875 -1643.51 -1503.47
938.979 -1643.92 -1503.41
938.082 -1644.8 -1503.42
937.779 -1646 -1503.11
936.677 -1646.5 -1503.3
935.213 -1647.87 -1503.56
935.493 -1646.77 -1503.87
934.22 -1648.62 -1503.8
933.072 -1649.91 -1504.07
972.833 -1639.88 -1517.53
974.303 -1639.97 -1518.9
977.473 -1640.53 -1520.37
975.707 -1639.92 -1520.13
980.121 -1641.19 -1521.91
978.472 -1640.51 -1521.68
957.848 -1638.44 -1509.05
956.582 -1638.51 -1508.94
954.74 -1638.93 -1508.59
958.821 -1638.63 -1509.07
970.965 -1639.51 -1517.57
969.198 -1639.46 -1516.15
967.333 -1639.09 -1514.93
966.576 -1639.27 -1513.6
965.285 -1638.79 -1513.59
964.252 -1638.91 -1512.25
962.576 -1638.53 -1511.89
961.444 -1638.48 -1510.82
959.915 -1638.47 -1510.11
931.733 -1651.08 -1504.42
953.294 -1639.06 -1508.87
952.062 -1638.9 -1508.95
951.394 -1639.33 -1508.06
950.394 -1639.51 -1507.31
948.559 -1638.81 -1507.29
947.476 -1639.15 -1506.48
949.142 -1638.59 -1507.78
946.61 -1639.65 -1505.79
945.646 -1639.88 -1505.49
945.819 -1640.85 -1505.02
943.484 -1640.18 -1504.51
944.589 -1640.04 -1505.02
942.46 -1640.4 -1504.26
942.275 -1641.72 -1503.95
940.814 -1642.84 -1503.59
940.981 -1641.59 -1503.8
938.735 -1642.09 -1503.72
939.881 -1641.74 -1503.76
938.023 -1643.46 -1503.6
937.762 -1641.91 -1503.8
936.93 -1645.24 -1503.65
937.229 -1644 -1503.72
935.926 -1645.61 -1503.88
934.399 -1647.42 -1504.38
934.661 -1646.29 -1504.62
933.045 -1648.73 -1504.78
933.36 -1647.66 -1505.08
931.688 -1649.74 -1505.32
981.269 -1641.45 -1523.23
972.46 -1639.44 -1519.03
973.894 -1639.39 -1520.36
976.744 -1639.87 -1521.6
975.157 -1639.43 -1521.39
979.283 -1640.59 -1523.3
977.572 -1639.93 -1522.86
957.276 -1638.36 -1509.22
955.459 -1638.57 -1509.22
953.84 -1638.78 -1509.42
958.313 -1638.29 -1509.69
970.854 -1639.06 -1519.5
969.386 -1639.05 -1518.07
967.922 -1638.96 -1516.79
966.64 -1638.86 -1515.66
965.027 -1638.49 -1514.68
963.961 -1638.68 -1513.01
960.88 -1638.24 -1511.65
962.374 -1638.41 -1512.83
959.432 -1638.26 -1510.6
930.326 -1650.96 -1505.7
952.67 -1638.72 -1509.69
950.829 -1638.58 -1508.9
951.492 -1638.46 -1509.68
950.072 -1638.8 -1508.15
947.871 -1638.15 -1507.61
947.006 -1638.39 -1506.89
945.583 -1638.41 -1506.1
948.191 -1637.73 -1508.3
949.456 -1637.99 -1508.88
945.313 -1639.08 -1505.68
944.151 -1638.76 -1505.28
943.21 -1638.74 -1504.89
942.273 -1638.62 -1504.76
941.36 -1638.94 -1504.42
941.068 -1640.25 -1504.01
940.099 -1640.26 -1503.97
939.08 -1640.55 -1503.92
937.974 -1640.54 -1503.96
936.917 -1642.1 -1503.92
937.041 -1640.6 -1504.04
936.262 -1644.53 -1503.93
936.227 -1642.78 -1504.1
935.076 -1645.03 -1504.48
933.631 -1646.58 -1505.21
933.871 -1645.27 -1505.28
931.769 -1648.21 -1506.14
932.372 -1646.93 -1506.26
930.298 -1649.7 -1506.53
980.161 -1640.74 -1524.85
972.482 -1639 -1520.84
973.926 -1638.93 -1522.24
975.71 -1639.33 -1522.75
978.329 -1640.03 -1524.59
976.63 -1639.38 -1524.13
955.827 -1638.28 -1509.9
957.124 -1638.19 -1509.95
954.368 -1638.5 -1510.13
953.333 -1638.51 -1510.4
958.244 -1637.98 -1510.8
968.968 -1638.6 -1520.02
970.454 -1638.52 -1521.43
967.803 -1638.63 -1518.5
966.532 -1638.62 -1517.11
964.827 -1638.36 -1515.87
963.815 -1638.37 -1514.34
960.957 -1638.24 -1512.64
959.762 -1638.26 -1511.29
962.236 -1638.22 -1514.06
928.873 -1650.94 -1506.89
927.681 -1651.89 -1507.69
952.289 -1638.33 -1510.57
950.363 -1638.02 -1509.63
951.099 -1638.04 -1510.44
946.555 -1637.1 -1507.81
945.874 -1637.33 -1507.11
945.238 -1637.6 -1506.44
944.177 -1637.89 -1505.74
944.078 -1637.25 -1506.08
948.021 -1637.15 -1508.96
946.704 -1636.7 -1508.39
949.292 -1637.37 -1509.77
942.916 -1637.98 -1505.07
941.843 -1638.04 -1504.8
940.876 -1638.28 -1504.46
940.261 -1638.78 -1504.2
939.398 -1639.37 -1504.09
938.447 -1639.65 -1504.03
937.307 -1639.6 -1504.14
936.294 -1640.86 -1504.17
935.567 -1641.28 -1504.28
936.394 -1639.78 -1504.31
935.455 -1643.56 -1504.34
934.88 -1642.01 -1504.59
934.512 -1643.79 -1504.83
932.777 -1645.48 -1505.99
933.051 -1643.76 -1505.85
930.787 -1647.06 -1507.37
930.115 -1648.37 -1507.15
931.544 -1645.72 -1507.14
928.786 -1649.52 -1507.89
980.855 -1640.91 -1526.73
982.655 -1641.61 -1527.45
979.052 -1640.22 -1526.35
972.054 -1638.53 -1522.58
973.211 -1638.56 -1523.84
974.795 -1638.91 -1523.91
977.206 -1639.46 -1525.91
975.56 -1639 -1525.56
955.144 -1638.13 -1510.8
956.683 -1638.05 -1510.92
953.919 -1638.3 -1510.97
953.111 -1638.19 -1511.44
957.82 -1637.97 -1511.87
959.564 -1638.19 -1512.09
968.678 -1638.18 -1521.79
967.432 -1638.26 -1520.27
970.118 -1638.11 -1523
966.326 -1638.32 -1518.67
964.816 -1638.21 -1517.19
963.532 -1638.17 -1515.46
960.848 -1638.18 -1513.58
962.119 -1638.03 -1515.11
927.26 -1650.42 -1508.54
926.197 -1651.7 -1508.88
952.004 -1637.91 -1511.39
950.225 -1637.5 -1510.66
950.887 -1637.56 -1511.23
945.335 -1636.17 -1508.02
944.944 -1636.56 -1507.15
944.169 -1636.74 -1506.49
942.894 -1637.42 -1505.33
943.095 -1637.04 -1505.74
947.682 -1636.53 -1509.54
946.107 -1636 -1508.86
948.858 -1636.72 -1510.62
942.01 -1637.57 -1504.94
940.434 -1638.14 -1504.42
940.984 -1637.74 -1504.69
939.696 -1638.33 -1504.27
938.774 -1638.55 -1504.21
937.867 -1638.82 -1504.16
936.864 -1639.07 -1504.4
935.515 -1640.09 -1504.48
934.77 -1640.66 -1504.66
936.032 -1639.23 -1504.54
933.858 -1642.32 -1505.25
934.134 -1641.15 -1505.05
931.868 -1643.75 -1506.74
932.705 -1642.02 -1506.07
929.86 -1646 -1508.29
929.073 -1647.68 -1508.27
930.766 -1644.33 -1507.75
927.827 -1648.47 -1509.11
981.463 -1641.04 -1528.68
979.777 -1640.38 -1528.2
983.466 -1641.78 -1529.42
977.828 -1639.73 -1527.54
971.463 -1638.18 -1524.14
973.895 -1638.55 -1525.49
972.395 -1638.28 -1525.3
976.025 -1639.14 -1527.43
974.341 -1638.66 -1527.31
954.504 -1638.06 -1511.54
955.752 -1638.06 -1511.95
953.601 -1638.09 -1511.9
952.721 -1637.9 -1512.43
959.25 -1638.13 -1513.15
956.495 -1638.07 -1512.98
957.963 -1638.09 -1513.62
968.483 -1637.88 -1523.54
967.217 -1638 -1521.95
965.898 -1638.09 -1520.37
970.063 -1637.9 -1524.55
964.714 -1638.09 -1518.64
963.501 -1638.08 -1516.82
960.613 -1638.12 -1514.7
962.091 -1638.06 -1516.46
926.628 -1649.02 -1509.84
925.631 -1650.44 -1509.87
951.567 -1637.5 -1512.2
950.08 -1637.04 -1511.49
950.419 -1637.02 -1512.03
944.853 -1635.74 -1508.3
944.218 -1636.13 -1507.32
943.876 -1636.37 -1506.78
943.253 -1636.7 -1506.11
941.784 -1637.19 -1505.13
942.116 -1636.82 -1505.49
947.432 -1635.98 -1510.35
946.23 -1635.61 -1509.67
945.283 -1635.49 -1509.24
947.672 -1635.75 -1511.39
949.13 -1636.47 -1511.83
939.992 -1637.64 -1504.57
939.391 -1637.97 -1504.42
940.556 -1637.3 -1504.83
938.474 -1638.14 -1504.4
937.392 -1638.43 -1504.37
936.342 -1638.63 -1504.69
935.247 -1639.45 -1504.71
934.569 -1639.95 -1504.91
933.865 -1640.34 -1505.28
935.399 -1638.75 -1504.78
933.281 -1640.93 -1505.64
931.611 -1642.43 -1506.99
932.395 -1640.98 -1506.33
929.528 -1644.59 -1508.84
928.525 -1646.36 -1509.27
930.558 -1643.04 -1507.98
927.365 -1646.98 -1510.01
985.526 -1642.72 -1529.32
981.776 -1641.08 -1530.39
979.896 -1640.39 -1530.38
978.547 -1639.94 -1529.11
984.823 -1642.18 -1531.08
983.152 -1641.46 -1531.45
976.734 -1639.39 -1529.21
971.028 -1637.99 -1526.03
972.748 -1638.35 -1526.89
974.912 -1638.88 -1529.18
973.191 -1638.52 -1529.02
954.514 -1638.03 -1512.58
953.577 -1637.93 -1513.14
952.295 -1637.56 -1513.4
958.909 -1638.18 -1514.71
955.382 -1638.09 -1513.76
956.838 -1638.27 -1514.84
966.814 -1637.83 -1523.43
967.849 -1637.77 -1524.97
969.393 -1637.85 -1525.37
965.524 -1637.91 -1521.89
964.356 -1637.97 -1520.18
963.312 -1638.01 -1518.35
960.712 -1638.22 -1516.18
961.997 -1638.06 -1517.93
924.536 -1650.84 -1510.79
926.449 -1647.6 -1510.48
925.495 -1648.93 -1510.7
951.05 -1637.04 -1513.2
949.637 -1636.42 -1512.95
944.262 -1635.46 -1508.46
943.663 -1635.91 -1507.45
943.326 -1636.33 -1506.59
942.014 -1636.47 -1505.85
941.192 -1636.87 -1505.33
946.312 -1635.25 -1510.66
945.709 -1635.19 -1510.15
944.66 -1635.13 -1509.62
948.066 -1635.69 -1512.44
946.773 -1635.16 -1511.95
939.638 -1637.06 -1504.8
939.107 -1637.56 -1504.65
939.996 -1636.73 -1504.89
938.093 -1637.9 -1504.55
936.867 -1638.18 -1504.64
935.78 -1638.35 -1504.98
934.556 -1639.18 -1505.08
933.8 -1639.78 -1505.41
933.037 -1640.24 -1505.85
934.774 -1638.54 -1505.24
931.454 -1641.46 -1507.16
932.227 -1640.13 -1506.5
929.401 -1643.44 -1509.08
928.35 -1645.09 -1509.73
930.481 -1642.02 -1508.07
927.334 -1645.89 -1510.36
923.428 -1651.08 -1512.23
921.429 -1651.7 -1515.49
920.574 -1652.44 -1516.83
922.276 -1651.07 -1514.27
988.674 -1644.06 -1530.57
990.768 -1644.53 -1532.94
989.39 -1644.12 -1532.14
986.739 -1643.15 -1530.87
981.155 -1640.77 -1532.01
979.295 -1640.23 -1532.38
978.093 -1639.79 -1530.89
986.135 -1642.52 -1532.7
984.426 -1641.76 -1532.95
982.648 -1641.18 -1533.23
976.101 -1639.26 -1530.99
971.535 -1638.17 -1527.88
970.052 -1637.92 -1526.88
974.255 -1638.84 -1530.98
972.589 -1638.59 -1531.33
971.5 -1638.35 -1529.77
954.331 -1638 -1513.89
953.295 -1637.75 -1514.28
951.703 -1637.16 -1514.29
959.249 -1638.35 -1516.44
957.875 -1638.39 -1515.86
955.339 -1638.21 -1515.22
956.717 -1638.44 -1516.32
966.319 -1637.77 -1524.96
965.22 -1637.86 -1523.35
967.115 -1637.79 -1526.46
968.644 -1637.86 -1527.1
964.151 -1637.91 -1521.57
963.053 -1638.03 -1519.82
960.703 -1638.29 -1517.76
961.782 -1638.19 -1519.49
924.477 -1649.78 -1511.56
926.368 -1646.85 -1511.01
925.367 -1647.85 -1511.42
950.26 -1636.47 -1514.11
948.484 -1635.7 -1513.58
943.65 -1635.21 -1508.8
943.104 -1635.66 -1507.71
942.742 -1636.09 -1506.73
941.48 -1636.25 -1506.19
940.945 -1636.55 -1505.47
945.828 -1634.89 -1511.27
945.061 -1634.87 -1510.59
944.02 -1634.96 -1510.09
947.124 -1635.08 -1513.17
946.219 -1634.78 -1512.48
939.294 -1636.74 -1505.03
938.795 -1637.32 -1504.83
939.769 -1636.39 -1505.33
937.579 -1637.68 -1504.67
936.408 -1637.97 -1505
935.421 -1638.07 -1505.31
933.815 -1639.26 -1505.51
933.012 -1639.85 -1505.92
934.563 -1638.2 -1505.61
933.783 -1638.84 -1505.66
931.309 -1640.7 -1507.33
932.429 -1639.63 -1506.49
931.816 -1639.64 -1506.98
929.384 -1642.56 -1509.23
928.182 -1644.04 -1510.11
930.347 -1641.23 -1508.31
927.211 -1645.02 -1510.78
923.238 -1650.12 -1513.14
924.33 -1648.91 -1512.24
919.692 -1652.84 -1518.96
918.82 -1654.51 -1519.14
921.449 -1650.89 -1516.42
922.441 -1650.05 -1515.14
920.555 -1651.57 -1518.02
923.125 -1649.64 -1513.91
917.531 -1655.83 -1521.08
916.661 -1657.27 -1521.38
915.756 -1658.35 -1521.71
918.674 -1654.02 -1520.53
991.577 -1644.53 -1534.5
987.811 -1643.27 -1532.55
989.372 -1643.66 -1534.15
980.659 -1640.63 -1533.86
978.767 -1640.13 -1534.29
977.411 -1639.67 -1532.68
987.582 -1642.8 -1534.36
985.836 -1642.15 -1534.42
984.036 -1641.5 -1534.71
982.063 -1640.99 -1535.2
975.432 -1639.24 -1532.81
969.945 -1638.07 -1528.51
973.587 -1638.92 -1533.13
971.708 -1638.66 -1533.46
970.632 -1638.45 -1531.83
969.625 -1638.22 -1530.34
954.288 -1638.08 -1515.22
953.038 -1637.69 -1515.23
950.322 -1636.53 -1514.89
951.681 -1637.16 -1515.21
959.178 -1638.54 -1518.14
957.872 -1638.62 -1517.46
956.911 -1638.71 -1517.76
954.706 -1638.28 -1516.37
955.629 -1638.38 -1516.66
956.019 -1638.7 -1518.07
965.593 -1637.89 -1526.91
965.026 -1637.89 -1524.94
963.942 -1637.92 -1522.93
967.005 -1637.93 -1528.28
968.367 -1638.01 -1529.29
962.721 -1638.08 -1521.35
960.338 -1638.47 -1519.33
961.211 -1638.37 -1520.93
926.328 -1646.13 -1511.5
925.34 -1647.05 -1512.03
948.715 -1635.69 -1514.65
947.395 -1635.06 -1514.37
943.096 -1635.15 -1509.3
942.586 -1635.53 -1508.09
942.021 -1635.81 -1506.91
940.909 -1636.14 -1506.4
940.685 -1636.28 -1505.57
945.228 -1634.67 -1511.87
944.476 -1634.78 -1511.05
943.37 -1634.88 -1510.68
946.284 -1634.68 -1513.91
945.26 -1634.52 -1513.28
938.883 -1636.63 -1505.15
938.357 -1637.19 -1505.01
939.44 -1636.21 -1505.88
937.08 -1637.49 -1504.92
935.947 -1637.75 -1505.41
934.837 -1637.85 -1505.9
932.945 -1639.4 -1506.12
933.779 -1638.38 -1506.04
932.987 -1638.87 -1506.43
931.112 -1640.01 -1507.81
932.348 -1639.22 -1506.8
931.809 -1639.18 -1507.37
929.318 -1641.76 -1509.49
928.152 -1643.18 -1510.35
930.242 -1640.5 -1508.89
927.153 -1644.2 -1511.09
924.163 -1648.41 -1512.89
919.712 -1652.22 -1519.94
922.41 -1649.56 -1515.9
921.506 -1650.37 -1517.27
923.227 -1648.73 -1514.79
923.597 -1648.58 -1513.87
920.648 -1651.1 -1518.94
917.97 -1654.6 -1522.07
916.917 -1656.2 -1522.71
915.991 -1657.44 -1523.22
914.766 -1658.77 -1523.55
919.005 -1652.98 -1521.56
992.706 -1644.78 -1535.92
990.759 -1643.87 -1535.76
989.053 -1643.17 -1535.91
980.261 -1640.53 -1535.75
978.015 -1639.99 -1536.11
976.822 -1639.66 -1534.45
987.329 -1642.52 -1535.95
985.495 -1641.95 -1535.97
983.369 -1641.32 -1536.49
981.516 -1640.83 -1537.34
974.864 -1639.3 -1534.85
972.952 -1638.99 -1535.21
971.188 -1638.81 -1535.32
969.952 -1638.58 -1533.54
968.523 -1638.33 -1531.8
997.047 -1646.44 -1538.78
995.148 -1645.5 -1538.42
993.723 -1644.97 -1537.43
953.815 -1638.11 -1516.17
952.308 -1637.46 -1516.21
950.597 -1636.7 -1516.09
948.883 -1635.82 -1515.84
958.728 -1638.86 -1519.83
957.78 -1638.89 -1518.94
956.835 -1639.05 -1519.43
956.152 -1639.1 -1519.76
953.741 -1638.24 -1517.58
954.801 -1638.51 -1517.94
955.116 -1638.94 -1519.63
965.533 -1638.1 -1529.16
964.326 -1638.14 -1528.24
964.274 -1638.03 -1526.26
963.754 -1637.98 -1524.27
962.3 -1638.2 -1522.86
967.085 -1638.14 -1530.44
959.612 -1638.78 -1521.06
960.651 -1638.59 -1522.36
926.43 -1645.21 -1511.79
925.639 -1646.14 -1512.44
924.615 -1647.27 -1513.07
947.514 -1635.11 -1515.88
946.461 -1634.72 -1515.39
942.435 -1635.08 -1510.06
942.057 -1635.41 -1508.57
941.419 -1635.73 -1507.35
940.229 -1636.14 -1506.76
939.918 -1636.26 -1506.1
944.621 -1634.56 -1512.63
943.892 -1634.66 -1511.91
942.634 -1634.73 -1511.78
945.358 -1634.37 -1514.81
944.586 -1634.29 -1514.33
938.517 -1636.58 -1505.59
937.932 -1637.06 -1505.33
938.744 -1636.44 -1506.13
936.789 -1637.26 -1505.29
935.756 -1637.52 -1505.88
933.809 -1637.97 -1506.5
934.721 -1637.64 -1506.41
932.986 -1638.36 -1506.83
932.328 -1638.8 -1507.18
931.238 -1639.28 -1508.24
931.815 -1638.81 -1507.91
929.245 -1641.2 -1509.96
928.211 -1642.47 -1510.56
930.91 -1639.23 -1508.89
929.977 -1640.1 -1509.69
927.194 -1643.57 -1511.37
919.954 -1651.6 -1520.84
922.646 -1648.96 -1516.46
923.737 -1647.78 -1515.18
921.647 -1649.91 -1518.06
924.309 -1647.3 -1514
920.822 -1650.68 -1519.8
918.294 -1653.68 -1523.17
917.313 -1655.11 -1523.6
916.362 -1656.32 -1524.56
915.199 -1657.82 -1524.85
914.114 -1659.04 -1525.4
919.315 -1652.21 -1522.6
991.952 -1644.09 -1537.41
990.276 -1643.42 -1537.62
988.563 -1642.76 -1537.68
979.344 -1640.36 -1537.48
977.475 -1640.01 -1538.05
976.199 -1639.63 -1536.44
986.698 -1642.24 -1537.57
984.807 -1641.72 -1537.58
983.362 -1641.33 -1538.64
974.301 -1639.41 -1536.92
972.496 -1639.21 -1537.14
969.459 -1638.74 -1535.48
970.735 -1639.07 -1537.16
968.12 -1638.54 -1533.86
966.975 -1638.44 -1532.48
1001.36 -1648.09 -1542.06
999.367 -1647.3 -1541.48
997.612 -1646.41 -1540.87
996.01 -1645.51 -1540.23
994.491 -1644.82 -1540.51
993.199 -1644.53 -1539.13
952.415 -1637.62 -1517.32
950.978 -1636.9 -1516.94
949.369 -1636.14 -1516.92
947.717 -1635.23 -1516.91
958.095 -1639.27 -1521.64
957.246 -1639.27 -1520.74
956.389 -1639.47 -1521.46
955.327 -1639.4 -1521.37
953.977 -1638.66 -1519.33
952.725 -1638.21 -1518.94
954.143 -1639.2 -1521.1
965.485 -1638.33 -1531.29
964.209 -1638.37 -1530.34
963.151 -1638.29 -1527.27
963.079 -1638.48 -1529.31
962.889 -1638.19 -1525.13
961.517 -1638.49 -1524.1
958.798 -1639.27 -1522.73
959.809 -1639.09 -1523.72
926.338 -1644.66 -1512.22
925.39 -1645.99 -1513.06
946.487 -1634.7 -1516.81
945.4 -1634.35 -1516.36
941.699 -1635.07 -1510.85
941.454 -1635.37 -1509.01
940.791 -1635.77 -1507.92
939.674 -1636.05 -1507.09
938.957 -1636.43 -1506.54
944.012 -1634.34 -1513.76
943.16 -1634.44 -1513.15
942.058 -1634.41 -1513.73
941.43 -1634.8 -1512.51
944.44 -1634.19 -1515.81
943.547 -1634.13 -1515.4
937.702 -1636.81 -1505.7
937.668 -1636.63 -1506.35
936.654 -1637.01 -1505.86
935.742 -1637.34 -1506.58
933.023 -1638.06 -1507.41
933.8 -1637.69 -1507.13
934.841 -1637.43 -1507.08
932.386 -1638.48 -1507.69
931.934 -1638.44 -1508.4
931.376 -1638.67 -1508.79
929.126 -1640.79 -1510.52
928.284 -1642 -1510.89
930.575 -1639.11 -1509.69
929.762 -1639.72 -1510.53
927.253 -1643.08 -1511.7
920.192 -1651.15 -1521.73
923.76 -1647.56 -1516.1
922.704 -1648.64 -1517.39
924.772 -1646.38 -1514.87
925.038 -1646.24 -1513.99
921.828 -1649.55 -1519.07
921.012 -1650.31 -1520.81
918.513 -1653.19 -1524.33
917.483 -1654.64 -1524.94
916.609 -1655.68 -1526.23
915.476 -1657.15 -1526.15
914.348 -1658.42 -1527.22
913.071 -1659.99 -1527.11
919.602 -1651.74 -1523.59
991.525 -1643.8 -1539.19
989.66 -1643.09 -1539.45
987.613 -1642.44 -1539.29
978.744 -1640.33 -1539.6
975.687 -1639.79 -1538.46
977.026 -1640.13 -1540
985.533 -1641.89 -1539.24
984.071 -1641.61 -1540.71
973.823 -1639.62 -1538.91
971.922 -1639.47 -1539.1
967.537 -1638.82 -1535.84
968.747 -1639.02 -1537.36
969.995 -1639.32 -1538.93
966.273 -1638.71 -1534.54
965.212 -1638.56 -1533.25
1002.03 -1648.06 -1543.79
1000.08 -1647.13 -1543.36
998.154 -1646.24 -1542.72
996.315 -1645.39 -1542.08
994.643 -1644.76 -1542.02
992.946 -1644.17 -1541.03
951.327 -1637.51 -1518.49
949.826 -1636.6 -1518.15
948.274 -1635.7 -1518.11
946.726 -1634.91 -1518
957.05 -1639.67 -1522.64
957.611 -1639.73 -1523.67
956.307 -1639.92 -1523.41
955.3 -1639.82 -1523.06
954.09 -1639.68 -1522.78
952.864 -1638.68 -1520.69
951.513 -1638.04 -1520.21
952.86 -1639.24 -1522.53
963.828 -1638.53 -1532.48
962.887 -1638.63 -1531.41
961.943 -1638.69 -1528.31
961.771 -1638.55 -1526.17
961.76 -1638.85 -1530.34
960.095 -1639.14 -1525.42
958.478 -1639.7 -1524.84
926.929 -1643.33 -1512.28
926.019 -1644.8 -1512.96
945.502 -1634.46 -1517.81
944.411 -1634.23 -1517.23
940.236 -1635.36 -1511.25
940.853 -1635.41 -1509.62
939.826 -1635.85 -1508.1
938.563 -1636.33 -1507.13
937.646 -1636.56 -1506.89
942.727 -1634.17 -1514.82
940.748 -1634.5 -1514.32
941.404 -1634.19 -1515.27
939.975 -1634.98 -1513.11
943.416 -1634.12 -1516.61
942.029 -1634.1 -1516.14
936.466 -1636.89 -1506.87
933.105 -1637.78 -1508.09
932.492 -1638.13 -1508.26
933.873 -1637.46 -1507.8
935.364 -1637.19 -1507.56
931.936 -1638.15 -1509.23
931.244 -1638.47 -1509.53
928.937 -1640.6 -1511.16
928.203 -1641.79 -1511.4
930.452 -1638.86 -1510.63
929.654 -1639.52 -1511.22
912.05 -1661.06 -1528.58
920.515 -1650.73 -1522.8
923.857 -1647.38 -1517.11
924.77 -1646.37 -1515.72
922.9 -1648.38 -1518.44
925.545 -1645.19 -1514.51
925.785 -1644.98 -1513.7
922.116 -1649.19 -1520.11
921.354 -1649.92 -1521.94
919.133 -1652.47 -1525.29
917.825 -1654.14 -1526.25
916.799 -1655.48 -1527.76
915.553 -1656.91 -1527.72
914.461 -1658.04 -1529.17
913.245 -1659.45 -1529.01
920.145 -1651.16 -1524.68
911.186 -1661.73 -1529.94
909.876 -1663.16 -1529.46
991.212 -1643.56 -1540.71
990.141 -1643.18 -1541.79
988.539 -1642.74 -1540.99
986.325 -1642.11 -1540.91
985.299 -1641.87 -1542.56
971.004 -1639.73 -1540.83
966.705 -1639.19 -1537.69
965.386 -1639 -1536.17
967.945 -1639.36 -1539.17
969.122 -1639.64 -1540.61
963.923 -1638.75 -1534.67
1003.2 -1648.19 -1545.4
1000.94 -1647.1 -1545.22
998.866 -1646.14 -1544.53
1005.69 -1649 -1546.88
1006.91 -1649.61 -1547.97
1004.06 -1648.1 -1547.18
997.26 -1645.53 -1543.85
995.679 -1644.98 -1543.51
993.7 -1644.37 -1543.19
992.111 -1643.85 -1542.41
950.095 -1637.22 -1519.7
948.596 -1636.21 -1519.4
947.159 -1635.29 -1519.07
945.684 -1634.81 -1519.21
956.552 -1640.17 -1524.88
957.276 -1640.05 -1525.49
955.176 -1640.2 -1524.8
953.818 -1640.01 -1524.36
952.902 -1639.87 -1524.17
951.646 -1638.67 -1522.06
950.234 -1637.86 -1521.48
951.635 -1639.37 -1524.05
962.75 -1638.78 -1533.57
961.567 -1638.91 -1532.42
960.573 -1639.25 -1529.32
960.438 -1639.16 -1527.29
960.358 -1639.37 -1531.24
958.675 -1639.83 -1526.62
957.197 -1640.3 -1526.92
926.806 -1643.39 -1512.94
927.903 -1641.85 -1512.05
944.454 -1634.44 -1518.6
943.296 -1634.18 -1517.92
938.393 -1635.8 -1511.49
939.335 -1635.89 -1509.49
938.402 -1636.24 -1508.12
937.381 -1636.5 -1507.7
936.482 -1636.72 -1507.76
939.208 -1634.75 -1514.72
939.956 -1634.38 -1515.75
940.782 -1634.18 -1516.49
938.28 -1635.34 -1513.26
942.322 -1634.12 -1517.25
941.345 -1634.13 -1517.41
933.235 -1637.44 -1509.09
932.568 -1637.79 -1509.11
934.21 -1637.19 -1508.51
935.454 -1636.92 -1508.78
931.931 -1637.89 -1510.05
931.243 -1638.28 -1510.32
928.828 -1640.55 -1511.84
930.109 -1638.91 -1511.58
930.679 -1638.42 -1511.39
929.553 -1639.45 -1512.05
912.375 -1660.33 -1530.55
921.052 -1650.22 -1523.97
924.777 -1646.39 -1516.62
924.061 -1647.22 -1518.17
925.52 -1645.33 -1515.37
923.366 -1648.02 -1519.55
926.626 -1643.67 -1513.72
926.394 -1644.1 -1514.64
922.544 -1648.86 -1521.18
922.014 -1649.39 -1523.17
918.757 -1653.1 -1526.85
919.838 -1651.82 -1526.43
917.939 -1654.19 -1528.08
917.064 -1655.29 -1529.51
915.805 -1656.64 -1529.37
914.771 -1657.67 -1530.97
913.514 -1659.01 -1530.92
920.832 -1650.68 -1525.86
911.335 -1660.94 -1531.88
910.081 -1662.3 -1531.4
908.802 -1663.74 -1530.88
907.415 -1665.22 -1530.73
990.983 -1643.45 -1543.58
988.949 -1642.89 -1543.52
987.378 -1642.43 -1542.44
986.786 -1642.28 -1544.2
969.475 -1639.95 -1542.37
966.08 -1639.55 -1539.82
964.808 -1639.34 -1538.24
963.592 -1639.13 -1536.69
967.385 -1639.73 -1541.21
962.363 -1638.98 -1535.33
1002.35 -1647.39 -1546.76
1001.07 -1646.62 -1547.49
999.837 -1646.28 -1546.07
998.11 -1645.72 -1545.62
1011.85 -1651.58 -1552.18
1008.65 -1650.7 -1548.37
1005.42 -1648.5 -1548.64
1006.39 -1648.87 -1550.35
1007.6 -1649.76 -1549.6
1003.95 -1647.59 -1548.77
1002.73 -1646.99 -1548.4
996.518 -1645.2 -1545.2
994.705 -1644.67 -1544.82
992.619 -1644.01 -1544.69
948.915 -1636.82 -1520.69
947.398 -1635.85 -1520.5
946.283 -1635.15 -1519.93
945.292 -1635.02 -1520.75
944.351 -1634.58 -1519.92
956.087 -1640.53 -1526.84
955.225 -1640.58 -1526.49
954.025 -1640.41 -1526.08
952.964 -1640.32 -1525.83
951.959 -1640.09 -1525.67
950.495 -1638.57 -1523.18
948.925 -1637.59 -1522.51
950.161 -1638.87 -1524.71
950.735 -1639.52 -1525.73
961.26 -1639.07 -1534.24
960.281 -1639.34 -1533.25
959.081 -1639.8 -1528.36
958.694 -1640.02 -1530.14
958.873 -1639.92 -1532.29
957.563 -1640.34 -1528.41
956.253 -1640.68 -1528.52
927.779 -1641.81 -1512.67
943.246 -1634.3 -1519.2
942.148 -1634.16 -1518.5
937.743 -1636.19 -1509.71
936.528 -1636.23 -1511.05
936.593 -1635.73 -1513.01
936.629 -1636.51 -1509.11
937.625 -1635.06 -1514.71
938.523 -1634.6 -1515.88
939.401 -1634.33 -1517
940.242 -1634.18 -1517.85
941.005 -1634.16 -1518.63
933.983 -1637.01 -1509.72
933.168 -1637.14 -1510.45
932.552 -1637.5 -1510.08
935.273 -1636.66 -1510.17
931.235 -1638.01 -1511.2
931.838 -1637.63 -1511.05
928.719 -1640.59 -1512.57
930.203 -1638.73 -1512.55
930.839 -1638.12 -1512.27
929.473 -1639.53 -1513.07
912.598 -1659.78 -1532.31
921.862 -1649.71 -1525.11
925.021 -1646.32 -1517.62
925.559 -1645.42 -1516.26
924.575 -1646.98 -1519.02
926.309 -1644.32 -1515.59
923.901 -1647.8 -1520.61
927.46 -1642.54 -1514.13
927.746 -1641.98 -1513.41
927.329 -1642.94 -1515.02
923.132 -1648.54 -1522.22
923.071 -1648.73 -1523.88
919.262 -1652.83 -1528.17
920.399 -1651.56 -1527.76
918.481 -1653.93 -1529.69
917.529 -1655.06 -1531.08
916.177 -1656.37 -1531.04
915.303 -1657.26 -1532.55
913.897 -1658.6 -1532.53
921.573 -1650.41 -1527.14
911.163 -1660.63 -1533.7
909.927 -1661.72 -1533.32
908.807 -1662.97 -1532.95
907.71 -1664.39 -1532.4
906.393 -1665.74 -1532.63
904.976 -1667 -1532.95
903.8 -1667.85 -1533.71
990.325 -1643.33 -1545.26
988.282 -1642.77 -1545.54
967.737 -1640.14 -1543.03
965.686 -1640.09 -1542.16
964.357 -1639.86 -1540.37
963.187 -1639.6 -1538.74
962.223 -1639.4 -1537.21
960.981 -1639.34 -1535.86
1000.43 -1646.23 -1548.76
1002.04 -1646.59 -1549.38
999.188 -1645.93 -1547.23
997.43 -1645.49 -1546.9
1013.98 -1651.97 -1554.98
1012.36 -1651.35 -1554.11
1010.02 -1650.66 -1551.81
1010.6 -1650.56 -1553.42
1009.24 -1650.55 -1550.12
1004.96 -1647.87 -1550
1008.19 -1649.61 -1551.18
1007.1 -1648.86 -1552.15
1005.67 -1648.16 -1551.43
1003.64 -1647.18 -1550.14
995.635 -1644.98 -1546.68
993.88 -1644.51 -1546.45
991.811 -1643.89 -1546.57
947.56 -1636.45 -1521.99
946.311 -1635.54 -1521.38
945.134 -1635.44 -1522.09
944.102 -1634.92 -1521.34
943.2 -1634.5 -1520.56
955.236 -1640.9 -1528.64
954.285 -1640.79 -1527.98
953.275 -1640.69 -1527.58
952.002 -1640.51 -1527.23
950.317 -1639.94 -1527.29
949.144 -1638.13 -1523.85
947.685 -1637.29 -1523.54
949.316 -1639.29 -1526.35
948.142 -1638.32 -1525.17
959.918 -1639.57 -1535.1
958.584 -1640.1 -1534.19
957.543 -1640.48 -1531.43
956.885 -1640.64 -1530.03
957.131 -1640.73 -1533.17
955.589 -1640.99 -1530.31
942.278 -1634.34 -1519.92
941.48 -1634.25 -1519.47
935.058 -1636.3 -1511.92
935.169 -1635.85 -1513.54
936.154 -1635.31 -1514.82
937.139 -1634.85 -1516.07
938.106 -1634.5 -1517.11
938.965 -1634.3 -1518.27
939.794 -1634.28 -1519.19
940.543 -1634.32 -1519.95
934.047 -1636.68 -1511.26
933.248 -1636.81 -1511.85
932.407 -1637.19 -1511.6
931.443 -1637.63 -1512.07
928.6 -1640.88 -1513.54
930.122 -1638.82 -1513.7
930.782 -1638.16 -1513.36
931.333 -1637.61 -1513.1
929.308 -1639.92 -1514.07
913.331 -1658.97 -1534.09
912.225 -1659.74 -1534.05
922.803 -1649.17 -1525.8
925.756 -1646.09 -1518.91
925.961 -1645.45 -1517.51
926.553 -1644.49 -1516.7
924.989 -1646.98 -1520.16
927.495 -1643.27 -1516.32
924.26 -1647.8 -1521.82
928.409 -1641.4 -1514.67
928.571 -1641.77 -1515.97
924.463 -1647.94 -1523.22
923.947 -1648.43 -1525.09
919.716 -1652.71 -1529.62
920.994 -1651.45 -1529.29
918.929 -1653.81 -1531.24
917.919 -1654.98 -1532.81
916.638 -1656.06 -1532.62
915.809 -1656.89 -1534.07
914.598 -1657.97 -1534.07
922.649 -1649.65 -1527.41
922.157 -1650.39 -1529.03
910.987 -1660.41 -1535.44
909.667 -1661.43 -1534.99
908.481 -1662.57 -1534.73
907.275 -1664.1 -1534.3
905.776 -1665.71 -1534.44
904.548 -1666.78 -1534.97
902.661 -1668.51 -1534.39
903.447 -1667.5 -1535.67
901.587 -1668.98 -1535.08
968.161 -1640.51 -1544.92
966.379 -1640.48 -1544.33
964.763 -1640.63 -1544.06
963.854 -1640.34 -1542.21
962.564 -1640.11 -1540.68
961.493 -1639.9 -1539.14
960.774 -1639.7 -1537.58
959.654 -1639.85 -1536.84
1001.19 -1646.43 -1550.29
999.27 -1645.93 -1549.78
998.694 -1645.79 -1548.28
1002.86 -1646.88 -1550.97
997.22 -1645.45 -1548.72
1015.64 -1652.61 -1556.21
1014.06 -1651.51 -1556.86
1012.45 -1650.73 -1556.01
1010.96 -1650.32 -1555.06
1008.81 -1649.72 -1552.84
1009.43 -1649.64 -1554.33
1007.66 -1648.89 -1553.83
1006.11 -1648.32 -1553.05
1004.53 -1647.58 -1551.68
995.344 -1644.96 -1548.07
993.134 -1644.42 -1548.16
946.341 -1636.26 -1522.88
943.928 -1635.35 -1522.65
945.133 -1636.18 -1523.52
943.012 -1634.86 -1521.89
942.128 -1634.55 -1521.22
954.244 -1641.1 -1529.71
954.694 -1641.18 -1530.95
953.13 -1641.11 -1529.71
952.306 -1640.87 -1528.8
950.912 -1640.5 -1528.76
949.462 -1640.05 -1528.75
948.47 -1639.66 -1528.01
946.49 -1637.2 -1524.47
947.848 -1639.03 -1526.8
946.539 -1638.07 -1526.05
958.522 -1640.23 -1535.94
956.863 -1640.99 -1534.93
956.272 -1640.96 -1531.89
955.815 -1641.29 -1533.76
955.165 -1641.28 -1532.44
941.28 -1634.43 -1520.68
934.016 -1636.32 -1512.97
934.642 -1635.69 -1514.76
935.79 -1635.14 -1516.06
936.812 -1634.81 -1517.25
937.666 -1634.53 -1518.37
938.489 -1634.48 -1519.58
939.402 -1634.46 -1520.45
940.351 -1634.53 -1521.16
932.959 -1636.68 -1512.97
932.044 -1637.1 -1512.77
930.16 -1638.98 -1514.97
930.944 -1638.1 -1514.72
931.677 -1637.33 -1514.68
931.981 -1636.95 -1514.07
929.255 -1640.36 -1515.13
914.023 -1658.48 -1535.72
912.432 -1659.45 -1535.79
923.755 -1648.85 -1526.94
926.737 -1645.62 -1519.91
926.709 -1645.17 -1518.73
926.1 -1646.37 -1520.56
926.985 -1644.57 -1517.87
927.808 -1643.53 -1517.68
925.33 -1647.17 -1521.65
928.788 -1642.13 -1517.32
929.595 -1640.65 -1516.64
925.202 -1647.82 -1524.5
925.894 -1647.22 -1523.01
924.977 -1648.16 -1526.26
920.349 -1652.45 -1531.3
921.674 -1651.26 -1530.91
919.268 -1653.84 -1533.02
918.269 -1654.91 -1534.64
916.946 -1655.98 -1534.44
915.559 -1657.22 -1535.9
923.454 -1649.38 -1528.78
923.031 -1650.09 -1530.53
910.935 -1660.34 -1537.05
909.577 -1661.28 -1536.61
908.365 -1662.3 -1536.31
907.292 -1663.4 -1536.19
906.221 -1664.67 -1535.95
905.023 -1665.76 -1536.51
904.042 -1666.48 -1537.09
902.391 -1667.91 -1536.45
903.064 -1666.89 -1538.03
900.415 -1669.33 -1535.67
901.341 -1668.35 -1536.93
967.445 -1640.89 -1546.52
965.676 -1640.98 -1546.08
963.949 -1641.2 -1545.98
963.077 -1640.86 -1544.02
961.879 -1640.65 -1542.4
960.899 -1640.44 -1540.82
959.754 -1640.27 -1538.88
958.365 -1640.59 -1537.71
1001.68 -1646.57 -1552.09
1000.02 -1646.17 -1551.43
997.96 -1645.71 -1550.77
1003.34 -1647.16 -1552.73
996.01 -1645.28 -1550.19
1017.03 -1653.07 -1557.88
1015.44 -1652.03 -1558.2
1012.8 -1650.55 -1557.68
1014.09 -1651.14 -1558.83
1011.23 -1650.04 -1556.74
1009.67 -1649.49 -1555.8
1007.99 -1648.95 -1555.42
1006.42 -1648.33 -1554.74
1005.11 -1647.81 -1553.66
994.26 -1644.88 -1549.64
944.083 -1636.01 -1523.9
943.003 -1635.28 -1523.03
945.284 -1636.95 -1524.9
942.044 -1634.86 -1522.41
941.161 -1634.67 -1521.86
953.447 -1641.37 -1531.34
953.971 -1641.55 -1532.7
952.204 -1641.34 -1531.59
951.701 -1641.04 -1530.4
950.262 -1640.59 -1530.43
948.743 -1640.02 -1529.84
946.836 -1639.19 -1527.84
947.46 -1639.6 -1529.03
945.351 -1637.87 -1526.54
956.824 -1641.21 -1536.68
955.579 -1641.57 -1535.58
954.599 -1641.68 -1534.22
933.797 -1636.12 -1514.26
934.522 -1635.55 -1515.81
935.648 -1635.11 -1517.06
936.471 -1634.86 -1518.27
937.154 -1634.78 -1519.57
938.186 -1634.73 -1520.76
939.338 -1634.7 -1521.5
940.35 -1634.8 -1522.22
932.827 -1636.52 -1514.1
931.105 -1638.15 -1515.98
930.294 -1639.3 -1516.21
931.932 -1637.29 -1515.88
932.727 -1636.62 -1515.9
932.786 -1636.49 -1515.12
914.525 -1658.19 -1537.43
913.006 -1659.12 -1537.19
924.699 -1648.6 -1528.24
927.798 -1644.73 -1520.06
927.697 -1645.55 -1521.38
927.938 -1644.08 -1518.99
926.739 -1646.5 -1522.05
928.882 -1642.87 -1518.87
929.812 -1641.26 -1518.32
930.614 -1639.67 -1517.6
926.623 -1647.23 -1524.33
926.491 -1647.56 -1525.84
927.485 -1646.67 -1523.7
926.117 -1647.97 -1527.66
921.684 -1651.7 -1532.84
920.449 -1652.85 -1533.29
922.922 -1650.69 -1532.41
919.662 -1653.85 -1534.91
917.184 -1656.05 -1536.33
916.128 -1657.04 -1537.77
924.48 -1649.13 -1530.15
924.139 -1649.73 -1531.94
911.809 -1659.88 -1538.23
909.465 -1661.32 -1538.3
910.427 -1660.74 -1539.29
908.257 -1662.27 -1537.91
907.1 -1663.29 -1537.83
905.912 -1664.54 -1537.62
904.734 -1665.54 -1538.32
903.681 -1666.16 -1539.3
902.079 -1667.43 -1538.2
902.4 -1666.75 -1539.8
898.903 -1669.63 -1536.39
900.051 -1668.63 -1537.72
901.089 -1667.71 -1538.94
964.682 -1641.55 -1547.81
962.329 -1641.44 -1545.87
962.653 -1641.91 -1547.85
961.263 -1641.21 -1544.14
960.039 -1641.15 -1542.69
959.526 -1640.78 -1540.71
958.354 -1641 -1539.5
956.77 -1641.54 -1538.46
1000.33 -1646.41 -1553.43
1002.04 -1646.83 -1554
998.458 -1645.94 -1552.81
1003.83 -1647.43 -1554.49
1018.31 -1653.5 -1559.59
1016.67 -1652.54 -1559.73
1015.25 -1651.56 -1560.2
1012.9 -1650.32 -1559.64
1011.53 -1649.86 -1558.61
1014.19 -1650.91 -1560.83
1010.03 -1649.39 -1557.49
1008.53 -1649.02 -1557.08
1006.72 -1648.42 -1556.4
1005.01 -1647.91 -1555.82
944.255 -1636.8 -1525.29
943.109 -1635.92 -1524.33
942.072 -1635.31 -1523.5
941.055 -1635 -1523
952.745 -1641.66 -1532.99
953.379 -1641.93 -1534.42
951.36 -1641.54 -1533.03
950.823 -1641.07 -1532
949.261 -1640.65 -1531.64
947.794 -1640.31 -1530.88
946.065 -1639.41 -1528.69
945.336 -1638.65 -1527.83
946.365 -1640.01 -1530.11
944.313 -1637.78 -1526.78
955.486 -1641.88 -1537.34
954.18 -1642.08 -1536.02
933.646 -1636 -1515.31
934.504 -1635.5 -1516.69
935.431 -1635.19 -1517.92
936.132 -1635.03 -1519.11
936.893 -1635.03 -1520.5
938.196 -1634.98 -1521.77
939.442 -1634.99 -1522.56
940.359 -1635.24 -1523.4
931.345 -1638.34 -1517.13
932.121 -1637.39 -1517.02
932.931 -1636.6 -1517.01
933.661 -1636.06 -1517.19
933.692 -1635.97 -1516.27
925.77 -1648.45 -1529.66
928.741 -1644.48 -1521.39
929.077 -1643.59 -1520.35
928.259 -1645.93 -1523.05
929.022 -1645.03 -1522.69
930.054 -1641.99 -1519.99
930.889 -1640.17 -1519.11
931.727 -1638.64 -1518.55
928.176 -1646.94 -1525.6
927.896 -1647.42 -1527.24
928.937 -1646.2 -1524.79
927.397 -1647.8 -1529.07
921.226 -1652.53 -1534.8
922.657 -1651.4 -1534.33
924.004 -1650.41 -1533.93
920.4 -1653.58 -1536.4
925.488 -1648.96 -1531.61
925.159 -1649.54 -1533.32
911.929 -1659.97 -1540.12
909.171 -1661.65 -1540.6
908.23 -1662.29 -1539.73
907.01 -1663.29 -1539.46
905.788 -1664.43 -1539.18
904.731 -1665.24 -1540.15
903.511 -1665.96 -1541.03
902.283 -1666.53 -1541.49
901.063 -1667.23 -1540.57
898.355 -1669.05 -1538.31
897.585 -1669.95 -1536.85
896.458 -1670.35 -1536.93
899.372 -1668.09 -1539.62
963.874 -1642.12 -1549.42
960.812 -1641.92 -1546.28
962.464 -1642.63 -1550.22
960.884 -1642.43 -1548.24
959.691 -1641.83 -1544.86
958.492 -1641.92 -1543.66
958.472 -1641.47 -1541.71
957.018 -1641.78 -1540.45
955.322 -1642.37 -1539.34
1000.89 -1646.66 -1555.46
1002.84 -1647.17 -1555.87
1019.4 -1653.82 -1561.1
1017.81 -1652.84 -1561.43
1016.43 -1652.07 -1561.52
1015.47 -1651.37 -1562.14
1012.86 -1650.13 -1561.59
1011.52 -1649.69 -1560.4
1010.11 -1649.28 -1559.12
1014.39 -1650.75 -1562.68
1007.16 -1648.48 -1558.09
1008.58 -1648.85 -1559.14
1005.44 -1647.99 -1557.84
1003.73 -1647.49 -1557.47
943.144 -1636.76 -1525.85
942.159 -1636.05 -1524.85
941.121 -1635.7 -1524.17
951.99 -1642.05 -1534.47
952.669 -1642.37 -1535.87
950.605 -1642.12 -1534.67
949.845 -1641.32 -1533.19
948.172 -1641.11 -1532.78
946.729 -1640.81 -1531.86
944.934 -1639.74 -1529.64
944.722 -1638.92 -1528.16
945.211 -1640.49 -1531.1
943.528 -1638.01 -1527.28
954.057 -1642.5 -1537.89
952.935 -1642.7 -1537.33
934.413 -1635.6 -1517.61
935.263 -1635.31 -1518.68
935.91 -1635.29 -1519.99
936.902 -1635.23 -1521.2
938.383 -1635.41 -1522.98
937.276 -1635.45 -1522.15
939.635 -1635.48 -1523.65
940.36 -1636.06 -1524.69
932.226 -1637.64 -1518.21
932.924 -1636.79 -1518.21
933.669 -1636.22 -1518.4
934.33 -1635.75 -1518.49
927.025 -1648.22 -1531.04
929.8 -1643.77 -1521.99
930.242 -1644.34 -1523.52
930.403 -1642.6 -1521.44
929.741 -1645.38 -1524.33
931.296 -1640.88 -1520.85
931.974 -1639.31 -1519.97
932.763 -1638.19 -1520.06
929.834 -1646.25 -1526.14
929.451 -1646.89 -1527.39
929.209 -1647.3 -1528.88
930.782 -1645.38 -1525.65
928.828 -1647.64 -1530.58
922.088 -1652.24 -1536.16
923.734 -1651.12 -1535.8
925.231 -1650.1 -1535.43
921.309 -1653.24 -1537.73
926.867 -1648.62 -1532.87
926.487 -1649.16 -1534.46
907.833 -1662.69 -1541.98
906.996 -1663.25 -1541.14
905.808 -1664.24 -1540.92
904.77 -1665.04 -1542.06
903.449 -1665.71 -1542.74
900.958 -1666.91 -1542.32
902.26 -1666.3 -1543.27
899.465 -1667.64 -1541.28
897.576 -1668.7 -1539.71
897.039 -1669.52 -1538.43
896.058 -1669.91 -1538.49
895.502 -1670.51 -1538.26
897.963 -1668.12 -1540.8
959.337 -1642.55 -1547.03
961.349 -1643.4 -1551.87
960.7 -1643 -1550.03
959.242 -1643.1 -1548.97
958.139 -1642.58 -1545.69
956.807 -1642.75 -1544.28
957.017 -1642.31 -1542.51
955.628 -1642.68 -1541.26
953.63 -1643 -1539.51
954.128 -1643.27 -1541.24
1022.19 -1654.84 -1562.25
1020.44 -1653.97 -1562.64
1018.78 -1652.98 -1562.89
1017.12 -1652.03 -1563.15
1015.77 -1651.31 -1563.81
1011.22 -1649.48 -1562.36
1012.87 -1650.08 -1563.54
1009.8 -1649.08 -1560.77
1014.44 -1650.82 -1564.56
1006.51 -1648.21 -1559.75
1007.97 -1648.53 -1560.96
942.389 -1637.01 -1526.35
941.29 -1636.47 -1525.48
951.174 -1642.54 -1535.9
951.607 -1642.89 -1537.3
949.602 -1642.59 -1535.87
948.828 -1641.86 -1534.35
946.976 -1641.72 -1533.75
945.621 -1641.29 -1532.62
943.777 -1640.11 -1530.54
943.7 -1639.2 -1528.78
944.066 -1641.06 -1531.87
942.529 -1638.37 -1527.86
952.295 -1643.26 -1538.9
935.107 -1635.55 -1519.44
936.105 -1635.54 -1521.07
935.299 -1635.77 -1520.44
937.44 -1635.95 -1523.53
938.795 -1635.82 -1523.95
936.414 -1635.94 -1522.36
939.709 -1636.31 -1524.91
940.272 -1637.05 -1526.03
933.044 -1637.2 -1519.38
933.906 -1636.49 -1519.72
934.485 -1635.99 -1519.67
928.417 -1648.04 -1532.62
931.037 -1643.2 -1523.11
931.154 -1644.64 -1525.16
931.619 -1643.69 -1524.63
931.686 -1641.72 -1522.43
932.568 -1639.62 -1521.39
933.843 -1637.07 -1520.69
933.404 -1638.27 -1521.31
931.096 -1646 -1527.54
930.625 -1646.81 -1528.89
930.615 -1647.12 -1530.35
931.96 -1645.03 -1526.88
930.384 -1647.38 -1531.93
923.104 -1652.02 -1537.57
924.73 -1650.99 -1537.38
926.039 -1650.17 -1537.19
927.11 -1649.26 -1536.08
928.076 -1648.49 -1534.56
906.083 -1663.94 -1542.8
904.588 -1664.98 -1543.82
901.04 -1666.75 -1544.06
899.371 -1667.46 -1542.88
897.641 -1668.07 -1542.13
896.841 -1668.54 -1540.98
896.494 -1669.13 -1539.96
895.668 -1669.57 -1539.98
895.06 -1670.24 -1539.99
894.388 -1671.38 -1540.07
957.762 -1643.28 -1547.84
961.738 -1643.92 -1553.91
959.976 -1644.18 -1553.05
959.46 -1643.68 -1551.11
958.026 -1643.87 -1550.08
956.531 -1643.29 -1546.19
955.073 -1643.33 -1543.1
955.258 -1643.65 -1545.02
952.67 -1643.7 -1540.84
953.294 -1644 -1542.7
1023.01 -1654.45 -1565.31
1021.8 -1654.21 -1564.01
1020.13 -1653.21 -1564.4
1018.55 -1652.37 -1564.56
1017.11 -1651.89 -1564.8
1016.13 -1651.34 -1565.59
1011.36 -1649.62 -1564.37
1009.37 -1648.89 -1562.49
1009.68 -1648.96 -1564.19
1012.84 -1650.11 -1565.61
1014.49 -1650.79 -1566.35
941.418 -1637.47 -1526.88
950.096 -1643.06 -1537.28
950.818 -1643.52 -1538.78
947.684 -1642.46 -1535.33
948.291 -1643.11 -1536.94
944.652 -1641.88 -1533.46
945.668 -1642.45 -1534.85
942.563 -1639.47 -1529.5
942.701 -1640.6 -1531.08
943.102 -1641.73 -1532.6
941.446 -1638.77 -1528.47
951.223 -1643.94 -1540.36
935.535 -1636.08 -1521.51
934.675 -1636.32 -1520.86
938.018 -1636.38 -1524.38
936.816 -1636.47 -1523.73
939.027 -1636.47 -1524.94
935.981 -1636.65 -1522.91
939.329 -1637.54 -1526.35
940.266 -1638.11 -1527.37
929.876 -1647.79 -1533.92
932.337 -1642.12 -1523.94
932.264 -1644.19 -1526.28
932.862 -1642.62 -1525.41
932.772 -1640.65 -1522.92
933.534 -1639.33 -1522.67
934.258 -1637.26 -1521.48
934.404 -1638.02 -1522.52
932.451 -1645.56 -1528.64
931.907 -1646.32 -1529.33
931.885 -1646.67 -1530.55
931.933 -1646.9 -1531.98
932.971 -1644.62 -1528.09
931.576 -1647.25 -1533.51
924.396 -1651.77 -1539.08
926.264 -1650.7 -1539.1
927.601 -1649.62 -1538.03
928.553 -1648.78 -1536.71
929.464 -1648.2 -1535.62
901.263 -1666.59 -1545.82
899.508 -1667.36 -1544.95
898.025 -1667.9 -1543.89
896.783 -1668.34 -1543.69
896.425 -1668.53 -1542.22
895.878 -1669 -1541.24
895.302 -1669.44 -1541.31
894.647 -1670.23 -1541.45
893.89 -1671.22 -1541.88
956.56 -1644.21 -1549.37
955.951 -1643.86 -1547.55
960.272 -1644.78 -1555.19
958.757 -1644.9 -1553.92
958.188 -1644.46 -1552.06
956.479 -1645 -1551.57
953.59 -1644.34 -1544.4
954.226 -1644.5 -1546.37
951.618 -1644.48 -1542.21
951.909 -1644.94 -1543.9
1024.12 -1654.92 -1566.63
1022.64 -1653.86 -1566.91
1021.33 -1653.47 -1565.75
1019.71 -1652.59 -1565.97
1018.01 -1651.93 -1566.18
1016.32 -1651.23 -1567.41
1012.77 -1650.12 -1567.67
1014.57 -1650.72 -1568.02
948.942 -1643.64 -1538.44
949.65 -1644.21 -1540.05
946.355 -1643.13 -1536.41
947.046 -1643.74 -1538.04
943.764 -1642.53 -1534.4
944.367 -1643.27 -1536.07
941.462 -1640.03 -1530.08
941.616 -1641.37 -1531.71
942.175 -1642.27 -1533.39
940.435 -1639.39 -1529.07
950.027 -1644.78 -1541.73
935.178 -1636.85 -1522.26
937.398 -1637.18 -1524.9
938.551 -1637.34 -1525.72
936.332 -1637.3 -1524.25
935.502 -1637.59 -1523.59
938.717 -1638.38 -1527.06
939.325 -1638.86 -1527.95
931.196 -1647.71 -1535.74
933.614 -1640.75 -1524.34
933.325 -1643.46 -1527.15
934.012 -1641.7 -1526
934.645 -1639.02 -1523.84
933.162 -1645.96 -1530.6
933.591 -1644.92 -1529.67
933.083 -1646.46 -1531.91
933.205 -1646.86 -1533.61
934.154 -1643.67 -1528.76
932.695 -1647.2 -1534.89
925.433 -1651.81 -1540.72
928.313 -1649.83 -1539.74
927.279 -1650.9 -1540.92
929.266 -1648.98 -1538.55
930.099 -1648.35 -1537.39
899.524 -1667.43 -1546.83
897.673 -1668.06 -1545.68
896.31 -1668.65 -1545.53
895.885 -1668.79 -1543.88
895.516 -1669.03 -1542.55
894.948 -1669.55 -1542.67
894.24 -1670.34 -1543.09
892.857 -1672.54 -1542.65
893.34 -1671.43 -1543.86
955.167 -1645.09 -1550.17
954.632 -1644.8 -1548.35
958.353 -1645.65 -1555.57
959.304 -1645.83 -1557.36
957.115 -1645.44 -1553.58
955.238 -1646.1 -1553.07
954.209 -1646 -1551.43
952.325 -1645.24 -1545.69
952.844 -1645.5 -1547.57
950.141 -1645.4 -1543.29
950.477 -1645.88 -1545.06
1023.82 -1654.6 -1568.3
1022.35 -1653.5 -1568.51
1021.02 -1653.07 -1567.16
1019.5 -1652.3 -1567.43
1017.94 -1651.75 -1567.85
1017.49 -1651.5 -1569.5
947.771 -1644.37 -1539.66
948.554 -1645.01 -1541.36
945.138 -1643.96 -1537.74
945.866 -1644.65 -1539.46
942.718 -1643.03 -1535.04
943.337 -1644.45 -1537.87
942.858 -1643.86 -1536.49
940.468 -1640.81 -1530.68
940.664 -1642 -1532.39
941.105 -1642.85 -1534.07
939.498 -1640.29 -1529.59
948.718 -1645.7 -1542.95
936.873 -1638.35 -1525.7
937.957 -1638.23 -1526.37
935.766 -1638.53 -1524.76
938.147 -1639.25 -1527.64
938.502 -1639.87 -1528.49
933.053 -1647.38 -1536.65
931.733 -1647.96 -1537.88
934.909 -1640.05 -1525.31
934.497 -1642.5 -1527.61
935.211 -1641.06 -1526.84
934.731 -1644.95 -1530.82
934.535 -1645.78 -1532.03
935.123 -1643.61 -1529.84
934.388 -1646.33 -1533.24
934.188 -1646.97 -1535.49
935.125 -1646.48 -1534.81
935.556 -1642.26 -1528.64
926.339 -1652.1 -1542.5
929.23 -1650.09 -1541.48
930.077 -1649.22 -1540.34
928.24 -1651.23 -1542.74
930.82 -1648.59 -1539.26
899.664 -1667.43 -1549.14
898.106 -1668.13 -1548.06
896.683 -1668.6 -1547.2
895.432 -1669.21 -1545.73
895.524 -1669.33 -1547.74
895.185 -1669.27 -1544.23
894.489 -1669.83 -1544.33
893.702 -1670.66 -1544.99
892.241 -1672.83 -1544.61
892.753 -1671.73 -1545.79
953.282 -1645.84 -1549.51
957.126 -1646.64 -1556.81
956.217 -1646.4 -1555.02
957.935 -1646.85 -1558.47
954.243 -1647.14 -1554.62
953.12 -1647 -1552.84
952.22 -1646.74 -1550.89
950.993 -1646.22 -1546.89
951.471 -1646.54 -1548.79
948.789 -1646.44 -1544.46
949.299 -1646.82 -1546.27
1023.38 -1654.13 -1569.87
1021.88 -1653.25 -1570.36
1020.65 -1652.91 -1568.87
1019.24 -1652.08 -1569.23
1018.57 -1651.77 -1570.89
946.748 -1645.22 -1541
947.164 -1645.84 -1542.56
944.081 -1645.05 -1539.6
945.025 -1645.83 -1541.4
941.348 -1643.9 -1535.71
942.286 -1645.27 -1539.05
941.423 -1644.72 -1537.37
939.501 -1641.62 -1531.24
939.613 -1642.7 -1532.83
939.855 -1643.8 -1534.51
938.519 -1641.2 -1530.03
947.388 -1646.55 -1544.12
936.196 -1639.56 -1526.19
937.342 -1639.58 -1527.31
937.57 -1640.65 -1528.68
934.895 -1647.01 -1537.18
933.714 -1647.55 -1538.49
932.524 -1648.17 -1539.81
936.232 -1640.83 -1527.63
936.121 -1643.75 -1531.05
935.942 -1644.73 -1532.54
935.678 -1645.65 -1533.83
936.522 -1642.47 -1529.86
935.938 -1646.51 -1536.26
936.705 -1645.75 -1535.21
936.692 -1641.32 -1528.64
927.216 -1652.4 -1544.19
930.917 -1649.48 -1542.18
930.209 -1650.35 -1543.33
931.609 -1648.84 -1541.11
929.193 -1651.48 -1544.47
926.403 -1653.45 -1545.67
898.128 -1668.26 -1550.41
896.518 -1668.95 -1549.36
894.494 -1669.95 -1547.17
894.203 -1670.08 -1545.98
895.015 -1669.79 -1549.72
894.003 -1670.25 -1549.07
893.152 -1670.98 -1546.74
891.713 -1672.88 -1546.49
891.09 -1674.24 -1545.16
892.143 -1671.96 -1547.65
955.162 -1647.46 -1556.62
956.083 -1647.78 -1558.65
957.922 -1647.43 -1560.29
953.104 -1648.06 -1555.95
952.019 -1647.94 -1554.17
951.125 -1647.67 -1552.12
950.316 -1647.4 -1550.09
949.678 -1647.22 -1548.07
947.624 -1647.31 -1545.53
948.15 -1647.63 -1547.32
1020.32 -1652.61 -1570.8
945.676 -1646.64 -1543.34
942.967 -1645.93 -1540.94
943.698 -1646.67 -1542.71
940.009 -1644.74 -1536.09
940.409 -1645.62 -1538.8
941.038 -1646.3 -1540.42
939.56 -1645.39 -1537.27
938.426 -1642.45 -1531.56
938.318 -1643.63 -1533.15
938.525 -1644.68 -1534.77
937.626 -1641.76 -1530.02
946.027 -1647.51 -1545.17
936.701 -1646.66 -1537.92
935.629 -1647.2 -1539.05
934.342 -1647.77 -1540.39
933.289 -1648.4 -1541.72
937.375 -1642.76 -1531.12
937.264 -1643.74 -1532.47
937.109 -1644.85 -1533.96
937.608 -1646.04 -1536.85
938.353 -1645.37 -1535.95
928.33 -1652.58 -1545.87
931.799 -1649.79 -1544.07
932.496 -1649.08 -1542.96
931.074 -1650.66 -1545.19
930.142 -1651.64 -1546.21
927.692 -1653.54 -1547.32
896.536 -1669.08 -1551.63
893.368 -1670.64 -1548.07
894.822 -1669.86 -1551.57
893.613 -1670.43 -1551.12
892.766 -1670.93 -1550.36
892.458 -1671.36 -1548.77
891.009 -1672.91 -1548.55
890.499 -1674.12 -1547.17
891.332 -1672.15 -1549.71
953.986 -1648.47 -1558.03
956.283 -1648.36 -1560.81
954.584 -1648.84 -1559.87
952.175 -1648.93 -1557.32
950.923 -1648.86 -1555.65
950.203 -1648.48 -1553.47
949.422 -1648.26 -1551.38
948.608 -1648.01 -1549.23
946.53 -1648 -1546.76
