858.337 -1840.2 -1905.4
855.769 -1837.8 -1905.49
856.339 -1838.89 -1906.23
857.174 -1839.88 -1906.9
858.308 -1841.07 -1907.54
859.457 -1841.04 -1905.69
860.821 -1841.86 -1905.71
834.343 -1796.44 -1925.07
835.137 -1797.77 -1923.76
844.934 -1820.57 -1910.42
849.113 -1827.12 -1905.87
845.326 -1823.96 -1908.43
845.798 -1823.79 -1907.96
830.106 -1786.5 -1927.72
829.105 -1783.25 -1929.73
854.514 -1837.07 -1906.83
855.136 -1838.24 -1907.54
855.963 -1839.43 -1908.04
856.907 -1840.48 -1908.67
857.947 -1841.71 -1909.5
859.804 -1841.97 -1907.37
859.242 -1842.4 -1909.05
861.619 -1842.65 -1906.79
862.571 -1843.61 -1907.82
850.635 -1830.35 -1906.02
851.752 -1831.81 -1905.73
832.164 -1791.46 -1926.18
832.951 -1793.37 -1926.4
833.602 -1795.31 -1926.64
834.348 -1797.17 -1926.97
835.073 -1798.44 -1925.53
835.91 -1799.64 -1924.23
838.837 -1806.36 -1920.9
843.204 -1815.66 -1914.89
843.741 -1817.24 -1913.93
844.166 -1818.98 -1913.06
844.717 -1820.53 -1912.27
845.349 -1821.77 -1909.97
844.924 -1822.1 -1911.37
846.358 -1824.09 -1907.59
847.415 -1825.23 -1907.1
848.206 -1826.75 -1906.89
848.957 -1828.3 -1906.95
849.704 -1830.23 -1907.24
844.881 -1823.7 -1908.82
844.543 -1823.45 -1909.25
844.882 -1826.48 -1909.09
844.605 -1825.62 -1909.27
845.28 -1825.34 -1908.52
845.612 -1825.47 -1908.23
829.624 -1785.21 -1929.16
830.856 -1788.41 -1927.25
830.051 -1786.75 -1930.04
830.594 -1788.02 -1928.91
829.126 -1783.58 -1931.69
829.619 -1785.24 -1931.13
853.238 -1835.96 -1907.63
853.632 -1837.14 -1908.62
854.57 -1838.63 -1909.25
855.579 -1839.76 -1909.74
856.575 -1840.94 -1910.16
857.975 -1842.19 -1911.03
859.164 -1843.05 -1910.59
860.791 -1843.07 -1908.44
860.471 -1843.68 -1910.01
861.577 -1844.13 -1909.57
862.841 -1844.53 -1909.4
864.032 -1844.32 -1908.26
865.51 -1844.99 -1908.31
867.074 -1845.58 -1908.34
850.968 -1831.82 -1906.95
851.336 -1833.44 -1907.82
852.222 -1834.54 -1907.71
831.524 -1790.31 -1927.79
832.333 -1792.22 -1928.03
841.506 -1812.35 -1918.25
840.764 -1810.99 -1919.32
842.286 -1813.76 -1917.08
842.833 -1815.6 -1917
833.02 -1794.2 -1928.2
833.771 -1796.19 -1928.38
834.639 -1798.2 -1928.63
835.166 -1799.07 -1927.09
836.018 -1800.55 -1926.16
836.503 -1801.29 -1924.43
837.098 -1803.05 -1924.07
837.91 -1804.88 -1923.31
838.586 -1806.52 -1922.7
839.315 -1808.15 -1921.53
839.953 -1809.45 -1920.61
843.402 -1817.18 -1915.99
843.908 -1818.97 -1915.01
844.424 -1820.73 -1914.11
844.613 -1822.52 -1913.13
844.85 -1823.23 -1910.44
844.631 -1823.91 -1911.63
846.304 -1825.42 -1907.88
846.714 -1826.76 -1908.01
847.486 -1828 -1907.93
848.433 -1829.36 -1908.15
849.231 -1831.09 -1908.49
850.27 -1832.12 -1908
844.132 -1825.23 -1909.71
844.234 -1824.88 -1910.46
844.866 -1827.99 -1909.34
844.539 -1827.56 -1909.55
845.154 -1826.95 -1908.8
844.202 -1827 -1909.78
845.651 -1827.03 -1908.54
828.073 -1780.02 -1932.68
828.573 -1781.71 -1933.44
831.201 -1789.6 -1929.54
830.101 -1786.94 -1932.13
830.658 -1788.36 -1930.96
828.989 -1783.36 -1933.45
829.563 -1785.34 -1933.2
852.307 -1835.66 -1908.84
852.254 -1836.5 -1909.98
853.153 -1837.66 -1910.34
854.099 -1838.92 -1910.93
855.16 -1840.04 -1911.11
856.474 -1841.22 -1911.41
858.115 -1842.71 -1912.4
859.296 -1843.65 -1912.06
860.435 -1844.36 -1911.58
861.236 -1844.87 -1911.33
862.147 -1845.24 -1911.03
863.296 -1845.5 -1910.72
864.631 -1845.16 -1909.46
866.298 -1845.82 -1909.76
867.961 -1846.31 -1909.92
869.407 -1847.15 -1910.68
851.353 -1834.7 -1908.85
850.254 -1833.54 -1909.01
831.88 -1791.29 -1929.75
832.558 -1793.12 -1929.87
841.205 -1812.83 -1920.24
842.041 -1814.28 -1918.67
840.478 -1811.25 -1921.07
842.497 -1816.12 -1919.04
843.057 -1817.39 -1917.9
833.307 -1795.08 -1929.87
834.146 -1797.14 -1930.01
835.18 -1799.26 -1930.21
835.632 -1800.15 -1928.38
836.43 -1801.87 -1927.62
836.784 -1802.5 -1925.82
837.593 -1804.55 -1925.18
838.325 -1806.56 -1924.71
839.145 -1808.38 -1923.28
839.875 -1810.21 -1922.42
843.67 -1819.01 -1916.89
844.227 -1820.71 -1915.99
844.503 -1822.6 -1914.72
844.637 -1824.42 -1912.77
844.627 -1824.53 -1914
844.572 -1825.75 -1911.42
846.03 -1828.32 -1908.92
846.838 -1829.25 -1908.9
847.892 -1830.62 -1909.35
849.114 -1832.35 -1909.19
844.328 -1826.75 -1910.42
844.969 -1828.72 -1909.84
845.358 -1828.28 -1909.2
845.272 -1829.08 -1909.65
844.803 -1828.25 -1910.08
844.489 -1827.84 -1910.28
828.202 -1780.47 -1934.85
828.725 -1782.38 -1935.62
831.363 -1790.17 -1931.52
830.12 -1787.19 -1934.08
830.754 -1788.8 -1932.89
829.233 -1784.21 -1934.91
829.734 -1785.86 -1935.42
850.992 -1835.35 -1910
850.821 -1835.75 -1911
851.588 -1836.66 -1911.21
852.598 -1837.87 -1911.67
853.636 -1839.1 -1912.25
854.944 -1840.14 -1912.17
855.367 -1840.56 -1912.85
856.848 -1841.82 -1912.71
858.444 -1843.43 -1913.74
859.429 -1844.3 -1913.53
860.425 -1845 -1913.17
861.214 -1845.58 -1912.82
861.959 -1846 -1912.51
862.749 -1846.19 -1912.23
863.799 -1846.19 -1911.89
865.088 -1845.98 -1910.84
866.296 -1846.6 -1911.76
867.52 -1846.53 -1911.12
868.73 -1847.22 -1911.91
870.5 -1847.96 -1912.42
849.909 -1834.37 -1909.92
848.663 -1833.22 -1909.68
832.079 -1791.96 -1931.67
832.812 -1793.9 -1931.55
841.807 -1814.62 -1920.19
840.655 -1812.2 -1922.05
841.373 -1813.98 -1921.62
842.156 -1816.08 -1920.81
842.9 -1817.82 -1919.96
843.425 -1819 -1918.68
833.636 -1795.87 -1931.48
834.538 -1797.92 -1931.7
835.303 -1799.48 -1932.34
835.859 -1800.83 -1931.25
836.127 -1801.37 -1929.51
837.226 -1803.87 -1927.08
836.907 -1803.24 -1928.96
837.943 -1805.88 -1926.65
838.655 -1807.77 -1926.53
839.011 -1808.47 -1924.97
839.657 -1810.24 -1924.28
840.347 -1811.95 -1923.76
843.963 -1820.7 -1918
844.398 -1822.4 -1916.48
844.682 -1824.17 -1915.53
844.701 -1826.23 -1912.8
844.74 -1826.05 -1914.41
844.718 -1827.39 -1911.3
845.951 -1829.25 -1909.38
846.485 -1830.37 -1909.68
847.585 -1831.7 -1909.84
844.926 -1828.1 -1910.92
845.373 -1829.79 -1910.14
845.25 -1829.28 -1910.4
845.81 -1830.02 -1909.88
845.15 -1828.69 -1910.65
831.576 -1790.72 -1933.47
830.307 -1787.58 -1936.18
830.827 -1788.95 -1934.77
849.485 -1834.53 -1910.72
850.067 -1835.49 -1911.79
850.188 -1835.91 -1912.5
851.34 -1837.13 -1912.37
852.238 -1838.21 -1913.1
853.616 -1839.28 -1913.25
854.174 -1839.78 -1913.9
855.932 -1841.2 -1913.73
857.328 -1842.51 -1914.13
858.779 -1844.02 -1914.95
859.69 -1844.98 -1914.9
860.529 -1845.51 -1914.51
861.286 -1846.08 -1914.11
861.924 -1846.64 -1913.79
862.558 -1846.91 -1913.75
863.301 -1846.93 -1913.25
864.728 -1846.81 -1912.77
866.019 -1847.34 -1913.62
867.656 -1847.21 -1912.88
869.192 -1847.87 -1913.71
870.657 -1848.51 -1914.38
848.616 -1833.66 -1910.24
847.643 -1832.43 -1910.48
832.405 -1792.78 -1933.34
833.215 -1794.78 -1933.17
841.116 -1813.77 -1923.36
841.784 -1815.45 -1922.53
842.515 -1817.28 -1921.78
843.56 -1820.05 -1919.93
843.107 -1819 -1921.4
834.036 -1796.72 -1933.05
834.758 -1798.19 -1933.99
836.231 -1801.74 -1932.9
836.609 -1802.63 -1930.89
837.623 -1805.23 -1928.51
837.336 -1804.55 -1930.41
838.346 -1807.2 -1928.26
839.409 -1809.87 -1926.14
839.117 -1809.16 -1927.84
840.124 -1811.69 -1925.56
840.918 -1813.49 -1925.13
844.045 -1821.72 -1919.81
844.264 -1822.37 -1918.19
844.74 -1823.99 -1917.4
845.129 -1825.58 -1916.33
844.957 -1827.53 -1913.63
844.863 -1827.69 -1912.32
845.157 -1827.12 -1915.3
845.087 -1828.47 -1911.7
846.55 -1831.09 -1910.35
845.292 -1829.11 -1911.26
845.669 -1830.37 -1910.83
846.072 -1830.75 -1910.63
845.438 -1829.8 -1911.02
831.535 -1790.45 -1935.53
832.199 -1792.07 -1935.19
831.05 -1789.22 -1936.95
848.021 -1833.36 -1910.91
848.738 -1834.1 -1911.19
849.022 -1834.62 -1911.89
850.175 -1836.2 -1913.04
851.16 -1837.44 -1913.87
852.321 -1838.58 -1914.34
853.072 -1839.05 -1914.92
854.915 -1840.47 -1914.69
856.494 -1841.77 -1915.04
857.774 -1842.9 -1915.48
858.895 -1844.17 -1916.19
859.877 -1845.18 -1916.19
860.742 -1846.08 -1915.7
861.352 -1846.39 -1915.34
862.016 -1846.89 -1915.13
862.615 -1847.2 -1915.16
863.372 -1847.54 -1914.7
864.288 -1847.44 -1914
865.226 -1847.82 -1915.01
867.329 -1847.87 -1914.59
869.029 -1848.48 -1915.52
871.993 -1849.21 -1915.32
870.593 -1849.09 -1916.3
847.076 -1831.97 -1911.01
832.976 -1793.96 -1934.9
833.83 -1796 -1934.64
841.646 -1815.23 -1924.59
842.197 -1816.67 -1923.59
842.847 -1818.27 -1923.27
843.679 -1820.86 -1921.37
843.412 -1819.95 -1922.97
834.507 -1797.29 -1935.86
836.846 -1803.08 -1934.15
837.042 -1803.77 -1932.3
838.029 -1806.47 -1930
837.796 -1805.74 -1931.84
838.829 -1808.44 -1929.64
839.947 -1811.13 -1927.37
839.692 -1810.33 -1929.16
840.837 -1813.05 -1926.88
841.682 -1815.1 -1926.44
844.409 -1823.08 -1921.22
844.566 -1823.73 -1919.4
844.954 -1825.2 -1918.24
845.595 -1826.8 -1917.21
845.189 -1828.75 -1912.68
845.381 -1828.66 -1914.28
845.868 -1828.15 -1916.08
845.423 -1829.54 -1912.11
845.652 -1830.17 -1911.73
846.009 -1830.9 -1911.59
846.51 -1831.49 -1911.34
847.471 -1832.81 -1911.53
847.882 -1833.5 -1912.02
848.916 -1834.76 -1912.75
849.895 -1835.97 -1913.85
851.689 -1838.08 -1915.3
850.665 -1836.87 -1914.83
852.269 -1838.47 -1916.2
853.876 -1839.65 -1915.71
855.83 -1841 -1915.9
857.49 -1842.51 -1916.63
858.898 -1844.02 -1917.27
860.028 -1845.22 -1917.44
860.949 -1846.25 -1916.99
861.638 -1846.74 -1916.71
862.08 -1847.07 -1916.28
862.92 -1847.55 -1916.31
863.641 -1847.87 -1915.78
865.461 -1848.13 -1915.89
867.094 -1848.28 -1915.96
868.88 -1849 -1917.26
872.223 -1849.78 -1917.2
873.624 -1850.15 -1916.48
870.5 -1849.58 -1918.15
842.422 -1817.13 -1925.29
843.17 -1819.1 -1924.81
843.986 -1821.72 -1922.55
843.839 -1821.04 -1924.25
838.574 -1807.7 -1931.39
839.452 -1809.58 -1930.99
840.61 -1812.23 -1928.73
840.345 -1811.41 -1930.58
841.445 -1814.11 -1928.34
842.214 -1815.93 -1928.39
842.54 -1816.98 -1927.07
844.423 -1822.91 -1923.17
844.842 -1824.53 -1922.12
844.872 -1824.9 -1920.3
845.39 -1826.43 -1919.06
845.97 -1828.12 -1917.96
845.692 -1829.77 -1913.44
845.952 -1829.75 -1914.71
846.573 -1829.28 -1916.19
846.051 -1830.55 -1913.02
846.295 -1831.18 -1912.52
846.9 -1832.24 -1912.04
847.869 -1833.51 -1912.97
848.581 -1834.49 -1913.77
849.45 -1835.41 -1914.78
850.964 -1837.47 -1915.95
850.151 -1836.22 -1915.71
851.775 -1837.82 -1917.18
853.107 -1839.06 -1916.99
854.971 -1840.15 -1917.02
856.482 -1841.39 -1917.02
857.936 -1842.45 -1918.03
859.113 -1843.55 -1918.91
860.065 -1845.03 -1918.39
861.028 -1846.01 -1918.55
861.838 -1846.74 -1918.09
862.77 -1847.47 -1917.51
862.415 -1847.19 -1918.03
864.518 -1848.19 -1916.48
864.095 -1848.04 -1917.43
867.271 -1848.71 -1917.44
866.09 -1848.41 -1917.26
868.616 -1849.34 -1918.93
871.926 -1850.22 -1919.16
873.324 -1850.51 -1918.52
874.65 -1851.09 -1918.25
870.273 -1849.91 -1919.8
843.213 -1818.71 -1926.64
843.837 -1820.52 -1925.94
844.454 -1822.36 -1924.98
841.245 -1813.29 -1930.3
842.046 -1815.05 -1930.17
843.268 -1818.17 -1928.61
844.955 -1824.27 -1923.99
845.465 -1825.93 -1922.88
845.388 -1826.11 -1921.1
845.853 -1827.46 -1919.88
846.456 -1829.59 -1917.76
846.326 -1828.8 -1919.63
846.466 -1830.91 -1914.37
846.623 -1830.5 -1915.95
846.751 -1831.8 -1913.5
847.004 -1832.48 -1912.79
847.567 -1833.17 -1913.91
848.139 -1833.95 -1914.66
849.112 -1834.56 -1915.81
850.76 -1836.67 -1916.97
849.835 -1835.4 -1917.18
851.481 -1837.17 -1918.3
852.521 -1838.34 -1918.15
854.285 -1839.32 -1918.22
855.73 -1840.39 -1918.06
857.002 -1841.28 -1918.51
858.223 -1842 -1919.68
859.351 -1842.98 -1920.73
860.306 -1844.51 -1920.12
861.183 -1845.79 -1919.52
862.089 -1846.58 -1919.43
863.106 -1847.34 -1919.33
863.699 -1847.88 -1918.59
865.394 -1848.37 -1918.11
864.812 -1848.2 -1919.03
866.965 -1848.88 -1918.86
868.372 -1849.44 -1920.08
871.94 -1850.56 -1920.75
873.632 -1851.05 -1920.25
875.329 -1851.81 -1919.99
870.174 -1850.06 -1921.06
843.929 -1820.03 -1927.85
844.503 -1821.88 -1926.88
845.08 -1823.7 -1925.83
845.594 -1825.53 -1924.79
846.032 -1827.58 -1921.63
846.072 -1827.11 -1923.7
846.994 -1830.28 -1919.31
847.102 -1831.06 -1917.42
846.775 -1829.45 -1921.2
847.237 -1832.5 -1914.41
847.108 -1831.78 -1915.57
847.813 -1833.3 -1915.45
848.864 -1833.71 -1917.07
850.486 -1835.87 -1918.37
849.617 -1834.58 -1918.69
852.265 -1837.57 -1919.58
851.243 -1836.32 -1919.6
853.93 -1838.57 -1919.55
855.605 -1839.69 -1919.64
857.125 -1840.69 -1920.07
858.238 -1841.24 -1921.58
860.706 -1844.09 -1922.04
859.536 -1842.48 -1922.32
861.563 -1845.62 -1920.96
862.229 -1846.26 -1920.91
863.004 -1846.8 -1920.96
863.848 -1847.35 -1921.18
864.288 -1847.82 -1920.28
866.279 -1848.71 -1919.87
865.584 -1848.4 -1920.76
867.515 -1849.14 -1921.16
869.321 -1849.82 -1921.76
871.187 -1850.48 -1922.22
872.921 -1851.1 -1922.12
874.844 -1851.9 -1921.83
876.884 -1852.82 -1921.41
879.332 -1854.04 -1921.6
844.682 -1821.61 -1928.84
845.225 -1823.32 -1927.8
845.715 -1825.04 -1926.62
844.975 -1821.43 -1930.81
846.325 -1826.89 -1925.5
846.497 -1828.54 -1922.83
846.949 -1828.65 -1924.56
847.647 -1830.94 -1921.07
847.865 -1831.64 -1918.99
847.785 -1832.41 -1917.09
847.282 -1829.99 -1922.76
848.754 -1832.99 -1918.77
850.348 -1834.98 -1920.16
849.453 -1833.65 -1920.59
852.07 -1836.45 -1921.11
853.36 -1837.51 -1921.12
851.108 -1835.33 -1921.3
855.007 -1838.62 -1921.25
856.589 -1839.78 -1921.53
858.923 -1841.11 -1923.61
857.52 -1839.88 -1923.24
861.504 -1844.2 -1923.97
860.273 -1842.65 -1923.99
861.947 -1845.37 -1922.55
862.76 -1846.05 -1922.63
863.755 -1846.84 -1922.77
865.292 -1848.03 -1922.16
864.661 -1847.47 -1922.94
866.74 -1848.75 -1922.11
868.504 -1849.5 -1922.63
870.328 -1850.19 -1923.32
871.995 -1850.89 -1923.79
873.875 -1851.69 -1923.45
875.943 -1852.58 -1923.37
877.766 -1853.4 -1922.79
879.227 -1854.12 -1923.8
880.945 -1854.88 -1922.85
882.52 -1855.7 -1923.87
884.292 -1856.66 -1925.05
887.542 -1858.15 -1924.99
845.531 -1823.1 -1929.88
845.942 -1824.66 -1928.59
846.392 -1826.27 -1927.34
845.839 -1822.85 -1931.67
847.099 -1828.04 -1926.43
847.826 -1829.44 -1926.11
847.82 -1830.25 -1924.28
848.5 -1832.23 -1920.72
848.226 -1831.36 -1922.58
850.361 -1834.07 -1922.4
849.268 -1832.78 -1922.4
852.834 -1836.37 -1922.8
851.694 -1835.31 -1922.84
854.445 -1837.55 -1922.87
856.058 -1838.69 -1923.06
858.4 -1839.82 -1925.18
859.748 -1841.3 -1925.46
857.12 -1838.76 -1924.85
862.342 -1844.36 -1925.85
861.115 -1842.93 -1925.74
862.617 -1845.32 -1924.27
863.764 -1846.31 -1924.43
864.926 -1847.19 -1924.54
866.007 -1848.08 -1923.87
867.257 -1848.84 -1923.35
869.27 -1849.67 -1924.12
871.139 -1850.46 -1925.12
873.004 -1851.34 -1924.96
875.003 -1852.26 -1924.78
877.276 -1853.28 -1924.72
879.012 -1854.1 -1925.82
880.825 -1854.93 -1924.97
882.51 -1855.82 -1925.93
884.205 -1856.71 -1927.04
886.011 -1857.55 -1926.33
887.755 -1858.38 -1927.25
846.342 -1824.46 -1930.58
846.734 -1825.97 -1929.26
847.259 -1827.48 -1928.12
846.794 -1824.29 -1932.39
848.1 -1828.95 -1928.12
848.891 -1830.49 -1927.21
848.638 -1830.86 -1925.52
848.944 -1831.74 -1924.09
849.979 -1832.85 -1924.24
851.191 -1834.26 -1924.3
852.482 -1835.33 -1924.51
853.866 -1836.44 -1924.51
855.616 -1837.67 -1924.68
857.892 -1838.77 -1926.9
859.24 -1840.12 -1927.02
860.628 -1841.7 -1927.3
856.579 -1837.79 -1926.4
862.04 -1843.29 -1927.56
863.564 -1845.48 -1926.11
863.358 -1844.62 -1927.82
864.66 -1846.42 -1926.26
865.74 -1847.25 -1926.35
866.678 -1848.12 -1925.24
867.991 -1848.96 -1924.71
869.771 -1849.72 -1925.68
871.258 -1850.3 -1926.91
872.614 -1851 -1926.53
874.359 -1851.91 -1926.27
876.072 -1852.75 -1926.06
877.591 -1853.45 -1926.91
879.166 -1854.18 -1927.87
880.781 -1854.95 -1926.85
882.49 -1855.83 -1927.87
884.064 -1856.72 -1929.12
885.632 -1857.47 -1928.3
887.084 -1858.25 -1929.14
888.807 -1859.02 -1929.1
889.824 -1859.27 -1927.68
847.242 -1825.92 -1931
847.756 -1827.49 -1929.75
847.803 -1825.8 -1932.73
849.114 -1830.04 -1928.99
848.757 -1828.83 -1930.23
849.87 -1831.26 -1928.34
849.759 -1831.91 -1926.17
850.931 -1833.27 -1926.09
852.171 -1834.45 -1926.18
853.491 -1835.44 -1926.28
854.939 -1836.62 -1926.22
857.261 -1837.8 -1928.59
858.713 -1839.12 -1928.71
860.116 -1840.58 -1928.87
861.57 -1842.1 -1929.14
855.956 -1836.9 -1927.84
862.938 -1843.59 -1929.53
864.688 -1845.77 -1928.03
864.373 -1844.84 -1929.75
865.981 -1846.8 -1928.08
867.229 -1847.99 -1927.12
868.396 -1848.9 -1926.31
869.957 -1849.5 -1927.49
871.48 -1850.05 -1928.76
872.817 -1850.87 -1928.34
874.282 -1851.7 -1927.91
875.91 -1852.6 -1927.96
877.663 -1853.4 -1928.9
879.229 -1854.15 -1929.75
880.899 -1854.98 -1928.82
882.541 -1855.88 -1929.88
884.075 -1856.77 -1931.12
885.675 -1857.67 -1930.33
887.981 -1858.82 -1930.79
886.9 -1858.36 -1931.73
889.442 -1859.55 -1931.17
890.585 -1859.76 -1929.71
848.339 -1827.4 -1931.53
848.422 -1825.78 -1934.35
848.972 -1827.42 -1933.23
849.758 -1830.34 -1930.47
849.463 -1828.96 -1931.99
850.814 -1832.43 -1927.93
850.672 -1831.65 -1929.91
851.995 -1833.6 -1928.02
853.177 -1834.57 -1928.13
854.509 -1835.69 -1928.05
856.902 -1837.08 -1930.78
855.762 -1836.37 -1929.6
858.21 -1838.33 -1930.46
859.624 -1839.67 -1930.6
860.983 -1841.01 -1930.83
862.36 -1842.41 -1931.09
863.807 -1843.75 -1931.47
865.871 -1846.06 -1929.94
865.203 -1844.87 -1931.69
867.359 -1847.51 -1928.92
868.646 -1848.56 -1928.33
870.041 -1849.04 -1929.56
873.05 -1850.62 -1930.16
871.563 -1849.59 -1930.8
874.566 -1851.63 -1929.67
876.146 -1852.53 -1929.77
877.894 -1853.31 -1930.94
879.52 -1854.12 -1931.45
881.021 -1854.96 -1930.7
882.502 -1855.82 -1931.94
883.916 -1856.63 -1933.26
885.423 -1857.56 -1932.45
892.414 -1860.39 -1930.15
894.364 -1860.92 -1930.4
896.314 -1861.51 -1930.49
888.434 -1859.15 -1932.92
886.87 -1858.33 -1933.69
890.112 -1859.86 -1932.94
891.27 -1860.19 -1931.78
850.199 -1826.82 -1936.94
849.59 -1827.15 -1935.14
850.07 -1828.68 -1934.08
850.65 -1830.88 -1931.74
850.536 -1829.94 -1933.08
851.845 -1832.92 -1929.91
851.73 -1832.07 -1931.79
853.006 -1833.98 -1930.09
854.308 -1835.06 -1929.99
857.782 -1837.55 -1932.42
856.66 -1836.44 -1933.16
855.621 -1835.87 -1931.54
859.046 -1838.75 -1932.36
860.37 -1839.95 -1932.6
861.673 -1841.14 -1932.81
863.088 -1842.55 -1932.83
864.386 -1843.44 -1933.61
867.322 -1846.92 -1930.57
866.784 -1845.96 -1932.1
865.869 -1844.73 -1933.56
868.681 -1847.99 -1930.35
870.092 -1848.45 -1931.62
873.173 -1850.22 -1932.03
874.709 -1851.3 -1931.42
871.853 -1849.13 -1932.82
876.338 -1852.3 -1931.5
877.741 -1852.89 -1932.95
879.275 -1853.81 -1933.05
880.935 -1854.79 -1932.7
882.416 -1855.61 -1934.01
883.849 -1856.38 -1935.42
885.326 -1857.38 -1934.56
893.102 -1860.8 -1932.24
895.198 -1861.36 -1932.37
897.403 -1861.99 -1932.33
889.807 -1859.72 -1934.57
888.179 -1858.97 -1934.99
886.711 -1858.08 -1935.82
891.755 -1860.46 -1933.97
899.367 -1862.64 -1933.33
901.072 -1863.11 -1934.45
902.854 -1863.51 -1935.67
902.799 -1863.52 -1937.72
851.529 -1828.1 -1937.88
850.878 -1828.52 -1935.98
851.434 -1829.98 -1934.88
851.702 -1831.16 -1933.52
852.876 -1833.31 -1931.9
852.831 -1832.42 -1933.71
854.248 -1834.54 -1931.79
858.21 -1837.45 -1934.24
855.343 -1835.11 -1933.46
856.665 -1835.83 -1934.94
859.575 -1838.81 -1934.05
861.144 -1839.95 -1934.72
862.653 -1841.5 -1934.31
865.387 -1843.59 -1935.36
863.97 -1842.25 -1935.49
868.443 -1847.16 -1932.27
867.575 -1845.91 -1933.96
866.885 -1844.87 -1935.29
870.348 -1847.97 -1933.49
873.486 -1849.77 -1934.14
874.716 -1850.82 -1933.17
876.174 -1851.76 -1933.24
872.033 -1848.6 -1934.81
877.235 -1852.12 -1934.86
878.953 -1853.34 -1934.84
880.75 -1854.51 -1934.53
882.246 -1855.24 -1936.06
885.214 -1857.08 -1936.76
893.8 -1861.13 -1934.14
895.876 -1861.68 -1934.22
897.673 -1862.2 -1934.3
889.63 -1859.49 -1936.35
891.259 -1860.23 -1935.82
888.116 -1858.72 -1937.09
893.029 -1860.93 -1935.8
899.208 -1862.7 -1935.42
901.029 -1863.14 -1936.38
901.083 -1863.11 -1938.43
852.898 -1829.21 -1938.81
852.251 -1829.77 -1936.77
852.771 -1831.32 -1935.4
854.007 -1833.7 -1933.6
853.978 -1832.88 -1935.2
858.14 -1836.76 -1935.76
859.862 -1838.35 -1935.8
855.193 -1834.23 -1935.13
856.459 -1834.87 -1936.43
862.636 -1840.69 -1936.1
861.424 -1839.32 -1936.81
865.274 -1842.57 -1937.27
866.624 -1843.81 -1937.07
864.041 -1841.34 -1937.49
869.009 -1846.91 -1934.11
869.019 -1846.23 -1935.81
868.03 -1845.08 -1936.77
875.433 -1850.79 -1935.12
880.378 -1854.07 -1936.19
895.124 -1861.58 -1935.93
897.199 -1862.13 -1936.19
890.906 -1859.96 -1937.64
892.413 -1860.61 -1937.6
894.206 -1861.29 -1937.53
899.339 -1862.73 -1937.27
899.259 -1862.61 -1939.29
854.389 -1830.57 -1939.59
853.575 -1830.79 -1937.77
854.098 -1832.03 -1936.84
855.267 -1833.38 -1936.89
857.848 -1835.72 -1937.36
859.255 -1837.15 -1937.17
860.616 -1838.04 -1937.93
856.616 -1834.04 -1938.19
863.041 -1840.07 -1938.16
862.148 -1838.83 -1939.08
895.975 -1861.76 -1937.9
897.769 -1862.24 -1938.1
893.512 -1860.9 -1939.1
895.256 -1861.42 -1939.61
897.174 -1861.91 -1939.88
855.91 -1831.73 -1940.51
855.262 -1832.28 -1938.64
859.389 -1836.44 -1938.82
858.142 -1834.93 -1939.25
860.998 -1837.37 -1939.87
856.943 -1833.31 -1939.84
859.808 -1835.77 -1940.67
858.526 -1834.24 -1941.05
