1058.96 -1694.61 -1106.12
1057.6 -1693.82 -1106.3
1056.04 -1693.37 -1105.87
1062.38 -1696.25 -1106.83
1060.65 -1695.38 -1106.46
1065.64 -1697.96 -1108.01
1060.02 -1694.42 -1107.62
1058.49 -1693.56 -1107.68
1056.89 -1692.98 -1107.67
1055.17 -1692.52 -1107.35
1053.34 -1692.05 -1107.01
1051.55 -1691.8 -1106.36
1067.1 -1699.1 -1107.98
1061.6 -1695.2 -1107.95
1063 -1695.85 -1108.5
1064.56 -1696.63 -1109.13
1066.59 -1698.26 -1109.22
1065.85 -1697.06 -1110.14
1060.97 -1694 -1109.24
1059.63 -1693.27 -1109.21
1058.12 -1692.83 -1108.98
1056.21 -1692.22 -1108.98
1054.12 -1691.58 -1108.91
1052.02 -1691.28 -1108.1
1050.16 -1691.11 -1107.28
1048.36 -1690.9 -1106.51
1068.49 -1700.14 -1108.45
1067.95 -1699.2 -1109.65
1062.19 -1694.52 -1109.68
1063.53 -1695.32 -1110.11
1064.99 -1695.94 -1111.05
1067.25 -1697.86 -1110.93
1066.53 -1696.78 -1111.87
1061.52 -1693.63 -1110.7
1060.47 -1693.17 -1110.31
1059.32 -1692.66 -1110.19
1057.66 -1692.25 -1110.23
1055.6 -1691.57 -1110.38
1053.86 -1690.86 -1110.68
1052.37 -1690.66 -1109.77
1050.43 -1690.52 -1108.93
1048.58 -1690.51 -1107.86
1069.76 -1701.25 -1109.2
1069.21 -1700.14 -1110.34
1045.23 -1689.79 -1108.14
1068.66 -1698.9 -1111.53
1062.78 -1694.3 -1111.02
1063.98 -1694.92 -1111.93
1065.64 -1695.95 -1112.63
1068.03 -1697.72 -1112.74
1067.31 -1696.85 -1113.51
1062.31 -1693.76 -1111.78
1061.25 -1693.05 -1111.85
1060.21 -1692.76 -1111.22
1059 -1692.28 -1111.2
1056.97 -1691.69 -1111.45
1054.99 -1690.94 -1111.93
1053.26 -1690.26 -1112.1
1052.05 -1689.94 -1111.52
1050.83 -1689.84 -1110.7
1049.54 -1689.66 -1110.42
1048.59 -1689.96 -1109.24
1046.9 -1689.87 -1108.78
1071.81 -1702.62 -1111.32
1070.47 -1701.26 -1110.97
1074.15 -1704.95 -1111.45
1073.16 -1703.68 -1112.33
1069.99 -1699.77 -1112.36
1043.82 -1689.3 -1109.13
1045.75 -1689.32 -1109.71
1069.39 -1698.66 -1113.48
1064.75 -1695.1 -1113.52
1063.39 -1694.34 -1112.76
1066.16 -1696.01 -1114.37
1068.57 -1697.7 -1114.52
1067.59 -1696.83 -1115.3
1062.17 -1693.52 -1113.11
1060.9 -1692.74 -1112.69
1059.74 -1692.35 -1112.13
1058.26 -1691.84 -1112.19
1056.5 -1691.26 -1112.73
1055.1 -1690.59 -1113.71
1053.57 -1690.01 -1113.47
1051.77 -1689.31 -1113.23
1050.45 -1689.05 -1112.37
1049.01 -1688.88 -1111.88
1047.59 -1689.22 -1110.51
1072.34 -1702.22 -1113.27
1071.21 -1701.01 -1112.83
1075.58 -1706.18 -1112.57
1074.58 -1704.75 -1113.34
1073.5 -1703.21 -1114.16
1070.83 -1699.9 -1114.3
1044.42 -1688.68 -1110.65
1046.23 -1688.57 -1111.41
1070.07 -1698.86 -1115.11
1065.13 -1695.2 -1115.19
1063.78 -1694.45 -1114.09
1066.37 -1696.03 -1116.13
1069.11 -1697.9 -1115.7
1068.01 -1697.03 -1116.53
1061.21 -1692.97 -1113.92
1062.61 -1693.81 -1114.79
1059.64 -1692.25 -1113.5
1058.2 -1691.71 -1113.23
1056.57 -1691.1 -1114.26
1055.22 -1690.37 -1115.37
1053.93 -1689.8 -1115.14
1052.38 -1689.18 -1114.69
1051.13 -1688.61 -1114.57
1050.08 -1688.38 -1113.88
1048.8 -1688.26 -1113.16
1047.44 -1688.27 -1112.22
1072.27 -1701.26 -1114.9
1075.94 -1705.8 -1114.55
1074.83 -1704.24 -1115.3
1073.56 -1702.56 -1115.78
1071.41 -1700.08 -1115.74
1045.03 -1687.9 -1112.36
1043.17 -1688.02 -1111.83
1041.32 -1688.01 -1111.64
1039.47 -1687.86 -1111.65
1037.65 -1687.66 -1111.83
1035.67 -1687.5 -1112.1
1033.82 -1687.24 -1112.74
1046.12 -1687.63 -1113.15
1070.59 -1699.04 -1116.6
1064.14 -1694.7 -1115.83
1065.54 -1695.5 -1116.93
1066.9 -1696.35 -1117.67
1069.56 -1698.12 -1117.1
1068.43 -1697.29 -1118.12
1061.3 -1693.21 -1115.43
1059.72 -1692.44 -1114.99
1062.94 -1694.16 -1116.68
1058.1 -1691.73 -1114.6
1056.62 -1691.1 -1115.59
1055.26 -1690.29 -1116.55
1053.7 -1689.46 -1116.43
1052.32 -1688.78 -1116.18
1050.89 -1688.2 -1115.8
1049.64 -1687.81 -1115.24
1048.67 -1687.7 -1114.59
1047.47 -1687.53 -1113.9
1077.18 -1706.83 -1115.76
1073.06 -1701.52 -1116.85
1076.01 -1705.16 -1116.53
1074.6 -1703.34 -1117.13
1071.91 -1700.23 -1117.24
1044.19 -1687.4 -1113.24
1045.32 -1687.13 -1114.15
1042.4 -1687.41 -1113.12
1040.64 -1687.41 -1113.05
1038.89 -1687.31 -1113.2
1036.99 -1687.13 -1113.54
1035.16 -1686.88 -1114.07
1033.36 -1686.59 -1114.72
1032.02 -1686.84 -1113.64
1046.61 -1687.22 -1114.39
1070.89 -1699.2 -1118.03
1064.47 -1694.99 -1117.62
1065.88 -1695.86 -1118.92
1067.45 -1696.74 -1119.45
1069.75 -1698.29 -1118.54
1068.89 -1697.67 -1119.89
1061.5 -1693.55 -1117.28
1059.77 -1692.78 -1116.97
1058.23 -1691.96 -1116.28
1062.61 -1694.25 -1118.77
1056.85 -1691.22 -1117.08
1055.36 -1690.32 -1117.95
1053.79 -1689.38 -1117.62
1052.14 -1688.44 -1117.57
1050.71 -1687.88 -1116.97
1049.46 -1687.45 -1116.41
1048.6 -1687.24 -1115.94
1047.3 -1687.17 -1114.85
1077.02 -1706.19 -1117.42
1078.02 -1707.13 -1118.58
1074.38 -1702.78 -1118.43
1073.18 -1701.45 -1118.36
1075.71 -1704.42 -1118.17
1072.08 -1700.27 -1118.41
1043.86 -1687.04 -1114.13
1044.99 -1686.76 -1115
1046.35 -1686.92 -1115.1
1041.86 -1687.04 -1114.36
1040.16 -1687.04 -1114.36
1038.39 -1686.95 -1114.51
1036.56 -1686.76 -1115.26
1034.87 -1686.47 -1115.82
1032.93 -1686.21 -1116.25
1031.28 -1686.24 -1115.49
1030.07 -1686.54 -1114.1
1070.32 -1698.81 -1119.94
1071.6 -1699.86 -1119.77
1064.31 -1695.06 -1119.38
1066.54 -1696.29 -1120.95
1065.18 -1695.53 -1120.92
1068.02 -1697.21 -1121.33
1069.44 -1698.27 -1121.51
1060.43 -1693.3 -1118.82
1058.47 -1692.28 -1118.32
1063.17 -1694.56 -1120.88
1061.31 -1693.8 -1120.49
1056.93 -1691.37 -1118.71
1055.59 -1690.57 -1119.78
1053.94 -1689.48 -1119.04
1052.69 -1688.67 -1118.68
1050.72 -1687.68 -1118.22
1051.26 -1687.87 -1119.01
1049.35 -1687.25 -1117.56
1048.38 -1686.95 -1116.9
1047.11 -1686.83 -1115.82
1080.29 -1710.02 -1119.46
1079.05 -1708.27 -1119.89
1076.7 -1705.51 -1119.07
1077.7 -1706.59 -1120.18
1075.42 -1703.94 -1119.3
1074.19 -1702.51 -1119.5
1072.89 -1701.11 -1119.79
1043.27 -1686.78 -1115.19
1044.64 -1686.54 -1115.83
1046.07 -1686.64 -1115.8
1041.24 -1686.84 -1115.57
1039.62 -1686.82 -1115.61
1037.83 -1686.69 -1115.95
1036.37 -1686.45 -1117.02
1034.32 -1686.21 -1117.24
1032.19 -1685.98 -1117.34
1030.36 -1685.82 -1116.96
1029.23 -1685.94 -1115.8
1028.06 -1686.32 -1114.32
1025.93 -1686.25 -1114.11
1024.17 -1686.23 -1113.9
1070.91 -1699.46 -1121.57
1072.31 -1700.7 -1121.33
1067.07 -1696.72 -1122.86
1065.68 -1695.82 -1122.71
1064.01 -1694.92 -1122.6
1068.56 -1697.81 -1123.05
1070.07 -1699.02 -1123.18
1059.24 -1692.81 -1120.26
1057.43 -1691.77 -1120.39
1062.12 -1694.17 -1122.63
1060.33 -1693.35 -1122.14
1055.71 -1690.73 -1121.51
1054.16 -1689.62 -1120.71
1052.76 -1688.7 -1120.11
1049.66 -1687.23 -1118.67
1050.58 -1687.58 -1119.66
1051.44 -1688.02 -1120.5
1048.21 -1686.85 -1118.11
1047.17 -1686.67 -1116.9
1081.46 -1711.33 -1120.69
1082.82 -1712.85 -1121.11
1080.07 -1709.58 -1121.14
1078.66 -1707.75 -1121.52
1076.39 -1705.01 -1120.68
1077.3 -1706.17 -1121.94
1075.06 -1703.55 -1120.94
1073.66 -1702.03 -1121.11
1042.75 -1686.64 -1116.08
1045.94 -1686.44 -1117
1044.4 -1686.45 -1116.9
1040.85 -1686.68 -1116.5
1038.85 -1686.66 -1116.99
1037.21 -1686.42 -1118.26
1035.35 -1686.3 -1118.54
1033.31 -1685.99 -1118.62
1031.11 -1685.76 -1118.4
1029.27 -1685.52 -1118.23
1028.35 -1685.57 -1117.21
1027.09 -1685.8 -1115.86
1025.01 -1685.85 -1115.67
1023.04 -1685.76 -1115.59
1071.59 -1700.3 -1122.97
1073.03 -1701.62 -1122.74
1067.57 -1697.36 -1124.62
1066.23 -1696.31 -1124.48
1064.7 -1695.41 -1124.37
1063.2 -1694.65 -1124.19
1069.04 -1698.45 -1124.69
1070.65 -1699.94 -1124.82
1058.44 -1692.44 -1122
1056.95 -1691.57 -1122.39
1060.94 -1693.64 -1124.25
1059.27 -1692.83 -1123.48
1054.3 -1689.89 -1122.41
1055.85 -1690.94 -1123.36
1052.93 -1688.93 -1121.57
1048.98 -1686.98 -1119.1
1050.87 -1687.78 -1121.13
1049.81 -1687.33 -1120.25
1051.83 -1688.41 -1122.13
1047.74 -1686.76 -1119.08
1046.94 -1686.62 -1118.09
1082.15 -1711.96 -1122.72
1080.95 -1710.61 -1122.44
1083.47 -1713.38 -1123.03
1079.56 -1708.95 -1122.75
1078.26 -1707.47 -1123.28
1075.96 -1704.67 -1122.55
1077 -1706.06 -1123.81
1074.38 -1703.02 -1122.55
1084.99 -1714.84 -1123.42
1042.5 -1686.59 -1117.14
1045.63 -1686.45 -1118.09
1043.99 -1686.51 -1118.02
1040.63 -1686.63 -1117.73
1038.98 -1686.54 -1118.26
1036.29 -1686.39 -1120.03
1038.22 -1686.53 -1119.57
1034.22 -1686.14 -1120.02
1032.08 -1685.86 -1119.88
1029.97 -1685.55 -1119.62
1028.11 -1685.32 -1119.7
1027.28 -1685.33 -1118.47
1026.23 -1685.46 -1117.24
1021.07 -1685.58 -1115.57
1024.01 -1685.49 -1117.22
1021.94 -1685.38 -1117.23
1072.25 -1701.29 -1124.52
1073.67 -1702.61 -1124.17
1067.78 -1697.83 -1126.09
1066.53 -1696.92 -1126.18
1065.03 -1695.91 -1125.98
1063.54 -1694.97 -1125.76
1062.2 -1694.28 -1125.56
1069.2 -1699.08 -1126.44
1070.37 -1700.33 -1126.81
1071.73 -1701.41 -1126.45
1057.59 -1691.97 -1123.96
1060.66 -1693.63 -1126.1
1059.25 -1692.87 -1125.05
1054.38 -1690.25 -1124.08
1053.1 -1689.29 -1123.06
1055.99 -1691.22 -1124.9
1048.61 -1686.94 -1120
1051.02 -1688.1 -1122.58
1050.15 -1687.59 -1121.6
1049.16 -1687.29 -1121.4
1052.05 -1688.89 -1123.58
1047.44 -1686.82 -1120.2
1046.41 -1686.65 -1119.16
1082.69 -1712.53 -1124.5
1081.53 -1711.25 -1124.48
1080.34 -1709.97 -1124
1084.18 -1713.89 -1124.74
1079.2 -1708.68 -1124.65
1077.89 -1707.38 -1125.23
1074.96 -1703.87 -1123.83
1075.91 -1705.06 -1124.74
1076.73 -1706.3 -1126.01
1085.75 -1715.28 -1125.19
1042.2 -1686.64 -1118.49
1044.97 -1686.58 -1119.08
1043.25 -1686.73 -1119.49
1040.31 -1686.62 -1119.09
1038.02 -1686.63 -1121.23
1036.42 -1686.46 -1121.92
1034.75 -1686.26 -1121.72
1039.78 -1686.74 -1120.62
1032.84 -1685.98 -1121.49
1030.87 -1685.71 -1121.35
1028.89 -1685.44 -1121.27
1026.21 -1685.15 -1119.99
1026.95 -1685.19 -1121.36
1025.22 -1685.23 -1118.61
1019.71 -1685.24 -1117.2
1023.16 -1685.2 -1118.89
1021.19 -1685.05 -1118.87
1073.14 -1702.63 -1126.21
1074.47 -1703.88 -1125.67
1068.1 -1698.7 -1127.95
1066.68 -1697.51 -1127.72
1065.24 -1696.47 -1127.58
1063.62 -1695.45 -1127.39
1062.17 -1694.54 -1127.1
1069.47 -1700.02 -1128.41
1070.95 -1701.35 -1128.54
1072.43 -1702.53 -1128.24
1057.47 -1692.15 -1125.68
1060.24 -1693.68 -1127.66
1058.88 -1692.89 -1126.74
1053.08 -1689.71 -1124.81
1054.43 -1690.61 -1125.72
1055.85 -1691.53 -1126.62
1048.14 -1687.09 -1121.36
1050.79 -1688.51 -1123.97
1049.94 -1687.88 -1122.77
1048.63 -1687.61 -1122.81
1051.78 -1689.26 -1125.16
1046.88 -1687.05 -1121.27
1045.99 -1686.75 -1120.08
1083.26 -1713.06 -1126.15
1081.79 -1711.68 -1126.43
1080.4 -1710.2 -1125.81
1084.79 -1714.3 -1126.45
1079.04 -1708.85 -1126.47
1077.73 -1707.61 -1127.27
1075.39 -1705.12 -1126.82
1076.38 -1706.43 -1128.1
1087.16 -1716.56 -1125.78
1086.21 -1715.62 -1127.02
1041.55 -1686.75 -1120.14
1044.35 -1686.79 -1120.17
1042.81 -1686.95 -1121.18
1039.55 -1686.87 -1122.41
1037.71 -1686.72 -1123.27
1041.21 -1686.99 -1121.8
1024.98 -1685.01 -1121.6
1024.2 -1685.01 -1120.23
1022.21 -1684.88 -1120.43
1073.89 -1703.84 -1127.89
1068.37 -1699.68 -1130
1066.94 -1698.48 -1129.7
1065.51 -1697.32 -1129.39
1064 -1696.25 -1129.19
1062.57 -1695.29 -1128.87
1061.21 -1694.43 -1128.55
1069.84 -1700.96 -1130.26
1072.68 -1703.26 -1130.11
1057.22 -1692.38 -1127.66
1059.72 -1694 -1129.64
1058.59 -1693.19 -1128.67
1052.91 -1690.07 -1126.36
1054.21 -1690.94 -1127.39
1055.57 -1691.85 -1128.46
1047.23 -1687.42 -1122.77
1050.2 -1688.94 -1125.62
1049.46 -1688.25 -1124.17
1047.7 -1687.98 -1124.3
1051.23 -1689.66 -1126.89
1045.58 -1687.38 -1122.58
1045.33 -1686.99 -1121
1083.14 -1712.92 -1127.76
1081.4 -1711.41 -1128.3
1080.17 -1710.2 -1127.49
1084.89 -1714.37 -1128.13
1078.75 -1708.87 -1128.47
1077.24 -1707.58 -1129.41
1075.06 -1705.27 -1128.89
1075.85 -1706.4 -1130.38
1088.52 -1717.99 -1126.15
1089.82 -1719.48 -1126.31
1087.61 -1716.97 -1127.52
1086.43 -1715.9 -1128.68
1044 -1687.16 -1122.12
1042.51 -1687.31 -1123.11
1040.89 -1687.21 -1123.65
1023.08 -1684.84 -1121.86
1073.95 -1704.47 -1130.08
1065.74 -1698.16 -1131.38
1064.24 -1697.04 -1131.07
1061.09 -1694.97 -1130.36
1056.93 -1692.76 -1129.63
1058.16 -1693.62 -1130.81
1052.56 -1690.52 -1128.1
1053.86 -1691.34 -1129.11
1045.98 -1687.86 -1124.25
1048.73 -1688.68 -1125.84
1046.61 -1688.35 -1125.87
1044.12 -1687.66 -1123.93
1083.89 -1713.75 -1129.54
1082.37 -1712.5 -1129.36
1081.07 -1711.56 -1130.48
1079.93 -1710.21 -1129.41
1085.41 -1715.08 -1129.97
1078.25 -1708.8 -1130.46
1076.8 -1707.59 -1131.67
1089.01 -1718.42 -1128
1091.15 -1721.18 -1126.91
1090.23 -1719.88 -1128
1087.86 -1717.26 -1129.24
1086.87 -1716.51 -1130.5
1042.69 -1687.71 -1125.13
1044.69 -1688.11 -1125.63
1047.5 -1688.9 -1127.2
1045.63 -1688.64 -1127.3
1082.67 -1713.08 -1131.11
1084.26 -1714.43 -1131.42
1081.7 -1712.5 -1132.63
1079.42 -1710.14 -1131.3
1085.83 -1715.81 -1131.85
1089.05 -1718.57 -1129.85
1090.13 -1719.82 -1129.74
1091.27 -1721.22 -1128.96
1092.42 -1722.65 -1128.53
1088.29 -1717.97 -1131.15
1087.34 -1717.21 -1132.34
1093.45 -1724 -1127.5
1094.67 -1725.4 -1128.11
1086.29 -1716.58 -1133.71
1089.75 -1719.59 -1131.57
1091.03 -1720.97 -1130.98
1092.29 -1722.35 -1130.28
1093.76 -1724.08 -1129.52
1088.64 -1718.61 -1132.83
1087.81 -1718.15 -1134.39
1096.19 -1727.29 -1128.12
1095.35 -1726.07 -1129.63
1090.91 -1720.89 -1132.78
1092.15 -1722.13 -1132.19
1093.34 -1723.49 -1131.37
1094.59 -1725 -1131.18
1096.75 -1727.69 -1130.29
1095.76 -1726.41 -1131.43
1093.17 -1723.29 -1133.42
1094.22 -1724.52 -1132.89
1095.37 -1725.93 -1133.29
1097.81 -1728.88 -1131.63
1096.74 -1727.45 -1132.41
1096.37 -1726.97 -1134.3
1099.05 -1730.6 -1131.2
1097.56 -1728.45 -1133.64
1098.67 -1729.99 -1132.98
1099.82 -1731.68 -1132.52
1098.29 -1729.55 -1134.83
