1050.31 -1684.71 -1304.66
1048.52 -1683.97 -1303.48
1046.64 -1683.07 -1302.48
1052.01 -1685.4 -1305.49
1060.84 -1692.34 -1307.94
1064.1 -1695 -1309.39
1059.52 -1690.96 -1307.91
1056.44 -1687.93 -1307.05
1055.02 -1687.27 -1306.37
1053.72 -1686.17 -1306.62
1050.69 -1684.14 -1306.2
1049.17 -1683.63 -1305.06
1047.42 -1682.94 -1303.96
1045.77 -1682.05 -1303.3
1043.86 -1680.84 -1303.1
1052.29 -1685.04 -1306.75
1062.79 -1693.82 -1310.2
1061.41 -1692.5 -1309.83
1060.12 -1691.15 -1309.64
1064.67 -1695.28 -1311.44
1058.69 -1689.52 -1309.17
1042.18 -1679.84 -1303.06
1040.63 -1678.9 -1302.99
1039.15 -1678.03 -1303.32
1057.14 -1687.96 -1308.78
1055.72 -1686.86 -1308.69
1054.97 -1686.07 -1307.78
1053.41 -1685.37 -1307.75
1050.25 -1683.05 -1307.14
1051.99 -1684.08 -1307.83
1048.41 -1682.62 -1305.7
1046.7 -1681.91 -1304.68
1045.18 -1681.12 -1304.12
1044.08 -1679.95 -1304.7
1042.94 -1679.72 -1304.04
1030.62 -1675.16 -1302.86
1028.93 -1674.42 -1303.38
1027.1 -1673.79 -1303.8
1025.15 -1673.25 -1304.21
1023.17 -1672.71 -1304.75
1063.4 -1694.01 -1311.96
1061.96 -1692.75 -1311.7
1060.73 -1691.25 -1311.34
1059.24 -1689.81 -1311.08
1065.5 -1695.69 -1313.52
1064.1 -1694.39 -1313.61
1067.04 -1697.01 -1313.77
1057.86 -1688.16 -1310.46
1041.71 -1678.73 -1304.27
1040.27 -1678.09 -1304.13
1036.47 -1677.28 -1302.66
1037.57 -1677.24 -1303.73
1038.84 -1677.2 -1304.63
1056.35 -1686.66 -1310.12
1054.34 -1685.14 -1308.88
1055.03 -1685.29 -1309.99
1052.97 -1684.02 -1309.07
1051.33 -1682.71 -1308.76
1049.88 -1681.52 -1308.59
1048.91 -1681.85 -1307.12
1047.27 -1681.15 -1306.28
1045.75 -1680.43 -1305.58
1044.61 -1679.12 -1306.08
1042.95 -1678.47 -1305.53
1034.66 -1676.45 -1303.07
1033.14 -1675.69 -1303.86
1031.44 -1674.93 -1304.32
1029.93 -1674.24 -1304.92
1028.3 -1673.62 -1305.32
1026.56 -1673.1 -1305.74
1024.75 -1672.65 -1306.18
1021.47 -1672.18 -1305.61
1022.95 -1672.13 -1306.85
1062.68 -1692.99 -1313.54
1061.26 -1691.62 -1313.09
1059.8 -1689.94 -1312.99
1058.47 -1688.32 -1312.28
1066.24 -1696.24 -1315.46
1064.78 -1694.89 -1315.4
1063.36 -1693.5 -1315.3
1056.89 -1686.85 -1311.61
1041.54 -1677.7 -1305.48
1040.14 -1677.19 -1305.42
1036.11 -1676.49 -1304.14
1037.59 -1676.4 -1305.33
1039.34 -1676.24 -1306.42
1055.45 -1685.38 -1311.37
1053.77 -1683.9 -1310.35
1054.12 -1683.87 -1311.35
1052.11 -1682.62 -1309.79
1050.74 -1681.31 -1309.89
1048.16 -1680.44 -1307.98
1049.13 -1680.16 -1309.47
1046.59 -1679.7 -1307.16
1045.38 -1678.57 -1307.41
1043.84 -1677.83 -1306.98
1042.59 -1677.32 -1306.65
1019.7 -1671.59 -1306.78
1017.89 -1671.44 -1306.13
1013.94 -1671.08 -1305.53
1034.55 -1675.68 -1304.85
1032.78 -1674.85 -1305.56
1031.23 -1674.12 -1306.29
1029.73 -1673.52 -1306.82
1028.05 -1672.98 -1307.31
1026.31 -1672.49 -1307.7
1024.44 -1672.03 -1308.13
1021.39 -1671.66 -1307.79
1023.08 -1671.54 -1309.17
1062.04 -1692.14 -1315.05
1060.84 -1690.83 -1314.58
1059.89 -1689.66 -1315.27
1058.75 -1688.48 -1313.96
1057.31 -1687.04 -1313.09
1065.54 -1695.47 -1317.26
1064.07 -1694.02 -1317.13
1062.59 -1692.52 -1316.89
1055.94 -1685.59 -1312.8
1041.03 -1676.56 -1306.78
1036.12 -1675.64 -1305.88
1037.82 -1675.58 -1306.86
1039.43 -1675.5 -1307.62
1040.92 -1675.82 -1307.83
1054.59 -1684.11 -1312.56
1052.73 -1682.59 -1310.96
1053.3 -1682.61 -1312.31
1051.37 -1681.27 -1310.85
1049.76 -1679.97 -1310.65
1047.72 -1679.48 -1308.72
1048.04 -1679.05 -1309.86
1046.48 -1678.72 -1308.42
1044.96 -1677.7 -1308.19
1043.58 -1676.95 -1307.9
1042.32 -1676.39 -1307.73
1019.54 -1671.16 -1308.81
1017.69 -1671.08 -1307.9
1015.49 -1670.97 -1307.33
1013.51 -1670.55 -1307.65
1012.18 -1670.65 -1306.16
1034.32 -1674.9 -1306.51
1032.84 -1674.16 -1307.42
1031.4 -1673.65 -1307.84
1029.66 -1673.03 -1308.44
1027.81 -1672.46 -1309.24
1025.75 -1671.94 -1309.39
1021.2 -1671.19 -1309.62
1024.48 -1671.49 -1310.56
1022.42 -1671.12 -1310.91
1009.61 -1669.72 -1308
1011.46 -1670.08 -1307.92
1061.23 -1691.09 -1316.45
1060.14 -1689.87 -1317.19
1058.87 -1688.44 -1316.01
1057.72 -1687.18 -1314.78
1056.33 -1685.77 -1314.08
1054.95 -1684.33 -1313.97
1035.96 -1674.88 -1307.44
1037.52 -1674.95 -1308.12
1040.46 -1675.27 -1308.7
1038.98 -1674.95 -1308.61
1041.9 -1675.7 -1308.66
1053.72 -1682.74 -1313.36
1051.96 -1681.43 -1311.85
1052.36 -1681.31 -1313.26
1050.52 -1680.15 -1311.67
1049.05 -1679.18 -1311.24
1047.28 -1678.3 -1310.28
1046.17 -1678.04 -1309.2
1044.48 -1677.02 -1308.91
1043.1 -1676.31 -1308.72
1019.88 -1670.81 -1310.86
1018.07 -1670.71 -1309.95
1016.32 -1670.63 -1309.13
1014.52 -1670.27 -1309.35
1012.61 -1669.86 -1309.45
1034.52 -1674.2 -1308.29
1033.17 -1673.62 -1308.92
1031.52 -1673.24 -1309.51
1029.84 -1672.72 -1310.12
1026.67 -1671.89 -1310.71
1028.56 -1672.27 -1310.94
1023.69 -1671.18 -1312.02
1025.68 -1671.49 -1312.05
1021.35 -1670.78 -1312.27
1010.67 -1669.41 -1309.7
1008.72 -1669.25 -1309.42
1060.07 -1689.99 -1319.09
1059.01 -1688.54 -1317.84
1057.83 -1687.15 -1316.57
1056.5 -1685.99 -1315.64
1055.23 -1684.46 -1315.31
1053.99 -1683.02 -1314.59
1036.3 -1674.22 -1309.07
1037.95 -1674.29 -1309.6
1041.2 -1675.19 -1309.61
1039.65 -1674.69 -1309.67
1042.52 -1675.73 -1309.51
1052.98 -1681.75 -1313.81
1051.2 -1680.43 -1312.68
1051.86 -1680.7 -1314.04
1051.07 -1680.03 -1313.66
1050 -1679.47 -1312.56
1048.12 -1678.44 -1311.48
1048.99 -1678.68 -1312.6
1046.48 -1677.6 -1311.08
1045.49 -1677.32 -1309.86
1043.92 -1676.43 -1309.69
1019.28 -1670.51 -1312.7
1017.69 -1670.42 -1311.55
1015.93 -1670.25 -1310.81
1013.9 -1669.87 -1310.91
1011.87 -1669.39 -1310.98
1034.88 -1673.68 -1309.89
1033.33 -1673.21 -1310.51
1031.33 -1672.78 -1311.27
1029.93 -1672.34 -1312.38
1027.82 -1671.88 -1312.34
1024.66 -1671.17 -1313.54
1022.71 -1670.9 -1313.45
1026.73 -1671.57 -1313.6
1020.52 -1670.59 -1313.99
1009.84 -1669.09 -1311.02
1057.81 -1687.28 -1318.3
1056.56 -1685.97 -1317.23
1055.35 -1684.77 -1316.33
1054.05 -1683.13 -1315.69
1052.78 -1681.6 -1315.05
1036.68 -1673.74 -1310.53
1038.5 -1674.09 -1310.8
1041.82 -1675.22 -1310.43
1040.22 -1674.66 -1310.49
1043.27 -1675.87 -1310.61
1051.48 -1680.31 -1315.04
1050.58 -1679.46 -1314.55
1049.88 -1679.1 -1313.55
1047.44 -1677.86 -1312.32
1048.53 -1678.25 -1313.41
1044.86 -1676.71 -1310.74
1045.83 -1677.04 -1312.09
1017.33 -1670.23 -1313.14
1018.57 -1670.35 -1314.63
1015.32 -1670.03 -1312.38
1013.13 -1669.63 -1312.26
1010.96 -1669.21 -1312.33
1035.3 -1673.29 -1311.36
1033.36 -1672.92 -1311.93
1031.91 -1672.59 -1312.77
1031.01 -1672.31 -1313.92
1029.05 -1672 -1313.84
1025.55 -1671.31 -1314.95
1023.8 -1671.01 -1315
1021.95 -1670.74 -1314.89
1027.96 -1671.76 -1314.78
1020.33 -1670.58 -1315.86
1056.57 -1686.1 -1318.79
1055.21 -1684.79 -1318.03
1054.46 -1683.67 -1317.01
1053.18 -1682.25 -1316.52
1052.08 -1680.93 -1316.21
1037.31 -1673.56 -1311.77
1039.16 -1674.14 -1311.45
1042.52 -1675.41 -1311.6
1040.83 -1674.72 -1311.29
1044.09 -1676.14 -1311.95
1051.01 -1679.93 -1316.17
1050.4 -1679.27 -1315.48
1049.45 -1678.65 -1314.42
1046.88 -1677.44 -1313.39
1048.03 -1677.89 -1314.26
1045.1 -1676.56 -1313.23
1016.12 -1670.09 -1314.25
1018.74 -1670.4 -1316.81
1017.08 -1670.22 -1315.89
1014.14 -1669.81 -1313.94
1012.01 -1669.44 -1313.76
1036.36 -1673.23 -1312.47
1034.79 -1672.97 -1312.73
1033.42 -1672.74 -1313.65
1032.21 -1672.47 -1314.73
1030.19 -1672.13 -1315.2
1026.64 -1671.54 -1315.81
1024.57 -1671.18 -1316.48
1022.3 -1670.87 -1316.48
1028.56 -1671.91 -1316.02
1054.22 -1683.92 -1319.32
1053.64 -1683.13 -1318.01
1052.46 -1681.62 -1317.76
1051.45 -1680.46 -1317.64
1038.12 -1673.65 -1312.44
1039.83 -1674.26 -1312.24
1041.54 -1674.96 -1312.48
1043.28 -1675.68 -1312.96
1050.25 -1679.45 -1317.35
1049.92 -1678.98 -1316.37
1049.18 -1678.46 -1315.35
1046.22 -1677.06 -1314.42
1047.69 -1677.71 -1315.07
1044.15 -1676.09 -1314.11
1037.17 -1673.31 -1313.45
1035.39 -1673.01 -1313.73
1034.1 -1672.76 -1314.99
1032.13 -1672.45 -1316
1030.38 -1672.23 -1316.7
1026.67 -1671.66 -1317.34
1022.9 -1671.06 -1318.12
1028.62 -1672.11 -1317.72
1052.75 -1682.48 -1319.22
1051.72 -1681.28 -1319.2
1050.61 -1680.15 -1318.81
1038.87 -1673.86 -1313.42
1040.48 -1674.45 -1313.32
1042.23 -1675.24 -1313.76
1049.5 -1679.18 -1318.46
1049.09 -1678.61 -1317.42
1048.53 -1678.18 -1316.47
1046.28 -1677.1 -1315.35
1044.83 -1676.45 -1315.09
1047.2 -1677.54 -1316.36
1043.01 -1675.61 -1314.95
1036.58 -1673.22 -1314.72
1037.85 -1673.54 -1314.49
1035.4 -1673.02 -1315.55
1033.85 -1672.8 -1316.46
1032.13 -1672.6 -1317.33
1030.44 -1672.51 -1318.42
1050.86 -1681 -1320.52
1049.71 -1679.97 -1320.04
1039.65 -1674.15 -1314.53
1041.16 -1674.8 -1314.71
1048.46 -1679.02 -1319.92
1048.36 -1678.51 -1318.62
1047.59 -1677.92 -1317.8
1045.29 -1676.77 -1316.46
1043.81 -1676.02 -1315.71
1046.41 -1677.36 -1317.51
1042.07 -1675.3 -1315.98
1037.2 -1673.51 -1316.08
1038.71 -1673.9 -1315.6
1035.5 -1673.2 -1316.86
1033.87 -1673.03 -1317.78
1032.13 -1672.89 -1318.9
1040.32 -1674.56 -1315.97
1047.06 -1678.11 -1319.44
1047.35 -1678.79 -1320.97
1046.02 -1677.48 -1318.96
1044.71 -1676.75 -1317.95
1043.39 -1676.01 -1316.99
1041.72 -1675.38 -1317.32
1038.54 -1674.05 -1316.75
1036.93 -1673.69 -1317.38
1035.43 -1673.53 -1318.53
1033.75 -1673.38 -1319.57
1032.21 -1673.33 -1320.98
1039.98 -1674.74 -1317.51
1045.91 -1677.91 -1320.53
1044.45 -1677.07 -1319.62
1043.03 -1676.2 -1318.56
1041.33 -1675.48 -1318.47
1038.38 -1674.4 -1318.5
1036.84 -1674.11 -1319.3
1035.41 -1673.96 -1320.42
1039.74 -1675.09 -1319.19
1044.39 -1677.64 -1321.41
1042.93 -1676.75 -1320.55
1041.41 -1675.96 -1319.97
1038.24 -1674.91 -1320.38
1036.64 -1674.62 -1321.22
1039.76 -1675.67 -1320.99
1041.37 -1676.52 -1321.79
