912.179 -1639.12 -1743.87
910.178 -1640.41 -1742.43
908.668 -1641.1 -1742.2
905.912 -1642.18 -1742.63
913.103 -1638.39 -1744.91
911.445 -1638.31 -1745.34
910.591 -1639.33 -1744.03
908.954 -1639.96 -1743.93
907.241 -1641.14 -1743.28
904.335 -1642.29 -1743.37
905.639 -1641.31 -1744.07
932.557 -1633.21 -1759.18
930.503 -1633.17 -1758.74
927.658 -1633.48 -1757.05
923.728 -1634.65 -1752.34
919.935 -1634.86 -1750.22
918.84 -1635.48 -1749.31
917.087 -1636.07 -1748.48
920.84 -1634.65 -1750.95
915.394 -1636.67 -1747.98
914.099 -1637.68 -1746.2
912.235 -1637.5 -1746.57
910.614 -1637.36 -1747.01
910.049 -1638.49 -1745.68
908.585 -1638.97 -1745.69
907.167 -1640.22 -1744.79
922.126 -1634.43 -1751.76
943.24 -1632.37 -1765.37
941.595 -1632.51 -1764.16
899.252 -1644.88 -1744.68
895.832 -1646.12 -1745.97
900.646 -1643.67 -1744.62
902.939 -1642.05 -1744.31
901.984 -1642.67 -1744.35
904.031 -1641.38 -1744.63
905.319 -1640.52 -1745.34
939.71 -1632.63 -1763.09
937.77 -1632.77 -1761.85
935.85 -1632.99 -1760.83
933.847 -1632.73 -1761
931.439 -1632.6 -1760.57
928.719 -1632.98 -1758.65
929.37 -1632.26 -1760.53
926.937 -1632.51 -1758.47
926.445 -1633.14 -1757.01
925.724 -1633.89 -1755.64
924.289 -1633.81 -1754.81
923.374 -1634.27 -1753.33
918.409 -1634.28 -1751.03
919.443 -1633.88 -1751.77
917.363 -1635.17 -1750.04
915.553 -1635.63 -1749.68
920.588 -1633.75 -1752.28
913.808 -1636.03 -1749.11
913.497 -1636.81 -1747.58
911.877 -1636.6 -1748.07
910.431 -1636.41 -1748.68
909.361 -1636.82 -1748.41
909.113 -1637.76 -1747.13
907.615 -1638.16 -1747.48
906.744 -1639.46 -1746.22
921.928 -1633.58 -1753.33
944.717 -1632.07 -1766.89
946.268 -1631.93 -1768.13
943.01 -1631.73 -1767.59
941.311 -1631.88 -1766.23
939.511 -1632.04 -1765.1
948.253 -1631.6 -1770.53
949.443 -1631.35 -1771.96
946.607 -1631.58 -1769.91
898.504 -1644.36 -1745.62
896.828 -1645.1 -1746.23
894.403 -1646.53 -1746.72
895.225 -1645.19 -1747.1
893.24 -1647.28 -1747.09
892.172 -1647.53 -1747.98
900.807 -1642.25 -1745.5
899.712 -1643.13 -1745.82
901.651 -1641.59 -1745.44
902.569 -1641.08 -1745.54
903.646 -1640.45 -1745.94
904.913 -1639.67 -1746.8
937.681 -1632.28 -1763.65
935.756 -1632.48 -1762.47
933.921 -1631.88 -1763.15
932.282 -1632 -1762.13
930.27 -1631.75 -1762.19
927.549 -1632.04 -1759.92
927.879 -1631.6 -1761.53
925.607 -1631.56 -1759.08
925.145 -1632 -1757.82
924.731 -1632.76 -1756.31
923.042 -1632.75 -1755.1
917.348 -1633.99 -1751.51
917.869 -1633.1 -1752.71
918.556 -1633.22 -1752.55
919.513 -1632.7 -1753.6
916.08 -1634.93 -1751.01
913.969 -1635.33 -1750.6
920.679 -1632.96 -1753.88
912.185 -1635.85 -1749.47
910.17 -1635.84 -1750.08
908.659 -1636.13 -1749.97
908.038 -1637.03 -1748.83
906.402 -1637.56 -1748.96
906.127 -1638.75 -1747.66
921.8 -1632.58 -1754.96
953.025 -1631.39 -1772.95
950.936 -1631.16 -1773.31
944.564 -1631.48 -1769.13
941.116 -1631.14 -1768.14
942.731 -1631.02 -1769.41
939.261 -1631.23 -1767.23
937.468 -1631.7 -1765.43
947.112 -1631.06 -1772.23
948.66 -1630.82 -1773.75
945.353 -1631.05 -1771.1
897.643 -1643.7 -1746.7
895.974 -1643.72 -1747.5
893.915 -1645.53 -1747.68
894.629 -1643.87 -1748.3
892.726 -1645.94 -1748.48
891.607 -1646.31 -1749.48
890.839 -1647.99 -1749.27
900.391 -1640.96 -1746.6
899.593 -1641.51 -1746.69
898.7 -1642.36 -1746.9
901.215 -1640.44 -1746.64
902.366 -1640 -1746.99
903.271 -1639.32 -1747.5
904.745 -1638.5 -1748.41
889.602 -1648.73 -1750.36
884.752 -1653.98 -1753.89
935.58 -1631.8 -1764.3
933.558 -1631.18 -1764.87
931.786 -1631.24 -1763.73
928.873 -1631.35 -1762.8
930.328 -1631.11 -1764.13
926.044 -1631.32 -1760.34
927.307 -1631.18 -1763.06
925.92 -1631.04 -1761.84
924.078 -1630.9 -1759.59
923.905 -1631.25 -1758.37
923.269 -1631.91 -1756.56
921.804 -1631.74 -1756.11
917.314 -1633.14 -1752.94
916.068 -1634.2 -1752.48
918.021 -1632.3 -1754.16
918.583 -1632.33 -1754.12
920.649 -1632.1 -1755.27
919.557 -1631.93 -1755.27
914.693 -1634.91 -1751.84
913.238 -1634.87 -1751.74
911.966 -1635.41 -1750.81
909.984 -1635.37 -1751.48
908.463 -1635.7 -1751.1
906.815 -1636.07 -1750.7
906.776 -1636.68 -1749.9
904.745 -1637.56 -1749.57
954.494 -1631.19 -1774.63
955.983 -1630.99 -1776.36
952.382 -1630.97 -1774.85
950.205 -1630.73 -1775.08
943.558 -1630.67 -1771.06
941.155 -1630.71 -1769.98
939.438 -1630.66 -1769.15
937.618 -1630.74 -1768.6
937.242 -1631.24 -1767.07
935.43 -1631.31 -1765.99
946.68 -1630.73 -1774.19
945.042 -1630.68 -1772.77
948.072 -1630.41 -1775.7
896.937 -1642.12 -1747.94
895.528 -1642.2 -1748.58
893.571 -1644.15 -1748.82
894.398 -1642.51 -1749.28
892.466 -1644.55 -1749.64
891.272 -1645.13 -1750.65
890.322 -1646.67 -1750.73
899.758 -1639.83 -1747.74
898.842 -1640.41 -1747.73
898.003 -1640.92 -1747.91
900.598 -1639.4 -1747.8
901.543 -1638.89 -1748.32
902.92 -1638.3 -1748.85
889.04 -1647.46 -1751.85
888.382 -1649.21 -1751.65
887.099 -1650.16 -1752.66
886.142 -1651.69 -1753.2
885.359 -1652.66 -1753.86
883.791 -1654.72 -1755.47
884.478 -1652.96 -1755.42
882.313 -1656.79 -1756.9
931.84 -1630.75 -1765.4
933.762 -1630.72 -1766.47
928.71 -1630.89 -1764.26
930.08 -1630.59 -1765.8
924.373 -1630.8 -1760.64
926.863 -1630.93 -1764.32
925.615 -1630.87 -1763.23
924.344 -1630.85 -1761.87
922.687 -1630.66 -1759.72
922.69 -1631.03 -1758.44
922.629 -1631.44 -1757.19
920.569 -1631.5 -1756.2
921.554 -1631.17 -1757.1
916.645 -1633.32 -1753.84
917.593 -1632.34 -1754.4
915.125 -1633.89 -1753.6
914.258 -1634.33 -1752.73
918.471 -1631.75 -1755.38
917.987 -1631.68 -1755.62
919.432 -1631.39 -1756.21
912.866 -1634.67 -1753.07
911.614 -1635.03 -1752.3
909.826 -1634.98 -1752.71
908.154 -1635.31 -1751.97
906.679 -1635.59 -1751.58
905.051 -1636.24 -1751.11
904.911 -1636.87 -1750.37
902.844 -1637.52 -1749.87
965.57 -1631.03 -1780.65
959.11 -1630.81 -1778.78
956.853 -1630.73 -1778.43
953.762 -1630.79 -1776.56
954.758 -1630.56 -1778.31
951.593 -1630.62 -1776.67
949.539 -1630.4 -1776.81
941.947 -1630.57 -1771.4
943.109 -1630.46 -1773.11
939.806 -1630.41 -1771.09
937.875 -1630.46 -1770.34
935.949 -1630.4 -1769.36
935.649 -1630.84 -1767.76
946.351 -1630.2 -1776.29
944.882 -1630.38 -1774.62
947.995 -1630.17 -1777.83
896.496 -1640.83 -1748.87
895.634 -1641.23 -1749.35
893.472 -1643 -1749.8
894.474 -1641.57 -1750.02
892.351 -1643.61 -1750.5
891.186 -1644.4 -1751.32
889.861 -1645.82 -1751.96
899.352 -1639.03 -1748.7
898.446 -1639.63 -1748.58
897.537 -1639.96 -1748.74
899.955 -1638.62 -1748.95
901.237 -1638.18 -1749.29
880.542 -1658.8 -1758.68
888.471 -1646.89 -1752.99
887.702 -1648.27 -1753.01
886.792 -1648.71 -1753.85
886.031 -1650.27 -1754.15
885.324 -1651.43 -1754.81
883.606 -1653.83 -1756.99
882.91 -1655.46 -1757.12
884.249 -1652.1 -1757.09
884.954 -1650.84 -1756.21
881.484 -1657.6 -1758.33
882.105 -1656.08 -1759.02
932.176 -1630.43 -1766.86
934 -1630.54 -1768.2
928.075 -1630.76 -1765.64
929.155 -1630.61 -1767.17
930.824 -1630.44 -1767.46
922.566 -1630.53 -1760.77
925.858 -1630.92 -1765.14
924.612 -1630.97 -1763.38
922.954 -1630.73 -1761.89
921.545 -1630.77 -1759.25
921.596 -1630.89 -1758.18
920.381 -1631.06 -1757.09
917.219 -1632.18 -1755.18
916.067 -1633.35 -1754.89
914.475 -1633.63 -1754.77
913.901 -1634.27 -1753.92
918.559 -1631.32 -1756.46
917.519 -1631.57 -1756.33
918.123 -1631.26 -1756.82
919.441 -1631.01 -1757.21
911.445 -1634.66 -1753.66
912.711 -1634.38 -1754.27
909.673 -1634.76 -1753.69
907.984 -1634.93 -1753.06
906.57 -1635.25 -1752.53
905.075 -1635.74 -1751.94
903.052 -1636.92 -1750.66
903.348 -1636.47 -1751.39
901.159 -1637.6 -1750.14
963.773 -1630.74 -1780.86
961.888 -1630.61 -1780.69
966.383 -1630.78 -1782.25
964.651 -1630.41 -1782.42
959.847 -1630.51 -1780.62
957.745 -1630.47 -1780.37
955.659 -1630.29 -1780.2
952.576 -1630.36 -1778.37
953.59 -1630.16 -1780.1
950.41 -1630.23 -1778.37
941.156 -1630.32 -1772.73
941.274 -1630.27 -1774.6
943.046 -1630.31 -1774.96
939.408 -1630.22 -1773.12
937.879 -1630.24 -1772.01
936.037 -1630.14 -1771.05
934.167 -1630.22 -1769.91
945.956 -1630.01 -1778.12
944.489 -1630.12 -1776.53
949.21 -1630.09 -1779.57
947.199 -1630 -1779.57
896.585 -1640.13 -1749.51
895.704 -1640.58 -1749.91
893.456 -1642.06 -1750.58
894.468 -1640.92 -1750.64
892.366 -1642.84 -1751.25
891.576 -1643.36 -1751.92
890.254 -1644.84 -1752.35
888.967 -1645.76 -1753.41
898.442 -1638.91 -1749.32
897.477 -1639.41 -1749.4
899.951 -1638.09 -1749.72
898.67 -1638.33 -1749.89
879.173 -1660.24 -1759.77
880.096 -1658.61 -1760.6
881.069 -1657.35 -1760.12
887.577 -1647.21 -1754.02
886.532 -1648.09 -1754.8
885.815 -1649.41 -1755.21
882.979 -1654.27 -1758.59
883.773 -1652.34 -1758.5
884.645 -1650.45 -1757.6
885.508 -1649.16 -1756.39
882.316 -1654.79 -1760.2
881.401 -1655.97 -1761.43
932.429 -1630.24 -1768.62
927.065 -1630.69 -1766.79
930.612 -1630.4 -1769.09
928.474 -1630.7 -1768.45
921.421 -1630.65 -1760.49
925.238 -1630.83 -1766.55
924.383 -1631.04 -1764.86
923.032 -1630.82 -1763.11
921.454 -1630.68 -1761.68
920.172 -1630.68 -1759.21
920.358 -1630.82 -1758.08
916.513 -1632.16 -1756.01
915.056 -1633.09 -1755.77
913.567 -1633.92 -1755.31
913.964 -1633.41 -1756.47
918.649 -1630.95 -1757.56
917.756 -1631.23 -1757.74
916.835 -1631.58 -1757.18
919.327 -1630.78 -1758.18
911.53 -1634.37 -1754.81
910.123 -1634.61 -1754.68
912.518 -1634.14 -1755.54
908.001 -1634.81 -1754.35
906.562 -1635.06 -1753.5
905.015 -1635.41 -1752.75
903.52 -1636.18 -1752.11
901.41 -1637.05 -1750.98
901.8 -1636.63 -1751.76
899.801 -1637.63 -1750.63
962.769 -1630.17 -1782.42
960.776 -1630.15 -1782.36
966.927 -1630.68 -1783.57
965.225 -1630.28 -1783.71
963.674 -1629.98 -1783.88
958.679 -1630.13 -1782.25
956.589 -1630.04 -1782.03
954.568 -1629.93 -1781.89
951.501 -1630.11 -1779.95
952.603 -1629.93 -1781.61
940.748 -1630.11 -1776.61
942.585 -1630.24 -1776.63
939.329 -1630.21 -1775.07
937.691 -1630.04 -1773.84
935.948 -1630.04 -1772.85
934.223 -1630.1 -1771.74
932.474 -1630.11 -1770.42
945.106 -1629.92 -1779.93
943.868 -1629.91 -1778.34
950.288 -1630.03 -1781.32
948.379 -1630.07 -1781.43
946.334 -1629.93 -1781.51
896.606 -1639.44 -1750.08
895.655 -1639.97 -1750.34
893.334 -1641.6 -1751.33
894.479 -1640.47 -1751.15
892.381 -1642.22 -1752.29
890.807 -1643.73 -1752.74
889.495 -1644.98 -1753.74
888.084 -1646.19 -1754.43
897.424 -1638.93 -1750.13
898.823 -1637.93 -1750.51
897.545 -1638.54 -1750.77
877.7 -1661.92 -1759.89
876.369 -1663.45 -1759.96
878.996 -1659.42 -1761.63
877.786 -1660.88 -1761.45
880.47 -1657.43 -1761.83
879.442 -1658.28 -1762.88
875.237 -1664.4 -1761.03
874.221 -1665.84 -1760.61
873.032 -1666.87 -1761.94
887.038 -1646.92 -1755.1
886.124 -1647.98 -1755.86
883.247 -1652.89 -1759.84
884.251 -1650.94 -1758.9
885.155 -1649.29 -1757.81
885.876 -1648.22 -1757.01
882.286 -1654.25 -1761.55
881.488 -1655.19 -1762.89
880.539 -1656.69 -1763.13
926.492 -1630.62 -1768.33
931.018 -1630.17 -1771.15
929.386 -1630.54 -1770.3
927.679 -1630.35 -1770.04
919.738 -1630.63 -1760.32
924.747 -1630.96 -1768.05
923.293 -1631.26 -1766.29
922.8 -1630.93 -1764.52
921.372 -1630.81 -1763.18
920.019 -1630.77 -1761.65
918.994 -1630.72 -1759.18
915.442 -1632.37 -1756.92
912.927 -1633.95 -1756.74
914.267 -1632.99 -1757.66
913.257 -1633.58 -1757.87
918.319 -1630.93 -1758.57
916.897 -1631.39 -1758.33
917.687 -1631.15 -1759.19
915.755 -1631.86 -1757.92
911.516 -1634.3 -1756.19
910.299 -1634.62 -1755.85
908.362 -1634.78 -1755.35
906.623 -1635.11 -1754.54
905.068 -1635.35 -1753.51
903.439 -1635.99 -1752.8
901.52 -1636.54 -1752.41
900.24 -1637.15 -1751.44
899.757 -1637.09 -1752.07
898.896 -1637.49 -1751.57
898.158 -1637.87 -1751.27
961.753 -1629.88 -1783.89
959.715 -1629.89 -1783.83
968.884 -1631.12 -1784.08
967.333 -1630.64 -1785.1
965.681 -1630.25 -1785.18
964.289 -1629.97 -1785.42
962.615 -1629.76 -1785.38
957.604 -1629.85 -1783.77
955.51 -1629.77 -1783.58
953.412 -1629.75 -1783.55
951.402 -1629.86 -1782.82
941.823 -1629.89 -1778.46
939.84 -1629.95 -1778.58
938.966 -1630.12 -1776.96
937.484 -1630.01 -1775.87
935.86 -1630.08 -1774.74
934.25 -1629.95 -1773.58
932.604 -1629.93 -1772.4
944.115 -1629.84 -1781.78
943.026 -1629.84 -1780.15
949.554 -1629.94 -1783.33
896.584 -1638.97 -1750.73
895.621 -1639.55 -1750.97
893.495 -1640.97 -1751.88
894.556 -1640.04 -1751.71
892.892 -1641.4 -1752.87
891.551 -1642.66 -1753.31
890.113 -1644.07 -1753.93
888.721 -1645.27 -1754.83
887.482 -1646.11 -1755.41
897.005 -1638.47 -1751.36
876.417 -1662.53 -1761.51
877.959 -1659.76 -1763.16
876.572 -1661.49 -1762.92
879.611 -1657.45 -1764.52
878.27 -1658.95 -1764.5
870.715 -1669.28 -1762.99
871.917 -1667.68 -1763.44
869.577 -1670.26 -1764.46
868.251 -1672.05 -1764.14
875.315 -1663.38 -1762.79
874.153 -1665.17 -1762.48
873.113 -1666.03 -1763.94
886.67 -1646.98 -1756.14
883.942 -1651.31 -1760.2
883.142 -1652.68 -1761.25
884.881 -1649.57 -1759.14
885.705 -1648.24 -1758.47
886.359 -1647.29 -1757.3
882.588 -1653.48 -1762.7
881.882 -1654.42 -1764.05
880.792 -1655.97 -1764.35
925.827 -1630.78 -1769.98
931.175 -1629.96 -1773.04
929.384 -1630.23 -1771.99
927.498 -1630.4 -1771.77
918.432 -1630.82 -1760.01
918.728 -1630.95 -1761.49
923.963 -1631 -1769.59
922.962 -1631.13 -1767.88
921.444 -1631.27 -1766.87
921.427 -1631 -1765.03
919.726 -1630.98 -1762.99
911.816 -1634.18 -1757.54
914.568 -1632.58 -1758.77
913.388 -1633.4 -1759.2
912.261 -1633.88 -1758.57
916.857 -1631.36 -1759.77
915.91 -1631.62 -1759.08
917.63 -1631.14 -1760.55
910.458 -1634.55 -1756.95
908.753 -1634.9 -1756.53
906.755 -1635.17 -1755.47
905.141 -1635.37 -1754.39
903.567 -1635.86 -1753.5
901.745 -1636.43 -1753.15
899.892 -1636.96 -1752.78
898.442 -1637.48 -1752.52
897.62 -1637.91 -1751.96
968.608 -1630.96 -1786.27
966.598 -1630.47 -1786.92
941.03 -1629.86 -1780.32
939.114 -1629.96 -1780.23
937.72 -1629.99 -1778.2
936.002 -1630.01 -1776.82
934.275 -1629.94 -1775.56
932.663 -1629.9 -1774.36
942.062 -1629.85 -1782.02
896.174 -1638.75 -1751.45
895.129 -1639.46 -1751.93
893.926 -1640.28 -1752.53
893.428 -1640.58 -1753.43
892.254 -1641.74 -1753.95
890.816 -1643.17 -1754.45
889.352 -1644.45 -1755.27
887.922 -1645.41 -1755.87
887.098 -1646.17 -1756.64
896.689 -1638.2 -1752.12
876.882 -1660.64 -1764.24
875.608 -1662.36 -1764.31
879.955 -1656.82 -1765.92
878.673 -1658.31 -1765.91
877.285 -1659.94 -1765.47
870.866 -1668.43 -1765.1
872.111 -1666.8 -1765.54
869.743 -1669.42 -1766.32
868.513 -1671.14 -1766.08
867.219 -1672.8 -1766.05
874.358 -1664.2 -1764.21
873.401 -1665.09 -1765.72
884.457 -1650.15 -1760.82
883.615 -1651.56 -1762.11
885.405 -1648.76 -1759.96
886.59 -1646.77 -1758.02
886.196 -1647.55 -1759.33
883.007 -1652.62 -1763.87
882.343 -1653.66 -1765.46
881.151 -1655.3 -1765.64
925.929 -1630.69 -1771.82
924.306 -1630.93 -1771.51
929.94 -1630.12 -1773.86
931.236 -1630.13 -1775.14
928.328 -1630.41 -1773.6
926.569 -1630.66 -1773.64
917.682 -1631.23 -1761.97
918.488 -1631.35 -1763.29
922.557 -1631.42 -1770.95
922.036 -1631.51 -1769
920.381 -1631.63 -1768.42
919.666 -1631.42 -1766.59
919.771 -1631.14 -1764.75
910.579 -1634.63 -1758.3
914.747 -1632.3 -1760.06
913.533 -1633.34 -1760.87
912.464 -1634.02 -1760.08
911.385 -1634.43 -1759.39
915.907 -1631.68 -1760.6
916.79 -1631.41 -1761.26
908.783 -1635.06 -1757.72
907.014 -1635.3 -1756.65
905.056 -1635.54 -1755.34
903.556 -1635.81 -1754.3
901.855 -1636.42 -1753.97
900.037 -1636.99 -1753.66
898.481 -1637.43 -1753.26
897.323 -1637.75 -1752.82
937.317 -1630.09 -1780.08
935.798 -1630.15 -1778.78
934.207 -1630.16 -1777.55
932.705 -1630 -1776.38
895.698 -1638.86 -1752.41
894.479 -1639.63 -1753.01
894.003 -1639.99 -1754.14
892.96 -1641.01 -1754.77
891.716 -1642.23 -1755.37
890.054 -1643.67 -1755.73
888.492 -1644.87 -1756.5
887.42 -1645.6 -1757.36
896.256 -1638.32 -1752.98
875.925 -1661.62 -1765.64
874.63 -1663.36 -1765.68
880.423 -1656.26 -1767.2
879.131 -1657.82 -1767.24
877.762 -1659.39 -1766.89
876.388 -1660.9 -1766.94
871.133 -1667.45 -1767.2
872.562 -1665.83 -1767.33
869.856 -1668.77 -1767.93
868.665 -1670.26 -1767.98
867.406 -1671.8 -1767.93
866.19 -1673.41 -1767.99
865.915 -1674.61 -1766.28
864.638 -1676.25 -1766.15
861.742 -1678.91 -1768.23
873.83 -1664.21 -1767.36
884.734 -1649.7 -1761.93
884.084 -1650.82 -1763.48
885.764 -1648.29 -1761.21
887.104 -1646.17 -1758.68
886.619 -1647.07 -1760.25
883.41 -1651.91 -1765.3
882.963 -1652.85 -1767.04
881.702 -1654.6 -1767.1
925.028 -1630.99 -1773.57
923.228 -1631.36 -1772.99
929.402 -1630.37 -1775.68
931.075 -1630.33 -1777.11
927.599 -1630.64 -1775.16
925.879 -1630.99 -1775.63
916.861 -1631.52 -1763.03
918.48 -1631.59 -1765.39
917.267 -1631.64 -1764.71
921.488 -1631.87 -1772.32
920.774 -1631.87 -1770.43
918.895 -1632.13 -1769.79
918.474 -1631.85 -1767.75
909.983 -1635.07 -1759.92
908.735 -1635.28 -1759
914.763 -1632.48 -1761.78
913.441 -1633.48 -1762.7
912.135 -1634.23 -1761.62
911.278 -1634.78 -1760.91
915.886 -1631.83 -1762.39
907.225 -1635.49 -1757.95
905.722 -1635.6 -1756.67
904.055 -1636.08 -1756.53
902.992 -1636.21 -1755.48
901.812 -1636.59 -1754.95
900.212 -1637.17 -1754.8
898.603 -1637.56 -1754.06
897.508 -1637.76 -1753.69
896.658 -1638.07 -1753.46
934.033 -1630.22 -1779.62
932.35 -1630.32 -1778.53
895.076 -1639.04 -1753.43
893.585 -1640.42 -1755.41
894.553 -1639.48 -1754.73
892.391 -1641.63 -1756.44
890.98 -1642.93 -1756.37
889.342 -1644.08 -1756.96
888.1 -1645.11 -1757.89
895.57 -1638.65 -1753.97
875.033 -1662.61 -1767.12
881.009 -1655.68 -1768.7
879.662 -1657.33 -1768.61
878.306 -1658.89 -1768.61
876.952 -1660.33 -1768.52
875.657 -1661.8 -1768.49
871.806 -1666.42 -1769.01
870.408 -1667.79 -1769.27
873.147 -1664.93 -1768.93
868.992 -1669.42 -1769.58
867.677 -1670.88 -1769.75
866.33 -1672.5 -1769.8
864.96 -1674.99 -1768.13
864.99 -1674.06 -1769.98
863.788 -1676.53 -1767.81
862.678 -1677.32 -1769.14
860.619 -1679.94 -1769.84
859.217 -1681.78 -1768.85
861.641 -1678.34 -1770.36
874.494 -1663.28 -1769.09
885.138 -1649.24 -1763.11
884.469 -1650.37 -1764.78
886.092 -1647.87 -1762.04
887.59 -1645.76 -1759.42
887.152 -1646.55 -1761.1
884.173 -1651.08 -1766.66
882.286 -1653.96 -1768.76
883.55 -1652.35 -1768.62
924.068 -1631.38 -1775.04
922.192 -1631.8 -1774.39
929.561 -1630.6 -1777.58
927.73 -1630.83 -1776.88
930.537 -1630.67 -1779.41
926.446 -1631.21 -1777.79
924.729 -1631.53 -1777.01
915.988 -1631.97 -1764.28
917.43 -1631.98 -1766.81
916.113 -1632.26 -1766.18
920.379 -1632.37 -1773.75
919.563 -1632.27 -1771.77
917.582 -1632.71 -1771.13
917.077 -1632.44 -1768.94
909.553 -1635.43 -1761.4
908.218 -1635.67 -1760.17
906.908 -1635.89 -1758.98
914.806 -1632.58 -1763.54
913.539 -1633.52 -1764.55
912.001 -1634.51 -1763.71
910.807 -1635.11 -1762.45
905.452 -1636 -1757.81
903.605 -1636.65 -1757.59
902.125 -1636.82 -1756.58
900.722 -1637.17 -1755.92
898.85 -1637.55 -1755.1
897.537 -1637.85 -1754.58
896.47 -1638.25 -1754.3
932.297 -1630.56 -1780.55
894.3 -1639.87 -1755.97
893.256 -1640.86 -1756.7
895.418 -1639 -1755.09
892.03 -1642.18 -1757.64
890.769 -1643.12 -1757.34
889.391 -1644.17 -1757.96
888.51 -1644.91 -1759.09
881.684 -1655.12 -1770.3
880.282 -1656.79 -1770.32
878.86 -1658.46 -1770.34
877.382 -1660.06 -1770.35
875.958 -1661.57 -1770.17
872.43 -1665.62 -1770.66
870.986 -1667.05 -1770.8
869.484 -1668.56 -1771.02
873.665 -1664.26 -1770.51
868.127 -1669.98 -1771.33
866.738 -1671.55 -1771.38
865.32 -1673.24 -1771.59
863.69 -1675.71 -1769.8
863.906 -1674.96 -1771.5
862.57 -1676.65 -1771.4
860.055 -1679.74 -1772.11
859.365 -1681.08 -1770.71
858.033 -1682.59 -1770.56
861.242 -1678.22 -1772.14
874.883 -1662.88 -1771.15
885.107 -1649.66 -1765.28
885.855 -1648.49 -1763.94
886.677 -1647.36 -1762.8
888.143 -1645.35 -1760.52
887.736 -1646.28 -1762.4
885.206 -1649.95 -1767.03
884.581 -1651.05 -1768.32
883.082 -1653.38 -1770.32
884.395 -1651.79 -1770.2
922.815 -1631.88 -1776.41
920.943 -1632.49 -1775.79
928.364 -1630.92 -1778.78
925.087 -1631.75 -1779.14
926.898 -1631.42 -1779.92
923.297 -1632.2 -1778.44
914.807 -1632.82 -1765.43
915.848 -1632.66 -1768.17
914.716 -1633.01 -1767.44
919.069 -1633.04 -1775.24
918.516 -1632.83 -1773.28
916.797 -1633.12 -1772.68
915.904 -1632.99 -1770.35
907.778 -1636.3 -1761.84
909.139 -1635.94 -1762.9
906.395 -1636.6 -1760.6
904.968 -1636.69 -1759.22
912.457 -1634.23 -1765.7
913.78 -1633.43 -1766.56
910.985 -1635.49 -1765.52
910.262 -1635.75 -1764.04
903.091 -1637.53 -1759.61
901.681 -1637.53 -1758.28
900.294 -1637.46 -1756.91
898.997 -1637.65 -1756.15
897.563 -1638.06 -1755.68
896.431 -1638.53 -1755.33
895.27 -1639.29 -1756.24
894.178 -1640.19 -1757.12
893.127 -1641.22 -1757.82
892.156 -1642.38 -1759.02
890.558 -1643.44 -1758.5
889.362 -1644.39 -1760.05
881.064 -1656.25 -1771.98
882.473 -1654.54 -1771.86
879.544 -1657.91 -1772.02
878.03 -1659.62 -1772.08
876.386 -1661.31 -1771.99
873.398 -1664.59 -1772.34
871.879 -1666.2 -1772.3
870.19 -1667.69 -1772.56
868.738 -1669.16 -1772.83
867.356 -1670.59 -1772.98
865.901 -1672.24 -1772.94
864.455 -1674.06 -1773.29
863.194 -1675.48 -1773.18
861.978 -1676.99 -1773.43
860.536 -1678.45 -1773.87
859.214 -1680.08 -1774.07
858.567 -1681.33 -1772.48
857.205 -1682.78 -1772.71
856.523 -1684.03 -1771.3
854.636 -1686.94 -1770.33
855.233 -1685.5 -1771.72
874.896 -1663.04 -1772.93
886.071 -1648.7 -1765.79
887.036 -1647.43 -1764.51
888.872 -1645.22 -1761.93
888.265 -1646.22 -1763.89
885.353 -1650.43 -1769.33
886.155 -1649.19 -1767.99
883.928 -1652.78 -1771.79
885.452 -1651.02 -1771.41
921.447 -1632.63 -1777.82
919.606 -1633.17 -1777.2
923.677 -1632.41 -1780.49
921.9 -1632.86 -1779.82
914.531 -1633.28 -1769.55
913.796 -1633.45 -1768.57
917.721 -1633.69 -1776.67
917.157 -1633.44 -1774.72
915.396 -1633.76 -1773.99
915.271 -1633.46 -1772.1
914.026 -1633.76 -1771.45
907.518 -1636.92 -1763.49
905.915 -1637.35 -1762.44
908.741 -1636.57 -1764.62
904.593 -1637.5 -1761.13
912.948 -1633.94 -1767.71
911.481 -1635.22 -1767.16
909.792 -1636.47 -1767.24
909.476 -1636.51 -1765.75
902.648 -1638.29 -1761.46
900.937 -1638.33 -1760.02
899.545 -1638.2 -1758.4
897.929 -1638.31 -1757.13
896.373 -1638.82 -1756.64
894.96 -1639.84 -1757.74
893.613 -1641.04 -1758.6
892.687 -1642.25 -1760.17
890.796 -1643.49 -1759.97
889.987 -1644.42 -1761.69
881.929 -1655.66 -1773.59
880.456 -1657.29 -1773.69
883.352 -1653.98 -1773.36
879.01 -1658.91 -1773.75
877.519 -1660.43 -1773.84
876.159 -1661.78 -1773.83
872.459 -1665.7 -1773.98
873.894 -1664.28 -1774.33
871.028 -1667.01 -1774
869.445 -1668.39 -1774.6
867.94 -1669.82 -1774.64
866.595 -1671.39 -1774.56
865.246 -1672.94 -1774.44
864.06 -1674.37 -1775.28
862.709 -1675.88 -1775.07
861.284 -1677.46 -1775.3
859.773 -1678.95 -1775.65
858.411 -1680.34 -1776.02
857.718 -1681.54 -1774.4
856.392 -1683.03 -1774.72
855.766 -1684.2 -1773.24
853.994 -1686.89 -1772.36
853.358 -1688.45 -1771.09
854.51 -1685.65 -1773.71
875.28 -1662.92 -1775.13
887.211 -1647.89 -1766.87
888.012 -1646.93 -1765.76
889.457 -1645.24 -1763.64
889.067 -1646.09 -1765.65
886.414 -1649.58 -1770.11
887.372 -1648.27 -1768.77
884.805 -1652.3 -1773.1
887.072 -1649.68 -1772.13
886.299 -1650.91 -1773.4
920.073 -1633.41 -1779.18
918.267 -1633.95 -1778.56
913.396 -1633.88 -1770.68
912.973 -1634 -1769.56
916.431 -1634.4 -1777.84
915.81 -1634.16 -1776
914.202 -1634.42 -1775.13
913.896 -1634.14 -1773.35
912.702 -1634.41 -1772.63
906.537 -1637.77 -1764.76
905.168 -1638.22 -1764.06
903.932 -1638.36 -1762.92
907.719 -1637.41 -1765.74
911.989 -1634.71 -1769.22
910.553 -1635.86 -1768.83
908.692 -1637.31 -1768.93
908.231 -1637.39 -1767.15
902.162 -1639.1 -1763.63
900.808 -1638.95 -1761.99
898.912 -1639.04 -1760.42
897.921 -1638.85 -1758.79
896.426 -1639.18 -1758.11
894.095 -1641.02 -1759.53
895.457 -1640.16 -1759.46
893.352 -1642.22 -1761.55
891.596 -1643.41 -1761.49
890.999 -1644.31 -1763.39
881.441 -1656.72 -1775.39
882.89 -1655.12 -1775.23
879.926 -1658.33 -1775.48
884.24 -1653.55 -1774.89
878.452 -1659.82 -1775.6
876.87 -1661.35 -1775.76
872.702 -1665.54 -1775.84
871.082 -1666.99 -1775.78
874.195 -1664.18 -1776.43
869.607 -1668.22 -1776.56
868.278 -1669.45 -1776.55
866.969 -1670.88 -1776.37
865.527 -1672.5 -1776.12
861.926 -1676.51 -1776.87
855.102 -1684.5 -1775.11
852.816 -1688.29 -1773.02
853.31 -1687.06 -1774.31
851.995 -1690.01 -1771.91
853.919 -1685.95 -1775.71
888.666 -1646.94 -1767.65
890.436 -1645.19 -1765.37
889.948 -1646.05 -1767.38
887.807 -1648.58 -1770.83
888.654 -1647.51 -1769.52
885.665 -1652.1 -1774.97
887.986 -1649.69 -1774.19
888.687 -1648.56 -1772.82
887.178 -1650.95 -1775.58
918.665 -1634.22 -1780.47
916.837 -1634.81 -1779.72
912.159 -1634.45 -1771.3
914.846 -1635.2 -1778.83
914.683 -1634.65 -1776.92
913.116 -1634.98 -1776.04
912.677 -1634.74 -1774.49
911.086 -1635.28 -1772.64
911.464 -1635.27 -1774.11
906.473 -1638.25 -1766.8
905.089 -1638.72 -1765.85
903.605 -1639.08 -1764.96
911.059 -1635.23 -1770.83
909.735 -1636.53 -1770.31
907.286 -1638.08 -1768.64
907.464 -1638.11 -1770.61
908.526 -1637.33 -1771.39
901.621 -1639.82 -1765.74
900.326 -1639.79 -1764.13
899.188 -1639.6 -1762.41
897.566 -1639.97 -1761.86
896.968 -1639.59 -1760.1
894.648 -1641.19 -1761.13
896.01 -1640.59 -1761.59
894.613 -1641.92 -1763.07
892.758 -1643.21 -1763.27
892.118 -1644.22 -1765.2
882.477 -1656.19 -1777.1
883.817 -1654.7 -1776.85
879.681 -1659.07 -1777.39
885.043 -1653.37 -1776.53
852.21 -1688.43 -1775.12
851.743 -1689.52 -1773.75
852.77 -1687.36 -1776.42
889.875 -1646.66 -1769.38
891.52 -1645.13 -1767.2
891.26 -1645.81 -1769.2
889.373 -1647.59 -1771.31
886.354 -1652.33 -1777.01
889.567 -1648.64 -1774.83
888.765 -1649.87 -1776.27
890.326 -1647.55 -1773.22
887.841 -1651.27 -1777.65
913.155 -1635.52 -1777.72
911.764 -1635.64 -1776.22
909.721 -1636.31 -1774
909.94 -1636.2 -1772.27
910.521 -1636.05 -1775.42
905.881 -1638.78 -1768.46
904.804 -1639.16 -1767.56
903.446 -1639.52 -1766.81
906.071 -1638.84 -1770.31
907.461 -1638.12 -1772.89
906.221 -1638.85 -1772.25
908.689 -1637.06 -1773.3
901.706 -1640.21 -1767.77
899.274 -1640.61 -1765.57
900.171 -1640.6 -1767.03
898.284 -1640.43 -1763.83
896.592 -1641.04 -1763.41
893.867 -1643.05 -1764.95
895.62 -1642.04 -1764.87
893.32 -1644.06 -1766.91
885.178 -1653.99 -1778.43
851.061 -1690.07 -1775.42
890.909 -1646.59 -1771.26
893.013 -1644.82 -1768.84
892.632 -1645.48 -1770.84
890.097 -1649.16 -1777.22
891.043 -1647.99 -1775.88
889.225 -1650.45 -1778.59
892.171 -1646.23 -1772.76
891.774 -1647 -1774.45
911.482 -1636.89 -1779.52
911.567 -1636.31 -1777.97
910.126 -1636.75 -1776.9
908.809 -1637.2 -1775.62
907.982 -1637.7 -1774.64
904.66 -1639.49 -1769.65
903.317 -1639.9 -1768.76
904.704 -1639.64 -1771.58
906.507 -1638.69 -1774.32
904.865 -1639.57 -1773.54
901.432 -1640.59 -1769.68
899.844 -1641.14 -1768.78
898.358 -1641.56 -1767.38
897.498 -1641.33 -1765.32
895.023 -1643.03 -1766.7
896.629 -1642.15 -1766.59
894.869 -1643.73 -1768.58
894.548 -1644.4 -1770.45
894.098 -1645.06 -1772.34
891.625 -1648.48 -1778.27
892.601 -1647.36 -1777.06
893.66 -1645.72 -1774.1
893.263 -1646.43 -1775.7
910.207 -1637.93 -1780.45
909.874 -1637.35 -1778.52
908.346 -1637.81 -1777.19
907.046 -1638.45 -1776.06
903.112 -1640.18 -1770.75
903.247 -1640.33 -1772.7
905.256 -1639.49 -1775.3
903.382 -1640.36 -1774.65
901.498 -1640.93 -1771.66
899.835 -1641.59 -1770.69
898.243 -1642.13 -1769.49
896.712 -1642.66 -1768.33
896.442 -1643.25 -1770.16
896.071 -1643.92 -1772.06
895.472 -1644.67 -1774
893.466 -1647.48 -1778.93
894.443 -1646.28 -1777.44
895.048 -1645.3 -1775.81
908.393 -1638.38 -1779.14
908.49 -1639.09 -1781.06
906.913 -1638.94 -1778.05
905.481 -1639.56 -1776.96
901.66 -1641.17 -1773.81
903.656 -1640.37 -1776.36
901.842 -1641.24 -1775.78
900.139 -1641.82 -1772.59
898.042 -1642.69 -1771.56
897.196 -1643.6 -1773.78
896.883 -1644.22 -1775.77
894.311 -1647.7 -1780.81
895.27 -1646.39 -1779.25
896.279 -1645.12 -1777.57
906.863 -1639.58 -1779.97
905.393 -1640.05 -1778.9
903.962 -1640.55 -1777.9
900.282 -1642.06 -1774.82
902.234 -1641.39 -1777.49
900.398 -1642.32 -1776.73
898.815 -1642.67 -1773.45
898.669 -1643.06 -1775.31
898.486 -1643.51 -1777.01
896.095 -1646.63 -1781.25
896.96 -1645.43 -1779.69
897.901 -1644.31 -1778.38
905.122 -1640.83 -1780.67
903.412 -1641.31 -1779.42
901.422 -1642.19 -1778.69
899.758 -1643.2 -1778.52
898.868 -1644.36 -1780.09
902.224 -1642.41 -1780.46
900.638 -1643.39 -1780.41
