1084.81 -1704.57 -1511.53
1085.92 -1705.59 -1512.44
1085.9 -1704.09 -1513.25
1084.81 -1702.76 -1512.79
1083.48 -1701.54 -1512.34
1082.13 -1699.99 -1511.84
1079.01 -1696.5 -1511.55
1081.2 -1698.35 -1512.01
1080.61 -1697.04 -1512.58
1076.81 -1693.42 -1512.76
1078.5 -1694.55 -1513.24
1086.76 -1706.9 -1512.86
1086.86 -1705.34 -1513.9
1087.06 -1704.27 -1514.74
1086.04 -1702.79 -1514.31
1084.93 -1701.38 -1513.9
1083.71 -1700.1 -1513.34
1082.57 -1698.74 -1513.05
1079.71 -1695.75 -1512.99
1082.15 -1697.57 -1513.69
1081.09 -1696.27 -1513.88
1077.74 -1693.45 -1514.23
1076.3 -1692.53 -1514.46
1074.34 -1691.83 -1513.97
1073.58 -1691.01 -1515.35
1079.15 -1694.19 -1514.69
1080.13 -1695.11 -1514.22
1087.28 -1708.36 -1512.68
1087.2 -1706.75 -1513.64
1087.97 -1706 -1514.88
1088.06 -1705.4 -1515.36
1087.24 -1703.49 -1515.48
1088.3 -1704.99 -1515.93
1086.26 -1701.76 -1515.37
1085 -1700.4 -1514.69
1083.7 -1698.95 -1514.21
1082.29 -1696.93 -1514.63
1083.47 -1697.96 -1514.94
1081.47 -1695.92 -1515.01
1077.96 -1693.06 -1515.49
1075.36 -1691.71 -1515.4
1076.84 -1692.15 -1516.15
1073.06 -1690.37 -1516.79
1075.16 -1691.17 -1516.72
1080.55 -1694.91 -1515.45
1079.29 -1693.97 -1515.91
1087.44 -1707.55 -1513.48
1087.74 -1708.92 -1513.09
1087.98 -1706.56 -1514.61
1089.08 -1706.37 -1514.51
1089.31 -1706.58 -1514.74
1089.27 -1706.2 -1515.28
1088.54 -1704.6 -1516.47
1087.69 -1703.11 -1516.49
1089.4 -1705.89 -1516.01
1087.02 -1701.8 -1516.53
1085.93 -1700.56 -1515.86
1084.81 -1699.32 -1515.38
1083.06 -1697.03 -1515.59
1084.35 -1698.34 -1515.82
1081.95 -1695.86 -1516.03
1078.22 -1692.86 -1516.75
1076.9 -1691.86 -1517.29
1072.12 -1689.61 -1518.41
1073.99 -1690.44 -1518.13
1070.28 -1688.66 -1518.83
1068.54 -1687.68 -1519.29
1075.69 -1691.11 -1518.22
1080.69 -1694.79 -1516.66
1079.4 -1693.75 -1517.12
1091.17 -1714.51 -1514.75
1092.52 -1714.53 -1515.89
1089.89 -1712.6 -1514.16
1088.7 -1711.38 -1513.5
1091.16 -1713.46 -1514.47
1088.35 -1710.29 -1513.55
1088.04 -1707.18 -1514.28
1087.85 -1708.28 -1513.59
1088.34 -1709.5 -1513.81
1088.72 -1706.24 -1514.34
1089.73 -1708.01 -1514.07
1089.44 -1707.58 -1513.8
1089.91 -1707.78 -1514.75
1090.16 -1708.34 -1514.45
1089.58 -1707.34 -1515.28
1088.92 -1704.31 -1517.27
1089.49 -1705.61 -1516.76
1088.13 -1702.83 -1517.57
1089.83 -1707.11 -1516.02
1086.85 -1700.92 -1516.98
1085.72 -1699.75 -1516.37
1084.69 -1698.38 -1516.44
1083.37 -1697.06 -1516.56
1081.99 -1695.78 -1517.28
1078.12 -1692.45 -1517.93
1076.65 -1691.5 -1519.12
1073.04 -1689.68 -1519.64
1071.55 -1688.81 -1520.2
1074.65 -1690.45 -1519.57
1069.91 -1687.87 -1520.75
1068.38 -1686.85 -1521.36
1066.65 -1685.82 -1521.73
1080.64 -1694.65 -1517.87
1079.24 -1693.56 -1518.25
1092.01 -1713.4 -1515.74
1093.46 -1716.11 -1517.28
1093.34 -1714.36 -1516.85
1092.96 -1712.93 -1516.35
1091.64 -1711.82 -1515.06
1089.61 -1711.77 -1514.49
1091.12 -1711.53 -1514.96
1089.1 -1710.5 -1514.44
1088.71 -1706.42 -1514.01
1088.19 -1707.48 -1513.95
1088.48 -1708.83 -1513.96
1089.49 -1709.62 -1514.89
1089.86 -1708.74 -1513.76
1090.43 -1709.16 -1514.37
1089.39 -1708.02 -1513.4
1090.87 -1708.15 -1515.15
1090.91 -1708.92 -1515.1
1090.93 -1709.52 -1514.93
1091.03 -1708.01 -1515.65
1089.39 -1704.78 -1517.89
1089.9 -1706.49 -1517.03
1088.68 -1703.51 -1518.38
1087.72 -1701.94 -1517.94
1090.87 -1707.82 -1516.56
1086.96 -1700.66 -1517.66
1086.03 -1699.59 -1517.13
1084.78 -1698.3 -1517.39
1083.32 -1696.94 -1517.88
1081.86 -1695.59 -1518.56
1078.07 -1692.43 -1519.24
1076.78 -1691.63 -1520.56
1075.34 -1690.74 -1520.5
1073.53 -1689.63 -1521.13
1072.39 -1688.95 -1521.2
1071.08 -1688.09 -1521.96
1069.67 -1687.13 -1522.76
1068.22 -1686.09 -1523.24
1066.55 -1685.2 -1523.69
1080.47 -1694.49 -1519.04
1079.08 -1693.52 -1519.44
1094.24 -1716.88 -1518.43
1094.83 -1720.17 -1519.44
1094.94 -1718.8 -1519.34
1094.75 -1717.26 -1518.96
1092.33 -1711.98 -1515.78
1093.96 -1715.17 -1517.92
1093.78 -1713.42 -1517.59
1093.27 -1712.41 -1516.88
1092.41 -1711.38 -1516.21
1091.63 -1710.72 -1515.34
1091.1 -1710.33 -1514.73
1090.59 -1711.43 -1515.33
1090.94 -1710.67 -1514.41
1090.23 -1710.72 -1515.26
1088.71 -1706.53 -1513.68
1088.65 -1706.72 -1513.4
1088.26 -1708.08 -1513.5
1089.93 -1709.77 -1513.72
1089.47 -1709.23 -1513.2
1089.85 -1709.14 -1513.5
1090.43 -1709.63 -1514.11
1089.25 -1708.23 -1513.07
1091.47 -1709.37 -1515.99
1091.59 -1710.05 -1515.67
1091.47 -1709.16 -1516.62
1090.15 -1706.66 -1517.73
1089.86 -1705.4 -1518.47
1087.94 -1702.27 -1518.74
1089.29 -1704.02 -1519.07
1090.83 -1708.09 -1517.67
1091.4 -1708.98 -1517.25
1087.05 -1700.82 -1518.36
1086.11 -1699.65 -1518.05
1084.58 -1698.16 -1518.57
1083.18 -1696.82 -1519.16
1081.79 -1695.53 -1519.8
1077.96 -1692.53 -1520.73
1075.54 -1690.92 -1522.03
1076.66 -1691.79 -1522.14
1074.31 -1690.02 -1521.97
1072.3 -1688.58 -1522.77
1073.2 -1689.17 -1523.17
1070.84 -1687.54 -1523.76
1069.51 -1686.43 -1524.78
1067.97 -1685.5 -1525.09
1066.1 -1684.5 -1525.78
1064.27 -1683.46 -1525.21
1080.38 -1694.51 -1520.22
1078.98 -1693.55 -1520.7
1094.52 -1715.71 -1518.74
1096.36 -1722.83 -1522.82
1095.45 -1720.02 -1520.56
1096.48 -1724.37 -1523.96
1095.22 -1718.33 -1520.24
1094.96 -1716.65 -1519.58
1094.25 -1714.08 -1518.53
1093.2 -1711.75 -1517.37
1093.76 -1712.59 -1518.08
1092.41 -1710.81 -1516.61
1090.48 -1710.29 -1514.04
1088.64 -1706.72 -1513.11
1088.36 -1707.93 -1513.11
1089 -1708.08 -1512.75
1089.17 -1709.07 -1512.91
1092.46 -1710.28 -1517.03
1092.47 -1709.84 -1517.58
1090.65 -1707.41 -1518.48
1090.16 -1705.86 -1519.14
1088.59 -1703.21 -1519.73
1087.7 -1701.87 -1519.31
1089.68 -1704.72 -1519.93
1091.75 -1709.21 -1518.22
1086.82 -1700.62 -1519.1
1085.71 -1699.45 -1519.1
1084.42 -1698.23 -1519.73
1083.12 -1697 -1520.33
1081.76 -1695.85 -1520.84
1077.77 -1692.71 -1522.17
1075.42 -1691.02 -1523.63
1074.28 -1690 -1523.56
1076.48 -1691.95 -1523.77
1071.99 -1688.09 -1524.5
1073.02 -1688.92 -1524.82
1070.72 -1687.04 -1525.64
1069.65 -1686.09 -1526.84
1067.97 -1685.2 -1526.71
1066.55 -1684.4 -1527.78
1064.71 -1683.67 -1527.12
1063.01 -1682.84 -1526.51
1080.36 -1694.83 -1521.23
1078.96 -1693.96 -1521.83
1094.69 -1714.87 -1519.54
1096.76 -1726.37 -1525.08
1096.44 -1722.04 -1523.88
1096.03 -1721.06 -1522.39
1095.3 -1719.69 -1521.41
1096.37 -1723.56 -1524.87
1096.92 -1725.06 -1525.55
1095.28 -1717.8 -1521.02
1094.66 -1716.4 -1520.32
1094.24 -1713.39 -1519.03
1093.12 -1711.1 -1517.94
1093.66 -1711.9 -1518.65
1088.6 -1706.79 -1512.77
1088.47 -1707.98 -1512.69
1088.8 -1707.97 -1512.48
1088.98 -1709.01 -1512.56
1092.96 -1710.34 -1518.51
1090.74 -1707.24 -1519.34
1091.49 -1708.75 -1519.01
1090.36 -1706.26 -1520.22
1089.39 -1704.47 -1520.85
1088.49 -1702.97 -1520.51
1087.66 -1701.67 -1520.1
1092.71 -1709.99 -1519.2
1086.82 -1700.79 -1520.33
1085.76 -1699.72 -1520.16
1084.46 -1698.5 -1520.85
1083.08 -1697.32 -1521.39
1081.72 -1696.23 -1521.82
1077.78 -1693.27 -1523.09
1074.97 -1690.87 -1525.13
1074.01 -1689.86 -1525.05
1076.77 -1692.66 -1524.5
1075.65 -1691.67 -1525.52
1071.85 -1687.81 -1526.27
1072.76 -1688.7 -1526.44
1070.91 -1686.88 -1527.44
1068.38 -1685.15 -1528.4
1069.81 -1685.98 -1528.68
1067.01 -1684.35 -1529.72
1065.21 -1683.58 -1529.12
1063.3 -1682.76 -1528.42
1080.34 -1695.3 -1522.29
1079.11 -1694.7 -1523.03
1094.32 -1714.59 -1520.2
1097.27 -1728.26 -1526.45
1097.28 -1726.69 -1526.84
1096.41 -1721.66 -1525.04
1095.93 -1720.71 -1523.49
1095.67 -1719.23 -1522.24
1096.56 -1723.44 -1526.08
1097.24 -1725.1 -1527.15
1095.12 -1717.39 -1521.86
1094.5 -1716.11 -1521.29
1094.14 -1712.97 -1519.54
1093.54 -1711.41 -1519.29
1088.56 -1707.28 -1512.38
1088.78 -1708.82 -1512.18
1091.27 -1708.28 -1519.92
1092.25 -1709.8 -1519.85
1090.12 -1705.78 -1521.29
1090.94 -1707.56 -1520.96
1089.15 -1704.16 -1521.84
1088.46 -1702.76 -1521.27
1087.8 -1701.82 -1521.26
1093.1 -1711.33 -1519.96
1085.72 -1699.91 -1521.31
1086.89 -1700.93 -1521.42
1084.34 -1698.73 -1521.91
1082.94 -1697.63 -1522.46
1081.57 -1696.54 -1522.83
1077.81 -1694.05 -1523.89
1074.48 -1690.67 -1526.71
1073.67 -1689.66 -1526.53
1075.93 -1692.54 -1525.9
1076.85 -1693.49 -1525.1
1075.01 -1691.61 -1527.05
1071.8 -1687.61 -1528.16
1072.61 -1688.52 -1528.1
1070.93 -1686.76 -1529.12
1068.52 -1685.08 -1530.18
1069.82 -1685.94 -1530.44
1067.35 -1684.34 -1531.64
1065.77 -1683.6 -1531.12
1063.85 -1682.79 -1530.42
1062 -1681.95 -1529.84
1080.59 -1696.18 -1523.69
1078.97 -1695.21 -1524.27
1093.98 -1714.39 -1520.93
1093.74 -1712.81 -1520.11
1097.56 -1730.08 -1527.64
1097.38 -1728.39 -1528.22
1097.45 -1726.79 -1528.55
1096.37 -1721.42 -1526.35
1095.68 -1720.02 -1524.78
1095.68 -1718.69 -1523.28
1096.66 -1723.61 -1527.46
1097.34 -1725.23 -1528.75
1094.95 -1717.16 -1523.06
1094.53 -1715.83 -1522.94
1091.8 -1709.48 -1520.91
1092.54 -1711.26 -1520.76
1090.61 -1706.92 -1522.18
1089.67 -1705.26 -1522.63
1091.34 -1708.78 -1522.29
1088.62 -1703.3 -1522.61
1087.84 -1702.26 -1522.61
1093.29 -1712.97 -1521.12
1085.58 -1700.13 -1522.5
1086.82 -1701.25 -1522.64
1084.08 -1698.96 -1523.04
1082.41 -1697.73 -1523.73
1077.57 -1694.67 -1525.12
1073.47 -1689.58 -1527.99
1074.16 -1690.7 -1528.14
1075.45 -1692.63 -1527.07
1076.38 -1693.86 -1526.29
1074.78 -1691.93 -1528.35
1070.93 -1686.83 -1530.58
1071.72 -1687.6 -1529.91
1072.54 -1688.55 -1529.68
1068.64 -1685.13 -1531.9
1069.88 -1686.05 -1532.03
1066.07 -1683.63 -1533.06
1067.55 -1684.47 -1533.48
1064.36 -1682.83 -1532.41
1062.57 -1682.02 -1531.84
1060.73 -1681.14 -1531.55
1080.12 -1696.46 -1524.87
1081.55 -1697.67 -1524.88
1078.76 -1695.92 -1525.7
1094.31 -1714.32 -1522.11
1097.86 -1730.26 -1529.33
1097.73 -1728.45 -1529.96
1097.6 -1727.04 -1530.18
1096.47 -1722.18 -1527.9
1095.83 -1720.54 -1527.83
1095.61 -1719.49 -1526.36
1095.53 -1718.3 -1524.72
1096.72 -1723.77 -1529.32
1097.14 -1725.87 -1530.31
1094.79 -1716.72 -1524.65
1094.35 -1715.08 -1524.14
1098.04 -1733.33 -1529.89
1098.19 -1731.84 -1530.45
1092.24 -1710.71 -1522.31
1093.1 -1712.18 -1522.21
1090.84 -1708.23 -1523.72
1090.09 -1706.44 -1523.59
1089.12 -1704.64 -1523.76
1091.77 -1710.13 -1523.75
1088.39 -1703.67 -1524.18
1087.6 -1702.65 -1524.05
1093.58 -1713.52 -1523.36
1085.29 -1700.41 -1523.82
1086.51 -1701.59 -1524.04
1083.75 -1699.14 -1524.17
1082.85 -1698.99 -1525.22
1077.32 -1695.45 -1526.58
1073.4 -1689.63 -1529.43
1074.01 -1690.86 -1529.44
1075.55 -1693.55 -1527.68
1076.19 -1695 -1527.65
1074.38 -1692.07 -1529.69
1075.03 -1693.21 -1528.77
1071.03 -1687.09 -1532.27
1071.87 -1687.96 -1531.69
1072.66 -1688.93 -1531.28
1068.84 -1685.34 -1533.7
1070.23 -1686.42 -1533.59
1066.31 -1683.79 -1534.99
1064.67 -1682.87 -1534.39
1067.77 -1684.75 -1535.49
1063.01 -1682.04 -1533.88
1061.29 -1681.24 -1533.27
1059.69 -1680.37 -1533.64
1057.96 -1679.4 -1533.01
1080.31 -1697.51 -1526.1
1081.67 -1699.01 -1526.45
1078.8 -1696.94 -1527.03
1098.14 -1730.31 -1530.81
1097.93 -1728.74 -1531.35
1097.58 -1727.27 -1531.83
1096.21 -1721.79 -1529.49
1095.52 -1718.54 -1528.17
1095.69 -1719.84 -1529.71
1095.21 -1717.71 -1526.38
1096.98 -1724.53 -1530.85
1096.43 -1722.87 -1531.06
1097.16 -1725.99 -1532.22
1094.69 -1716.15 -1526.16
1094.34 -1714.97 -1526.04
1093.78 -1713.7 -1524.78
1098.42 -1735.59 -1532.22
1098.4 -1733.65 -1531.56
1098.45 -1731.92 -1531.92
1092.77 -1711.89 -1523.84
1091.07 -1709.32 -1525.22
1090.24 -1707.46 -1524.89
1089.22 -1705.38 -1524.94
1092.08 -1711.01 -1525.35
1088.37 -1704.49 -1525.47
1087.26 -1703.01 -1525.38
1084.56 -1700.39 -1525.13
1085.85 -1701.69 -1525.29
1083.34 -1700.5 -1526.16
1077.33 -1696.55 -1528
1073.35 -1689.96 -1530.82
1073.72 -1691.03 -1530.83
1075.52 -1694.74 -1528.85
1075.86 -1696.26 -1528.86
1074.61 -1693.35 -1530.06
1074.06 -1692.26 -1531.04
1074.99 -1694.71 -1529.79
1071.41 -1687.74 -1533.9
1070.62 -1686.97 -1534.81
1072.16 -1688.58 -1533.29
1072.82 -1689.43 -1532.81
1069.27 -1685.85 -1535.32
1066.35 -1683.92 -1536.79
1064.75 -1682.89 -1536.27
1063.11 -1681.98 -1535.84
1068.32 -1685.38 -1537.02
1066.93 -1684.46 -1538.1
1061.44 -1681.14 -1535.12
1059.97 -1680.28 -1535.96
1058.39 -1679.5 -1534.96
1080.01 -1698.58 -1527.31
1080.32 -1700.49 -1527.41
1081.8 -1700.8 -1526.88
1078.29 -1698.29 -1528.02
1098.26 -1730.42 -1532.28
1097.87 -1728.85 -1532.78
1097.62 -1727.43 -1533.45
1096.07 -1721.06 -1531.38
1094.88 -1716.94 -1528.07
1095.34 -1717.88 -1530.14
1095.55 -1719.22 -1531.56
1096.75 -1724.24 -1532.49
1096.19 -1722.47 -1532.95
1097.1 -1725.63 -1533.89
1094.59 -1715.62 -1527.97
1094.04 -1714.73 -1527.98
1093.77 -1713.86 -1526.45
1093.06 -1712.43 -1525.34
1098.48 -1737.22 -1533.35
1098.67 -1735.22 -1533.61
1098.6 -1733.52 -1533.02
1098.4 -1739.49 -1533.65
1098.37 -1732.09 -1533.5
1091.42 -1710.48 -1526.81
1090.44 -1708.56 -1526.36
1089.56 -1706.62 -1525.84
1092.59 -1712.39 -1526.59
1088.64 -1705.99 -1526.81
1087.6 -1704.45 -1526.64
1086.27 -1703.04 -1526.37
1084.39 -1702.11 -1526.36
1082.58 -1702.11 -1527.19
1076.47 -1698.12 -1528.7
1073.27 -1690.27 -1532.36
1073.58 -1691.3 -1532.19
1075.07 -1696.42 -1529.77
1074.81 -1697.97 -1529.42
1074.39 -1694.86 -1530.75
1074.35 -1693.49 -1531.34
1073.85 -1692.34 -1532.42
1074.44 -1696.52 -1530.61
1071.64 -1688.37 -1535.44
1070.85 -1687.57 -1536.12
1069.84 -1686.59 -1536.57
1072.25 -1689.12 -1534.84
1072.84 -1689.9 -1534.28
1064.99 -1683.1 -1538.01
1063.26 -1682.04 -1537.76
1061.65 -1681.1 -1537.18
1069.09 -1686.33 -1538.24
1067.92 -1685.51 -1539.07
1065.44 -1683.56 -1539.47
1066.66 -1684.66 -1540.09
1060.22 -1680.17 -1538.21
1058.7 -1679.34 -1537.23
1057.19 -1678.61 -1536.12
1078.72 -1700.23 -1527.99
1079.25 -1701.86 -1528.54
1080.81 -1702.15 -1528.03
1077.05 -1699.97 -1528.59
1098.14 -1730.44 -1533.59
1097.88 -1729.05 -1534.48
1097.39 -1727.08 -1535.09
1095.87 -1720.61 -1533.32
1094.74 -1716.48 -1529.55
1094.91 -1716.86 -1531.21
1095.24 -1717.77 -1532.26
1095.41 -1718.99 -1533.42
1096.48 -1723.84 -1534.2
1095.84 -1721.78 -1534.72
1096.9 -1725.12 -1535.61
1094.42 -1715.52 -1529.98
1093.79 -1714.42 -1529.59
1093.33 -1713.5 -1527.92
1098.52 -1738.23 -1534.9
1098.62 -1736.43 -1534.44
1098.61 -1734.28 -1534.44
1098.58 -1740.48 -1535.36
1098.47 -1732.69 -1534.98
1098.2 -1730.91 -1535.18
1092.08 -1712.03 -1528.05
1091.19 -1710.86 -1528.62
1090.53 -1709.34 -1527.85
1089.68 -1707.78 -1527.21
1087.73 -1705.85 -1528.05
1088.74 -1707.31 -1528.26
1086.63 -1704.6 -1527.7
1085.1 -1703.52 -1527.35
1083.28 -1703.29 -1527.72
1081.48 -1703.41 -1528.64
1075.4 -1699.75 -1529.19
1073.29 -1690.68 -1533.58
1073.5 -1691.4 -1534.09
1074.03 -1698.15 -1530.36
1073.72 -1699.59 -1529.95
1073.85 -1696.36 -1531.56
1074.13 -1694.93 -1531.97
1074.18 -1693.63 -1532.55
1073.79 -1692.6 -1533.77
1073.63 -1697.92 -1531.35
1071.07 -1688.18 -1537.62
1071.8 -1688.98 -1536.95
1070.16 -1687.28 -1538.03
1072.52 -1689.82 -1536.22
1073.02 -1690.61 -1535.43
1063.66 -1682.3 -1539.45
1061.81 -1681.12 -1539.3
1069.1 -1686.83 -1539.96
1067.7 -1685.83 -1540.99
1065.44 -1683.85 -1541.29
1064.15 -1682.77 -1541.1
1066.36 -1684.88 -1542.16
1059.98 -1679.87 -1540.16
1058.64 -1679.08 -1539.35
1057.2 -1678.34 -1538.26
1055.91 -1677.69 -1536.95
1077.53 -1701.53 -1529.09
1078.11 -1702.77 -1529.73
1079.69 -1703.45 -1529.49
1075.96 -1701.43 -1529.74
1097.88 -1730.28 -1535.9
1097.5 -1728.32 -1536.26
1096.95 -1726.36 -1536.91
1095.39 -1719.64 -1535.08
1094.68 -1716.08 -1531.92
1095.04 -1716.98 -1533.03
1095.28 -1717.88 -1534.14
1096.14 -1723.31 -1535.9
1095.65 -1721.19 -1536.34
1096.27 -1724.34 -1537.4
1094.28 -1714.98 -1531.48
1093.54 -1714.01 -1530.97
1092.9 -1713.12 -1529.42
1098.53 -1739.1 -1536.47
1098.61 -1737.47 -1536.37
1098.69 -1735.74 -1535.72
1098.43 -1733.95 -1536.35
1098.86 -1741.01 -1537.33
1098.11 -1732.56 -1536.48
1092.06 -1712.1 -1529.78
1091.18 -1711.17 -1530.3
1090.47 -1709.99 -1529.36
1089.62 -1708.8 -1528.71
1087.8 -1707.14 -1529.36
1086.43 -1706.02 -1529.2
1088.94 -1708.8 -1529.78
1085.09 -1704.76 -1528.72
1083.79 -1704.43 -1528.43
1082.25 -1704.65 -1529.19
1080.68 -1704.81 -1530.03
1074.38 -1700.92 -1530.1
1073.5 -1692.27 -1535.43
1073.28 -1691.39 -1536.27
1073.02 -1700.53 -1530.8
1073.21 -1699.37 -1531.12
1073.26 -1701.42 -1531.05
1073.25 -1698.01 -1532.27
1073.56 -1696.51 -1532.64
1073.85 -1695.15 -1533.09
1073.97 -1693.95 -1533.76
1073.62 -1693.49 -1534.98
1072.88 -1699.75 -1532.11
1071.35 -1689.02 -1539.11
1070.32 -1687.9 -1539.42
1072.26 -1689.89 -1538.22
1072.85 -1690.67 -1537.36
1062.62 -1681.69 -1541.09
1061.05 -1680.6 -1541.3
1069.5 -1687.67 -1541.33
1068.29 -1686.75 -1542.21
1063.28 -1682.4 -1542.84
1059.37 -1679.44 -1542.16
1058.27 -1678.71 -1541.3
1056.96 -1677.95 -1540.26
1055.54 -1677.3 -1538.94
1076.36 -1702.91 -1530.64
1077.82 -1703.99 -1530.75
1079.17 -1704.9 -1530.79
1074.61 -1702.32 -1531.03
1097.67 -1731.44 -1537.41
1097.41 -1729.59 -1537.68
1097.04 -1727.66 -1538.04
1096.22 -1725.94 -1538.51
1095.06 -1719.51 -1536.83
1095.17 -1718.26 -1535.75
1094.77 -1716.49 -1533.68
1094.36 -1715.49 -1533.25
1095 -1717.26 -1534.74
1095.64 -1722.56 -1537.59
1095.24 -1720.77 -1538.1
1095.69 -1724.05 -1539
1093.75 -1714.37 -1532.68
1092.85 -1713.14 -1531.23
1098.67 -1739 -1537.91
1098.53 -1737.27 -1538.27
1098.36 -1735.88 -1537.29
1098.06 -1734.27 -1537.75
1099.28 -1746.53 -1539.11
1099.26 -1744.57 -1539.38
1099.14 -1742.62 -1539.03
1099.44 -1748.07 -1540.33
1098.97 -1740.74 -1539.15
1097.85 -1732.9 -1538.63
1091.97 -1712.23 -1531.53
1091.01 -1711.56 -1531.69
1089.88 -1710.28 -1530.63
1087.8 -1708.3 -1530.54
1086.16 -1707.33 -1530.63
1084.69 -1705.92 -1530.08
1088.73 -1709.81 -1531.35
1083.32 -1705.56 -1529.65
1081.63 -1706.06 -1530.51
1079.83 -1706.29 -1531.5
1073.54 -1693.42 -1536.75
1073.43 -1692.45 -1537.51
1073.12 -1691.67 -1538.33
1072.63 -1701.15 -1531.81
1072.65 -1702.01 -1531.79
1073.27 -1702.72 -1532.09
1072.67 -1699.74 -1532.98
1072.96 -1698.17 -1533.2
1073.26 -1696.66 -1533.57
1073.55 -1695.23 -1534.47
1073.55 -1694.5 -1535.94
1072.27 -1701.66 -1532.83
1070.54 -1688.61 -1540.74
1071.19 -1689.62 -1541.22
1072.01 -1690.32 -1540.1
1072.64 -1691.04 -1539.28
1061.78 -1681.28 -1542.85
1060.25 -1680.15 -1543.17
1068.95 -1687.82 -1543.44
1070.01 -1688.66 -1542.59
1067.68 -1686.85 -1544.51
1063.73 -1683.25 -1544.71
1062.17 -1681.93 -1544.48
1057.98 -1678.47 -1543.42
1059.02 -1679.3 -1544.65
1056.7 -1677.61 -1542.27
1055.34 -1676.86 -1541.01
1053.76 -1675.74 -1541.75
1074.81 -1703.64 -1531.92
1076.26 -1704.47 -1531.82
1077.81 -1705.43 -1531.81
1097.26 -1731.15 -1539.15
1096.86 -1729.18 -1539.45
1096.37 -1727.16 -1539.92
1095.76 -1725.29 -1540.31
1094.54 -1719.67 -1538.87
1094.77 -1718.45 -1537.47
1094.72 -1717.34 -1536.3
1094.47 -1716.27 -1535.25
1094.11 -1715.15 -1534.61
1095.29 -1722.11 -1539.23
1094.44 -1721.12 -1540.33
1095.01 -1723.29 -1540.57
1093.48 -1714.3 -1534.06
1092.76 -1713.3 -1532.89
1098.71 -1738.94 -1539.51
1098.33 -1737.26 -1540.24
1098.09 -1735.78 -1539.14
1097.78 -1734.26 -1539.94
1099.51 -1745.88 -1540.94
1099.44 -1743.94 -1540.92
1099.26 -1742.1 -1540.88
1099.64 -1747.38 -1542.22
1098.92 -1740.45 -1540.95
1099.89 -1748.83 -1543.56
1097.46 -1732.67 -1540.53
1091.89 -1712.66 -1533.12
1091.05 -1712.14 -1533.34
1089.94 -1711.03 -1532.15
1087.09 -1709.09 -1531.74
1084.24 -1707 -1531.38
1085.53 -1708.39 -1532.04
1082.88 -1706.66 -1530.91
1088.49 -1710.51 -1532.55
1081.22 -1707.38 -1531.73
1078.2 -1706.82 -1532.65
1079.54 -1707.82 -1532.76
1073.58 -1693.8 -1538.61
1073.66 -1694.68 -1537.75
1073.31 -1692.91 -1539.49
1072.98 -1692.15 -1540.34
1072.18 -1702.66 -1532.62
1072.45 -1703.24 -1532.85
1073.86 -1704.31 -1533.01
1072.81 -1703.8 -1533.19
1072.16 -1701.29 -1533.62
1072.39 -1699.9 -1533.91
1072.64 -1698.49 -1534.14
1072.94 -1697.05 -1534.55
1073.21 -1695.92 -1535.57
1073.44 -1695.6 -1536.9
1071.74 -1702.84 -1534.01
1071.79 -1703.31 -1533.5
1070.77 -1689.83 -1543.2
1071.81 -1690.81 -1542.11
1072.46 -1691.51 -1541.28
1060.69 -1680.69 -1544.71
1069.78 -1689.19 -1544.56
1068.63 -1688.18 -1545.43
1067.3 -1687.16 -1546.52
1062.43 -1682.55 -1546.18
1061.09 -1681.37 -1546.42
1056.28 -1677.27 -1544.25
1057.34 -1678.06 -1545.44
1059.69 -1680.06 -1546.29
1058.24 -1678.84 -1546.7
1055.03 -1676.45 -1543.05
1053.39 -1675.25 -1543.84
1075.06 -1705.15 -1532.97
1076.44 -1706.01 -1532.88
1096.72 -1730.84 -1540.93
1096.26 -1728.72 -1541.14
1095.47 -1726.48 -1541.94
1094.78 -1724.46 -1542.01
1093.87 -1719.47 -1540.61
1094.02 -1718.5 -1539.23
1094.19 -1717.55 -1537.96
1094.07 -1716.5 -1537.15
1093.88 -1715.39 -1536.47
1093.41 -1714.71 -1535.74
1094.25 -1722.28 -1542
1093.64 -1720.5 -1542.15
1092.68 -1713.62 -1534.64
1098.64 -1738.76 -1541.23
1098 -1735.86 -1541.15
1098.33 -1737.67 -1542.43
1097.47 -1734.11 -1541.72
1099.67 -1745.14 -1542.55
1099.44 -1743.33 -1542.62
1099.14 -1741.52 -1542.64
1099.69 -1746.71 -1543.73
1098.69 -1739.78 -1542.81
1100.07 -1750.19 -1544.92
1099.9 -1748.08 -1544.98
1096.77 -1732.29 -1542.54
1091.79 -1712.99 -1535
1089.94 -1711.64 -1533.55
1090.92 -1712.48 -1535.27
1086.81 -1710.13 -1532.98
1083.76 -1708.1 -1532.71
1082.45 -1707.76 -1532.22
1085.11 -1709.48 -1533.36
1088.53 -1711.15 -1533.69
1080.82 -1708.64 -1533.02
1076.73 -1707.41 -1533.79
1077.98 -1708.41 -1533.91
1079.26 -1709.41 -1534.06
1073.53 -1694.22 -1540.5
1073.71 -1694.96 -1539.61
1073.66 -1695.73 -1538.72
1073.23 -1693.5 -1541.44
1072.89 -1692.69 -1542.23
1071.91 -1704.09 -1533.71
1072.26 -1704.6 -1534.03
1072.82 -1705 -1534.15
1073.95 -1705.81 -1534.15
1071.89 -1701.74 -1534.47
1072.14 -1700.39 -1534.78
1072.44 -1699 -1535.07
1072.82 -1697.5 -1535.48
1072.98 -1697.01 -1536.46
1073.34 -1696.74 -1537.94
1071.47 -1703.97 -1534.44
1071.56 -1703.18 -1534.9
1071.52 -1704.71 -1534.58
1071.5 -1691.07 -1543.87
1070.7 -1690.65 -1545.34
1072.29 -1692.06 -1543.44
1069.49 -1689.65 -1546.51
1068.38 -1688.67 -1547.39
1067.08 -1687.7 -1548.56
1060.25 -1680.91 -1548.13
1055.7 -1676.9 -1546.32
1054.59 -1676.09 -1545.09
1056.75 -1677.74 -1547.58
1058.96 -1679.68 -1548.13
1057.66 -1678.62 -1548.93
1052.91 -1674.89 -1545.87
1075.26 -1706.51 -1533.93
1096.1 -1730.3 -1542.64
1095.57 -1728.28 -1542.67
1094.9 -1727.19 -1544.05
1094.35 -1725.34 -1543.7
1093.92 -1723.26 -1543.57
1093.41 -1717.91 -1540.85
1093.19 -1718.95 -1542.4
1093.49 -1717.06 -1539.26
1093.41 -1715.91 -1538.35
1092.98 -1714.82 -1537.49
1092.33 -1713.88 -1536.42
1093.54 -1721.32 -1543.78
1092.96 -1719.69 -1543.99
1097.7 -1735.95 -1542.64
1098.54 -1739.24 -1544.23
1098.02 -1737.58 -1544.07
1097.16 -1734.1 -1543.46
1099.55 -1744.83 -1544.05
1099.25 -1742.88 -1544.18
1099 -1741.29 -1544.3
1099.58 -1746.24 -1545.55
1100.26 -1751.45 -1546.56
1100.12 -1749.65 -1546.55
1099.88 -1747.91 -1546.67
1096.54 -1732.96 -1544.75
1095.89 -1731.18 -1544.36
1091.44 -1713.23 -1536.86
1089.91 -1711.97 -1535.35
1090.59 -1712.73 -1537.14
1086.41 -1710.74 -1534.02
1083.37 -1709.18 -1534
1082.02 -1708.86 -1533.52
1084.72 -1710.56 -1534.7
1087.78 -1711.23 -1534.6
1088.9 -1711.71 -1535.82
1080.47 -1709.83 -1534.4
1075.56 -1707.76 -1534.75
1076.68 -1708.88 -1534.97
1077.72 -1709.93 -1535.19
1078.81 -1710.76 -1535.41
1073.9 -1695.57 -1541.39
1073.55 -1694.9 -1542.32
1073.98 -1696.38 -1540.43
1073.65 -1697.19 -1539.51
1073.2 -1694.22 -1543.29
1072.78 -1693.38 -1543.96
1071.86 -1705.23 -1534.98
1072.26 -1705.68 -1535.03
1072.79 -1706.27 -1535.22
1074.24 -1707.28 -1535.14
1071.72 -1702.17 -1535.31
1072.01 -1700.74 -1535.73
1072.47 -1698.95 -1536.09
1072.76 -1698.27 -1537.09
1073.12 -1698.32 -1538.51
1071.53 -1704.18 -1535.31
1071.6 -1703.39 -1535.77
1071.74 -1704.85 -1535.68
1071.72 -1692.04 -1545.39
1071.25 -1692.15 -1547.07
1070.27 -1690.97 -1547.28
1072.44 -1693.19 -1545.37
1069.32 -1690.44 -1548.77
1068.14 -1689.18 -1549.21
1067.05 -1688.48 -1550.6
1060.49 -1681.49 -1549.76
1058.87 -1679.98 -1550.04
1054.05 -1675.73 -1547.18
1055.19 -1676.62 -1548.41
1056.18 -1677.52 -1549.73
1057.28 -1678.6 -1550.89
1052.43 -1674.52 -1547.93
1095.28 -1729.23 -1544.33
1094.43 -1728 -1545.86
1093.88 -1726.1 -1545.6
1093.51 -1724.06 -1545.33
1093.19 -1722.16 -1545.34
1092.76 -1717.66 -1542.75
1092.87 -1716.93 -1541.27
1092.46 -1718.28 -1544.31
1092.72 -1716.25 -1540.22
1092.68 -1715.32 -1539.19
1092.01 -1714.2 -1538.34
1092.88 -1720.28 -1545.54
1092.33 -1718.8 -1545.84
1097.48 -1735.84 -1544.33
1098.5 -1740.59 -1545.87
1098.1 -1738.65 -1545.92
1097.46 -1736.88 -1545.99
1096.96 -1734.77 -1545.67
1099.38 -1744.23 -1545.55
1099.01 -1742.61 -1546.09
1099.3 -1745.01 -1547.02
1099.57 -1746.86 -1547.61
1100.27 -1752.39 -1548.33
1100.27 -1750.78 -1548.19
1099.93 -1748.9 -1548.17
1100.46 -1753.73 -1548.46
1095.68 -1731.79 -1546.32
1096.21 -1733.68 -1546.9
1094.96 -1729.94 -1546.11
1091.07 -1713.46 -1538.72
1089.68 -1712.26 -1537.33
1090.09 -1712.92 -1538.99
1086.06 -1711.18 -1535.22
1082.99 -1710.24 -1535.27
1081.67 -1709.94 -1534.81
1084.3 -1711.18 -1535.96
1087.6 -1711.39 -1536.08
1088.54 -1711.89 -1537.52
1080.09 -1710.89 -1535.74
1075.3 -1708.67 -1535.58
1076.24 -1709.68 -1535.78
1077.17 -1710.6 -1535.96
1078.42 -1711.03 -1536.34
1074.09 -1696.24 -1543.17
1074.11 -1697.04 -1542.16
1073.81 -1695.68 -1544
1073.87 -1698.17 -1541.19
1073.45 -1698.7 -1540.01
1073.46 -1695.25 -1544.88
1073 -1694.51 -1545.44
1071.97 -1705.32 -1536.23
1072.16 -1705.62 -1535.81
1072.21 -1706.33 -1535.94
1073.2 -1707.17 -1535.71
1072.65 -1707.13 -1536.05
1074.06 -1708.13 -1535.88
1071.65 -1702.63 -1536.14
1071.82 -1701.87 -1536.54
1072.23 -1700.19 -1536.71
1072.49 -1699.89 -1537.62
1072.92 -1699.92 -1539.19
1071.75 -1704.23 -1536.31
1071.75 -1703.6 -1536.73
1071.81 -1705.02 -1536.75
1072.11 -1693.45 -1547.09
1071.58 -1693.46 -1548.8
1070.5 -1692.06 -1548.98
1072.89 -1694.84 -1546.96
1069.64 -1691.72 -1550.71
1068.4 -1690.22 -1550.81
1067.27 -1689.51 -1552.38
1059.51 -1681 -1551.58
1058.1 -1679.7 -1552.11
1053.58 -1675.4 -1549.22
1054.57 -1676.33 -1550.46
1055.71 -1677.38 -1551.7
1056.65 -1678.37 -1552.91
1051.94 -1674.17 -1549.95
1050.69 -1673.37 -1548.61
1093.09 -1725.02 -1547.19
1092.84 -1723.12 -1547.01
1092.74 -1721.12 -1547.1
1091.97 -1717.23 -1544.69
1092.3 -1716.87 -1543.15
1092.15 -1716.18 -1542.31
1091.8 -1717.64 -1546.2
1091.98 -1715.56 -1541.21
1091.82 -1714.79 -1540.03
1091.18 -1714.11 -1540.33
1092.21 -1719.42 -1547.4
1091.68 -1718.17 -1547.79
1098.61 -1741.73 -1547.45
1098.03 -1739.69 -1547.54
1097.35 -1737.81 -1547.82
1096.76 -1735.78 -1547.56
1099.01 -1743.64 -1547.97
1099.23 -1745.83 -1548.87
1099.68 -1747.88 -1549.45
1100.45 -1753.13 -1550.21
1100.27 -1751.76 -1549.92
1100.04 -1749.97 -1549.77
1100.37 -1754.82 -1550.34
1100.19 -1756.77 -1550.21
1095.38 -1732.49 -1548.32
1094.71 -1730.6 -1548.01
1096.06 -1734.53 -1548.78
1090.39 -1713.52 -1540.52
1089.11 -1712.41 -1539.09
1089.41 -1712.94 -1540.74
1085.85 -1711.33 -1536.65
1082.58 -1711.15 -1536.57
1081.39 -1710.95 -1536.1
1084.19 -1711.32 -1537.15
1087.28 -1711.51 -1537.53
1088.05 -1711.97 -1539.03
1079.85 -1711.13 -1536.65
1074.89 -1709.16 -1536.14
1075.75 -1710.16 -1536.35
1076.89 -1710.79 -1536.72
1078.44 -1711.08 -1537.1
1074.42 -1697.81 -1543.6
1074.34 -1697.11 -1544.74
1074.17 -1698.76 -1542.76
1074.1 -1696.61 -1545.83
1073.88 -1699.82 -1542.04
1073.4 -1700.04 -1540.86
1073.55 -1695.91 -1546.64
1071.53 -1705.97 -1537.08
1071.69 -1706.29 -1536.58
1072.1 -1707.14 -1536.58
1073.31 -1707.77 -1536.29
1072.8 -1707.91 -1536.6
1074.02 -1708.53 -1536.52
1071.74 -1703.1 -1537.16
1071.98 -1701.77 -1537.26
1072.25 -1701.45 -1538.16
1072.91 -1701.19 -1540.06
1071.85 -1704.59 -1537.23
1071.82 -1704.13 -1537.6
1071.84 -1705.54 -1537.64
1072.54 -1694.97 -1548.55
1070.85 -1693.3 -1550.71
1071.91 -1694.8 -1550.39
1073.41 -1696.34 -1548.35
1069.99 -1692.84 -1552.54
1068.66 -1691.22 -1552.61
1057.48 -1679.47 -1554.07
1053.06 -1675.06 -1551.24
1054.13 -1676.09 -1552.45
1055.2 -1677.14 -1553.71
1056.09 -1678.12 -1555
1050.2 -1672.92 -1550.66
1051.43 -1673.81 -1551.94
1092.37 -1723.86 -1548.83
1092.22 -1721.92 -1548.79
1092.11 -1720.21 -1548.74
1091.61 -1716.2 -1544.5
1091.33 -1716.59 -1546.29
1091.46 -1715.54 -1543.41
1091.15 -1717.05 -1547.86
1091.32 -1714.88 -1541.87
1090.64 -1714.15 -1542.19
1091.55 -1718.97 -1549.58
1091.06 -1717.7 -1549.46
1098.57 -1742.81 -1549.16
1097.89 -1740.79 -1549.1
1097.25 -1738.95 -1549.5
1096.51 -1736.79 -1549.56
1098.85 -1744.7 -1549.92
1099.29 -1746.83 -1550.75
1099.64 -1748.92 -1551.19
1100.45 -1754.02 -1552.05
1100.28 -1752.53 -1551.72
1100.1 -1750.97 -1551.39
1100.32 -1756.05 -1551.99
1089.77 -1713.48 -1542.18
1088.53 -1712.38 -1540.56
1088.73 -1712.79 -1542.47
1085.71 -1711.41 -1537.78
1082.52 -1711.23 -1537.46
1080.8 -1711.19 -1537.09
1083.97 -1711.36 -1538.03
1086.98 -1711.62 -1539.07
1087.57 -1711.98 -1540.51
1079.13 -1711.15 -1537.68
1074.86 -1709.5 -1536.79
1075.83 -1710.3 -1537.22
1077.24 -1710.85 -1537.63
1074.72 -1699.32 -1543.9
1074.77 -1698.55 -1544.76
1074.7 -1698.11 -1546.15
1074.46 -1700.21 -1543.18
1074.1 -1697.29 -1547.46
1074.13 -1700.87 -1542.39
1073.5 -1701.17 -1541.24
1071.75 -1706.47 -1537.91
1071.66 -1706.93 -1537.23
1072.31 -1707.86 -1537.1
1073.44 -1708.51 -1536.88
1072.96 -1708.54 -1537.23
1074.13 -1708.95 -1537.18
1071.81 -1703.76 -1538.05
1071.92 -1702.76 -1537.94
1072.36 -1702.29 -1538.93
1072.76 -1702.68 -1540.07
1071.91 -1705.13 -1538.08
1071.89 -1704.72 -1538.46
1071.96 -1706.04 -1538.55
1072.92 -1696.2 -1550.02
1071.25 -1694.61 -1552.45
1072.45 -1696.2 -1551.85
1074.26 -1698.07 -1548.95
1073.74 -1697.46 -1549.98
1069.17 -1692.49 -1554.49
1070.24 -1693.87 -1554.38
1068.07 -1691.18 -1554.5
1052.67 -1674.81 -1553.23
1053.75 -1675.83 -1554.46
1054.82 -1676.95 -1555.81
1055.87 -1678.25 -1557.3
1049.74 -1672.42 -1552.62
1051.03 -1673.45 -1553.86
1092.02 -1724.5 -1550.63
1091.76 -1722.51 -1550.57
1091.68 -1720.56 -1550.34
1090.76 -1715.16 -1545.32
1090.88 -1715.75 -1546.23
1090.5 -1716 -1547.95
1090.82 -1714.79 -1543.64
1090.46 -1716.6 -1549.52
1089.88 -1713.91 -1543.99
1091.03 -1719.62 -1551.36
1090.7 -1718.18 -1551.07
1090.11 -1717.03 -1551.14
1098.39 -1743.77 -1551.09
1097.89 -1741.92 -1550.61
1097.16 -1740.3 -1551.35
1096.46 -1738.2 -1551.31
1098.71 -1745.75 -1551.87
1099.15 -1747.79 -1552.7
1099.71 -1750.17 -1552.74
1100.31 -1753.31 -1553.57
1100.27 -1755.23 -1553.64
1100.02 -1751.86 -1553.26
1100.24 -1757.36 -1553.43
1089.06 -1713.18 -1543.69
1088.02 -1712.33 -1541.93
1087.65 -1712.11 -1543.48
1088.04 -1712.39 -1544.32
1085.34 -1711.5 -1539.11
1082.18 -1711.19 -1538.3
1080.87 -1711.08 -1537.83
1083.38 -1711.37 -1538.99
1086.51 -1711.66 -1540.64
1087.32 -1712.03 -1542.16
1078.54 -1711 -1538.41
1080.33 -1710.95 -1538.53
1074.96 -1709.53 -1537.67
1075.88 -1710.15 -1538.14
1077.13 -1710.59 -1538.45
1075.05 -1700.67 -1544.26
1075.1 -1700.02 -1545
1075.12 -1699.36 -1545.72
1074.8 -1698.82 -1547.78
1075.25 -1699.83 -1546.86
1074.76 -1701.25 -1543.49
1074.34 -1701.9 -1542.6
1073.64 -1702.13 -1541.53
1072.27 -1706.87 -1538.54
1072.26 -1707.4 -1537.82
1072.75 -1708.21 -1537.64
1073.65 -1708.83 -1537.59
1073.32 -1708.66 -1538.04
1074.39 -1709.17 -1538.01
1071.98 -1704.29 -1538.84
1072.12 -1703.36 -1538.87
1072.94 -1703.57 -1540.59
1072.43 -1704.04 -1539.68
1072.06 -1705.53 -1538.96
1072.28 -1704.97 -1539.36
1072.35 -1706.3 -1539.25
1073.52 -1697.62 -1551.51
1071.18 -1695.32 -1554.44
1072.2 -1696.56 -1553.69
1073.28 -1697.92 -1553.22
1075.05 -1699.62 -1549.31
1074.53 -1699.08 -1550.83
1069.46 -1693.71 -1556.46
1070.52 -1695.17 -1556.36
1052.26 -1674.51 -1555.18
1053.41 -1675.59 -1556.4
1054.43 -1676.77 -1557.73
1055.26 -1677.92 -1559.33
1049.43 -1671.97 -1554.54
1050.66 -1673.13 -1555.8
1091.3 -1723.12 -1552.34
1091.18 -1721.3 -1552.06
1090.01 -1715.09 -1547.5
1089.65 -1714.31 -1546.79
1090.11 -1714.35 -1545.23
1089.21 -1714.8 -1549.11
1089.74 -1715.68 -1549.61
1089.35 -1715.93 -1551.17
1088.94 -1713.34 -1545.9
1088.32 -1712.65 -1545.24
1090.19 -1718.82 -1552.72
1090.42 -1720.24 -1553.27
1089.68 -1717.54 -1552.8
1088.97 -1716.41 -1552.77
1098.17 -1744.5 -1552.95
1097.65 -1742.57 -1552.36
1096.49 -1739.34 -1553.11
1097.05 -1741.24 -1553.44
1098.52 -1746.5 -1553.82
1098.71 -1747.9 -1555.16
1099.26 -1749.31 -1554.08
1099.7 -1751.19 -1554.66
1100.07 -1752.78 -1555.16
1100.26 -1754.45 -1555.05
1100.44 -1756.35 -1555
1100.4 -1758.25 -1555.21
1086.92 -1711.58 -1545.02
1086.65 -1711.56 -1543.81
1087.06 -1711.69 -1545.91
1084.72 -1711.38 -1540.27
1081.41 -1711.04 -1539.12
1082.63 -1711.08 -1539.96
1086.43 -1711.66 -1542.43
1085.19 -1711.37 -1541.85
1079.37 -1710.82 -1539.19
1077.94 -1710.55 -1539.11
1075.25 -1709.7 -1538.59
1076.34 -1710.06 -1539
1075.45 -1701.77 -1544.56
1075.68 -1701.33 -1545.32
1075.52 -1700.86 -1546.06
1075.48 -1700.49 -1548.16
1075.92 -1701.25 -1547.14
1075.06 -1702.28 -1543.71
1074.31 -1702.98 -1542.58
1073.49 -1703.63 -1541.43
1072.7 -1707.03 -1539.04
1072.71 -1707.64 -1538.31
1073.16 -1708.29 -1538.25
1073.9 -1708.96 -1538.37
1073.82 -1708.68 -1538.89
1074.78 -1709.38 -1538.88
1072.75 -1704.84 -1540.21
1072.53 -1705.71 -1539.78
1072.88 -1706.48 -1539.79
1074.29 -1699.21 -1552.55
1071.7 -1696.72 -1555.79
1072.84 -1698.12 -1555.13
1074 -1699.48 -1554.38
1076.02 -1701.18 -1549.39
1075.54 -1700.7 -1550.58
1075.27 -1700.59 -1552.04
1069.8 -1695.04 -1558.4
1071.08 -1696.65 -1557.73
1051.91 -1674.28 -1557.1
1053 -1675.36 -1558.33
1053.92 -1676.52 -1559.67
1049.16 -1671.86 -1556.61
1047.9 -1670.77 -1555.39
1050.38 -1673.02 -1557.86
1090.7 -1721.95 -1553.79
1088.64 -1713.8 -1548.29
1088.27 -1713.1 -1547.41
1088.56 -1714.75 -1550.86
1087.86 -1713.47 -1549.89
1088.15 -1715.17 -1552.61
1087.37 -1711.98 -1546.82
1089.61 -1718.98 -1554.31
1089.96 -1720.73 -1554.94
1088.75 -1717.42 -1554.47
1087.97 -1716.04 -1554.28
1097.87 -1745.19 -1554.79
1097.4 -1743.21 -1554.3
1097.89 -1746.34 -1556.36
1099.2 -1750.03 -1555.93
1098.41 -1748.38 -1557.06
1099.67 -1752.15 -1556.56
1099.99 -1753.68 -1556.9
1100.26 -1755.54 -1556.55
1100.47 -1757.31 -1556.75
1100.46 -1759.11 -1557.14
1100.51 -1760.96 -1557.34
1085.66 -1710.86 -1545
1085.63 -1710.79 -1546.06
1085.26 -1710.89 -1543.58
1085.88 -1710.87 -1547.1
1083.66 -1711.09 -1541.22
1080.41 -1710.76 -1539.89
1081.66 -1710.64 -1540.84
1084.07 -1710.63 -1542.77
1078.76 -1710.44 -1539.88
1077.35 -1710.08 -1539.65
1075.84 -1709.59 -1539.52
1075.74 -1702.82 -1544.7
1076.25 -1702.42 -1545.63
1076.3 -1701.87 -1546.39
1076.49 -1701.71 -1548.4
1076.83 -1702.24 -1547.51
1074.92 -1703.48 -1543.48
1073.96 -1704.28 -1542.14
1073.27 -1704.87 -1541.07
1073.09 -1707.75 -1538.82
1073.2 -1707.2 -1539.54
1073.47 -1708.24 -1538.84
1074.3 -1709.05 -1539.09
1074.01 -1708.39 -1539.46
1074.58 -1708.67 -1539.91
1074.83 -1708.93 -1539.8
1075.24 -1709.21 -1539.7
1073.01 -1705.86 -1540.45
1073.53 -1706.64 -1540.5
1075.08 -1700.83 -1553.73
1072.27 -1698.27 -1557.16
1073.56 -1699.75 -1556.32
1074.78 -1701.1 -1555.57
1077.18 -1702.53 -1549.45
1076.77 -1702.17 -1550.48
1076.41 -1701.96 -1551.74
1076.22 -1702.11 -1553.15
1070.53 -1696.59 -1559.57
1071.71 -1698.25 -1559.2
1051.55 -1674.11 -1559.1
1052.61 -1675.21 -1560.35
1053.49 -1676.33 -1561.62
1048.97 -1671.72 -1558.66
1047.63 -1670.63 -1557.51
1050.2 -1672.94 -1559.99
1087.3 -1712.42 -1548.97
1087.05 -1711.9 -1547.99
1087.32 -1713.5 -1551.5
1086.33 -1712.17 -1550.88
1087 -1713.96 -1553.08
1086.95 -1714.79 -1554.51
1085.85 -1710.92 -1548.2
1089.34 -1719.94 -1555.78
1088.44 -1718.61 -1556.24
1087.7 -1716.99 -1556
1086.88 -1715.63 -1555.91
1100.52 -1762.27 -1558.53
1097.61 -1746.86 -1558.35
1098.93 -1750.45 -1557.75
1098.21 -1748.97 -1559.02
1099.29 -1752.12 -1558.62
1099.68 -1753.65 -1558.67
1100.05 -1755.32 -1558.4
1100.39 -1756.6 -1558.15
1100.57 -1758.16 -1558.73
1100.55 -1760.12 -1559.26
1084.48 -1710.27 -1544.92
1084.23 -1709.83 -1546.27
1084.47 -1709.9 -1547.29
1083.67 -1710.13 -1544.11
1084.59 -1709.94 -1548.37
1082.63 -1710.53 -1542
1079.85 -1710.3 -1540.86
1081.06 -1710.1 -1542.05
1082.56 -1709.97 -1543.28
1078.22 -1709.92 -1540.55
1076.9 -1709.64 -1540.22
1076.16 -1709.24 -1540.44
1075.55 -1704.1 -1544.12
1076.41 -1703.66 -1545.15
1077.05 -1702.83 -1546.66
1076.9 -1703.4 -1545.86
1077.46 -1702.87 -1548.39
1077.62 -1703.38 -1547.46
1074.47 -1704.8 -1542.73
1073.66 -1705.62 -1541.39
1073.67 -1707.92 -1539.48
1073.77 -1707.42 -1540.12
1074.44 -1708.23 -1540.17
1075.07 -1708.49 -1540.7
1075.48 -1708.73 -1540.71
1075.76 -1708.98 -1540.53
1074.24 -1707.09 -1541.02
1074.31 -1705.98 -1541.85
1076.01 -1702.49 -1554.92
1073.02 -1699.82 -1558.28
1074.35 -1701.37 -1557.62
1075.54 -1702.66 -1556.77
1077.89 -1703.62 -1550.04
1078.18 -1703.92 -1548.92
1077.6 -1703.36 -1551.17
1077.37 -1703.42 -1552.54
1077.23 -1703.68 -1554.11
1071.01 -1698 -1561.25
1072.47 -1699.8 -1560.26
1051.37 -1674.12 -1561.27
1052.41 -1675.28 -1562.59
1048.88 -1671.7 -1560.72
1047.55 -1670.53 -1559.62
1050.07 -1672.91 -1562.11
1085.98 -1711.27 -1549.48
1085.99 -1712.69 -1552.81
1084.95 -1710.81 -1551.08
1084.97 -1711.48 -1552.67
1085.79 -1713.55 -1554.74
1085.71 -1714.52 -1556.53
1084.69 -1710.22 -1549.71
1088.63 -1720.02 -1557.31
1087.8 -1719.37 -1558.45
1087.24 -1717.83 -1557.82
1086.51 -1716.24 -1557.57
1100.55 -1763.74 -1559.95
1100.64 -1761.7 -1560.56
1098.67 -1750.92 -1559.93
1097.93 -1749.33 -1561.03
1099.18 -1752.92 -1560.75
1099.73 -1754.99 -1560.28
1100.29 -1756.58 -1559.95
1100.58 -1758.54 -1560.49
1100.57 -1760.24 -1561.44
1083.4 -1709.51 -1545.57
1083.27 -1708.95 -1547.65
1082.82 -1708.82 -1546.81
1083.36 -1708.98 -1548.69
1082.46 -1709.4 -1544.71
1083.42 -1709.13 -1549.83
1079.17 -1709.73 -1541.58
1081.41 -1709.37 -1543.8
1080.25 -1709.46 -1542.82
1077.53 -1709.31 -1541.3
1076.64 -1708.84 -1541.44
1076.47 -1704.75 -1544.77
1075.35 -1705.24 -1543.43
1077.28 -1704.51 -1545.67
1077.69 -1703.96 -1546.47
1078.3 -1704.25 -1548.05
1078.39 -1704.58 -1547.22
1074.39 -1707.82 -1540.54
1075.21 -1707.83 -1541.45
1075.83 -1708.18 -1541.69
1076.34 -1708.44 -1541.73
1074.88 -1707.28 -1541.58
1075.05 -1706.24 -1542.51
1076.98 -1704.19 -1556.05
1073.74 -1701.31 -1559.56
1075.11 -1703.01 -1559.01
1076.23 -1704 -1557.85
1078.78 -1704.8 -1550.61
1078.99 -1704.95 -1549.6
1079.17 -1705.14 -1548.7
1078.52 -1704.67 -1551.78
1078.55 -1704.94 -1553.26
1078.29 -1705.16 -1554.85
1073.13 -1701.32 -1561.72
1051.18 -1674.06 -1563.39
1048.75 -1671.8 -1562.8
1047.47 -1670.61 -1561.75
1084.75 -1712.14 -1554.45
1083.73 -1710.2 -1552.75
1083.57 -1709.57 -1551.23
1083.71 -1710.79 -1554.34
1084.5 -1712.98 -1556.24
1085.32 -1715.3 -1558.5
1084.33 -1713.86 -1558.05
1086.64 -1718.58 -1559.9
1086.04 -1717.06 -1559.28
1100.68 -1763.35 -1561.92
1100.77 -1761.85 -1562.76
1098.37 -1751.25 -1561.95
1099.36 -1754.45 -1562.29
1098.78 -1752.79 -1563.08
1099.94 -1756.07 -1561.93
1100.34 -1757.57 -1561.57
1100.49 -1758.94 -1562.62
1100.62 -1760.59 -1563.56
1082.17 -1708.7 -1546
1082.13 -1708.04 -1548.86
1081.97 -1708.05 -1547.99
1081.44 -1707.98 -1547.17
1082.16 -1708.01 -1549.84
1081.23 -1708.68 -1545.1
1082.25 -1708.3 -1551.13
1078.78 -1709.08 -1542.58
1080.03 -1708.73 -1544.09
1077.57 -1708.7 -1542.43
1077.36 -1708.14 -1542.91
1077.13 -1705.56 -1545.06
1076.14 -1705.87 -1543.9
1078.21 -1704.93 -1546.35
1077.73 -1705.4 -1545.65
1079.27 -1705.38 -1547.87
1079.03 -1705.51 -1546.84
1075.67 -1706.8 -1542.76
1076.15 -1707.36 -1542.75
1076.7 -1707.82 -1542.78
1077.36 -1705.42 -1557.91
1078.4 -1705.93 -1556.44
1074.33 -1702.66 -1560.77
1075.41 -1704.28 -1561.07
1076.39 -1704.93 -1559.66
1079.91 -1705.96 -1550.5
1079.72 -1705.99 -1551.89
1080.01 -1706.05 -1549.51
1080.13 -1706.18 -1548.53
1079.75 -1706.3 -1553.35
1079.61 -1706.66 -1554.97
1074.26 -1703.32 -1562.54
1083.49 -1711.47 -1556.11
1082.37 -1709.3 -1554.14
1082.35 -1708.78 -1552.63
1082.36 -1709.99 -1555.73
1083.24 -1712.31 -1557.87
1085.03 -1716.24 -1560.27
1084.07 -1714.71 -1560.06
1083.11 -1713.22 -1559.64
1100.8 -1764.15 -1563.75
1100.83 -1762.34 -1564.71
1099.13 -1754.4 -1564.46
1099.67 -1756.04 -1563.99
1100.15 -1757.63 -1563.43
1100.46 -1759.29 -1564.43
1100.72 -1761 -1565.46
1100.74 -1767.88 -1564.73
1080.82 -1707.94 -1546.34
1080.95 -1707.12 -1548.94
1080.97 -1707.03 -1549.82
1080.79 -1707.16 -1547.97
1080.31 -1707.11 -1546.98
1080.99 -1707.06 -1550.9
1079.91 -1708.03 -1545.32
1081.02 -1707.39 -1552.32
1078.74 -1708.24 -1543.97
1077.78 -1707.33 -1544.06
1078.75 -1707.54 -1544.72
1076.77 -1706.45 -1544.07
1077.72 -1706.16 -1545.05
1078.35 -1705.78 -1545.82
1079.84 -1706.22 -1547.43
1079.32 -1706.32 -1546.33
1077.28 -1706.95 -1544.05
1078.57 -1706.92 -1558.12
1077.59 -1706.54 -1559.79
1079.74 -1707.46 -1556.52
1076.61 -1706.05 -1561.64
1075.34 -1704.97 -1563.07
1081.02 -1707.75 -1553.79
1081 -1708.38 -1555.35
1082.1 -1710.73 -1557.63
1081.07 -1709.21 -1556.99
1081.96 -1711.58 -1559.4
1084.15 -1715.95 -1561.84
1082.96 -1714.22 -1561.73
1082.03 -1712.65 -1561.1
1100.88 -1765.86 -1565.11
1100.96 -1764.06 -1565.81
1100.86 -1762.69 -1566.69
1099.46 -1756.1 -1565.98
1099.98 -1757.82 -1565.32
1100.35 -1759.52 -1566.19
1100.61 -1761.22 -1567.3
1100.77 -1769.09 -1566.43
1100.83 -1767.22 -1566.8
1079.62 -1707.23 -1545.94
1078.44 -1706.64 -1545.25
1079.87 -1708.38 -1558.04
1079.02 -1708.23 -1559.61
1078.03 -1707.81 -1561.25
1076.25 -1706.53 -1563.96
1077.3 -1707.59 -1562.96
1080.63 -1709.88 -1559.14
1080.75 -1710.96 -1560.94
1081.08 -1712.24 -1562.51
1101.01 -1765.41 -1566.97
1100.88 -1764.24 -1568.17
1100.7 -1762.54 -1568.53
1100.22 -1759.85 -1567.96
1100.4 -1761.23 -1569.39
1100.82 -1768.46 -1568.67
1100.94 -1766.33 -1568.59
1079.42 -1709.44 -1561.04
1078.43 -1709.13 -1562.89
1079.75 -1710.67 -1562.7
1100.75 -1765.44 -1570.03
1100.73 -1763.79 -1569.78
1100.5 -1762.7 -1570.64
1099.82 -1759.04 -1569.39
1099.9 -1760.14 -1570.87
1100.14 -1761.5 -1572
1100.85 -1770.45 -1569.84
1100.94 -1769.04 -1570.82
1100.83 -1767.19 -1570.43
1100.67 -1766.14 -1572.05
1100.66 -1764.39 -1571.58
1100.28 -1763.24 -1572.79
1099.53 -1759.84 -1572.89
1099.84 -1761.66 -1574.06
1100.81 -1768.09 -1572.43
1100.64 -1766.9 -1574.03
1100.49 -1764.96 -1573.5
1100.23 -1763.79 -1574.64
