965.832 -1878.8 -1834.04
959.786 -1878.98 -1830.89
958.29 -1878.79 -1829.82
964.25 -1879.08 -1833.29
966.61 -1878.88 -1835.8
968.054 -1878.5 -1836.35
965.127 -1879.18 -1835.23
956.415 -1878.61 -1828.93
960.664 -1879.13 -1832.56
962.7 -1879.06 -1832.74
958.373 -1879.04 -1831.91
956.517 -1878.86 -1830.84
963.899 -1879.23 -1834.52
965.978 -1879.22 -1837.02
967.128 -1879.15 -1837.53
968.424 -1878.61 -1838.49
964.656 -1879.4 -1836.54
954.63 -1878.73 -1829.79
958.88 -1879.04 -1833.56
960.753 -1879.19 -1834.01
962.442 -1879.19 -1834.12
956.523 -1878.97 -1832.63
954.858 -1878.94 -1831.64
963.531 -1879.31 -1836.05
965.59 -1879.52 -1838.28
966.644 -1879.36 -1838.78
967.645 -1879.13 -1839.2
968.439 -1878.89 -1840.54
969.569 -1878.31 -1840.23
971.218 -1877.5 -1841.23
964.221 -1879.4 -1837.96
952.986 -1878.66 -1828.94
953.226 -1879.05 -1830.94
956.949 -1878.94 -1834.13
958.579 -1878.91 -1834.99
960.324 -1879.05 -1835.52
961.996 -1879.23 -1835.78
955.076 -1878.98 -1833.33
953.497 -1879.16 -1832.75
962.789 -1879.27 -1837.59
965.125 -1879.37 -1839.69
966.339 -1879.41 -1840.11
967.463 -1879.22 -1840.73
968.461 -1878.98 -1842.46
969.239 -1878.57 -1841.99
970.412 -1878.01 -1842.68
963.595 -1879.19 -1839.55
970.949 -1877.81 -1844.49
949.99 -1878.66 -1828.89
951.459 -1878.81 -1829.22
951.85 -1879.11 -1830.89
951.88 -1879.4 -1832.49
955.394 -1878.91 -1835.07
957.067 -1878.91 -1835.87
959.007 -1878.76 -1836.87
961.018 -1879.03 -1837.33
953.585 -1879.11 -1834.35
952.014 -1879.42 -1834.03
971.238 -1877.66 -1846.41
971.481 -1877.47 -1848.43
961.972 -1879.01 -1839.12
965.629 -1879.23 -1841.4
964.334 -1878.99 -1841.48
966.934 -1879.22 -1841.9
967.825 -1879.1 -1843.73
969.525 -1878.5 -1843.8
968.761 -1878.83 -1844.69
962.599 -1878.79 -1841.03
969.756 -1878.32 -1845.69
948.866 -1879.01 -1830.52
950.193 -1879.09 -1830.59
950.306 -1879.38 -1832.14
950.389 -1879.59 -1833.65
953.858 -1878.96 -1836.04
955.562 -1878.76 -1836.72
957.184 -1878.65 -1837.7
958.46 -1878.51 -1838.68
960.167 -1878.71 -1838.76
952.16 -1879.29 -1835.65
950.561 -1879.54 -1835.06
970.168 -1878.04 -1847.67
970.684 -1877.69 -1849.77
972.252 -1876.98 -1850.42
973.112 -1876.52 -1852.03
960.627 -1878.51 -1840.71
965.492 -1879.04 -1842.77
966.637 -1879.11 -1843.16
963.124 -1878.67 -1842.97
964.857 -1878.94 -1843.76
967.081 -1879.02 -1845.07
968.234 -1878.81 -1845.82
969.176 -1878.47 -1846.89
961.151 -1878.4 -1842.66
947.394 -1878.94 -1831.16
947.801 -1879.37 -1832.25
949.073 -1879.4 -1832.08
949.104 -1879.65 -1833.24
949.07 -1879.68 -1834.52
952.232 -1879.01 -1837.54
953.931 -1878.69 -1838.03
955.666 -1878.45 -1838.77
956.935 -1878.26 -1839.92
958.757 -1878.32 -1840.46
950.545 -1879.35 -1836.7
948.968 -1879.59 -1835.98
969.439 -1878.17 -1848.97
969.862 -1877.79 -1851.06
971.308 -1877.22 -1851.71
972.104 -1876.77 -1853.54
959.119 -1878.21 -1842.31
966.018 -1879.04 -1844.6
961.615 -1878.2 -1844.55
963.697 -1878.59 -1844.99
965.23 -1878.79 -1845.82
966.248 -1878.86 -1846.56
967.313 -1878.82 -1847.05
967.976 -1878.61 -1848.33
959.582 -1878.04 -1844.19
973.12 -1876.3 -1855.25
974.021 -1875.88 -1857.11
946.135 -1878.58 -1831.51
946.686 -1879.24 -1832.84
946.995 -1879.55 -1833.72
948.04 -1879.62 -1833.22
948.161 -1879.7 -1834.43
947.893 -1879.65 -1835.81
950.585 -1879.03 -1838.81
952.351 -1878.62 -1839.75
954.303 -1878.41 -1839.8
955.42 -1878.12 -1841.3
957.26 -1878.04 -1841.84
948.971 -1879.34 -1837.83
947.634 -1879.53 -1837.27
968.445 -1878.2 -1850.4
969.098 -1877.78 -1852.43
970.521 -1877.33 -1852.95
971.202 -1876.88 -1854.86
957.603 -1877.97 -1843.71
960.033 -1878.02 -1846.13
962.092 -1878.28 -1846.52
963.961 -1878.59 -1847.15
965.22 -1878.64 -1847.94
966.403 -1878.67 -1848.43
966.882 -1878.5 -1849.88
958.057 -1877.93 -1845.65
974.947 -1875.41 -1859.1
972.308 -1876.4 -1856.64
973.206 -1875.88 -1858.76
976 -1874.92 -1861.04
980.593 -1873.48 -1863.6
944.584 -1878.17 -1832.04
945.543 -1878.99 -1833.29
945.955 -1879.41 -1834.49
947.109 -1879.69 -1834.64
946.004 -1879.58 -1835.56
946.841 -1879.69 -1835.84
946.503 -1879.58 -1837.23
950.499 -1878.66 -1840.91
948.719 -1879.01 -1839.88
953.478 -1878.22 -1841.33
951.9 -1878.2 -1842.21
953.749 -1878.02 -1843.09
955.681 -1877.92 -1843.19
947.64 -1879.29 -1838.96
946.227 -1879.38 -1838.8
967.585 -1878.12 -1851.83
968.137 -1877.63 -1853.92
969.67 -1877.31 -1854.39
970.646 -1876.78 -1856.19
956.105 -1877.88 -1845.17
958.567 -1877.89 -1847.65
960.512 -1878 -1848.06
962.419 -1878.27 -1848.49
963.767 -1878.43 -1849.34
965.313 -1878.49 -1849.68
965.946 -1878.34 -1851.21
956.542 -1877.86 -1847.18
977.17 -1874.44 -1862.82
974.215 -1875.38 -1860.76
971.397 -1876.29 -1858.42
972.42 -1875.75 -1860.36
975.294 -1874.85 -1862.77
978.487 -1873.98 -1864.29
980.04 -1873.44 -1865.49
943.136 -1877.86 -1832.9
944.142 -1878.65 -1833.92
944.861 -1879.11 -1834.69
944.681 -1879.25 -1835.97
944.986 -1879.43 -1836.85
945.675 -1879.58 -1837.05
945.225 -1879.4 -1838.54
948.568 -1878.65 -1841.72
950.128 -1878.22 -1843.12
946.852 -1878.97 -1840.66
951.872 -1877.92 -1844.3
954.236 -1877.87 -1844.68
945.068 -1879.22 -1839.99
966.673 -1877.95 -1853.11
967.098 -1877.35 -1855.63
968.766 -1877.13 -1855.93
969.705 -1876.63 -1857.89
954.647 -1877.79 -1846.61
959.164 -1877.87 -1849.61
957.127 -1877.73 -1849.1
961.241 -1878.07 -1849.82
962.472 -1878.14 -1851.12
964.071 -1878.29 -1850.96
964.875 -1877.98 -1852.69
954.993 -1877.71 -1848.6
976.536 -1874.26 -1864.76
973.309 -1875.28 -1862.37
970.447 -1876.11 -1860.01
971.48 -1875.59 -1861.86
974.433 -1874.68 -1864.24
981.764 -1872.91 -1866.65
978.123 -1873.75 -1866.22
979.754 -1873.26 -1867.41
984.018 -1872.11 -1870.16
941.731 -1877.5 -1833.87
942.843 -1878.36 -1834.79
943.708 -1878.86 -1835.52
943.341 -1879.05 -1837.06
943.769 -1879.23 -1837.75
944.395 -1879.33 -1838.29
944.045 -1879.14 -1839.7
948.333 -1878.23 -1843.89
946.821 -1878.56 -1842.58
949.831 -1877.9 -1845.21
945.093 -1878.87 -1841.55
951.257 -1877.69 -1846.43
952.966 -1877.74 -1845.9
943.821 -1878.91 -1841.14
965.747 -1877.68 -1854.5
966.236 -1876.82 -1857.65
965.056 -1877.22 -1856.15
967.886 -1876.82 -1857.59
968.792 -1876.32 -1859.52
952.974 -1877.67 -1847.75
958.051 -1877.66 -1851.09
960.187 -1877.81 -1851.36
956.078 -1877.56 -1850.61
961.131 -1877.72 -1852.9
963.039 -1877.88 -1852.78
963.921 -1877.57 -1854.47
952.586 -1877.45 -1849.52
954.2 -1877.5 -1850.26
975.073 -1874.17 -1866.25
976.734 -1873.76 -1867.19
972.268 -1875.08 -1863.68
969.764 -1875.83 -1861.41
970.175 -1875.38 -1863.27
973.096 -1874.49 -1865.62
981.445 -1872.8 -1868.29
982.074 -1872.46 -1869.95
978.302 -1873.32 -1868.42
980.032 -1872.87 -1869.49
940.432 -1876.95 -1834.92
985.2 -1871.68 -1871.85
982.739 -1872.07 -1871.73
941.706 -1878.04 -1835.84
942.669 -1878.7 -1836.52
942.278 -1878.76 -1838.2
942.748 -1878.99 -1838.83
943.31 -1879.05 -1839.34
943.034 -1878.8 -1840.91
946.687 -1878.17 -1844.76
947.897 -1877.81 -1846.18
945.205 -1878.43 -1843.59
949.438 -1877.6 -1847.34
943.796 -1878.61 -1842.88
951.031 -1877.41 -1848.38
942.917 -1878.57 -1842.61
964.292 -1876.7 -1857.94
965.268 -1876.26 -1859.71
967.078 -1876.38 -1859.49
962.989 -1877.06 -1856.17
968.083 -1875.91 -1861.2
958.884 -1877.54 -1852.81
956.782 -1877.35 -1852.53
954.741 -1877.24 -1852.22
959.709 -1877.17 -1854.55
961.839 -1877.42 -1854.54
952.736 -1877.12 -1851.57
951.008 -1877.09 -1850.51
973.537 -1873.95 -1867.73
975.296 -1873.59 -1868.54
976.93 -1873.18 -1869.58
971.089 -1874.78 -1865.02
967.973 -1875.4 -1863.12
971.664 -1874.23 -1867.09
980.708 -1872.39 -1871.45
978.725 -1872.79 -1870.65
939.005 -1876.39 -1836
940.514 -1877.41 -1836.85
983.579 -1871.72 -1873.18
985.29 -1871.38 -1874.02
981.298 -1871.94 -1873.52
941.624 -1878.35 -1837.62
941.815 -1878.63 -1839.97
941.231 -1878.36 -1839.35
942.405 -1878.75 -1840.5
942.131 -1878.51 -1842.18
945.115 -1877.95 -1845.75
946.237 -1877.65 -1847.31
947.718 -1877.35 -1848.45
944.03 -1878.18 -1844.71
949.412 -1877.2 -1849.41
943.01 -1878.17 -1844.48
941.907 -1878.14 -1843.86
963.237 -1876.1 -1859.83
962.443 -1876.55 -1857.97
966.344 -1875.82 -1861.57
960.735 -1876.9 -1856.38
957.459 -1877.02 -1854.33
955.333 -1876.88 -1854.15
953.2 -1876.89 -1853.42
958.268 -1876.75 -1856.07
951.081 -1876.71 -1852.6
949.382 -1876.82 -1851.51
973.575 -1873.37 -1869.91
975.383 -1873.02 -1870.8
977.213 -1872.64 -1871.81
979.198 -1872.29 -1872.75
939.137 -1876.74 -1837.83
940.589 -1877.86 -1838.72
982.993 -1871.48 -1874.91
981.042 -1871.5 -1875.72
940.738 -1878.21 -1841.17
941.325 -1878.42 -1841.6
939.998 -1877.71 -1840.4
940.875 -1877.98 -1843.22
943.511 -1877.77 -1846.31
944.438 -1877.49 -1847.62
945.837 -1877.09 -1849.4
947.625 -1876.9 -1850.43
942.539 -1877.69 -1846.17
941.403 -1877.63 -1845.56
940.486 -1877.53 -1844.9
960.771 -1876.27 -1858.53
959.14 -1876.37 -1857.77
955.908 -1876.49 -1856.12
953.7 -1876.49 -1855.36
951.454 -1876.42 -1854.49
957.25 -1876.16 -1857.89
949.378 -1876.29 -1853.78
947.844 -1876.42 -1852.59
937.695 -1875.98 -1839.18
939.096 -1877.07 -1839.45
940.109 -1877.8 -1842.62
939.32 -1877.38 -1841.98
938.376 -1876.78 -1840.91
939.585 -1877.27 -1844.3
942.697 -1877.23 -1848.04
943.933 -1877.01 -1849.23
945.994 -1876.54 -1851.55
944.227 -1876.52 -1851.11
941.358 -1877.15 -1847.5
940.285 -1877.05 -1846.87
939.345 -1876.89 -1846.11
959.026 -1875.8 -1859.83
953.731 -1875.97 -1857.31
955.33 -1875.93 -1858.23
951.733 -1876.05 -1856.32
949.606 -1875.88 -1855.76
947.582 -1875.79 -1855.12
946.313 -1876.02 -1853.49
936.822 -1875.62 -1840.72
938.773 -1876.92 -1843.49
937.761 -1876.37 -1842.28
938.138 -1876.41 -1845.12
941.085 -1876.67 -1849.24
942.525 -1876.63 -1850.19
944.33 -1875.94 -1853.19
942.596 -1876 -1852.26
939.942 -1876.52 -1848.6
938.762 -1876.28 -1847.83
937.714 -1876.03 -1846.9
949.871 -1875.47 -1857.69
947.818 -1875.36 -1857.2
945.284 -1875.57 -1854.94
937.184 -1875.93 -1843.9
936.657 -1875.62 -1845.76
939.473 -1876.01 -1850.22
940.866 -1876.07 -1851.23
938.27 -1875.79 -1849.5
937.156 -1875.61 -1848.79
936.225 -1875.33 -1847.51
933.992 -1874.21 -1844.45
935.741 -1875.04 -1844.22
935.057 -1874.74 -1845.96
937.915 -1875.4 -1851.19
939.297 -1875.62 -1852.1
936.799 -1875.27 -1850.46
935.497 -1874.91 -1849.32
934.717 -1874.58 -1847.66
933.149 -1873.86 -1846.37
937.761 -1875.09 -1853.13
936.422 -1874.95 -1852.26
935.11 -1874.74 -1851.23
933.75 -1874.38 -1850.32
933.377 -1874.15 -1848.53
931.674 -1873.43 -1847.91
936.245 -1874.65 -1854.26
934.744 -1874.52 -1853.12
936.375 -1874.26 -1856.2
933.345 -1874.2 -1852.27
931.997 -1873.68 -1849.87
932.112 -1873.8 -1851.53
930.439 -1873.02 -1849.71
934.443 -1874.21 -1854.73
932.956 -1873.9 -1854.1
934.677 -1873.82 -1856.79
931.592 -1873.56 -1853.32
930.457 -1873.19 -1852.01
929.119 -1872.53 -1851.01
926.821 -1871.59 -1852.38
928.65 -1872.46 -1852.87
932.93 -1873.62 -1855.9
931.394 -1873.28 -1855.03
933.075 -1873.28 -1858
929.866 -1872.88 -1854.13
924.02 -1870.48 -1853.53
925.763 -1871.23 -1854
927.461 -1872 -1854.29
931.343 -1873.03 -1856.71
929.816 -1872.73 -1856.03
931.114 -1872.71 -1858.41
928.272 -1872.34 -1855.24
921.012 -1869.55 -1854.59
922.865 -1870.18 -1854.96
924.705 -1870.91 -1855.48
926.455 -1871.62 -1855.88
929.561 -1872.46 -1857.81
927.969 -1872.11 -1856.99
929.945 -1872.14 -1860.06
919.738 -1869.34 -1856.07
921.568 -1870.05 -1856.73
923.369 -1870.51 -1856.76
925.069 -1871.16 -1857.26
926.533 -1871.58 -1858.06
928.182 -1871.93 -1859.01
928.321 -1871.64 -1861.15
918.343 -1869.15 -1857.48
920.098 -1869.77 -1858.12
921.712 -1870.3 -1858.8
923.477 -1870.67 -1858.3
924.995 -1871.11 -1859.14
926.637 -1871.42 -1860.09
915.199 -1868 -1858.86
916.951 -1868.77 -1859.1
918.58 -1869.41 -1859.27
920.031 -1869.88 -1860.07
921.446 -1870.31 -1860.93
923.191 -1870.68 -1860.03
924.952 -1870.97 -1861.08
914.466 -1867.9 -1860.65
916.278 -1868.65 -1860.8
918.12 -1869.32 -1860.95
919.533 -1869.67 -1862.06
921.418 -1870.18 -1862.9
923.152 -1870.64 -1861.97
915.096 -1868.28 -1862.49
917.026 -1868.97 -1862.5
918.121 -1869.2 -1863.69
919.819 -1869.62 -1864.02
