1088.58 -1848.19 -1513.48
1089.96 -1845.62 -1515.02
1089.23 -1847.3 -1514.53
1087.92 -1850.01 -1513.44
1088.9 -1848.92 -1515.07
1087 -1851.47 -1512.85
1093.01 -1840.76 -1518.64
1093.7 -1839.43 -1519.71
1091.45 -1843.19 -1516.78
1092.36 -1842.42 -1518.1
1090.58 -1845.16 -1516.37
1089.77 -1847.27 -1515.97
1088.13 -1850.45 -1514.93
1087.38 -1851.71 -1514.42
1089.68 -1849.09 -1516.7
1088.81 -1850.14 -1516.48
1086.38 -1852.76 -1513.56
1085.44 -1853.92 -1513.07
1094.08 -1838.84 -1520.76
1094.77 -1836.8 -1522.72
1094.82 -1834.97 -1523.42
1095.12 -1833.27 -1524.69
1093.57 -1841.15 -1519.99
1093.09 -1842.67 -1519.43
1093.95 -1840.33 -1520.69
1091.62 -1844.35 -1517.9
1092.44 -1844.19 -1519.1
1090.81 -1846.19 -1517.5
1090.22 -1847.84 -1517.34
1087.96 -1851.63 -1516.21
1087.15 -1852.49 -1515.45
1090.46 -1848.76 -1518.46
1089.74 -1849.97 -1518.18
1088.9 -1851.28 -1517.98
1086.06 -1853.61 -1514.85
1084.89 -1855.08 -1514.16
1094.64 -1838.21 -1522.14
1094.53 -1839.97 -1521.92
1095.33 -1837.9 -1523.9
1095.29 -1836.15 -1524.51
1095.37 -1834.37 -1525.4
1095.67 -1832.58 -1526.75
1094.02 -1842.63 -1520.86
1094.4 -1841.54 -1521.55
1093.72 -1844.08 -1520.64
1091.84 -1845.89 -1518.71
1093.09 -1845.41 -1520.31
1083.49 -1856.5 -1513.73
1080.99 -1859.17 -1514.27
1091.27 -1847.37 -1518.44
1087.86 -1852.57 -1517.52
1086.69 -1853.71 -1516.72
1091.06 -1849.36 -1519.85
1091.77 -1848.3 -1519.89
1090.21 -1850.75 -1519.57
1088.96 -1852.22 -1519.38
1085.37 -1854.99 -1515.86
1084.07 -1856.45 -1515.36
1096.14 -1829.38 -1528.9
1096.13 -1831.56 -1528.33
1095.34 -1839.72 -1523.51
1095.24 -1841.62 -1523.03
1096.11 -1839.43 -1525.37
1096.03 -1837.57 -1525.83
1095.96 -1835.69 -1526.57
1095.97 -1834.07 -1527.26
1096.44 -1833.46 -1528.77
1095.13 -1842.84 -1522.59
1094.77 -1844.06 -1522.16
1094.49 -1845.26 -1521.63
1092.46 -1847 -1520.03
1093.95 -1846.37 -1521.37
1082.55 -1857.8 -1514.89
1080.01 -1860.46 -1515.18
1081.58 -1859.12 -1515.9
1087.5 -1853.83 -1518.69
1086.02 -1855.17 -1517.78
1091.69 -1849.62 -1521.17
1092.78 -1848.66 -1521.01
1093.27 -1847.83 -1521.07
1090.69 -1851.01 -1520.94
1088.25 -1853.82 -1520.43
1089.61 -1852.4 -1521.01
1084.66 -1856.52 -1517.06
1083.15 -1857.82 -1516.53
1096.5 -1830.64 -1530.07
1096.59 -1828.93 -1531.01
1096.74 -1832.54 -1530.19
1096.13 -1841.23 -1524.81
1095.91 -1842.71 -1524.16
1096.79 -1840.65 -1526.6
1096.75 -1838.97 -1527.22
1096.64 -1837.19 -1527.72
1096.67 -1835.62 -1528.65
1097.07 -1834.51 -1530.3
1095.59 -1843.95 -1523.33
1095.24 -1845.01 -1522.91
1094.95 -1846.04 -1522.39
1094.36 -1846.97 -1522.15
1077.67 -1863.02 -1516.01
1079.16 -1861.68 -1516.34
1080.73 -1860.49 -1516.94
1082.31 -1859.23 -1517.65
1086.83 -1855.39 -1519.62
1085.31 -1856.75 -1518.91
1092.09 -1850.03 -1522.45
1093.22 -1848.85 -1522.25
1093.76 -1847.84 -1522.13
1091.01 -1851.46 -1522.35
1087.31 -1855.58 -1521.28
1088.64 -1854.26 -1522.08
1089.84 -1853.01 -1522.56
1083.82 -1858.01 -1518.26
1096.98 -1831.34 -1531.64
1096.96 -1828.31 -1533.12
1097.04 -1829.98 -1532.55
1097.23 -1833.33 -1531.77
1096.49 -1842.18 -1525.91
1096.18 -1843.23 -1524.83
1096.96 -1841.34 -1527.57
1097.16 -1839.75 -1528.36
1097.16 -1837.97 -1528.75
1097.29 -1836.42 -1530.12
1097.45 -1835.42 -1531.6
1095.74 -1844.4 -1523.99
1095.43 -1845.64 -1523.56
1094.87 -1846.71 -1523.04
1077.19 -1864.04 -1517.69
1075.97 -1865.37 -1517.85
1078.47 -1862.86 -1517.73
1079.85 -1861.82 -1518.3
1081.45 -1860.73 -1518.82
1082.98 -1859.57 -1519.55
1085.95 -1857.03 -1520.71
1084.48 -1858.33 -1520.12
1092.1 -1850.79 -1523.73
1093.05 -1849.37 -1523.63
1093.79 -1848.14 -1523.79
1094.15 -1847.69 -1522.99
1090.83 -1852.34 -1523.8
1086.49 -1857.06 -1522.41
1087.8 -1855.54 -1522.79
1089.43 -1854.03 -1523.81
1097.33 -1832.03 -1533.26
1097.29 -1830.08 -1534.27
1097.23 -1828.18 -1535.13
1097.05 -1826.3 -1535.85
1097.55 -1834.27 -1533.09
1096.5 -1842.81 -1526.65
1096.33 -1843.53 -1525.38
1097.18 -1842.14 -1528.33
1097.42 -1840.73 -1529.28
1097.59 -1839.15 -1529.8
1097.59 -1838.04 -1530.3
1097.72 -1837.25 -1531.57
1097.81 -1836.22 -1533
1095.98 -1844.69 -1524.63
1095.39 -1845.94 -1524.17
1094.61 -1847.09 -1524
1077.13 -1864.77 -1519.41
1078.78 -1863.41 -1519.54
1075.74 -1866.22 -1519.53
1080.46 -1862.24 -1520.2
1082.06 -1861.09 -1520.7
1083.67 -1859.83 -1521.31
1074.42 -1867.53 -1519.73
1085.15 -1858.49 -1521.93
1091.7 -1851.67 -1525.15
1092.8 -1850.07 -1524.94
1093.65 -1848.57 -1525.03
1094.41 -1847.36 -1525.26
1090.28 -1853.17 -1525.2
1085.68 -1858.4 -1523.56
1086.92 -1856.86 -1523.81
1088.4 -1855.34 -1524.18
1089.02 -1854.8 -1525.63
1097.52 -1833.34 -1534.43
1097.51 -1831.7 -1535.14
1097.45 -1829.82 -1536.09
1097.36 -1827.84 -1537.09
1097.15 -1826.06 -1537.84
1097.77 -1835.25 -1534.49
1096.74 -1843.01 -1527.39
1096.29 -1843.84 -1526.54
1097.26 -1841.89 -1529.27
1097.82 -1841.03 -1530.69
1097.99 -1840.23 -1530.99
1097.9 -1838.93 -1531.53
1098.03 -1838.09 -1532.87
1098.02 -1837.26 -1534.19
1095.92 -1844.94 -1525.55
1095.25 -1846.19 -1525.4
1078.1 -1864.63 -1520.99
1076.76 -1865.82 -1521.09
1079.73 -1863.57 -1521.54
1075.47 -1866.99 -1521.18
1081.16 -1862.53 -1522.02
1082.75 -1861.22 -1522.31
1084.29 -1859.81 -1522.87
1074.12 -1868.12 -1521.41
1091.4 -1852.05 -1526.83
1092.47 -1850.73 -1526.37
1093.5 -1849.19 -1526.3
1094.3 -1847.83 -1526.72
1095 -1846.55 -1526.75
1090.13 -1853.46 -1526.65
1084.75 -1859.67 -1524.44
1086.02 -1858.13 -1524.95
1087.39 -1856.45 -1525.22
1087.93 -1855.97 -1526.74
1089.28 -1854.57 -1527.49
1097.58 -1833.77 -1535.94
1097.53 -1831.65 -1536.73
1097.39 -1829.55 -1537.77
1097.31 -1827.55 -1538.49
1097.26 -1825.96 -1539.7
1097.41 -1824.26 -1540.48
1097.9 -1835.96 -1535.58
1097.42 -1823.16 -1541.83
1097.42 -1821.35 -1541.95
1096.83 -1842.79 -1528.75
1095.65 -1845.19 -1526.99
1096.34 -1843.99 -1528.03
1097.33 -1841.86 -1530.51
1097.88 -1841.25 -1531.98
1098.14 -1840.53 -1532.3
1098.17 -1839.56 -1532.53
1098.06 -1838.66 -1533.99
1098.01 -1837.82 -1535.42
1078.8 -1864.84 -1522.66
1077.28 -1866.04 -1522.76
1080.3 -1863.92 -1523.56
1075.76 -1867.24 -1522.87
1081.81 -1862.53 -1523.44
1083.44 -1861.06 -1523.78
1072.77 -1869.43 -1521.79
1074.25 -1868.43 -1523
1097.54 -1820.22 -1543.91
1092 -1851.34 -1528.54
1090.7 -1852.89 -1528.22
1092.99 -1850.07 -1527.77
1093.92 -1848.67 -1528.23
1094.85 -1847.08 -1528.7
1095.52 -1845.81 -1528.28
1085.09 -1859.34 -1526.02
1083.78 -1860.89 -1525.49
1086.45 -1857.62 -1526.41
1086.93 -1857 -1527.99
1088.3 -1855.5 -1528.62
1089.75 -1853.95 -1529.22
1097.62 -1835.12 -1537.06
1097.45 -1833.08 -1537.37
1097.29 -1831.17 -1538.45
1097.21 -1829.12 -1539.33
1097.19 -1827.32 -1540.51
1097.29 -1825.57 -1541.65
1097.85 -1837.26 -1536.72
1097.33 -1823.98 -1543.31
1097.42 -1822.09 -1543.72
1096.69 -1843.06 -1530
1096.16 -1844.57 -1529.18
1097.2 -1842.43 -1531.83
1098.15 -1840.69 -1533.5
1097.81 -1841.44 -1533.17
1098.27 -1839.85 -1533.6
1098.16 -1839.02 -1534.97
1097.83 -1838.39 -1536.43
1078.74 -1865.38 -1524.18
1077.16 -1866.64 -1524.39
1079.82 -1864.77 -1525.38
1081.18 -1863.54 -1524.93
1075.61 -1867.8 -1524.61
1082.57 -1862.16 -1524.78
1071.49 -1870.38 -1523.01
1072.94 -1869.56 -1523.69
1074.15 -1868.77 -1524.76
1097.5 -1821.06 -1545.49
1097.69 -1819.14 -1545.74
1091.16 -1852.3 -1529.92
1092.34 -1850.92 -1530.52
1093.18 -1849.87 -1529.49
1094.18 -1848.36 -1530.07
1095.09 -1846.74 -1530.71
1095.75 -1845.57 -1530.02
1084.26 -1860.28 -1527.33
1085.57 -1858.69 -1527.69
1083.19 -1861.58 -1526.94
1082.11 -1862.79 -1526.16
1085.98 -1858.03 -1529.4
1087.31 -1856.48 -1529.84
1088.69 -1854.93 -1530.42
1090.14 -1853.39 -1530.92
1097.5 -1836.28 -1538.03
1097.33 -1834.31 -1538.31
1097.22 -1832.55 -1539.02
1097 -1830.71 -1540.04
1097.02 -1828.97 -1541.04
1097.05 -1827.41 -1542.37
1097.18 -1825.8 -1543.14
1097.61 -1837.98 -1537.89
1097.14 -1824.59 -1544.7
1097.3 -1822.85 -1545.24
1096.45 -1843.95 -1530.98
1096.8 -1843.52 -1532.69
1097.57 -1842.08 -1533.71
1097.98 -1840.86 -1534.58
1098.28 -1840.07 -1534.64
1098.11 -1839.57 -1535.99
1097.68 -1838.98 -1537.43
1078.28 -1866.06 -1525.75
1076.62 -1867.36 -1526.09
1080.76 -1864.1 -1526.67
1079.28 -1865.4 -1527.07
1074.95 -1868.55 -1526.47
1070.28 -1871.14 -1524.2
1071.87 -1870.27 -1525.1
1073.3 -1869.49 -1526.09
1097.32 -1821.8 -1546.97
1097.57 -1820.06 -1547.21
1097.79 -1818.2 -1547.66
1097.91 -1816.42 -1548.19
1091.44 -1851.93 -1531.78
1092.44 -1850.69 -1532.59
1093.37 -1849.56 -1531.44
1094.32 -1848.04 -1531.94
1095.26 -1846.41 -1532.59
1095.98 -1845.14 -1531.8
1084.57 -1859.72 -1528.98
1083.16 -1861.42 -1528.83
1082.11 -1862.72 -1527.86
1084.98 -1858.88 -1530.84
1086.31 -1857.37 -1531.3
1087.64 -1855.86 -1531.73
1089.06 -1854.32 -1532.18
1090.45 -1852.91 -1532.67
1097.12 -1835.62 -1539.32
1097.29 -1837.74 -1539.17
1096.99 -1833.85 -1540.12
1096.89 -1832.15 -1540.6
1096.7 -1830.72 -1541.69
1096.75 -1829.17 -1542.61
1096.91 -1826.08 -1543.81
1096.69 -1827.59 -1543.59
1097.41 -1838.99 -1538.73
1096.81 -1825.15 -1545.55
1096.98 -1823.51 -1546.66
1096.23 -1844.77 -1533.56
1097.04 -1843.39 -1534.41
1097.46 -1841.97 -1535.34
1097.95 -1840.51 -1535.7
1097.67 -1840.13 -1537.26
1077.65 -1866.75 -1527.38
1075.9 -1868.09 -1527.8
1080.82 -1863.97 -1528.27
1078.32 -1866.31 -1528.86
1079.59 -1865.14 -1528.7
1073.97 -1869.38 -1528.11
1070.55 -1871.14 -1526.29
1072.17 -1870.35 -1527.35
1097.17 -1821.81 -1548.71
1097.44 -1820.55 -1548.52
1097.65 -1818.98 -1549.19
1097.76 -1817.28 -1549.84
1097.89 -1815.51 -1550.13
1097.88 -1814.49 -1551.68
1091.35 -1851.84 -1533.93
1092.52 -1850.33 -1534.42
1093.47 -1849.22 -1533.46
1094.44 -1847.68 -1533.66
1095.44 -1845.99 -1534.3
1083.63 -1860.53 -1530.53
1081.76 -1862.92 -1529.56
1082.39 -1862.04 -1530.81
1084.1 -1859.63 -1532.36
1085.33 -1858.16 -1532.84
1086.64 -1856.6 -1533.27
1088.08 -1855.06 -1533.59
1089.63 -1853.51 -1533.94
1096.88 -1836.75 -1540.44
1096.61 -1834.9 -1541.26
1097 -1838.51 -1540.25
1096.52 -1832.8 -1541.89
1096.32 -1831.25 -1542.96
1096.32 -1829.35 -1543.98
1096.55 -1826.44 -1545.16
1096.27 -1828.07 -1545.22
1097.31 -1840.02 -1538.66
1096.52 -1825.03 -1547.08
1096.78 -1823.47 -1548.19
1096.22 -1844.71 -1535.41
1096.77 -1843.41 -1536.03
1097.12 -1842.29 -1536.85
1097.55 -1841.25 -1536.52
1097.41 -1841.04 -1537.73
1076.86 -1867.49 -1529.07
1075.18 -1868.73 -1529.48
1080.41 -1864.26 -1530.09
1079.05 -1865.6 -1530.49
1077.63 -1866.84 -1530.65
1072.23 -1870.56 -1529.27
1073.66 -1869.8 -1530.21
1068.73 -1872.16 -1527.31
1070.53 -1871.39 -1528.32
1096.85 -1821.25 -1550.62
1096.59 -1823.02 -1549.79
1097.38 -1820.02 -1550.06
1097.51 -1818.26 -1550.91
1097.68 -1816.44 -1551.69
1098.07 -1811.39 -1553.63
1097.98 -1813.2 -1553.26
1097.73 -1815.03 -1553.18
1098.21 -1810.62 -1555.37
1090.15 -1852.72 -1535.42
1091.48 -1851.33 -1535.72
1092.58 -1849.88 -1536.02
1093.61 -1848.68 -1535.38
1094.63 -1847.18 -1535.07
1095.3 -1845.94 -1536.07
1082.8 -1861.19 -1532.34
1081.12 -1863.38 -1531.53
1081.61 -1862.51 -1533.02
1084.38 -1858.94 -1534.45
1083.29 -1860.33 -1533.96
1085.61 -1857.41 -1534.78
1086.98 -1855.85 -1535.15
1088.5 -1854.32 -1535.29
1096.52 -1837.08 -1541.61
1096.09 -1835.71 -1542.82
1096.13 -1833.98 -1543
1096.48 -1838.83 -1541.56
1096.88 -1839.68 -1540.11
1095.89 -1832.64 -1544.16
1095.99 -1830.87 -1544.45
1095.76 -1829.66 -1545.79
1096.15 -1826.56 -1546.97
1095.68 -1828.37 -1547.2
1096.85 -1840.94 -1539.31
1096.15 -1824.99 -1548.82
1095.88 -1844.64 -1537.05
1096.35 -1843.41 -1537.66
1096.7 -1842.17 -1538.44
1076.25 -1867.97 -1530.85
1074.83 -1869.02 -1531.49
1079.77 -1864.75 -1531.94
1078.41 -1866.04 -1532.3
1077 -1867.28 -1532.43
1072.15 -1870.84 -1531.3
1070.7 -1871.63 -1530.41
1073.57 -1869.97 -1532.33
1067.61 -1872.96 -1528.8
1069.14 -1872.21 -1529.54
1096.17 -1822.5 -1551.74
1096.53 -1820.67 -1552.49
1097.14 -1819.48 -1551.71
1095.87 -1824.35 -1550.9
1097.31 -1817.79 -1552.62
1097.41 -1816.31 -1553.78
1097.99 -1812.24 -1555.18
1097.76 -1813.81 -1554.75
1097.32 -1815.01 -1555.3
1098.57 -1808.32 -1557.36
1098.04 -1811.58 -1557.02
1098.34 -1809.9 -1557.2
1088.96 -1853.49 -1536.93
1090.44 -1851.99 -1537.11
1091.79 -1850.31 -1537.42
1093.1 -1848.7 -1537.18
1094.17 -1847.37 -1536.56
1094.83 -1845.91 -1537.59
1082.12 -1861.58 -1534.6
1080.31 -1863.98 -1533.43
1080.83 -1863.05 -1534.97
1083.12 -1860.2 -1535.91
1084.48 -1858.47 -1536.29
1085.85 -1856.76 -1536.58
1087.36 -1855.11 -1536.78
1095.98 -1837.62 -1542.88
1095.44 -1836.34 -1544.37
1095.52 -1834.59 -1544.61
1095.78 -1839.64 -1542.5
1096.18 -1840.66 -1541.02
1095.09 -1833.35 -1546
1095.34 -1831.52 -1546
1095.05 -1830.07 -1547.64
1095.56 -1827.05 -1548.69
1094.93 -1828.85 -1549.13
1096.09 -1841.88 -1540.24
1095.46 -1826.01 -1550.2
1095.4 -1844.56 -1538.62
1095.87 -1843.24 -1539.32
1075.74 -1868.3 -1532.66
1074.67 -1869.08 -1533.9
1079 -1865.29 -1533.84
1077.58 -1866.61 -1534.03
1076.14 -1867.85 -1534.2
1070.71 -1871.85 -1532.45
1072.01 -1871.04 -1533.3
1069.13 -1872.5 -1531.59
1073.25 -1870.16 -1534.08
1067.45 -1873.22 -1530.68
1095.38 -1824.1 -1552.81
1095.65 -1822.22 -1553.75
1096.71 -1819.14 -1553.55
1096.08 -1820.37 -1554.42
1094.92 -1826.1 -1552.03
1096.91 -1817.69 -1554.59
1097.06 -1816.29 -1555.81
1097.68 -1813.32 -1556.68
1097.07 -1814.92 -1557.15
1098.77 -1806.9 -1558.57
1098.47 -1808.47 -1558.76
1097.68 -1812.03 -1558.72
1098.16 -1810.24 -1558.74
1089.06 -1852.85 -1538.69
1087.59 -1854.39 -1538.39
1090.44 -1851.42 -1538.71
1091.46 -1849.9 -1539.1
1092.57 -1848.65 -1538.68
1093.77 -1847.22 -1538.19
1094.33 -1845.8 -1539.27
1081.48 -1861.97 -1536.43
1079.57 -1864.48 -1535.35
1080.12 -1863.47 -1536.92
1082.26 -1860.88 -1537.59
1083.44 -1859.37 -1537.81
1084.76 -1857.69 -1538.03
1086.14 -1855.99 -1538.25
1095.25 -1838.27 -1544.14
1094.71 -1836.95 -1545.79
1094.89 -1835.1 -1546.02
1095.39 -1841.49 -1542.04
1094.97 -1840.09 -1543.84
1094.65 -1831.99 -1547.74
1094.43 -1833.84 -1547.64
1095.34 -1842.83 -1541.03
1094.92 -1844.36 -1540.24
1065.95 -1874.16 -1531.58
1073.69 -1869.74 -1535.69
1075.19 -1868.51 -1535.73
1078.2 -1865.82 -1535.64
1076.67 -1867.24 -1535.69
1069.3 -1872.62 -1533.65
1070.75 -1871.9 -1534.52
1072.07 -1870.95 -1535.33
1067.66 -1873.31 -1532.71
1094.98 -1822.12 -1555.8
1096.23 -1818.96 -1555.54
1095.5 -1820.35 -1556.26
1096.45 -1817.49 -1556.74
1096.5 -1816.13 -1558.05
1097.29 -1813.61 -1558.4
1096.7 -1814.8 -1559.33
1098.77 -1807.01 -1560.04
1098.29 -1808.64 -1560.32
1097.12 -1813.02 -1560.19
1097.87 -1810.65 -1560.13
1087.65 -1853.65 -1540.12
1089.04 -1852.12 -1540.36
1086.27 -1855.26 -1539.89
1090.31 -1850.57 -1540.41
1091.68 -1848.74 -1540.49
1093.13 -1847.25 -1539.73
1093.67 -1845.59 -1540.95
1080.9 -1862.23 -1538.41
1078.8 -1864.92 -1537.23
1079.44 -1863.87 -1538.81
1082.08 -1860.6 -1539.37
1083.55 -1858.76 -1539.44
1084.94 -1856.99 -1539.7
1094.48 -1838.89 -1545.56
1094.55 -1841.53 -1543.62
1094.59 -1842.62 -1542.66
1093.97 -1840.67 -1545.33
1094.35 -1843.98 -1541.84
1064.24 -1875.04 -1532.62
1066.09 -1874.15 -1533.62
1072.43 -1870.6 -1537.08
1074.16 -1869.22 -1537.32
1075.71 -1867.89 -1537.31
1077.27 -1866.5 -1537.19
1067.78 -1873.4 -1534.74
1069.41 -1872.66 -1535.66
1070.86 -1871.78 -1536.49
1095.72 -1818.89 -1557.51
1095.82 -1817.47 -1558.91
1096 -1816.2 -1560.21
1096.42 -1814.52 -1561.17
1097.89 -1809.7 -1561.72
1098.18 -1808.01 -1562.39
1096.79 -1812.86 -1562.21
1097.43 -1811.54 -1561.17
1087.62 -1852.81 -1541.9
1086.29 -1854.46 -1541.58
1088.95 -1851.24 -1541.97
1085 -1856.2 -1541.31
1090.26 -1849.59 -1541.94
1091.3 -1847.94 -1542.35
1092.52 -1847.08 -1541.21
1093.21 -1844.91 -1542.68
1092.31 -1846.22 -1542.71
1080.24 -1862.53 -1540.08
1077.86 -1865.61 -1538.7
1078.28 -1864.8 -1540.07
1078.92 -1863.71 -1541.26
1081.24 -1861.06 -1540.92
1082.47 -1859.55 -1540.95
1083.71 -1857.92 -1541.05
1093.64 -1838.87 -1547.12
1093.72 -1842.32 -1544.48
1093.54 -1843.61 -1543.66
1093.18 -1840.47 -1546.92
1092.98 -1841.87 -1546.11
1062.48 -1875.88 -1533.17
1064.63 -1874.92 -1534.59
1066.22 -1874.23 -1535.77
1071.67 -1870.97 -1538.69
1073.12 -1869.81 -1538.81
1070.51 -1871.9 -1538.21
1074.73 -1868.45 -1538.89
1076.28 -1867.15 -1538.71
1067.87 -1873.49 -1536.74
1069.26 -1872.72 -1537.54
1098.11 -1807.33 -1564.07
1097.33 -1811.05 -1562.91
1097.66 -1809.23 -1563.55
1096.52 -1812.5 -1564.28
1087.45 -1851.92 -1543.59
1086.18 -1853.55 -1543.35
1084.93 -1855.29 -1542.91
1088.82 -1850.22 -1543.52
1083.66 -1857.17 -1542.62
1090.02 -1848.59 -1543.69
1091.25 -1846.73 -1544.04
1092.17 -1844.92 -1544.44
1080 -1862.09 -1542
1076.75 -1866.37 -1540.17
1077.3 -1865.34 -1541.55
1077.68 -1864.35 -1542.99
1078.87 -1862.94 -1543.17
1081.04 -1860.5 -1542.65
1082.34 -1858.93 -1542.55
1092.59 -1839.45 -1548.53
1092.69 -1843.3 -1545.34
1092.22 -1841.19 -1547.95
1091.93 -1842.61 -1547.17
1061.23 -1876.32 -1535.1
1063.07 -1875.68 -1535.08
1064.51 -1875.08 -1536.68
1066.26 -1874.31 -1537.8
1071.85 -1870.49 -1540.46
1070.4 -1871.73 -1539.96
1073.59 -1869.09 -1540.37
1069.15 -1872.68 -1539.46
1075.19 -1867.73 -1540.33
1067.87 -1873.5 -1538.75
1097.02 -1810.59 -1564.74
1085.9 -1852.59 -1545.16
1087.52 -1850.68 -1545.01
1084.73 -1854.38 -1544.6
1083.61 -1856.21 -1544.16
1088.64 -1848.93 -1545.36
1082.32 -1858.05 -1544.03
1089.94 -1847.49 -1545.19
1090.76 -1845.85 -1545.77
1091.44 -1844.21 -1546.33
1079.67 -1861.41 -1544.08
1075.68 -1866.85 -1541.67
1076.17 -1865.83 -1543.08
1077.87 -1863.32 -1544.73
1076.58 -1864.74 -1544.7
1080.95 -1859.71 -1544.28
1091.13 -1841.88 -1549.08
1090.7 -1843.47 -1548.23
1062.05 -1876.03 -1536.75
1060.08 -1876.79 -1537.27
1063.31 -1875.56 -1538.04
1064.82 -1874.93 -1538.97
1066.35 -1874.24 -1539.86
1070.23 -1871.51 -1541.62
1071.3 -1870.39 -1542.42
1072.68 -1869.41 -1541.86
1068.98 -1872.55 -1541.16
1074.09 -1868.18 -1541.85
1067.75 -1873.41 -1540.68
1086.36 -1851.03 -1546.37
1084.95 -1852.13 -1547.16
1084.18 -1853.73 -1546.37
1087.38 -1849.29 -1546.85
1083.25 -1855.44 -1545.89
1082.29 -1857.04 -1545.54
1089.15 -1847.08 -1546.8
1081.05 -1858.58 -1545.75
1090.06 -1845.2 -1547.51
1079.69 -1860.27 -1545.98
1078.56 -1861.92 -1545.67
1074.48 -1867.3 -1543.29
1075.07 -1866.2 -1544.67
1076.85 -1863.53 -1546.5
1075.46 -1865.11 -1546.29
1061.55 -1876.19 -1538.76
1059.98 -1876.86 -1539.66
1058.46 -1877.51 -1538.67
1063.17 -1875.53 -1540.04
1064.71 -1874.93 -1540.96
1066.16 -1874.22 -1541.73
1069.85 -1871.29 -1543.5
1068.69 -1872.37 -1542.88
1072.73 -1868.81 -1543.53
1071.09 -1869.99 -1544.2
1067.46 -1873.32 -1542.38
1085.77 -1850.34 -1548.07
1083.47 -1853.23 -1548.26
1084.27 -1851.44 -1549.04
1082.59 -1855.06 -1547.62
1086.49 -1848.71 -1548.88
1087.86 -1847.75 -1547.94
1081.43 -1856.96 -1547.27
1088.7 -1846.01 -1548.68
1080.11 -1858.7 -1547.4
1078.73 -1860.32 -1547.8
1077.79 -1861.9 -1547.32
1073.39 -1867.71 -1544.9
1073.95 -1866.64 -1546.17
1076.47 -1862.85 -1548.46
1075.38 -1864.35 -1548.02
1074 -1865.88 -1547.7
1061.53 -1876.18 -1540.92
1059.99 -1876.82 -1541.94
1058.46 -1877.45 -1540.93
1056.92 -1878.04 -1540.1
1063.07 -1875.58 -1542.05
1064.51 -1874.88 -1542.92
1065.9 -1874.04 -1543.61
1068.36 -1872.08 -1544.76
1069.46 -1871 -1545.33
1067.2 -1873.1 -1544.2
1071.91 -1868.77 -1545.61
1070.48 -1869.89 -1546.02
1085.02 -1849.67 -1549.94
1082.11 -1854.12 -1549.53
1082.85 -1852.4 -1550.24
1081.23 -1855.87 -1549.01
1080.1 -1857.41 -1549.05
1079.01 -1858.96 -1549.04
1077.36 -1861.12 -1549.18
1077.82 -1859.64 -1550.25
1072.46 -1867.65 -1547.07
1076.01 -1862.14 -1550.24
1075 -1863.68 -1549.83
1073.82 -1865.12 -1549.47
1072.6 -1866.61 -1548.95
1061.47 -1876.19 -1543.06
1059.93 -1876.8 -1544.01
1058.37 -1877.49 -1542.99
1056.69 -1878.21 -1542.09
1055 -1878.89 -1541.35
1062.81 -1875.55 -1544.07
1064.27 -1874.73 -1544.82
1065.62 -1873.78 -1545.49
1066.96 -1872.76 -1546.09
1068.07 -1871.68 -1546.67
1069.19 -1870.53 -1547.3
1070.6 -1869.16 -1547.67
1071.39 -1867.99 -1548.69
1073.43 -1864.39 -1551.29
1072.26 -1865.87 -1550.85
1071.11 -1867.3 -1550.53
1061.06 -1876.19 -1545.21
1059.31 -1876.82 -1546.42
1058.51 -1877.32 -1544.96
1056.86 -1878.06 -1544.22
1055.25 -1878.83 -1543.5
1053.67 -1879.58 -1542.94
1062.55 -1875.32 -1545.99
1063.94 -1874.42 -1546.74
1065.31 -1873.43 -1547.36
1066.57 -1872.35 -1547.95
1067.74 -1871.24 -1548.54
1068.99 -1870 -1549.13
1070 -1868.73 -1549.9
1069.68 -1868 -1551.95
1060.9 -1875.93 -1547.17
1057.18 -1877.74 -1546.2
1057.67 -1877.37 -1547.76
1059.34 -1876.5 -1548.32
1055.53 -1878.56 -1545.71
1053.94 -1879.4 -1545.12
1052.35 -1880.23 -1544.41
1062.28 -1875 -1547.99
1063.64 -1874.01 -1548.7
1064.97 -1872.99 -1549.28
1066.23 -1871.88 -1549.8
1067.49 -1870.7 -1550.41
1068.6 -1869.42 -1551.2
1060.67 -1875.59 -1549.22
1055.83 -1878.23 -1547.67
1057.84 -1877.06 -1549.44
1056.24 -1877.92 -1549.36
1059.09 -1876.17 -1550.37
1054.24 -1879.12 -1547.29
1052.6 -1880.07 -1546.5
1061.92 -1874.62 -1550.04
1063.25 -1873.59 -1550.64
1064.59 -1872.49 -1551.15
1065.91 -1871.29 -1551.64
1067.18 -1870.02 -1552.37
1060.28 -1875.25 -1551.36
1054.63 -1878.79 -1549.3
1057.33 -1876.95 -1551.12
1055.75 -1877.95 -1551.11
1058.56 -1875.93 -1552.34
1052.8 -1879.89 -1548.43
1061.52 -1874.19 -1552.07
1059.78 -1874.85 -1553.45
1053.01 -1879.73 -1550.06
1054.26 -1878.85 -1551.23
1051.19 -1880.87 -1549.94
1052.51 -1879.96 -1551.67
1050.87 -1881.04 -1551.84
