-1147.300049 -128.500000 4055.790039
-1146.699951 -126.599998 4054.899902
-1146.400024 -124.800003 4054.199951
-1145.599976 -122.699997 4053.100098
-1146.300049 -121.500000 4053.189941
-1145.800049 -119.499001 4052.310059
-1145.599976 -117.800003 4051.699951
-1145.000000 -115.801003 4050.810059
-1144.099976 -113.700996 4049.590088
-1143.699951 -111.799004 4048.800049
-1143.199951 -109.900002 4048.000000
-1144.199951 -108.900002 4048.189941
-1144.900024 -107.598999 4048.189941
-1145.199951 -106.099998 4047.909912
-1144.199951 -103.901001 4046.689941
-1144.000000 -102.099998 4046.110107
-1142.199951 -99.599998 4044.399902
-1141.400024 -97.500000 4043.399902
-1140.699951 -95.500999 4042.389893
-1141.599976 -94.400002 4042.510010
-1141.900024 -93.000000 4042.300049
-1141.699951 -91.299004 4041.689941
-1142.199951 -90.000000 4041.500000
-1141.199951 -87.799004 4040.310059
-1139.599976 -83.598999 4038.209961
-1133.199951 -78.198997 4033.300049
-1132.699951 -76.300003 4032.500000
-1132.800049 -74.800003 4032.100098
-1130.199951 -71.698997 4029.790039
-1133.599976 -72.099998 4031.709961
-1136.599976 -72.200996 4033.300049
-1137.199951 -70.999001 4033.199951
-1136.500000 -68.899002 4032.199951
-1136.800049 -67.499001 4032.010010
-1137.500000 -66.199997 4032.010010
-1137.800049 -64.800003 4031.709961
-1137.800049 -63.101002 4031.189941
-1138.599976 -62.000000 4031.310059
-1139.500000 -60.900002 4031.399902
-1137.099976 -57.898998 4029.300049
-1136.400024 -55.901001 4028.290039
-1135.699951 -53.900002 4027.399902
-1133.199951 -50.900002 4025.209961
-1131.500000 -48.299999 4023.500000
-1130.000000 -45.799000 4022.000000
-1129.500000 -43.799999 4021.090088
-1129.800049 -42.400002 4020.909912
-1128.300049 -40.000999 4019.409912
-1126.800049 -37.500000 4017.909912
-1125.199951 -34.901001 4016.300049
-1124.699951 -33.000999 4015.409912
-1123.500000 -30.701000 4014.189941
-1122.000000 -28.299000 4012.699951
-1119.800049 -25.400000 4010.709961
-1117.800049 -22.799999 4008.909912
-1117.500000 -20.900999 4008.090088
-1116.599976 -18.801001 4006.989990
-1116.500000 -17.099001 4006.500000
-1115.300049 -14.799000 4005.189941
-1114.099976 -12.600000 4003.909912
-1113.199951 -10.401000 4002.810059
-1112.199951 -8.200000 4001.590088
-1111.400024 -6.100000 4000.610107
-1110.900024 -4.299000 3999.790039
-1110.099976 -2.300000 3998.810059
-1109.800049 -0.500000 3998.110107
-1108.800049 1.699000 3997.010010
-1107.699951 3.799000 3995.790039
-1106.599976 6.100000 3994.510010
-1105.099976 8.600000 3993.010010
-1104.699951 10.500000 3992.189941
-1104.099976 12.501000 3991.300049
-1103.199951 14.500000 3990.300049
-1101.800049 17.000000 3988.800049
-1100.000000 19.500999 3987.090088
-1098.699951 21.900000 3985.810059
-1097.800049 23.899000 3984.709961
-1097.400024 25.700001 3984.010010
-1096.699951 27.700001 3983.000000
-1096.400024 29.400000 3982.389893
-1096.199951 31.200001 3981.689941
-1096.199951 32.900002 3981.290039
-1094.900024 35.299000 3979.889893
-1094.300049 37.201000 3979.000000
-1093.099976 39.400002 3977.689941
-1092.099976 41.500000 3976.590088
-1091.000000 43.599998 3975.399902
-1090.300049 45.601002 3974.489990
-1089.099976 47.898998 3973.209961
-1087.400024 50.400002 3971.590088
-1085.800049 52.799000 3970.000000
-1085.699951 54.599998 3969.510010
-1084.699951 56.800999 3968.290039
-1084.000000 58.701000 3967.409912
-1083.199951 60.699001 3966.399902
-1083.099976 62.401001 3965.909912
-1083.599976 63.601002 3965.790039
-1082.599976 65.800003 3964.600098
-1081.800049 67.801003 3963.590088
-1081.300049 69.699997 3962.800049
-1080.599976 71.599998 3961.909912
-1079.599976 73.799004 3960.689941
-1077.000000 76.799004 3958.500000
-1076.699951 78.599998 3957.790039
-1075.699951 80.699997 3956.699951
-1075.599976 82.300003 3956.209961
-1074.300049 84.801003 3954.800049
-1073.099976 87.000000 3953.610107
-1073.900024 88.099998 3953.610107
-1073.400024 89.899002 3952.909912
-1073.199951 91.599998 3952.209961
-1072.000000 93.800003 3950.989990
-1070.500000 96.099998 3949.590088
-1068.199951 99.000999 3947.600098
-1066.300049 101.600998 3945.800049
-1066.099976 103.300003 3945.189941
-1064.699951 105.599998 3943.790039
-1064.500000 107.300003 3943.209961
-1063.599976 109.400002 3942.199951
-1061.800049 112.000000 3940.489990
-1060.500000 114.200996 3939.090088
-1058.900024 116.698997 3937.590088
-1054.500000 120.599998 3934.199951
-1029.599976 135.500000 3916.899902
-1180.500000 -273.898987 4115.910156
-1181.400024 -272.498993 4115.910156
-1180.599976 -270.299988 4114.810059
-1180.400024 -268.498993 4114.100098
-1179.000000 -265.799988 4112.609863
-1178.800049 -263.799988 4111.910156
-1178.199951 -261.700012 4110.899902
-1177.099976 -259.398987 4109.589844
-1176.900024 -257.601013 4109.009766
-1176.099976 -255.399994 4107.790039
-1175.599976 -253.401001 4106.990234
-1174.599976 -251.100998 4105.709961
-1173.900024 -249.100006 4104.709961
-1173.199951 -247.100998 4103.790039
-1172.599976 -245.199005 4102.910156
-1172.099976 -243.199997 4101.990234
-1171.599976 -241.300995 4101.109863
-1170.699951 -239.201004 4100.009766
-1169.599976 -237.000000 4098.790039
-1169.800049 -235.600006 4098.390137
-1168.500000 -233.100998 4096.990234
-1168.699951 -231.600006 4096.709961
-1167.199951 -229.098999 4095.090088
-1166.300049 -226.998993 4093.989990
-1166.000000 -225.201004 4093.290039
-1165.400024 -223.300995 4092.409912
-1164.800049 -221.300003 4091.399902
-1164.599976 -219.500000 4090.790039
-1163.500000 -217.199005 4089.510010
-1162.800049 -215.199997 4088.500000
-1162.699951 -213.399994 4087.889893
-1162.699951 -211.699997 4087.399902
-1162.599976 -209.998993 4086.790039
-1161.699951 -207.800003 4085.600098
-1161.099976 -205.798996 4084.689941
-1160.800049 -203.899002 4084.020020
-1160.500000 -202.100998 4083.310059
-1159.699951 -199.899994 4082.090088
-1159.099976 -197.901001 4081.300049
-1158.699951 -195.899994 4080.510010
-1158.099976 -193.800003 4079.409912
-1158.000000 -191.899994 4078.800049
-1157.699951 -189.899002 4078.090088
-1157.599976 -188.100998 4077.520020
-1156.900024 -185.899994 4076.389893
-1156.500000 -184.098999 4075.709961
-1156.000000 -182.100006 4074.800049
-1155.400024 -180.000000 4073.790039
-1155.199951 -178.100998 4073.090088
-1156.199951 -177.098999 4073.300049
-1155.199951 -174.899994 4072.199951
-1154.900024 -173.000000 4071.409912
-1153.300049 -170.300003 4069.790039
-1153.400024 -168.800003 4069.399902
-1153.599976 -167.199997 4069.000000
-1152.900024 -165.001007 4067.899902
-1152.500000 -163.098999 4067.199951
-1151.599976 -160.899994 4066.010010
-1151.599976 -159.300003 4065.489990
-1151.800049 -157.800995 4065.189941
-1151.400024 -155.899002 4064.389893
-1151.000000 -153.998993 4063.600098
-1150.900024 -152.201004 4062.989990
-1150.699951 -150.498993 4062.290039
-1150.699951 -148.899002 4061.889893
-1150.400024 -146.899994 4061.100098
-1151.400024 -145.800003 4061.310059
-1151.599976 -144.300003 4060.909912
-1151.500000 -142.598999 4060.300049
-1152.000000 -141.300003 4060.209961
-1151.699951 -139.399994 4059.510010
-1151.400024 -137.600006 4058.810059
-1151.300049 -135.899994 4058.199951
-1152.199951 -134.701004 4058.290039
-1151.599976 -132.699997 4057.399902
-1150.500000 -130.501007 4056.209961
-1148.599976 -127.700996 4054.409912
-1146.199951 -124.700996 4052.189941
-1144.800049 -122.199997 4050.689941
-1144.599976 -120.500999 4050.110107
-1142.300049 -117.399002 4047.909912
-1141.900024 -115.600998 4047.209961
-1140.900024 -113.400002 4046.110107
-1141.099976 -107.099998 4044.189941
-1146.699951 -108.699997 4047.610107
-1149.199951 -108.500000 4048.800049
-1147.500000 -105.801003 4047.209961
-1147.400024 -104.098999 4046.600098
-1142.099976 -99.500999 4042.510010
-1133.800049 -93.099998 4036.290039
-1136.900024 -93.300003 4037.899902
-1143.800049 -95.698997 4042.209961
-1142.199951 -93.200996 4040.590088
-1132.400024 -76.098999 4030.399902
-1133.800049 -75.399002 4030.909912
-1107.300049 -58.500000 4012.209961
-1113.599976 -60.499001 4015.989990
-1130.800049 -68.800003 4027.399902
-1108.800049 -54.500999 4011.689941
-1117.699951 -58.099998 4017.399902
-1129.099976 -63.000000 4024.810059
-1131.199951 -62.598999 4025.699951
-1133.800049 -62.500000 4027.010010
-1137.400024 -62.901001 4028.989990
-1142.000000 -63.999001 4031.800049
-1145.199951 -64.198997 4033.510010
-1138.599976 -58.701000 4028.409912
-1135.099976 -55.098999 4025.510010
-1132.199951 -51.901001 4023.100098
-1132.199951 -50.300999 4022.610107
-1132.400024 -48.799999 4022.310059
-1131.800049 -46.800999 4021.389893
-1131.400024 -44.901001 4020.600098
-1131.699951 -43.599998 4020.389893
-1130.300049 -41.201000 4018.889893
-1128.900024 -38.700001 4017.489990
-1127.599976 -36.300999 4016.110107
-1127.400024 -34.598999 4015.500000
-1126.000000 -32.101002 4014.010010
-1124.500000 -29.698999 4012.510010
-1122.500000 -27.000000 4010.709961
-1120.599976 -24.299999 4008.909912
-1119.599976 -22.200001 4007.689941
-1118.800049 -20.000000 4006.709961
-1118.300049 -18.101000 4005.889893
-1117.400024 -16.000999 4004.790039
-1116.199951 -13.800000 4003.510010
-1115.099976 -11.499000 4002.199951
-1114.400024 -9.399000 4001.310059
-1113.599976 -7.401000 4000.209961
-1113.099976 -5.600000 3999.510010
-1112.400024 -3.599000 3998.510010
-1111.599976 -1.499000 3997.500000
-1110.900024 0.500000 3996.610107
-1110.300049 2.399000 3995.610107
-1110.199951 4.101000 3995.090088
-1108.699951 6.599000 3993.590088
-1107.699951 8.801000 3992.399902
-1106.599976 11.000000 3991.300049
-1106.900024 12.501000 3991.000000
-1105.199951 14.999000 3989.290039
-1103.800049 17.299999 3987.909912
-1101.599976 20.201000 3985.899902
-1100.599976 22.301001 3984.800049
-1099.800049 24.299999 3983.790039
-1099.000000 26.400000 3982.790039
-1098.300049 28.400000 3981.810059
-1098.500000 29.900000 3981.510010
-1098.699951 31.500000 3981.110107
-1098.099976 33.500999 3980.189941
-1097.800049 35.200001 3979.610107
-1096.699951 37.398998 3978.389893
-1095.500000 39.599998 3977.110107
-1093.900024 42.000000 3975.590088
-1094.099976 43.500999 3975.310059
-1093.599976 45.401001 3974.489990
-1091.800049 48.000000 3972.810059
-1090.099976 50.400002 3971.189941
-1089.800049 52.299000 3970.399902
-1087.300049 55.299999 3968.290039
-1086.500000 57.300999 3967.290039
-1085.699951 59.299000 3966.310059
-1085.699951 60.900002 3965.790039
-1086.900024 61.898998 3966.189941
-1085.900024 63.999001 3965.000000
-1085.300049 65.901001 3964.199951
-1084.599976 67.900002 3963.199951
-1084.199951 69.699997 3962.489990
-1082.800049 72.000999 3961.090088
-1080.300049 75.000999 3958.889893
-1079.500000 77.000000 3957.889893
-1078.199951 79.300003 3956.600098
-1077.099976 81.499001 3955.409912
-1077.199951 83.199997 3954.989990
-1075.300049 85.800003 3953.189941
-1075.900024 87.000000 3953.189941
-1075.400024 88.900002 3952.389893
-1075.500000 90.300003 3952.000000
-1075.300049 91.999001 3951.389893
-1074.199951 94.100998 3950.199951
-1072.099976 96.901001 3948.399902
-1070.099976 99.500999 3946.590088
-1069.099976 101.699997 3945.399902
-1068.300049 103.700996 3944.399902
-1068.000000 105.400002 3943.790039
-1067.199951 107.500000 3942.810059
-1065.199951 110.099998 3941.010010
-1064.199951 112.199997 3939.909912
-1063.000000 114.500000 3938.600098
-1059.099976 118.098999 3935.489990
-1035.199951 132.500000 3918.790039
-1172.699951 -279.399994 4111.790039
-1180.699951 -282.600006 4116.790039
-1181.000000 -277.500000 4115.390137
-1181.099976 -275.899994 4114.899902
-1180.800049 -274.098999 4114.200195
-1181.000000 -272.300995 4113.709961
-1180.099976 -269.898987 4112.490234
-1180.000000 -268.200012 4112.000000
-1179.300049 -265.899994 4110.810059
-1178.800049 -263.901001 4109.979980
-1177.800049 -261.399994 4108.700195
-1177.000000 -259.299988 4107.600098
-1176.800049 -257.500000 4106.990234
-1176.400024 -255.600006 4106.200195
-1175.500000 -253.401001 4105.009766
-1174.699951 -251.199997 4103.910156
-1174.599976 -249.500000 4103.299805
-1173.500000 -247.298996 4101.990234
-1172.900024 -245.399002 4101.200195
-1172.199951 -243.298996 4100.189941
-1171.599976 -241.399994 4099.299805
-1171.300049 -239.598999 4098.509766
-1170.400024 -237.498993 4097.500000
-1170.199951 -235.901001 4096.799805
-1169.199951 -233.500000 4095.610107
-1168.599976 -231.501007 4094.600098
-1167.699951 -229.401001 4093.510010
-1167.099976 -227.501007 4092.590088
-1166.599976 -225.598999 4091.800049
-1165.900024 -223.600006 4090.790039
-1165.800049 -221.901001 4090.209961
-1165.199951 -219.800995 4089.290039
-1164.599976 -217.899002 4088.290039
-1163.900024 -215.798996 4087.310059
-1163.699951 -214.001007 4086.699951
-1163.800049 -212.298996 4086.209961
-1163.500000 -210.501007 4085.510010
-1163.099976 -208.598999 4084.689941
-1162.500000 -206.600006 4083.800049
-1161.599976 -204.399002 4082.610107
-1161.599976 -202.699997 4082.090088
-1160.500000 -200.399002 4080.810059
-1160.599976 -198.798996 4080.409912
-1160.099976 -196.800003 4079.500000
-1159.400024 -194.598999 4078.399902
-1159.199951 -192.600006 4077.790039
-1159.199951 -190.800003 4077.209961
-1158.599976 -188.600998 4076.199951
-1158.699951 -187.000000 4075.810059
-1158.099976 -184.998993 4074.800049
-1157.599976 -183.001007 4073.909912
-1157.300049 -181.100998 4073.209961
-1156.699951 -179.100006 4072.300049
-1157.500000 -177.899994 4072.300049
-1157.300049 -176.100006 4071.689941
-1157.400024 -174.500000 4071.199951
-1156.099976 -172.001007 4069.790039
-1156.199951 -170.500000 4069.399902
-1155.800049 -168.501007 4068.600098
-1155.699951 -166.699997 4067.989990
-1155.099976 -164.699997 4066.989990
-1154.500000 -162.600006 4066.100098
-1154.500000 -160.998993 4065.610107
-1154.599976 -159.500000 4065.189941
-1154.099976 -157.498993 4064.300049
-1153.500000 -155.500000 4063.379883
-1153.400024 -153.699997 4062.810059
-1153.199951 -151.899002 4062.189941
-1153.300049 -150.399994 4061.800049
-1152.699951 -148.300003 4060.790039
-1153.400024 -146.998993 4060.790039
-1154.300049 -145.901001 4060.909912
-1155.000000 -144.699005 4060.909912
-1154.800049 -142.899994 4060.300049
-1154.900024 -141.300003 4059.810059
-1153.500000 -138.800003 4058.290039
-1154.300049 -137.699005 4058.409912
-1154.500000 -136.100998 4058.010010
-1154.000000 -134.100006 4057.100098
-1153.400024 -132.199997 4056.310059
-1146.699951 -126.599998 4051.090088
-1142.099976 -106.000999 4042.510010
-1153.000000 -110.700996 4049.590088
-1160.400024 -113.400002 4054.199951
-1141.900024 -100.901001 4040.889893
-1116.199951 -81.199997 4021.699951
-1158.099976 -104.098999 4050.199951
-1148.900024 -97.098999 4043.399902
-1153.000000 -70.299004 4037.510010
-1167.699951 -77.100998 4047.090088
-1120.800049 -48.500000 4014.310059
-1112.599976 -42.200001 4008.209961
-1119.900024 -44.799999 4012.699951
-1130.300049 -49.200001 4019.409912
-1134.400024 -49.999001 4021.790039
-1134.000000 -48.000000 4021.000000
-1133.400024 -46.101002 4020.110107
-1133.500000 -44.599998 4019.709961
-1132.500000 -42.400002 4018.580078
-1130.599976 -39.700001 4016.820068
-1129.599976 -37.500000 4015.590088
-1129.500000 -35.800999 4015.020020
-1128.199951 -33.400002 4013.699951
-1127.000000 -31.099001 4012.389893
-1125.000000 -28.400000 4010.500000
-1123.699951 -26.100000 4009.189941
-1122.300049 -23.701000 4007.689941
-1121.800049 -21.700001 4006.899902
-1120.400024 -19.299999 4005.489990
-1119.400024 -17.200001 4004.300049
-1118.599976 -15.100000 4003.300049
-1117.199951 -12.699000 4001.889893
-1116.699951 -10.799000 4001.010010
-1115.900024 -8.699000 4000.000000
-1115.300049 -6.800000 3999.120117
-1114.599976 -4.801000 3998.199951
-1113.400024 -2.600000 3996.889893
-1112.699951 -0.500000 3995.909912
-1112.099976 1.400000 3995.000000
-1112.300049 2.899000 3994.689941
-1111.300049 5.100000 3993.590088
-1110.699951 7.099000 3992.620117
-1109.300049 9.501000 3991.209961
-1109.599976 11.000000 3990.909912
-1108.400024 13.201000 3989.689941
-1107.099976 15.499000 3988.310059
-1105.400024 18.101000 3986.689941
-1104.599976 20.100000 3985.689941
-1103.599976 22.200001 3984.590088
-1102.099976 24.599001 3983.090088
-1101.400024 26.600000 3982.090088
-1101.000000 28.500000 3981.419922
-1101.199951 30.000999 3980.989990
-1101.000000 31.799000 3980.409912
-1101.199951 33.400002 3980.100098
-1100.300049 35.400002 3979.000000
-1098.900024 37.701000 3977.600098
-1097.199951 40.199001 3976.010010
-1097.099976 41.901001 3975.489990
-1096.800049 43.599998 3974.790039
-1096.199951 45.500000 3973.909912
-1095.099976 47.701000 3972.689941
-1094.699951 49.601002 3971.889893
-1092.300049 52.601002 3969.790039
-1091.099976 54.799999 3968.600098
-1089.900024 56.999001 3967.290039
-1090.300049 58.398998 3967.100098
-1090.400024 59.900002 3966.699951
-1090.099976 61.701000 3966.090088
-1089.500000 63.601002 3965.209961
-1088.599976 65.700996 3964.110107
-1088.099976 67.499001 3963.409912
-1086.800049 69.799004 3962.010010
-1085.000000 72.399002 3960.300049
-1083.900024 74.599998 3959.110107
-1082.400024 77.000000 3957.699951
-1080.900024 79.399002 3956.080078
-1080.300049 81.400002 3955.290039
-1078.500000 84.100998 3953.610107
-1078.400024 85.698997 3953.090088
-1078.199951 87.400002 3952.520020
-1078.199951 88.900002 3952.090088
-1078.500000 90.300003 3951.810059
-1077.199951 92.500999 3950.500000
-1076.099976 94.699997 3949.310059
-1073.900024 97.500000 3947.300049
-1073.599976 99.198997 3946.689941
-1072.199951 101.600998 3945.310059
-1072.500000 103.000999 3945.010010
-1071.500000 105.100998 3943.909912
-1070.800049 107.099998 3942.989990
-1068.099976 110.099998 3940.699951
-1067.000000 112.301003 3939.510010
-1063.699951 115.600998 3936.889893
-1041.900024 128.798996 3921.600098
-1164.199951 -279.498993 4105.589844
-1170.000000 -281.200012 4109.009766
-1177.599976 -284.200989 4113.799805
-1180.900024 -284.598999 4115.600098
-1182.500000 -283.799988 4116.209961
-1182.300049 -281.799011 4115.509766
-1181.400024 -279.498993 4114.290039
-1181.699951 -277.901001 4113.890137
-1180.800049 -275.700012 4112.790039
-1180.599976 -273.898987 4112.089844
-1180.500000 -271.899994 4111.390137
-1179.900024 -269.799988 4110.410156
-1179.699951 -268.101013 4109.799805
-1179.199951 -265.899994 4108.890137
-1178.300049 -263.500000 4107.700195
-1177.599976 -261.299011 4106.689941
-1177.000000 -259.299988 4105.709961
-1176.500000 -257.299011 4104.799805
-1176.599976 -255.699005 4104.310059
-1175.800049 -253.598999 4103.299805
-1174.699951 -251.199997 4101.990234
-1174.699951 -249.598999 4101.410156
-1174.000000 -247.600998 4100.490234
-1173.699951 -245.899002 4099.790039
-1172.900024 -243.798996 4098.689941
-1172.099976 -241.600006 4097.689941
-1172.099976 -240.100998 4097.200195
-1171.199951 -238.001007 4096.100098
-1170.500000 -236.000000 4095.090088
-1169.699951 -233.899994 4093.989990
-1168.500000 -231.501007 4092.709961
-1168.699951 -230.100998 4092.290039
-1168.199951 -228.100006 4091.489990
-1167.099976 -225.901001 4090.209961
-1166.800049 -224.199005 4089.510010
-1167.099976 -222.699997 4089.199951
-1166.599976 -220.699005 4088.409912
-1166.199951 -218.901001 4087.580078
-1165.099976 -216.498993 4086.300049
-1164.699951 -214.600006 4085.389893
-1164.800049 -212.998993 4084.989990
-1164.800049 -211.300003 4084.500000
-1164.500000 -209.498993 4083.800049
-1164.000000 -207.600006 4082.889893
-1162.900024 -205.199997 4081.600098
-1162.699951 -203.399994 4080.989990
-1162.099976 -201.401001 4079.989990
-1162.199951 -199.800003 4079.590088
-1161.500000 -197.598999 4078.610107
-1160.800049 -195.498993 4077.610107
-1160.500000 -193.399002 4076.689941
-1160.599976 -191.699997 4076.290039
-1159.599976 -189.300995 4075.100098
-1160.300049 -188.000000 4075.010010
-1160.099976 -186.199005 4074.310059
-1159.900024 -184.401001 4073.699951
-1159.699951 -182.600006 4073.000000
-1158.699951 -180.300003 4071.810059
-1158.699951 -178.600006 4071.290039
-1159.199951 -177.298996 4071.110107
-1159.300049 -175.600006 4070.590088
-1158.800049 -173.598999 4069.790039
-1158.699951 -172.001007 4069.209961
-1158.300049 -170.000000 4068.389893
-1157.800049 -167.998993 4067.600098
-1157.599976 -166.201004 4066.889893
-1157.400024 -164.399994 4066.310059
-1157.599976 -162.901001 4065.889893
-1157.400024 -161.100006 4065.189941
-1157.199951 -159.401001 4064.610107
-1156.699951 -157.399994 4063.689941
-1156.599976 -155.600006 4063.110107
-1156.500000 -153.899994 4062.590088
-1157.300049 -152.800003 4062.590088
-1156.300049 -150.498993 4061.399902
-1156.500000 -148.899002 4061.100098
-1157.599976 -147.899994 4061.310059
-1157.699951 -146.298996 4060.909912
-1156.900024 -144.199005 4059.810059
-1156.300049 -142.098999 4058.899902
-1153.199951 -138.598999 4056.209961
-1154.300049 -137.699005 4056.489990
-1154.599976 -136.199997 4056.209961
-1154.800049 -134.600006 4055.909912
-1151.099976 -130.800003 4052.800049
-1156.199951 -112.599998 4049.899902
-1121.199951 -45.601002 4011.810059
-1132.400024 -50.400002 4019.010010
-1136.300049 -51.099998 4021.209961
-1135.599976 -48.901001 4020.199951
-1135.599976 -47.299999 4019.810059
-1136.199951 -46.101002 4019.709961
-1134.599976 -43.599998 4018.189941
-1133.199951 -41.201000 4016.689941
-1132.099976 -38.900002 4015.409912
-1131.900024 -37.099998 4014.800049
-1130.500000 -34.700001 4013.310059
-1129.000000 -32.300999 4011.899902
-1126.599976 -29.301001 4009.800049
-1125.699951 -27.201000 4008.699951
-1124.699951 -25.000000 4007.510010
-1123.900024 -22.900000 4006.500000
-1123.099976 -20.799999 4005.399902
-1121.900024 -18.600000 4004.090088
-1120.500000 -16.198999 4002.689941
-1119.800049 -14.099000 4001.709961
-1118.599976 -11.801000 4000.489990
-1117.900024 -9.800000 3999.510010
-1117.199951 -7.900000 3998.600098
-1116.400024 -5.800000 3997.500000
-1115.500000 -3.700000 3996.489990
-1114.800049 -1.699000 3995.510010
-1114.300049 0.099000 3994.689941
-1114.300049 1.801000 3994.199951
-1113.400024 3.901000 3993.199951
-1113.199951 5.699000 3992.620117
-1112.000000 7.999000 3991.209961
-1112.099976 9.501000 3990.909912
-1111.300049 11.600000 3989.810059
-1110.500000 13.599000 3988.800049
-1110.099976 15.400000 3988.100098
-1109.300049 17.500000 3987.000000
-1108.300049 19.600000 3985.899902
-1106.400024 22.200001 3984.189941
-1105.900024 24.099001 3983.399902
-1104.199951 26.698999 3981.689941
-1104.099976 28.500000 3981.110107
-1103.599976 30.399000 3980.290039
-1103.800049 31.900000 3980.010010
-1103.000000 33.898998 3979.000000
-1102.599976 35.601002 3978.300049
-1101.800049 37.599998 3977.300049
-1101.000000 39.700001 3976.290039
-1100.699951 41.500000 3975.590088
-1100.300049 43.300999 3974.919922
-1099.699951 45.200001 3974.000000
-1099.900024 46.700001 3973.689941
-1098.800049 49.000000 3972.500000
-1097.900024 51.000999 3971.409912
-1096.599976 53.300999 3970.000000
-1096.800049 54.898998 3969.699951
-1096.000000 56.800999 3968.810059
-1095.099976 58.901001 3967.709961
-1093.400024 61.500999 3966.000000
-1093.300049 63.101002 3965.510010
-1093.699951 64.400002 3965.389893
-1092.900024 66.401001 3964.389893
-1090.199951 69.500000 3962.100098
-1089.400024 71.599998 3961.000000
-1088.900024 73.400002 3960.300049
-1087.900024 75.599998 3959.110107
-1086.000000 78.300003 3957.310059
-1084.599976 80.699997 3955.899902
-1084.199951 82.500000 3955.199951
-1084.800049 83.699997 3955.199951
-1084.300049 85.500999 3954.409912
-1085.599976 86.399002 3954.800049
-1082.500000 89.599998 3952.300049
-1080.099976 92.500999 3950.199951
-1078.699951 94.900002 3948.790039
-1079.099976 96.200996 3948.610107
-1077.199951 98.801003 3946.899902
-1077.500000 100.300003 3946.590088
-1076.500000 102.400002 3945.500000
-1075.500000 104.500000 3944.300049
-1072.900024 107.500000 3942.199951
-1071.500000 109.900002 3940.699951
-1069.500000 112.400002 3938.989990
-1050.900024 124.000999 3925.899902
-1174.199951 -289.300995 4111.790039
-1180.199951 -291.299988 4115.509766
-1181.800049 -290.501007 4116.000000
-1182.000000 -288.799011 4115.600098
-1183.800049 -288.098999 4116.299805
-1183.099976 -285.899994 4115.299805
-1183.099976 -284.200989 4114.689941
-1182.599976 -282.000000 4113.709961
-1181.199951 -279.399994 4112.209961
-1181.400024 -277.799988 4111.790039
-1180.699951 -275.700012 4110.810059
-1181.000000 -274.200012 4110.500000
-1179.900024 -271.601013 4109.100098
-1179.900024 -269.799988 4108.609863
-1180.199951 -268.399994 4108.180176
-1178.900024 -265.699005 4106.689941
-1178.300049 -263.500000 4105.799805
-1178.099976 -261.600006 4105.009766
-1177.699951 -259.700989 4104.310059
-1177.199951 -257.700012 4103.390137
-1176.400024 -255.600006 4102.299805
-1176.300049 -253.901001 4101.720215
-1175.599976 -251.800995 4100.709961
-1174.300049 -249.300003 4099.209961
-1174.599976 -247.998993 4099.000000
-1174.599976 -246.500000 4098.509766
-1173.699951 -244.300995 4097.410156
-1172.699951 -242.001007 4096.189941
-1172.300049 -240.199997 4095.399902
-1171.699951 -238.300003 4094.510010
-1171.199951 -236.500000 4093.689941
-1170.900024 -234.600006 4092.899902
-1170.199951 -232.500000 4091.889893
-1169.900024 -230.800995 4091.189941
-1169.500000 -228.901001 4090.510010
-1168.300049 -226.600998 4089.110107
-1168.099976 -224.899002 4088.500000
-1168.400024 -223.498993 4088.199951
-1168.000000 -221.600006 4087.399902
-1167.500000 -219.699997 4086.610107
-1166.699951 -217.501007 4085.510010
-1166.599976 -215.798996 4084.899902
-1166.099976 -213.800003 4084.020020
-1165.500000 -211.699997 4083.100098
-1165.699951 -210.199005 4082.699951
-1164.900024 -208.098999 4081.600098
-1164.599976 -206.300995 4080.989990
-1164.099976 -204.201004 4079.989990
-1163.800049 -202.399994 4079.320068
-1163.699951 -200.701004 4078.709961
-1163.199951 -198.699997 4077.909912
-1162.400024 -196.399994 4076.810059
-1162.500000 -194.598999 4076.199951
-1162.500000 -192.800995 4075.709961
-1161.900024 -190.598999 4074.709961
-1161.900024 -188.998993 4074.189941
-1161.800049 -187.300003 4073.610107
-1161.900024 -185.600006 4073.209961
-1161.400024 -183.701004 4072.300049
-1160.800049 -181.498993 4071.290039
-1161.099976 -180.098999 4071.110107
-1161.099976 -178.498993 4070.590088
-1161.000000 -176.600006 4069.879883
-1160.900024 -174.899994 4069.399902
-1161.000000 -173.401001 4069.000000
-1161.000000 -171.699997 4068.389893
-1160.300049 -169.500000 4067.409912
-1160.300049 -167.800995 4066.889893
-1159.800049 -165.800003 4066.010010
-1160.199951 -164.399994 4065.800049
-1159.800049 -162.600006 4065.000000
-1160.500000 -161.300995 4065.000000
-1161.199951 -160.100998 4065.000000
-1162.000000 -158.899002 4065.000000
-1160.699951 -156.500000 4063.600098
-1161.199951 -155.100006 4063.510010
-1160.699951 -153.098999 4062.590088
-1161.000000 -151.600006 4062.290039
-1161.000000 -149.899994 4061.709961
-1160.599976 -148.001007 4061.010010
-1156.699951 -144.100006 4057.800049
-1152.500000 -139.899994 4054.409912
-1144.300049 -133.399994 4048.189941
-1146.199951 -132.899994 4049.010010
-1148.599976 -132.699997 4050.199951
-1146.199951 -129.600998 4048.000000
-1141.599976 -57.300999 4023.889893
-1130.699951 -49.500000 4015.989990
-1135.900024 -50.799999 4019.100098
-1138.300049 -50.500999 4020.199951
-1140.699951 -50.300999 4021.389893
-1140.400024 -48.500000 4020.689941
-1138.300049 -45.700001 4018.800049
-1136.199951 -42.900002 4016.909912
-1134.500000 -40.299999 4015.199951
-1134.300049 -38.500000 4014.590088
-1132.800049 -35.999001 4013.090088
-1130.800049 -33.299999 4011.290039
-1128.599976 -30.500000 4009.310059
-1128.099976 -28.601000 4008.389893
-1127.000000 -26.400000 4007.199951
-1125.900024 -24.099001 4006.010010
-1125.599976 -22.301001 4005.310059
-1124.400024 -20.000000 4004.090088
-1122.900024 -17.599001 4002.590088
-1122.300049 -15.600000 4001.590088
-1121.000000 -13.201000 4000.209961
-1120.400024 -11.299000 3999.389893
-1119.699951 -9.300000 3998.510010
-1118.400024 -7.000000 3997.100098
-1117.900024 -5.100000 3996.310059
-1117.199951 -3.099000 3995.389893
-1117.000000 -1.400000 3994.689941
-1116.500000 0.500000 3993.899902
-1115.800049 2.600000 3993.010010
-1115.300049 4.499000 3992.100098
-1114.900024 6.399000 3991.389893
-1114.699951 8.101000 3990.689941
-1114.400024 9.899000 3990.110107
-1114.000000 11.600000 3989.409912
-1113.800049 13.399000 3988.800049
-1113.000000 15.400000 3987.699951
-1113.000000 17.000000 3987.300049
-1111.300049 19.500999 3985.600098
-1110.400024 21.601000 3984.590088
-1108.800049 24.099001 3983.000000
-1108.500000 25.999001 3982.300049
-1107.599976 28.200001 3981.199951
-1106.900024 30.100000 3980.290039
-1106.800049 31.799000 3979.800049
-1106.800049 33.299999 3979.310059
-1106.400024 35.101002 3978.610107
-1107.099976 36.300999 3978.610107
-1106.900024 38.000000 3978.000000
-1106.099976 40.000999 3976.989990
-1105.300049 42.000000 3976.010010
-1105.800049 43.400002 3975.889893
-1106.599976 44.599998 3976.010010
-1106.900024 46.000000 3975.709961
-1107.500000 47.299999 3975.590088
-1107.199951 49.101002 3975.010010
-1107.099976 50.699001 3974.489990
-1104.800049 53.599998 3972.409912
-1100.800049 57.400002 3969.209961
-1102.599976 58.000999 3970.000000
-1102.900024 59.401001 3969.790039
-1101.199951 61.898998 3968.199951
-1097.400024 65.598999 3965.090088
-1097.900024 66.900002 3965.000000
-1100.400024 67.100998 3966.310059
-1099.900024 69.000000 3965.510010
-1104.000000 68.500999 3967.800049
-1106.599976 68.700996 3968.989990
-1115.099976 65.598999 3974.399902
-1120.800049 64.099998 3977.810059
-1123.099976 64.400002 3978.909912
-1107.199951 76.098999 3967.189941
-1090.500000 86.800003 3955.409912
-1082.099976 93.000000 3949.310059
-1084.099976 93.500000 3950.199951
-1083.699951 95.301003 3949.399902
-1081.900024 97.900002 3947.810059
-1079.300049 100.901001 3945.590088
-1080.900024 101.600998 3946.199951
-1078.500000 104.500000 3944.090088
-1078.300049 106.198997 3943.510010
-1078.099976 107.800003 3942.989990
-1058.000000 120.198997 3928.889893
-1182.400024 -297.799988 4116.700195
-1184.099976 -297.199005 4117.399902
-1184.400024 -295.700012 4117.100098
-1184.699951 -294.100006 4116.700195
-1184.300049 -292.101013 4115.910156
-1183.900024 -290.001007 4114.990234
-1183.500000 -288.000000 4114.200195
-1182.599976 -285.601013 4112.910156
-1183.300049 -284.299988 4112.910156
-1181.800049 -281.601013 4111.299805
-1181.500000 -279.600006 4110.500000
-1181.099976 -277.598999 4109.709961
-1180.300049 -275.399994 4108.609863
-1180.400024 -273.799988 4108.089844
-1180.000000 -271.700012 4107.299805
-1180.500000 -270.200989 4106.990234
-1179.800049 -268.101013 4105.990234
-1179.300049 -266.001007 4105.100098
-1179.099976 -264.000000 4104.399902
-1179.000000 -262.199005 4103.700195
-1178.400024 -260.200989 4102.810059
-1177.800049 -258.101013 4101.899902
-1177.000000 -256.001007 4100.799805
-1177.099976 -254.399994 4100.399902
-1176.500000 -252.399002 4099.399902
-1175.599976 -250.098999 4098.209961
-1175.099976 -248.300995 4097.410156
-1175.099976 -246.699997 4096.890137
-1174.000000 -244.399994 4095.610107
-1173.500000 -242.500000 4094.790039
-1173.300049 -240.800995 4094.209961
-1172.500000 -238.899002 4093.199951
-1172.599976 -237.399994 4092.800049
-1172.300049 -235.399002 4092.010010
-1171.900024 -233.600998 4091.189941
-1171.199951 -231.600006 4090.209961
-1170.099976 -229.300003 4088.989990
-1169.800049 -227.501007 4088.199951
-1169.400024 -225.800003 4087.489990
-1170.000000 -224.399994 4087.399902
-1169.500000 -222.500000 4086.489990
-1169.300049 -220.800003 4085.909912
-1168.599976 -218.699997 4084.899902
-1167.900024 -216.600006 4083.889893
-1167.400024 -214.600006 4083.010010
-1167.099976 -212.699997 4082.310059
-1167.000000 -211.000000 4081.699951
-1166.000000 -208.798996 4080.510010
-1165.800049 -207.001007 4079.899902
-1165.500000 -205.098999 4079.100098
-1165.300049 -203.300003 4078.489990
-1165.500000 -201.798996 4078.090088
-1164.900024 -199.699005 4077.090088
-1164.500000 -197.701004 4076.290039
-1164.599976 -195.899994 4075.810059
-1164.400024 -193.899002 4075.100098
-1163.900024 -191.899994 4074.189941
-1163.800049 -190.100006 4073.610107
-1163.599976 -188.399994 4073.000000
-1163.699951 -186.701004 4072.510010
-1163.500000 -184.899994 4071.810059
-1163.300049 -183.100006 4071.199951
-1163.400024 -181.498993 4070.800049
-1163.199951 -179.701004 4070.100098
-1163.099976 -177.899994 4069.489990
-1163.300049 -176.300003 4069.090088
-1163.500000 -174.899994 4068.790039
-1163.099976 -172.899002 4067.989990
-1161.900024 -170.401001 4066.590088
-1161.800049 -168.699005 4066.010010
-1161.699951 -167.000000 4065.489990
-1162.500000 -165.800003 4065.489990
-1162.800049 -164.399994 4065.189941
-1164.699951 -163.899994 4066.010010
-1168.500000 -164.498993 4068.209961
-1170.500000 -164.000000 4069.000000
-1165.500000 -159.300003 4065.000000
-1164.199951 -156.899994 4063.689941
-1164.099976 -155.100006 4062.989990
-1164.300049 -153.500000 4062.709961
-1165.000000 -152.300003 4062.709961
-1164.300049 -150.199997 4061.709961
-1148.300049 -139.098999 4050.110107
-1129.099976 -125.999001 4036.189941
-1120.699951 -42.101002 4006.800049
-1146.199951 -55.098999 4023.800049
-1146.900024 -53.800999 4023.800049
-1143.400024 -50.300999 4020.909912
-1140.099976 -46.800999 4018.189941
-1138.500000 -44.201000 4016.600098
-1136.800049 -41.598999 4014.889893
-1136.000000 -39.499001 4013.889893
-1135.000000 -37.299999 4012.699951
-1132.699951 -34.401001 4010.709961
-1130.800049 -31.700001 4008.909912
-1130.099976 -29.698999 4008.000000
-1129.500000 -27.799999 4007.110107
-1128.300049 -25.400000 4005.800049
-1127.300049 -23.198999 4004.610107
-1126.900024 -21.400000 4003.909912
-1125.699951 -19.198999 4002.590088
-1124.800049 -17.000000 4001.489990
-1123.800049 -14.799000 4000.310059
-1123.000000 -12.699000 3999.300049
-1122.400024 -10.799000 3998.510010
-1121.199951 -8.600000 3997.189941
-1120.599976 -6.599000 3996.310059
-1119.900024 -4.601000 3995.300049
-1119.800049 -3.000000 3994.810059
-1119.199951 -0.999000 3993.899902
-1118.599976 0.999000 3993.010010
-1118.099976 3.000000 3992.189941
-1118.300049 4.499000 3991.790039
-1117.699951 6.399000 3991.000000
-1117.500000 8.101000 3990.389893
-1117.599976 9.600000 3989.989990
-1117.199951 11.400000 3989.290039
-1116.400024 13.500000 3988.189941
-1116.400024 15.100000 3987.790039
-1115.599976 17.099001 3986.790039
-1115.199951 18.900000 3985.989990
-1114.099976 21.200001 3984.800049
-1114.000000 22.900000 3984.189941
-1113.900024 24.700001 3983.699951
-1112.599976 27.000000 3982.389893
-1112.300049 28.700001 3981.689941
-1112.400024 30.198999 3981.290039
-1112.199951 31.799000 3980.800049
-1113.800049 32.599998 3981.419922
-1114.000000 34.099998 3980.989990
-1113.599976 35.900002 3980.290039
-1114.000000 37.201000 3980.100098
-1114.800049 38.401001 3980.189941
-1116.599976 39.101002 3980.899902
-1118.599976 39.599998 3981.810059
-1120.599976 40.099998 3982.699951
-1122.599976 40.599998 3983.610107
-1124.599976 41.099998 3984.500000
-1127.900024 40.898998 3986.300049
-1117.800049 48.000000 3979.000000
-1124.500000 46.000000 3983.090088
-1120.500000 49.700001 3979.889893
-1117.400024 52.999001 3977.300049
-1121.500000 52.401001 3979.709961
-1128.800049 49.999001 3984.189941
-1132.199951 51.299999 3985.600098
-1085.099976 93.000000 3949.000000
-1088.900024 92.500999 3951.199951
-1082.300049 97.699997 3946.199951
-1073.599976 104.000000 3939.909912
-1080.699951 101.699997 3944.300049
-1095.699951 95.199997 3954.010010
-1112.699951 87.600998 3965.090088
-1124.000000 83.000000 3972.290039
-1054.400024 122.100998 3924.709961
-1185.599976 -299.800995 4117.000000
-1185.099976 -297.799988 4116.209961
-1185.000000 -296.000000 4115.509766
-1184.599976 -294.100006 4114.689941
-1184.400024 -292.200012 4114.009766
-1184.000000 -290.001007 4113.100098
-1183.099976 -287.700989 4111.910156
-1183.300049 -285.998993 4111.509766
-1182.900024 -284.000000 4110.689941
-1181.500000 -281.401001 4109.189941
-1181.099976 -279.399994 4108.310059
-1180.699951 -277.398987 4107.509766
-1180.800049 -275.800995 4106.990234
-1180.400024 -273.799988 4106.200195
-1180.500000 -271.998993 4105.709961
-1180.099976 -270.000000 4104.890137
-1180.000000 -268.299011 4104.310059
-1179.599976 -266.199005 4103.390137
-1179.599976 -264.299011 4102.810059
-1179.500000 -262.501007 4102.200195
-1179.199951 -260.700012 4101.500000
-1178.699951 -258.699005 4100.589844
-1177.699951 -256.398987 4099.399902
-1177.800049 -254.800995 4098.910156
-1177.400024 -252.899002 4098.109863
-1176.900024 -250.899994 4097.200195
-1175.900024 -248.800003 4096.009766
-1175.599976 -247.000000 4095.399902
-1174.800049 -244.899994 4094.300049
-1174.500000 -243.098999 4093.600098
-1174.500000 -241.600006 4093.110107
-1173.400024 -239.401001 4091.800049
-1174.000000 -238.199005 4091.800049
-1173.099976 -236.000000 4090.610107
-1173.099976 -234.300995 4090.090088
-1172.300049 -232.300003 4089.110107
-1171.000000 -229.798996 4087.580078
-1171.000000 -228.300003 4087.189941
-1170.800049 -226.600998 4086.610107
-1171.099976 -225.100006 4086.300049
-1170.800049 -223.300995 4085.510010
-1170.500000 -221.500000 4084.810059
-1170.599976 -219.899994 4084.409912
-1169.500000 -217.501007 4083.100098
-1168.900024 -215.500000 4082.090088
-1169.099976 -213.899994 4081.790039
-1168.400024 -211.901001 4080.810059
-1167.400024 -209.699997 4079.590088
-1167.599976 -208.098999 4079.189941
-1167.000000 -205.998993 4078.189941
-1166.800049 -204.201004 4077.610107
-1167.400024 -202.899994 4077.520020
-1166.699951 -200.800003 4076.510010
-1166.800049 -199.100006 4075.989990
-1166.400024 -197.001007 4075.100098
-1166.699951 -195.298996 4074.800049
-1166.300049 -193.300003 4073.909912
-1166.000000 -191.500000 4073.209961
-1166.300049 -190.001007 4072.909912
-1166.199951 -188.199997 4072.389893
-1165.900024 -186.399002 4071.689941
-1166.000000 -184.699997 4071.199951
-1166.500000 -183.300003 4071.010010
-1165.599976 -181.199997 4069.879883
-1165.900024 -179.600006 4069.610107
-1165.300049 -177.500000 4068.600098
-1165.099976 -175.899994 4067.989990
-1163.400024 -173.100006 4066.310059
-1159.900024 -169.300003 4063.290039
-1157.900024 -166.401001 4061.399902
-1160.900024 -166.500000 4062.989990
-1165.699951 -167.800995 4065.800049
-1170.400024 -168.899994 4068.600098
-1185.500000 -176.300003 4078.489990
-1188.800049 -176.600006 4080.409912
-1186.599976 -173.598999 4078.310059
-1174.199951 -164.498993 4069.209961
-1172.800049 -162.001007 4067.689941
-1168.800049 -157.899994 4064.389893
-1168.800049 -156.199997 4063.899902
-1174.599976 -158.001007 4067.409912
-1173.199951 -155.500000 4066.010010
-1127.699951 -126.801003 4033.909912
-1130.000000 -44.099998 4010.310059
-1134.599976 -45.200001 4013.000000
-1131.800049 -42.000000 4010.590088
-1140.400024 -45.299999 4015.989990
-1139.400024 -43.099998 4014.889893
-1138.800049 -41.099998 4014.010010
-1137.400024 -38.700001 4012.600098
-1134.300049 -35.299000 4009.889893
-1133.000000 -33.000999 4008.610107
-1132.099976 -30.899000 4007.510010
-1132.099976 -29.301001 4006.989990
-1130.699951 -26.799999 4005.610107
-1129.800049 -24.599001 4004.489990
-1129.000000 -22.600000 4003.510010
-1128.599976 -20.799999 4002.689941
-1127.500000 -18.499001 4001.489990
-1126.500000 -16.299999 4000.310059
-1125.599976 -14.200000 3999.209961
-1125.500000 -12.600000 3998.689941
-1124.900024 -10.599000 3997.800049
-1124.000000 -8.499000 3996.699951
-1122.599976 -6.100000 3995.300049
-1122.699951 -4.601000 3994.899902
-1122.800049 -3.000000 3994.510010
-1122.099976 -0.999000 3993.590088
-1121.400024 1.101000 3992.620117
-1121.400024 2.701000 3992.100098
-1121.099976 4.499000 3991.489990
-1121.199951 6.100000 3991.000000
-1121.099976 7.700000 3990.510010
-1120.199951 9.800000 3989.409912
-1119.500000 11.700000 3988.500000
-1119.800049 13.201000 3988.189941
-1119.900024 14.700000 3987.909912
-1119.900024 16.299999 3987.399902
-1118.900024 18.499001 3986.209961
-1118.900024 20.201000 3985.810059
-1118.900024 21.799000 3985.290039
-1119.599976 23.100000 3985.290039
-1119.099976 24.900000 3984.500000
-1119.900024 25.999001 3984.590088
-1121.300049 26.799999 3985.110107
-1120.699951 28.700001 3984.189941
-1122.599976 29.301001 3985.110107
-1121.699951 31.400999 3984.010010
-1124.400024 31.400999 3985.409912
-1125.599976 32.499001 3985.689941
-1126.500000 33.599998 3985.810059
-1128.800049 33.898998 3986.909912
-1129.900024 34.901001 3987.209961
-1134.400024 34.099998 3989.810059
-1151.000000 26.500999 4000.699951
-1186.000000 -300.100006 4115.390137
-1185.300049 -297.898987 4114.290039
-1185.300049 -296.200012 4113.799805
-1184.599976 -294.100006 4112.790039
-1183.900024 -291.901001 4111.689941
-1183.800049 -289.899994 4110.990234
-1183.300049 -287.799988 4110.200195
-1183.300049 -285.998993 4109.589844
-1182.500000 -283.799988 4108.490234
-1181.699951 -281.500000 4107.390137
-1181.500000 -279.600006 4106.600098
-1181.300049 -277.700012 4105.899902
-1181.099976 -275.899994 4105.290039
-1181.300049 -274.401001 4104.890137
-1181.000000 -272.300995 4104.089844
-1180.599976 -270.299988 4103.209961
-1180.599976 -268.600006 4102.810059
-1180.000000 -266.398987 4101.810059
-1180.000000 -264.601013 4101.200195
-1180.000000 -262.799988 4100.589844
-1179.699951 -261.000000 4099.919922
-1179.699951 -259.299988 4099.399902
-1179.199951 -257.401001 4098.509766
-1178.599976 -255.300995 4097.500000
-1178.199951 -253.401001 4096.709961
-1178.099976 -251.699005 4096.100098
-1176.699951 -249.300003 4094.699951
-1176.800049 -247.800995 4094.300049
-1176.199951 -245.800003 4093.290039
-1175.300049 -243.600998 4092.189941
-1175.199951 -242.001007 4091.699951
-1175.000000 -240.399994 4091.090088
-1174.800049 -238.701004 4090.389893
-1174.500000 -236.798996 4089.689941
-1174.300049 -235.001007 4088.989990
-1174.099976 -233.298996 4088.409912
-1172.599976 -230.899994 4086.909912
-1172.400024 -229.098999 4086.209961
-1172.199951 -227.501007 4085.600098
-1172.000000 -225.699997 4084.989990
-1171.900024 -224.001007 4084.409912
-1172.000000 -222.500000 4084.020020
-1172.099976 -220.800003 4083.500000
-1171.699951 -218.901001 4082.699951
-1170.500000 -216.399994 4081.300049
-1171.000000 -215.098999 4081.209961
-1170.000000 -212.899994 4079.989990
-1169.800049 -211.100006 4079.320068
-1169.699951 -209.399994 4078.800049
-1169.099976 -207.300003 4077.790039
-1168.900024 -205.500000 4077.209961
-1169.800049 -204.399002 4077.300049
-1169.199951 -202.298996 4076.290039
-1168.800049 -200.300003 4075.500000
-1168.900024 -198.500000 4075.010010
-1169.000000 -196.699005 4074.489990
-1169.000000 -195.000000 4074.000000
-1169.300049 -193.501007 4073.610107
-1169.400024 -191.899994 4073.209961
-1169.800049 -190.399002 4073.000000
-1169.599976 -188.600998 4072.300049
-1169.400024 -186.800003 4071.590088
-1168.900024 -184.798996 4070.709961
-1168.000000 -182.600006 4069.610107
-1167.500000 -180.500000 4068.689941
-1166.500000 -178.300995 4067.500000
-1160.099976 -172.899002 4062.590088
-1145.599976 -162.399002 4052.000000
-1179.800049 -167.899994 4071.199951
-1164.199951 -156.899994 4059.810059
-1108.300049 -30.198999 3993.100098
-1112.000000 -30.701000 3995.209961
-1140.300049 -43.599998 4013.610107
-1140.900024 -42.299000 4013.489990
-1139.599976 -39.900002 4012.209961
-1136.900024 -36.799999 4009.889893
-1135.500000 -34.401001 4008.389893
-1134.500000 -32.300999 4007.290039
-1134.199951 -30.500000 4006.590088
-1133.199951 -28.200001 4005.489990
-1132.900024 -26.400000 4004.699951
-1131.599976 -24.099001 4003.389893
-1131.000000 -22.200001 4002.500000
-1130.000000 -20.000000 4001.399902
-1129.199951 -17.799000 4000.310059
-1128.599976 -15.900000 3999.510010
-1128.900024 -14.500000 3999.209961
-1128.400024 -12.600000 3998.409912
-1128.199951 -10.900000 3997.800049
-1126.900024 -8.600000 3996.399902
-1126.699951 -6.800000 3995.790039
-1127.699951 -5.699000 3996.000000
-1126.400024 -3.401000 3994.689941
-1125.699951 -1.301000 3993.709961
-1125.300049 0.500000 3992.889893
-1125.599976 2.001000 3992.709961
-1124.500000 4.200000 3991.389893
-1124.199951 5.899000 3990.810059
-1124.000000 7.700000 3990.199951
-1123.000000 9.800000 3989.100098
-1123.300049 11.200000 3988.800049
-1123.800049 12.501000 3988.590088
-1123.900024 14.099000 3988.310059
-1122.900024 16.299999 3987.090088
-1123.800049 17.500000 3987.209961
-1124.199951 18.900000 3987.000000
-1125.400024 19.799999 3987.399902
-1125.500000 21.400000 3987.000000
-1126.099976 22.499001 3987.000000
-1128.500000 22.799999 3988.189941
-1127.800049 24.799000 3987.209961
-1130.300049 25.000000 3988.500000
-1129.900024 26.799999 3987.699951
-1133.099976 26.600000 3989.409912
-1135.000000 27.299999 3990.300049
-1135.199951 28.799000 3989.899902
-1133.000000 31.601000 3988.010010
-1121.800049 39.400002 3979.800049
-1105.199951 50.200001 3968.199951
-1185.599976 -299.899994 4113.189941
-1184.800049 -297.600006 4112.089844
-1184.800049 -296.000000 4111.509766
-1185.000000 -294.299988 4111.109863
-1183.900024 -291.799988 4109.709961
-1184.000000 -290.001007 4109.310059
-1183.500000 -288.000000 4108.399902
-1183.199951 -285.998993 4107.600098
-1182.900024 -284.000000 4106.810059
-1182.300049 -281.899994 4105.799805
-1182.099976 -280.001007 4105.100098
-1181.699951 -278.000000 4104.310059
-1181.699951 -276.299988 4103.790039
-1181.699951 -274.598999 4103.209961
-1181.599976 -272.600006 4102.600098
-1181.599976 -270.901001 4101.990234
-1181.199951 -268.998993 4101.290039
-1181.000000 -267.000000 4100.490234
-1180.300049 -264.799011 4099.399902
-1180.900024 -263.398987 4099.299805
-1180.500000 -261.498993 4098.509766
-1180.599976 -259.898987 4097.990234
-1180.199951 -257.998993 4097.290039
-1180.000000 -256.200989 4096.589844
-1179.300049 -254.100998 4095.610107
-1179.099976 -252.300003 4094.909912
-1177.900024 -250.000000 4093.600098
-1178.000000 -248.501007 4093.199951
-1176.800049 -246.201004 4091.889893
-1176.500000 -244.399994 4091.090088
-1176.400024 -242.701004 4090.610107
-1176.000000 -240.998993 4089.810059
-1176.000000 -239.401001 4089.290039
-1175.900024 -237.699997 4088.810059
-1175.400024 -235.701004 4087.889893
-1175.500000 -234.199997 4087.489990
-1174.500000 -232.000000 4086.300049
-1174.099976 -230.199997 4085.510010
-1173.800049 -228.399002 4084.810059
-1173.699951 -226.699997 4084.199951
-1173.599976 -225.000000 4083.709961
-1173.599976 -223.399994 4083.189941
-1173.400024 -221.600006 4082.489990
-1173.400024 -219.899994 4082.000000
-1173.000000 -218.000000 4081.209961
-1172.800049 -216.199997 4080.600098
-1172.400024 -214.399002 4079.800049
-1172.400024 -212.699997 4079.189941
-1171.699951 -210.600006 4078.189941
-1171.500000 -208.798996 4077.610107
-1171.500000 -207.100006 4077.090088
-1172.300049 -205.899994 4077.090088
-1172.300049 -204.201004 4076.600098
-1172.099976 -202.298996 4075.810059
-1171.500000 -200.100006 4074.889893
-1171.500000 -198.298996 4074.310059
-1172.000000 -196.800003 4074.189941
-1172.500000 -195.399994 4074.000000
-1172.400024 -193.701004 4073.399902
-1173.199951 -192.399994 4073.399902
-1172.900024 -190.598999 4072.689941
-1172.199951 -188.498993 4071.689941
-1169.599976 -185.199997 4069.300049
-1164.900024 -180.699997 4065.610107
-1159.099976 -175.501007 4061.010010
-1136.500000 -41.401001 4009.090088
-1141.900024 -41.201000 4011.899902
-1139.800049 -38.401001 4010.010010
-1137.900024 -35.800999 4008.209961
-1136.900024 -33.599998 4007.110107
-1136.300049 -31.700001 4006.189941
-1135.699951 -29.600000 4005.310059
-1135.300049 -27.799999 4004.489990
-1134.500000 -25.700001 4003.510010
-1133.400024 -23.500000 4002.290039
-1132.699951 -21.500000 4001.399902
-1132.199951 -19.500999 4000.489990
-1132.000000 -17.799000 3999.909912
-1132.199951 -16.299999 3999.600098
-1132.000000 -14.601000 3998.989990
-1132.000000 -13.000000 3998.510010
-1131.400024 -11.101000 3997.590088
-1130.900024 -9.300000 3996.889893
-1131.699951 -7.999000 3996.889893
-1130.199951 -5.501000 3995.389893
-1129.800049 -3.700000 3994.600098
-1129.400024 -1.801000 3993.899902
-1129.199951 -0.099000 3993.290039
-1128.000000 2.199000 3992.000000
-1127.599976 4.000000 3991.300049
