-733.445 503.011 4318.23
-732.89 502.522 4319.32
-733.189 503.092 4316.26
-733 503.148 4313.7
-732.469 502.46 4318.31
-732.55 502.66 4317.32
-732.052 501.526 4321.34
-732.284 502.035 4319.89
-731.14 501.778 4318.38
-732.309 502.67 4315.81
-732.938 503.032 4315.32
-730.249 500.029 4322.26
-731.963 502.566 4314.42
-731.697 502.156 4310.73
-730.797 501.911 4316.63
-730.726 501.73 4317.54
-730.09 500.923 4319.37
-731.045 500.684 4322.03
-728.779 501.017 4316.66
-730.462 501.876 4315.37
-729.38 499.199 4322.44
-729.074 500.024 4320.08
-732.211 502.667 4313.09
-731.656 502.248 4312.05
-730.97 501.775 4311.48
-728.445 498.043 4323.11
-727.818 498.704 4320.7
-729.3 499.839 4308.23
-730.151 500.73 4308.95
-730.677 501.771 4312.63
-728.438 501.05 4315.38
-728.352 500.518 4317.72
-727.221 499.655 4318.1
-727.581 497.239 4322.83
-728.165 498.681 4308.13
-729.796 501.063 4311.28
-730.275 501.056 4310.01
-728.64 500.923 4312.6
-729.997 501.685 4313.99
-727.684 500.636 4315.96
-727.149 500 4317.25
-728.212 499.179 4309.3
-728.978 500.417 4310.69
-729.28 500.288 4309.83
-724.124 494.165 4309.27
-727.69 500.797 4314.46
-727.874 500.364 4311.95
-727.765 500.736 4313.3
-728.011 499.551 4310.29
-726.576 497.065 4308.31
-726.705 500.07 4316.05
-726.938 496.373 4322.9
-726.897 498.288 4319.97
-726.301 499.224 4317.54
-726.372 498.617 4318.59
-726.147 499.559 4316.57
-727.335 498.018 4308.62
-726.918 500.199 4312.71
-727.036 500.481 4313.75
-723.751 493.981 4310.48
-724.696 495.038 4309.49
-722.504 492.17 4314.78
-722.363 491.915 4313.91
-722.755 492.939 4313.63
-722.627 491.727 4316.95
-726.227 500.043 4315.13
-726.397 495.724 4322.67
-725.778 495.109 4322.11
-727.391 499.653 4311.11
-726.844 498.436 4310.16
-726.415 497.411 4309.39
-725.371 495.683 4308.8
-723.16 492.98 4310.81
-722.851 492.925 4312.55
-724.408 494.144 4320.17
-725.172 494.555 4321.51
-725.89 496.668 4320.45
-725.841 496.572 4309.29
-725.177 496.191 4309.92
-723.623 494.417 4311.47
-724.235 494.859 4310.46
-724.657 496.596 4311.19
-722.692 492.503 4315.73
-722.955 492.665 4317.01
-723.781 493.4 4319.32
-723.251 492.548 4318.67
-724.429 495.176 4319
-725.2 496.011 4319.9
-725.72 498.077 4318.34
-725.557 498.64 4317.27
-726.086 498.068 4310.66
-725.207 497.334 4311
-723.694 495.739 4312.6
-724.094 495.393 4311.2
-723.271 494.945 4313.46
-723.577 496.458 4313.69
-723.213 494.832 4315.03
-723.469 494.564 4316.81
-723.871 494.692 4318.09
-725.235 497.118 4318.6
-726.249 499.36 4311.87
-723.702 495.967 4316.08
-724.272 496.229 4317.39
-725.448 499.191 4316.06
-726.147 499.981 4313.45
-725.606 498.527 4311.65
-723.335 495.995 4314.44
-724.721 497.184 4317.31
-724.757 498.335 4316.11
-725.348 499.65 4314.63
-724.617 497.548 4312.1
-724.096 496.85 4312.51
-723.549 497.09 4314.34
-725.489 499.333 4312.89
-724.526 498.673 4314.99
-723.87 497.129 4315.43
-724.14 497.005 4316.28
-724.655 498.985 4313.92
-724.26 497.904 4313.07
-724.28 497.952 4315.47
-724.043 498.318 4314.22
