-745.778 513.631 4446.83
-746.094 514.201 4447.39
-727.139 490.579 4456.46
-726.26 489.539 4455.56
-725.592 488.437 4455.63
-724.922 487.652 4454.81
-745.885 519.257 4442.63
-745.718 519.289 4441.93
-745.695 519.339 4441.69
-745.685 519.394 4441.47
-745.657 519.452 4441.18
-745.784 519.212 4442.43
-745.74 519.243 4442.16
-746.73 520.036 4440.49
-746.862 520.096 4440.45
-747.059 520.164 4440.46
-746.956 520.112 4440.39
-747.904 520.271 4440.74
-747.24 520.2 4440.49
-748.653 520.324 4441
-749.383 520.371 4441.21
-745.611 519.486 4440.91
-745.724 519.553 4440.87
-745.779 519.578 4440.77
-746.009 519.697 4440.65
-745.917 519.646 4440.6
-745.82 519.596 4440.67
-746.09 519.737 4440.56
-746.164 519.771 4440.48
-746.282 519.827 4440.48
-746.399 519.881 4440.44
-746.604 519.976 4440.43
-746.498 519.926 4440.4
-750.122 520.42 4441.43
-753.639 520.401 4441.16
-752.191 520.471 4441.59
-752.018 520.426 4441.31
-753.733 520.087 4440.39
-753.129 520.191 4440.55
-753.81 519.898 4439.92
-753.783 519.612 4439.37
-753.86 519.371 4438.89
-753.847 519.102 4438.38
-748.117 516.69 4450.47
-747.82 517.527 4448.15
-747.125 518.018 4446.17
-747.116 518.3 4445.82
-747.023 518.527 4445.42
-746.789 518.662 4444.88
-746.13 519.073 4443.32
-745.881 519.177 4442.78
-746.632 518.803 4444.45
-746.386 518.937 4443.89
-748.125 515.733 4452.54
-748.281 516.006 4452.04
-748.126 516.326 4450.97
-753.1 517.782 4436.54
-752.755 517.524 4436.3
-753.15 518.046 4436.89
-752.295 517.011 4435.8
-752.362 517.257 4436.07
-753.19 518.339 4437.28
-751.886 516.746 4435.59
-753.456 518.799 4437.9
-751.282 516.116 4435.31
-751.041 515.893 4435.23
-751.423 516.371 4435.44
-751.559 516.607 4435.56
-750.688 515.516 4435.07
-750.758 515.761 4435.23
-750.549 515.369 4435.03
-750.432 515.176 4434.85
-750.29 514.997 4434.74
-750.192 514.824 4434.57
-715.764 475.452 4430.03
-715.652 475.686 4428.89
-716.002 478.243 4425.73
-715.984 478.123 4426.19
-715.978 477.914 4426.8
-716.05 477.732 4427.51
-716.012 477.376 4428.11
-716.139 478.705 4425.37
-716.233 478.942 4425.29
-716.124 478.632 4425.79
-716.34 479.2 4425.23
-716.797 478.593 4429.72
-716.492 478.724 4428.12
-716.555 478.552 4428.76
-716.882 477.45 4432.21
-716.727 478.177 4430.17
-716.25 478.726 4426.79
-716.31 478.568 4427.45
-716.224 478.826 4426.24
-716.243 478.921 4425.81
-722.91 487.128 4446.8
-723.093 487.572 4447.18
-723.253 488.043 4447.04
-723.589 488.389 4448.21
-723.392 488.134 4447.72
-723.411 486.793 4450.26
-723.166 486.359 4449.85
-723.228 487.634 4447.9
-723.902 488.643 4448.99
-724.1 487.937 4451.15
-724.372 487.107 4453.71
-724.353 486.719 4454.65
-748.9 513.858 4434.87
-748.641 513.813 4435.07
-749.147 514.078 4434.84
-749.814 514.529 4434.67
-749.452 514.276 4434.8
-745.926 511.867 4437.28
-746.08 512.028 4437.22
-745.491 511.403 4438.09
-745.597 511.632 4437.8
-745.675 511.891 4437.67
-745.952 512.063 4437.41
-745.821 512.073 4437.59
-745.314 511.271 4438.56
-746.23 512.214 4437.17
-745.17 511.228 4439.06
-745.094 511.284 4439.57
-745.02 511.3 4439.95
-744.942 511.304 4440.45
-744.845 511.196 4440.8
-746.764 512.542 4436.46
-746.569 512.417 4436.74
-747.628 513.029 4435.67
-747.262 512.81 4435.96
-746.984 512.718 4436.23
-748.383 513.73 4435.24
-748.158 513.584 4435.41
-747.952 513.405 4435.56
-746.408 512.395 4437.05
-747.616 515.526 4450.54
-747.875 515.696 4451.12
-748.066 515.805 4451.73
-747.324 515.35 4449.97
-746.711 515.112 4448.51
-747.023 515.183 4449.34
-746.425 514.784 4448
-744.787 511.479 4442.7
-744.752 511.335 4442.08
-744.839 511.744 4443.04
-744.895 511.894 4443.67
-744.836 511.303 4441.28
-744.835 511.424 4441.77
-745.286 512.872 4445.49
-745.321 513.18 4445.56
-745.428 513.219 4446.03
-745.106 512.543 4444.83
-744.929 512.209 4443.91
-745.451 513.605 4445.94
-745.743 514.058 4446.52
-746.077 514.587 4447.14
-745.623 519.211 4441.96
-745.62 519.271 4441.74
-745.591 519.328 4441.45
-745.599 519.387 4441.26
-745.547 519.42 4441
-745.743 519.149 4442.54
-745.68 519.176 4442.24
-746.669 520.004 4440.36
-746.774 520.053 4440.39
-746.857 520.061 4440.32
-747.028 520.1 4440.3
-747.143 520.143 4440.34
-746.927 520.05 4440.23
-748.15 520.274 4440.7
-747.459 520.202 4440.46
-748.814 520.328 4440.92
-749.446 520.37 4441.11
-745.529 519.444 4440.8
-745.655 519.512 4440.77
-745.701 519.532 4440.65
-746.006 519.69 4440.5
-745.802 519.583 4440.56
-745.898 519.631 4440.49
-746.078 519.725 4440.41
-746.204 519.787 4440.37
-746.32 519.841 4440.36
-746.425 519.889 4440.31
-746.555 519.949 4440.3
-749.997 520.405 4441.25
-751.87 520.367 4441.02
-749.877 520.391 4441.09
-752.973 519.965 4439.99
-751.65 520.281 4440.69
-751.632 520.145 4440.37
-753.327 519.751 4439.6
-753.388 519.324 4438.87
-753.107 519.491 4439.13
-753.416 519.067 4438.41
-747.836 516.594 4449.73
-747.514 517.469 4447.63
-746.999 517.941 4446.09
-746.957 518.2 4445.65
-746.918 518.44 4445.33
-746.736 518.581 4444.9
-746.514 518.699 4444.4
-746.451 518.803 4444.17
-746.181 518.942 4443.57
-745.914 519.067 4442.99
-748.026 516.1 4450.94
-747.662 516.358 4449.59
-752.828 517.801 4436.61
-752.453 517.539 4436.37
-752.883 518.079 4436.97
-751.956 516.984 4435.84
-752.056 517.269 4436.14
-753.108 518.545 4437.57
-752.861 518.323 4437.31
-751.685 516.834 4435.71
-753.02 518.813 4437.96
-751.16 516.243 4435.43
-750.952 516.02 4435.34
-751.221 516.484 4435.56
-751.428 516.742 4435.67
-750.627 515.624 4435.21
-750.712 515.994 4435.39
-750.616 515.825 4435.34
-750.425 515.282 4435.05
-750.514 515.528 4435.2
-750.307 515.096 4434.92
-750.159 514.911 4434.81
-750.069 514.776 4434.7
-716.12 476.031 4431.04
-716.127 477.369 4428.87
-716.106 478.544 4426.2
-716.118 478.385 4426.76
-716.187 478.175 4427.49
-716.245 477.896 4428.33
-716.478 478.221 4428.96
-716.368 478.361 4428.14
-716.421 477.752 4429.56
-723.651 487.202 4450.59
-723.851 487.6 4450.76
-723.687 486.224 4452.48
-724.003 486.572 4453.22
-748.893 513.996 4435.02
-748.687 513.99 4435.23
-749.004 514.181 4435.04
-749.303 514.313 4434.94
-749.687 514.508 4434.85
-746.107 512.241 4437.37
-745.448 511.453 4438.36
-745.551 511.668 4438.05
-745.713 512.125 4437.78
-745.616 511.944 4437.96
-745.966 512.267 4437.58
-745.836 512.311 4437.78
-745.278 511.314 4438.84
-746.254 512.416 4437.31
-745.19 511.34 4439.31
-745.119 511.395 4439.79
-745.046 511.417 4440.19
-744.982 511.445 4440.67
-744.906 511.354 4440.93
-746.866 512.786 4436.48
-746.703 512.624 4436.66
-746.573 512.599 4436.9
-747.707 513.194 4435.75
-747.381 512.995 4436
-747.106 512.909 4436.26
-748.423 513.89 4435.38
-748.222 513.808 4435.56
-747.99 513.595 4435.72
-746.441 512.59 4437.15
-747.304 515.645 4449.45
-747.559 515.827 4449.93
-747.774 516.017 4450.32
-747.032 515.492 4448.89
-746.758 515.351 4448.31
-746.343 514.981 4447.53
-746.411 515.236 4447.37
-744.806 511.734 4442.47
-744.805 511.485 4442.2
-744.837 511.99 4442.79
-744.873 512.078 4443.28
-744.892 511.44 4441.38
-744.842 511.682 4442.02
-744.893 511.635 4441.6
-745.165 513.002 4444.85
-745.223 513.227 4445.06
-745.207 513.612 4444.86
-745.314 513.525 4445.41
-744.987 512.526 4444.22
-744.907 512.419 4443.5
-745.379 513.953 4445.54
-745.276 513.929 4445.1
-745.652 514.352 4446.1
-745.907 514.688 4446.51
-745.576 519.138 4442.09
-745.503 519.145 4441.85
-745.524 519.208 4441.71
-745.531 519.264 4441.53
-745.474 519.29 4441.28
-745.504 519.35 4441.14
-745.44 519.376 4440.88
-745.715 519.069 4442.66
-745.643 519.109 4442.38
-746.754 520.015 4440.26
-746.656 519.978 4440.23
-746.822 520 4440.17
-747.001 520.041 4440.15
-747.112 520.086 4440.2
-747.269 520.137 4440.27
-746.899 519.99 4440.08
-747.703 520.199 4440.42
-748.462 520.276 4440.68
-749.179 520.341 4440.9
-745.445 519.396 4440.72
-745.574 519.465 4440.69
-745.612 519.481 4440.58
-745.72 519.536 4440.51
-745.951 519.655 4440.38
-745.811 519.582 4440.43
-746.067 519.715 4440.31
-746.287 519.823 4440.26
-746.177 519.771 4440.27
-746.479 519.908 4440.2
-746.372 519.861 4440.2
-746.578 519.933 4440.17
-749.9 520.376 4440.97
-749.249 520.32 4440.79
-751.235 520.067 4440.22
-752.614 519.803 4439.66
-749.834 520.34 4440.83
-752.594 519.631 4439.33
-752.88 519.095 4438.43
-752.594 519.308 4438.76
-747.251 517.388 4447.24
-746.826 517.959 4445.71
-746.775 518.273 4445.21
-746.69 518.499 4444.92
-746.447 518.63 4444.38
-746.238 518.746 4443.91
-746.206 518.833 4443.75
-745.958 518.95 4443.22
-747.391 516.16 4449.06
-747.075 517.258 4447.06
-752.559 517.822 4436.68
-752.138 517.546 4436.43
-752.588 518.09 4437.03
-751.721 517.038 4435.93
-751.755 517.276 4436.2
-752.775 518.582 4437.65
-752.575 518.364 4437.4
-751.519 516.961 4435.86
-752.527 518.784 4437.89
-750.921 516.239 4435.49
-751.148 516.68 4435.7
-750.912 516.441 4435.61
-751.329 516.924 4435.84
-750.513 515.772 4435.37
-750.661 516.198 4435.53
-750.568 516.012 4435.47
-750.306 515.263 4435.12
-750.405 515.529 4435.26
-750.186 515.025 4434.98
-749.872 514.712 4434.91
-748.532 514.076 4435.47
-748.832 514.206 4435.25
-749.148 514.385 4435.08
-749.496 514.529 4435
-746.107 512.442 4437.53
-745.439 511.586 4438.52
-745.352 511.433 4438.78
-745.526 511.781 4438.26
-745.694 512.284 4437.96
-745.595 512.083 4438.17
-745.962 512.476 4437.76
-745.805 512.513 4437.99
-745.273 511.436 4439.16
-746.311 512.649 4437.31
-746.168 512.62 4437.48
-745.195 511.481 4439.59
-745.106 511.574 4440.09
-745.035 511.591 4440.46
-744.948 511.55 4441.11
-744.984 511.714 4440.83
-746.936 512.987 4436.56
-746.747 512.813 4436.75
-746.614 512.801 4437.01
-747.759 513.413 4435.87
-747.493 513.177 4436.03
-747.21 513.091 4436.3
-748.259 513.983 4435.7
-748.029 513.837 4435.87
-746.469 512.851 4437.23
-747.164 515.96 4448.66
-746.901 515.783 4448.14
-746.628 515.538 4447.65
-746.09 514.963 4446.71
-746.095 516.365 4445.63
-746.239 516.576 4445.8
-744.827 511.97 4442.14
-744.835 512.112 4442.48
-744.867 512.347 4442.78
-744.878 512.342 4443.08
-744.876 511.927 4441.71
-744.928 511.83 4441.28
-745.056 513.488 4444.14
-745.129 513.44 4444.52
-745.07 512.939 4444.4
-745.225 514.403 4444.66
-745.143 514.304 4444.28
-745.185 514.412 4444.45
-744.95 512.716 4443.84
-744.911 512.707 4443.15
-744.928 512.768 4443.45
-745.521 515.82 4444.74
-745.399 515.745 4444.51
-745.303 515.778 4444.27
-745.665 516.014 4444.92
-745.804 516.146 4445.13
-745.556 519.068 4442.21
-745.477 519.062 4441.96
-745.412 519.088 4441.69
-745.422 519.157 4441.57
-745.433 519.22 4441.42
-745.367 519.24 4441.17
-745.399 519.307 4441.02
-745.339 519.328 4440.77
-745.599 519.025 4442.45
-745.721 518.984 4442.8
-746.712 519.953 4440.12
-746.798 519.942 4440.02
-746.981 519.986 4440.01
-747.083 520.03 4440.06
-747.235 520.081 4440.13
-747.39 520.127 4440.19
-746.872 519.931 4439.93
-747.94 520.196 4440.39
-748.585 520.257 4440.59
-745.361 519.347 4440.63
-745.488 519.415 4440.61
-745.528 519.431 4440.5
-745.639 519.49 4440.46
-745.716 519.527 4440.37
-745.847 519.597 4440.32
-745.967 519.659 4440.26
-746.09 519.723 4440.2
-746.213 519.785 4440.16
-746.309 519.828 4440.11
-746.411 519.859 4440.08
-746.508 519.875 4440.05
-746.614 519.899 4440.04
-749.289 520.291 4440.67
-748.702 520.238 4440.5
-750.996 519.974 4440.02
-749.425 520.267 4440.56
-750.926 519.861 4439.77
-750.554 519.817 4439.65
-752.205 519.472 4439.01
-752.303 518.981 4438.18
-752.041 519.155 4438.44
-746.684 517.843 4445.57
-746.622 518.154 4445.04
-746.587 518.407 4444.84
-746.413 518.561 4444.41
-746.102 518.719 4443.73
-745.946 518.856 4443.31
-746.757 516.975 4446.68
-746.888 517.191 4446.75
-752.278 517.828 4436.73
-751.782 517.508 4436.45
-752.319 518.116 4437.11
-751.561 517.144 4436.07
-751.515 517.322 4436.27
-752.332 518.576 4437.66
-752.191 518.368 4437.43
-751.381 517.148 4436.08
-752.035 518.768 4437.88
-751.096 516.888 4435.85
-750.871 516.643 4435.75
-750.637 516.402 4435.66
-751.213 517.093 4436.03
-750.467 515.978 4435.52
-750.401 515.797 4435.46
-750.521 516.217 4435.61
-750.306 515.576 4435.35
-750.215 515.338 4435.22
-749.995 514.893 4435
-750.118 515.121 4435.11
-749.672 514.74 4435.07
-748.524 514.235 4435.62
-748.745 514.301 4435.41
-749.002 514.45 4435.24
-749.333 514.597 4435.14
-746.046 512.638 4437.68
-745.496 511.89 4438.49
-745.402 511.712 4438.74
-745.312 511.616 4439.03
-745.653 512.401 4438.17
-745.56 512.169 4438.41
-745.916 512.669 4437.9
-745.794 512.742 4438.11
-745.695 512.64 4438.24
-745.232 511.642 4439.44
-746.283 512.856 4437.41
-746.116 512.817 4437.59
-745.153 511.704 4439.85
-745.084 511.832 4440.23
-745.044 511.819 4440.44
-745.007 511.907 4440.66
-744.961 512.029 4440.98
-747.025 513.177 4436.62
-746.796 513.009 4436.84
-746.647 513.014 4437.1
-747.548 513.399 4436.08
-747.81 513.738 4436.01
-747.309 513.277 4436.35
-748.287 514.179 4435.83
-748.088 514.176 4436.01
-746.447 513.086 4437.33
-746.585 516.855 4446.38
-746.411 516.707 4446.09
-745.933 516.534 4445.16
-745.829 517.507 4444.21
-745.995 517.534 4444.52
-746.18 517.583 4444.85
-744.845 512.341 4442.23
-744.854 512.216 4441.86
-744.872 512.519 4442.54
-744.899 512.706 4442.84
-744.909 512.139 4441.4
-744.987 513.35 4443.86
-745.031 515.404 4443.44
-745.095 514.174 4444.08
-744.977 515.283 4443.26
-745.216 515.796 4444.03
-745.095 515.548 4443.65
-745.156 515.684 4443.85
-744.92 513.292 4443.56
-744.89 513.348 4443.22
-744.906 513.144 4442.97
-745.499 517.343 4443.74
-745.334 517.274 4443.49
-745.192 517.164 4443.29
-745.158 516.8 4443.35
-745.678 517.407 4444.03
-745.498 518.998 4442.18
-745.407 518.971 4441.93
-745.384 519.019 4441.75
-745.306 519.011 4441.51
-745.333 519.088 4441.43
-745.34 519.161 4441.29
-745.296 519.26 4440.9
-745.273 519.188 4441.01
-745.254 519.28 4440.67
-745.534 518.955 4442.4
-745.642 518.936 4442.72
-746.702 519.9 4439.97
-746.761 519.879 4439.87
-747.086 519.98 4439.92
-746.961 519.938 4439.89
-747.216 520.033 4440.01
-747.372 520.069 4440.04
-747.537 520.125 4440.14
-746.843 519.876 4439.8
-748.029 520.171 4440.28
-745.417 519.369 4440.53
-745.311 519.304 4440.55
-745.596 519.456 4440.38
-745.49 519.393 4440.41
-745.776 519.547 4440.25
-745.675 519.486 4440.27
-745.887 519.609 4440.2
-746.005 519.672 4440.14
-746.126 519.737 4440.08
-746.231 519.785 4440.03
-746.331 519.801 4439.98
-746.43 519.813 4439.93
-746.527 519.833 4439.92
-746.623 519.852 4439.9
-748.815 520.216 4440.4
-748.202 520.161 4440.22
-749.304 520.206 4440.37
-748.749 520.177 4440.24
-748.851 520.14 4440.12
-750.417 519.721 4439.43
-748.871 520.057 4439.91
-751.77 519.319 4438.7
-751.685 518.938 4438.08
-751.376 519.124 4438.33
-746.485 518.033 4444.9
-746.529 517.735 4445.39
-746.425 518.315 4444.64
-746.332 518.499 4444.36
-746.155 518.623 4443.93
-745.873 518.716 4443.37
-745.795 518.823 4443.11
-752.022 517.84 4436.79
-751.626 517.622 4436.6
-751.44 517.479 4436.45
-752.032 518.152 4437.19
-751.286 517.332 4436.3
-751.883 518.567 4437.66
-751.747 518.362 4437.44
-751.555 518.751 4437.87
-751.01 517.088 4436.04
-750.845 516.867 4435.9
-750.618 516.627 4435.81
-750.501 516.453 4435.76
-751.103 517.252 4436.22
-750.347 515.992 4435.6
-750.412 516.147 4435.64
-750.283 515.816 4435.54
-750.418 516.329 4435.74
-750.19 515.577 4435.41
-750.09 515.331 4435.28
-749.813 514.947 4435.15
-749.984 515.091 4435.16
-749.503 514.806 4435.21
-748.829 514.498 4435.46
-748.56 514.409 4435.7
-749.159 514.66 4435.29
-745.988 512.823 4437.8
-745.445 512.027 4438.73
-745.35 511.871 4438.95
-745.259 511.82 4439.32
-745.598 512.475 4438.43
-745.515 512.28 4438.62
-745.859 512.881 4438.02
-745.748 512.987 4438.22
-745.681 512.852 4438.34
-745.605 512.739 4438.52
-745.181 511.874 4439.73
-746.225 513.043 4437.52
-746.055 513.003 4437.71
-745.109 512 4440.12
-745.057 512.138 4440.41
-745.026 512.09 4440.58
-744.986 512.225 4440.81
-744.943 512.356 4441.1
-746.847 513.201 4436.92
-747.109 513.37 4436.68
-746.661 513.22 4437.17
-747.573 513.657 4436.18
-747.349 513.496 4436.4
-747.83 514.019 4436.14
-748.357 514.382 4435.89
-748.051 514.363 4436.14
-748.279 514.474 4436.01
-746.525 513.343 4437.34
-746.33 513.266 4437.5
-746.35 517.654 4445.12
-745.668 517.696 4443.78
-745.82 517.79 4443.97
-745.997 517.758 4444.27
-746.153 517.854 4444.46
-744.857 512.562 4442.02
-744.887 512.773 4442.38
-744.885 512.429 4441.58
-744.905 513.028 4442.68
-744.921 515.22 4443.08
-744.974 516.682 4442.75
-745.017 516.331 4443.01
-744.911 516.43 4442.62
-745.111 516.653 4443.24
-745.07 516.425 4443.18
-744.818 514.927 4442.79
-744.868 515.116 4442.92
-744.819 513.853 4442.76
-744.766 514.887 4442.6
-744.823 513.772 4442.51
-745.345 517.553 4443.36
-745.522 517.597 4443.6
-745.188 517.446 4443.15
-745.115 517.197 4443.04
-745.432 518.923 4442.13
-745.338 518.891 4441.89
-745.311 518.943 4441.68
-745.245 519.054 4441.21
-745.227 518.922 4441.45
-745.224 518.986 4441.3
-745.251 519.117 4441.09
-745.207 519.204 4440.74
-745.177 519.131 4440.81
-745.233 519.232 4440.58
-745.539 518.889 4442.58
-745.465 518.889 4442.33
-746.669 519.826 4439.79
-746.745 519.82 4439.71
-747.028 519.926 4439.8
-747.155 519.944 4439.79
-747.265 520.003 4439.9
-746.932 519.883 4439.75
-747.424 520.028 4439.9
-747.542 520.087 4440.02
-746.845 519.828 4439.66
-745.387 519.333 4440.44
-745.286 519.262 4440.46
-745.575 519.425 4440.3
-745.468 519.362 4440.33
-745.742 519.507 4440.16
-745.842 519.566 4440.13
-745.645 519.448 4440.18
-745.95 519.627 4440.08
-746.067 519.691 4440.02
-746.172 519.731 4439.95
-746.257 519.738 4439.88
-746.352 519.755 4439.83
-746.449 519.767 4439.79
-746.551 519.792 4439.78
-748.163 520.126 4440.08
-747.692 520.088 4439.98
-748.178 520.096 4439.95
-748.18 520.068 4439.84
-750.09 519.678 4439.3
-748.203 520.032 4439.71
-748.633 519.958 4439.62
-751.159 518.94 4438.09
-749.899 519.595 4439.09
-746.328 517.912 4444.73
-746.312 518.144 4444.55
-746.203 518.335 4444.29
-746.177 518.475 4444.14
-746.005 518.598 4443.72
-745.695 518.695 4443.11
-745.595 518.813 4442.8
-751.82 517.937 4436.94
-751.525 517.776 4436.79
-751.38 517.655 4436.66
-751.229 517.537 4436.53
-751.618 518.167 4437.22
-751.075 517.434 4436.43
-751.437 518.546 4437.65
-751.275 518.382 4437.47
-751.107 518.742 4437.88
-750.811 517.093 4436.06
-750.897 517.301 4436.28
-750.602 516.856 4435.95
-750.471 516.672 4435.9
-750.391 516.534 4435.87
-750.298 516.196 4435.75
-750.234 516.021 4435.69
-750.166 515.815 4435.6
-750.318 516.384 4435.84
-750.071 515.562 4435.47
-749.96 515.304 4435.33
-749.644 515.02 4435.3
-749.814 515.141 4435.3
-749.356 514.88 4435.36
-749.02 514.731 4435.44
-748.751 514.619 4435.64
-748.553 514.598 4435.84
-745.937 513.002 4437.91
-745.442 512.321 4438.85
-745.364 512.169 4439.02
-745.286 512.002 4439.22
-745.205 512.046 4439.63
-745.519 512.564 4438.71
-745.836 513.105 4438.09
-745.733 513.205 4438.31
-745.657 513.046 4438.47
-745.584 512.914 4438.64
-745.506 512.783 4438.83
-745.135 512.162 4440
-746.115 513.209 4437.68
-745.96 513.183 4437.89
-745.082 512.292 4440.3
-745.047 512.473 4440.52
-745.017 512.36 4440.67
-744.982 512.52 4440.88
-744.909 512.65 4441.35
-744.95 512.654 4441.08
-746.861 513.375 4437.02
-747.197 513.632 4436.68
-747.012 513.537 4436.9
-746.703 513.456 4437.2
-747.603 513.951 4436.3
-747.387 513.744 4436.45
-747.838 514.275 4436.28
-748.213 514.604 4436.14
-747.983 514.51 4436.28
-748.464 514.698 4435.97
-746.654 513.651 4437.3
-746.452 513.521 4437.46
-746.226 513.425 4437.65
-745.587 517.917 4443.55
-745.768 518.022 4443.78
-745.976 517.991 4444.11
-746.145 518.094 4444.32
-744.89 512.972 4442.15
-744.869 512.749 4441.77
-744.86 513.435 4442.34
-744.845 516.248 4442.46
-745.047 516.958 4442.9
-744.931 516.966 4442.51
-744.998 517.116 4442.67
-744.865 516.81 4442.35
-744.779 516.05 4442.3
-744.694 514.932 4442.2
-744.714 514.907 4442.39
-744.706 515.844 4442.13
-744.694 514.93 4442.04
-745.421 517.803 4443.35
-745.218 517.729 4443.07
-745.127 517.531 4442.94
-745.065 517.295 4442.82
-745.376 518.849 4442.12
-745.284 518.817 4441.88
-745.237 518.858 4441.63
-745.151 518.992 4441.04
-745.161 519.06 4440.92
-745.147 518.855 4441.33
-745.145 518.921 4441.18
-745.173 519.152 4440.63
-745.115 519.072 4440.69
-745.224 519.183 4440.5
-745.437 518.825 4442.4
-746.599 519.769 4439.68
-746.667 519.76 4439.6
-746.76 519.775 4439.57
-747.025 519.881 4439.68
-747.163 519.897 4439.65
-747.305 519.963 4439.78
-746.935 519.832 4439.6
-747.449 519.981 4439.76
-747.561 520.032 4439.85
-746.848 519.778 4439.51
-745.362 519.3 4440.36
-745.277 519.217 4440.37
-745.541 519.387 4440.22
-745.442 519.328 4440.24
-745.715 519.469 4440.06
-745.808 519.526 4440.04
-745.905 519.583 4440.01
-745.614 519.411 4440.1
-746.012 519.645 4439.97
-746.118 519.676 4439.89
-746.202 519.663 4439.8
-746.299 519.687 4439.75
-746.383 519.7 4439.69
-746.486 519.725 4439.65
-747.718 520.05 4439.84
-747.77 520.02 4439.73
-747.841 519.993 4439.62
-747.985 519.964 4439.52
-748.421 519.873 4439.39
-749.691 519.541 4438.94
-750.668 518.989 4438.17
-746.033 518.284 4444.06
-745.955 518.467 4443.8
-745.866 518.566 4443.54
-745.604 518.639 4443.03
-745.424 518.717 4442.61
-745.474 518.78 4442.62
-751.459 517.991 4437.03
-751.204 517.877 4436.92
-751.112 517.745 4436.78
-750.903 517.651 4436.68
-751.125 518.243 4437.33
-750.839 517.507 4436.52
-750.883 518.652 4437.79
-750.713 518.539 4437.68
-750.42 518.941 4438.13
-750.569 517.063 4436.09
-750.703 517.266 4436.26
-750.537 517.499 4436.53
-750.438 516.878 4436.03
-750.359 516.732 4436
-750.281 516.58 4435.97
-750.216 516.402 4435.91
-750.18 516.212 4435.83
-750.122 516.015 4435.76
-750.04 515.789 4435.65
-749.956 515.533 4435.51
-749.795 515.319 4435.44
-749.48 515.102 4435.46
-749.632 515.216 4435.46
-749.224 514.96 4435.49
-748.918 514.827 4435.6
-748.738 514.824 4435.8
-745.414 512.548 4439.01
-745.321 512.351 4439.22
-745.244 512.188 4439.44
-745.174 512.307 4439.81
-745.846 513.293 4438.09
-745.772 513.433 4438.28
-745.692 513.364 4438.49
-745.632 513.218 4438.61
-745.562 513.091 4438.77
-745.491 512.962 4438.93
-745.415 512.812 4439.11
-745.113 512.421 4440.15
-745.999 513.363 4437.86
-745.077 512.594 4440.37
-745.043 512.791 4440.59
-745.012 512.667 4440.73
-744.975 512.835 4440.96
-744.923 512.891 4441.26
-744.885 512.99 4441.55
-744.935 513.11 4441.15
-746.85 513.614 4437.1
-747.223 513.883 4436.74
-747.028 513.761 4436.95
-747.432 514.006 4436.51
-747.698 514.326 4436.43
-748.166 514.762 4436.26
-748.403 514.826 4436.09
-747.914 514.619 4436.4
-748.647 514.919 4435.93
-746.844 513.821 4437.15
-746.681 513.896 4437.33
-746.501 513.762 4437.47
-746.293 513.711 4437.66
-746.098 513.557 4437.81
-745.415 518.078 4443.21
-745.606 518.162 4443.47
-745.727 518.316 4443.57
-745.882 518.2 4443.87
-744.87 513.232 4441.85
-744.827 513.653 4441.99
-744.7 514.925 4441.9
-744.798 516.666 4442.18
-744.886 517.096 4442.3
-744.953 517.26 4442.46
-745.016 517.42 4442.61
-744.816 516.949 4442.13
-744.736 516.419 4442.06
-744.653 515.968 4441.92
-744.68 516.509 4441.85
-744.61 516.29 4441.68
-745.273 517.962 4443.05
-745.138 517.854 4442.84
-745.076 517.604 4442.73
-745.327 518.783 4442.12
-745.226 518.738 4441.89
-745.201 518.783 4441.68
-745.132 518.786 4441.44
-745.066 518.925 4440.91
-745.076 518.995 4440.77
-745.053 518.786 4441.18
-745.061 518.855 4441.05
-745.16 519.099 4440.55
-745.095 519.017 4440.62
-745.21 519.131 4440.43
-745.376 518.754 4442.37
-746.563 519.711 4439.55
-746.65 519.708 4439.47
-746.745 519.723 4439.44
-747.041 519.836 4439.54
-747.19 519.852 4439.52
-747.308 519.916 4439.64
-746.942 519.784 4439.46
-747.454 519.938 4439.64
-747.602 519.987 4439.71
-746.84 519.729 4439.38
-745.351 519.275 4440.28
-745.255 519.155 4440.31
-745.319 519.228 4440.23
-745.514 519.352 4440.13
-745.41 519.291 4440.16
-745.676 519.427 4439.98
-745.777 519.485 4439.94
-745.865 519.54 4439.93
-745.967 519.598 4439.9
-745.574 519.369 4440.02
-746.054 519.625 4439.85
-746.121 519.607 4439.76
-746.184 519.581 4439.66
-746.261 519.622 4439.67
-746.34 519.616 4439.58
-746.422 519.654 4439.57
-746.494 519.65 4439.49
-747.685 519.96 4439.6
-747.795 519.933 4439.49
-748.013 519.869 4439.37
-748.439 519.768 4439.2
-749.356 519.558 4438.9
-749.225 519.503 4438.81
-745.832 518.421 4443.66
-745.632 518.547 4443.19
-745.391 518.645 4442.66
-745.326 518.679 4442.39
-750.958 518.106 4437.19
-750.688 518.009 4437.1
-750.638 517.859 4436.93
-750.192 517.907 4437.01
-750.409 517.717 4436.78
-750.603 518.396 4437.53
-750.32 518.817 4438
-750.216 518.681 4437.86
-749.185 519.379 4438.66
-750.434 517.243 4436.25
-750.39 517.074 4436.17
-750.378 517.406 4436.43
-750.013 517.749 4436.84
-749.982 517.633 4436.71
-750.319 516.914 4436.13
-750.237 516.762 4436.1
-750.166 516.596 4436.05
-750.108 516.403 4435.98
-750.068 516.188 4435.89
-750.002 515.982 4435.81
-749.901 515.723 4435.68
-749.822 515.488 4435.55
-749.634 515.405 4435.59
-749.461 515.312 4435.62
-749.314 515.174 4435.61
-749.079 515.031 4435.63
-748.911 515.057 4435.78
-745.318 512.621 4439.32
-745.235 512.415 4439.52
-745.157 512.534 4439.93
-745.884 513.473 4438.05
-745.807 513.699 4438.22
-745.727 513.623 4438.42
-745.596 513.393 4438.77
-745.651 513.538 4438.61
-745.533 513.269 4438.92
-745.469 513.142 4439.07
-745.403 513.01 4439.21
-745.33 512.869 4439.38
-745.111 512.693 4440.2
-745.075 512.888 4440.42
-745.002 512.993 4440.81
-745.017 513.192 4440.61
-744.94 513.332 4440.97
-744.88 513.359 4441.33
-744.832 513.649 4441.6
-744.835 513.712 4441.45
-744.858 513.746 4441.15
-747.247 514.095 4436.81
-747.043 513.976 4436.99
-747.453 514.261 4436.61
-747.686 514.498 4436.53
-747.947 514.848 4436.45
-748.341 514.999 4436.2
-748.124 514.993 4436.35
-748.58 515.059 4436.05
-747.736 514.727 4436.57
-748.793 515.151 4435.92
-746.87 514.044 4437.17
-746.709 514.142 4437.35
-746.531 513.999 4437.5
-746.346 513.879 4437.65
-746.152 513.774 4437.82
-745.949 513.659 4437.99
-745.183 518.144 4442.82
-745.275 518.309 4442.88
-745.455 518.299 4443.17
-745.505 518.406 4443.16
-745.565 518.476 4443.17
-744.715 514.936 4441.62
-744.705 514.962 4441.76
-744.605 516.109 4441.55
-744.74 516.781 4441.94
-744.841 517.222 4442.09
-744.906 517.375 4442.25
-744.967 517.554 4442.38
-745.023 517.72 4442.5
-744.772 517.058 4441.93
-744.654 516.659 4441.69
-744.591 516.552 4441.51
-745.107 518.122 4442.62
-745.083 517.871 4442.64
-745.286 518.713 4442.16
-745.201 518.672 4441.97
-745.128 518.663 4441.74
-745.131 518.721 4441.6
-745.048 518.717 4441.32
-744.987 518.859 4440.78
-745.03 518.935 4440.68
-744.966 518.716 4441.05
-744.973 518.788 4440.91
-745.143 519.045 4440.49
-745.077 518.962 4440.55
-745.19 519.072 4440.37
-746.575 519.646 4439.41
-746.659 519.652 4439.34
-746.745 519.671 4439.3
-747.063 519.791 4439.41
-747.234 519.812 4439.39
-747.346 519.876 4439.52
-746.937 519.737 4439.33
-747.525 519.919 4439.55
-746.838 519.68 4439.25
-745.235 519.095 4440.24
-745.299 519.174 4440.18
-745.367 519.243 4440.09
-745.469 519.307 4440.05
-745.639 519.388 4439.9
-745.745 519.448 4439.86
-745.849 519.499 4439.81
-745.93 519.549 4439.83
-746.021 519.56 4439.76
-745.535 519.328 4439.94
-746.099 519.536 4439.65
-746.167 519.509 4439.54
-746.256 519.555 4439.54
-746.33 519.537 4439.44
-746.417 519.581 4439.44
-746.51 519.584 4439.36
-747.616 519.904 4439.47
-747.692 519.864 4439.37
-747.84 519.829 4439.32
-748.086 519.761 4439.2
-748.518 519.661 4439.03
-745.357 518.577 4442.7
-745.278 518.607 4442.41
-745.232 518.636 4442.17
-750.454 518.264 4437.39
-750.147 518.226 4437.37
-750.19 518.061 4437.18
-749.766 518.105 4437.25
-749.752 517.977 4437.11
-750.137 518.546 4437.72
-749.156 519.244 4438.51
-749.145 519.101 4438.34
-748.441 519.573 4438.9
-750.014 517.391 4436.43
-749.923 517.544 4436.6
-750.115 517.163 4436.3
-749.584 517.96 4437.09
-749.551 517.888 4437.01
-749.53 517.809 4436.92
-750.077 516.99 4436.26
-750.036 516.826 4436.22
-750.038 516.611 4436.13
-750.007 516.356 4436.02
-749.954 516.162 4435.95
-749.881 515.958 4435.87
-749.776 515.763 4435.78
-749.709 515.595 4435.69
-749.532 515.547 4435.76
-749.381 515.481 4435.8
-749.261 515.355 4435.77
-749.124 515.226 4435.75
-748.935 515.293 4435.9
-745.22 512.65 4439.65
-745.14 512.795 4440.05
-745.812 513.889 4438.18
-745.668 513.909 4438.39
-745.583 513.812 4438.59
-745.513 513.67 4438.8
-745.457 513.53 4438.98
-745.407 513.389 4439.15
-745.36 513.231 4439.32
-745.313 513.07 4439.47
-745.251 512.905 4439.62
-745.089 513.079 4440.25
-745.016 513.451 4440.4
-744.945 513.58 4440.73
-744.937 513.895 4440.51
-744.871 514.021 4440.81
-744.862 513.896 4440.98
-744.737 515.09 4441.09
-744.729 515.09 4441.21
-744.725 515.028 4441.37
-744.718 514.998 4441.51
-744.745 515.107 4440.95
-747.338 514.401 4436.79
-747.156 514.383 4436.95
-747.041 514.194 4437.04
-747.526 514.561 4436.68
-747.929 515.107 4436.5
-747.71 514.98 4436.63
-748.45 515.215 4436.17
-748.191 515.227 4436.35
-748.677 515.339 4436.06
-747.494 514.829 4436.75
-746.864 514.313 4437.21
-746.654 514.475 4437.38
-746.518 514.296 4437.51
-746.34 514.159 4437.67
-746.169 514.034 4437.83
-745.979 513.911 4438
-745.135 518.325 4442.59
-745.266 518.433 4442.73
-745.156 518.4 4442.52
-745.302 518.51 4442.69
-744.592 516.398 4441.36
-744.623 516.157 4441.25
-744.704 516.909 4441.75
-744.871 517.497 4442.06
-744.807 517.339 4441.91
-744.931 517.672 4442.2
-744.983 517.872 4442.29
-745.044 518.012 4442.44
-744.745 517.197 4441.75
-744.638 516.825 4441.54
-744.581 516.728 4441.36
-745.073 518.24 4442.41
-745.131 518.6 4441.91
-745.056 518.598 4441.65
-745.05 518.659 4441.47
-744.962 518.65 4441.19
-744.945 518.8 4440.69
-745.012 518.881 4440.62
-744.878 518.646 4440.91
-744.896 518.72 4440.79
-745.126 518.989 4440.42
-745.062 518.908 4440.48
-745.175 519.018 4440.3
-746.591 519.581 4439.27
-746.681 519.595 4439.21
-746.764 519.611 4439.16
-747.062 519.744 4439.28
-747.364 519.802 4439.3
-747.429 519.857 4439.43
-747.205 519.757 4439.25
-746.936 519.691 4439.2
-746.847 519.628 4439.12
-745.229 519.05 4440.16
-745.284 519.126 4440.12
-745.347 519.193 4440.03
-745.431 519.267 4439.97
-745.593 519.343 4439.83
-745.703 519.405 4439.78
-745.797 519.437 4439.73
-745.88 519.437 4439.66
-745.94 519.495 4439.71
-746.022 519.496 4439.64
-745.489 519.283 4439.86
-746.076 519.457 4439.52
-746.156 519.44 4439.42
-746.242 519.486 4439.43
-746.304 519.453 4439.31
-746.379 519.494 4439.31
-746.455 519.527 4439.3
-746.527 519.509 4439.2
-747.532 519.838 4439.34
-747.685 519.767 4439.22
-747.841 519.722 4439.15
-748.129 519.66 4439.05
-745.229 518.54 4442.41
-745.175 518.566 4442.15
-749.983 518.448 4437.62
-749.062 518.729 4437.93
-749.784 518.237 4437.4
-748.985 518.515 4437.7
-748.903 518.467 4437.64
-748.855 518.407 4437.58
-749.153 518.954 4438.18
-748.337 519.486 4438.77
-748.197 519.416 4438.67
-748.092 519.565 4438.91
-749.722 517.449 4436.52
-749.47 517.747 4436.85
-749.406 517.697 4436.79
-749.689 517.295 4436.48
-748.81 518.339 4437.5
-748.742 518.284 4437.44
-748.69 518.222 4437.37
-749.598 517.17 4436.47
-749.703 516.907 4436.35
-749.917 516.538 4436.16
-749.552 516.819 4436.37
-749.896 516.333 4436.08
-749.837 516.132 4436.01
-749.713 515.925 4435.93
-749.59 515.736 4435.86
-749.392 515.68 4435.94
-749.216 515.564 4435.95
-749.077 515.428 4435.92
-748.84 515.486 4436.07
-745.166 512.889 4439.89
-745.093 513.327 4440.03
-745.697 514.162 4438.31
-745.819 514.164 4438.15
-745.493 514.097 4438.6
-745.552 514.253 4438.49
-745.42 514.012 4438.8
-745.359 513.833 4438.98
-745.294 513.712 4439.17
-745.256 513.538 4439.33
-745.211 513.361 4439.52
-745.182 513.209 4439.66
-745.155 513.143 4439.8
-745.012 513.75 4440.18
-744.955 513.979 4440.33
-744.872 514.225 4440.64
-744.889 514.467 4440.33
-744.866 514.458 4440.48
-744.763 515.166 4440.65
-744.754 515.125 4440.8
-744.66 516.169 4440.82
-744.632 516.425 4440.89
-744.64 516.109 4441.1
-744.67 516.214 4440.67
-747.131 514.666 4436.97
-747.308 514.703 4436.86
-746.979 514.543 4437.1
-747.941 515.334 4436.54
-747.684 515.217 4436.69
-747.482 515.056 4436.8
-748.433 515.413 4436.22
-748.183 515.452 4436.39
-748.613 515.545 4436.21
-747.305 514.988 4436.91
-746.793 514.665 4437.25
-746.602 514.79 4437.4
-746.47 514.647 4437.52
-746.337 514.469 4437.65
-746.134 514.345 4437.83
-745.965 514.219 4437.99
-745.076 518.343 4442.32
-745.187 518.471 4442.44
-745.095 518.426 4442.24
-744.588 516.598 4441.21
-744.61 516.518 4441.05
-744.684 517.089 4441.57
-744.904 517.785 4442.03
-744.844 517.631 4441.89
-744.785 517.49 4441.74
-744.953 518.015 4442.09
-745.012 518.135 4442.25
-744.724 517.368 4441.57
-744.624 517.006 4441.39
-744.572 516.904 4441.21
-745.019 518.258 4442.16
-745.073 518.527 4441.9
-744.979 518.6 4441.38
-745.001 518.535 4441.62
-744.884 518.583 4441.09
-744.998 518.832 4440.56
-744.927 518.747 4440.64
-744.864 518.665 4440.7
-744.812 518.589 4440.78
-745.112 518.936 4440.35
-745.045 518.851 4440.41
-745.169 518.975 4440.22
-746.624 519.527 4439.14
-746.709 519.535 4439.08
-746.797 519.554 4439.03
-747.053 519.69 4439.13
-747.361 519.729 4439.16
-747.522 519.746 4439.19
-747.21 519.7 4439.12
-746.928 519.641 4439.07
-746.883 519.569 4438.98
-745.237 519.023 4440.06
-745.296 519.107 4440.02
-745.358 519.161 4439.91
-745.401 519.224 4439.9
-745.546 519.299 4439.76
-745.657 519.357 4439.72
-745.745 519.366 4439.65
-745.823 519.372 4439.59
-745.913 519.376 4439.52
-745.97 519.439 4439.58
-745.447 519.235 4439.78
-746.001 519.392 4439.47
-746.086 519.389 4439.39
-746.164 519.369 4439.29
-746.23 519.417 4439.32
-746.256 519.361 4439.19
-746.347 519.408 4439.19
-746.435 519.454 4439.19
-746.493 519.422 4439.08
-746.571 519.464 4439.08
-747.669 519.664 4439.06
-747.84 519.624 4439
-745.129 518.497 4442.17
-749.153 518.804 4438.02
-749.115 518.559 4437.76
-748.142 519.326 4438.54
-747.95 519.167 4438.33
-747.875 519.294 4438.5
-747.791 519.127 4438.27
-747.745 519.057 4438.22
-747.791 518.944 4438.11
-747.909 519.501 4438.82
-747.884 519.391 4438.65
-749.294 517.663 4436.76
-749.288 517.554 4436.69
-748.648 518.154 4437.3
-748.614 518.081 4437.23
-749.164 517.497 4436.71
-747.784 518.85 4438.03
-747.753 518.78 4437.98
-747.804 518.659 4437.87
-749.076 517.413 4436.71
-749.368 517.173 4436.54
-749.312 517.068 4436.53
-749.623 516.592 4436.27
-749.026 517.145 4436.65
-749.225 516.885 4436.5
-749.717 516.343 4436.16
-749.717 516.143 4436.08
-749.553 516.043 4436.1
-749.498 515.876 4436.02
-749.303 515.859 4436.1
-749.151 515.761 4436.11
-748.993 515.631 4436.1
-748.77 515.695 4436.24
-745.063 513.665 4439.9
-745.01 513.939 4440.01
-745.708 514.423 4438.28
-745.606 514.408 4438.42
-745.818 514.451 4438.14
-745.337 514.264 4438.79
-745.401 514.436 4438.68
-745.486 514.569 4438.56
-745.282 514.109 4438.96
-745.218 513.996 4439.14
-745.146 513.866 4439.34
-745.122 513.668 4439.51
-745.08 513.721 4439.66
-745.074 513.682 4439.77
-744.937 514.383 4440.08
-744.924 514.373 4440.19
-744.769 515.235 4440.5
-744.797 515.376 4440.2
-744.778 515.33 4440.34
-744.695 516.247 4440.37
-744.681 516.258 4440.51
-744.639 516.547 4440.7
-744.615 516.769 4440.75
-744.602 516.735 4440.92
-744.651 516.586 4440.53
-747.113 514.962 4437.03
-746.925 514.861 4437.14
-747.976 515.549 4436.55
-747.744 515.443 4436.69
-747.519 515.443 4436.84
-747.46 515.274 4436.85
-747.306 515.265 4436.96
-748.367 515.591 4436.36
-748.147 515.66 4436.5
-748.497 515.713 4436.38
-747.164 515.227 4437.05
-746.722 514.939 4437.3
-746.555 515.073 4437.43
-746.432 514.929 4437.53
-746.3 514.784 4437.66
-746.176 514.62 4437.77
-746.008 514.69 4437.91
-745.924 514.536 4438.01
-745.021 518.36 4442.06
-745.038 518.45 4441.97
-744.584 516.79 4441.07
-744.664 517.272 4441.39
-744.887 517.942 4441.88
-744.828 517.797 4441.73
-744.767 517.658 4441.57
-744.907 518.084 4441.84
-744.963 518.168 4442
-744.705 517.541 4441.4
-744.602 517.169 4441.21
-744.565 517.046 4441.03
-744.965 518.271 4441.9
-744.979 518.466 4441.71
-744.929 518.543 4441.35
-744.914 518.472 4441.44
-744.856 518.495 4441.17
-744.808 518.519 4440.92
-744.979 518.781 4440.51
-744.919 518.7 4440.56
-744.855 518.608 4440.61
-744.793 518.52 4440.7
-745.103 518.891 4440.28
-744.987 518.756 4440.42
-745.046 518.807 4440.31
-745.161 518.934 4440.15
-746.649 519.461 4439
-746.75 519.485 4438.95
-746.855 519.476 4438.89
-746.995 519.596 4438.97
-747.142 519.61 4438.98
-747.32 519.619 4438.99
-747.483 519.646 4439.04
-746.97 519.495 4438.88
-745.264 519.009 4439.93
-745.311 519.088 4439.92
-745.199 518.947 4440.04
-745.385 519.157 4439.79
-745.53 519.264 4439.66
-745.61 519.306 4439.65
-745.689 519.304 4439.58
-745.768 519.292 4439.49
-745.851 519.319 4439.47
-745.934 519.31 4439.38
-745.45 519.208 4439.67
-746.016 519.335 4439.35
-746.091 519.32 4439.26
-746.171 519.305 4439.16
-746.239 519.282 4439.06
-746.322 519.331 4439.07
-746.409 519.375 4439.07
-746.475 519.347 4438.95
-746.563 519.395 4438.96
-747.586 519.566 4438.92
-747.734 519.555 4438.9
-747.715 519.247 4438.43
-747.673 519.36 4438.6
-747.654 519.168 4438.35
-747.593 519.102 4438.31
-747.618 518.991 4438.21
-747.721 519.459 4438.75
-748.588 518.002 4437.15
-748.555 517.928 4437.08
-747.841 518.547 4437.76
-747.895 518.43 4437.65
-748.502 517.847 4437.06
-747.479 518.986 4438.24
-747.458 518.894 4438.16
-747.449 518.794 4438.07
-748.454 517.756 4437.05
-749.006 517.307 4436.7
-749.316 516.654 4436.4
-748.402 517.673 4437.05
-748.354 517.599 4437.05
-748.84 517.152 4436.72
-748.963 516.954 4436.62
-749.308 516.514 4436.36
-749.424 516.296 4436.25
-749.306 516.054 4436.22
-749.17 516.344 4436.37
-749.1 515.989 4436.28
-748.936 515.84 4436.26
-748.751 515.943 4436.41
-748.622 515.831 4436.4
-744.984 514.22 4439.87
-744.957 514.327 4439.97
-745.683 514.711 4438.3
-745.582 514.668 4438.44
-745.779 514.762 4438.18
-745.208 514.361 4438.95
-745.163 515.47 4438.9
-745.296 515.54 4438.73
-745.221 515.518 4438.82
-745.38 515.576 4438.63
-745.154 514.239 4439.11
-745.098 514.119 4439.28
-745.054 514.027 4439.48
-744.983 515.187 4439.39
-745.028 514.126 4439.59
-745 514.243 4439.68
-744.996 514.211 4439.77
-744.843 515.334 4440
-744.82 515.354 4440.1
-744.708 516.225 4440.24
-744.721 516.49 4439.99
-744.713 516.347 4440.09
-744.685 516.537 4440.22
-744.668 516.579 4440.36
-744.625 516.835 4440.57
-744.598 517.048 4440.66
-744.586 516.99 4440.84
-744.642 516.82 4440.4
-747.004 515.269 4437.16
-746.918 515.122 4437.19
-746.767 515.114 4437.29
-747.815 515.663 4436.69
-747.967 515.759 4436.65
-747.602 515.592 4436.81
-746.913 516.366 4437.36
-747.341 515.513 4436.98
-747.191 515.518 4437.08
-748.283 515.779 4436.52
-748.08 515.86 4436.66
-748.392 515.902 4436.54
-747.062 515.483 4437.16
-746.597 515.293 4437.44
-746.354 515.187 4437.59
-746.445 515.316 4437.55
-746.247 515.051 4437.68
-746.123 514.857 4437.8
-745.948 514.963 4437.95
-745.861 514.849 4438.06
-744.967 518.372 4441.8
-744.644 517.444 4441.22
-744.845 517.999 4441.66
-744.797 517.901 4441.54
-744.741 517.792 4441.39
-744.851 518.098 4441.57
-744.908 518.185 4441.74
-744.68 517.696 4441.22
-744.583 517.333 4441.05
-744.561 517.222 4440.89
-744.908 518.282 4441.63
-744.912 518.381 4441.55
-744.857 518.393 4441.28
-744.806 518.408 4441.04
-744.767 518.434 4440.82
-744.925 518.658 4440.46
-744.813 518.497 4440.58
-744.871 518.573 4440.49
-744.765 518.403 4440.69
-745.102 518.843 4440.18
-744.981 518.698 4440.33
-745.043 518.75 4440.22
-745.14 518.848 4440.06
-746.622 519.368 4438.85
-746.693 519.42 4438.88
-746.79 519.394 4438.82
-746.969 519.391 4438.78
-746.886 519.356 4438.77
-747.107 519.505 4438.85
-747.254 519.518 4438.84
-747.428 519.535 4438.87
-747.098 519.407 4438.76
-745.207 518.908 4439.94
-745.273 518.967 4439.82
-745.33 519.067 4439.8
-745.392 519.117 4439.68
-745.528 519.205 4439.55
-745.612 519.246 4439.54
-745.694 519.235 4439.45
-745.769 519.217 4439.35
-745.848 519.258 4439.36
-745.922 519.235 4439.25
-746.004 519.271 4439.25
-745.454 519.129 4439.56
-746.082 519.254 4439.15
-746.155 519.235 4439.05
-746.216 519.203 4438.93
-746.299 519.251 4438.94
-746.384 519.3 4438.95
-746.444 519.271 4438.84
-746.537 519.317 4438.84
-747.56 519.459 4438.75
-747.555 519.278 4438.49
-747.499 519.368 4438.62
-747.488 519.208 4438.44
-747.46 519.107 4438.36
-747.806 518.394 4437.64
-747.901 518.258 4437.5
-747.462 518.673 4437.97
-747.853 518.198 4437.47
-747.342 519.104 4438.39
-747.338 519.008 4438.3
-747.301 518.925 4438.24
-747.283 518.838 4438.16
-747.825 518.103 4437.44
-748.846 516.92 4436.66
-747.687 518.064 4437.5
-748.306 517.525 4437.04
-747.766 517.898 4437.41
-748.262 517.449 4437.04
-748.812 516.821 4436.64
-749.07 516.565 4436.47
-748.986 516.308 4436.43
-748.705 516.64 4436.64
-748.756 516.729 4436.64
-748.864 516.053 4436.41
-748.837 516.264 4436.48
-748.504 516.015 4436.54
-748.54 516.176 4436.58
-744.889 515.289 4439.8
-744.866 515.316 4439.9
-745.55 515.635 4438.42
-745.467 515.606 4438.52
-745.634 515.656 4438.32
-745.055 515.2 4439.1
-745.103 515.427 4438.99
-745.086 516.528 4438.93
-745.033 516.642 4439.05
-745.025 516.479 4439.07
-745.145 516.483 4438.83
-745.229 516.486 4438.74
-745.023 515.117 4439.21
-744.998 515.117 4439.31
-744.958 515.188 4439.49
-744.964 516.444 4439.24
-744.91 516.703 4439.36
-744.907 516.518 4439.4
-744.934 515.215 4439.6
-744.911 515.241 4439.7
-744.747 516.478 4439.9
-744.778 516.471 4439.81
-744.705 516.782 4440.03
-744.694 516.622 4440.1
-744.68 516.616 4440.24
-744.618 517.067 4440.45
-744.569 517.304 4440.72
-744.594 517.247 4440.55
-744.646 516.994 4440.3
-746.893 515.565 4437.28
-746.824 515.421 4437.31
-746.713 515.367 4437.37
-747.179 516.39 4437.22
-747.291 516.437 4437.18
-747.39 516.488 4437.15
-747.026 516.4 4437.3
-746.751 516.404 4437.45
-746.554 517.058 4437.69
-746.352 517.161 4437.81
-746.282 517.07 4437.83
-746.594 516.43 4437.54
-748.141 515.997 4436.68
-747.476 516.551 4437.13
-748.19 516.16 4436.71
-746.45 516.443 4437.62
-746.15 516.144 4437.82
-745.973 515.826 4437.95
-746.038 515.911 4437.9
-746.089 516.031 4437.86
-746.076 515.096 4437.82
-745.818 515.65 4438.09
-745.72 515.671 4438.21
-744.617 517.595 4441.03
-744.792 518.011 4441.4
-744.749 517.918 4441.31
-744.694 517.827 4441.16
-744.793 518.112 4441.3
-744.851 518.195 4441.47
-744.63 517.734 4440.98
-744.561 517.485 4440.86
-744.853 518.292 4441.37
-744.8 518.306 4441.12
-744.75 518.331 4440.87
-744.918 518.589 4440.35
-744.84 518.485 4440.45
-744.787 518.389 4440.57
-744.733 518.292 4440.71
-745.077 518.748 4440.09
-744.989 518.657 4440.23
-745.147 518.805 4439.96
-746.622 519.271 4438.74
-746.72 519.322 4438.77
-746.84 519.272 4438.7
-746.973 519.27 4438.67
-747.089 519.308 4438.67
-747.239 519.408 4438.71
-747.375 519.435 4438.72
-747.229 519.31 4438.62
-745.217 518.873 4439.84
-745.277 518.91 4439.7
-745.334 519.014 4439.69
-745.398 519.044 4439.57
-745.609 519.177 4439.43
-745.526 519.092 4439.44
-745.688 519.163 4439.33
-745.763 519.14 4439.22
-745.843 519.189 4439.23
-745.919 519.164 4439.12
-745.998 519.206 4439.13
-745.456 519.002 4439.45
-746.07 519.184 4439.03
-746.138 519.164 4438.93
-746.269 519.17 4438.82
-746.171 519.115 4438.81
-746.355 519.219 4438.83
-746.416 519.193 4438.73
-746.51 519.237 4438.74
-747.378 519.318 4438.58
-747.356 519.216 4438.49
-747.284 518.675 4438.02
-747.501 518.473 4437.79
-747.191 518.797 4438.16
-747.436 518.404 4437.75
-747.232 519.206 4438.53
-747.205 519.106 4438.44
-747.188 519.016 4438.36
-747.148 518.918 4438.28
-747.399 518.327 4437.72
-748.214 517.385 4437.04
-748.17 517.312 4437.04
-747.134 518.395 4437.86
-747.388 518.148 4437.66
-747.498 517.964 4437.55
-747.583 517.796 4437.46
-748.119 517.241 4437.05
-748.624 516.563 4436.65
-748.068 517.165 4437.04
-748.024 517.087 4437.04
-748.607 516.298 4436.58
-748.445 516.542 4436.71
-748.258 516.294 4436.72
-748.297 516.463 4436.75
-744.802 516.513 4439.72
-744.829 516.508 4439.64
-745.356 516.571 4438.6
-745.291 516.533 4438.67
-745.433 516.576 4438.52
-744.988 516.501 4439.16
-745.083 516.766 4438.94
-745.035 516.862 4439.05
-744.976 516.978 4439.18
-744.979 516.744 4439.18
-745.127 516.679 4438.85
-745.162 516.734 4438.79
-744.887 516.465 4439.48
-744.934 516.791 4439.28
-744.877 517.101 4439.41
-744.845 517.056 4439.5
-744.835 516.891 4439.56
-744.865 516.427 4439.55
-744.73 516.751 4439.91
-744.745 516.886 4439.84
-744.713 516.988 4439.97
-744.685 517.07 4440.1
-744.677 516.898 4440.16
-744.628 517.237 4440.37
-744.604 517.419 4440.47
-744.56 517.572 4440.71
-744.575 517.476 4440.61
-744.656 517.169 4440.24
-746.238 516.371 4437.75
-746.268 516.51 4437.73
-746.199 516.251 4437.78
-746.638 517.137 4437.67
-746.766 517.168 4437.62
-746.905 517.166 4437.55
-746.183 517.026 4437.88
-746.381 517.294 4437.83
-746.217 517.381 4437.96
-746.204 517.236 4437.92
-746.121 517.178 4437.97
-746.095 516.991 4437.93
-747.564 516.612 4437.11
-747.068 517.153 4437.47
-747.724 516.731 4437.06
-747.641 516.67 4437.09
-746.041 516.901 4437.94
-745.857 516.893 4438.08
-745.781 516.855 4438.14
-745.773 516.723 4438.16
-745.935 515.604 4437.96
-745.633 516.539 4438.32
-745.694 516.713 4438.25
-745.609 516.718 4438.33
-745.525 516.563 4438.43
-744.578 517.661 4440.79
-744.742 518.032 4441.16
-744.703 517.931 4441.09
-744.641 517.828 4440.92
-744.729 518.124 4441
-744.792 518.204 4441.2
-744.602 517.771 4440.75
-744.741 518.229 4440.94
-744.873 518.489 4440.33
-744.941 518.563 4440.22
-744.81 518.375 4440.45
-744.756 518.28 4440.59
-744.704 518.186 4440.75
-745.015 518.642 4440.11
-745.079 518.699 4440
-745.137 518.745 4439.88
-746.753 519.219 4438.66
-746.586 519.16 4438.64
-746.682 519.17 4438.63
-746.848 519.148 4438.58
-746.933 519.188 4438.6
-747.048 519.133 4438.52
-747.103 519.207 4438.57
-745.203 518.816 4439.78
-745.241 518.818 4439.65
-745.3 518.852 4439.56
-745.342 518.953 4439.58
-745.402 518.92 4439.46
-745.608 519.066 4439.33
-745.533 518.971 4439.34
-745.686 519.045 4439.22
-745.838 519.114 4439.12
-745.762 519.02 4439.11
-745.908 519.085 4439.01
-745.994 519.135 4439
-745.466 518.884 4439.35
-746.069 519.107 4438.88
-746.243 519.101 4438.72
-746.327 519.135 4438.7
-746.108 519.041 4438.75
-746.185 519.036 4438.66
-746.399 519.096 4438.62
-746.491 519.124 4438.62
-747.106 518.735 4438.13
-747.166 518.611 4438
-747.057 518.855 4438.25
-747.056 518.563 4437.98
-747.061 519.03 4438.42
-746.997 518.965 4438.37
-747.505 517.734 4437.48
-747.078 518.298 4437.85
-746.956 518.51 4437.98
-747.207 518.054 4437.71
-747.227 518.118 4437.73
-747.488 517.622 4437.45
-747.989 517.007 4437.03
-747.477 517.523 4437.42
-747.468 517.428 4437.39
-747.947 516.934 4437.03
-747.888 516.866 4437.03
-747.809 516.796 4437.04
-744.768 516.968 4439.75
-744.821 516.773 4439.62
-745.29 516.816 4438.64
-745.214 516.787 4438.72
-745.387 516.779 4438.55
-745.097 516.937 4438.92
-745.042 517.084 4439.04
-744.964 517.287 4439.19
-744.926 517.272 4439.31
-744.928 517.027 4439.3
-745.122 517.013 4438.86
-744.871 517.352 4439.43
-744.819 517.421 4439.55
-744.78 517.39 4439.65
-744.771 517.188 4439.71
-744.724 517.162 4439.9
-744.695 517.25 4440.04
-744.665 517.335 4440.18
-744.634 517.445 4440.32
-744.602 517.592 4440.52
-744.628 517.591 4440.4
-744.603 517.658 4440.59
-745.939 516.92 4438.03
-746.485 517.38 4437.79
-746.574 517.47 4437.77
-746.804 517.386 4437.65
-746.032 517.138 4438.02
-746.291 517.476 4437.93
-746.182 517.602 4438.05
-746.091 517.485 4438.08
-746.107 517.333 4438.02
-746.002 517.325 4438.1
-745.964 517.052 4438.05
-747.227 517.163 4437.4
-746.988 517.345 4437.55
-747.353 517.191 4437.35
-745.847 517.086 4438.15
-745.761 517.024 4438.19
-745.657 516.929 4438.26
-745.659 517.073 4438.28
-745.495 516.749 4438.44
-745.564 516.925 4438.36
-745.473 516.921 4438.45
-744.612 517.736 4440.64
-744.686 518.017 4440.92
-744.651 517.918 4440.87
-744.632 517.874 4440.71
-744.679 518.088 4440.76
-744.653 517.852 4440.58
-744.898 518.468 4440.2
-744.841 518.389 4440.32
-744.965 518.541 4440.1
-744.778 518.266 4440.47
-744.724 518.174 4440.62
-745.028 518.602 4439.99
-745.091 518.656 4439.87
-745.168 518.737 4439.76
-746.776 519.092 4438.54
-746.576 519.049 4438.54
-746.673 519.067 4438.53
-746.877 519.017 4438.45
-746.947 519.079 4438.49
-745.194 518.72 4439.63
-745.251 518.745 4439.54
-745.305 518.72 4439.44
-745.355 518.83 4439.46
