-767.645 511.465 4750.51
-767.803 511.662 4748.88
-767.874 511.808 4747.62
-766.36 511.082 4752.27
-766.157 511.351 4750.89
-766.125 510.806 4753.32
-765.757 510.513 4754.22
-768.455 512.02 4745.26
-767.749 512.103 4744.5
-768.757 511.908 4746.61
-765.918 511.639 4749.1
-765.304 511.769 4748.06
-765.008 511.893 4747.12
-765.155 511.105 4751.55
-764.61 511.368 4750.03
-764.634 510.632 4753.3
-765.452 510.136 4755.36
-766.64 512.177 4743.97
-766.566 511.971 4746.31
-765.788 512.07 4745.37
-763.577 511.733 4747.8
-763.381 511.865 4746.86
-764.307 512.014 4746.19
-763.582 511.198 4750.08
-762.843 511.484 4748.74
-763.23 510.823 4751.44
-762.432 511.066 4749.96
-763.87 510.023 4754.53
-762.239 510.384 4752.42
-765.15 509.462 4757.09
-763.86 509.621 4755.63
-765.673 512.248 4743.43
-764.927 512.161 4744.72
-764.162 512.128 4745.32
-763.505 512.318 4744.24
-765.724 512.122 4741.67
-761.632 512.08 4745.43
-762.88 512.037 4745.66
-761.938 511.318 4748.9
-761.642 511.806 4746.72
-761.457 510.921 4749.99
-760.47 511.274 4748.36
-762.424 509.913 4753.69
-760.978 510.19 4752.11
-760.507 510.568 4750.59
-763.592 508.917 4757.27
-762.988 509.356 4755.62
-764.36 512.314 4742.66
-764.121 512.315 4741.66
-762.814 512.458 4743.52
-761.98 512.394 4744.02
-764.009 512.281 4740.74
-759.182 512.529 4743.77
-756.069 512.966 4742.34
-757.827 512.822 4742.64
-760.899 511.635 4747.49
-758.214 512.303 4744.78
-761.402 509.693 4753.52
-759.958 510.151 4751.41
-759.731 510.51 4750.08
-758.921 510.903 4748.62
-763.255 508.308 4758.35
-761.895 508.9 4755.84
-762.611 507.522 4759.49
-763.481 512.229 4739.34
-762.168 512.506 4741.64
-761.865 512.5 4740.6
-758.876 512.775 4742.68
-759.501 512.899 4741.92
-762.096 512.435 4739.73
-754.82 512.795 4743.06
-754.434 513.233 4741.44
-760.463 509.558 4753.16
-758.704 510.416 4749.67
-757.476 511.972 4746.04
-762.036 508.398 4757.1
-760.357 509.164 4753.94
-761.867 507.098 4759.67
-761.414 512.002 4735.85
-762.312 512.342 4738.6
-758.319 513.064 4741.22
-755.298 513.196 4741.22
-760.665 512.588 4738.85
-753.347 513.103 4741.89
-759.237 509.556 4752.24
-757.46 510.547 4749.02
-756.555 511.013 4747.78
-756.372 511.397 4746.93
-760.523 508.486 4755.6
-761.723 507.775 4758.18
-761.054 508.188 4756.73
-759.399 508.324 4755
-755.823 502.904 4758.33
-756.596 503.436 4758.82
-755.078 502.161 4757.86
-753.894 500.843 4757.58
-757.7 503.962 4759.57
-761.972 512.177 4737
-760.886 511.904 4735.12
-756.608 513.173 4741.07
-753.075 513.683 4739.91
-756.674 513.234 4739.81
-752.266 513.437 4740.85
-755.529 511.17 4746.99
-754.744 512.473 4744.1
-759.27 508.696 4754.07
-759.909 505.53 4760.1
-760.321 506.225 4759.35
-760.357 506.799 4758.4
-759.551 507.434 4756.69
-758.157 508.649 4753.36
-743.721 497.28 4743.75
-752.752 501.24 4755.93
-753.836 501.639 4756.6
-755.892 504.182 4757.12
-755.081 503.445 4756.61
-756.691 504.382 4757.74
-754.323 502.75 4756.14
-757.574 504.471 4758.73
-758.304 504.88 4759.07
-758.877 504.875 4759.8
-747.682 502.776 4729.45
-758.406 513.049 4740.33
-758.557 513.058 4739.15
-754.457 513.409 4740.45
-751.902 513.826 4739.63
-751.226 513.423 4740.46
-758.213 509.94 4750.64
-756.733 510.149 4749.54
-755.085 510.675 4747.69
-754.733 511.35 4746.24
-753.571 512.135 4744.23
-752.077 512.965 4741.88
-759.293 506.095 4758.48
-759.088 506.819 4757.2
-758.233 507.564 4755.25
-757.311 509.152 4751.69
-750.466 500.568 4753.12
-752.294 501.478 4755.08
-744.355 497.254 4745.36
-753.053 502.157 4755.21
-755.954 505.42 4755.77
-755.224 504.876 4755.4
-754.502 504.262 4754.93
-757.491 505.669 4757.09
-758.431 505.906 4757.79
-760.512 512.524 4737.4
-759.902 512.42 4736.41
-759.57 511.758 4733.86
-753.308 513.845 4739.07
-754.197 513.771 4738.63
-755.276 513.527 4739.27
-751.167 513.965 4739.16
-751.648 513.944 4738.34
-752.896 512.556 4743.1
-751.09 512.884 4741.44
-758.269 506.658 4756.56
-755.601 509.34 4750.06
-742.904 497.332 4741.75
-745.301 497.46 4746.97
-747.021 498.448 4749.2
-748.473 499.078 4751.11
-751.564 501.998 4753.52
-752.756 503.284 4753.76
-753.263 504.098 4753.58
-755.3 506.294 4754.07
-754.686 505.727 4753.78
-756.663 506.942 4754.53
-753.579 505.301 4752.83
-746.797 501.882 4729.63
-758.87 513.005 4737.98
-759.753 512.053 4735
-749.929 513.421 4739.62
-757.668 507.741 4754.42
-756.831 508.379 4752.53
-756.224 508.672 4751.39
-754.064 510.484 4747.51
-744.206 497.854 4744.26
-745.836 498.841 4746.93
-747.13 499.777 4748.48
-748.46 499.926 4750.21
-750.145 501.237 4751.98
-751.089 502.23 4752.61
-751.939 503.554 4752.56
-752.447 504.524 4752.25
-755.249 507.213 4752.96
-754.411 506.757 4752.55
-756.195 507.804 4752.9
-746.039 501.326 4730.63
-757.146 513.313 4738.72
-758.868 512.207 4734.83
-757.948 512.85 4736.62
-752.593 513.91 4737.99
-752.501 511.745 4744.38
-751.66 512.464 4742.51
-753.568 509.829 4748.09
-743.711 497.824 4742.97
-748.802 501.09 4750.05
-750.679 502.661 4751.64
-751.452 503.821 4751.78
-744.774 497.984 4745.62
-751.937 505.525 4751.03
-753.041 505.961 4751.75
-754.899 507.639 4751.8
-751.386 506.422 4749.7
-755.693 513.564 4738.2
-756.207 513.357 4737.37
-757.432 512.745 4735.79
-751.102 513.947 4737.39
-750.652 513.906 4738.28
-749.326 513.369 4738.71
-749.925 513.043 4740.47
-752.448 511.142 4745.26
-750.459 512.359 4741.95
-743.121 498.65 4741.35
-743.741 498.901 4742.49
-744.723 499.006 4744.76
-746.137 499.913 4746.8
-747.398 501.333 4747.98
-748.739 502.059 4749.37
-749.78 502.547 4750.47
-749.564 503.862 4749.31
-750.526 504.475 4750.19
-749.656 506.876 4747.55
-752.967 507.139 4750.69
-751.791 507.954 4748.59
-754.33 508.628 4750.01
-749.538 508.225 4746.28
-748.529 504.175 4729.51
-750.249 505.16 4729
-749.382 504.387 4729.12
-757.861 511.397 4732.69
-758.613 511.803 4733.69
-756.722 512.733 4735.15
-753.842 513.864 4737.25
-755.074 513.632 4737.25
-748.772 512.337 4740.73
-748.727 512.877 4739.78
-752.74 509.964 4747.18
-751.219 510.796 4744.83
-750.937 511.486 4743.69
-742.504 497.888 4739.99
-745.354 499.606 4745.68
-746.36 500.877 4746.68
-747.435 502.798 4747.17
-748.033 503.084 4747.78
-748.978 503.647 4748.67
-748.864 506.521 4746.91
-745.751 500.727 4745.76
-751.6 508.733 4747.69
-752.054 509.416 4747.34
-748.871 508.302 4745.51
-749.864 509.616 4745.35
-757.692 510.833 4731.84
-757.782 512.098 4733.94
-755.622 513.306 4736.45
-749.418 512.11 4741.73
-744.238 498.892 4743.65
-744.447 499.891 4743.8
-744.88 500.042 4744.62
-746.772 502.5 4746.44
-747.489 504.999 4746.12
-748.808 505.754 4747.34
-749.243 509.585 4744.69
-747.52 503.129 4730.26
-756.699 510.209 4731.35
-752.04 513.936 4737.23
-749.586 510.457 4744.02
-749.71 511.127 4743.29
-749.006 511.096 4742.61
-742.457 498.488 4738.3
-742.786 498.953 4739.65
-743.929 499.761 4742.65
-747.385 506.931 4744.86
-746.551 504.625 4745.12
-748.05 507.985 4744.91
-748.571 509.575 4743.94
-755.397 512.681 4734.2
-754.05 513.346 4735.01
-747.685 513.038 4738.51
-747.485 512.395 4739.4
-742.918 499.867 4739.67
-745.306 501.197 4744.77
-744.212 500.571 4743.03
-746.04 503.154 4745.07
-743.526 500.308 4741.55
-748.127 508.851 4744.22
-744.546 500.331 4732.59
-752.102 507.19 4729.71
-757.06 511.907 4733.34
-753.929 513.777 4736.23
-751.204 513.882 4736.3
-752.823 513.879 4736.58
-749.883 513.702 4737.32
-742.606 499.717 4738.04
-743.168 499.606 4740.69
-745.074 502.187 4743.95
-744.019 501.367 4742.31
-747.38 507.951 4744.04
-748.171 510.243 4742.83
-750.895 505.795 4729.11
-756.564 511.456 4732.59
-755.515 509.529 4730.82
-748.647 513.357 4737.77
-748.008 511.246 4741.65
-747.943 511.905 4740.71
-747.079 511.603 4740.17
-745.842 504.167 4744.22
-746.72 506.003 4744.67
-746.77 507.02 4744.06
-747.782 509.466 4743.27
-751.303 506.831 4729.76
-754.753 512.486 4733.57
-753.139 513.09 4734.23
-752.621 513.682 4735.5
-750.146 513.689 4736.26
-747.676 512.961 4737.48
-746.777 511.963 4739.1
-742.457 499.112 4737.04
-745.669 505.364 4743.44
-745.039 504.31 4742.84
-746.13 506.511 4743.72
-746.334 509.197 4741.98
-747.453 510.022 4742.34
-746.653 502.544 4730.83
-746.082 502.88 4731.58
-745.417 501.87 4732.03
-753.382 508.116 4730.01
-755.326 511.396 4732.4
-755.762 510.563 4731.67
-742.6 500.974 4738.02
-742.764 500.913 4739.53
-743.211 500.804 4740.76
-745.155 505.599 4742.63
-743.651 501.994 4741.34
-744.26 504.023 4741.75
-747.242 508.668 4743.36
-746.192 509.914 4741.29
-747.081 510.601 4741.35
-744.429 501.139 4733.21
-754.242 508.668 4730.32
-750.088 505.952 4729.82
-754.704 510.922 4731.98
-743.63 500.613 4734.14
-743.159 500.429 4735.19
-743.049 502.06 4740.12
-745.142 506.907 4742.39
-743.67 504.048 4740.83
-744.29 505.311 4741.51
-745.601 509.991 4740.6
-746.338 511.236 4739.78
-751.7 513.448 4734.93
-754.021 511.963 4732.92
-754.522 509.895 4731.25
-742.638 501.627 4738.83
-742.582 500.278 4736.79
-742.814 503.805 4739.21
-743.336 505.318 4740.16
-744.518 507.085 4741.59
-746.043 507.556 4742.92
-747.826 504.257 4730.5
-753.498 509.388 4731.03
-752.604 512.536 4733.53
-751.981 512.09 4733.1
-753.236 511.212 4732.3
-748.731 513.341 4736.67
-742.525 502.143 4737.64
-742.481 503.376 4738.42
-742.935 505.128 4739.4
-746.061 508.381 4742.39
-749.128 505.195 4730.12
-744.508 502.01 4733.16
-752.474 508.525 4730.56
-752.274 509.57 4731.27
-753.434 510.245 4731.6
-750.361 507.041 4730.31
-751.634 507.872 4730.41
-750.456 508.419 4731.08
-746.619 512.315 4738
-745.755 511.26 4738.85
-742.806 501.102 4735.91
-743.691 507.378 4740.49
-745.368 510.511 4739.93
-749.043 506.371 4730.68
-746.837 503.442 4731.14
-751.691 508.863 4730.96
-752.111 510.514 4731.93
-750.606 509.646 4731.69
-745.625 511.64 4737.72
-742.979 506.253 4739.72
-743.519 506.499 4740.45
-743.086 507.723 4739.62
-744.814 508.239 4741.14
-745.368 508.901 4741.38
-744.66 509.363 4740.39
-746.942 504.546 4731.34
-746.01 503.702 4731.95
-749.545 509.368 4731.85
-749.997 510.66 4732.42
-749.471 507.898 4731.15
-751.521 513.028 4734.14
-750.278 513.419 4735.35
-750.95 511.42 4732.72
-742.779 502.116 4735.98
-742.509 503.455 4737.19
-742.48 504.925 4737.99
-745.254 502.763 4732.34
-750.696 512.086 4733.3
-746.329 512.135 4737.09
-743.703 502.458 4734.11
-743.449 501.555 4734.59
-742.694 506.043 4738.76
-744.098 509.489 4739.68
-746.058 504.739 4732.07
-749.037 508.616 4731.66
-748.691 509.352 4732.16
-745.352 504.125 4732.58
-744.677 503.617 4733.12
-747.582 512.809 4736.54
-742.656 503.573 4736.23
-743.118 503.506 4734.96
-742.491 505.94 4737.41
-744.122 508.704 4740.11
-748.051 505.48 4730.89
-747.309 506.13 4731.53
-746.774 505.406 4731.7
-747.933 506.928 4731.45
-745.565 505.54 4732.57
-743.973 504.051 4733.83
-746.845 512.376 4736.12
-749.156 513.295 4735.7
-742.824 506.923 4738.8
-746.647 507.06 4732.17
-747.724 508.236 4732.05
-744.733 504.917 4733.19
-749.042 510.694 4732.76
-745.012 510.912 4738.03
-745.041 510.612 4739.04
-742.52 504.749 4736.76
-744.187 509.905 4738.72
-746.6 508.092 4732.59
-749.813 511.768 4733.25
-750.101 512.674 4734.18
-749.025 512.811 4734.81
-748.005 512.767 4735.61
-742.85 504.627 4735.61
-743.315 504.692 4734.64
-742.668 506.721 4737.04
-745.072 506.832 4733.19
-747.809 509.321 4732.5
-747.813 510.385 4733.13
-748.853 511.667 4733.55
-745.591 511.445 4736.69
-744.518 510.403 4737.07
-742.725 506.023 4736.38
-743.169 508.05 4738.55
-745.886 507.598 4732.84
-746.771 509.883 4733.43
-744.399 506.033 4733.6
-747.943 511.505 4733.87
-747.908 512.177 4734.67
-743.618 506.024 4734.37
-743.914 509.389 4737.9
-745.191 510.843 4736.17
-747.025 511.992 4735.11
-742.997 505.69 4735.46
-743.014 506.841 4735.86
-742.944 507.632 4737.62
-746.756 508.949 4732.92
-745.399 508.315 4733.51
-747.145 511.132 4734.08
-746.283 511.683 4735.63
-744.604 507.514 4733.82
-746.282 510.255 4734.06
-745.873 509.389 4733.75
-743.326 508.163 4736.46
-743.465 507.551 4735.35
-743.395 508.574 4737.6
-743.899 507.108 4734.31
-744.662 509.967 4735.67
-745.712 510.892 4735.3
-743.717 509.191 4737.07
-744.003 509.224 4736.23
-744.513 508.683 4734.52
-745.055 509.67 4734.71
-743.896 508.578 4735.45
