-676.908 460.372 3303.64
-677.03 460.294 3304.58
-676.908 460.856 3306.66
-676.684 460.907 3305.69
-675.575 462.673 3297.35
-674.36 464.809 3295.03
-674.874 463.769 3296.51
-676.759 462.139 3309.59
-676.729 460.623 3302.39
-676.82 460.555 3301.31
-675.574 462.234 3303.73
-676.575 461.765 3307.92
-675.744 462.522 3306.23
-675.344 462.658 3304.76
-675.876 462.099 3299.07
-673.557 465.971 3294.6
-675.054 463.359 3297.88
-675.812 463.553 3308.71
-675.695 463.199 3307.57
-676.196 461.375 3302.11
-676.127 461.448 3303.18
-676.195 461.444 3301.04
-675.413 462.32 3301.65
-674.193 464.199 3303.95
-673.617 465.064 3304.14
-674.298 464.628 3305.51
-675.842 462.011 3300.14
-674.385 464.298 3297.45
-673.708 465.381 3296
-674.973 463.121 3299.71
-676.187 463.601 3310.19
-674.491 464.796 3306.47
-674.954 464.791 3308.01
-674.715 463.124 3301.86
-674.69 463.428 3303.01
-672.688 465.652 3301.88
-674.839 463.063 3300.77
-673.275 464.766 3301
-672.569 466.286 3303.13
-672.31 466.921 3304.03
-674.109 464.382 3298.46
-673.016 466.158 3295.83
-673.55 464.67 3299.7
-673.812 465.723 3306.1
-670.835 467.77 3300.59
-672.511 465.649 3300.3
-670.781 467.648 3299.48
-670.558 468.279 3301.82
-673.092 466.784 3293.74
-672.508 468.271 3292.46
-672.305 466.079 3298.61
-672.079 466.55 3297.44
-671.644 467.321 3296.57
-675.127 465.883 3310.22
-674.619 465.603 3308.41
-671.779 467.837 3304.41
-672.722 467.069 3305.57
-669.966 468.472 3299.34
-672.702 466.731 3295.23
-672.041 468.272 3293.64
-670.814 467.556 3298.24
-670.118 468.546 3297.22
-669.298 480.044 3297.42
-673.338 466.861 3306.83
-671.811 469.301 3292.8
-669.547 468.847 3298.12
-669.113 469.434 3297.53
-674.784 467.4 3310.76
-674.375 466.773 3309.14
-670.424 468.847 3302.73
-669.338 469.357 3301.16
-669.126 469.262 3299.21
-668.749 469.757 3300.41
-670.214 469.296 3295.16
-670.944 468.398 3295.61
-669.302 479.794 3296.57
-669.272 479.26 3298.46
-669.73 478.623 3300.99
-674.248 468.164 3309.98
-672.364 467.974 3305.81
-670.764 469.238 3303.7
-669.918 468.926 3301.83
-671.709 470.099 3292.27
-673.519 467.513 3308.19
-670.013 469.879 3302.68
-667.966 470.42 3299.46
-668.227 470.019 3298.24
-671.344 468.982 3294.13
-669.065 469.754 3296.41
-668.312 470.139 3296.92
-669.388 479.028 3299.73
-672.848 473.829 3307.78
-673.483 471.972 3309.03
-673.937 469.52 3309.7
-672.742 468.448 3307.1
-668.13 470.532 3300.35
-666.921 471.509 3298.87
-671.045 470.297 3293.37
-667.576 470.628 3296.86
-671.119 471.58 3292.21
-670.806 473.432 3291.98
-669.79 477.542 3294.24
-669.358 478.63 3296.01
-671.301 476.571 3304.63
-671.666 475.836 3305.36
-673.578 470.362 3309.1
-673.354 468.878 3308.45
-669.012 478.175 3298.79
-670.035 478.128 3301.95
-672.405 474.977 3306.81
-672.615 472.707 3307.36
-673.015 470.108 3308.21
-672.14 469.787 3306.7
-667.351 470.875 3297.7
-672.436 471.592 3307.26
-672.905 471.576 3308.01
-669.673 477.23 3301.2
-670.759 470.257 3304.34
-669.793 470.352 3294.43
-668.587 470.516 3295.67
-666.974 471.319 3296.71
-669.977 476.859 3301.97
-670.446 476.495 3303.19
-671.929 473.877 3306.18
-671.711 472.556 3306.06
-671.743 471.426 3306.32
-671.177 470.387 3305.25
-670.587 471.57 3293.12
-670.77 472.274 3292.62
-670.475 474.671 3292.55
-669.105 478.741 3297.25
-669.06 477.547 3299.83
-671.316 473.808 3305.22
-670.686 475.501 3303.76
-670.616 471.676 3304.48
-670.647 473.285 3304.38
-669.655 470.711 3302.57
-668.974 471.162 3301.92
-666.322 472.138 3298.24
-667.588 471.099 3296.02
-669.293 471.633 3294.26
-670.264 473.051 3293.06
-670.077 476.38 3293.39
-669.414 477.888 3295.48
-668.826 477.714 3296.77
-668.604 476.557 3299.67
-668.48 477.187 3298.75
-668.366 477.625 3297.63
-671.078 475.167 3304.48
-669.896 472.3 3303.25
-669.071 476.376 3300.62
-666.836 472.219 3299.62
-669.986 475.007 3293.58
-669.748 476.639 3294.17
-670.071 475.199 3302.97
-669.234 473.269 3302.46
-670.043 473.923 3303.41
-667.976 475.853 3299.22
-668.119 471.389 3295.32
-669.887 473.731 3293.57
-669.217 476.072 3294.96
-669.067 476.912 3295.61
-667.723 476.436 3298.12
-669.415 474.545 3302.38
-668.744 472.106 3301.8
-668.362 472.824 3301.36
-667.996 471.979 3300.89
-668.155 473.747 3300.98
-668.368 475.445 3300.19
-667.314 471.575 3300
-669.397 475.385 3301.93
-668.766 475.04 3301.17
-667.998 472.469 3294.99
-668.51 476.203 3295.94
-667.126 475.573 3298.06
-667.162 471.864 3295.8
-669.387 474.916 3294.3
-667.569 476.162 3297.17
-667.924 474.967 3295.69
-667.729 474.58 3299.81
-668.671 473.327 3294.57
-667.573 473.115 3300.35
-667.275 474.387 3296.05
-667.41 475.088 3298.97
-666.203 473.075 3298.57
-667.026 475.442 3297.19
-666.674 474.55 3298.26
-666.572 474.477 3297.07
-666.988 474.034 3299.06
-666.554 472.419 3296.33
-667.405 472.963 3295.55
-666.182 472.74 3297.59
-666.308 473.433 3296.74
