-704.865 389.936 4906.8
-704.721 388.595 4909.94
-704.947 390.334 4905.05
-702.086 373.132 4906.14
-702.025 373.003 4904.86
-702.063 372.829 4902.44
-702.002 373.088 4903.66
-702.227 374.593 4898.65
-704.539 389.214 4906.18
-704.58 389.11 4907.38
-704.58 388.709 4908.6
-704.22 387.682 4908.96
-704.247 386.982 4910.41
-704.245 386.089 4911.62
-704.234 385.277 4912.59
-704.106 384.372 4913.09
-703.731 382.814 4913.18
-704.665 389.62 4903.21
-704.437 389.006 4904.93
-702.726 378.366 4912.04
-702.514 377.669 4911.26
-702.183 375.806 4909.54
-702.145 374.653 4908.52
-702.087 374.307 4907.71
-702.03 373.954 4906.85
-701.634 375.442 4904.77
-702.049 373.518 4900.98
-702.108 374.231 4899.73
-703.454 381.707 4913.08
-703.315 380.065 4913.85
-704.141 388.366 4905.47
-704.163 388.304 4906.51
-704.187 388.071 4907.64
-703.492 385.99 4908.57
-703.514 385.223 4909.65
-703.382 384.38 4910.21
-703.137 383.044 4910.71
-704.318 388.692 4903.55
-704.078 388.278 4904.35
-702.982 379.326 4912.81
-702.79 379.779 4911.57
-702.549 378.977 4910.85
-702.232 377.165 4909.98
-702.327 378.341 4910.05
-702.114 376.816 4909.12
-701.683 376.736 4906.67
-701.584 376.43 4905.63
-701.268 376.969 4903.38
-701.527 375.533 4902.55
-701.561 375.806 4901.03
-701.524 376.659 4900.28
-702.292 376.793 4897.84
-702.027 376.068 4899.04
-702.573 378.333 4897.01
-702.798 379.58 4896.62
-703.152 380.913 4912.35
-702.824 382.29 4910.3
-703.18 386.552 4905.8
-703.326 386.372 4907.13
-702.595 384.279 4907.37
-702.429 384.792 4906.17
-702.484 383.515 4907.92
-702.245 382.504 4907.98
-701.921 382.046 4907.27
-704.237 388.437 4902.16
-703.164 386.68 4904.78
-703.996 387.861 4901.48
-702.588 381.152 4910.09
-702.338 380.59 4909.44
-702.068 380.1 4908.61
-701.836 378.879 4907.86
-701.706 377.73 4907.15
-701.24 378.307 4904.86
-701.231 377.589 4904.23
-701.179 377.339 4902.42
-701.095 378.052 4901.58
-701.507 377.521 4899.82
-701.774 378.189 4899.1
-702.047 380.269 4898.51
-702.167 383.903 4906.36
-702.97 386.406 4903.78
-703.634 387.069 4901.36
-703.733 386.467 4899.17
-701.619 381.618 4906.53
-701.043 378.259 4903.36
-700.956 378.887 4902.18
-702.093 379.245 4898.37
-703.007 382.243 4896.95
-702.805 380.994 4896.95
-702.435 385.195 4905.2
-702.298 385.185 4904.28
-701.838 382.736 4906.6
-702.915 386.077 4902.36
-703.484 386.418 4900.47
-701.186 379.231 4905.15
-701.339 378.627 4900.23
-702.895 383.158 4897.99
-701.485 380.424 4899.71
-701.925 384.682 4903.32
-701.838 383.92 4905.17
-701.684 382.998 4905.62
-701.43 380.165 4906.09
-703.173 385.564 4899.93
-702.601 385.103 4901.18
-701.307 381.42 4905.41
-700.895 379.684 4903.12
-700.986 379.108 4901.04
-702.012 381.217 4898.87
-701.402 382.575 4904.89
-701.929 384.48 4902.46
-703.478 385.456 4898.72
-703.218 384.412 4898.34
-702.045 382.452 4899.45
-701.534 381.388 4899.89
-701.665 383.916 4904.17
-701.002 380.644 4904.67
-702.275 383.39 4899.65
-701.829 383.794 4901.31
-701.123 382.169 4904.14
-701.244 383.182 4903.07
-700.746 380.131 4902.13
-701.476 382.797 4900.9
-701.126 381.661 4900.95
-701.041 380.78 4900.85
-701.257 383.116 4902.04
-700.746 381.102 4901.85
-700.78 380.927 4903.18
-700.912 382.028 4902.71
