-715.472 334.243 5869.96
-715.281 337.86 5865.53
-715.278 336.618 5866.75
-715.302 335.917 5867.7
-716.305 332.834 5878.7
-716.477 333.584 5880.8
-715.587 333.845 5871.44
-715.365 335.114 5869.31
-715.385 334.868 5871.14
-715.166 337.847 5866.53
-715.164 336.72 5868.19
-715.213 336.154 5868.93
-715.385 338.849 5864.84
-716.092 333.343 5877.33
-715.978 332.941 5875.12
-716.054 334.228 5878.29
-715.6 334.034 5872.86
-716.401 334.679 5880.89
-716.233 334.087 5879.56
-715.309 336.593 5876.09
-716.789 334.291 5882.81
-715.258 335.668 5870.12
-714.985 336.678 5871.46
-715.029 336.432 5872.3
-715.139 338.89 5866.48
-715.294 339.531 5865.64
-714.778 337.827 5869.99
-715.469 340.167 5864.65
-715.637 334.841 5875.76
-715.216 336.001 5874.15
-715.6 336.614 5877.75
-716.102 335.957 5879.85
-714.808 338.477 5875.2
-716.674 335.64 5882.34
-715.621 341.226 5864.56
-715.045 337.847 5867.54
-714.653 338.865 5869.13
-714.976 339.034 5867.35
-717.235 336.585 5884.85
-716.888 336.215 5883.29
-714.671 338.42 5874.09
-715.116 337.93 5876.39
-714.612 338.203 5873.11
-715.455 337.86 5877.93
-714.09 339.689 5871.41
-714.386 338.718 5871.94
-715.345 341.199 5865.72
-714.556 339.654 5868.61
-714.237 339.619 5870.43
-714.961 340.344 5867.11
-718.699 351.527 5873.13
-717.237 338.259 5884.52
-716.906 337.295 5883.33
-716.421 336.874 5881.37
-714.528 339.543 5874.68
-714.317 339.495 5873.38
-715.582 342.277 5865.51
-715.13 341.206 5866.61
-715.856 343.045 5864.82
-714.127 340.357 5869.95
-719.286 350.703 5878.74
-719.179 349.309 5880.95
-718.991 346.97 5884.14
-718.852 351.105 5875.24
-719.021 350.881 5877
-718.281 350.632 5873.57
-717.663 339.489 5885.94
-716.915 339.394 5883.09
-716.51 338.462 5881.85
-715.504 338.884 5878.38
-714.204 340.557 5873.6
-714.588 339.887 5875.49
-713.956 340.091 5872.52
-714.587 341.071 5868.02
-715.388 343.18 5866.24
-716.246 345.318 5865.59
-714.108 341.325 5869.29
-718.758 349.498 5878.77
-718.798 347.586 5882.67
-718.613 348.255 5880.77
-718.609 346.454 5883.44
-718.231 345.592 5883.3
-718.617 345.772 5884.65
-718.381 350.093 5875.71
-718.444 349.956 5876.58
-718.28 351.058 5871.66
-717.75 350.262 5870.39
-718.628 344.755 5885.98
-718.312 344.765 5884.79
-717.828 340.718 5885.94
-717.064 340.288 5883.36
-715.911 339.918 5879.74
-714.858 340.547 5876.5
-717.998 341.783 5885.95
-714.303 341.093 5874.75
-714.788 342.33 5867.5
-716.005 343.919 5865.31
-717.414 349.613 5868.58
-717.664 347.756 5878.14
-717.237 348.116 5875.96
-717.986 347.127 5880.34
-718.123 346.32 5882.01
-717.477 345.205 5881.14
-717.362 349 5873.82
-717.149 348.369 5874.97
-717.239 349.1 5872.82
-717.057 349.006 5871.85
-717.426 349.665 5869.5
-716.284 347.59 5873.38
-717.861 343.866 5884.03
-718.146 342.808 5885.87
-717.282 341.07 5883.76
-716.12 341 5880.23
-714.74 341.367 5876.02
-717.488 341.905 5884.04
-714.036 341.676 5873.65
-714.453 342.32 5874.91
-714.374 342.523 5868.48
-716.403 346.504 5866.45
-714.938 343.557 5867.35
-716.942 348.579 5868.23
-716.637 346.956 5876.17
-716.798 346.07 5878.22
-717.282 344.373 5881.33
-716.247 344.595 5878.43
-716.428 348.153 5871.26
-717.245 342.929 5882.61
-717.224 343.542 5881.96
-713.841 340.91 5870.98
-713.759 341.306 5872.51
-714.166 343.323 5869.1
-715.267 344.644 5867.32
-715.982 346.542 5867.69
-714.462 344.356 5868.98
-716.54 347.563 5867.7
-716.096 347.565 5869.86
-713.843 342.129 5869.97
-716.329 347.265 5874.65
-715.81 346.811 5873.77
-715.847 347.257 5872.15
-715.929 342.643 5879.08
-715.448 341.642 5878.19
-715.148 342.028 5877.08
-715.285 345.522 5868.29
-715.313 346.585 5871.2
-716.121 346.254 5875.71
-715.863 344.908 5876.85
-715.174 346.162 5872.68
-715.697 345.884 5874.87
-715.472 342.733 5877.86
-715.891 347.08 5868.98
-714.059 344.232 5869.79
-714.481 345.182 5870.01
-714.801 345.746 5871.29
-715.61 345.222 5875.53
-715.704 343.667 5877.88
-715.223 345.398 5874.21
-714.913 342.447 5876.21
-715.142 343.139 5876.7
-713.674 342.023 5871.67
-713.77 343.148 5870.24
-715.473 344.468 5876.17
-714.151 342.825 5873.97
-714.891 343.513 5875.66
-713.888 343.844 5871.27
-714.634 345.304 5872.47
-714.55 343.455 5874.67
-714.149 343.56 5873.3
-713.81 342.533 5872.48
-714.69 344.811 5873.33
