-719.7 293.04 5967.22
-719.318 294.311 5969.55
-719.426 294.378 5970.88
-719.105 294.677 5967
-719.202 294.354 5966.08
-719.274 294.028 5965.08
-719.17 294.186 5963.95
-718.773 295.758 5968.7
-718.285 296.769 5966.73
-718.733 296.291 5969.41
-717.974 297.125 5964.61
-718.149 296.616 5963.78
-719.078 294.612 5962.4
-719.052 294.952 5961.46
-718.779 296.609 5970.28
-719.212 295.915 5972.09
-717.021 299.37 5964.22
-717.808 298.2 5966.54
-716.59 299.797 5962.48
-718.417 296.115 5962.49
-718.931 295.535 5960.76
-718.871 296.945 5957.41
-718.475 297.806 5970.02
-718.91 297.27 5971.87
-716.65 300.257 5963.88
-716.252 300.647 5962.56
-719.136 297.261 5973.25
-716.799 299.438 5961.56
-718.171 296.832 5961.32
-718.789 297.598 5956.62
-717.974 299.426 5969.15
-717.585 299.402 5967.05
-718.405 298.961 5970.97
-719.269 297.924 5974.48
-718.665 298.968 5972.08
-715.63 302.058 5961.08
-716.179 300.705 5960.69
-718.819 296.296 5959.22
-718.306 297.446 5958.92
-718.237 298.051 5958.11
-718.605 298.645 5956
-717.49 300.675 5967.98
-716.937 301.079 5965.73
-717.72 300.742 5969.11
-715.962 301.295 5961.86
-719.191 299.006 5974.76
-717.899 300.964 5969.94
-719.238 299.973 5975.42
-715.436 302.147 5959.63
-715.835 301.359 5960.06
-717.752 297.737 5960.71
-717.504 298.468 5959.77
-718.157 298.697 5957.25
-717.197 299.509 5958.66
-719.976 311.595 5971.17
-719.763 312.188 5967.02
-719.869 311.535 5970.22
-719.804 312.831 5963.53
-719.781 310.016 5972.25
-716.589 301.828 5965.02
-716.324 301.53 5963.78
-718.79 299.992 5973.17
-717.048 302.069 5967.07
-719.298 301.108 5976.06
-718.918 300.788 5974.11
-716.539 300.199 5959.7
-716.204 300.912 5958.74
-716.845 300.423 5957.77
-719.59 309.89 5971.09
-719.664 311.359 5968.84
-719.521 310.284 5969.94
-719.683 312.581 5961.91
-718.265 300.014 5955.56
-718.953 305.276 5953.01
-719.654 309.173 5972.87
-719.79 307.855 5975.09
-716.113 302.478 5963.96
-715.552 302.56 5961.84
-718.395 301.154 5971.97
-716.857 301.899 5966.14
-719.041 301.896 5974.81
-719.433 311.8 5965.02
-719.333 310.712 5968.04
-719.254 309.851 5969.1
-719.248 311.089 5966.21
-719.254 310.73 5956.32
-718.871 303.319 5953.1
-719.569 308.353 5973.38
-719.706 305.992 5976.23
-719.522 306.265 5975.18
-719.405 306.749 5974.42
-719.143 306.915 5973.26
-715.87 302.13 5962.6
-717.702 302.067 5969.63
-719.086 302.866 5974.86
-718.513 302.123 5972.55
-719.267 309.144 5970.52
-719.428 308.889 5971.94
-719.281 308.096 5972.47
-719.017 310.136 5967.27
-719.364 311.9 5963.38
-719.391 311.51 5958.04
-719.183 311.492 5959.68
-718.143 301.253 5955
-718.548 301.754 5953.96
-716.079 301.695 5957.58
-718.968 307.16 5972.35
-719.316 304.721 5975.44
-718.817 304.853 5973.27
-719.497 304.016 5976.57
-718.619 305.273 5972.28
-718.14 306.022 5970.18
-715.246 302.949 5961.08
-715.726 303.08 5963.22
-718.972 303.602 5974.38
-717.842 302.796 5970.33
-716.704 303.211 5966.27
-715.662 301.772 5958.39
-718.598 307.937 5969.73
-718.638 307.273 5970.88
-718.617 308.703 5968.38
-718.684 310.172 5965.44
-719.258 311.745 5962.06
-719.086 307.025 5953.03
-719.226 309.939 5955.41
-718.886 310.44 5957.64
-718.93 310.801 5958.61
-719.16 311.588 5960.9
-718.798 304.228 5953.1
-716.774 301.498 5956.61
-716.592 302.644 5956.05
-718.419 303.623 5972.27
-717.839 304.4 5970.05
-717.763 305.175 5969.61
-717.999 306.367 5969.37
-717.656 307.895 5966.34
-717.846 307.06 5967.98
-718.911 310.792 5964.47
-717.781 308.602 5965.54
-717.537 308.7 5964.12
-718.788 310.848 5963.4
-718.859 308.364 5954.25
-718.817 306.058 5953.46
-718.515 306.851 5954.07
-718.568 310.594 5962.03
-718.058 302.59 5954.62
-715.22 302.63 5958.11
-716.564 304.133 5965.93
-716.502 305.214 5965.63
-715.413 303.352 5962.42
-715.931 303.425 5964.24
-716.604 306.736 5964.67
-717.611 309.212 5962.93
-717.835 306.756 5954.92
-718.643 310.7 5961.13
-717.481 309.32 5961.5
-718.424 310.316 5959.5
-718.309 303.942 5953.93
-718.324 305.09 5953.87
-715.683 303.188 5956.8
-716.096 305.202 5964.45
-714.948 303.165 5959.25
-716.613 307.309 5963.89
-716.687 307.81 5962.99
-718.696 308.817 5955.66
-717.788 305.461 5954.5
-718.353 310.069 5958.52
-717.406 309.248 5959.78
-716.737 308.26 5962.07
-716.839 304.792 5955.4
-717.074 303.42 5955.39
-715.59 304.345 5963.52
-714.872 303.529 5960.29
-716.314 306.936 5963.15
-717.032 308.442 5957.86
-718.74 309.705 5956.37
-716.96 308.756 5958.96
-716.447 308.168 5960.85
-714.544 304.008 5958.81
-716.232 307.397 5961.95
-717.221 308.063 5956.96
-717.763 308.03 5956.17
-717.83 307.484 5955.47
-716.411 303.985 5955.93
-715.478 304.595 5962.68
-716.115 306.227 5963.78
-715.097 303.669 5961.63
-716.417 306.514 5956.35
-715.942 307.33 5957.79
-716.242 308.01 5959.42
-715.173 304.085 5957.17
-715.654 306.296 5957.03
-715.811 307.425 5960.44
-716.213 304.978 5956.08
-714.686 304.507 5959.89
-715.224 304.984 5961.47
-715.779 306.278 5962.47
-715.681 306.563 5961.56
-715.481 307.013 5958.83
-715.487 305.222 5956.85
-714.774 304.343 5958
-715.085 305.857 5960.82
-714.68 305.385 5959.76
-714.977 306.216 5959.62
-714.85 305.559 5957.63
-714.379 305.182 5958.87
