-786.627 693.53 3304.49
-785.954 693.916 3303.53
-787.326 692.1 3306.66
-786.97 692.184 3306.24
-786.802 692.758 3305.44
-786.783 691.557 3306.65
-786.237 690.655 3306.97
-786.488 691.556 3306.36
-783.322 689.09 3305.43
-784.371 689.288 3306.5
-783.978 689.186 3306.12
-784.574 689.671 3306.34
-783.509 689.196 3305.52
-784.88 689.946 3306.35
-785.358 690.062 3306.63
-785.767 690.625 3306.51
-782.764 689.074 3304.73
-782.257 689.049 3304.09
-761.081 668.077 3338.21
-761.037 668.675 3337.32
-760.071 669.343 3335.93
-759.924 669.769 3335.2
-761.856 690.295 3304.21
-761.98 690.327 3304.08
-762.145 690.316 3304.04
-762.589 690.04 3304.48
-762.401 690.251 3304.03
-762.676 690.083 3304.37
-762.779 690.095 3304.36
-762.9 690.082 3304.46
-762.979 690.083 3304.52
-761.746 690.221 3304.43
-777.862 687.914 3307.98
-777.651 687.882 3309.03
-773.75 688.138 3307.68
-770.555 688.512 3307.49
-768.632 688.763 3306.58
-776.633 688.145 3304.89
-777.489 688.021 3304.55
-776.732 688.151 3306.13
-766.089 689.206 3305.68
-766.182 689.262 3305.44
-763.786 689.869 3305.35
-763.859 689.893 3305.29
-762.924 690.289 3303.79
-762.781 690.292 3303.84
-763.078 690.279 3303.82
-779.208 687.837 3303.96
-779.844 687.839 3303.89
-778.466 687.861 3304.1
-780.2 687.909 3303.13
-780.338 688.015 3303.04
-780.187 688.135 3302.15
-780.33 688.242 3302.26
-780.269 688.269 3301.94
-780.378 688.367 3301.97
-780.504 688.475 3302.05
-780.133 688.037 3302.34
-779.89 688.022 3301.84
-781.219 688.813 3303.03
-781.383 688.827 3303.28
-781.511 688.871 3303.4
-781.004 688.765 3302.7
-780.637 688.585 3302.16
-781.631 688.919 3303.49
-781.598 689.045 3303.15
-781.806 689.041 3303.48
-767.141 685.134 3313.19
-766.874 685.998 3312.05
-765.809 681.576 3316.5
-767.168 682.247 3316.51
-768.17 683.27 3315.9
-759.075 673.234 3327.62
-757.296 673.863 3325.3
-758.181 672.048 3330.21
-757.718 672.606 3328.83
-758.965 671.432 3331.76
-758.586 670.864 3332.74
-755.822 676.188 3318.61
-757.981 670.412 3333.34
-761.051 678.57 3317.82
-761.82 679.116 3317.45
-759.617 678.166 3317.23
-758.631 677.671 3317.39
-757.343 677.398 3316.83
-755.02 677.021 3315.88
-764.474 687.617 3308.37
-765.608 686.997 3310.14
-764.246 687.582 3308.32
-763.586 688.482 3307.22
-763.432 688.315 3307.3
-762.202 689.352 3306
-761.605 690.026 3304.93
-761.599 690.204 3304.54
-703.699 625.621 3319.11
-702.652 626.235 3316.21
-702.447 626.627 3315.09
-702.841 627.264 3314.58
-703.168 627.84 3313.97
-702.259 628.073 3310.2
-701.975 628.145 3308.85
-702.466 629.131 3306.43
-702.105 628.815 3306.29
-703.255 628.703 3311.24
-701.224 627.955 3305.68
-700.864 627.457 3305.59
-701.512 628.195 3306.14
-701.809 628.724 3305.45
-700.47 627.021 3305.17
-700.069 626.77 3304.61
-703.39 628.327 3313.2
-703.637 628.749 3312.54
-699.233 625.911 3304.2
-699.715 626.424 3303.94
-696.425 623.33 3301.45
-696.255 623.21 3300.55
-695.942 623.028 3299.58
-694.66 622.261 3298.46
-694.857 622.427 3298.29
-693.81 621.864 3296.42
-693.467 621.632 3295.83
-693.397 621.633 3295.15
-693.381 621.541 3294.14
-693.407 621.518 3293.71
-693.435 621.47 3293.29
-693.558 621.501 3292.93
-693.549 621.704 3294.57
-693.505 621.717 3294.97
-699.347 623.167 3280.94
-699.143 623.061 3281.58
-699.027 622.943 3282.31
-701.263 626.972 3277.65
-700.946 626.745 3278.32
-701.11 627.029 3278.2
-700.767 625.468 3277.55
-700.793 626.51 3278.53
-700.653 625.341 3277.81
-700.381 624.079 3277.54
-700.157 623.68 3277.95
-699.959 623.872 3279.04
-699.543 623.39 3280.44
-699.702 623.749 3280.04
-701.258 627.268 3278.11
-698.805 623.133 3285.12
-698.869 623.356 3287.23
-699.065 623.791 3288.85
-699.421 624.612 3291.56
-699.736 625.41 3295.17
-698.909 623.142 3283.96
-699.806 625.786 3298.12
-699.755 625.805 3299.21
-699.794 625.996 3300.33
-699.899 626.332 3301.35
-699.767 626.334 3302.2
-699.909 626.618 3302.07
-699.633 626.283 3303
-696.809 623.621 3299.72
-696.318 623.313 3299.02
-696.507 623.435 3298.23
-695.269 622.749 3296.75
-695.199 622.695 3296.15
-693.985 621.93 3294.34
-694.055 621.927 3293.98
-694.006 621.837 3293.59
-694.176 622.145 3295.28
-693.912 621.928 3294.69
-693.846 621.693 3293.14
-731.816 644.189 3257.82
-732.089 644.577 3257.8
-733.741 647.097 3257.11
-733.606 646.958 3257.34
-734.019 647.555 3257.28
-733.282 646.498 3257.66
-733.477 646.832 3257.63
-733.05 646.153 3257.96
-734.559 648.384 3257.32
-734.437 648.594 3257.87
-734.256 648.323 3257.87
-734.105 648.051 3257.83
-732.678 645.547 3258.08
-732.393 645.072 3257.86
-732.879 645.928 3258.33
-734.744 648.683 3257.38
-734.977 649.014 3257.39
-735.192 649.396 3257.51
-704.854 631.38 3280.54
-715.102 633.223 3269.42
-715.816 633.381 3268.87
-717.479 633.853 3267.28
-718.522 634.233 3265.8
-716.646 633.585 3268.33
-714.443 633.136 3270.37
-712.529 632.897 3271.86
-720.218 634.818 3264.71
-710.646 632.735 3274.18
-709.003 632.412 3276.17
-707.796 632.143 3277.27
-706.804 631.874 3278.1
-705.83 631.639 3279.3
-723.582 636.246 3262.64
-723.025 635.936 3263.04
-722.427 635.629 3263.34
-722.109 635.472 3263.82
-721.296 635.179 3264.29
-725.803 637.671 3260.51
-725.815 637.665 3261.12
-725.878 637.701 3261.65
-725.545 637.442 3262.1
-725.142 637.132 3262.38
-724.59 636.798 3262.59
-724.082 636.507 3262.79
-727.625 639.539 3258.93
-726.968 638.875 3259.48
-726.554 638.435 3259.85
-726.232 638.081 3260.32
-700.498 629.06 3284.7
-700.5 629.363 3285.42
-700.425 629.217 3285.33
-700.594 629.546 3285.75
-700.72 629.711 3285.93
-700.82 629.968 3286.55
-701.005 630.291 3287.13
-700.569 628.896 3284
-700.779 627.677 3280.34
-700.966 627.592 3279.49
-700.514 627.777 3281.49
-700.484 628.087 3282.35
-700.492 628.528 3283.36
-700.403 628.747 3284.19
-701.084 627.256 3278.61
-700.966 627.399 3279.14
-703.117 631.06 3284.14
-702.114 631.108 3286.68
-702.374 631.16 3286.38
-702.538 631.166 3286.11
-702.232 631.246 3287.21
-701.785 630.976 3287.23
-701.854 631.063 3287.46
-702.026 631.214 3287.58
-701.891 631.136 3287.8
-701.597 630.904 3287.82
-701.217 630.585 3287.7
-701.104 630.492 3287.7
-701.284 630.669 3287.94
-701.357 630.756 3288.2
-700.977 630.371 3287.76
-701.437 630.842 3288.44
-728.454 640.364 3258.8
-729.48 641.444 3258.84
-730.207 642.285 3258.91
-731.096 643.375 3258.33
-730.735 642.934 3258.86
-731.502 643.848 3258.24
-740.741 667.585 3270.17
-741.384 667.803 3270.05
-741.033 667.908 3270.33
-740.554 667.654 3270.34
-740.381 667.69 3270.48
-740.261 667.364 3270.24
-740.083 667.157 3270.16
-739.935 666.3 3269.52
-739.878 666.928 3270.07
-741.714 668.088 3270.17
-745.014 668.338 3269.23
-743.667 668.325 3269.69
-745.603 668.72 3269.39
-742.288 668.522 3270.33
-741.841 668.472 3270.49
-746.544 669.312 3269.56
-746.062 669.247 3269.73
-747.097 669.673 3269.77
-747.566 670.051 3270.05
-747.952 670.393 3270.37
-748.488 670.733 3270.59
-749.035 671.288 3271.19
-749.478 671.524 3271.29
-749.986 671.838 3271.43
-739.567 664.731 3268.55
-736.564 657.232 3263.67
-737.098 658.56 3264.6
-737.337 659.206 3265.11
-737.874 660.374 3265.96
-738.381 661.65 3266.79
-738.268 661.257 3266.53
-738.665 662.75 3267.57
-739.227 664.753 3268.8
-739.408 664.803 3268.71
-735.324 650.129 3258.19
-735.747 653.246 3260.77
-735.914 653.587 3260.92
-735.541 651.746 3259.59
-735.442 651.159 3259.12
-736.047 655.516 3262.49
-736.214 656.573 3263.31
-768.635 682.715 3283.38
-769.799 683.032 3283.49
-769.163 682.88 3283.43
-770.769 683.216 3283.66
-752.843 674.687 3275.17
-752.88 675.081 3276.03
-753.243 675.374 3276.43
-754.21 676.065 3277.6
-753.077 675.59 3277.17
-755.734 677.138 3279.74
-757.306 677.995 3281.68
-754.569 676.775 3279.64
-753.873 676.261 3278.53
-757.497 678.874 3285.35
-757.349 679.388 3287.48
-758.826 679.975 3287.65
-758.071 679.835 3288.33
-759.451 680.268 3287.78
-760.267 680.63 3287.92
-763.36 680.978 3284.99
-761.827 680.979 3286.93
-761.026 681.004 3288.13
-767.699 682.529 3283.61
-767.073 682.332 3283.7
-766.659 682.259 3283.98
-765.741 681.935 3284.26
-766.369 682.265 3284.34
-768.273 682.716 3283.68
-751.099 673.124 3273.15
-751.778 673.886 3274.26
-750.235 672.318 3272.21
-776.187 685.056 3287
-777.423 686.434 3290.29
-778.167 687.267 3293.05
-777.755 687.12 3292.49
-773.16 683.898 3284.77
-771.955 683.474 3283.93
-778.958 687.674 3294.73
-778.339 687.424 3293.85
-778.614 687.613 3294.64
-778.325 687.522 3294.37
-779.374 687.875 3295.33
-779.063 687.79 3295.22
-780.227 688.535 3296.28
-779.892 688.4 3296.55
-779.778 688.32 3296.44
-779.688 688.239 3296.24
-779.458 688.122 3296.28
-779.346 687.979 3295.81
-779.24 687.996 3296.21
-780.621 688.776 3296.22
-780.377 688.623 3296.31
-781.261 688.881 3295.56
-781.004 688.884 3295.9
-780.768 688.886 3296.23
-781.458 688.914 3295.37
-781.803 688.828 3294.66
-782.46 688.892 3293.92
-782.038 688.879 3294.43
-783.468 689.052 3293.15
-784.488 689.4 3292.71
-781.665 688.994 3295.24
-786.542 690.341 3292.76
-785.822 690.064 3292.76
-785.149 689.819 3292.85
-791.747 693.251 3295.54
-791.114 692.619 3294.48
-790.769 692.33 3294.02
-791.238 692.986 3295.11
-789.675 691.981 3293.81
-790.247 692.22 3294
-788.878 691.628 3293.55
-787.94 691.241 3293.32
-787.298 690.831 3293.07
-789.778 695.156 3299.15
-791.965 693.585 3296.16
-792.088 693.865 3296.63
-792.116 694.093 3297.01
-791.09 694.644 3298.04
-789.54 695.144 3298.97
-788.884 695.569 3300
-788.889 695.513 3299.81
-789.171 695.412 3299.62
-785.029 695.093 3300.61
-785.247 695.156 3300.53
-784.619 694.846 3300.71
-784.815 694.982 3300.62
-784.676 694.881 3300.6
-785.439 693.999 3303
-785.229 693.883 3302.89
-785.242 694.122 3302.63
-785.3 694.236 3302.52
-785.14 694.078 3302.49
-785.123 694.165 3302.33
-784.844 694.555 3301.46
-784.773 694.37 3301.62
-784.973 694.701 3301.43
-784.86 694.142 3302.03
-784.588 694.115 3301.73
-784.699 694.61 3301.21
-784.619 694.662 3301.04
-784.531 694.708 3300.87
-784.501 694.758 3300.74
-788.412 695.633 3299.98
-787.98 695.679 3299.94
-787.651 695.69 3299.91
-787.14 695.551 3299.79
-787.194 695.546 3299.68
-787.413 695.625 3299.76
-785.868 695.277 3300.05
-786.009 695.294 3299.97
-786.445 695.392 3299.95
-786.088 695.287 3299.86
-786.455 695.363 3299.81
-786.652 695.415 3299.81
-786.746 695.426 3299.73
-786.9 695.464 3299.7
-785.457 695.213 3300.44
-785.657 695.267 3300.36
-785.489 695.203 3300.18
-785.696 695.251 3300.11
-786.299 693.079 3304.65
-785.712 693.233 3304
-786.413 692.46 3305.37
-786.137 691.63 3305.95
-782.964 689.176 3304.79
-783.955 689.346 3305.87
-784.321 689.505 3306.16
-783.507 689.357 3305.29
-784.519 689.894 3305.98
-783.147 689.289 3304.88
-784.785 690.252 3305.9
-785.229 690.45 3306.09
-785.746 691.592 3305.59
-782.462 689.151 3304.14
-781.954 689.134 3303.48
-761.065 667.462 3339.13
-759.756 667.526 3338.28
-759.46 668.233 3337.16
-758.59 669.048 3335.66
-757.027 669.754 3333.92
-757.473 670.097 3333.59
-761.56 666.764 3340.37
-761.741 665.707 3341.85
-761.761 690.415 3304.04
-761.616 690.414 3304.1
-761.918 690.405 3304
-762.096 690.384 3303.96
-762.313 690.306 3303.99
-762.528 690.248 3303.99
-762.66 690.242 3303.95
-762.63 690.297 3303.88
-761.387 690.469 3304.07
-777.171 688.071 3307.57
-776.287 688.076 3308.04
-773.319 688.346 3307.01
-770.67 688.586 3307.16
-768.641 688.826 3306.35
-766.243 689.326 3305.19
-776.721 688.062 3304.47
-777.591 687.937 3304.25
-776.035 688.284 3304.97
-776.164 688.288 3306.17
-763.975 689.907 3305.18
-764.112 689.918 3305.05
-763.194 690.284 3303.85
-762.677 690.376 3303.76
-762.813 690.371 3303.71
-762.538 690.371 3303.82
-762.922 690.381 3303.64
-779.033 687.861 3303.34
-779.684 687.877 3303.22
-778.285 687.837 3303.73
-779.787 687.909 3302.42
-779.979 687.965 3302.35
-779.623 688.024 3301.3
-779.999 688.115 3301.58
-780.031 688.221 3301.32
-779.888 688.121 3301.15
-780.153 688.323 3301.41
-780.27 688.427 3301.49
-779.349 687.957 3301.57
-779.14 687.956 3300.93
-781.138 688.894 3302.63
-780.937 688.794 3302.43
-781.302 688.969 3302.79
-781.431 689.03 3302.88
-780.676 688.656 3302.09
-780.333 688.507 3301.47
-781.388 689.104 3302.58
-781.602 689.171 3302.85
-765.664 686.746 3310.56
-766.433 685.052 3312.81
-765.055 681.461 3315.99
-766.29 682.182 3315.87
-764.066 680.856 3316.24
-766.978 683.222 3315.14
-762.772 679.903 3316.79
-763.304 680.472 3316.19
-756.623 673.121 3327.2
-756.086 674.179 3323.97
-755.683 673.452 3326.09
-755.648 675.597 3320.06
-755.957 671.924 3329.76
-754.58 672.305 3328.66
-754.333 672.613 3327.91
-756.253 671.598 3330.49
-756.078 671.233 3331.13
-754.742 675.663 3319.17
-754.489 676.156 3317.67
-755.551 670.829 3331.57
-762.063 679.6 3316.63
-760.416 678.718 3316.82
-761.231 679.147 3316.75
-758.516 678.146 3316.04
-759.446 678.588 3315.88
-757.227 678.063 3314.92
-756.22 678.467 3312.87
-753.646 677.713 3313.15
-752.431 676.473 3315.19
-752.766 675.964 3316.77
-751.398 677.45 3312.21
-762.239 688.977 3306.33
-764.093 687.281 3308.53
-764.106 687.452 3308.33
-762.166 688.933 3306.33
-762.232 689.211 3306.13
-762.093 689.195 3306.1
-761.452 690.048 3304.89
-761.244 690.473 3304.12
-761.178 690.406 3304.3
-704.937 625.982 3320.56
-704.181 626.885 3317.85
-703.411 627.018 3316.23
-703.55 627.54 3315.52
-704.007 628.218 3315.05
-703.995 628.514 3314.29
-703.369 629.187 3309.49
-702.862 629.296 3307.19
-702.253 629.769 3304.24
-702.052 629.586 3304.14
-701.81 629.608 3303.47
-703.936 629.186 3311.94
-701.304 628.46 3304.33
-701.549 628.595 3304.84
-701.051 627.946 3304.84
-700.751 627.485 3304.8
-701.639 629.471 3303.3
-700.503 627.245 3304.45
-700.171 626.986 3304.02
-704.098 628.855 3313.61
-704.385 629.244 3313.2
-699.902 626.681 3303.44
-695.071 622.592 3298.1
-694.032 622.02 3296.27
-693.592 621.764 3295.65
-693.62 621.706 3294.2
-693.712 621.716 3293.85
-693.637 621.612 3293.41
-693.821 621.917 3295.06
-693.779 621.904 3295.51
-699.256 623.337 3281.39
-699.106 623.214 3282.02
-699.017 623.154 3282.97
-700.775 627.004 3279.11
-700.942 627.104 3278.8
-700.622 626.531 3279.04
-700.601 626.958 3279.53
-700.57 625.468 3278.18
-700.454 625.447 3278.54
-700.178 624.103 3278.35
-700.02 624.27 3279.2
-699.786 624.132 3280.01
-699.44 623.668 3281.05
-699.58 623.976 3280.78
-698.838 623.302 3286.1
-699.059 623.71 3288.01
-699.133 624.009 3289.08
-699.447 624.693 3291.49
-699.767 625.481 3295.02
-699.843 625.807 3297.2
-698.923 623.377 3284.65
-699.845 626.065 3298.92
-699.842 626.112 3299.8
-699.895 626.389 3300.75
-699.947 626.59 3301.37
-700.015 626.847 3301.91
-699.812 626.598 3302.81
-700.005 626.921 3302.76
-695.088 622.631 3297.58
-695.191 622.711 3297.23
-694.149 622.124 3295.82
-732.002 644.433 3258.27
-731.677 644.038 3258.55
-732.257 644.894 3258.44
-733.809 647.329 3257.42
-733.657 647.149 3257.62
-733.951 647.832 3257.87
-733.214 646.459 3258
-733.376 646.733 3257.96
-733.544 647.033 3257.95
-733.068 646.276 3258.33
-734.662 648.902 3257.84
-734.636 649.177 3258.3
-734.457 648.938 3258.36
-734.259 648.632 3258.35
-734.079 648.342 3258.33
-732.514 645.351 3258.6
-732.722 645.732 3258.7
-732.913 646.078 3258.69
-734.879 649.204 3257.82
-735.102 649.619 3257.94
-704.638 631.376 3281.33
-703.141 631.137 3284.47
-715.425 633.333 3269.65
-716.228 633.498 3269.1
-717.728 633.926 3267.5
-718.787 634.33 3265.95
-717.157 633.729 3268.4
-714.724 633.231 3270.57
-712.676 632.976 3272.18
-720.479 634.904 3264.84
-710.637 632.763 3274.61
-708.771 632.409 3276.87
-707.03 632.016 3278.58
-706.267 631.809 3279.14
-705.078 631.531 3281.04
-723.618 636.234 3263.02
-723.349 636.067 3263.41
-722.744 635.766 3263.61
-721.793 635.348 3264.38
-722.449 635.623 3264.11
-721.018 635.085 3264.85
-726.127 637.946 3260.79
-726.202 637.99 3261.26
-726.24 637.986 3261.81
-725.919 637.713 3262.11
-725.804 637.57 3262.58
-725.459 637.343 3262.57
-725.015 637.02 3262.81
-724.495 636.714 3263.04
-723.984 636.414 3263.28
-727.629 639.527 3259.43
-728.322 640.214 3259.39
-727.237 639.106 3259.9
-726.656 638.505 3260.22
-726.538 638.349 3260.75
-700.365 628.922 3284.85
-700.324 629.079 3285.4
-700.347 629.394 3286.26
-700.458 629.577 3286.47
-700.292 629.256 3286.14
-700.637 629.796 3286.62
-700.86 630.148 3287.2
-700.858 630.248 3287.8
-700.786 627.486 3279.88
-700.559 627.534 3280.86
-700.261 627.638 3282.18
-700.296 627.989 3282.86
-700.298 628.378 3283.61
-700.263 628.615 3284.37
-700.238 628.788 3284.99
-700.797 627.274 3279.43
-702.624 631.322 3286.97
-702.414 631.299 3287.28
-702.768 631.283 3286.4
-702.13 631.311 3288.16
-701.956 631.251 3288.34
-701.668 630.989 3288.06
-701.717 631.067 3288.42
-701.808 631.157 3288.59
-701.49 630.919 3288.88
-701.024 630.508 3288.46
-701.12 630.595 3288.58
-700.934 630.411 3288.45
-701.203 630.682 3288.89
-701.273 630.763 3289.25
-700.839 630.304 3288.54
-701.303 630.817 3289.8
-728.931 640.843 3259.11
-730.011 642.048 3259.45
-729.393 641.321 3259.46
-730.577 642.721 3259.45
-731.294 643.628 3258.81
-730.963 643.232 3259.09
-740.732 667.927 3270.5
-741.418 668.29 3270.52
-741.04 668.256 3270.67
-740.568 668.022 3270.69
-740.235 667.874 3270.74
-740.156 667.538 3270.47
-740.407 668.029 3270.79
-739.97 667.315 3270.37
-739.726 666.327 3269.67
-739.772 667.162 3270.35
-739.676 666.848 3270.13
-743.853 668.868 3270.19
-743.757 668.595 3269.94
-742.539 668.831 3270.57
-745.583 669.156 3269.88
-742.074 668.838 3270.76
-741.712 668.748 3270.83
-746.765 669.877 3270.23
-746.042 669.738 3270.36
-747.424 670.216 3270.39
-747.785 670.604 3270.81
-748.114 670.841 3271.04
-748.609 671.204 3271.33
-749.705 672.105 3272.22
-749.11 671.872 3272.15
-737.109 658.915 3265
-737 658.793 3264.98
-736.427 657.217 3263.77
-737.527 660.229 3266.17
-737.918 660.659 3266.28
-738.427 662.611 3267.64
-738.204 661.75 3267.05
-739.056 664.75 3268.92
-739.53 666.314 3269.78
-739.315 666.328 3269.95
-735.242 650.311 3258.54
-735.621 653.378 3261.01
-735.904 655.362 3262.47
-735.451 653.026 3260.88
-735.299 651.255 3259.42
-735.315 653.038 3261.05
-736.078 656.498 3263.37
-768.862 682.909 3283.78
-770.259 683.254 3283.93
-769.463 683.081 3283.81
-771.381 683.41 3284.03
-752.381 674.594 3275.36
-752.172 674.904 3276.2
-752.508 675.233 3276.71
-752.207 675.427 3277.37
-752.688 675.793 3278.07
-755.085 677.186 3280.71
-756.385 677.946 3282.61
-756.404 678.754 3286.09
-753.457 676.452 3279.64
-754.04 676.941 3280.89
-756.706 679.381 3288.23
-757.243 679.702 3289.12
-758.923 680.331 3288.99
-758.321 680.122 3289.2
-757.599 679.922 3289.72
-759.517 680.604 3289.08
-760.13 680.855 3289.05
-763.114 681.244 3285.99
-764.688 681.563 3284.71
-762.323 681.382 3287.35
-761.512 681.307 3288.34
-760.763 681.116 3289.01
-767.308 682.53 3283.96
-767.831 682.697 3283.99
-766.982 682.503 3284.24
-765.919 682.181 3284.64
-766.75 682.534 3284.57
-766.354 682.451 3284.8
-768.432 682.878 3284.05
-751.226 673.7 3274.27
-750.72 672.983 3273.19
-776.794 685.878 3288.87
-774.333 684.402 3285.75
-777.201 686.911 3291.74
-777.909 687.283 3293.36
-777.428 687.13 3292.78
-771.856 683.656 3284.52
-778.69 687.718 3295.1
-777.985 687.419 3294.06
-778.317 687.631 3294.91
-777.98 687.528 3294.61
-779.07 687.875 3295.73
-778.685 687.793 3295.61
-780.01 688.467 3296.58
-779.653 688.32 3296.85
-779.543 688.255 3296.81
-779.442 688.179 3296.67
-779.153 688.021 3296.61
-778.796 687.878 3296.23
-778.733 687.916 3296.68
-780.514 688.761 3296.48
-780.399 688.662 3296.43
-780.102 688.523 3296.63
-781.365 689.03 3295.71
-781.158 688.988 3295.9
-780.94 689.01 3296.23
-780.719 688.912 3296.43
-781.55 689.039 3295.48
-781.843 689.076 3295.14
-782.954 689.144 3293.89
-782.415 689.091 3294.41
-782.049 689.111 3294.9
-783.616 689.288 3293.45
-784.234 689.44 3293.07
-781.718 689.143 3295.45
-786.167 690.341 3292.98
-786.81 690.71 3293.2
-785.519 690.148 3293.06
-784.838 689.826 3293.15
-791.412 693.34 3295.73
-790.63 692.439 3294.26
-790.822 692.75 3294.75
-790.92 693.111 3295.37
-789.731 692.199 3294.13
-788.991 691.858 3293.86
-790.134 692.434 3294.38
-788.16 691.498 3293.62
-787.536 691.177 3293.48
-788.954 695.387 3299.42
-791.59 693.802 3296.53
-791.298 693.626 3296.24
-790.546 694.503 3297.71
-790.657 694.643 3297.98
-789.271 695.142 3298.81
-788.749 695.358 3299.21
-788.433 695.58 3299.81
-788.682 695.468 3299.55
-788.439 695.528 3299.63
-784.908 695.031 3300.42
-784.8 694.964 3300.48
-785.079 695.091 3300.34
-784.437 694.709 3300.58
-784.529 694.771 3300.51
-784.643 694.849 3300.44
-785.449 693.184 3303.79
-785.033 693.742 3302.82
-785.246 693.108 3303.65
-785.069 693.948 3302.61
-784.922 693.803 3302.58
-784.911 693.886 3302.44
-784.763 693.922 3302.21
-784.476 694.223 3301.45
-784.481 694.39 3301.23
-784.546 693.916 3301.95
-784.263 694.015 3301.45
-784.308 693.889 3301.67
-784.394 694.509 3300.97
-784.325 694.582 3300.78
-784.335 694.639 3300.65
-787.95 695.643 3299.79
-787.598 695.662 3299.75
-786.942 695.454 3299.58
-787.065 695.476 3299.52
-787.32 695.564 3299.59
-785.456 695.148 3299.91
-785.605 695.168 3299.84
-785.732 695.181 3299.77
-786.131 695.269 3299.74
-785.798 695.171 3299.66
-786.151 695.244 3299.61
-786.431 695.319 3299.64
-786.558 695.342 3299.58
-786.716 695.382 3299.55
-785.271 695.143 3300.25
-785.069 695.067 3300.05
-785.312 695.131 3299.99
-785.916 692.534 3304.86
-785.64 692.485 3304.65
-782.706 689.259 3304.26
-783.389 689.5 3304.91
-783.926 689.495 3305.62
-784.271 689.737 3305.8
-783.036 689.388 3304.56
-784.48 690.115 3305.65
-784.766 690.509 3305.58
-785.411 691.515 3305.3
-782.23 689.234 3303.64
-781.769 689.233 3302.99
-760.758 664.933 3342.27
-759.822 666.783 3339.41
-758.607 667.111 3338.27
-757.662 667.946 3336.71
-756.694 668.757 3335.2
-755.961 669.341 3334.06
-755.108 670.297 3332.23
-754.2 669.805 3332.69
-760.377 665.907 3340.83
-761.581 690.507 3303.81
-761.484 690.489 3303.95
-761.816 690.479 3303.82
-762.056 690.447 3303.83
-762.269 690.368 3303.92
-762.472 690.307 3303.93
-762.345 690.394 3303.85
-760.95 690.576 3303.77
-761.093 690.579 3303.72
-776.001 688.237 3307.23
-773.325 688.511 3306.41
-770.71 688.665 3306.82
-770.847 688.724 3306.51
-768.644 688.899 3306.1
-766.305 689.393 3304.92
-764.217 689.947 3304.85
-777.488 687.876 3304
-776.093 688.212 3304.59
-776.721 688 3304.17
-775.46 688.424 3305.08
-775.362 688.425 3306.22
-763.326 690.278 3303.92
-763.006 690.399 3303.53
-762.384 690.454 3303.62
-762.298 690.51 3303.38
-762.545 690.47 3303.44
-762.187 690.477 3303.62
-762.635 690.486 3303.31
-779.446 687.871 3302.53
-778.646 687.838 3303.03
-779.027 687.828 3302.51
-777.992 687.818 3303.28
-778.832 687.872 3301.67
-779.063 687.915 3301.58
-779.539 688.038 3300.81
-779.159 687.973 3300.49
-779.879 688.215 3300.79
-779.797 688.139 3300.7
-779.541 688.067 3300.46
-779.975 688.302 3300.89
-780.027 688.376 3300.86
-778.745 687.884 3300.61
-778.776 687.907 3300.17
-780.806 688.799 3302.05
-780.998 688.901 3302.22
-780.618 688.688 3301.84
-781.155 688.993 3302.33
-780.306 688.551 3301.28
-780.049 688.439 3300.74
-781.301 689.127 3302.26
-781.086 689.018 3302.05
-781.491 689.228 3302.43
-765.285 686.671 3310.36
-763.847 687.244 3308.45
-765.56 685.9 3311.31
-765.39 681.94 3315.39
-764.416 681.352 3315.53
-766.192 682.687 3315.11
-763.575 680.895 3315.52
-766.334 684.118 3313.63
-762.542 680.139 3316
-762.849 680.512 3315.46
-752.595 672.899 3326.83
-755.51 674.672 3322.35
-754.031 673.586 3325.31
-754.754 674.152 3323.68
-752.06 673.147 3326.15
-755.081 674.966 3321.34
-754.891 675.291 3320.29
-752.902 672.118 3328.59
-751.936 671.862 3328.8
-749.711 672.436 3327.12
-750.577 672.654 3326.87
-752.809 671.476 3329.73
-751.672 671.312 3329.7
-753.954 675.258 3319.66
-753.785 675.574 3318.65
-753.021 675.755 3317.55
-752.17 670.864 3330.56
-761.33 679.498 3315.91
-761.894 679.895 3315.7
-760.505 679.042 3315.87
-758.274 678.782 3313.79
-759.023 679.072 3313.76
-757.276 678.997 3312.04
-755.648 678.823 3311.3
-756.461 679.542 3309.52
-752.551 678.063 3311.47
-750.616 677.913 3310.56
-750.849 677.029 3312.82
-750.839 675.785 3315.52
-751.382 675.605 3316.41
-751.578 675.397 3317.09
-749.549 677.727 3310.35
-761.215 689.985 3304.81
-761.382 689.924 3304.98
-763.153 687.954 3307.51
-761.979 688.926 3306.29
-761.409 689.712 3305.22
-761.492 689.909 3305.06
-761.005 690.32 3304.32
-760.874 690.481 3304.07
-760.873 690.55 3303.88
-706.281 626.631 3321.66
-705.479 627.544 3318.87
-704.513 627.672 3317.04
-704.478 628.092 3316.17
-704.713 628.783 3315.15
-704.954 628.54 3316.1
-704.653 629.048 3314.42
-704.006 629.487 3310.82
-703.554 629.698 3308.15
-702.668 630.021 3304.57
-702.42 629.951 3304.19
-701.557 630.173 3301.62
-701.629 630.267 3301.53
-701.274 630.057 3301.06
-704.367 629.492 3312.26
-701.042 628.3 3303.8
-701.149 629.217 3302.32
-701.301 629.304 3302.61
-701.468 629.326 3303.07
-700.746 627.764 3304.05
-701.207 629.968 3301.09
-700.471 627.449 3303.76
-700.197 627.114 3303.39
-704.769 629.537 3313.32
-704.902 629.342 3314.2
-699.21 623.609 3281.84
-699.118 623.403 3282.38
-699.056 623.331 3283.06
-698.992 623.492 3284.17
-700.604 627.192 3279.89
-700.437 626.716 3279.76
-700.413 627.055 3280.3
-700.379 625.52 3278.88
-700.274 626.548 3280.23
-700.257 625.483 3279.34
-700.133 625.576 3279.91
-699.921 625.292 3280.51
-699.763 625.254 3281.15
-699.584 624.299 3281.03
-699.368 624.03 3281.6
-698.934 623.476 3286.62
-699.13 624.013 3288.47
-699.365 624.662 3290.59
-699.512 624.868 3291.77
-699.808 625.628 3295.2
-699.856 626.084 3297.66
-698.944 623.532 3285.62
-699.873 626.394 3299.47
-699.901 626.494 3300.21
-699.961 626.757 3301.07
-700.034 626.994 3301.66
-700.121 627.152 3302.43
-700.133 627.294 3302.03
-700.293 627.355 3302.85
-731.935 644.333 3258.8
-732.169 644.744 3258.89
-731.669 644.033 3259.15
-731.403 643.749 3259.25
-732.375 645.141 3259.04
-733.807 647.599 3257.89
-733.706 647.413 3258
-733.928 648.133 3258.39
-733.256 646.605 3258.31
-733.425 646.914 3258.28
-733.59 647.265 3258.25
-733.123 646.448 3258.63
-734.807 649.481 3258.34
-734.794 649.875 3258.85
-734.586 649.519 3258.83
-734.398 649.273 3258.92
-734.233 648.935 3258.84
-734.066 648.642 3258.81
-732.57 645.513 3259.1
-732.772 645.895 3259.11
-732.981 646.267 3258.98
-734.99 649.74 3258.32
-703.255 631.224 3284.67
-715.829 633.428 3269.92
-716.702 633.612 3269.25
-718.281 634.102 3267.19
-719.708 634.64 3265.56
-717.712 633.887 3268.29
-714.979 633.316 3270.83
-712.776 633.042 3272.62
-710.439 632.749 3275.28
-708.34 632.36 3277.83
-707.075 632.067 3279
-705.321 631.639 3281.2
-705.56 631.728 3281.42
-703.502 631.314 3284.53
-723.62 636.18 3263.72
-723.042 635.894 3263.93
-722.191 635.5 3264.61
-721.455 635.231 3264.96
-722.848 635.782 3264.45
-720.524 634.913 3265.33
-726.53 638.291 3261.36
-726.198 637.833 3262.48
-726.485 638.151 3262.12
-726 637.577 3263.09
-725.644 637.357 3263.18
-725.306 637.186 3263.04
-724.95 636.939 3263.29
-724.497 636.677 3263.47
-724.087 636.434 3263.69
-728.031 639.896 3259.85
-728.786 640.647 3259.86
-727.028 638.849 3260.46
-727.682 639.512 3260.25
-726.885 638.637 3261.08
-700.223 628.953 3285.53
-700.225 629.129 3286.11
-700.336 629.54 3286.99
-700.52 629.764 3287.1
-700.706 629.981 3287.2
-700.226 629.375 3286.92
-700.73 630.121 3287.89
-700.755 630.206 3288.61
-700.592 627.354 3280.31
-700.306 627.397 3281.5
-700.052 627.571 3282.85
-700.112 627.931 3283.36
-700.135 628.253 3283.89
-700.14 628.487 3284.51
-700.117 628.667 3285.16
-700.133 628.842 3285.66
-702.616 631.388 3287.84
-702.383 631.355 3288.03
-703.002 631.365 3286.47
-702.864 631.408 3287.3
-702.058 631.35 3289
-701.84 631.28 3289.56
-701.744 631.187 3289.46
-701.532 630.986 3289.27
-701.591 631.065 3289.62
-701.388 630.928 3291.12
-700.96 630.507 3289.56
-700.896 630.428 3289.43
-701.032 630.579 3289.8
-700.833 630.345 3289.33
-701.102 630.653 3290.55
-701.253 630.799 3291.62
-700.76 630.236 3289.85
-701.445 630.935 3292.94
-730.453 642.553 3260.05
-729.947 641.938 3260.09
-729.321 641.195 3260.13
-730.792 643.004 3259.76
-731.09 643.403 3259.48
-740.742 668.248 3270.82
-741.355 668.634 3270.89
-740.966 668.575 3271.02
-740.697 668.505 3271.1
-740.526 668.358 3271.05
-740.042 667.73 3270.72
-740.327 668.259 3271.07
-740.139 668.11 3271.03
-739.862 667.47 3270.58
-739.694 667.475 3270.69
-739.619 667.156 3270.45
-739.502 666.827 3270.24
-743.96 669.157 3270.47
-742.628 669.424 3271.22
-742.337 669.131 3270.98
-744.23 669.552 3270.85
-741.86 669.088 3271.13
-741.512 669.032 3271.24
-747.299 670.485 3270.86
-746.542 670.331 3270.97
-744.544 669.944 3271.24
-747.758 671.099 3271.61
-747.451 670.855 3271.36
-748.494 671.522 3271.94
-750.197 672.808 3273.23
-749.259 672.34 3272.9
-737.462 660.341 3266.4
-736.917 658.785 3265.06
-737.315 660.304 3266.52
-736.279 657.17 3263.85
-738.038 661.222 3266.71
-738.886 664.711 3269.01
-738.309 662.84 3267.97
-738.085 662.398 3267.79
-739.1 666.28 3270.07
-739.367 666.884 3270.39
-735.184 651.029 3259.36
-735.04 650.18 3258.75
-735.754 655.16 3262.42
-735.931 656.314 3263.33
-735.149 652.955 3261.18
-735.618 655.061 3262.47
-769.104 683.101 3284.16
-769.773 683.283 3284.23
-770.81 683.461 3284.32
-751.621 674.365 3275.38
-751.765 675.101 3276.92
-751.284 674.635 3276.15
-751.403 675.331 3277.66
-751.746 675.641 3278.27
-752.219 676.039 3279.14
-755.12 677.611 3282.53
-755.416 678.512 3286.14
-755.948 679.155 3288.11
-752.766 676.53 3280.47
-752.891 676.869 3281.52
-753.637 677.326 3282.59
-756.467 679.638 3289.88
-755.863 679.429 3289.58
-757.017 679.923 3290.72
-759.049 680.568 3289.98
-758.513 680.362 3290.08
-757.977 680.167 3290.25
-757.658 680.197 3291.27
-759.511 680.777 3290.01
-759.997 680.94 3289.74
-763.478 681.719 3286.65
-764.363 681.664 3285.37
-762.779 681.787 3287.73
-765.48 682.119 3285.03
-761.85 681.532 3288.44
-761.144 681.345 3289.09
-760.513 681.156 3289.66
-767.468 682.782 3284.43
-767.957 682.936 3284.47
-767.193 682.784 3284.71
-766.034 682.509 3285.26
-766.834 682.759 3285
-766.474 682.756 3285.36
-768.554 683.066 3284.45
-750.76 673.584 3274.36
-776.35 685.676 3288.44
-776.712 686.541 3290.63
-774.405 684.61 3286.23
-772.487 683.996 3285.16
-776.678 686.964 3291.98
-777.647 687.306 3293.7
-777.305 687.197 3293.33
-776.785 687.051 3292.61
-771.276 683.726 3284.83
-778.312 687.712 3295.41
-777.62 687.414 3294.26
-777.974 687.628 3295.15
-777.658 687.537 3294.85
-778.383 687.783 3296.16
-778.061 687.702 3296
-779.756 688.381 3296.89
-779.45 688.252 3297.17
-779.339 688.188 3297.11
-779.229 688.125 3297.06
-779.157 688.069 3296.93
-778.862 687.979 3297.15
-778.317 687.83 3296.8
-778.028 687.757 3296.73
-778.589 687.909 3297.33
-778.344 687.843 3297.48
-780.548 688.822 3296.62
-780.312 688.663 3296.72
-780.204 688.586 3296.67
-779.865 688.445 3296.93
-781.558 689.155 3295.69
-781.342 689.162 3295.99
-781.121 689.111 3296.18
-780.869 689.036 3296.47
-781.898 689.236 3295.38
-783.126 689.371 3294.12
-782.724 689.317 3294.49
-782.369 689.291 3294.86
-782.086 689.317 3295.28
-783.648 689.504 3293.79
-784.305 689.689 3293.43
-781.746 689.277 3295.67
-785.762 690.399 3293.28
-786.247 690.594 3293.34
-787.261 691.205 3293.72
-786.68 690.849 3293.52
-785.069 690.104 3293.36
-790.903 693.497 3296.03
-790.472 692.639 3294.63
-790.6 692.967 3295.18
-790.564 693.401 3295.89
-790.3 693.301 3295.75
-789.156 692.104 3294.18
-789.593 692.386 3294.48
-788.33 691.75 3293.93
-789.944 692.635 3294.77
-787.739 691.456 3293.8
-788.442 695.428 3299.29
-790.211 694.433 3297.61
-790.07 694.265 3297.33
-789.768 694.184 3297.2
-788.828 695.161 3298.73
-788.514 695.33 3299.02
-788.211 695.362 3299.08
-787.966 695.594 3299.63
-788.222 695.486 3299.38
-788.017 695.54 3299.47
-784.718 694.897 3300.32
-784.81 694.959 3300.24
-784.927 695.024 3300.17
-784.282 694.59 3300.48
-784.372 694.651 3300.41
-784.477 694.724 3300.34
-784.562 694.781 3300.25
-785.454 692.443 3304.5
-784.842 693.562 3302.79
-785.056 692.982 3303.57
-785.247 692.441 3304.27
-784.711 693.575 3302.61
-784.609 693.645 3302.38
-784.458 693.694 3302.13
-784.208 694.152 3301.2
-784.171 694.299 3300.96
-784.314 693.75 3301.86
-784.101 693.878 3301.39
-784.056 694.013 3301.16
-784.128 693.744 3301.6
-784.108 694.431 3300.69
-784.191 694.531 3300.59
-787.548 695.609 3299.59
-786.644 695.33 3299.39
-786.83 695.388 3299.41
-786.919 695.365 3299.31
-787.141 695.454 3299.41
-787.346 695.495 3299.42
-785.08 695.023 3299.77
-785.216 695.04 3299.7
-785.351 695.058 3299.64
-785.479 695.074 3299.57
-785.798 695.142 3299.54
-785.486 695.039 3299.43
-785.809 695.119 3299.42
-786.087 695.192 3299.45
-786.314 695.247 3299.45
-786.474 695.286 3299.42
-784.82 694.943 3299.89
-784.961 695.012 3299.86
-784.821 694.956 3300.02
-782.557 689.35 3303.89
-783.083 689.595 3304.29
-783.528 689.636 3304.9
-782.865 689.479 3304.15
-783.998 689.668 3305.49
-784.247 690.009 3305.43
-784.399 690.361 3305.23
-784.571 690.46 3305.37
-785.13 691.548 3304.96
-782.054 689.318 3303.21
-781.675 689.32 3302.6
-759.845 664.319 3342.48
-759.629 665.179 3341.3
-757.952 666.557 3338.69
-758.98 665.945 3339.98
-756.532 667.516 3336.81
-755.526 668.283 3335.37
-754.07 668.798 3334.17
-753.145 669.417 3332.98
-751.245 670.713 3330.56
-750.6 670.582 3330.62
-761.096 690.645 3303.38
-761.388 690.595 3303.47
-761.24 690.577 3303.65
-761.653 690.557 3303.51
-761.943 690.512 3303.58
-760.541 690.622 3303.48
-760.686 690.649 3303.41
-760.846 690.67 3303.35
-773.446 688.653 3305.79
-771.02 688.784 3306.18
-768.624 688.984 3305.81
-768.568 689.087 3305.47
-766.388 689.458 3304.65
-764.335 689.974 3304.65
-763.4 690.302 3303.82
-777.329 687.835 3303.71
-775.5 688.355 3304.66
-776.085 688.14 3304.14
-776.553 687.951 3303.59
-774.858 688.569 3305.24
-763.004 690.435 3303.36
-762.603 690.529 3303.1
-761.973 690.57 3303.26
-761.761 690.659 3302.92
-762.042 690.606 3303.03
-762.294 690.565 3303.09
-761.753 690.596 3303.25
-762.185 690.63 3302.82
-778.523 687.829 3301.67
-778.444 687.772 3302.56
-778.205 687.789 3301.8
-777.446 687.767 3303.15
-777.982 687.733 3302.59
-778.494 687.844 3300.77
-778.21 687.795 3300.75
-779.196 688.008 3300.17
-778.815 687.942 3299.85
-779.679 688.158 3300.11
-779.801 688.237 3300.37
-779.546 688.095 3300.13
-779.16 688.036 3299.71
-779.842 688.306 3300.3
-779.87 688.371 3300.2
-778.339 687.815 3300
-778.391 687.842 3299.71
-778.459 687.872 3299.37
-780.681 688.803 3301.69
-780.424 688.658 3301.35
-780.83 688.896 3301.77
-780.118 688.522 3300.74
-779.93 688.446 3300.2
-780.979 689.033 3301.7
-781.168 689.132 3301.88
-780.798 688.934 3301.55
-781.38 689.245 3302.08
-763.754 687.068 3308.56
-762.902 687.723 3307.61
-762.049 688.754 3306.44
-764.917 686.205 3310.51
-763.538 687.002 3308.52
-764.769 681.792 3314.98
-765.519 682.355 3314.91
-764.036 681.39 3314.9
-766.094 683.096 3314.51
-763.399 681.077 3314.79
-762.919 680.8 3314.78
-765.88 684.504 3312.81
-762.151 680.232 3315.13
-762.38 680.53 3314.63
-748.892 672.772 3326.21
-748.57 672.994 3325.67
-754.19 674.45 3322.55
-751.48 673.491 3324.88
-749.692 673.219 3325.32
-752.461 673.841 3323.98
-754.242 675.002 3320.62
-754.039 674.727 3321.45
-749.611 672.208 3327.57
-749.345 671.809 3328.18
-748.045 671.91 3327.78
-747.463 672.163 3327.15
-747.579 672.46 3326.56
-748.941 671.292 3328.88
-748.142 671.509 3328.34
-753.351 674.977 3320.03
-753.107 675.167 3319.24
-752.803 675.388 3318.35
-751.918 675.311 3317.71
-760.275 679.539 3313.99
-760.741 679.793 3313.98
-761.28 680.017 3314.22
-759.624 679.334 3313.68
-757.142 679.746 3309.48
-757.76 679.759 3310.04
-758.249 679.917 3310.03
-754.617 679.164 3309.51
-752.477 678.478 3310.27
-755.531 679.582 3308.7
-756.456 680.097 3307.75
-755.885 680.025 3307.46
-750.428 678.273 3309.51
-749.228 678.053 3309.33
-750.215 676.694 3313.14
-749.207 677.545 3310.49
-749.8 675.568 3315.05
-750.061 675.199 3316.09
-750.506 675.143 3316.67
-750.321 674.869 3317.14
-750.964 674.932 3317.69
-748.619 677.829 3309.37
-760.785 690.309 3304.21
-760.906 690.059 3304.54
-760.529 690.284 3304.09
-761.23 689.782 3305.03
-760.45 690.534 3303.78
-760.557 690.572 3303.69
-707.566 627.719 3321.8
-706.477 627.996 3319.65
-705.321 628.204 3317.41
-705.443 628.981 3316.03
-705.199 629.187 3315.13
-705.729 628.755 3317.03
-703.841 629.871 3308.52
-704.417 629.79 3311.11
-702.792 630.237 3304.29
-701.755 630.358 3301.54
-701.861 630.445 3301.51
-701.185 630.167 3300.43
-701.237 630.273 3300.28
-701.325 630.361 3300.21
-701.007 630.076 3300.03
-701.035 630.201 3299.71
-704.748 629.785 3312.41
-700.844 628.235 3303.24
-701.019 629.145 3302.06
-700.998 629.929 3300.47
-700.907 629.902 3300.18
-700.653 627.858 3303.33
-700.439 627.533 3303.2
-705.155 629.768 3313.56
-705.32 629.574 3314.45
-699.234 623.93 3282.3
-699.151 623.667 3282.79
-699.071 623.59 3283.59
-699 623.763 3284.81
-700.356 627.213 3280.93
-700.229 626.757 3280.68
-700.178 627.05 3281.3
-700.111 626.373 3280.72
-700.043 626.611 3281.33
-699.933 626.394 3281.55
-699.614 625.154 3281.7
-699.77 626.434 3282.34
-699.42 624.357 3281.72
-699.321 624.303 3282.31
-699.052 623.856 3287.4
-699.205 624.354 3289.1
-699.535 625.037 3291.62
-699.819 625.684 3294.86
-699.858 626.269 3297.19
-699.878 626.379 3298.65
-698.975 623.729 3286.22
-699.919 626.752 3299.75
-699.951 626.83 3300.42
-700.012 627.035 3301.07
-700.082 627.224 3301.44
-700.166 627.446 3301.7
-700.296 627.56 3302.32
-700.292 627.774 3301.91
-700.49 627.763 3302.72
-731.816 644.217 3259.48
-732.03 644.518 3259.27
-732.217 644.884 3259.39
-731.521 643.895 3259.81
-731.219 643.559 3259.88
-732.412 645.266 3259.53
-733.823 647.939 3258.45
-733.718 647.691 3258.49
-733.948 648.535 3258.98
-733.298 646.78 3258.61
-733.469 647.154 3258.6
-733.619 647.531 3258.66
-733.18 646.665 3258.94
-735.047 650.728 3259.29
-734.901 650.488 3259.32
-734.62 649.877 3259.2
-734.575 650.018 3259.47
-734.334 649.524 3259.37
-734.163 649.195 3259.32
-732.611 645.635 3259.48
-732.865 646.12 3259.44
-733.041 646.458 3259.25
-715.846 633.459 3270.48
-717.44 633.788 3269.02
-716.733 633.608 3269.88
-718.695 634.209 3267.36
-719.346 634.49 3266.25
-718.219 634.023 3268.27
-714.201 633.28 3272.35
-713.139 633.123 3272.81
-709.777 632.654 3276.57
-711.446 632.946 3274.63
-707.85 632.287 3278.82
-706.145 631.89 3281.16
-703.661 631.409 3284.74
-703.952 631.506 3284.72
-703.202 631.442 3286.63
-723.45 636.039 3264.29
-723.934 636.268 3264.16
-721.919 635.315 3265.36
-722.631 635.605 3265.05
-720.95 635.015 3265.57
-723.408 635.897 3265.03
-720.012 634.687 3266.23
-726.729 638.424 3261.7
-726.333 637.808 3263
-726.592 638.109 3262.68
-726.825 638.416 3262.25
-726.259 637.608 3263.63
-725.851 637.36 3263.68
-725.349 637.097 3263.57
-724.883 636.807 3263.75
-724.403 636.528 3263.97
-728.347 640.164 3260.43
-728.947 640.765 3260.59
-727.421 639.197 3260.82
-728.016 639.796 3260.76
-727.129 638.801 3261.64
-700.135 629.017 3286.25
-700.155 629.236 3286.86
-700.525 629.865 3287.67
-700.386 629.703 3287.6
-700.631 630.003 3287.83
-700.243 629.533 3287.56
-700.656 630.091 3288.7
-700.691 630.158 3289.47
-700.03 627.263 3282.27
-699.95 627.908 3283.92
-699.885 627.585 3283.46
-700.008 628.174 3284.33
-700.018 628.373 3284.72
-700.016 628.546 3285.26
-700.048 628.746 3285.81
-700.055 628.939 3286.45
-702.234 631.388 3289.07
-702.576 631.425 3288.5
-702.972 631.46 3287.77
-701.91 631.379 3290.61
-701.766 631.281 3291.87
-701.956 631.369 3292.73
-701.643 631.176 3291.38
-701.495 631.032 3291.63
-701.654 631.143 3292.53
-701.631 631.02 3295.08
-701.056 630.595 3291.98
-700.967 630.493 3291.64
-700.88 630.377 3291.28
-701.156 630.695 3292.26
-701.35 630.825 3294.03
-701.456 630.887 3295.43
-700.81 630.288 3292.12
-700.897 630.435 3293.06
-701.48 630.956 3296.25
-730.297 642.306 3260.7
-730.623 642.761 3260.4
-729.832 641.757 3260.64
-729.442 641.278 3260.95
-730.91 643.17 3260.16
-741.189 668.933 3271.28
-740.86 668.844 3271.35
-740.645 668.747 3271.37
-740.459 668.591 3271.33
-739.87 667.748 3270.84
-739.97 668.056 3271.08
-740.262 668.463 3271.32
-740.105 668.378 3271.33
-739.755 667.863 3271.01
-739.588 667.613 3270.89
-739.499 667.261 3270.63
-742.217 669.672 3271.66
-742.005 669.389 3271.4
-742.859 669.84 3271.69
-741.647 669.368 3271.55
-741.344 669.294 3271.62
-746.886 670.872 3271.62
-745.121 670.718 3272.11
-744.894 670.326 3271.64
-743.11 670.242 3272.17
-747.129 671.293 3272.18
-748.197 671.777 3272.49
-750.022 673.273 3274.21
-749.021 672.578 3273.47
-737.92 661.297 3266.88
-736.852 658.81 3265.17
-737.168 660.244 3266.63
-737.776 661.282 3267.01
-736.677 658.424 3264.85
-736.12 657.085 3263.91
-738.764 664.873 3269.24
-738.571 664.641 3269.24
-737.955 662.481 3268.02
-738.42 664.561 3269.33
-739.126 666.734 3270.45
-738.854 666.208 3270.21
-739.323 667.179 3270.68
-734.994 652.758 3261.22
-735.796 656.15 3263.3
-735.491 654.964 3262.54
-735.681 656.066 3263.34
-769.063 683.268 3284.64
-769.721 683.407 3284.65
-770.326 683.512 3284.59
-750.659 674.047 3275.3
-750.906 674.899 3276.97
-750.382 674.439 3276.23
-749.573 675.171 3278.28
-750.115 675.59 3279.03
-750.463 675.93 3279.75
-750.655 676.251 3280.58
-754.342 678.076 3285.32
-754.69 678.752 3287.78
-755.167 679.114 3288.89
-750.305 676.496 3281.47
-750.405 676.836 3282.52
-751.472 677.357 3283.91
-751.883 677.784 3285.48
-756.27 679.809 3291.2
-755.423 679.557 3290.89
-754.845 679.239 3289.92
-756.699 680.13 3292.79
-758.731 680.646 3291.29
-759.168 680.801 3291.08
-758.23 680.453 3291.42
-757.202 680.371 3293.63
-757.747 680.559 3293.77
-759.476 680.944 3291.08
-759.89 681.009 3290.34
-763.404 682.206 3287.83
-764.161 682.256 3287.02
-764.802 682.124 3285.9
-765.601 682.4 3285.53
-762.615 682.028 3288.55
-762.088 681.731 3288.61
-761.432 681.561 3289.24
-760.829 681.377 3289.79
-760.223 681.17 3290.37
-767.595 683.046 3284.98
-768.067 683.19 3284.96
-767.195 683.06 3285.32
-766.03 682.79 3285.9
-766.789 683.161 3285.84
-766.421 683.067 3286.04
-768.566 683.314 3284.98
-775.982 685.646 3288.41
-776.211 686.25 3289.84
-776.12 686.706 3291.1
-774.407 684.889 3286.85
-772.802 684.286 3285.75
-771.533 684.038 3285.44
-776.011 686.899 3291.86
-777.245 687.3 3293.91
-776.746 687.17 3293.35
-776.016 687.017 3292.56
-770.549 683.713 3285.03
-777.754 687.629 3295.73
-777.303 687.436 3294.55
-777.463 687.56 3295.43
-777.207 687.516 3295.14
-777.717 687.677 3296.62
-777.46 687.605 3296.33
-779.567 688.319 3297.21
-779.476 688.255 3297.6
-779.348 688.185 3297.54
-779.218 688.114 3297.47
-779.052 688.039 3297.41
-778.726 687.948 3297.69
-778.085 687.774 3297.52
-777.827 687.705 3297.47
-778.438 687.872 3297.93
-778.141 687.791 3298.02
-780.647 688.915 3296.69
-780.366 688.732 3296.84
-780.121 688.588 3296.98
-779.983 688.512 3296.96
-779.688 688.387 3297.25
-781.54 689.258 3295.91
-781.312 689.292 3296.28
-781.098 689.194 3296.4
-780.871 689.074 3296.62
-781.968 689.381 3295.56
-782.904 689.519 3294.59
-783.251 689.604 3294.37
-782.608 689.535 3294.98
-782.305 689.482 3295.27
-782.149 689.5 3295.49
-783.664 689.723 3294.14
-784.218 689.898 3293.83
-784.765 690.166 3293.7
-781.844 689.414 3295.8
-781.679 689.384 3295.96
-785.399 690.449 3293.59
-785.922 690.674 3293.62
-786.358 690.901 3293.78
-786.871 691.171 3293.93
-787.357 691.45 3294.05
-789.582 694.043 3296.97
-790.303 692.836 3295.01
-790.071 693.162 3295.57
-789.309 693.945 3296.81
-788.947 693.917 3296.78
-788.541 692.01 3294.26
-789.034 692.293 3294.53
-789.295 692.541 3294.83
-787.89 691.696 3294.09
-789.904 692.966 3295.28
-789.536 692.833 3295.16
-787.981 695.412 3299.18
-788.755 694.967 3298.43
-788.362 694.89 3298.3
-788.261 694.711 3298.02
-788.273 695.245 3298.86
-788.268 695.115 3298.64
-787.971 695.251 3298.9
-787.782 695.305 3299.01
-787.626 695.531 3299.43
-787.767 695.462 3299.29
-784.633 694.826 3300.15
-784.717 694.883 3300.08
-784.182 694.503 3300.44
-784.269 694.557 3300.33
-784.369 694.629 3300.26
-784.455 694.688 3300.18
-784.527 694.733 3300.09
-784.622 693.286 3302.83
-784.836 692.902 3303.41
-785.013 692.511 3303.95
-784.917 691.632 3304.64
-784.454 693.435 3302.45
-784.329 693.536 3302.15
-784.201 693.617 3301.86
-784.01 694.156 3300.91
-783.961 694.286 3300.67
-783.931 693.749 3301.31
-783.9 693.888 3301.09
-783.861 694.024 3300.86
-783.984 693.609 3301.56
-783.97 694.318 3300.51
-784.089 694.432 3300.52
-786.419 695.239 3299.26
-786.647 695.281 3299.24
-787.114 695.358 3299.23
-786.837 695.265 3299.14
-787.384 695.419 3299.26
-784.882 694.904 3299.63
-784.992 694.921 3299.56
-785.13 694.944 3299.49
-785.269 694.965 3299.42
-785.543 695.008 3299.29
-785.352 694.933 3299.27
-785.746 695.063 3299.27
-785.995 695.13 3299.28
-786.231 695.189 3299.28
-784.705 694.857 3299.94
-784.729 694.855 3299.81
-784.82 694.901 3299.73
-782.365 689.435 3303.46
-782.589 689.56 3303.6
-782.807 689.679 3303.74
-783.255 689.726 3304.34
-783.676 689.778 3304.89
-784.033 689.939 3305.19
-784.233 690.389 3304.99
-784.714 691.77 3304.28
-781.884 689.405 3302.78
-781.583 689.363 3302.27
-759.199 663.673 3342.84
-758.938 664.671 3341.52
-758.245 665.448 3340.19
-755.815 667.008 3337.2
-756.989 666.13 3338.75
-754.529 667.627 3335.85
-752.993 668.29 3334.45
-750.617 669.716 3331.79
-750.55 670.178 3331.2
-747.764 671.008 3328.97
-747.942 670.693 3329.51
-760.659 690.74 3303.03
-760.943 690.717 3303.09
-761.229 690.672 3303.15
-761.499 690.632 3303.21
-760.247 690.62 3303.4
-760.139 690.676 3303.14
-760.322 690.692 3303.13
-760.487 690.716 3303.08
-771.186 688.852 3305.83
-773.681 688.731 3305.12
-768.541 689.187 3305.13
-766.489 689.523 3304.38
-765.817 689.783 3304.05
-764.497 689.991 3304.45
-763.512 690.305 3303.76
-763.059 690.434 3303.25
-774.663 688.538 3304.54
-775.171 688.331 3303.92
-775.554 688.151 3303.28
-776.511 687.881 3302.86
-762.647 690.542 3302.95
-762.271 690.638 3302.71
-761.545 690.685 3302.91
-761.338 690.774 3302.57
-761.563 690.748 3302.57
-761.91 690.676 3302.74
-761.322 690.713 3302.89
-761.612 690.774 3302.4
-761.823 690.747 3302.42
-777.785 687.784 3300.76
-777.546 687.773 3301.56
-777.088 687.811 3300.51
-777.437 687.702 3302.46
-776.949 687.77 3301.37
-778.079 687.756 3299.85
-777.691 687.723 3299.77
-778.878 687.976 3299.58
-778.526 687.898 3298.95
-779.5 688.145 3299.48
-779.668 688.224 3299.83
-779.338 688.09 3299.57
-778.974 688.023 3298.98
-778.732 687.957 3298.88
-779.697 688.296 3299.7
-779.742 688.366 3299.62
-777.993 687.745 3299.05
-778.108 687.781 3298.74
-778.268 687.829 3298.45
-780.494 688.787 3301.21
-780.368 688.691 3301.11
-780.145 688.59 3300.63
-779.983 688.521 3300.16
-779.837 688.442 3299.73
-780.653 688.937 3301.16
-780.852 689.057 3301.34
-781.117 689.194 3301.63
-780.512 688.84 3301.09
-781.337 689.329 3301.84
-761.889 688.642 3306.47
-761.807 688.889 3306.23
-764.497 686.153 3310.22
-763.297 686.893 3308.48
-762.61 687.555 3307.65
-765.032 682.151 3314.7
-764.275 681.711 3314.59
-765.653 682.949 3314.27
-763.597 681.389 3314.34
-765.55 684.368 3312.64
-762.99 681.069 3314.15
-762.453 680.773 3314.06
-761.083 680.189 3313.31
-761.216 680.353 3313.04
-761.308 680.521 3312.72
-747.057 672.75 3325.85
-746.603 672.95 3325.27
-747.697 673.083 3325.19
-751.333 673.844 3323.53
-752.914 674.399 3321.92
-749.121 673.412 3324.45
-748.289 673.228 3324.87
-753.335 674.72 3320.9
-747.218 671.612 3328
-746.655 671.884 3327.34
-746.174 672.197 3326.63
-746.016 672.496 3326.07
-747.016 671.166 3328.54
-746.657 671.323 3328.21
-752.606 674.785 3320.05
-752.483 674.943 3319.42
-752.462 674.572 3320.83
-752.205 675.072 3318.76
-751.608 675.005 3318.25
-759.017 680.192 3310.16
-758.741 680.055 3310.15
-759.399 680.253 3310.56
-756.953 680.234 3307.76
-757.432 680.327 3307.9
-757.888 680.414 3308.06
-752.954 679.153 3308.36
-754.741 679.789 3307.39
-751.304 678.631 3309.03
-755.956 680.24 3306.77
-756.364 680.333 3306.88
-755.414 680.133 3306.59
-749.751 678.373 3308.71
-748.774 678.283 3308.39
-748.489 678.048 3308.74
-749.421 676.853 3312.14
-748.349 677.581 3309.71
-749.039 675.441 3314.53
-749.263 674.977 3315.7
-749.509 674.794 3316.45
-749.518 674.548 3317.08
-749.992 674.609 3317.58
-750.649 674.738 3318.07
-748 677.829 3308.79
-760.211 690.508 3303.71
-760.533 690.068 3304.3
-760.282 690.259 3303.97
-759.887 690.505 3303.55
-761.124 689.758 3305
-760.072 690.604 3303.42
-710.047 629.291 3322.67
-707.643 628.631 3320.33
-706.335 628.511 3318.5
-706.095 629.371 3316.36
