-738.91 518.143 4263.17
-738.313 517.581 4264.12
-737.698 516.84 4264.93
-739.071 518.74 4260.93
-738.553 518.219 4262.1
-737.129 516.172 4265.55
-738.257 518.345 4261.15
-737.653 517.909 4262.04
-737.423 517.278 4263.57
-736.532 517.006 4262.87
-736.011 516.362 4263.77
-736.799 516.579 4264.2
-736.034 515.773 4264.89
-736.205 515.268 4266.2
-735.505 516.566 4262.88
-737.65 518.339 4260.39
-737.003 517.943 4261.15
-738.694 518.775 4259.6
-735.541 517.05 4261.81
-734.752 516.431 4262.45
-734.194 516.601 4261.59
-735.223 515.804 4263.97
-735.457 514.312 4266.78
-735.88 517.633 4260.73
-734.412 513.323 4266.95
-734.625 513.958 4266.3
-733.832 516.945 4260.57
-732.48 516.372 4260.51
-731.425 516.531 4259.26
-735.219 515.145 4265.16
-734.383 515.438 4263.77
-736.057 517.963 4259.72
-737.002 518.229 4259.72
-733.768 513.722 4265.62
-734.39 514.958 4264.55
-738.347 518.76 4258.52
-733.482 516.026 4262.06
-733.437 515.453 4262.8
-733.893 517.407 4259.4
-736.736 518.311 4258.7
-733.686 511.818 4267.87
-733.265 514.63 4263.73
-737.635 518.644 4254.05
-738.06 518.828 4255.41
-736.47 518.366 4257.72
-730.651 516.954 4257.85
-730.593 516.343 4258.92
-730.752 515.82 4259.95
-731.026 515.346 4260.67
-733.405 517.593 4258.53
-733.013 511.186 4267.55
-731.025 514.551 4261.54
-731.401 516.963 4258.38
-731.515 517.485 4257.39
-732.824 517.798 4257.61
-732.378 510.709 4266.94
-733.204 512.396 4266.53
-733.061 513.144 4265.45
-732.583 513.9 4263.87
-729.825 515.558 4259.5
-735.851 517.321 4251.42
-735.197 516.809 4251.04
-736.783 518.124 4253.57
-737.638 518.682 4257.12
-729.447 516.699 4257.58
-731.587 509.515 4266.68
-730.954 509.199 4265.9
-731.878 511.937 4265.07
-732.282 513.01 4264.42
-731.719 510.606 4266.06
-728.975 515.385 4258.99
-729.697 514.869 4260.12
-736.521 517.902 4252.68
-736.73 518.277 4254.46
-735.488 518.18 4257.68
-730.216 507.932 4265.56
-731.057 510.44 4265.25
-731.384 512.682 4263.57
-730.507 513.586 4261.96
-735.997 518.295 4255.79
-736.875 518.502 4255.96
-729.939 517.49 4255.92
-729.841 508.186 4264.68
-730.274 509.137 4264.84
-731.309 511.832 4264.34
-728.424 514.332 4258.99
-728.849 515.969 4258.28
-735.644 518.155 4254.94
-730.236 517.23 4256.89
-730.438 510.204 4264.53
-730.184 511.379 4263.34
-729.124 513.685 4260.21
-733.349 515.064 4249.6
-732.801 517.811 4256.59
-731.066 517.609 4256.1
-726.945 505.544 4258.73
-729.594 509.107 4263.76
-729.802 510.098 4263.72
-729.229 507.485 4263.78
-729.312 511.905 4262.11
-728.293 512.798 4259.84
-728.119 514.932 4258.31
-735.716 517.521 4252.69
-735.772 517.823 4253.8
-734.605 517.412 4253.14
-728.594 506.773 4262.74
-729.171 510.108 4262.73
-728.543 511.248 4261.29
-727.571 512.426 4259.22
-734.13 515.948 4250.56
-735.037 517.151 4252.24
-734.761 518.103 4255.71
-732.572 517.728 4255.47
-728.273 516.113 4257.61
-728.684 517.025 4256.59
-728.873 517.202 4255.56
-726.152 506.131 4253.25
-726.543 505.453 4257.29
-729.054 508.176 4263.21
-728.483 507.865 4262.16
-733.97 516.551 4251.7
-734.324 517.824 4254.38
-730.819 517.491 4255.19
-731.256 513.392 4249.55
-726.34 505.981 4256.07
-727.82 506.598 4260.84
-726.699 506.38 4257.68
-728.711 509.449 4262.23
-727.003 511.831 4258.6
-727.141 512.763 4258.51
-728.331 508.748 4261.76
-732.193 514.414 4249.89
-733.303 516.989 4252.65
-728.063 508.026 4261.19
-727.866 510.559 4260.49
-727.515 513.646 4258.41
-727.306 515.459 4257.54
-732.688 516.355 4251.86
-733.226 517.503 4253.89
-729.812 517.314 4254.58
-727.633 516.643 4256.35
-726.646 507.795 4252.14
-726.349 507.289 4253.22
-726.224 506.756 4254.2
-726.293 507.079 4255.21
-727.291 507.397 4259.36
-727.677 507.611 4260.35
-727.467 509.715 4259.78
-726.814 507.272 4257.96
-727.177 506.521 4259.14
-726.605 507.482 4257.11
-732.637 515.405 4250.72
-731.899 517.481 4254.38
-726.421 508.588 4252.96
-727.613 509.693 4250.77
-726.859 508.832 4251.64
-726.806 509.167 4258.27
-726.708 510.831 4258.08
-726.575 508.759 4257.43
-726.526 512.415 4257.62
-732.436 517.276 4253.51
-730.422 512.872 4249.8
-726.278 507.901 4253.9
-726.173 508.146 4254.8
-726.609 509.56 4252.13
-726.156 511.207 4257.09
-726.432 507.87 4256.21
-726.837 515.593 4256.69
-730.329 517.115 4253.81
-730.921 516.898 4253.19
-728.758 517.138 4254.54
-731.162 514.162 4250.45
-726.198 509.076 4253.91
-726.207 509.758 4253.29
-726.021 509.916 4254.34
-725.918 510.56 4255.98
-726.135 509.457 4256.18
-731.586 514.954 4250.66
-727.768 516.882 4255.02
-725.721 511.326 4254.98
-731.614 515.963 4251.85
-730.477 514.822 4251.14
-730.262 513.855 4250.7
-729.349 511.637 4249.84
-728.587 511.045 4250.33
-726.024 510.869 4253.38
-725.716 511.576 4253.93
-727.751 510.933 4251.04
-727.02 510.645 4251.77
-726.539 511.255 4252.48
-725.978 512.238 4256.72
-730.732 516.224 4252.38
-728.963 512.288 4250.53
-727.18 512.683 4252.05
-728.963 516.801 4253.51
-726.999 516.611 4255.5
-729.177 515.223 4252.05
-729.685 514.734 4251.51
-729.384 513.527 4250.95
-728.197 511.889 4251.01
-727.282 511.742 4251.75
-725.718 512.086 4255.74
-726.744 513.879 4257.63
-729.635 516.45 4252.91
-728.665 514.254 4251.68
-728.235 513.187 4251.45
-726.223 512.043 4252.95
-726.053 513.157 4256.75
-726.288 514.271 4256.66
-726.273 515.704 4255.61
-726.789 513.401 4252.5
-725.561 512.443 4254.88
-727.97 516.738 4254.08
-728.403 515.425 4252.45
-725.882 512.847 4253.5
-727.039 516.473 4254.54
-725.534 513.384 4254.85
-725.563 513.34 4255.84
-727.362 516.197 4253.7
-726.341 514.027 4253.07
-725.626 514.213 4255.67
-727.588 514.874 4252.57
-725.829 514.127 4254.29
-726.384 515.62 4254.54
-727.572 515.629 4253.03
-726.476 514.945 4253.58
