-788.51 599.922 3860.27
-788.021 599.377 3857.39
-789.71 600.304 3862.55
-786.856 598.697 3855.57
-788.818 600.107 3861.77
-788.425 599.584 3858.27
-786.006 599.657 3859.73
-788.652 600.114 3863.73
-787.943 599.786 3864.53
-786.307 599.802 3861.93
-788.369 599.753 3865.84
-784.596 597.588 3854.03
-786.527 599.829 3861.07
-785.451 599.533 3858.84
-784.028 599.672 3859.85
-786.322 598.957 3856.74
-784.334 599.627 3861.17
-785.756 599.584 3863.13
-787.204 599.373 3865.68
-785.489 597.881 3853.96
-783.685 596.945 3853.42
-785.431 598.098 3854.94
-785.371 598.469 3855.99
-783.235 599.649 3858.92
-784.73 599.114 3857.47
-783.215 599.482 3860.61
-784.555 599.381 3862.91
-785.228 599.267 3863.81
-781.495 595.651 3853.01
-782.768 596.558 3853.26
-784.517 598.072 3855.38
-782.674 599.6 3859.79
-787.004 598.919 3867.37
-782.2 599.542 3860.56
-781.93 599.583 3858.62
-786.002 598.811 3866.28
-786.339 598.4 3868.07
-783.145 599.368 3861.71
-780.623 595.119 3853.43
-783.016 597.186 3854.41
-783.414 597.844 3855.32
-782.576 599.296 3857.69
-783.619 598.767 3856.66
-785.485 597.908 3868.38
-785.37 598.303 3867.02
-783.854 598.597 3864.65
-781.229 596.194 3853.97
-781.986 596.877 3854.35
-782.388 598.087 3855.77
-781.798 598.957 3856.95
-781.476 599.689 3859.63
-781.248 599.398 3857.99
-784.491 597.011 3868.96
-784.308 597.612 3867.56
-781.262 597.704 3855.5
-780.984 598.528 3856.53
-782.815 598.084 3864.69
-782.162 598.953 3862.35
-783.407 596.73 3867.93
-776.895 591.949 3858.89
-777.319 591.851 3862.1
-778.066 593.266 3855.35
-780.597 599.68 3859.06
-780.582 597.095 3855.14
-779.741 594.838 3854.11
-781.389 598.174 3862.99
-781.859 597.497 3864.66
-782.192 598.41 3863.38
-780.24 593.505 3867.31
-779.179 593.311 3865.09
-777.822 592.136 3863.27
-777.306 592.599 3856.92
-780.442 595.799 3854.33
-780.13 599.203 3859.91
-781.226 598.688 3862.04
-781.209 599.282 3860.78
-777.671 593.01 3861.11
-780.82 593.9 3867.95
-781.378 594.651 3867.85
-779.934 593.791 3866.15
-782.43 595.86 3867.82
-779.536 595.512 3854.86
-780.55 597.677 3863.06
-777.254 592.393 3860.1
-780.593 594.84 3866.11
-781.41 595.305 3866.97
-779.832 594.293 3865.24
-779.135 595.216 3863.12
-778.537 593.171 3863.72
-777.79 592.58 3862.38
-778.295 594.816 3861.67
-777.519 593.162 3858.67
-780.25 597.992 3856.06
-779.721 596.553 3855.42
-780.259 599.337 3857.84
-777.609 593.183 3859.93
-777.964 594.746 3860.59
-780.748 596.816 3864.28
-779.94 595.884 3864.03
-778.841 596.329 3861.66
-778.563 593.997 3855.24
-779.091 594.617 3854.74
-778.004 593.639 3856.27
-779.679 598.69 3857.06
-779.171 599.285 3859.09
-777.739 594.07 3859.3
-779.663 596.661 3862.78
-777.707 593.514 3857.46
-778.762 595.272 3855.59
-777.8 594.938 3859.67
-778.261 596.217 3860.69
-779.818 598.379 3861.28
-778.847 597.257 3860.99
-777.842 594.885 3858.09
-778.078 594.921 3856.83
-778.902 596.177 3855.93
-779.369 597.337 3856.1
-777.927 596.463 3859.69
-778.484 597.044 3856.68
-779.199 598.306 3860.45
-777.953 596.148 3857.41
-778.91 598.005 3856.87
-778.431 597.657 3859.97
-777.795 596.541 3858.38
-778.464 598.423 3857.69
-779.254 599.226 3858.11
-777.991 597.469 3857.74
-778.516 598.362 3859.12
-777.972 597.45 3859.13
