-619.074 672.214 2030.18
-618.915 672.234 2029.93
-618.89 671.941 2029.72
-619.343 672.936 2031.36
-619.37 673.093 2031.65
-619.501 673.037 2031.99
-619.728 672.842 2032.57
-619.912 672.821 2033.84
-619.71 672.762 2032.45
-618.088 671.999 2028.82
-618.748 671.631 2029.42
-618.486 671.731 2029.15
-618.232 671.607 2028.8
-619.899 674.984 2038.27
-620.3 674.188 2038.06
-620.352 673.698 2037.48
-620.346 673.415 2037.07
-620.361 673.157 2036.75
-620.185 673.184 2036.12
-620.052 672.965 2035.22
-620.171 672.946 2035.68
-617.786 671.797 2028.4
-613.279 685.076 2037.56
-614.655 684.248 2038.8
-612.349 685.049 2036.36
-613.019 684.699 2037.12
-612.629 684.594 2036.48
-613.442 684.682 2037.61
-613.339 683.77 2036.88
-615.321 681.136 2037.41
-616.524 680.283 2038.56
-613.767 683.174 2037.02
-614.797 682.017 2037.54
-616.86 680.255 2039.08
-617.294 679.414 2038.93
-617.706 678.5 2038.48
-618.34 678.064 2039.17
-609.306 674.897 2021.33
-609.317 674.98 2021.47
-609.329 674.802 2021.18
-609.926 673.776 2021.16
-608.977 677.151 2022.15
-608.839 676.926 2021.95
-609.007 676.94 2022.14
-608.831 676.749 2021.88
-608.854 676.531 2021.83
-608.927 676.3 2021.86
-608.891 676.2 2021.76
-608.884 676.031 2021.67
-608.96 675.758 2021.57
-609.43 674.959 2021.63
-609.208 675.356 2021.63
-615.866 666.918 2015.21
-616.153 667.285 2014.94
-616.671 667.674 2014.5
-616.648 667.848 2014.48
-616.61 668.025 2014.47
-618.358 669.666 2012.97
-617.398 668.902 2013.8
-618.132 669.407 2013.19
-615.944 666.313 2015.24
-616.046 665.99 2015.21
-616.078 666.633 2015.09
-615.287 662.683 2017.46
-615.396 662.589 2017.26
-615.395 662.888 2017.08
-615.479 663.438 2016.51
-615.467 663.172 2016.69
-615.46 662.906 2016.85
-615.457 663.785 2016.37
-616.133 665.705 2015.19
-616.126 665.501 2015.2
-616.097 665.304 2015.24
-615.598 663.855 2016.16
-615.56 664.27 2016.05
-615.734 664.674 2015.67
-615.756 665 2015.58
-616.024 665.079 2015.32
-615.723 664.329 2015.82
-615.207 662.623 2017.81
-615.256 662.431 2017.98
-615.294 662.256 2018.14
-615.287 662.415 2017.67
-615.199 662.407 2018.92
-615.205 662.424 2018.77
-615.079 662.747 2018.98
-615.264 662.247 2018.65
-615.279 662.223 2018.48
-615.295 662.152 2018.3
-614.739 663.688 2019.63
-614.776 663.587 2019.45
-614.952 663.094 2019.24
-615.059 662.797 2019.16
-614.917 663.193 2019.41
-613.684 667.49 2021.45
-613.83 667.113 2021.32
-613.84 666.956 2021.09
-611.247 671.561 2021.01
-612.745 669.312 2021.16
-611.207 671.757 2021.27
-611.23 671.624 2021.13
-613.304 668.266 2021.43
-614.126 666.185 2021
-614.341 665.638 2021
-614.108 666.372 2021.18
-614.505 665.108 2020.9
-614.576 664.744 2020.68
-614.623 664.457 2020.45
-614.635 664.249 2020.2
-614.712 663.784 2019.8
-614.771 663.809 2020.11
-612.171 657.571 1976.93
-611.61 655.682 1979.06
-612.757 658.472 1976.06
-611.092 655.277 1978.94
-610.69 653.936 1980.31
-609.365 652.501 1980.85
-608.658 651.715 1981.33
-610.192 653.203 1980.82
-608.042 650.536 1983.02
-607.568 650.147 1983.07
-608.093 650.807 1982.41
-607.165 649.782 1983.2
-608.644 651.34 1982.16
-606.999 649.485 1983.73
-617.745 681.349 2041.2
-618.074 680.886 2041.36
-618.779 680.335 2042.01
-616.654 682.01 2040.08
-614.764 683.829 2038.72
-610.159 592.68 1990.62
-610.233 592.679 1990.51
-610.256 592.732 1990.44
-610.461 592.48 1990.33
-610.827 592.367 1990.13
-610.628 592.532 1990.19
-610.535 592.5 1990.26
-610.87 592.466 1990.07
-607.21 649.474 1984.33
-606.986 649.158 1985.05
-607.058 649.104 1985.77
-601.062 637.675 2004.88
-601.076 637.812 2005.13
-601.093 637.927 2005.38
-601.108 638.043 2005.62
-601.231 638.662 2006.15
-601.197 638.546 2006.07
-601.189 638.459 2006.14
-601.15 638.377 2005.98
-601.132 638.282 2005.98
-601.131 638.147 2005.92
-606.234 648.284 1987.59
-606.681 648.679 1986.91
-607.059 648.99 1986.63
-606.115 648.123 1988.59
-605.882 647.961 1991.61
-605.843 647.92 1990.2
-605.544 647.804 1993.84
-605.991 648.265 1997.01
-606.855 648.961 1998.09
-607.267 649.381 1998.82
-607.356 649.411 1998.43
-607.557 649.755 1999.64
-607.391 649.621 1999.97
-607.159 649.392 2000.28
-607.619 649.761 1999.29
-606.838 648.955 2001.31
-606.981 649.159 2001.02
-606.636 648.688 2001.57
-607.217 649.436 2000.69
-606.559 648.496 2002.23
-606.711 648.717 2001.99
-606.48 648.285 2002.55
-606.645 648.394 2003.03
-604.592 643.179 2006.65
-604.97 642.734 2008.45
-605.375 643.028 2009.05
-605.655 643.247 2009.59
-605.857 643.694 2009.45
-606.907 648.276 2004.58
-606.851 648.406 2004.03
-606.681 648.31 2003.5
-606.066 645.453 2007.07
-606.437 647.05 2005.39
-606.799 647.849 2005.18
-606.208 644.566 2009.21
-606.117 644.112 2009.7
-603.363 642.075 2005.73
-602.864 640.681 2007.43
-602.729 640.419 2007.59
-602.576 640.233 2007.56
-602.079 640.364 2006.01
-601.885 640.081 2006.18
-602.005 640.216 2006.23
-601.487 639.026 2006.8
-601.43 638.953 2006.68
-601.986 639.435 2007.56
-601.923 639.322 2007.59
-601.852 639.201 2007.6
-602.122 639.649 2007.54
-602.054 639.539 2007.55
-601.784 639.084 2007.61
-601.725 638.963 2007.62
-602.212 639.756 2007.58
-601.371 638.876 2006.55
-601.279 638.815 2006.27
-601.242 638.751 2006.1
-601.112 637.367 2005.09
-601.151 637.211 2005.29
-601.178 637.09 2005.46
-601.262 636.997 2005.85
-601.311 636.763 2005.78
-601.089 637.516 2005.01
-601.515 636.749 2006.69
-601.817 636.584 2007.74
-601.761 636.891 2007.76
-601.807 636.93 2008.01
-601.864 636.976 2008.28
-601.994 636.846 2008.85
-601.932 636.966 2008.59
-602.033 636.92 2009.05
-602.078 636.899 2009.26
-602.896 630.22 2011.29
-602.861 629.554 2011.76
-602.801 629.063 2012.21
-602.94 630.995 2010.89
-602.831 632.162 2010.71
-602.638 632.982 2010.8
-602.388 634.061 2010.94
-602.431 633.642 2011.02
-602.336 634.592 2010.93
-602.623 628.241 2013.06
-602.645 628.583 2012.76
-602.661 628.9 2012.56
-602.302 634.968 2010.96
-602.332 635.901 2010.64
-602.315 635.739 2010.74
-602.288 635.575 2010.88
-602.268 635.334 2011
-603.512 625.988 2014.33
-603.6 625.735 2014.58
-603.199 626.591 2014.2
-603.021 627.011 2013.94
-602.783 627.532 2013.71
-602.585 628.053 2013.4
-603.283 626.322 2014.52
-604.299 624.202 2014.67
-604.855 623.161 2015.16
-604.567 623.754 2015.13
-604.141 624.542 2014.93
-605.458 622.189 2016.83
-603.692 625.481 2014.79
-603.87 625.08 2015.03
-602.163 636.779 2009.66
-602.196 636.825 2009.85
-602.217 636.696 2009.96
-602.129 636.897 2009.5
-602.327 636.263 2010.62
-602.322 636.393 2010.56
-602.331 636.157 2010.68
-602.234 636.844 2010.06
-602.27 636.759 2010.25
-602.293 636.638 2010.38
-602.315 636.529 2010.51
-606.483 618.212 2015.67
-606.437 619.153 2016.84
-606.353 620.113 2017.84
-606.126 620.663 2017.35
-606.128 621.023 2018.21
-606.312 620.594 2018.74
-605.979 621.48 2018.9
-609.614 604.273 2008.29
-609.301 604.977 2008.23
-609.162 606.4 2006.82
-609.041 605.619 2008.2
-608.934 606.911 2006.95
-608.401 608.294 2007.09
-608.621 607.579 2007.22
-609.698 603.931 2008.71
-610.004 603.324 2008.86
-608.214 608.916 2007.13
-607.971 609.499 2007.59
-607.757 610.042 2007.98
-607.544 610.543 2008.45
-607.274 611.514 2008.96
-607.129 612.063 2009.02
-606.977 612.638 2009.08
-607.409 611.008 2008.9
-606.818 613.222 2009.13
-606.686 613.751 2009.56
-606.531 614.52 2010.3
-606.593 614.852 2011.35
-606.673 614.044 2010.28
-606.545 616.498 2013.67
-613.032 596.494 1988.68
-612.209 597.512 1989.45
-612.454 597.398 1989.2
-612.581 597.189 1989.09
-612.636 596.944 1989.05
-613.491 595.763 1988.25
-613.651 595.376 1988.07
-613.86 594.855 1987.9
-614.105 594.368 1987.74
-613.172 596.136 1988.55
-614.031 594.031 1987.83
-614.107 593.673 1987.83
-611.63 598.494 1990.45
-611.71 598.353 1990.33
-611.557 598.777 1990.56
-611.545 598.599 1990.57
-611.797 597.907 1990.09
-611.758 598.031 1990.21
-611.837 597.768 1989.97
-612.045 597.666 1989.7
-611.69 598.148 1990.34
-611.664 592.073 1989.68
-610.942 592.521 1990.01
-611.096 592.52 1989.91
-611.888 592.015 1989.55
-612.229 591.967 1989.34
-612.167 591.9 1989.41
-614.121 593.093 1987.92
-613.988 593.347 1987.97
-613.042 592.627 1988.71
-613.165 592.418 1988.68
-611.936 592.327 1989.42
-611.586 599.624 1991.02
-611.59 599.45 1990.89
-611.509 599.122 1990.85
-611.485 598.955 1990.78
-611.53 599.29 1990.93
-611.472 598.765 1990.69
-611.52 599.96 1991.46
-611.536 599.787 1991.26
-611.409 600.048 1991.91
-611.464 600.003 1991.7
-611.286 600.655 1994.2
-611.276 600.563 1994.06
-611.325 600.689 1993.56
-611.33 600.656 1993.35
-611.285 600.54 1993.82
-611.32 600.545 1993.14
-611.315 600.429 1992.89
-611.311 600.295 1992.6
-611.328 600.223 1992.32
-611.349 600.063 1992.12
-612.267 598.518 1998.54
-612.4 598.032 1998.74
-611.383 600.466 1995.69
-611.531 600.093 1996.59
-611.468 600.26 1996.31
-611.643 599.93 1997.11
-611.592 599.902 1996.85
-611.725 599.708 1997.43
-612.112 598.842 1998.13
-611.97 599.116 1997.85
-612.231 598.453 1998.32
-611.831 599.293 1997.53
-611.356 600.348 1995.36
-611.279 600.301 1994.97
-611.238 600.377 1994.69
-611.239 600.453 1994.41
-611.323 600.225 1995.25
-610.808 601.9 2009.78
-610.805 601.842 2010.31
-610.131 602.978 2009.28
-610.149 602.853 2009.75
-610.829 601.797 2010.77
-611.062 601.465 2011.16
-613.456 596.153 2000
-613.14 596.646 1999.61
-612.862 597.085 1999.26
-613.664 595.955 2000.41
-614.182 595.36 2001.15
-614.098 595.329 2000.86
-614.656 594.781 2001.58
-612.616 597.443 1998.92
-619.509 585.099 1999.23
-617.849 586.217 1997.49
-615.581 587.969 1995.79
-609.788 592.829 1991.05
-609.521 593.081 1991.22
-609.229 593.348 1991.43
-610.375 592.056 1992.55
-610.607 591.866 1992.66
-610.235 592.209 1992.53
-609.945 592.552 1992.54
-610.092 592.399 1992.58
-609.831 592.63 1992.43
-610.929 591.72 1993
-611.451 591.399 1993.4
-612.575 590.659 1994.41
-614.045 589.367 1995.33
-609.102 593.517 1991.55
-609.063 593.532 1991.66
-609.088 593.344 1991.88
-609.084 593.357 1991.97
-609.199 593.191 1991.95
-609.234 593.181 1992.04
-609.037 593.474 1991.84
-609.308 593.111 1992.11
-609.392 593.009 1992.14
-609.406 593.034 1992.23
-608.995 593.596 1991.78
-609.408 593.079 1992.34
-609.567 592.887 1992.33
-609.715 592.732 1992.36
-610.051 592.733 1990.75
-609.946 592.784 1990.86
-609.761 592.936 1991
-609.264 676.899 2022.41
-609.459 676.602 2022.56
-609.567 676.344 2022.62
-609.696 676.077 2022.66
-609.875 675.772 2022.72
-612.33 673.354 2023.89
-610.618 674.793 2022.98
-610.1 675.403 2022.79
-613.924 670.582 2024.27
-614.473 669.904 2024.51
-613.319 671.633 2024.13
-614.916 669.46 2024.83
-615.368 669.47 2025.31
-616.13 670.617 2026.4
-617.267 671.317 2027.69
-619.786 675.596 2038.9
-619.631 676.415 2039.66
-619.31 672.166 2030.6
-619.22 671.948 2030.28
-619.396 672.321 2030.88
-619.425 672.565 2031.19
-619.093 671.87 2029.98
-619.031 671.569 2029.72
-619.453 672.754 2031.47
-619.497 672.858 2031.72
-619.594 672.799 2032
-619.932 672.695 2033.77
-620.115 672.791 2035.29
-619.968 672.582 2033.85
-619.972 672.468 2033.71
-619.718 672.62 2032.4
-618.498 671.343 2028.99
-618.758 671.337 2029.3
-618.264 671.216 2028.66
-617.967 671.371 2028.4
-620.35 674.717 2039
-620.639 673.994 2038.71
-620.537 673.704 2038.04
-620.572 673.319 2037.65
-620.63 673 2037.41
-620.373 672.867 2036.36
-620.543 672.837 2036.93
-620.332 672.692 2035.98
-613.261 684.277 2037.22
-614.861 683.1 2038.43
-615.053 683.214 2038.73
-613.577 683.766 2037.29
-615.137 682.019 2038.07
-615.348 682.047 2038.38
-617.911 679.148 2039.73
-615.913 681.213 2038.49
-617.566 679.947 2039.91
-618.269 679.15 2040.32
-618.766 677.961 2039.86
-609.839 674.164 2021.5
-609.896 673.927 2021.34
-609.895 674.274 2021.69
-611.373 671.648 2021.45
-609.044 676.654 2022.12
-609.226 676.684 2022.32
-608.946 676.52 2021.97
-609.022 676.283 2022
-609.037 676.069 2021.95
-609.026 675.918 2021.83
-609.089 675.678 2021.72
-609.622 674.886 2021.84
-610.057 674.258 2021.91
-609.366 675.276 2021.81
-616.23 667.091 2014.92
-616.728 667.533 2014.5
-617.528 668.313 2013.85
-617.518 668.531 2013.82
-617.464 668.721 2013.81
-618.668 669.565 2012.81
-618.169 669.237 2013.23
-616.222 666.325 2015.03
-616.346 666.015 2014.98
-616.427 666.685 2014.83
-616.425 666.977 2014.79
-615.379 662.318 2017.47
-615.43 662.369 2017.23
-615.451 662.639 2017.02
-615.617 663.481 2016.25
-615.541 663.203 2016.45
-615.507 662.938 2016.63
-615.501 662.664 2016.79
-616.426 665.744 2014.94
-616.433 665.554 2014.93
-616.383 665.345 2014.97
-615.726 663.949 2015.94
-615.747 663.582 2016.02
-615.917 664.851 2015.43
-615.961 664.582 2015.41
-615.883 664.284 2015.59
-616.316 665.138 2015.05
-615.852 664.014 2015.72
-615.318 662.233 2017.83
-615.313 662.133 2017.98
-615.289 662.068 2018.11
-615.337 662.131 2017.67
-615.265 662.145 2018.83
-615.193 662.435 2019.1
-615.266 662.15 2018.98
-615.255 662.068 2018.69
-615.263 662.066 2018.54
-615.266 662.036 2018.37
-615.268 662.003 2018.21
-614.849 663.414 2019.73
-614.882 663.303 2019.57
-615.057 662.822 2019.34
-615.186 662.48 2019.26
-615.028 662.921 2019.5
-613.83 667.333 2021.71
-614.056 666.794 2021.61
-614.083 666.581 2021.37
-612.907 669.104 2021.38
-612.896 669.334 2021.71
-612.797 669.382 2021.5
-613.519 667.999 2021.73
-614.379 665.734 2021.25
-614.627 665.07 2021.24
-614.372 665.912 2021.46
-614.723 664.572 2021.02
-614.814 664.145 2020.78
-614.818 663.915 2020.46
-614.849 663.497 2019.95
-614.922 663.526 2020.3
-612.005 656.037 1979.05
-612.345 656.419 1978.89
-611.464 654.141 1981.07
-612.248 654.908 1980.94
-613.193 658.749 1976.08
-612.597 656.753 1978.67
-609.88 652.575 1981.53
-611.136 653.491 1981.69
-609.745 652.211 1982.07
-607.914 650.212 1983.65
-608.521 650.724 1983.52
-608.686 651.08 1982.89
-607.461 649.83 1983.76
-610.114 652.183 1982.77
-622.486 674.581 2044.29
-618.937 679.933 2041.97
-619.369 679.399 2042.24
-622.176 674.873 2043.72
-621.923 674.846 2042.96
-621.558 675.362 2042.64
-620.928 677.165 2043.2
-619.893 678.531 2042.39
-616.866 681.637 2040.14
-617.937 680.638 2040.99
-616.911 681.369 2040.04
-610.022 592.831 1990.71
-610.116 592.788 1990.61
-610.14 592.844 1990.53
-610.306 592.75 1990.36
-610.153 592.916 1990.46
-610.683 592.619 1990.13
-610.495 592.743 1990.21
-610.389 592.738 1990.27
-610.695 592.746 1990.09
-607.469 649.551 1984.89
-607.754 649.902 1984.33
-607.561 649.511 1985.56
-607.417 649.293 1986.32
-601.101 637.663 2005.23
-601.119 637.782 2005.5
-601.137 637.889 2005.76
-601.143 638.009 2005.91
-601.306 638.715 2006.46
-601.316 638.622 2006.56
-601.242 638.584 2006.32
-601.261 638.5 2006.46
-601.246 638.409 2006.48
-601.184 638.364 2006.25
-601.18 638.288 2006.32
-601.163 638.195 2006.25
-601.169 638.067 2006.2
-606.677 648.614 1987.61
-607.324 649.121 1987.2
-606.405 648.302 1989.06
-606.326 648.277 1991.92
-605.92 648.105 1994.58
-606.431 648.321 1990.37
-606.63 648.712 1997.09
-606.876 648.943 1997.7
-607.434 649.425 1998.01
-607.655 649.741 1998.91
-607.744 649.754 1998.49
-607.901 650.077 1999.75
-607.699 649.898 2000.08
-607.464 649.674 2000.39
-607.962 650.085 1999.36
-606.907 648.981 2001.75
-607.099 649.244 2001.5
-607.208 649.408 2001.11
-607.47 649.701 2000.86
-606.783 648.689 2002.75
-606.856 648.843 2002.47
-606.951 648.994 2002.22
-606.983 648.847 2003.23
-606.935 648.695 2003.55
-604.284 642.749 2006.71
-604.618 642.335 2008.28
-605.138 642.709 2008.93
-604.795 642.295 2008.76
-605.427 642.897 2009.48
-605.925 643.606 2009.99
-605.733 643.189 2010.12
-607.18 648.816 2004.57
-607.128 648.497 2005.14
-607.149 648.928 2004.09
-606.328 645.715 2007.57
-606.725 647.372 2005.92
-607.056 648.145 2005.73
-606.518 645.079 2009.57
-606.407 644.643 2009.9
-606.282 644.24 2010.18
-603.736 641.762 2007.32
-603.139 640.854 2007.78
-603.199 640.419 2008.7
-603.309 640.661 2008.54
-603.109 640.193 2008.87
-602.943 640.025 2008.78
-602.452 640.054 2007.6
-602.323 639.876 2007.63
-601.697 638.869 2007.61
-601.675 638.782 2007.6
-602.393 639.348 2008.76
-602.315 639.181 2008.91
-602.175 639.069 2008.79
-602.07 638.953 2008.8
-602.514 639.48 2008.78
-601.951 638.846 2008.71
-601.924 638.742 2008.66
-602.59 639.628 2008.68
-601.652 638.703 2007.57
-601.388 638.775 2006.67
-601.138 637.519 2005.42
-601.145 637.363 2005.4
-601.179 637.22 2005.57
-601.251 637.134 2005.92
-601.466 636.987 2006.74
-601.458 637.136 2006.8
-601.746 637.052 2007.76
-601.801 637.057 2008
-601.82 637.152 2008.11
-601.879 637.123 2008.39
-601.977 637.038 2008.81
-602.046 637.048 2009.14
-602.091 637.041 2009.35
-602.869 630.587 2011.22
-602.789 630.026 2011.66
-602.745 629.485 2012.07
-602.637 629.243 2012.42
-602.877 631.63 2010.89
-602.668 632.59 2010.91
-602.518 633.178 2011.03
-602.323 634.244 2011.1
-602.355 633.674 2011.24
-602.297 634.715 2011.04
-602.445 628.535 2013.14
-602.492 628.799 2012.91
-602.515 629.073 2012.72
-602.258 635.078 2011.1
-602.331 636.073 2010.76
-602.313 635.903 2010.83
-602.303 635.929 2010.93
-602.279 635.676 2010.99
-602.248 635.421 2011.12
-603.35 626.1 2014.8
-603.432 625.875 2015.01
-603.068 626.66 2014.62
-602.898 627.048 2014.4
-602.738 627.431 2014.15
-602.436 628.124 2013.74
-602.423 627.989 2014.06
-602.286 628.524 2013.47
-603.009 626.614 2015
-604.353 624.196 2015.38
-604.782 623.435 2015.76
-605.252 622.651 2016.83
-604.013 624.841 2015.4
-605.257 623.122 2020.01
-605.524 622.576 2020.03
-603.507 625.685 2015.21
-603.657 625.467 2015.5
-602.171 636.953 2009.72
-602.209 636.991 2009.92
-602.133 637.053 2009.55
-602.324 636.546 2010.68
-602.329 636.441 2010.74
-602.32 636.702 2010.64
-602.333 636.33 2010.8
-602.239 637.073 2010.09
-602.258 636.948 2010.19
-602.286 636.938 2010.34
-602.307 636.85 2010.47
-602.315 636.728 2010.54
-606.832 617.55 2017.62
-606.891 616.86 2017
-606.762 618.19 2018.36
-606.724 618.688 2019.07
-606.737 618.852 2019.77
-606.653 619.314 2019.99
-606.273 620.84 2019.44
-606.523 619.884 2020.85
-606.603 619.562 2020.47
-605.546 622.571 2020.84
-605.784 621.999 2021.12
-608.549 605.359 2009.84
-608.398 605.789 2009.72
-608.848 606.133 2008.15
-608.626 606.473 2008.37
-608.391 606.049 2009.45
-608.402 606.806 2008.6
-608.322 608.408 2007.37
-608.452 607.826 2007.61
-608.233 607.073 2008.79
-608.701 605.044 2010
-608.844 604.751 2010.22
-608.128 608.956 2007.57
-607.907 609.491 2008.03
-607.692 610.053 2008.39
-607.547 610.495 2008.85
-607.282 611.566 2009.36
-607.141 612.096 2009.41
-606.999 612.623 2009.47
-606.863 613.152 2009.57
-607.413 611.065 2009.3
-606.783 613.594 2010.07
-606.773 614.061 2011.26
-606.755 614.812 2012.55
-606.774 613.788 2010.74
-606.931 616.093 2016.2
-612.83 596.58 1988.87
-612.04 597.462 1989.59
-612.289 597.325 1989.33
-612.421 597.136 1989.22
-612.418 596.927 1989.23
-612.572 596.75 1989.1
-613.204 595.91 1988.51
-613.379 595.564 1988.32
-613.606 595.118 1988.08
-613.724 594.628 1987.98
-613.911 594.374 1987.87
-612.958 596.237 1988.75
-613.806 594.066 1987.99
-613.962 593.739 1987.93
-611.546 598.398 1990.57
-611.625 598.276 1990.45
-611.465 598.521 1990.69
-611.683 597.847 1990.18
-611.635 597.983 1990.31
-611.688 597.657 1990.06
-611.886 597.594 1989.82
-611.561 598.081 1990.45
-611.254 592.518 1989.81
-610.826 592.73 1990.01
-610.884 592.803 1989.96
-611.49 592.447 1989.68
-611.709 592.381 1989.56
-612.95 592.877 1988.73
-613.826 593.486 1988.06
-612.811 593.117 1988.77
-611.787 592.853 1989.4
-611.739 592.633 1989.46
-611.371 592.769 1989.66
-611.535 599.583 1991.15
-611.544 599.453 1991.03
-611.466 599.139 1990.99
-611.44 598.978 1990.93
-611.421 598.824 1990.85
-611.485 599.301 1991.07
-611.411 598.664 1990.78
-611.486 599.819 1991.5
-611.48 599.636 1991.33
-611.371 599.897 1991.93
-611.428 599.858 1991.72
-611.221 600.332 1994.34
-611.245 600.392 1994.08
-611.298 600.543 1993.58
-611.305 600.505 1993.32
-611.25 600.368 1993.91
-611.295 600.388 1993.08
-611.287 600.281 1992.85
-611.276 600.143 1992.61
-611.296 600.108 1992.36
-611.308 599.941 1992.17
-612.336 598.075 1998.47
-612.455 597.623 1998.61
-611.398 600.254 1995.89
-611.558 599.752 1996.66
-611.493 599.935 1996.38
-611.433 600.009 1996.11
-611.687 599.539 1997.19
-611.617 599.605 1996.92
-612.068 598.721 1997.88
-612.193 598.392 1998.1
-611.932 598.934 1997.59
-612.302 597.998 1998.25
-611.781 599.158 1997.26
-611.367 600.103 1995.66
-611.288 600.077 1995.2
-611.242 600.148 1994.92
-611.203 600.221 1994.65
-611.334 600.009 1995.49
-609.092 604.22 2010.86
-609.159 604.12 2011.37
-608.892 604.577 2010.52
-612.732 598.798 2012.05
-611.284 601.157 2011.66
-609.27 603.991 2011.77
-609.494 603.711 2012.07
-613.429 596.026 1999.82
-613.829 595.481 2000.21
-613.972 595.391 2000.54
-613.138 596.463 1999.47
-612.885 596.842 1999.13
-614.58 594.721 2001.29
-614.501 594.657 2001.01
-612.644 597.177 1998.8
-619.37 585.437 1999.73
-617.944 586.255 1997.93
-615.5 588.149 1996.06
-619.747 585.435 2000.65
-609.458 593.234 1991.18
-609.236 593.412 1991.35
-609.063 593.639 1991.48
-610.234 592.258 1992.63
-610.437 592.059 1992.69
-609.774 592.753 1992.55
-609.813 592.753 1992.64
-609.967 592.58 1992.65
-610.09 592.461 1992.7
-609.669 592.843 1992.48
-610.645 591.989 1992.95
-611.143 591.668 1993.31
-611.649 591.371 1993.72
-612.808 590.595 1994.78
-613.899 589.615 1995.53
-608.978 593.735 1991.61
-608.934 593.754 1991.73
-608.955 593.561 1991.98
-608.969 593.567 1992.09
-609.094 593.387 1992.07
-609.077 593.457 1992.17
-609.188 593.293 1992.15
-608.912 593.686 1991.91
-609.19 593.331 1992.24
-609.289 593.195 1992.24
-609.285 593.247 1992.35
-608.872 593.807 1991.85
-609.409 593.125 1992.43
-609.274 593.31 1992.46
-609.56 592.946 1992.43
-609.85 592.955 1990.86
-609.587 593.187 1991.04
-609.339 676.403 2022.39
-609.453 676.103 2022.43
-609.601 675.8 2022.46
-612.09 673.239 2023.6
-610.413 674.768 2022.74
-609.918 675.357 2022.56
-614.114 669.921 2024.13
-613.514 670.683 2023.91
-614.533 669.447 2024.39
-612.892 671.527 2023.68
-615.251 668.934 2024.99
-614.899 668.991 2024.62
-615.661 669.064 2025.47
-616.31 670.355 2026.53
-617.403 670.846 2027.7
-620.441 675.641 2040.39
-620.016 676.749 2040.8
-619.422 671.999 2030.72
-619.337 671.88 2030.47
-619.317 671.636 2030.28
-619.203 671.652 2030.06
-619.483 672.189 2031
-619.513 672.37 2031.27
-619.186 671.424 2029.87
-619.011 671.302 2029.58
-619.543 672.522 2031.51
-619.603 672.52 2031.7
-619.67 672.494 2032.04
-620.131 672.644 2035.17
-620.247 672.597 2035.6
-620.173 672.477 2035.15
-619.998 672.339 2033.7
-619.768 672.454 2032.52
-618.575 671.096 2028.97
-618.839 671.105 2029.29
-618.328 671 2028.65
-617.986 670.969 2028.29
-621.114 675.157 2041.31
-621.284 673.747 2040.03
-620.738 673.434 2038.29
-620.842 673.017 2038.06
-620.981 672.646 2037.99
-620.812 672.579 2037.4
-620.59 672.559 2036.72
-620.461 672.476 2036.22
-615.246 682.434 2038.49
-617.104 680.592 2039.75
-616.932 681.066 2039.87
-619.254 677.911 2040.71
-618.385 679.754 2040.98
-618.799 679.248 2041.22
-619.37 678.452 2041.48
-611.301 672.027 2021.73
-611.259 671.95 2021.57
-611.407 672 2021.89
-613.078 669.234 2021.98
-609.172 676.356 2022.19
-609.23 676.089 2022.19
-609.327 675.82 2022.18
-609.287 675.668 2022.03
-609.329 675.467 2021.92
-609.762 674.916 2022.07
-610.109 674.409 2022.13
-611.455 672.187 2022.19
-611.464 672.047 2022.05
-616.766 667.384 2014.51
-617.547 668.1 2013.87
-618.359 668.873 2013.21
-618.338 668.996 2013.2
-618.265 669.102 2013.21
-618.809 669.405 2012.78
-616.541 666.377 2014.79
-616.666 666.068 2014.74
-616.814 666.748 2014.54
-616.891 667.049 2014.46
-616.871 667.256 2014.46
-615.392 662.133 2017.43
-615.452 662.167 2017.2
-615.481 662.405 2016.99
-615.72 663.252 2016.15
-615.611 662.985 2016.38
-615.554 662.707 2016.56
-615.536 662.427 2016.74
-616.721 665.829 2014.7
-616.712 665.611 2014.69
-616.673 665.38 2014.71
-615.87 663.698 2015.79
-615.889 663.347 2015.87
-616.202 664.92 2015.16
-616.092 664.29 2015.31
-616.29 664.77 2015.07
-615.999 663.886 2015.53
-616.565 665.131 2014.82
-615.305 662.058 2017.82
-615.279 661.987 2017.96
-615.248 661.889 2018.07
-615.311 661.996 2017.64
-615.242 661.992 2018.81
-615.271 662.194 2019.15
-615.249 662.017 2018.98
-615.231 661.939 2018.6
-615.233 661.919 2018.44
-615.238 661.893 2018.26
-614.993 663.037 2019.66
-614.953 663.167 2019.82
-615.174 662.536 2019.42
-615.275 662.203 2019.32
-615.14 662.65 2019.58
-613.915 667.323 2021.97
-614.115 666.831 2021.88
-614.404 666.175 2021.91
-614.322 666.175 2021.64
-613.394 668.348 2021.83
-613.481 668.404 2022.08
-614.698 665.138 2021.54
-614.841 664.582 2021.39
-614.705 665.298 2021.76
-614.927 664.113 2021.17
-614.981 663.597 2020.66
-615.034 663.673 2021
-615.001 663.194 2020.12
-615.062 663.251 2020.47
-612.93 655.493 1980.95
-612.225 654.349 1981.78
-612.841 654.926 1981.68
-613.702 659.028 1976.17
-612.832 657.022 1978.5
-613.294 655.909 1980.72
-611.471 653.387 1982.42
-612.363 654.148 1982.37
-612.195 653.71 1982.99
-608.353 650.429 1984.14
-610.039 651.786 1983.74
-609.722 651.414 1984.28
-610.517 652.273 1983.35
-612.448 653.719 1983.49
-623.316 672.508 2044.18
-623.009 672.806 2043.56
-622.526 673.136 2042.47
-622.843 672.591 2042.77
-617.978 680.291 2040.8
-622.198 673.223 2041.69
-620.634 676.646 2041.98
-620.156 677.469 2041.88
-609.979 592.97 1990.66
-609.787 593.118 1990.81
-609.945 593.094 1990.61
-610.181 592.974 1990.37
-609.914 593.217 1990.55
-610.49 592.871 1990.17
-610.298 592.953 1990.26
-610.661 592.946 1990.04
-610.495 592.994 1990.13
-608.011 649.929 1985.15
-608.304 650.241 1984.73
-607.996 649.751 1986.08
-608.626 650.281 1985.69
-608.158 649.729 1987.12
-601.136 637.658 2005.56
-601.155 637.74 2005.81
-601.177 637.934 2006.14
-601.187 637.807 2006.11
-601.625 638.61 2007.54
-601.607 638.526 2007.52
-601.581 638.432 2007.49
-601.572 638.335 2007.49
-601.534 638.235 2007.42
-601.518 638.142 2007.39
-601.506 638.023 2007.32
-601.497 637.9 2007.25
-606.944 648.755 1988.17
-607.598 649.229 1988.1
-607.072 648.767 1989.19
-606.284 648.364 1994.66
-606.913 648.691 1992.92
-607.185 648.818 1991.48
-607.918 649.3 1990.41
-607.366 649.313 1997.54
-607.667 649.459 1996.9
-607.201 649.064 1996.31
-607.79 649.676 1997.65
-607.853 649.783 1998.07
-607.976 650.039 1998.9
-608.08 650.046 1998.4
-607.946 650.159 2000.23
-608.166 650.4 1999.99
-607.714 649.939 2000.56
-608.262 650.459 1999.6
-607.115 649.222 2002.01
-607.313 649.472 2001.8
-607.382 649.584 2001.33
-607.671 649.915 2001.12
-607.077 649.054 2002.96
-607.149 649.183 2002.69
-607.254 649.359 2002.52
-607.304 649.288 2003.47
-607.277 649.176 2003.83
-604.001 641.483 2008.49
-605.201 642.557 2009.39
-604.966 642.387 2009.03
-604.128 641.337 2009.04
-605.492 642.845 2009.93
-606.104 643.799 2010.38
-605.989 643.487 2010.6
-605.746 643.102 2010.45
-607.398 649.121 2005.11
-607.473 649.376 2004.79
-607.318 648.832 2005.55
-607.534 649.561 2004.46
-606.6 646.045 2008.04
-606.982 647.676 2006.47
-607.261 648.421 2006.27
-606.76 645.187 2010.54
-606.871 645.57 2010.28
-606.745 644.99 2010.87
-606.372 644.245 2010.63
-603.42 640.526 2009.01
-603.338 640.27 2009.26
-603.191 639.984 2009.41
-602.88 639.827 2008.97
-602.657 639.767 2008.57
-601.917 638.647 2008.65
-601.908 638.547 2008.62
-602.624 639.381 2009.27
-602.462 639.278 2009.09
-602.35 639.135 2009.23
-602.218 639.044 2009.05
-602.102 638.941 2009.03
-601.996 638.856 2008.94
-602.745 639.511 2009.27
-601.951 638.763 2008.85
-601.953 638.669 2008.88
-602.84 639.653 2009.2
-601.859 638.503 2008.45
-601.162 637.593 2005.75
-601.167 637.468 2005.68
-601.182 637.34 2005.7
-601.251 637.262 2006.02
-601.462 637.269 2006.87
-601.747 637.185 2007.81
-601.749 637.304 2007.86
-601.822 637.274 2008.15
-601.871 637.274 2008.37
-601.933 637.2 2008.65
-602.006 637.157 2008.97
-602.054 637.193 2009.21
-602.095 637.2 2009.41
-602.783 630.387 2011.51
-602.828 631.297 2011.14
-602.698 629.958 2011.93
-602.671 629.656 2012.13
-602.531 629.463 2012.44
-602.434 629.26 2012.72
-602.692 632.244 2011.02
-602.497 632.989 2011.15
-602.26 634.783 2011.17
-602.275 634.369 2011.25
-602.374 633.283 2011.37
-602.284 633.926 2011.39
-602.305 628.787 2013.22
-602.344 629.01 2013.02
-602.224 635.148 2011.24
-602.328 636.211 2010.89
-602.317 636.22 2010.99
-602.298 636.071 2011.06
-602.276 635.795 2011.08
-602.25 635.584 2011.2
-603.06 626.444 2015.2
-603.082 626.321 2015.42
-602.73 627.098 2014.91
-602.49 627.559 2014.69
-602.191 628.136 2014.43
-601.842 628.981 2013.86
-601.728 628.958 2014.18
-602.01 628.96 2013.57
-602.366 627.464 2015.45
-602.104 627.918 2015.26
-604.106 624.69 2015.73
-604.43 624.113 2015.96
-604.795 623.532 2016.68
-605.04 623.377 2018.84
-603.788 625.279 2015.85
-604.653 624.349 2020.84
-604.803 624.14 2021.55
-605.043 623.671 2021.83
-603.203 626.105 2015.65
-603.365 625.889 2015.97
-602.176 637.114 2009.77
-602.209 637.184 2009.94
-602.138 637.204 2009.61
-602.322 636.8 2010.75
-602.326 636.725 2010.82
-602.33 636.612 2010.87
-602.315 636.928 2010.62
-602.318 636.979 2010.74
-602.334 636.471 2010.92
-602.244 637.259 2010.13
-602.274 637.137 2010.28
-602.304 637.078 2010.46
-602.311 637.077 2010.58
-607.139 616.566 2019.25
-607.229 615.735 2018.53
-607.23 615.058 2017.74
-607.135 617.135 2020.26
-607.168 617.442 2020.94
-607.146 617.692 2021.33
-606.99 618.363 2021.91
-606.117 621.043 2021.9
-606.408 620.211 2021.63
-606.681 619.298 2022.81
-605.31 623.116 2022.58
-606.072 620.911 2023.43
-608.158 605.671 2010.5
-608.147 605.859 2010.25
-608.104 606.228 2009.93
-608.115 606.447 2009.66
-607.873 606.721 2009.93
-608.237 608.435 2007.73
-608.344 607.979 2007.84
-608.154 607.277 2008.9
-607.764 606.99 2009.93
-608.356 605.327 2010.64
-608.297 605.326 2011.07
-608.092 608.893 2007.91
-607.723 609.835 2008.59
-607.902 609.328 2008.34
-607.492 610.605 2009.29
-607.594 610.126 2009
-607.213 611.843 2009.83
-607.317 611.433 2009.77
-607.091 612.268 2009.88
-606.975 612.701 2009.99
-606.871 613.27 2010.16
-607.384 610.915 2009.74
-606.906 613.977 2012.41
-606.894 613.638 2011.68
-606.968 615.011 2014.76
-606.879 613.416 2010.88
-607.209 614.532 2016.82
-612.708 596.463 1988.99
-611.793 597.47 1989.84
-611.941 597.295 1989.62
-612.144 597.28 1989.45
-612.239 597.086 1989.37
-612.203 596.892 1989.4
-612.369 596.739 1989.27
-612.513 596.558 1989.16
-612.914 596.08 1988.79
-613.089 595.726 1988.59
-613.32 595.335 1988.34
-613.48 594.958 1988.16
-613.55 594.549 1988.1
-613.668 594.313 1988.05
-613.663 593.721 1988.14
-613.625 594.035 1988.12
-611.461 598.309 1990.68
-611.523 598.198 1990.56
-611.352 598.515 1990.85
-611.404 598.391 1990.77
-611.559 597.831 1990.3
-611.568 597.697 1990.21
-611.514 597.932 1990.41
-611.554 597.542 1990.13
-611.426 598.059 1990.58
-611.431 597.951 1990.51
-610.974 592.858 1989.89
-610.757 593.01 1989.97
-611.109 592.872 1989.8
-611.644 593.141 1989.43
-612.683 593.363 1988.81
-611.62 593.393 1989.41
-611.234 593.144 1989.63
-611.216 593.012 1989.68
-610.923 593.154 1989.83
-611.469 599.404 1991.17
-611.387 599.427 1991.28
-611.41 599.146 1991.12
-611.386 598.994 1991.08
-611.372 598.846 1991.01
-611.355 598.69 1990.93
-611.353 599.204 1991.22
-611.423 599.675 1991.54
-611.31 599.477 1991.41
-611.312 599.769 1991.99
-611.365 599.713 1991.76
-611.178 600.127 1994.53
-611.201 600.194 1994.25
-611.284 600.432 1993.47
-611.251 600.33 1993.76
-611.279 600.339 1993.23
-611.203 600.16 1994.09
-611.269 600.224 1993.01
-611.262 600.134 1992.81
-611.259 599.982 1992.42
-611.245 599.992 1992.64
-611.251 599.817 1992.23
-612.403 597.643 1998.41
-612.494 597.211 1998.45
-611.513 599.635 1996.46
-611.543 599.444 1996.67
-611.451 599.717 1996.18
-611.388 599.825 1995.88
-611.626 599.328 1996.97
-612.166 598.287 1997.89
-612.034 598.55 1997.63
-612.285 597.867 1998.07
-611.89 598.78 1997.34
-612.391 597.49 1998.23
-611.719 598.964 1997.05
-611.287 599.865 1995.43
-611.251 599.935 1995.15
-611.206 599.972 1994.89
-611.314 599.801 1995.65
-608.537 604.868 2011.67
-608.582 604.871 2011.23
-608.573 604.834 2012.02
-612.682 598.985 2012.94
-611.293 601.167 2012.34
-609.812 603.313 2012.42
-608.679 604.748 2012.3
-608.809 604.627 2012.54
-609.019 604.397 2012.74
-613.416 595.87 1999.67
-613.815 595.343 2000.02
-614.239 594.888 2000.62
-614.235 594.76 2000.41
-613.131 596.281 1999.33
-612.886 596.637 1999
-614.987 593.94 2001.25
-614.653 594.277 2000.88
-612.681 596.872 1998.68
-615.646 592.906 2001.56
-618.863 585.991 1999.53
-617.779 586.468 1998.03
-615.448 588.322 1996.36
-619.266 585.992 2000.42
-609.255 593.522 1991.22
-609.119 593.615 1991.36
-608.969 593.836 1991.48
-608.891 593.917 1991.6
-610.309 592.256 1992.78
-609.588 592.986 1992.58
-609.644 592.959 1992.66
-609.697 592.939 1992.74
-609.857 592.749 1992.74
-609.97 592.652 1992.8
-610.205 592.44 1992.89
-609.466 593.103 1992.53
-610.485 592.203 1993.01
-610.84 591.953 1993.24
-611.294 591.663 1993.57
-611.628 591.508 1993.91
-612.656 590.816 1994.79
-613.879 589.754 1995.71
-608.843 593.942 1991.72
-608.776 593.997 1991.86
-608.848 593.745 1992.11
-608.821 593.798 1992.03
-608.843 593.8 1992.22
-608.961 593.626 1992.2
-608.953 593.687 1992.31
-609.068 593.515 1992.28
-608.777 593.925 1991.97
-609.074 593.546 1992.37
-609.176 593.402 1992.36
-609.171 593.456 1992.46
-609.297 593.317 1992.54
-609.159 593.527 1992.59
-609.577 593.291 1990.96
-609.348 593.495 1991.11
-611.848 673.204 2023.33
-611.701 673.068 2023.1
-610.257 674.697 2022.53
-609.789 675.266 2022.36
-613.702 670.035 2023.77
-614.152 669.441 2023.96
-613.114 670.767 2023.54
-614.556 668.976 2024.23
-612.63 671.316 2023.3
-615.644 668.448 2025.24
-615.347 668.372 2024.88
-614.973 668.488 2024.51
-615.98 668.798 2025.73
-616.465 670.11 2026.65
-617.449 670.363 2027.68
-616.621 669.813 2026.75
-619.518 671.847 2030.83
-619.437 671.652 2030.54
-619.41 671.385 2030.31
-619.299 671.403 2030.09
-619.569 672.047 2031.13
-619.614 672.182 2031.4
-619.265 671.22 2029.88
-619.12 671.081 2029.61
-619.685 672.154 2031.64
-619.757 672.077 2031.92
-619.76 672.358 2032.42
-620.337 672.385 2035.71
-620.251 672.277 2035.28
-620.184 672.294 2034.9
-620.016 672.211 2033.65
-618.677 670.876 2029
-618.36 670.794 2028.65
-618.932 670.898 2029.31
-618.006 670.728 2028.28
-621.446 673.162 2039.75
-621.693 672.668 2039.8
-621.142 672.28 2037.99
-621.95 672.151 2039.86
-620.874 672.343 2037.3
-620.667 672.352 2036.72
-620.536 672.272 2036.27
-612.733 669.9 2021.98
-612.8 670.006 2022.23
-612.703 670.352 2022.42
-613.35 668.997 2022.33
-613.672 668.279 2022.35
-609.739 675.108 2022.2
-610.183 674.545 2022.35
-611.366 672.539 2022.36
-612.656 670.837 2022.87
-612.66 670.625 2022.64
-617.569 667.888 2013.89
-618.407 668.762 2013.21
-618.932 669.118 2012.77
-618.903 669.259 2012.76
-616.857 666.448 2014.55
-616.983 666.138 2014.5
-617.775 667.302 2013.83
-617.731 667.399 2013.85
-617.676 667.533 2013.88
-617.614 667.687 2013.9
-615.362 661.99 2017.43
-615.505 662.177 2016.98
-615.424 662.013 2017.21
-615.817 663.064 2016.05
-615.714 662.811 2016.26
-615.633 662.533 2016.44
-615.552 662.149 2016.78
-615.604 662.301 2016.56
-616.996 665.894 2014.48
-616.975 665.663 2014.47
-616.963 665.452 2014.46
-616.009 663.503 2015.64
-616.018 663.154 2015.72
-616.262 664.065 2015.16
-616.422 664.553 2014.92
-616.614 664.952 2014.78
-616.139 663.632 2015.4
-616.881 665.233 2014.52
-615.272 661.916 2017.79
-615.248 661.845 2017.9
-615.214 661.764 2018.14
-615.218 661.741 2017.97
-615.276 661.849 2017.64
-615.224 661.866 2018.85
-615.218 661.851 2018.68
-615.258 662.059 2019.15
-615.232 661.899 2019.02
-615.206 661.802 2018.49
-615.206 661.775 2018.32
-615.106 662.762 2019.73
-615.068 662.885 2019.88
-615.269 662.286 2019.49
-615.265 662.079 2019.37
-615.246 661.972 2019.2
-615.248 662.383 2019.66
-613.838 667.657 2022.14
-614.136 667.078 2022.18
-614.314 666.573 2022.08
-614.854 665.283 2022.22
-614.662 665.536 2021.93
-614.613 665.959 2022.25
-613.987 667.581 2022.35
-614.944 664.636 2021.75
-615.053 664.105 2021.55
-615.012 664.745 2022.08
-615.133 663.666 2021.35
-615.124 663.32 2020.84
-615.214 663.286 2021.17
-615.196 662.882 2020.46
-615.123 662.878 2020.14
-615.197 663.045 2020.71
-613.437 655.455 1981.63
-613.01 654.705 1982.32
-613.45 655.134 1982.19
-613.702 658.217 1977.47
-613.178 657.077 1978.76
-613.624 656.245 1980.55
-613.817 655.829 1981.43
-613.073 654.482 1982.83
-613.201 654.351 1983.35
-609.599 651.182 1984.86
-612.494 653.406 1984.5
-612.621 653.636 1984.04
-612.436 653.251 1984.92
-613.334 654.232 1983.87
-623.539 671.714 2043.93
-623.251 671.923 2043.23
-622.569 672.409 2041.74
-622.971 671.962 2042.36
-623.774 671.007 2043.87
-623.927 670.576 2043.95
-609.709 593.296 1990.77
-609.504 593.461 1990.92
-609.68 593.42 1990.71
-609.968 593.246 1990.48
-610.111 593.183 1990.37
-609.7 593.509 1990.67
-610.294 593.111 1990.24
-610.56 593.168 1990.05
-610.452 593.165 1990.12
-610.282 593.264 1990.24
-609.494 650.964 1985.47
-609.475 650.745 1986.61
-611.805 652.516 1986.23
-609.299 650.403 1988.43
-610.756 651.533 1987.78
-601.203 637.67 2006.09
-601.491 637.776 2007.18
-601.485 637.65 2007.11
-601.867 638.394 2008.5
-601.814 638.356 2008.32
-601.847 638.252 2008.45
-601.781 638.236 2008.23
-601.744 638.174 2008.11
-601.78 638.066 2008.24
-601.733 638.031 2008.09
-601.738 637.921 2008.07
-601.74 637.802 2008.03
-601.743 637.675 2008
-608.626 649.852 1989.37
-607.053 648.872 1994.97
-608.439 649.666 1992.67
-608.22 649.574 1993.87
-608.666 649.792 1991.65
-611.463 651.721 1991.62
-611.223 651.583 1990.74
-608.357 649.979 1996.88
-608.324 649.816 1996.04
-608.32 649.703 1995.18
-608.21 650.072 1997.93
-608.302 650.051 1997.39
-608.279 650.307 1998.76
-608.297 650.424 1999.21
-608.441 650.357 1998.32
-608.038 650.302 2000.6
-608.269 650.588 2000.47
-608.44 650.759 2000.1
-607.867 650.13 2000.86
-608.569 650.863 1999.72
-607.439 649.644 2002.41
-607.564 649.77 2001.57
-607.577 649.797 2002.11
-607.794 650.058 2001.68
-607.967 650.274 2001.3
-607.357 649.419 2003.2
-607.541 649.751 2003.2
-607.61 649.907 2002.98
-607.64 649.889 2003.81
-607.606 649.775 2004.13
-604.89 642.104 2009.36
-604.96 642.128 2009.57
-605.245 642.51 2009.73
-604.28 641.296 2009.49
-603.589 640.587 2009.29
-605.466 642.735 2010.18
-606.285 643.989 2010.84
-606.069 643.515 2010.95
-605.77 643.054 2010.73
-607.864 650.045 2006.54
-607.902 650.19 2006.35
-607.981 650.469 2006.01
-607.94 650.331 2006.17
-607.801 649.811 2006.76
-608.019 650.594 2005.72
-606.891 646.408 2008.71
-607.192 647.891 2007.15
-607.728 649.523 2007.04
-607.707 649.296 2007.49
-607.676 646.39 2012.5
-607.686 646.53 2012.23
-607.627 646.661 2011.65
-606.926 645.147 2011.47
-607.774 646.394 2013
-603.53 640.336 2009.59
-603.35 640.078 2009.64
-603.052 639.74 2009.54
-603.145 639.815 2009.66
-601.949 638.572 2008.85
-601.93 638.424 2008.72
-601.953 638.465 2008.89
-602.779 639.474 2009.57
-602.639 639.356 2009.5
-602.49 639.237 2009.4
-602.359 639.106 2009.48
-602.203 638.997 2009.26
-602.034 638.851 2009.2
-601.975 638.743 2009.06
-602.91 639.592 2009.57
-601.974 638.613 2009.07
-601.217 637.535 2006.06
-601.236 637.404 2006.05
-601.469 637.399 2006.95
-601.477 637.525 2007.03
-601.746 637.43 2007.91
-601.828 637.4 2008.22
-601.896 637.353 2008.51
-601.95 637.314 2008.76
-602.018 637.314 2009.07
-602.063 637.356 2009.29
-602.111 637.344 2009.51
-602.751 630.963 2011.43
-602.688 630.234 2011.83
-602.725 631.795 2011.17
-602.567 629.961 2012.18
-602.53 629.718 2012.33
-602.362 629.56 2012.63
-602.306 629.378 2012.83
-602.251 629.167 2013.05
-602.511 632.641 2011.22
-602.221 634.824 2011.31
-602.226 634.428 2011.43
-602.275 633.605 2011.55
-602.396 632.911 2011.44
-602.096 629.036 2013.37
-602.22 635.315 2011.31
-602.333 636.52 2011.02
-602.318 636.428 2011.1
-602.301 636.3 2011.18
-602.278 635.981 2011.17
-602.251 635.741 2011.27
-602.461 627.248 2015.67
-602.526 627.082 2015.9
-601.656 628.652 2015.09
-601.573 628.857 2014.83
-601.365 629.268 2014.58
-601.276 629.664 2014.25
-601.601 629.402 2013.92
-601.154 629.68 2014.44
-601.649 629.487 2013.78
-600.189 630.382 2016.17
-600.175 630.379 2016.3
-600.264 630.26 2016.41
-600.239 630.353 2016
-604.008 624.917 2016.23
-604.225 624.548 2016.68
-604.267 624.524 2017.44
-604.686 623.887 2018.22
-604.403 624.706 2020.14
-603.5 625.707 2016.32
-604.492 624.721 2021.33
-604.228 625.073 2020.77
-604.711 624.383 2021.82
-604.998 623.833 2022.26
-602.547 627.036 2016.21
-602.569 627.003 2016.54
-602.163 637.308 2009.75
-602.205 637.338 2009.96
-602.322 637.002 2010.86
-602.327 636.892 2010.95
-602.332 636.721 2011
-602.314 637.161 2010.71
-602.318 637.206 2010.83
-602.27 637.348 2010.27
-602.225 637.462 2010.08
-602.299 637.27 2010.43
-602.307 637.291 2010.56
-602.31 637.328 2010.68
-607.32 616.134 2019.96
-607.426 615.1 2019.11
-607.457 614.252 2018.26
-607.376 613.946 2017.39
-607.399 616.371 2020.79
-607.394 616.77 2021.42
-607.199 617.743 2022.15
-607.418 617.053 2022.16
-606.896 618.709 2022.96
-606.186 620.512 2023.89
-605.418 622.673 2023.38
-607.856 606.115 2010.84
-607.965 605.869 2011
-607.912 606.125 2010.59
-607.907 606.268 2010.39
-607.811 606.564 2010.27
-607.609 607.009 2010.31
-608.209 608.053 2008.18
-608.134 608.423 2008.19
-608.078 607.472 2009.01
-607.675 607.201 2010.07
-608.051 605.617 2011.59
-607.848 605.987 2011.4
-608.043 608.842 2008.27
-607.734 609.644 2008.8
-607.885 609.206 2008.63
-607.477 610.399 2009.52
-607.587 609.917 2009.22
-607.192 611.787 2010.31
-607.288 611.337 2010.29
-607.323 611.008 2010.13
-607.085 612.302 2010.41
-606.964 612.979 2010.54
-607.351 610.553 2010.21
-607.415 610.355 2009.93
-606.924 613.717 2012.73
-607.027 614.002 2013.98
-606.95 613.244 2011.84
-607.204 613.966 2015.78
-606.983 612.786 2011.29
-607.349 613.575 2016.57
-612.633 596.3 1989.05
-611.642 597.399 1989.95
-611.783 597.285 1989.76
-611.847 597.092 1989.69
-612.03 597.062 1989.54
-612.171 596.695 1989.43
-612.043 596.836 1989.53
-612.316 596.549 1989.31
-612.438 596.363 1989.2
-612.764 595.973 1988.9
-612.895 595.659 1988.74
-613.118 595.399 1988.52
-613.238 595.072 1988.37
-613.397 594.768 1988.21
-613.142 594.504 1988.38
-613.403 594.29 1988.24
-613.297 593.877 1988.36
-612.514 593.596 1988.89
-613.054 594.108 1988.48
-611.338 598.221 1990.78
-611.404 598.16 1990.67
-611.286 598.538 1990.99
-611.246 598.361 1990.94
-611.333 598.335 1990.85
-611.424 597.799 1990.42
-611.467 597.707 1990.32
-611.44 597.572 1990.26
-611.484 597.406 1990.12
-611.398 597.438 1990.23
-611.309 598.071 1990.71
-611.325 597.957 1990.63
-611.344 597.846 1990.54
-610.841 593.083 1989.9
-610.64 593.231 1989.98
-611.145 593.439 1989.63
-611.565 593.663 1989.4
-611.275 593.674 1989.54
-610.926 593.308 1989.78
-610.883 593.485 1989.78
-610.714 593.301 1989.92
-610.756 593.396 1989.88
-611.257 599.206 1991.33
-611.231 599.3 1991.4
-611.268 598.982 1991.22
-611.255 598.816 1991.16
-611.278 598.679 1991.07
-611.177 599.017 1991.34
-611.245 599.51 1991.6
-611.12 599.287 1991.52
-611.152 599.626 1992.07
-611.197 599.568 1991.84
-611.154 599.988 1994.44
-611.162 599.931 1994.71
-611.247 600.268 1993.63
-611.262 600.272 1993.36
-611.204 600.12 1993.94
-611.253 600.161 1993.12
-611.16 599.964 1994.25
-611.24 600.024 1992.88
-611.217 599.845 1992.46
-611.234 599.885 1992.68
-611.097 599.673 1992.3
-612.626 596.708 1998.46
-612.475 597.03 1998.22
-611.454 599.47 1996.3
-611.54 599.182 1996.75
-611.464 599.252 1996.45
-611.381 599.552 1995.98
-611.299 599.58 1995.71
-612.136 598.15 1997.67
-612.252 597.813 1997.87
-611.997 598.382 1997.4
-612.372 597.347 1998.03
-611.833 598.592 1997.14
-611.631 598.842 1996.85
-611.2 599.745 1995.3
-611.202 599.637 1995.51
-611.155 599.738 1995.09
-611.117 599.743 1994.89
-608.128 605.491 2011.94
-608.214 605.369 2012.31
-611.058 601.586 2013.01
-611.769 600.607 2013.74
-609.463 603.862 2013.04
-608.348 605.238 2012.6
-608.594 604.971 2012.79
-608.9 604.621 2012.97
-613.414 595.692 1999.53
-613.804 595.188 1999.87
-614.215 594.649 2000.21
-614.662 594.06 2000.63
-613.116 596.115 1999.18
-612.882 596.37 1998.82
-614.974 593.677 2000.92
-615.446 592.996 2001.2
-616.326 591.503 2001.4
-618.371 586.482 1999.25
-617.562 586.77 1998.11
-615.595 588.36 1996.79
-619.071 586.42 2000.66
-609.078 593.802 1991.24
-609.01 593.825 1991.36
-608.878 594.033 1991.45
-608.829 594.063 1991.57
-608.749 594.128 1991.71
-609.456 593.183 1992.67
-609.525 593.146 1992.76
-609.598 593.103 1992.84
-609.76 592.908 1992.83
-609.897 592.82 1992.95
-610.132 592.609 1993.03
-610.399 592.373 1993.14
-609.348 593.284 1992.61
-610.681 592.156 1993.29
-611.113 591.873 1993.6
-611.362 591.789 1993.91
-611.832 591.476 1994.23
-612.92 590.755 1995.21
-613.998 589.773 1995.95
-608.722 594.13 1991.82
-608.637 594.207 1991.94
-608.671 594.128 1992
-608.732 593.928 1992.14
-608.724 593.975 1992.25
-608.668 594.068 1992.11
-608.712 594.041 1992.36
-608.836 593.856 1992.33
-608.845 593.889 1992.43
-608.958 593.729 1992.42
-609.052 593.625 1992.48
-609.067 593.645 1992.57
-609.21 593.49 1992.66
-609.011 593.775 1992.69
-609.083 593.693 1992.73
-609.281 593.649 1991.08
-611.562 672.907 2022.84
-613.903 669.407 2023.64
-613.465 670.053 2023.5
-614.298 668.886 2023.9
-613.107 670.476 2023.31
-614.717 668.357 2024.18
-612.65 671.053 2023.09
-615.714 667.965 2025.18
-615.925 668.145 2025.52
-615.548 667.733 2024.9
-615.256 667.94 2024.62
-616.262 668.652 2026.03
-617.579 670.076 2027.76
-616.822 669.478 2026.89
-619.551 671.532 2030.7
-619.607 671.724 2030.94
-619.518 671.314 2030.49
-619.496 671.119 2030.29
-619.383 671.175 2030.09
-619.653 671.816 2031.16
-619.708 671.84 2031.38
-619.336 670.998 2029.86
-619.187 670.838 2029.58
-619.784 671.748 2031.63
-619.857 671.661 2031.89
-619.8 672.136 2032.36
-620.029 672.094 2033.59
-620.421 672.162 2035.79
-620.324 672.051 2035.32
-620.226 672.136 2034.9
-618.928 670.686 2029.22
-618.578 670.655 2028.85
-618.234 670.529 2028.49
-617.924 670.364 2028.15
-621.21 672.048 2037.95
-622.054 671.766 2039.72
-622.893 671.6 2041.69
-620.945 672.152 2037.31
-620.735 672.17 2036.73
-620.6 672.084 2036.26
-613.314 669.323 2022.57
-613.302 669.555 2022.78
-613.652 668.646 2022.63
-613.896 668.078 2022.61
-614.142 667.499 2022.57
-611.593 672.498 2022.62
-613.222 670.098 2023.16
-613.264 669.82 2022.97
-618.399 668.622 2013.25
-619.025 669.016 2012.73
-617.099 666.465 2014.37
-617.237 666.148 2014.3
-617.916 667.076 2013.75
-617.845 667.167 2013.79
-618.873 668.453 2012.98
-618.618 668.46 2013.14
-618.674 668.086 2013.18
-618.392 668.473 2013.28
-615.334 661.853 2017.41
-615.476 662.007 2017
-615.391 661.868 2017.21
-615.926 662.894 2015.92
-615.819 662.656 2016.13
-615.816 662.428 2016.18
-615.588 662.051 2016.63
-615.515 661.968 2016.82
-615.714 662.206 2016.38
-617.255 665.928 2014.26
-617.264 665.724 2014.23
-617.22 665.457 2014.24
-616.16 663.279 2015.47
-616.125 662.955 2015.61
-616.401 663.741 2015.06
-616.566 664.318 2014.77
-616.763 664.76 2014.62
-616.989 665.126 2014.43
-615.227 661.73 2017.78
-615.18 661.639 2018.21
-615.185 661.621 2018.03
-615.193 661.609 2017.86
-615.261 661.731 2017.59
-615.208 661.746 2018.91
-615.202 661.734 2018.74
-615.194 661.707 2018.57
-615.219 661.799 2019.08
-615.183 661.665 2018.39
-615.218 662.49 2019.82
-615.198 662.583 2019.98
-615.278 662.15 2019.55
-615.249 661.965 2019.43
-615.234 661.882 2019.26
-615.29 662.213 2019.73
-614.276 667.047 2022.42
-614.412 666.597 2022.34
-615.168 664.658 2022.45
-614.954 665.321 2022.52
-614.715 666.009 2022.56
-615.152 664.138 2021.89
-615.286 663.622 2021.81
-615.239 664.185 2022.23
-615.31 663.305 2021.57
-615.278 663.009 2021.03
-615.359 663.008 2021.41
-615.315 662.757 2020.81
-615.27 662.585 2020.31
-615.354 662.522 2020.62
-613.894 655.485 1982.12
-613.684 655.056 1982.65
-613.877 656.75 1979.94
-614.138 656.301 1980.97
-614.297 655.932 1981.78
-613.73 654.846 1983.15
-613.811 654.694 1983.66
-612.238 652.986 1985.42
-613.683 654.105 1985.17
-613.593 654.144 1984.74
-613.546 654.212 1984.35
-613.642 653.963 1985.66
-613.922 654.591 1984.15
-623.551 671.172 2043.27
-623.278 671.338 2042.57
-624.048 670.157 2043.95
-623.713 670.715 2043.35
-623.84 670.309 2043.38
-609.437 593.625 1990.88
-609.216 593.809 1991.04
-609.478 593.678 1990.83
-609.857 593.442 1990.54
-610.047 593.374 1990.4
-609.592 593.714 1990.73
-609.413 593.824 1990.87
-610.442 593.394 1990.12
-610.312 593.396 1990.21
