-788.635 920.361 716.91
-794.007 909.011 776.037
-799.274 897.717 835.122
-804.433 886.481 894.155
-809.483 875.308 953.124
-814.421 864.201 1012.02
-819.244 853.163 1070.83
-823.995 842.097 1130.08
-828.624 831.11 1189.21
-833.13 820.205 1248.21
-837.511 809.386 1307.07
-841.804 798.561 1366.3
-845.966 787.831 1425.36
-850.029 777.109 1484.74
-853.957 766.491 1543.93
-857.748 755.98 1602.9
-861.43 745.493 1662.15
-864.972 735.123 1721.16
-868.397 724.789 1780.4
-871.704 714.499 1839.85
-874.862 704.339 1899.02
-877.895 694.236 1958.36
-880.798 684.195 2017.85
-883.549 674.298 2077.03
-886.166 664.475 2136.32
-888.648 654.733 2195.72
-890.99 645.079 2255.19
-893.191 635.519 2314.72
-895.249 626.06 2374.29
-897.162 616.709 2433.88
-898.929 607.471 2493.48
-900.549 598.353 2553.08
-902.022 589.361 2612.65
-903.348 580.5 2672.19
-904.528 571.776 2731.68
-905.562 563.194 2791.11
-906.457 554.706 2850.85
-907.208 546.374 2910.51
-907.818 538.2 2970.07
-908.29 530.191 3029.54
-908.629 522.302 3089.27
-908.837 514.588 3148.88
-908.919 507.008 3208.73
-908.879 499.612 3268.47
-908.725 492.401 3328.09
-908.461 485.34 3387.93
-908.097 478.471 3447.67
-907.641 471.796 3507.31
-907.1 465.281 3567.19
-906.488 458.964 3627
-905.815 452.845 3686.75
-905.095 446.923 3746.46
-904.337 441.169 3806.46
-903.558 435.611 3866.46
-902.774 430.248 3926.5
-902.006 425.102 3986.3
-901.266 420.144 4046.2
-900.572 415.368 4106.24
-899.946 410.792 4166.16
-899.407 406.409 4226.01
-898.973 402.191 4286.13
-898.665 398.151 4346.28
-898.506 394.297 4406.21
-898.513 390.601 4466.27
-898.707 387.071 4526.24
-899.106 383.693 4586.16
-899.73 380.456 4646.09
-900.597 377.349 4706.08
-901.725 374.359 4766.2
-903.127 371.488 4826.21
-904.817 368.723 4886.16
-906.808 366.051 4946.11
-909.114 363.46 5006.09
-911.747 360.938 5066.17
-914.706 358.484 5126.08
-918.013 356.076 5186.17
-921.661 353.713 5246.18
-925.654 351.385 5306.13
-929.648 349.058 5366.09
-933.641 346.73 5426.04
-937.634 344.402 5485.99
-941.628 342.075 5545.95
