4030.79 -300.361 4033.15
4029.02 -292.919 4022.1
4029.93 -296.389 4027.88
4029.19 -296.86 4033.79
4027.45 -291.497 4024.45
4028.02 -294.802 4030.76
4027.5 -290.258 4022.02
4028.73 -294.61 4028.25
4030.53 -298.708 4032.86
4028.92 -292.282 4022.48
4029.53 -295.597 4027.82
4029.91 -297.292 4027.56
4028.76 -292.395 4020.75
4028.73 -293.394 4021.18
4028.84 -291.654 4021.1
4028.32 -289.287 4017.63
4026.17 -289.624 4023.1
4027 -294.252 4031.61
4026.6 -288.849 4020.98
4029.81 -297.018 4032.05
4027.93 -290.712 4022.05
4026.3 -287.065 4018
4027.13 -287.682 4017.97
4030.13 -297.891 4033.14
4028.42 -291.804 4023
4028.58 -290.247 4020.85
4029.48 -298.185 4027.27
4028.32 -292.716 4019.51
4028.27 -290.248 4017.62
4027.77 -289.849 4016.54
4027.85 -288.948 4016.37
4025.18 -289.07 4023.48
4024.39 -285.308 4017.45
4023.4 -284.691 4017.65
4027.93 -288.207 4017.61
4024.58 -284.291 4016.02
4025.27 -285.322 4015.7
4023.8 -287.79 4022.83
4028.82 -297.073 4024.72
4027.83 -292.028 4018.03
4027.65 -290.912 4016.89
4027.55 -288.531 4015.67
4027.22 -287.362 4015.5
4026.16 -286.155 4014.22
4027.3 -289.057 4015.34
4022.23 -282.503 4014.59
4023.08 -282.395 4014.53
4021.8 -282.507 4015.23
4026.35 -286.421 4016.23
4027.09 -287.232 4016.53
4023.62 -282.569 4013.99
4024.64 -284.372 4014.12
4023.56 -283.1 4013.1
4020.97 -282.214 4015.57
4022.81 -287.728 4023.67
4020.59 -282.833 4016.95
4028.27 -295.495 4021.98
4027.54 -292.829 4018.17
4027.21 -289.723 4015.43
4027.07 -290.485 4015.73
4026.75 -287.791 4014.52
4026 -286.15 4013.5
4025.52 -285.441 4013.96
4025.13 -284.915 4012.87
4024.6 -284.325 4012.56
4020.66 -281.466 4014.43
4021.7 -281.774 4013.79
4022.5 -281.578 4013.54
4025.63 -285.565 4014.66
4022.51 -282.118 4013.12
4017.03 -281.154 4016.67
4017.99 -282.402 4018.16
4017.24 -280.892 4015.95
4027.14 -291.88 4016.78
4026.77 -291.186 4015.85
4026.7 -288.958 4014.69
4026.57 -289.83 4014.91
4025.57 -286.216 4012.96
4025.93 -287.233 4013.49
4024.86 -284.88 4012.24
4024.16 -283.962 4011.79
4023.88 -283.43 4012.23
4026.03 -288.002 4013.79
4020.38 -281.05 4013.91
4016.99 -280.581 4015.44
4021.5 -281.357 4013.24
4022.48 -282.06 4012.46
4021.79 -281.508 4012.37
4025.58 -292.726 4015.47
4025.75 -289.065 4014.01
4025.05 -285.742 4012.42
4024.22 -284.826 4011.61
4025.27 -286.881 4012.72
4023.64 -283.9 4011.27
4023.19 -282.907 4011.47
4022.65 -282.071 4011.66
4025.29 -287.573 4012.9
4020.36 -280.761 4013.18
4017.25 -280.145 4014.66
4021.15 -281.001 4012.69
4024.61 -290.979 4013.61
4025.22 -288.235 4013.04
4024.97 -288.856 4013.06
4023.63 -284.782 4011.14
4024.63 -286.167 4012.02
4021.67 -281.386 4011.71
4019.91 -280.384 4012.58
4020.83 -280.84 4012.05
4024.53 -287.539 4012.23
4023.12 -283.163 4010.69
4022.78 -282.496 4010.98
4021.95 -281.787 4010.81
4023.64 -285.785 4011.26
4023.78 -286.699 4011.5
4017.37 -279.867 4014.07
4020.88 -280.98 4011.33
4021.36 -281.609 4010.73
4023.25 -289.539 4011.97
4023.08 -285.086 4010.8
4022.72 -284.508 4010.63
4022.76 -283.879 4010.63
4023.08 -285.951 4010.95
4017.61 -279.817 4013.3
4014.53 -278.782 4014.76
4019.57 -280.314 4011.59
4022.67 -286.828 4010.99
4022.05 -283.287 4010.45
4021.28 -282.508 4010.26
4020.6 -281.711 4010.4
4022.43 -285.178 4010.6
4020.14 -280.87 4011.12
4017.47 -279.905 4012.56
4022.32 -286.094 4010.77
4021.99 -284.301 4010.42
4020.65 -282.612 4010.09
4015.11 -279.216 4013.97
4021.53 -285.66 4010.58
4021.19 -283.835 4010.27
4019.93 -281.999 4010.31
4019.87 -281.403 4010.58
4019.25 -280.722 4011.01
4021.1 -284.692 4010.33
4020.39 -283.479 4010.19
4019.86 -282.943 4010.23
4019.19 -281.72 4010.53
4019.39 -282.344 4010.35
4017.2 -280.418 4011.95
4020.24 -284.783 4010.32
4016.8 -281.063 4011.71
