3621.64 -892.493 1916.02
3623.03 -893.072 1915.57
3624.11 -891.425 1917.88
3625.77 -893.607 1915.31
3627.25 -891.398 1917.79
3619.88 -889.692 1919.81
3620.53 -892.003 1916.48
3622.02 -892.882 1915.47
3623.7 -893.422 1915.12
3626.97 -893.356 1915.28
3628.39 -891.527 1917.07
3625.23 -893.785 1914.87
3627.44 -893.703 1914.25
3625.49 -894.191 1913.97
3628.06 -893.576 1913.86
3627.44 -893.817 1913.43
3627.58 -893.458 1914.84
3626.46 -893.721 1914.7
3628.26 -893.503 1913.18
3627.67 -893.625 1912.64
3622.4 -893.384 1915.24
3620.86 -893.269 1915.75
3623.07 -893.808 1914.8
3623.21 -894.78 1914.18
3628.63 -893.054 1912.29
3626.8 -893.738 1912.35
3624.1 -894.956 1913.5
3628.01 -893.194 1911.64
3616.95 -890.889 1917.82
3619.28 -892.843 1916.43
3622.06 -894.138 1915.47
3621.42 -893.867 1915.68
3620.9 -894.214 1915.93
3619.64 -893.968 1916.08
3622.31 -894.703 1915.2
3622.87 -895.492 1914.3
3622.17 -895.51 1915.18
3627.2 -893.474 1911.66
3625.55 -893.807 1912.42
3627.42 -892.793 1909.88
3615.31 -890.989 1917.77
3612.58 -887.747 1920.54
3613.39 -890.542 1917.93
3612.75 -890.395 1917.94
3617.52 -892.988 1916.98
3621.53 -894.695 1915.78
3620.96 -895.026 1916.06
3620.12 -894.935 1916.24
3618.46 -894.637 1916.37
3621.45 -895.462 1915.83
3622.18 -896.303 1915
3621.19 -896.28 1915.91
3626.2 -892.967 1910.25
3623.5 -896.217 1913.6
3623.7 -895.384 1913.06
3622.52 -896.768 1914.55
3611.77 -888.234 1919.77
3612.11 -890.358 1917.67
3614.38 -891.331 1917.44
3613.35 -891.32 1917.2
3611.04 -888.272 1919.27
3611.56 -889.887 1917.8
3617.09 -894.721 1916.76
3620.65 -895.807 1916.31
3619.21 -895.704 1916.52
3617.76 -895.429 1916.57
3621.84 -897.106 1915.16
3619.93 -896.555 1916.63
3620.44 -897.118 1916.43
3624.36 -893.27 1911.11
3623.86 -892.378 1909.78
3625.89 -891.964 1908.49
3622.67 -896.341 1913.83
3614.55 -890.144 1903.77
3617.43 -891.203 1906.8
3615.58 -889.451 1906.87
3618.29 -890.788 1908.32
3612.84 -889.154 1900.73
3613.99 -890.327 1901.84
3613.08 -889.005 1903.1
3613.92 -889.832 1903.03
3615.33 -892.923 1917.07
3617.5 -896.097 1916.76
3616.49 -895.279 1916.92
3621.03 -897.361 1915.92
3621.96 -896.473 1914.41
3619.57 -897.07 1916.79
3618.57 -896.667 1916.82
3622.84 -894.066 1912.04
3622.26 -892.474 1910.84
3621.91 -891.967 1910.34
3623.57 -891.964 1909.28
3613.32 -889.776 1898.53
3614.15 -890.715 1900.15
3612.39 -888.607 1897.25
3614.35 -890.969 1897.39
3613.6 -889.867 1896.34
3614.68 -891.606 1898.77
3615.11 -891.14 1903.09
3617.74 -891.726 1906.11
3618.94 -892.807 1907.62
3619.07 -892.155 1908.68
3619.13 -892.845 1908.37
3618 -889.955 1909.22
3614.85 -891.576 1901.42
3618.83 -891.426 1909.47
3614.54 -891.772 1916.73
3612.78 -890.843 1917.06
3611.37 -889.17 1917.58
3611.68 -889.789 1916.99
3621.25 -896.647 1915.12
3622.29 -894.929 1912.66
3619.68 -896.858 1916.01
3621.87 -892.95 1911.13
3621.6 -892.494 1910.73
3622.34 -891.484 1909.18
3621.07 -891.349 1910.16
3623.67 -891.689 1906.63
3623.26 -893.096 1904.26
3626.92 -892.087 1905.58
3626.75 -893.508 1902.66
3627.63 -893.338 1902.6
3615.03 -892.049 1900.16
3615.29 -892.159 1896.65
3615.23 -892.386 1897.38
3613.22 -888.977 1895.1
3615.12 -891.571 1895.86
3614.89 -890.849 1894.72
3615.29 -892.518 1898.84
3615.91 -891.917 1903.72
3615.5 -892.23 1902.34
3617.91 -894.699 1905.18
3618.29 -895.436 1905.51
3618.39 -896.171 1905.68
3619.18 -893.47 1908.22
3615.32 -892.579 1900.94
3615.61 -892.553 1916.57
3612.25 -890.507 1916.92
3617.12 -895.377 1916.75
3611.42 -888.891 1916.71
3621.85 -895.108 1913.06
3620.64 -896.841 1915.55
3621.59 -893.612 1911.48
3620.54 -891.083 1909.56
3622.45 -891.361 1907.58
3622.07 -892.529 1907.09
3621 -893.523 1905.01
3627.57 -894.398 1900.05
3628.23 -893.149 1902.33
3625.21 -893.982 1902.16
3618.68 -895.349 1900.79
3621.03 -894.827 1901.96
3622.66 -894.701 1901.51
3626.84 -894.475 1900.51
3628.6 -893.956 1899.81
3628.79 -892.778 1902.27
3629.37 -893.495 1899.44
3629.57 -892.307 1901.73
3615.65 -892.902 1896.29
3615.68 -892.4 1895.83
3615.53 -893.05 1898.01
3615.72 -893.087 1897.03
3615.65 -891.862 1895.11
3614.55 -889.494 1893.56
3616 -891.742 1894.41
3615.46 -893.02 1899.92
3616.28 -892.912 1903.2
3617.53 -895.854 1904.51
3615.79 -893.107 1901.65
3616.26 -893.24 1902.49
3617.71 -899.099 1903.74
3616.98 -899.193 1902.53
3618.72 -897.214 1905.83
3619.48 -892.286 1909.35
3619.46 -893.04 1908.86
3619.07 -896.829 1906.43
3618.29 -891.002 1909.91
3617.45 -890.453 1910.88
3617.83 -890.296 1910.2
3618.6 -891.623 1910.96
3619.35 -891.88 1910.27
3613.41 -891 1916.39
3615.33 -891.855 1916.27
3611.53 -889.294 1916.18
3614.16 -890.885 1915.79
3620.13 -896.322 1915.52
3618.29 -895.914 1916.64
3619.35 -895.894 1915.85
3621.14 -893.206 1911.17
3620.55 -891.871 1910.16
3620.81 -892.642 1910.75
3621.71 -891.666 1908.37
3621.84 -892.796 1908
3621.06 -892.647 1909.33
3620.7 -894.623 1905.8
3618.97 -895.502 1901.67
3626.61 -894.707 1899.9
3628 -894.398 1899.39
3624.57 -894.614 1900.86
3619.62 -895.334 1899.68
3622.49 -894.807 1900.87
3616.77 -896.338 1900.05
3616.85 -895.691 1898.37
3614.69 -896.437 1897.8
3628.79 -894.053 1899.11
3629.6 -893.429 1898.72
3629.24 -893.922 1898.24
3629.89 -893.183 1898.12
3629.6 -893.707 1897.67
3629.6 -893.532 1897.04
3629.93 -893.016 1897.36
3628.86 -892.619 1894.24
3628.21 -893.58 1895.2
3628.21 -893.071 1894.26
3628.89 -893.031 1895.02
3628.5 -893.71 1895.96
3629.21 -893.445 1896.26
3615.08 -888.982 1892.45
3615.8 -891.064 1893.79
3615.81 -893.562 1896.44
3615.94 -893.354 1895.8
3616 -892.403 1895.04
3615.82 -893.696 1898.53
3616.02 -893.668 1897.34
3616.55 -891.734 1893.77
3616.42 -892.38 1894.3
3616.05 -893.987 1899.88
3616.17 -893.993 1901.12
3617.51 -896.795 1904
3616.62 -894.412 1902.08
3616.23 -899.209 1902
3614.64 -899.061 1900.37
3615.02 -899.136 1901.08
3616.96 -899.363 1903.42
3619.05 -897.697 1906.07
3617.98 -891.273 1911.66
3619.1 -892.03 1911.2
3611.83 -890.21 1916.21
3613.46 -890.656 1915.65
3615.3 -891.154 1915.7
3620.81 -894.862 1913.77
3621.21 -893.658 1912.07
3618.54 -895.377 1916.12
3620.54 -892.877 1910.08
3621.34 -893.23 1908.75
3620.38 -895.842 1906.46
3620.71 -894.138 1909.54
3618.32 -896.292 1901.58
3626.45 -894.865 1899.02
3627.22 -894.709 1898.58
3627.99 -894.608 1898.33
3624.23 -894.884 1899.82
3620.91 -895.216 1899.45
3616.41 -896.267 1896.76
3614.21 -896.892 1896.42
3614.77 -896.937 1899.31
3615.58 -897.351 1900.4
3612.39 -897.174 1897.32
3611.31 -898.017 1895.62
3629.01 -893.802 1896.99
3627.73 -894.048 1896.07
3627.61 -893.857 1895.28
3627.69 -893.514 1894.61
3627.77 -892.884 1893.56
3628.25 -894.046 1896.83
3616.53 -890.935 1893.05
3616.23 -893.314 1895.21
3616.31 -892.858 1894.71
3615.95 -894.257 1896.72
3616.08 -894.39 1897.8
3616.26 -894.606 1899.13
3617.33 -891.484 1893
3617.13 -890.535 1892.15
3617.2 -892.151 1893.38
3616.53 -894.874 1900.87
3617.39 -896.176 1903.1
3617.07 -895.712 1901.74
3617.27 -898.326 1903.06
3613.27 -898.977 1899.31
3613.92 -898.96 1899.31
3616.35 -899.349 1903.13
3614.39 -899.197 1901.36
3612.54 -899.027 1899.49
3613.35 -899.059 1899.98
3619.98 -892.575 1909.92
3620.03 -893.726 1909.41
3617.27 -890.738 1911.79
3616.94 -890.288 1911.42
3618.06 -891.594 1912.27
3618.71 -892.028 1911.94
3619.56 -892.393 1911.4
3619.76 -892.261 1910.79
3617.29 -894.143 1916.26
3612.95 -889.21 1914.79
3613.08 -890.084 1915.32
3614.77 -890.687 1915.05
3616.79 -892.809 1915.73
3620.41 -893.025 1911.65
3617.92 -894.607 1916.05
3620.04 -894.337 1914.13
3620.61 -893.106 1912.44
3620.84 -894.723 1909.22
3619.87 -897.137 1906.22
3618.3 -896.848 1902.14
3625.88 -894.949 1898.42
3623.77 -895.022 1899.01
3626.35 -894.807 1897.81
3619.78 -895.003 1897.43
3619.14 -895.169 1896.08
3615.2 -897.379 1895.69
3613.55 -897.716 1895.58
3611.06 -898.702 1894.85
3613.15 -897.67 1899
3616.29 -897.838 1901.49
3613.41 -898.275 1899.92
3611 -897.81 1897.6
3608.77 -898.388 1895.66
3609.5 -898.531 1895.33
3609.96 -898.866 1894.76
3627.68 -894.306 1896.95
3627.08 -894.262 1896.12
3626.92 -894.007 1895.13
3626.92 -893.566 1894.1
3626.69 -893.263 1893.41
3627.3 -892.609 1892.85
3618.4 -890.656 1891.59
3617.9 -891.267 1892.48
3616.62 -893.773 1894.76
3616.05 -894.511 1896.06
3616.09 -894.931 1897.23
3616.3 -895.196 1898.42
3616.48 -895.328 1899.95
3617.67 -892.425 1893.04
3617.31 -893.07 1893.53
3616.89 -893.345 1893.99
3616.83 -894.061 1894.04
3616.24 -899.044 1901.01
3615.28 -899.013 1900.16
3617.15 -897.388 1902.7
3616.83 -898.746 1901.94
3616.82 -896.275 1901.16
3612.43 -898.909 1898.47
3611.7 -898.924 1898.44
3610.71 -898.892 1897.9
3620.15 -894.526 1909.1
3616.12 -898.591 1902.27
3618.09 -891.924 1912.85
3619.9 -892.616 1911.88
3619.53 -892.368 1912.41
3614.42 -890.214 1914.54
3613.94 -889.799 1914.3
3616.2 -891.734 1915.07
3617.71 -893.851 1915.67
3616.39 -891.129 1913.47
3616.19 -889.665 1912.62
3617.71 -892.216 1913.96
3618.28 -894.161 1915.46
3620.14 -892.6 1912.47
3618.97 -897.572 1904.48
3626.98 -894.5 1897.06
3623.59 -894.853 1897.54
3623.84 -894.672 1896.6
3626.18 -894.564 1896.92
3617.71 -896.371 1895.89
3619.77 -894.977 1894.61
3621.64 -894.463 1894.94
3611.83 -898.85 1894.54
3614.57 -898.27 1894.76
3612.86 -898.81 1894.42
3611.31 -898.367 1898.5
3614.23 -898.662 1900.98
3611.8 -899.01 1899.54
3608.23 -898.501 1896.26
3609.09 -898.755 1897.31
3608.92 -898.792 1894.99
3624.38 -894.361 1895.22
3626.37 -894.396 1896.29
3623.98 -894.075 1893.83
3624.19 -894.186 1894.42
3623.42 -894.148 1893.38
3626.33 -892.862 1892.57
3625.8 -891.097 1891.17
3623.43 -893.221 1892.22
3623.87 -891.555 1891.25
3625.39 -893.282 1892.66
3619.73 -891.091 1891.4
3619.31 -891.844 1891.89
3618.62 -891.728 1892.26
3616.13 -895.578 1897.15
3616.18 -895.012 1895.72
3616.13 -895.482 1896.25
3616.48 -894.995 1894.77
3616.47 -895.886 1899.6
3617.55 -893.755 1893.39
3618.59 -893.183 1892.71
3618.34 -893.827 1892.89
3615.89 -898.986 1900.4
3611.54 -898.86 1897.76
3613.17 -898.883 1898.33
3612.88 -899.125 1900.41
3610.99 -898.96 1898.52
3610.25 -898.838 1897.27
3619.27 -897.743 1905.49
3619.21 -892.343 1913.01
3613.15 -889.19 1914.19
3615.8 -891.167 1914.49
3617.41 -892.949 1915.19
3615.19 -890.137 1913.32
3619.09 -893.284 1914.26
3624.05 -894.503 1895.83
3617.36 -897.038 1895.16
3618.93 -896.161 1894.25
3620.14 -896.514 1893.79
3620.99 -894.581 1894.25
3614.18 -898.944 1894.02
3613.53 -899.026 1893.89
3608.55 -898.821 1896.7
3607.03 -898.721 1895.56
3607.57 -898.773 1896.03
3620.78 -895.011 1893.35
3620.63 -894.902 1892.74
3620.48 -894.407 1892.32
3622.67 -891.972 1891.48
3620.52 -890.376 1890.91
3620.94 -891.975 1891.61
3620.12 -892.155 1891.75
3619.61 -893.302 1892.33
3616.9 -894.837 1893.95
3616.32 -895.65 1895.06
3616.04 -896.034 1897.75
3615.97 -895.982 1895.9
3616.21 -896.259 1898.87
3617.42 -894.652 1893.39
3618.52 -895.688 1892.75
3616.69 -896.633 1893.52
3616.75 -895.762 1893.93
3614.88 -898.955 1899.45
3616.14 -897.207 1900.14
3615.95 -898.198 1900.22
3612.32 -898.84 1897.69
3609.58 -898.808 1896.81
3617.36 -897.508 1894.5
3618.98 -897.406 1893.69
3620.34 -898.458 1893.21
3622.17 -897.733 1892.59
3620.82 -896.761 1893.31
3614.92 -898.995 1893.84
3612.11 -898.616 1893.94
3613.01 -898.653 1893.72
3611.11 -898.594 1894.2
3621.35 -894.771 1892.54
3620.49 -895.325 1892.31
3621.26 -892.749 1891.9
3622.03 -890.876 1890.93
3620.79 -896.388 1892.35
3619.69 -895.79 1892.38
3615.79 -896.327 1896.52
3615.91 -896.403 1894.47
3617.87 -895.958 1893.03
3618.18 -897.331 1892.96
3617.37 -897.664 1893.09
3616.04 -896.919 1893.87
3615.98 -897.852 1893.58
3614.39 -898.893 1898.68
3615.9 -897.39 1899.59
3615.65 -898.893 1899.52
3610.94 -898.777 1896.82
3609.14 -898.77 1896.35
3616.9 -898.187 1894.07
3619.65 -898.75 1893.15
3620.7 -899.026 1892.92
3621.93 -898.876 1892.74
3623.36 -897.685 1892.43
3622.62 -896.951 1892.3
3621.5 -896.635 1892.63
3615.71 -899.177 1893.41
3615.28 -898.788 1893.19
3613.93 -898.684 1893.48
3606.58 -898.154 1895.89
3607.97 -898.669 1895.16
3610.34 -898.475 1894.31
3621.95 -895.271 1892.13
3621.24 -895.425 1892.35
3619.76 -897.615 1892.54
3618.98 -897.326 1892.74
3615.66 -896.703 1897.07
3615.75 -896.876 1898.19
3615.63 -896.708 1895.54
3616.51 -897.978 1893.21
3613.19 -898.824 1897.69
3613.92 -898.855 1898.17
3615.59 -897.973 1898.74
3610.24 -898.734 1896.5
3611.92 -898.766 1897.03
3617.81 -898.806 1893.43
3622.26 -896.006 1892.17
3623.19 -896.35 1892.1
3616.44 -899.171 1893.23
3609.42 -898.371 1894.44
3606.47 -897.595 1896.25
3618.37 -898.05 1893.04
3615.52 -896.926 1894.58
3615.58 -897.122 1896.23
3617.12 -898.254 1893.12
3615.22 -898.83 1898.71
3615.45 -898.453 1898.19
3623.94 -896.649 1892.11
3623.54 -898.465 1892.52
3606.8 -898.219 1895.03
3620.23 -898.1 1892.64
3621.62 -898.061 1892.67
3619.56 -898.117 1892.88
3615.2 -897.416 1895
3615.55 -897.455 1896.79
3615.4 -897.535 1894.32
3616.16 -898.544 1893.52
3612.69 -898.731 1897.15
3614.54 -898.74 1897.99
3614.93 -898.287 1897.41
3624.3 -897.424 1892.32
3623.02 -899.164 1892.55
3606.33 -896.939 1896.73
3614.76 -898.254 1892.87
3606.34 -897.437 1895.53
3614.05 -898.663 1897.35
3614.69 -898.183 1896.8
3607.22 -898.119 1895.6
3610.9 -898.525 1896.19
3611.54 -898.584 1896.5
3624.22 -898.448 1892.18
3623.93 -899.139 1892.5
3625.71 -899.312 1892.55
3613.81 -898.12 1893.02
3611.71 -898.158 1893.64
3614.77 -897.838 1895.35
3615.04 -897.836 1896.25
3614.7 -897.863 1894.11
3614.01 -897.854 1894.05
3615.31 -897.914 1893.77
3613.5 -898.683 1896.99
3607.04 -897.572 1896.01
3610.1 -898.471 1895.88
3612.17 -898.549 1896.3
3624.78 -897.816 1892.13
3624.63 -899.016 1892.29
3626.64 -899.304 1892.49
3613.12 -898.065 1893.17
3609.11 -898.001 1893.86
3606.81 -897.83 1894.53
3614.39 -898.078 1895.93
3613.51 -898.026 1894.59
3612.9 -898.599 1896.55
3610.72 -898.394 1895.47
3624.94 -898.593 1891.93
3624.71 -896.684 1892.14
3627.39 -899.288 1892.45
3625.37 -898.135 1892.54
3611.06 -897.983 1893.53
3613.58 -898.213 1895.18
3612.76 -897.833 1893.91
3612.83 -898.029 1894.56
3613.64 -898.512 1896.23
3606.3 -897.168 1894.92
3607.63 -897.918 1895
3608.14 -898.274 1894.61
3612.01 -898.438 1895.63
3625.96 -898.724 1892.08
3628.47 -899.317 1892.37
3626.21 -898.308 1892.6
3625.3 -897.141 1892.29
3626.25 -897.624 1892.49
3609.6 -897.73 1893.45
3612.7 -898.429 1895.67
3608.06 -898.459 1892.88
3629.4 -899.327 1892.31
3626.81 -898.495 1892.62
3611.89 -897.696 1892.83
3614.3 -897.794 1892.53
3606.83 -897.427 1893.89
3612.12 -898.248 1895.05
3606.92 -897.825 1893.36
3608.85 -898.368 1892.7
3607.97 -898.588 1891.87
3607.24 -898.2 1892.44
3610.37 -898.145 1892.66
3625.68 -898.176 1891.94
3627.76 -898.723 1892.63
3613.27 -897.988 1892.29
3610.94 -897.946 1892.51
3609.08 -898.485 1891.92
3609.78 -898.317 1892.1
3626.86 -897.753 1892.6
3612.56 -897.893 1892.51
3611.65 -898.413 1891.84
3610.71 -898.376 1891.92
3624.5 -896.063 1892.07
3625.68 -896.647 1892.28
3608.39 -899.004 1891.29
3610.07 -898.647 1891.62
3627.44 -898.016 1892.79
3609.29 -898.973 1891.26
3625.19 -896.135 1892.15
3626.07 -896.182 1892.43
3625.44 -895.32 1892.16
3626.49 -896.891 1892.52
3627.33 -897.363 1892.83
3627.12 -896.685 1892.81
3626.84 -895.935 1892.75
3626.45 -895.442 1892.56
