4156.92 -337.782 15.9917 
4158.34 -333.913 13.7952 
4157.5 -335.548 14.9246 
4157.31 -337.487 14.5931 
4157.1 -334.945 15.9095 
4155.77 -337.661 17.8528 
4155.47 -337.096 18.2209 
4155.18 -336.465 18.5436 
4156.4 -334.209 17.0195 
4154.84 -335.919 18.7726 
4156.81 -334.617 16.4523 
4157.05 -338.326 14.5243 
4158.36 -334.781 12.9599 
4158.59 -333.335 12.9397 
4158.49 -333.059 13.5435 
4156.04 -333.942 17.4607 
4155.52 -333.799 17.8392 
4153.82 -335.211 19.1716 
4158.12 -333.174 14.6509 
4157.86 -332.904 15.1487 
4156.79 -332.126 16.4482 
4157.49 -332.566 15.6689 
4157.23 -337.736 13.7283 
4158.47 -334.021 12.5529 
4158.38 -332.527 13.9724 
4152.22 -334.114 20.4052 
4153.97 -332.846 18.9131 
4152.69 -333.664 20.4541 
4154.82 -333.581 18.3775 
4153.06 -334.701 19.3615 
4152.31 -332.647 19.9149 
4153.61 -332.224 19.033 
4156.28 -331.857 16.9481 
4157.87 -332.216 15.0292 
4156.27 -339.849 13.2712 
4157.87 -335.062 12.0593 
4158.24 -334.219 11.6894 
4158.54 -333.191 12.1452 
4158.1 -332.059 14.4254 
4158.59 -332.427 12.8728 
4151.69 -332.801 19.8941 
4152.7 -331.157 18.6148 
4151.8 -332.277 19.2397 
4153.22 -331.72 19.0151 
4155.02 -331.284 17.8384 
4156.5 -331.306 16.6685 
4157.43 -331.7 15.576 
4157.02 -331.357 16.0087 
4156.29 -338.806 12.4413 
4157.51 -335.057 11.4459 
4158.51 -333.733 11.2207 
4157.92 -335.019 10.5674 
4158.29 -331.62 13.584 
4158.42 -331.617 12.9504 
4154.31 -330.475 17.6535 
4153.93 -329.955 17.343 
4152.16 -330.935 17.936 
4151.1 -332.193 18.4293 
4153.34 -329.867 17.0764 
4155.66 -331.19 17.3189 
4155.99 -330.837 16.8068 
4155.05 -330.605 17.3079 
4157.7 -331.402 14.7594 
4156.25 -337.947 11.9044 
4156.99 -335.37 10.4731 
4157.87 -335.737 9.68846 
4158.26 -333.639 10.635 
4158.52 -332.711 11.4775 
4157.32 -335.446 9.69114 
4158.49 -332.289 11.9511 
4153.92 -329.591 16.8391 
4154.54 -329.972 17.0556 
4152.83 -330.007 16.6145 
4156.37 -330.65 16.2138 
4155.55 -330.263 16.5903 
4156.83 -330.734 15.596 
4156.62 -334.995 9.74854 
4157.46 -335.406 9.08704 
4158.16 -334.709 9.7193 
4157.95 -333.669 10.0818 
4158.42 -332.751 10.6601 
4156.85 -334.896 8.90379 
4158.41 -332.005 11.397 
4157.74 -330.733 13.8032 
4158.27 -331.452 12.014 
4158.08 -330.832 12.5413 
4151.44 -330.896 16.8687 
4148.92 -331.364 15.7949 
4152.02 -330.244 16.2344 
4151.02 -330.406 15.7415 
4150.96 -330.195 15.1164 
4153.77 -329.321 16.2286 
4155.92 -330.066 16.0551 
4157.29 -330.671 14.5982 
4156.44 -330.252 15.5168 
4157.92 -335.913 8.90866 
4158.33 -332.12 10.7892 
4157.65 -330.384 12.7566 
4154.54 -329.243 15.9138 
4155.16 -329.752 16.2488 
4152.63 -329.694 15.7702 
4156.74 -330.215 14.8885 
4155.94 -334.656 8.8973 
4156.22 -334.432 8.27909 
4156.9 -335.416 8.44794 
4157.95 -334.907 8.96658 
4157.49 -333.632 9.29309 
4157.82 -333.051 9.74983 
4157.03 -329.987 13.715 
4157.99 -330.866 11.703 
4158.02 -331.197 11.0235 
4154.88 -329.111 15.3628 
4155.62 -329.657 15.6734 
4151.33 -329.681 14.5026 
4148.46 -329.871 13.3344 
4153.68 -329.041 15.3806 
4156.22 -329.546 14.7021 
4155.61 -334.467 8.3969 
4157.23 -336.219 8.51996 
4157.57 -334.119 8.91698 
4158.19 -332.181 10.1142 
4156.79 -333.376 8.66044 
4157.23 -334.611 8.40702 
4157.98 -331.54 10.3443 
4156.56 -329.672 13.9877 
4156.97 -329.755 12.6026 
4157.2 -329.986 11.97 
4157.54 -330.53 11.2269 
4155.33 -329.118 14.8687 
4154.57 -328.913 14.6583 
4153.9 -328.888 14.7202 
4156.61 -336.086 8.22009 
4157.92 -335.557 8.32624 
4157.4 -332.993 9.25997 
4155.58 -333.676 8.27422 
4156.5 -329.489 13.1204 
4157.51 -331.117 10.2128 
4156.96 -329.923 11.2439 
4155.34 -329.013 14.1771 
4152.17 -329.239 13.847 
4150.27 -329.464 13.0706 
4148.48 -329.359 12.3431 
4154.66 -328.885 13.7205 
4156.06 -335.804 7.97512 
4156.34 -336.712 8.12731 
4156.86 -332.645 8.88599 
4156.1 -332.907 8.66827 
4157.65 -332.326 9.39638 
4155.98 -329.212 13.513 
4156.33 -329.437 12.27 
4156.49 -329.632 11.5334 
4156.98 -330.421 10.4164 
4154.13 -333.439 7.88597 
4155.43 -329.042 13.2027 
4148.59 -329.124 11.3268 
4154.05 -328.929 13.0131 
4152.46 -329.18 13.0164 
4157.51 -336.084 7.93891 
4157.71 -336.538 8.92155 
4157.26 -331.539 9.47123 
4154.29 -332.782 7.81053 
4154.94 -328.947 12.7046 
4150.58 -329.313 12.2296 
4150.6 -329.865 10.3633 
4153.12 -329.723 11.0012 
4150.62 -330.306 9.67556 
4150.79 -329.65 10.9805 
4153.33 -330.05 10.5075 
4149.63 -329.592 10.7326 
4148.03 -329.328 9.40349 
4153.11 -329.419 11.6259 
4150.33 -329.446 11.678 
4150.41 -330.917 8.48663 
4153.65 -330.519 9.74219 
4157.16 -336.603 7.65793 
4155.85 -336.521 7.7879 
4156.61 -330.86 9.64562 
4156.67 -331.347 9.15167 
4155.29 -329.21 12.0934 
4155.82 -329.64 11.083 
4156.21 -330.044 10.5445 
4151.53 -332.12 6.2763 
4154.35 -331.951 8.19368 
4155.06 -329.519 11.1486 
4157.12 -337.162 8.78099 
4156.09 -330.444 9.98598 
4154.04 -330.821 9.25353 
4150.41 -331.03 7.52411 
4151.45 -331.282 7.27604 
