3405.92 -724.273 3836.08
3406.77 -725.813 3837.9
3405.35 -727.034 3837.03
3404.74 -724.819 3835.33
3405.96 -726.922 3837.81
3404.51 -727.99 3836.93
3403.64 -727.243 3835.64
3403.49 -725.865 3834.79
3403.3 -726.649 3835.19
3404.16 -726.975 3836.22
3405.18 -728.226 3837.85
3403.64 -729.042 3836.85
3402.93 -728.364 3835.76
3402.2 -727.796 3834.73
3402.18 -726.945 3834.23
3404.42 -729.551 3837.95
3403.79 -730.174 3837.77
3402.4 -728.721 3835.55
3401.57 -727.806 3834.19
3401.06 -727.431 3833.64
3400.22 -728.242 3834.07
3401.07 -728.842 3835.15
3402.44 -729.581 3836.65
3403.81 -730.681 3838.55
3403.04 -730.716 3837.46
3402.93 -731.247 3837.99
3402.61 -730.518 3836.94
3401.8 -728.276 3834.72
3399.57 -727.701 3833.39
3398.82 -727.972 3833.28
3400.27 -729.075 3834.99
3401.29 -729.734 3836.23
3403.34 -731.382 3838.93
3404.67 -732.017 3841.04
3401.4 -730.844 3837.73
3402.57 -732.549 3840.65
3402.02 -731.698 3837.5
3401.73 -732.187 3838.09
3401.34 -731.925 3836.9
3401.63 -730.996 3836.38
3401.16 -728.222 3834.48
3397.43 -728.572 3833.11
3397.99 -728.174 3833.43
3399.09 -729.163 3834.48
3399.53 -730.088 3835.81
3403.88 -731.352 3839.59
3405.49 -734.242 3844.56
3403.11 -734.774 3843.97
3402.47 -732.236 3839.39
3402.17 -732.189 3838.81
3400.57 -732.638 3839.81
3401.2 -734.788 3843.07
3400.95 -732.4 3837.41
3400.92 -732.788 3838.36
3400.01 -732.356 3837.2
3399.65 -731.868 3835.99
3400.47 -730.851 3835.7
3401.67 -729.972 3835.79
3398.94 -727.872 3834.11
3397.53 -729.099 3833.62
3396.77 -728.653 3833.1
3397.61 -729.759 3834.44
3398.6 -731.9 3837.84
3405.31 -731.306 3840.93
3406.32 -736.651 3848.31
3404.06 -736.65 3847.02
3403.29 -732.022 3840.08
3402.11 -736.363 3845.63
3401.79 -732.929 3839.79
3401.35 -732.943 3839.12
3399.42 -733.694 3840.63
3400.59 -734.748 3842.46
3409.02 -741.016 3855.87
3408.92 -738.931 3853.53
3409.45 -736.418 3850.46
3408.84 -735.301 3848.61
3407.8 -740.075 3853.44
3407.92 -741.696 3855.95
3398.16 -731.109 3835.03
3396.87 -730.602 3834.81
3397.87 -731.599 3836.5
3395.95 -729.6 3833.25
3398.11 -730.443 3834.71
3398.99 -730.393 3835.33
3398.78 -728.661 3834.76
3397.38 -728.227 3833.93
3396.17 -728.954 3832.92
3406.75 -733.923 3845.58
3407.04 -739.682 3852.78
3404.84 -738.879 3850.45
3403.21 -737.675 3847.87
3401.86 -735.813 3844.38
3400.68 -733.67 3840.42
3399.69 -732.986 3839.02
3408.27 -736.247 3850
3407.63 -734.499 3846.58
3406.86 -738.237 3850.3
3407.57 -736.577 3849.66
3406.51 -740.098 3852.68
3396.9 -728.822 3834.07
3397.56 -728.537 3834.55
3406.13 -731.622 3842.51
3404.01 -732.231 3841.29
3405.13 -739.574 3851.34
3403.24 -737.104 3846.73
3401.55 -734.122 3841.56
3406.75 -733.453 3845.02
3407.26 -732.876 3845.16
3405.56 -737.259 3848.16
3404.72 -738.116 3848.86
3405.37 -733.237 3843.65
3404.17 -733.677 3843.16
3402.85 -734.233 3842.73
