4053.21 -265.435 87.3023 
4056.55 -264.742 84.8943 
4055.84 -263.808 85.1932 
4056.34 -262.437 84.373 
4052.97 -264.014 87.0547 
4052.98 -262.742 86.4637 
4056.87 -263.608 84.3494 
4056.04 -266.521 85.6592 
4056.95 -265.367 84.7067 
4056.22 -261.854 84.1782 
4056.83 -262.108 83.8178 
4057.23 -262.901 83.7812 
4052.91 -261.805 85.9355 
4046.79 -262.374 90.2891 
4056.59 -266.957 85.2386 
4057.35 -265.923 84.4371 
4057.42 -264.701 84.1645 
4057.94 -263.604 83.3783 
4057.76 -262.727 83.2304 
4056.76 -261.381 83.4211 
4055.91 -261.274 84.0029 
4057.44 -261.726 83.0768 
4052.35 -261.012 85.425 
4055.52 -260.745 83.8427 
4057.26 -267.134 84.6343 
4057.9 -264.894 83.7206 
4058 -266.177 83.8093 
4056.4 -260.841 83.3319 
4057.32 -261.123 82.8134 
4057.69 -267.57 84.2315 
4058.39 -264.52 83.0904 
4058.55 -265.743 83.1279 
4058.33 -267.139 83.5061 
4058.49 -263.27 82.5231 
4058.12 -262.433 82.7326 
4058.08 -261.811 82.3868 
4053.33 -260.172 84.0347 
4047.38 -259.77 85.9979 
4055.1 -260.041 83.1757 
4055.83 -260.168 82.8845 
4056.61 -260.294 82.4261 
4058.66 -264.187 82.5658 
4058.66 -267.417 82.9799 
4058 -268.093 83.8501 
4058.79 -265.395 82.4748 
4057.93 -261.23 82.0882 
4058.53 -262.242 81.8901 
4052.03 -259.721 83.7886 
4048.64 -258.571 83.1534 
4047.16 -258.04 83.555 
4045.61 -258.319 84.8632 
4055.26 -259.798 82.6132 
4052.54 -259.48 83.0534 
4055.88 -259.854 82.2678 
4057.15 -260.51 82.016 
4058.88 -263.923 81.9993 
4058.89 -267.108 82.4116 
4058.7 -268.035 82.8028 
4059 -266.548 81.9871 
4058.86 -262.962 81.6729 
4058.51 -261.659 81.2841 
4058.09 -261.057 81.4822 
4050.92 -258.356 80.2619 
4049.84 -257.392 79.33 
4047.83 -257.779 82.5996 
4045.29 -255.705 82.2972 
4046.44 -257.805 83.8055 
4044.43 -255.581 82.8202 
4044.42 -258.847 85.8728 
4045.27 -259.806 86.8732 
4043.55 -255.494 83.1888 
4053.03 -259.35 82.3727 
4052 -258.625 79.8136 
4056.44 -259.911 81.8156 
4058.95 -267.95 82.1898 
4059.13 -265.43 81.4545 
4059.1 -267.07 81.6578 
4058.24 -261.168 80.8603 
4058.9 -262.585 80.9742 
4052.06 -256.696 76.6231 
4053.54 -257.02 76.251 
4053.2 -258.422 78.4196 
4053.4 -258.234 77.8617 
4049.05 -257.057 79.6669 
4049.76 -255.682 76.6003 
4050.74 -255.81 76.1623 
4045.73 -255.502 81.5872 
4046.44 -255.321 80.3993 
4043.44 -253.302 80.8768 
4043.84 -253.052 80.137 
4042.89 -253.352 81.3584 
4042.89 -255.581 83.4727 
4042.21 -258.637 85.9823 
4042.24 -253.184 81.5509 
4054.31 -258.95 80.5933 
4053.3 -259.173 81.032 
4055.25 -259.174 80.1558 
4053.88 -258.718 78.7066 
4057.14 -260.096 80.8369 
4059.03 -268.428 81.725 
4059.06 -263.234 81.0548 
4059.13 -264.224 81.1466 
4059.19 -266.768 80.9581 
4059.24 -265.426 80.6728 
4059.16 -267.833 81.281 
4057.66 -260.562 80.6947 
4058.67 -262.074 80.4457 
4058.37 -261.67 80.0315 
4058.97 -262.969 80.4731 
4053.46 -255.853 74.4328 
4051.76 -255.419 74.7655 
4047.32 -255.057 78.8351 
4046.6 -253.902 77.918 
4049.1 -255.604 77.4697 
4049.03 -255.107 76.6007 
4049.53 -255.097 75.8558 
4044.39 -253.012 79.3928 
4042.8 -252.603 80.1767 
4042.26 -252.677 80.7751 
4043.47 -252.528 79.4207 
4042.25 -255.81 83.7639 
4041.54 -253.068 81.6211 
4041.9 -257.887 85.3062 
4054.55 -258.96 78.505 
4056.01 -259.584 79.7413 
4055.15 -259.197 78.2922 
4056.71 -259.931 79.5745 
4059.19 -268.106 80.7069 
4059.16 -263.793 80.6192 
4059.22 -267.136 80.3207 
4059.04 -264.284 79.9225 
4059.12 -266.039 79.8005 
4059.13 -267.777 79.7851 
4057.28 -260.497 79.3686 
4058.68 -262.559 79.7797 
4057.53 -261.192 78.7727 
4057.49 -261.504 78.1647 
4058.79 -263.199 79.6407 
4053.19 -255.347 73.5311 
4051.39 -255.086 74.0813 
4054.45 -258.56 77.8584 
4054.6 -257.325 76.2359 
4054.17 -256.028 74.1468 
4046.46 -253.532 77.2205 
4043.8 -252.392 78.7028 
4048.92 -254.65 75.643 
4042.19 -252.025 79.5111 
4041.7 -252.17 80.2554 
4041.19 -252.369 80.8582 
4042.61 -251.916 78.8126 
4041.36 -255.79 83.8204 
4040.54 -255.745 83.7574 
4055.76 -259.509 78.2659 
4058.05 -265.758 76.8689 
4058.88 -265.185 79.1665 
4058.78 -263.996 79.2761 
4056.44 -259.785 77.9723 
4056.73 -260.343 77.6227 
4057.49 -262.076 77.4596 
4056.7 -260.518 77.0266 
4057.69 -262.842 77.4596 
4053.81 -255.613 73.3603 
4055.15 -257.65 75.7866 
4044.01 -252.303 78.0652 
4041.24 -251.69 79.5452 
4041.76 -251.632 78.8686 
4040.83 -251.848 80.0603 
4040.52 -252.865 81.387 
4040.2 -252.336 80.7278 
4040.44 -253.47 81.9765 
4039.72 -255.501 83.4629 
4055.77 -259.444 77.6302 
4056.24 -264.983 68.5031 
4056.67 -261.449 70.5041 
4056.78 -263.658 71.8929 
4056.77 -261.991 72.4567 
4057.03 -264.243 74.56 
4057.95 -263.967 77.5441 
4056.05 -259.717 76.9194 
4056.86 -261.423 76.4525 
4056.64 -261.558 75.5516 
4056.55 -260.282 76.1797 
4056.77 -262.882 75.0122 
4053.11 -255.113 72.6267 
4051.07 -254.738 73.0713 
4048.79 -254.299 74.6865 
4046.42 -253.201 76.0714 
4054.64 -256.205 73.4939 
4055.15 -256.921 74.1022 
4055.45 -258.18 76.0581 
4040.3 -251.537 79.362 
4040.85 -251.462 78.9505 
4041.86 -251.501 78.2269 
4039.77 -251.862 79.8772 
4042.45 -251.601 77.7632 
4039.78 -253.256 81.6509 
4038.92 -255.493 83.2144 
4039.07 -252.944 81.113 
4038.27 -255.284 82.7713 
4055.69 -258.303 75.0947 
4038.46 -253.044 80.7643 
4037.69 -255.227 82.4161 
4056.04 -264.021 68.1913 
4056.39 -261.026 69.2976 
4056.66 -260.416 70.9638 
4056.53 -260.389 70.1184 
4056.65 -260.872 73.0925 
4056.58 -260.123 73.619 
4056.5 -259.593 74.1109 
4056.26 -259.143 74.6715 
4053.99 -255.576 72.2764 
4054.49 -255.963 72.3179 
4052.87 -255.015 71.7664 
4054.91 -256.373 72.9068 
4040.07 -251.315 78.7181 
4040.74 -251.191 77.8125 
4039.2 -251.717 79.4691 
4041.43 -251.275 77.4624 
4039.22 -252.521 80.67 
4038.74 -252.331 80.1171 
4055.38 -256.925 72.7482 
4037.87 -253.249 80.4422 
4038.15 -252.612 79.9143 
4055.73 -263.72 67.7041 
4056.11 -260.381 68.7968 
4056.34 -259.587 69.8624 
4056.55 -259.724 70.7774 
4056.54 -259.366 71.5631 
4055.95 -257.715 72.8917 
4056.37 -258.579 72.0383 
4053.51 -255.32 71.4398 
4054.42 -256.006 71.3188 
4055.17 -256.723 71.82 
4053.25 -255.39 70.6236 
4052.73 -255.088 70.8649 
4050.44 -254.635 71.9493 
4045.72 -252.947 75.2199 
4045.35 -252.932 74.5511 
4039.25 -251.369 78.867 
4039.64 -251.197 78.2778 
4039.98 -251.111 77.7452 
4040.38 -251.13 77.2064 
4042.1 -251.483 76.7695 
4041.04 -251.255 76.888 
4038.46 -251.971 79.4435 
4037.47 -252.854 79.8231 
4037.05 -255.185 82.0778 
4037.28 -252.371 79.3371 
4036.39 -254.988 81.3635 
4055.35 -263.493 67.2572 
4055.77 -260.236 68.2261 
4056.07 -259.022 69.4505 
4056.42 -258.99 70.9827 
4056.19 -258.62 70.2423 
4055.78 -257.435 71.8084 
4056.22 -258.306 71.2631 
4053.96 -255.818 70.3172 
4054.86 -256.585 70.7724 
4053.41 -255.65 69.8728 
4052.44 -255.14 70.2114 
4049.94 -254.666 71.3315 
4044.91 -252.981 73.8041 
4038.56 -251.425 78.5939 
4039.09 -251.156 77.6598 
4039.65 -251.148 77.1635 
4040.15 -251.15 76.6114 
4041.95 -251.61 75.9907 
4037.09 -252.683 78.725 
4035.83 -254.885 80.227 
4037.47 -251.999 78.6583 
4054.93 -263.018 66.7452 
4055.68 -258.632 68.7555 
4055.86 -258.302 69.4158 
4055.98 -257.98 70.2991 
4054.69 -256.555 69.968 
4054.03 -256.1 69.571 
4055.52 -257.24 70.4954 
4052.75 -255.451 69.3523 
4050.02 -254.809 70.5826 
4044.48 -253.146 73.0113 
4038.3 -251.414 77.9059 
4038.93 -251.254 76.9073 
4039.66 -251.243 76.212 
4042.42 -252.57 73.6226 
4040.85 -251.498 75.7356 
4036.67 -252.229 78.122 
4035.43 -254.33 77.4699 
4036.11 -251.951 77.7838 
4035.13 -254.107 76.5754 
4035.6 -253.177 75.5041 
4036.67 -251.716 77.0395 
4036.06 -252.865 75.1923 
4055.4 -259.175 68.0338 
4054.37 -262.516 66.3338 
4055.05 -259.948 67.4169 
4055.54 -257.933 68.9933 
4055.64 -257.675 69.5531 
4054.55 -256.684 69.3096 
4052.1 -255.556 68.9098 
4053.4 -256.038 68.8325 
4047.01 -254.834 69.4504 
4048.83 -255.25 68.883 
4037.44 -251.632 77.5334 
4038.18 -251.469 76.8772 
4037.74 -251.599 76.409 
4038.6 -251.492 75.8477 
4039.24 -251.42 75.7234 
4042.06 -254.467 69.4664 
4040.61 -252.867 72.9984 
4040.13 -251.681 75.1066 
4036.87 -252.551 74.5814 
4035.63 -253.815 72.9407 
4036.49 -253.553 72.3656 
4053.77 -262.185 65.9645 
4055.03 -257.999 68.2411 
4055 -257.534 68.7101 
4053.75 -256.462 68.51 
4049.73 -255.823 68.0521 
4049.15 -255.53 68.3434 
4042.29 -255.182 66.768 
4042.66 -255.399 66.111 
4043.93 -255.536 66.332 
4039.3 -251.766 74.9781 
4038.66 -251.738 75.1509 
4037.77 -252.48 73.9607 
4039.27 -254.162 70.2966 
4038.72 -253.746 71.3286 
4040.19 -254.57 68.9354 
4041.46 -255.018 66.7772 
4039.12 -252.747 73.119 
4037.14 -253.564 71.8889 
4041.83 -255.536 64.6791 
4038.63 -254.733 63.7358 
4054.23 -259.366 67.0316 
4054.7 -258.585 67.6187 
4054.24 -257.585 67.8672 
4054.39 -257.174 68.3771 
4053.51 -256.864 67.9003 
4052.84 -256.191 68.2117 
4050.08 -256.207 67.5922 
4046.17 -256.052 66.4188 
4043.94 -255.898 65.453 
4038.92 -255.324 62.8926 
4041.22 -255.087 65.5187 
4038.44 -252.573 73.4985 
4037.85 -253.302 72.2301 
4037.96 -253.775 71.1707 
4037.71 -253.948 70.5658 
4039.42 -254.599 68.271 
4037.46 -254.033 69.9886 
4040.15 -254.836 66.4475 
4040.17 -254.906 65.6894 
4036.71 -253.722 71.2741 
4042.38 -256.205 63.903 
4053.51 -258.886 66.8852 
4052.27 -261.733 65.3461 
4053.91 -258.268 67.2684 
4053.46 -257.376 67.4452 
4052.64 -256.882 67.421 
4050.31 -256.591 67.1361 
4046.05 -256.478 65.8617 
4038.63 -254.462 68.0111 
4042.93 -256.871 63.532 
4052.97 -257.682 67.1014 
4050.49 -257.162 66.7171 
4050.46 -258.027 66.2131 
4046.34 -257.091 65.3034 
4049.89 -262.592 64.1433 
4050.19 -258.891 65.6998 
4044.79 -258.709 63.5749 
4046.52 -257.948 64.9003 
4042.71 -257.5 63.0062 
