3867.7 -811.47 4762.47
3868.57 -810.216 4763.6
3866.46 -813.374 4759.68
3865 -813.848 4759.47
3867.46 -812.626 4760.25
3873.46 -813.343 4751.24
3874.07 -812.349 4752.41
3874.98 -811.563 4752.62
3875.05 -808.433 4757.13
3863.45 -814.407 4758.79
3867.31 -815.094 4753.47
3872.3 -814.781 4748.95
3872.68 -814.195 4750.23
3875.2 -814.559 4747.23
3875.79 -814.13 4747.51
3876.4 -812.711 4749.16
3876.39 -813.899 4747.19
3876.72 -809.706 4752.64
3861.89 -814.716 4758.14
3863.92 -816.034 4753.39
3872.43 -815.227 4746.83
3875.32 -815.284 4745.12
3874.94 -815.688 4744.1
3866.75 -815.564 4751.05
3876.46 -814.897 4744.9
3876.99 -813.608 4746.87
3877.47 -809.139 4751.89
3877.38 -812.942 4747.28
3862.43 -816.452 4751.93
3861.78 -816.625 4750.36
3865.54 -815.931 4749.32
3871.74 -815.495 4745.84
3874.21 -816.182 4742.85
3875.71 -815.86 4743.12
3874.72 -816.431 4742.13
3876.32 -815.442 4742.81
3876.92 -814.46 4744.93
3877.88 -809.881 4749.95
3877.61 -813.133 4746.35
3861.49 -816.788 4748.48
3864.82 -816.021 4747.83
3871.64 -815.87 4744.13
3870.67 -815.82 4743.74
3873.79 -816.496 4741.57
3875.3 -816.326 4741.71
3874.87 -816.464 4741.22
3874.37 -816.612 4740.76
3876.48 -814.977 4742.04
3875.96 -815.744 4741.41
3878.46 -808.087 4750.26
3861.03 -816.809 4746.8
3864.58 -816.085 4746.41
3864.03 -816.126 4745.26
3869.86 -815.842 4743.21
3873.11 -816.539 4740.69
3873.78 -816.711 4740.16
3875.39 -816.175 4740.7
3874.91 -816.346 4740.06
3874.01 -816.617 4739.45
3876.18 -815.408 4740.3
3876.6 -814.806 4740.96
3877.07 -814.111 4743.45
3875.65 -815.824 4739.86
3877.97 -812.161 4745.97
3878.84 -807.877 4749
3877.41 -813.45 4743.89
3857.78 -816.318 4747.13
3863.32 -816.152 4744.37
3866.95 -815.48 4744.55
3866.53 -815.518 4743.63
3869.36 -815.913 4742.42
3872.51 -816.623 4739.85
3873.11 -816.732 4739.3
3875.21 -816.059 4739.47
3874.73 -816.188 4739.02
3873.94 -816.408 4738.62
3875.96 -815.47 4739.38
3876.55 -814.569 4739.6
3876.89 -813.95 4741.33
3879.08 -806.305 4748.2
3877.97 -811.652 4745.36
3877.57 -811.863 4743.41
3877.12 -813.142 4741.19
3858.16 -816.267 4746.18
3863.23 -816.018 4743.59
3869.05 -816 4741.44
3869 -816.059 4740.6
3872.13 -816.623 4739.3
3872.38 -816.533 4738.74
3874.64 -815.974 4738.23
3873.96 -816.169 4737.9
3876.18 -814.871 4738.64
3876.47 -814.219 4738.64
3876.8 -813.632 4739.17
3875.52 -815.609 4738.63
3878.83 -808.414 4745.91
3877.37 -812.076 4740.36
3878.73 -807.587 4743.94
3865.31 -815.405 4741.45
3872.97 -816.384 4738.25
3875.81 -814.779 4737.78
3876.87 -812.785 4738.36
3876.69 -813.246 4737.91
3877.26 -811.472 4739.03
3878.71 -806.99 4742.06
3877.68 -810.891 4740.37
3860.33 -816.164 4744.08
3862.93 -815.612 4742.47
3868.16 -815.523 4739.45
3868.87 -815.901 4739.79
3871.7 -816.04 4738.11
3872.61 -816.082 4737.71
3873.04 -815.85 4737.28
3874.96 -815.363 4737.45
3873.74 -815.553 4736.97
3875.43 -814.613 4737.03
3876.03 -813.664 4736.91
3877.07 -811.019 4738.17
3876.83 -811.662 4737.52
3876.58 -812.252 4736.93
3877.6 -809.454 4738.32
3878.37 -805.948 4740.06
3860.16 -815.521 4743.32
3867.31 -814.982 4739.24
3871.12 -815.664 4737.61
3871.75 -815.8 4737.53
3872.88 -815.45 4736.8
3874.35 -815.032 4736.6
3873.61 -814.63 4736.05
3875.28 -814.09 4736.43
3875.28 -810.952 4734.9
3876.23 -812.98 4736.75
3876.98 -808.015 4736.17
3876.34 -809.158 4735.45
3875.76 -810.049 4735.04
3877.54 -805.878 4737.6
3876.78 -804.197 4735.67
3860.55 -815.151 4742.65
3867.04 -814.38 4738.76
3870.67 -815.124 4737.28
3871.53 -815.32 4737.11
3872.19 -815.301 4736.89
3872.64 -814.857 4736.36
3874.36 -814.144 4735.88
3873.43 -812.769 4734.77
3874.81 -811.723 4734.82
3875.34 -808.074 4733.69
3874.92 -808.439 4733.27
3874.5 -809.229 4733.14
3876.44 -806.569 4733.54
3875.84 -807.282 4733.67
3861.27 -814.648 4741.77
3866.71 -812.502 4736.98
3869.44 -812.842 4735.79
3870.44 -812.994 4735.42
3871.08 -813.004 4735.26
3872.3 -812.914 4734.96
3874.15 -812.013 4734.5
3872 -811.051 4733.61
3872.81 -810.538 4733.12
3873.66 -809.821 4732.99
3874.43 -808.412 4732.51
3873.94 -808.718 4732.28
3861.26 -814.127 4741.35
3863.69 -813.926 4740.09
3864.41 -813.116 4738.91
3863.23 -810.003 4737.34
3866.54 -810.078 4734.29
3867.72 -810.393 4733.91
3868.93 -810.67 4733.74
3869.87 -810.924 4733.72
3870.65 -811.011 4733.67
3871.36 -810.953 4733.65
3872.23 -810.248 4732.56
3872.68 -809.741 4732.53
3862.58 -813.517 4740.21
