3642.84 -127.652 3471.35
3642.05 -127.454 3471.23
3642.44 -130.821 3476.14
3641.35 -131.314 3476.99
3640.82 -129.011 3473.34
3645.38 -129.005 3472.13
3644.17 -127.372 3470.32
3644.2 -128.896 3472.78
3643.48 -127.297 3470.45
3643.57 -129.139 3473.36
3642.26 -126.83 3469.72
3641.44 -127.03 3470.49
3638.25 -129.97 3473.69
3638.59 -127.116 3468.59
3635.44 -130.149 3471.15
3639.57 -126.839 3469.03
3639.54 -130.108 3474.66
3640.5 -127.066 3470.39
3646.48 -129.084 3471.11
3645.01 -127.769 3470.26
3646.82 -128.905 3470.25
3644.35 -126.944 3468.72
3643.61 -126.845 3468.98
3642.73 -126.611 3468.85
3641.26 -126.414 3468.74
3641.64 -126.09 3467.68
3640.33 -126.453 3468.78
3635.84 -128.291 3467.49
3631.88 -129.924 3466.42
3632.7 -128.682 3464.22
3629.02 -129.704 3463.79
3638.46 -126.812 3467.47
3639.28 -126.445 3467.58
3620.51 -130.652 3464.13
3620.79 -130.041 3462.41
3619.83 -130.445 3463.45
3621.52 -130.249 3463.13
3647.53 -129.526 3469.89
3646.28 -128.116 3468.93
3645.5 -127.575 3469.18
3647.25 -129.186 3468.87
3644.79 -127.043 3468.18
3643.35 -126.408 3467.85
3642.46 -126.173 3467.69
3640.65 -126.093 3467.63
3640.85 -125.928 3466.88
3641.7 -125.978 3466.94
3639.67 -126.156 3467.16
3636.68 -127.385 3465.93
3629.23 -129.114 3462.14
3624.9 -129.778 3462.11
3624.34 -130.295 3463.71
3621.52 -130.433 3463.8
3631.82 -128.291 3462.02
3637.06 -126.954 3464.98
3638.71 -126.546 3466.7
3619.37 -130.331 3463.05
3627.22 -128.808 3459.9
3624.85 -129.415 3460.9
3621.71 -129.545 3460.22
3646.57 -128.27 3467.97
3645.38 -127.419 3468.17
3644.37 -126.901 3467.36
3642.89 -126.24 3466.64
3640.07 -125.924 3466.6
3638.74 -126.314 3464.59
3641.76 -125.933 3466.25
3620.02 -129.845 3461.57
3628.3 -128.427 3459.01
3622.72 -129.266 3458.24
3624.91 -128.822 3457.19
3647.19 -129.385 3467.65
3646.12 -128.198 3467.47
3644.04 -126.799 3466.65
3642.77 -126.514 3465.63
3641.71 -126.187 3465.44
3637.44 -126.666 3463.93
3640.87 -125.995 3465.54
3629.32 -128.181 3457.83
3630.31 -128.056 3457.65
3628.6 -128.295 3458.32
3618.1 -130.918 3463.66
3618.83 -130.13 3462.03
3618.36 -130.459 3462.41
3619.95 -129.825 3460.6
3623.34 -129.221 3456.98
3624.73 -128.909 3455.6
3625.49 -128.731 3455.58
3619.33 -130.043 3460.6
3618.5 -130.409 3461.21
3644.99 -127.386 3466.94
3643.87 -127.023 3465.85
3641.32 -126.555 3464.36
3642.37 -126.827 3464.68
3640.15 -126.365 3464.09
3638.55 -126.481 3463.13
3630.92 -128.16 3457.02
3631.3 -127.92 3457.77
3626.42 -128.859 3454.42
3625.87 -128.776 3454.79
3622.26 -129.594 3457.32
3624.1 -129.151 3455.32
3624.9 -128.973 3454.63
3617.61 -131.365 3461.85
3619.9 -130.297 3459.43
3646.71 -129.511 3466.49
3645.97 -128.427 3466.65
3644.48 -127.596 3465.67
3643.42 -127.228 3465.02
3637.68 -127.316 3460.85
3641.71 -127.247 3463.65
3633.5 -127.861 3458.15
3626.61 -129.079 3453.79
3627.39 -129.065 3453.78
3625.43 -128.94 3454.15
3625.94 -129.058 3453.79
3623.51 -129.46 3454.97
3624.13 -129.296 3454.42
3624.69 -129.19 3453.99
3622.44 -130.589 3454.22
3646.07 -129.473 3465.73
3645.56 -128.411 3466
3644.17 -127.942 3465
3642.88 -127.636 3464.17
3636.77 -127.891 3459.71
3632.23 -129.866 3454.61
3632.09 -129.131 3455.64
3631.12 -129.091 3455.32
3638.71 -127.859 3460.94
3627.99 -129.53 3453.11
3626.54 -129.426 3453.07
3625.7 -129.406 3453.06
3625.22 -129.168 3453.6
3623 -130.474 3453.53
3623.39 -130.379 3452.96
3645.27 -129.364 3464.94
3644.98 -128.509 3465.29
3643.67 -128.407 3464.19
3642.71 -128.056 3463.66
3634.06 -129.477 3456.98
3632.8 -130.328 3454.29
3629.93 -130.095 3452.68
3628.92 -130.07 3452.47
3634.9 -129.576 3457.56
3627.09 -129.785 3452.54
3626.06 -129.731 3452.5
3624.28 -130.466 3452.13
3644.13 -129.272 3464.05
3639.63 -128.866 3461.02
3635.35 -130.021 3457.57
3626.07 -131.171 3450.99
3640.96 -129.84 3461.56
