3896.57 -182.642 3306.3
3898.01 -182.762 3305.03
3895.07 -181.588 3305.53
3899.46 -183.915 3306.95
3896.69 -181.375 3303.06
3894.4 -181.215 3305.35
3895.97 -180.947 3302.77
3893.61 -180.876 3304.51
3904.97 -188.187 3312.88
3905.59 -186.744 3310.54
3905.03 -186.376 3310.56
3904.01 -186.284 3310.92
3903.15 -187.768 3313.55
3901.55 -185.007 3308.8
3901.1 -185.042 3309.27
3903.1 -186.215 3310.88
3898.54 -182.843 3304.51
3900.03 -184.04 3306.63
3897.21 -181.527 3302.15
3895.02 -180.583 3302.2
3896.53 -181 3301.36
3904.61 -185.969 3310.26
3904.03 -185.754 3310.14
3898.75 -182.812 3303.66
3900.14 -183.939 3305.79
3902.46 -184.908 3308.05
3903.88 -185.377 3309.49
3897.54 -181.562 3301.55
3894.57 -180.36 3301.76
3892.77 -180.55 3303.75
3895.23 -180.643 3301.03
3896 -180.829 3300.85
3897.09 -181.113 3300.86
3896.65 -180.939 3300.23
3906.02 -188.844 3312.07
3906.26 -187.293 3310.11
3904.6 -185.515 3309.49
3905.44 -186.094 3309.57
3899.15 -182.88 3302.92
3899.88 -183.715 3305.27
3900.8 -184.326 3306.08
3903.93 -185.184 3308.83
3898.5 -182.053 3300.84
3894.45 -180.41 3300.93
3893.84 -180.224 3301.12
3896.01 -180.809 3299.87
3897.66 -181.539 3300.02
3906.09 -186.61 3309.4
3905.52 -185.82 3308.78
3904.92 -185.47 3308.57
3906.56 -189.208 3311.44
3906.68 -187.706 3309.84
3899.63 -183.205 3302.64
3902.73 -184.789 3306.89
3903.98 -185.039 3308.11
3899.19 -182.694 3300.77
3898.49 -182.107 3299.99
3894.2 -180.522 3300.23
3893.23 -180.407 3301.07
3895.2 -180.734 3299.46
3897.63 -181.728 3299.34
3896.87 -181.431 3299.27
3906.1 -186.23 3308.63
3905.96 -186.037 3308.03
3906.54 -187.229 3309.47
3900.38 -184.024 3304.45
3900.68 -184.164 3305.03
3901.28 -184.537 3305.44
3904.54 -185.31 3307.56
3899.89 -183.485 3300.82
3899.49 -183.128 3299.58
3898.52 -182.449 3299.22
3894.45 -180.594 3299.33
3893.7 -180.576 3299.14
3892.85 -180.582 3300.16
3893 -180.614 3299.13
3895.25 -181.153 3298.55
3896.16 -181.458 3298.74
3898.87 -184.036 3296.14
3905.11 -185.497 3307.77
3907.01 -190.11 3309.42
3906.82 -187.801 3309.2
3900.37 -183.925 3302.16
3903.04 -184.946 3306.07
3900.18 -183.811 3299.95
3901.03 -185.844 3295.19
3899.92 -184.395 3296.97
3894.03 -180.846 3298.62
3895.74 -181.593 3297.99
3897.4 -183.447 3295.95
3906.66 -187.21 3308.78
3906.47 -186.729 3308.29
3905.73 -186.106 3307.06
3907.06 -190.005 3308.77
3906.8 -187.688 3308.28
3906.63 -189.878 3307.54
3906.39 -187.467 3307.16
3900.84 -184.49 3303.75
3901.2 -184.494 3304.36
3901.63 -184.659 3304.83
3901.39 -185.847 3296.33
3906.23 -186.456 3307.64
3904.69 -185.434 3306.7
3903.34 -185.274 3305.51
3901.02 -184.799 3300.44
3900.66 -184.526 3298.75
3905.08 -186.148 3306.25
3902.31 -185.029 3304.84
3906.01 -186.777 3306.9
3904.68 -188.375 3305.62
3905.5 -187.049 3306.38
3901.07 -185.038 3303.57
3901.14 -185.013 3302.9
3901.64 -184.927 3304.13
3904.17 -187.025 3305.26
3903.63 -185.902 3305.22
3902.77 -185.919 3304.78
3902.81 -186.68 3304.64
3901.78 -186.201 3304.15
