3648.19 -129.57 1647.81 
3645.38 -127.019 1644.23 
3645.78 -127.354 1644.78 
3649.29 -129.505 1647.01 
3646.39 -127.268 1644.46 
3647.11 -129.495 1647.64 
3645.6 -129.33 1647.03 
3649.13 -131.8 1650.95 
3644.8 -129.426 1646.84 
3647.51 -131.916 1650.62 
3643.75 -129.98 1646.77 
3646.8 -132.15 1650.36 
3644.22 -126.99 1644.16 
3643.14 -127.301 1644.18 
3647.65 -127.503 1644.44 
3644.56 -126.659 1643.48 
3643.61 -126.589 1643.5 
3645.81 -127.019 1643.64 
3642.27 -127.569 1644.14 
3641.43 -128.07 1644.21 
3650.07 -129.907 1646.04 
3642.53 -126.697 1643.3 
3641.95 -126.927 1643.32 
3646.7 -127.304 1643.64 
3643.09 -126.227 1642.59 
3642.41 -126.159 1642.57 
3640.95 -127.637 1643.51 
3643.02 -130.984 1646.98 
3641.13 -128.872 1644.35 
3642.4 -131.749 1647 
3641.48 -132.598 1646.72 
3640.2 -129.47 1644.15 
3640.54 -132.475 1646.05 
3650.23 -130.074 1645.34 
3647.87 -127.794 1643.63 
3650.26 -130.026 1644.43 
3649.58 -129.736 1641.86 
3648 -128.108 1642.9 
3650.11 -129.911 1643.28 
3650.24 -130.978 1638.5 
3648.65 -129.164 1640.69 
3649.04 -129.398 1641.12 
3641.67 -126.485 1642.59 
3640.94 -126.961 1642.72 
3644.44 -126.351 1642.53 
3641.8 -126.025 1642.06 
3646.39 -127.034 1642.86 
3645.55 -126.725 1642.6 
3640.16 -127.47 1642.54 
3640.64 -128.53 1643.87 
3639.95 -128.137 1642.88 
3639.46 -129.612 1643.48 
3639.5 -132.388 1644.87 
3639.98 -128.616 1643.3 
3647.05 -127.229 1642.78 
3647.61 -127.913 1642.34 
3647.12 -127.6 1641.96 
3649.37 -130.481 1638.53 
3647.85 -128.769 1640.27 
3646.32 -127.29 1641.66 
3640.71 -126.539 1642.19 
3642.71 -126.008 1642.04 
3641.28 -125.219 1642.07 
3641.09 -125.91 1642 
3639.43 -127.824 1642.15 
3639.77 -127.15 1642.05 
3648.59 -130.225 1637.96 
3646.85 -128.309 1640.15 
3647.9 -129.925 1638.27 
3640.1 -126.124 1642.09 
3645.17 -126.817 1641.66 
3641.63 -125.696 1641.56 
3640.74 -124.91 1641.98 
3640.03 -124.914 1642.12 
3638.7 -130.002 1642.97 
3638.94 -132.344 1643.98 
3639.24 -129.014 1642.79 
3639.26 -128.386 1642.35 
3638.69 -132.218 1643.14 
3638.29 -130.183 1642.07 
3638.41 -131.935 1642.36 
3645.35 -128.041 1640.15 
3643.79 -126.722 1641.08 
3643.11 -126.24 1641.57 
3639.49 -126.522 1641.97 
3639.07 -127.276 1641.93 
3638.59 -129.544 1642.47 
3638.46 -130.375 1641.42 
3638.62 -132.195 1641.15 
3647.2 -129.992 1638.26 
3642.82 -126.749 1640.99 
3640.69 -125.703 1641.29 
3639.74 -125.503 1641.64 
3638.86 -128.006 1641.89 
3638.64 -128.988 1642.14 
3638.41 -129.749 1641.57 
3644.77 -128.247 1640.01 
3646.53 -130.474 1638.21 
3643.97 -128.328 1639.96 
3645.41 -130.097 1638.9 
3641.97 -126.56 1641.04 
3641.23 -125.993 1641.19 
3639.09 -125.796 1641.88 
3638.63 -128.674 1641.53 
3638.73 -130.195 1640.83 
3639.12 -131.877 1640.43 
3641.9 -127.247 1640.6 
3644.92 -130.505 1638.87 
3643.21 -128.788 1639.89 
3638.79 -126.622 1641.75 
3639.58 -126.106 1641.33 
3638.72 -129.436 1640.9 
3641.59 -130.272 1639.62 
3642.29 -129.72 1639.68 
3643.87 -132.511 1638.41 
3644.64 -131.246 1638.65 
3639.4 -129.41 1640.47 
3639.75 -131.514 1640.02 
3640.54 -131.135 1639.78 
3639.86 -128.283 1640.4 
3641.17 -127.175 1640.66 
3640.67 -126.449 1640.98 
3638.73 -128.773 1640.91 
3638.69 -128.089 1641.23 
3640.59 -128.095 1640.35 
3640.49 -127.011 1640.76 
3639.98 -127.395 1640.66 
3639.38 -127.969 1640.74 
3639.4 -126.795 1641.09 
3638.99 -127.341 1641.19 
