4185.05 -766.627 -138.175
4185.66 -766.624 -139.21
4183.98 -763.8 -137.361
4185.43 -762.841 -139.541
4185.9 -763.435 -140.097
4186.28 -764.455 -140.93
4186.27 -762.827 -141.276
4186.55 -763.772 -142.006
4186.9 -761.78 -142.079
4186.25 -767.238 -140.155
4187.26 -768.913 -141.854
4180.93 -780.209 -165.049
4182.04 -782.368 -159.936
4180.85 -781.489 -163.392
4182.59 -779.432 -162.76
4182.54 -781.659 -159.977
4181.52 -783.262 -159.43
4180.36 -782.322 -162.847
4180.91 -783.933 -159.186
4179.74 -782.951 -162.536
4180.95 -778.108 -167.267
4183.37 -778.246 -162.393
4175.14 -792.061 -138.12
4174.94 -792.194 -137.064
4172.76 -792.967 -138.925
4175.52 -791.455 -139.443
4175.79 -791.465 -138.777
4173.63 -792.203 -140.421
4173.35 -792.475 -139.935
4175.79 -789.789 -133.457
4176.79 -788.737 -133.189
4173.79 -788.683 -131.267
4177.28 -787.747 -132.757
4174.36 -787.764 -130.87
4177.49 -786.821 -132.266
4174.59 -786.855 -130.379
4181.73 -776.896 -134.176
4184.08 -776.44 -137.207
4184.08 -767.827 -137.055
4185.51 -770.829 -138.621
4186.65 -773.032 -140.381
4187.86 -772.635 -142.288
4187.63 -768.584 -142.73
4186.71 -765.467 -142.056
4186.68 -764.597 -142.412
4186.81 -762.576 -142.771
4186.73 -763.511 -143.306
4188.67 -773.044 -143.774
4188.84 -771.927 -144.513
4183.06 -780.253 -160.701
4182.35 -782.694 -158.605
4183.14 -782.147 -155.925
4181.85 -783.49 -158.178
4180.15 -784.143 -159.865
4181.51 -783.977 -157.842
4181.01 -784.263 -158.088
4180.3 -784.406 -159.063
4181.78 -777.232 -166.231
4183.62 -776.953 -162.936
4181.99 -775.892 -166.419
4184.06 -775.726 -162.608
4183.94 -777.743 -161.312
4183.57 -779.052 -160.7
4173.93 -791.762 -141.062
4176.65 -789.959 -140.504
4174.8 -789.622 -143.148
4177.41 -788.449 -142.433
4175.84 -791.699 -137.136
4176.01 -791.486 -138.04
4176.58 -790.914 -138.435
4174.7 -792.194 -136.464
4175.87 -791.36 -135.903
4174.73 -791.946 -135.826
4177.34 -789.582 -139.935
4177.97 -789.124 -139.526
4175.62 -791.102 -135.069
4174.57 -791.554 -135.061
4175.19 -790.901 -134.428
4175.75 -790.328 -134.054
4175.06 -790.214 -133.462
4176.62 -789.459 -133.798
4177.68 -788.161 -133.496
4178.21 -785.958 -132.347
4177.71 -787.206 -132.732
4175.04 -785.776 -130.113
4178.23 -784.648 -131.735
4175.66 -784.41 -129.924
4178.86 -783.738 -131.879
4179.22 -782.36 -131.753
4176.69 -780.924 -129.59
4179.18 -775.963 -131.406
4180.16 -779.617 -132.233
4179.65 -780.751 -131.808
4177.68 -777.679 -130.042
4180.65 -780.967 -132.899
4183.05 -779.758 -136.065
4186.55 -778.202 -140.851
4187.59 -775.711 -142.286
4188.04 -768.951 -143.95
4189.35 -771.558 -145.372
4186.93 -765.705 -143.39
4186.69 -764.546 -143.577
4186.72 -762.627 -144.832
4186.52 -763.601 -144.767
4188.01 -776.335 -143.248
4189.13 -773.252 -144.922
4189.42 -772.137 -145.593
4183.47 -781.067 -156.642
4182.89 -782.673 -155.578
4182.52 -783.259 -155.378
4184.05 -781.858 -152.047
4183.27 -782.708 -152.711
4184.16 -781.324 -152.648
4184.2 -780.709 -153.477
4182.13 -783.763 -155.042
4180.36 -784.716 -157.936
4177.8 -785.38 -159.528
4181.35 -784.447 -154.477
4181.1 -784.414 -157.234
4183.96 -771.638 -163.656
4184.51 -774.755 -161.709
4184.38 -776.436 -161.119
4183.8 -779.676 -157.595
4184.15 -778.273 -158.291
4178.22 -788.006 -141.915
4176.61 -787.383 -145.013
4177.76 -787.894 -142.904
4175.9 -788.033 -144.405
4177.2 -790.401 -138.023
4176.89 -790.812 -137.555
4177 -790.763 -136.921
4178.45 -788.694 -139.096
4176.66 -790.774 -135.759
4176.21 -790.58 -134.867
4178.96 -787.548 -141.443
4179.58 -787.164 -140.955
4176.52 -790.019 -134.371
4177.42 -789.038 -134.17
4178.36 -787.665 -133.799
4178.53 -786.492 -133.018
4179.79 -784.467 -133.075
4179.64 -783.899 -132.615
4180.28 -782.308 -132.693
4183.08 -781.021 -136.376
4186.93 -780.076 -141.825
4187.9 -768.478 -144.685
4187.16 -766.218 -144.495
4186.94 -765.401 -144.715
4186.65 -764.646 -144.805
4186.95 -761.653 -144.315
4186.64 -764.043 -146.43
4186.41 -763.139 -148.245
4188.44 -776.063 -144.207
4187.29 -780.395 -142.754
4189.43 -772.912 -145.847
4189.12 -774.508 -145.348
4184.23 -769.834 -163.166
4184.73 -773.953 -160.936
4184.21 -779.903 -154.344
4182.84 -783.404 -152.23
4185.67 -781.18 -149.595
4183.9 -782.35 -151.663
4185.33 -781.99 -149.306
4183.45 -782.901 -151.687
4184.79 -779.82 -152.779
4185.95 -780.094 -150.197
4182.46 -783.867 -151.867
4180.25 -784.956 -156.711
4178 -785.552 -158.412
4181.76 -784.458 -150.985
4181.26 -784.567 -151.937
4184.61 -775.584 -160.812
4184.43 -778.729 -154.825
4184.51 -777.647 -155.508
4184.4 -776.933 -158.747
4184.53 -776.448 -156.296
4178.68 -787.459 -142.791
4177.31 -786.785 -146.09
4178.59 -787.184 -143.798
4177.45 -790.28 -137.162
4178.82 -788.362 -138.36
4177.09 -790.487 -136.123
4177.61 -789.991 -136.463
4179.92 -786.874 -140.199
4177.08 -790.193 -135.42
4177.32 -789.595 -134.768
4179.39 -787.13 -142.182
4179.93 -786.803 -141.74
4180.14 -786.592 -140.986
4178.51 -788.01 -134.46
4179.16 -786.562 -133.869
4180.14 -784.542 -133.616
4180.65 -783.18 -133.463
4183.11 -782.357 -136.991
4183.98 -781.499 -137.886
4186.47 -781.484 -141.672
4188.1 -768.39 -145.533
4189.02 -770.161 -145.958
4187.32 -766.231 -145.853
4186.93 -765.211 -146.442
4186.57 -764.618 -148.687
4187.76 -779.585 -143.676
4186.92 -781.638 -142.59
4187.33 -781.331 -143.258
4189.36 -773.825 -146.301
4189.59 -772.3 -146.484
4188.49 -777.261 -145.115
4189.52 -771.225 -146.206
4184.47 -769.744 -162.009
4184.73 -773.337 -159.026
4184.65 -775.246 -158.753
4184.41 -767.588 -159.88
4184.74 -771.743 -156.906
4184.77 -778.705 -153.798
4182.99 -783.478 -151.402
4184.69 -783.25 -148.479
4186.93 -781.231 -147.22
4186.87 -782.04 -146.47
4184.99 -782.763 -148.854
4186.52 -782.563 -146.511
4186.62 -778.04 -150.695
4187.25 -779.038 -148.738
4183.84 -784.069 -148.202
4178.07 -785.652 -157.376
4183.26 -784.28 -148.541
4180.39 -784.926 -154.085
4182.26 -784.828 -148.23
4181.01 -784.804 -151.052
4184.91 -777.199 -154.577
4184.91 -775.325 -155.474
4184.84 -773.896 -156.263
4179.53 -786.83 -144.027
4179.65 -786.906 -143.362
4178.07 -786.029 -147.757
4180.67 -785.651 -147.191
4179.31 -787.888 -137.399
4180.2 -786.511 -139.353
4177.87 -789.499 -135.769
4179.53 -787.384 -136.921
4180.37 -786.353 -140.253
4178.18 -788.802 -135.072
4180.4 -786.521 -143.027
4180.77 -786.243 -141.991
4181.22 -785.791 -141.047
4180.67 -785.412 -135.868
4181.26 -784.137 -135.479
4181.81 -783.061 -135.474
4184.02 -782.295 -138.575
4185.83 -782.003 -140.888
4186.33 -782.113 -141.621
4188.46 -768.464 -146.155
4189.34 -769.737 -146.51
4189.59 -770.329 -146.767
4187.09 -766.131 -147.372
4187.59 -767.105 -147.216
4186.76 -765.819 -148.835
4186.34 -764.425 -150.807
4185.07 -772.052 -155.788
4185.35 -764.046 -154.263
4186.74 -766.25 -150.089
4186.46 -766.357 -151.702
4187.74 -780.482 -144.041
4186.76 -782.237 -142.448
4189.48 -773.346 -147.077
4189.1 -775.216 -146.317
4188.04 -779.652 -145.046
4185.15 -777.549 -153.65
4186.25 -783.11 -146.08
4185.86 -783.664 -145.625
4187.34 -780.228 -147.399
4187.19 -781.796 -145.932
4186.87 -782.832 -145.323
4186.88 -776.125 -151.438
4188.34 -775.771 -149.193
4188.05 -777.379 -148.639
4185.28 -784.011 -145.679
4178.91 -785.397 -154.944
4184.28 -784.448 -145.827
4180.58 -784.911 -151.624
4182.03 -785.562 -144.959
4180.18 -785.08 -150.844
4185.45 -775.767 -154.003
4185.28 -774.746 -154.732
4178.01 -785.632 -149.595
4178.18 -785.483 -151.487
4177.68 -785.552 -153.849
4180.78 -785.888 -138.875
4181 -785.784 -139.863
4180.33 -786.113 -136.458
4181.7 -784.91 -138.538
4182.74 -785.319 -144.012
4183.13 -785.134 -143.157
4183.65 -784.777 -142.615
4181.96 -785.201 -140.571
4182.44 -783.304 -137.227
4182.74 -783.648 -138.288
4184.46 -782.524 -139.343
4186.02 -782.666 -141.595
4189.43 -769.152 -147.001
4188.31 -768.085 -148.397
4188.76 -768.245 -147.836
4188.1 -768.251 -149.071
4187.91 -768.658 -149.712
4186.22 -767.918 -152.856
4185.4 -767.173 -154.612
4187.69 -769.573 -150.44
4185.79 -770.386 -154.123
4185.5 -772.04 -154.713
4187.51 -781.397 -143.991
4186.87 -782.693 -143.192
4186.39 -782.967 -142.501
4187.21 -782.387 -143.777
4189.26 -774.862 -147.092
4188.19 -778.8 -145.947
4189.51 -771.928 -147.482
4187.59 -780.989 -144.817
4186.44 -783.352 -145.131
4187.47 -780.72 -146.35
4188.38 -776.971 -148.036
4187.37 -781.881 -145.025
4187.17 -782.636 -144.542
4186.98 -774.605 -151.87
4188.46 -774.446 -149.644
4188.72 -774.882 -148.877
4184.56 -784.441 -145.072
4185.72 -773.451 -154.134
4181.99 -784.927 -139.701
4182.01 -784.423 -138.115
4182.69 -784.11 -139.152
4184.99 -784.362 -144.521
4185.49 -784.195 -143.988
4184.01 -784.458 -142.081
4185.68 -784.077 -143.403
4184.39 -783.175 -139.976
4185.88 -783.204 -141.874
4189.55 -769.934 -147.482
4189.51 -771.045 -147.604
4189.23 -770.759 -148.297
4187.49 -770.513 -151.189
4188.84 -771.216 -149.044
4187.34 -771.806 -151.689
4187.39 -782.038 -144.422
4188.3 -778.06 -146.867
4189.08 -774.697 -147.953
4189.27 -773.431 -148.104
4187.5 -780.972 -145.515
4189.24 -771.824 -148.373
4186.27 -783.697 -144.292
4186.76 -783.231 -144.344
4187.27 -773.194 -151.77
4188.54 -773.494 -149.817
4189.14 -774.062 -148.421
4188.86 -773.752 -149.117
4184.42 -783.82 -141.004
4186.16 -783.678 -143.133
4185.92 -783.527 -142.404
4188.72 -772.03 -149.3
4186.61 -783.379 -143.723
4189.05 -772.782 -148.843
