3365.77 -288.117 1293.29
3364.37 -287.516 1290.92
3365.61 -288.788 1292.76
3364.25 -288.155 1290.47
3365.59 -289.63 1292.13
3363.97 -287.491 1290.24
3364.11 -288.744 1289.83
3365.49 -290.244 1291.61
3366.05 -287.413 1293.51
3364.58 -286.662 1291.24
3363.9 -286.792 1289.76
3363.97 -289.264 1289.24
3363.71 -288.782 1288.88
3363.69 -288.112 1289.33
3367.12 -288.304 1295.6
3366.47 -286.646 1293.41
3364.57 -285.806 1290.98
3364.23 -285.77 1290.32
3363.89 -286.042 1289.17
3363.64 -286.193 1288.58
3363.48 -287.419 1288.76
3363.46 -288.164 1288.41
3363.73 -289.261 1288.34
3365 -291.67 1288.33
3366.72 -285.948 1293.13
3365.07 -284.642 1290.53
3364.56 -284.682 1289.9
3364.01 -285.309 1289.09
3364.52 -284.09 1288.96
3363.77 -285.711 1288.07
3363.44 -287.353 1287.9
3363.53 -286.424 1287.89
3363.67 -289.211 1287.71
3364.98 -291.8 1287.65
3363.49 -288.306 1287.64
3368.21 -287.569 1295.82
3367.67 -284.742 1293.2
3366.5 -282.31 1290.58
3365.78 -282.286 1289.48
3366.03 -282.578 1290.08
3364.33 -284.204 1288.2
3365.42 -281.924 1288.32
3364.16 -284.484 1287.63
3363.47 -287.72 1287.16
3370.23 -285.328 1295.73
3369.15 -282.015 1292.68
3368.45 -283.267 1292.88
3370.1 -274.486 1288.02
3369.01 -277.494 1289.43
3367.57 -279.962 1290.11
3367.92 -278.163 1288.78
3368.45 -277.681 1289.08
3367.24 -278.615 1287.99
3365.01 -282.525 1287.56
3366.99 -278.808 1287.42
3366.35 -280.033 1288.1
3364.39 -283.788 1286.89
3363.94 -285.101 1287.06
3364.92 -282.597 1286.94
3363.52 -286.951 1286.91
3363.75 -285.951 1286.74
3363.6 -288.032 1286.6
3363.82 -288.972 1286.59
3365.06 -292.003 1286.14
3370.65 -281.659 1293.5
3372.25 -280.445 1293.66
3371.11 -274.221 1288.48
3370.1 -273.581 1287.32
3370.67 -272.089 1286.84
3369.83 -271.929 1286.12
3369.37 -273.46 1286.68
3369.11 -275.523 1287.08
3367.56 -277.947 1287.54
3368.63 -276.34 1286.96
3364.99 -282.461 1286.03
3364.11 -284.945 1286.16
3366.71 -279.207 1286.48
3363.79 -286.471 1286.08
3363.79 -287.109 1285.85
3364.09 -288.735 1285.64
3365.12 -291.698 1285.44
3371.89 -275.177 1289.64
3375.62 -279.84 1294.89
3372.9 -275.323 1290.17
3370.62 -271.495 1286.61
3370.16 -271.217 1286.16
3369.33 -271.866 1285.71
3368.87 -275.567 1286.45
3368.94 -273.446 1286.02
3365.32 -282.018 1285.35
3364.85 -283.001 1285.41
3364.11 -285.717 1285.55
3364.53 -284.05 1285.32
3368.1 -276.652 1286.01
3364.24 -286.154 1285.07
3364.05 -288.145 1285.42
3364.35 -288.75 1285.06
3376.05 -278.197 1293.5
3373.46 -274.447 1289.67
3371.57 -271.791 1287.07
3365.5 -281.959 1284.74
3366.86 -279.293 1285.69
3365.14 -282.819 1284.54
3364.75 -284.1 1284.65
3365.27 -283.136 1283.93
3368.75 -275.363 1285.7
3368.33 -276.125 1285.73
3364.23 -287.726 1284.98
3364.88 -284.534 1284.15
3364.58 -288.232 1284.54
3365.28 -291.12 1284.69
3376.18 -277.272 1292.65
3373.87 -273.837 1289.22
3371.39 -270.994 1286.54
3370.77 -270.604 1286.04
3369.58 -271.228 1285.48
3368.78 -272.274 1285.41
3368.78 -273.926 1285.59
3365.83 -281.668 1284.3
3365.51 -282.463 1283.94
3368.17 -277.168 1285.47
3365.42 -283.596 1283.4
3365.71 -282.888 1283.21
3364.63 -286.874 1284.32
3365.12 -285.075 1283.64
3365.59 -284.108 1282.98
3364.92 -287.346 1284.03
3365.48 -290.737 1284.24
3372.22 -271.27 1286.82
3376.94 -276.176 1291.33
3375.02 -273.73 1288.99
3371.46 -270.506 1286.08
3370.01 -270.652 1285.25
3370.51 -270.24 1285.38
3367.03 -279.441 1284.75
3365.97 -281.895 1283.66
3365.99 -283.308 1282.56
3366.1 -282.458 1282.89
3368.65 -274.232 1284.95
3368.69 -272.719 1284.89
3365.41 -285.482 1283.24
3365.72 -290.28 1283.8
3365.7 -286.001 1282.95
3372.37 -270.687 1286.34
3373.26 -271.292 1286.87
3371.18 -269.985 1285.48
3368.96 -271.552 1285.14
3368.25 -277.555 1284.66
3366.49 -282.609 1282.33
3366.78 -282.951 1281.84
3366.68 -281.895 1282.61
3368.58 -276.693 1285.02
3368.7 -275.939 1285.05
3366.03 -284.843 1282.42
3366.39 -284.11 1281.98
3366.07 -289.456 1283.37
3366.51 -285.166 1282.06
3372.02 -270.001 1285.57
3376.15 -273.576 1288.41
3374.78 -271.738 1286.79
3369.39 -271.068 1284.89
3370.38 -270.17 1284.75
3367.25 -279.891 1283.96
3367.1 -282.264 1281.89
3367.61 -282.681 1281.2
3367.88 -280.121 1283.03
3367.06 -283.763 1281.41
3366.65 -288.132 1282.67
3367.17 -285.264 1281.55
3367.23 -284.498 1281.31
3372.94 -270.404 1285.96
3373.97 -270.857 1286.3
3376.85 -273.505 1287.95
3375.5 -271.822 1286.49
3368.86 -277.33 1284.46
3368.75 -278.014 1284.22
3367.59 -281.802 1281.72
3368.1 -282.116 1281.12
3370.24 -282.561 1279.75
3368.38 -280.28 1282.54
3369.01 -274.564 1284.5
3369.08 -272.875 1284.3
3369.09 -272.228 1284.38
3367.54 -283.971 1281.05
3367.93 -283.547 1280.79
3370.13 -283.176 1279.64
3368.44 -286.93 1281.19
3369.4 -285.349 1280.14
3369.82 -284.473 1279.79
3373.86 -270.337 1285.88
3375.04 -271.248 1286.04
3376.31 -271.92 1286.03
3377.57 -273.458 1287.39
3372.18 -269.766 1284.93
3371.28 -269.853 1284.88
3369.38 -277.306 1284.02
3369.15 -276.338 1284.47
3370.39 -281.391 1280.22
3370.43 -281.947 1279.92
3372.47 -281.799 1278.89
3369.12 -278.714 1283.4
3370.41 -279.87 1281.56
3369.42 -278.132 1283.5
3369.37 -271.655 1284.17
3372.93 -269.92 1285.19
3373.56 -270.157 1285.29
3374.42 -270.65 1285.5
3369.73 -270.882 1284.36
3370.95 -269.981 1284.32
3369.87 -276.822 1283.78
3371.1 -278.539 1282.28
3372.92 -278.546 1281.17
3372.62 -279.37 1280.6
3372.45 -280.431 1279.6
3372.35 -280.988 1279.27
3375.99 -271.318 1285.02
3376.49 -271.687 1285.15
3377.37 -272.212 1285.31
3377.52 -272.03 1284.56
3370.53 -270.64 1283.97
3370.13 -277.68 1283.34
3369.59 -274.798 1283.93
3371.46 -277.774 1282.58
3370.05 -271.254 1283.9
3374.63 -276.309 1280.65
3374.87 -275.212 1280.79
3375.34 -275.303 1280.1
3374.98 -270.807 1284.85
3374.14 -270.402 1284.79
3376.41 -271.346 1284.45
3377.56 -271.842 1283.95
3372.91 -269.609 1284.63
3375.33 -270.86 1284.28
3371.76 -269.747 1284.34
3371.26 -270.315 1283.87
3370.45 -276.91 1283.14
3371.7 -277.115 1282.64
3370.21 -274.599 1283.43
3373 -277.709 1281.8
3373.5 -278.063 1281.04
3373.84 -277.464 1281.12
3369.78 -272.877 1283.75
3369.85 -272.15 1283.78
3374.09 -276.273 1281.21
3375.43 -274.636 1280.42
3375.88 -274.69 1279.86
3377.02 -271.514 1283.86
3373.57 -269.713 1284.5
3377.65 -271.931 1282.41
3376.76 -271.608 1282.9
3376.03 -271.358 1283.12
3378.68 -272.479 1282.26
3372.3 -270.177 1283.96
3372.34 -276.276 1282.38
3373.45 -276.27 1281.8
3370.73 -271.116 1283.62
3374.22 -275.274 1281.45
3374.85 -274.477 1281.15
3378.7 -269.54 1288.01
3378.01 -269.615 1287.88
3378.8 -270.585 1289.11
3378.06 -270.628 1288.66
3379.93 -269.083 1288.03
3378.98 -269.009 1287.46
3378.07 -269.224 1287.39
3378.7 -272.826 1281.08
3372.93 -270.051 1284.09
3375.01 -271.231 1283.23
3371.58 -271.191 1283.39
3374.27 -271.328 1283.06
3372.11 -270.702 1283.53
3373.55 -274.545 1281.98
3371.54 -274.11 1282.86
3370.54 -272.949 1283.37
3372.06 -273.655 1282.67
3370.41 -271.761 1283.58
3371.07 -271.706 1283.34
3374.23 -274.463 1281.56
3375.43 -273.905 1281.1
3376.62 -274.012 1280.12
3375.89 -273.428 1281.11
3376.5 -273.502 1280.73
3380.97 -268.331 1287.15
3380.39 -268.641 1286.52
3377.5 -272.494 1281.4
3378.12 -272.565 1281.45
3376.71 -272.358 1281.77
3372.12 -271.644 1283.12
3376.04 -272.579 1281.83
3373.57 -272.159 1282.62
3372.61 -273.04 1282.61
3374.16 -273.824 1281.87
3375.11 -273.533 1281.48
3375.33 -272.844 1281.74
3377.11 -272.93 1280.88
3376.45 -273.001 1281.18
