4075.27 -609.809 3083.26
4079.55 -605.228 3081.22
4073.15 -618.84 3078.55
4078.76 -612.684 3077.69
4080.75 -609.163 3077.84
4076.77 -616.523 3076.87
4081.15 -603.235 3080.09
4082.51 -607.756 3076.49
4072.52 -620.16 3077.64
4076.98 -617.803 3075.49
4082.12 -614.642 3072.85
4083.33 -612.377 3072.97
4082.36 -601.879 3078.87
4082.95 -599.65 3079.23
4083.76 -607.093 3075.02
4085 -610.622 3071.84
4075.9 -619.888 3074.45
4077.12 -618.655 3074.51
4082.31 -615.655 3071.59
4083.65 -614.473 3071
4084.76 -612.701 3070.87
4083.84 -600.289 3077.17
4084.45 -598.752 3076.23
4083.86 -597.611 3078.46
4084.83 -606.003 3073.79
4085.96 -609.414 3071.04
4085.66 -611.014 3070.56
4075.77 -620.403 3073.71
4081.97 -616.912 3070.54
4083.45 -615.767 3069.53
4084.64 -614.038 3069.5
4085.46 -612.402 3069.73
4085.63 -605.211 3072.38
4086.11 -603.878 3071.49
4084.69 -597.119 3076.04
4083.96 -595.605 3078.62
4086.6 -608.913 3070.02
4086.19 -610.908 3069.63
4075.4 -620.91 3072.97
4081.83 -617.525 3069.61
4083.02 -616.618 3068.84
4083.91 -615.852 3067.9
4084.69 -614.64 3068.18
4085.33 -613.436 3068.45
4086.17 -611.845 3068.69
4086.58 -603.762 3070.17
4086.99 -607.713 3069.27
4084.95 -596.09 3075.5
4084.05 -594.226 3078.58
4086.97 -609.437 3068.83
4086.7 -610.728 3068.51
4074.72 -621.584 3072.55
4081.77 -617.822 3068.85
4082.92 -617.02 3067.85
4083.72 -616.29 3067.22
4084.75 -614.87 3067.08
4085.37 -613.671 3067.51
4086.37 -611.872 3067.72
4086.72 -602.669 3069.26
4087.25 -607.192 3068.42
4087.26 -608.902 3067.97
4085.15 -595.163 3075
4084.22 -593.472 3077.76
4087.04 -610.353 3067.58
4073.4 -622.52 3072.24
4079.83 -618.92 3069.45
4082.45 -617.509 3067.5
4083.3 -616.757 3066.62
4084.45 -615.375 3066.04
4084.98 -614.466 3066.48
4085.78 -613.058 3066.73
4086.73 -611.103 3067.07
4087.07 -604.024 3067.93
4087.42 -606.784 3067.6
4087.39 -608.319 3067.26
4086.32 -597.965 3070.27
4085.16 -594.058 3075.02
4087.19 -609.674 3066.79
4074.09 -622.276 3071.03
4075.53 -621.431 3071.3
4079.12 -619.318 3069.17
4082.82 -617.207 3066.19
4083.85 -615.999 3065.28
4084.63 -614.929 3065.45
4085.18 -613.992 3065.93
4086.44 -611.758 3066.57
4085.87 -612.697 3065.9
4086.94 -610.246 3066.31
4087.07 -603.119 3067.24
4087.46 -606.602 3066.88
4087.34 -608.407 3066.54
4086.61 -599.001 3068.42
4085.96 -595.165 3071.77
4085.14 -593.29 3074.68
4087.17 -609.005 3065.91
4075.18 -621.591 3070.48
4079.82 -618.903 3068.07
4082.28 -617.621 3066.24
4083.11 -616.793 3065.21
4083.8 -615.715 3064.73
4085.18 -613.755 3065.21
4086.57 -611.074 3065.9
4086.09 -611.859 3065.38
4073.26 -622.436 3069.27
4086.92 -609.843 3065.68
4087.22 -604.031 3066.53
4087.36 -607.277 3065.98
4087.31 -604.992 3065.77
4087.02 -602.048 3066.15
4086.3 -596.943 3068.58
4085.97 -594.889 3070.58
4085.76 -593.97 3072
4087.14 -608.301 3065.48
4075.22 -621.415 3069.58
4074.19 -622.151 3070.22
4079.76 -618.803 3067.32
4083.14 -616.442 3064.5
4084.86 -614.2 3064.82
4085.48 -612.858 3064.91
4086.06 -611.135 3064.63
4074.98 -621.247 3068.66
4087.21 -604.745 3065.04
4086.81 -600.69 3065.96
4087.12 -602.848 3065.19
4086.5 -598.793 3066.44
4085.79 -594.941 3068.59
4085.67 -593.674 3070.36
4085.48 -593.146 3071.71
4084.63 -591.952 3074.6
4086.93 -608.153 3064.8
4087.26 -606.115 3064.88
4079.31 -618.813 3066.73
4081.65 -617.909 3065.74
4082.21 -617.404 3065.08
4082.65 -616.868 3064.49
4083.67 -615.702 3064.08
4085.06 -612.83 3064.1
4086.72 -609.185 3064.65
4086.2 -610.373 3064.33
4073.53 -621.208 3066.47
4076.63 -619.743 3067.34
4086.98 -604.156 3064.14
4086.85 -602.091 3064.51
4085.84 -596.006 3067.19
4085.13 -593.41 3068.47
4085.29 -593.018 3069.72
4086.47 -599.821 3065.02
4085.33 -592.864 3070.67
4085.08 -592.301 3071.56
4086.79 -606.691 3063.77
4087.1 -605.982 3064.29
4084.74 -591.395 3071.7
4079.02 -618.666 3066
4081.17 -617.95 3065.33
4082.12 -617.067 3064.22
4082.51 -616.651 3063.9
4083.11 -615.76 3063.45
4084.03 -614.895 3063.84
4084.44 -613.82 3063.68
4084.63 -612.089 3063.09
4085.83 -609.851 3063.55
4086.66 -607.943 3063.93
4073.5 -620.209 3064.17
4075.66 -619.558 3066.02
4076.57 -619.018 3065.59
4086.75 -604.771 3063.47
4086.61 -603.409 3063.25
4086.56 -601.981 3063.73
4085.19 -594.416 3067.32
4086.05 -598.529 3065.08
4084.56 -592.552 3068.11
4084.74 -592.161 3069.45
4084.95 -592.202 3070.61
4086.45 -606.09 3062.98
4084.59 -591.369 3070.74
4078.76 -618.455 3065.18
4081.34 -617.681 3064.68
4081.91 -616.718 3063.54
4082.36 -615.896 3062.93
4082.95 -615.088 3062.8
4083.72 -614.474 3063.18
4081.78 -616.326 3063
4083.98 -613.015 3062.71
4084.75 -610.101 3062.3
4085.61 -607.945 3062.45
4086.33 -607.138 3063.11
4075.35 -610.538 3057.71
4077.49 -607.921 3056.71
4077.86 -607.182 3056.2
4073.5 -620.055 3061.85
4073.7 -619.523 3063.61
4075.57 -618.667 3064.03
4075.43 -618.321 3063.37
4076.39 -618.57 3064.35
4086.28 -604.619 3062.58
4086.12 -602.87 3062.6
4086.16 -601.206 3063.36
4085.11 -595.307 3066.12
4083.19 -591.968 3066.51
4085.77 -598.718 3064.3
4083.27 -591.089 3067.88
4083.18 -590.37 3068.95
4086.03 -605.094 3062.21
4078.73 -618.151 3064.57
4081.06 -617.427 3064.02
4082.09 -614.939 3062.16
4082.91 -614.243 3062.31
4081.98 -615.603 3062.49
4083.53 -612.547 3062.15
4081.01 -616.348 3062.73
4084.05 -608.911 3061.09
4084.34 -607.605 3060.88
4085.8 -606.01 3062.09
4084.83 -606.771 3061.16
4074.05 -612.538 3058.27
4077.07 -609.715 3058.11
4078.32 -607.81 3057.15
4078.18 -606.272 3055.61
4078.58 -606.637 3056.28
4074.29 -618.831 3062.42
4076.34 -618.111 3063.6
4076 -617.772 3062.84
4077.14 -618.092 3063.98
4085.89 -604.156 3062.06
4085.59 -602.31 3062.06
4085.85 -601.345 3062.78
4085.64 -600.086 3063.17
4083.72 -594.653 3064.7
4083.48 -592.951 3065.79
4082.24 -592.437 3064.52
4085.61 -604.703 3061.67
4078.97 -617.653 3063.77
4080.98 -616.987 3063.4
4081.39 -615.228 3062.03
4082.55 -613.885 3061.91
4081.74 -613.91 3061.51
4082.98 -612.742 3061.74
4083.43 -610.898 3061.34
4079.6 -616.168 3062.37
4079.24 -617.063 3063.03
4081.98 -607.077 3058.92
4081.95 -606.381 3058.65
4085.04 -605.423 3061.13
4082.26 -605.192 3058.77
4073.96 -613.361 3058.63
4073.93 -613.867 3059.31
4075.18 -612.349 3058.97
4078.25 -609.605 3058.5
4079.06 -608.103 3057.79
4079.02 -607.106 3057
4078.7 -605.767 3055.85
4079.19 -606.278 3056.66
4074.04 -619.422 3060.77
4074.62 -618.36 3061.83
4074.02 -619.642 3060.11
4073.97 -619.927 3059.5
4076.9 -617.73 3063.2
4076.65 -617.519 3062.65
4075.9 -617.473 3062.25
4077.69 -617.474 3063.2
4085.1 -602.733 3061.4
4085.21 -603.857 3061.3
4084.84 -601.845 3061.48
4085.02 -600.759 3062.16
4083.81 -596.709 3063.42
4082.13 -594.387 3063.17
4082.08 -593.495 3063.6
4081 -614.8 3061.68
4081.37 -610.322 3059.87
4081.85 -608.913 3059.56
4080.83 -611.38 3060.13
4079.34 -615.317 3061.61
4077.91 -616.742 3062.35
4077.7 -616.275 3061.92
4080.12 -605.711 3057.18
4080.03 -606.587 3057.51
4080.12 -605.044 3057.02
4082.61 -604.469 3059.07
4080.53 -603.905 3057.36
4074.14 -614.534 3060.03
4075.44 -612.966 3059.4
4074.46 -617.257 3058.69
4079.56 -608.891 3058.48
4078.32 -613.064 3060.22
4079.74 -607.409 3057.72
4078.8 -605.124 3055.48
4079.32 -605.551 3056.42
4079.49 -604.885 3056.22
4074.92 -617.738 3061.43
4075.21 -617.471 3060.78
4077.42 -617.177 3062.59
4082.96 -601.601 3060.07
4083.09 -602.39 3059.86
4083.06 -599.005 3061.59
4081.17 -598.753 3060.2
4080.58 -598.836 3059.54
4079.73 -599.03 3058.46
4079.05 -614.615 3061.17
4077.22 -615.308 3061.15
4077.2 -616.701 3062.13
4077.02 -615.871 3061.45
4079.58 -604.256 3056.13
4080.03 -603.98 3056.72
4083.14 -603.413 3059.61
4081.11 -603.492 3057.95
4080.62 -603.045 3057.63
4073.95 -620.106 3058.29
4075.14 -616.909 3059.31
4079.21 -604.522 3055.62
4075.37 -616.977 3060.25
4081.05 -601.856 3058.35
4081.27 -602.71 3058.31
4080.26 -601.955 3057.55
4079.82 -602.873 3056.79
4080.74 -602.366 3057.9
