3495.77 -832.659 2610.13
3493.72 -832.109 2609.46
3491.35 -826.852 2602.86
3490.81 -827.767 2606.33
3492.4 -832.538 2607.86
3492.06 -831.832 2607.78
3494.97 -833.02 2609.31
3495.59 -833.639 2609.12
3494.13 -832.809 2608.87
3496.1 -834.087 2609.04
3493.27 -833.451 2607.53
3491.74 -831.305 2607.52
3490.97 -830.18 2607.39
3491.42 -830.822 2607.23
3491.6 -826.926 2601.65
3490.99 -828.019 2605.33
3492.38 -833.822 2606.65
3491.96 -832.554 2606.52
3498.13 -833.443 2609.46
3496.92 -833.502 2609.57
3499.62 -833.06 2609.26
3494.95 -833.735 2608.4
3494.36 -833.937 2607.75
3495.02 -834.663 2607.91
3495.63 -835.213 2608.19
3495.78 -834.411 2608.55
3493.8 -833.906 2607.39
3495.25 -837.116 2605.68
3493.09 -834.798 2606.36
3500.49 -833.585 2607.6
3501.61 -834.198 2605.47
3491.61 -826.768 2598.94
3491.68 -831.918 2606.34
3490.42 -829.85 2607.23
3490.83 -830.398 2606.26
3491.28 -831.171 2606.06
3490.39 -829.132 2606.16
3491.8 -827.161 2600.87
3491.15 -828.16 2604.21
3491.73 -836.26 2604.8
3492.33 -836.707 2605.18
3491.38 -835.549 2604.11
3496.69 -836.225 2605.89
3497.14 -836.351 2605.38
3497.6 -836.379 2604.95
3494.73 -835.277 2607.01
3494.21 -835.326 2606.61
3494.14 -837.415 2605.75
3493.37 -839.134 2603.98
3493.75 -839.586 2603.43
3494.7 -839.083 2603.36
3492.96 -837.032 2605.34
3498.44 -836.72 2603.58
3502.5 -834.504 2604
3499.04 -836.727 2603.01
3492 -827.12 2598.4
3490.38 -830.157 2605.8
3490.65 -834.588 2602.11
3490.99 -834.906 2603.14
3490.42 -829.529 2605.07
3491.91 -827.44 2599.67
3491.65 -827.986 2602.13
3490.97 -828.923 2604.07
3491 -838.429 2603.81
3490.93 -837.845 2603.18
3491.75 -838.622 2604.61
3490.87 -837.641 2602.49
3495.75 -839.137 2602.26
3494.99 -839.442 2602.71
3495.72 -839.573 2601.31
3496.13 -839.315 2600.85
3493.45 -837.477 2605.52
3492.84 -838.884 2604.46
3493.02 -839.609 2603.53
3493.94 -840.16 2602.8
3493.12 -840.391 2602.82
3496.04 -839.402 2599.81
3499.04 -837.213 2601.93
3502.81 -834.554 2602.91
3499.28 -837.251 2601.33
3493.06 -827.939 2594.65
3493.59 -826.779 2593.59
3492.36 -827.64 2597.72
3492.73 -827.821 2595.72
3490.77 -837.456 2601.68
3490.46 -833.406 2602.23
3490.43 -837.213 2599.61
3490.65 -837.744 2600.46
3490.72 -829.645 2603.86
3490.43 -832.007 2602.45
3491.84 -828.03 2600.24
3491.21 -828.841 2602.42
3491.57 -839.151 2604.25
3490.85 -838.336 2602.01
3494.7 -840.102 2601.61
3493.67 -840.617 2601.63
3494.13 -840.653 2600.19
3494.67 -840.363 2599.74
3495.08 -840.037 2599.39
3492.51 -839.225 2603.72
3493.07 -840.781 2601.46
3492.55 -840.101 2602.34
3492.11 -839.217 2604.62
3496.08 -839.813 2598.43
3495.36 -840.482 2597.96
3503.05 -834.565 2602.02
3499.11 -837.594 2600.43
3493.26 -828.941 2594.75
3492.98 -829.288 2595.31
3493.77 -828.43 2593.93
3495.5 -827.462 2593.02
3494.44 -828.417 2593.41
3496.43 -827.457 2593.45
3492.46 -828.175 2596.69
3492.56 -828.819 2595.97
3490.23 -836.503 2599.32
3490.41 -837.993 2598.77
3490.56 -838.324 2599.36
3490.41 -831.3 2602.09
3490.16 -834.057 2599.88
3491.94 -828.218 2599.35
3491.42 -828.778 2601.09
3492.13 -828.482 2597.59
3490.48 -830.779 2601.62
3491.26 -839.098 2602.37
3491.63 -839.165 2602.9
3490.72 -838.613 2599.94
3490.87 -838.819 2600.65
3493.46 -840.995 2600.36
3493.11 -841.269 2599.83
3494.42 -841.354 2598.86
3493.87 -841.691 2599.09
3494.92 -841.015 2598.07
3494.5 -841.486 2598.07
3492.18 -839.531 2603.03
3492.19 -840.574 2601.02
3492.32 -841.058 2599.99
3491.98 -839.873 2601.96
3496.19 -840.223 2597.48
3495.54 -840.63 2597.22
3498.98 -837.897 2599.7
3503.37 -834.434 2601.49
3493.09 -829.919 2595.15
3492.68 -830.237 2595.59
3493.93 -829.335 2594.47
3495.64 -828.667 2593.79
3494.68 -829.382 2594.02
3496.75 -828.475 2593.82
3497.66 -828.567 2593.68
3491.96 -828.818 2597.05
3492.26 -829.365 2596.3
3490.14 -836.097 2598.73
3490.22 -837.258 2598.3
3490.51 -838.685 2598.38
3490.41 -838.325 2597.81
3490.14 -833.389 2599.65
3491.63 -828.738 2599.69
3491.87 -828.617 2598.14
3490.62 -830.425 2600.89
3490.1 -832.569 2599.59
3490.94 -839.39 2599.77
3491.26 -839.713 2600.74
3491.55 -839.756 2601.43
3490.76 -839.189 2599.19
3493.74 -842.279 2598.48
3493.21 -841.956 2598.9
3494.6 -841.394 2597.46
3494.12 -841.828 2597.64
3491.76 -840.474 2600.46
3492.36 -841.821 2598.79
3495.02 -841.155 2596.85
3498.58 -838.389 2598.83
3501.88 -835.492 2600.46
3504.62 -833.719 2601.22
3493.12 -830.678 2595.21
3493.88 -830.007 2594.93
3491.98 -833.426 2595.72
3491.81 -832.802 2595.99
3499.09 -828.984 2593.96
3496.66 -829.444 2594.2
3495.93 -829.609 2594.6
3495.17 -829.814 2594.72
3497.7 -829.441 2594.06
3498.35 -829.349 2594.04
3491.13 -830.303 2597.96
3491.31 -830.671 2597.4
3491.46 -831.658 2596.71
3490.16 -835.212 2598.43
3490.24 -837.209 2597.67
3490.62 -839.053 2597.66
3490.8 -839.423 2598.23
3490.47 -838.252 2597.06
3490.75 -830.158 2599.85
3491.01 -830.055 2598.83
3490.26 -831.814 2599.38
3490.16 -833.32 2598.83
3491.3 -840.028 2599.47
3491.2 -840.018 2598.81
3493.49 -842.61 2597.73
3494.15 -841.813 2596.99
3491.9 -841.085 2599.03
3492.59 -842.394 2597.89
3496.22 -840.372 2596.72
3498.19 -838.761 2598.18
3498.46 -838.433 2597.61
3493.14 -831.377 2595.19
3494.15 -830.856 2594.97
3494.01 -831.725 2595.02
3491.12 -835.8 2595.93
3491.33 -837.076 2595.61
3494.73 -830.625 2594.89
3496.67 -830.071 2594.61
3497.53 -830.058 2594.35
3495.67 -830.475 2594.85
3498.32 -830.03 2594.25
3498.86 -829.706 2594.25
3499.82 -829.911 2594.61
3490.42 -833.165 2597.97
3490.35 -832.157 2598.73
3490.48 -834.329 2597.33
3490.68 -835.36 2596.63
3490.25 -835.739 2597.62
3490.32 -837.312 2597.05
3491.14 -840.13 2597.76
3490.83 -839.661 2597.25
3490.65 -838.806 2596.85
3491.42 -840.671 2598.06
3490.22 -833.829 2598.21
3493.64 -842.272 2596.9
3491.9 -841.642 2598.15
3492.57 -842.419 2597.25
3494.36 -841.889 2596.2
3494.9 -841.482 2596.27
3504.39 -833.536 2600.16
3504.39 -833.009 2599.64
3492.38 -834.235 2595.34
3491.75 -838.113 2595.31
3494.55 -832.031 2594.93
3494.07 -832.514 2594.98
3492.99 -834.871 2595.1
3491.19 -838.415 2595.71
3496.17 -830.751 2594.58
3496.98 -830.821 2594.52
3497.62 -830.701 2594.52
3495.45 -831.784 2594.88
3498.35 -830.972 2594.74
3490.58 -836.121 2596.53
3490.72 -836.988 2596.13
3491.27 -840.715 2597.33
3491.04 -840.348 2596.85
3490.68 -838.043 2596.31
3491.5 -841.284 2597.69
3493.16 -842.622 2596.63
3491.76 -841.899 2597.5
3495.87 -840.831 2596.11
3498.14 -838.671 2596.87
3504.51 -832.541 2598.99
3500.74 -835.681 2597.97
3498.66 -837.99 2596.98
3503.99 -832.367 2598.19
3503.51 -831.34 2597.1
3502.02 -831.004 2595.91
3501.18 -830.878 2595.53
3500.53 -830.591 2595.16
3502.64 -831.369 2596.52
3492.59 -837.813 2595.04
3491.65 -839.336 2595.37
3492.36 -839.094 2595.06
3495.13 -832.789 2594.97
3493.75 -835.369 2594.97
3493.02 -838.289 2594.88
3491.57 -840.06 2595.52
3491.16 -839.413 2595.88
3496.26 -832.461 2594.92
3496.96 -832.021 2594.83
3497.97 -831.846 2595.05
3495.68 -833.29 2595.05
3498.97 -830.925 2594.79
3499.94 -830.975 2595.24
3498.6 -831.741 2595.15
3491.34 -841.026 2596.72
3491.05 -839.93 2596.32
3491.5 -840.709 2596.15
3493.64 -842.418 2596.13
3492.24 -842.174 2596.75
3496.51 -840.409 2595.98
3502.76 -833.346 2597.9
3501.46 -833.806 2597.26
3500.89 -831.46 2595.79
3501.57 -831.815 2596.26
3500.74 -833.733 2596.72
3492.27 -840.538 2595.22
3492.74 -841.095 2594.85
3494.24 -836.513 2594.93
3493.61 -840.588 2594.66
3496.46 -833.817 2595.12
3497.55 -832.961 2595.21
3498.56 -832.817 2595.47
3499.49 -831.653 2595.4
3491.68 -841.591 2596.41
3491.87 -841.312 2595.77
3492.85 -842.378 2596.1
3493.16 -842.841 2595.72
3498.58 -837.422 2596.38
3500.41 -832.131 2595.91
3500.13 -833.587 2596.25
3497.98 -838.01 2596.05
3492.99 -841.806 2594.73
3494.38 -837.411 2594.88
3494.07 -839.585 2594.83
3493.45 -842.145 2594.45
3494.22 -841.047 2594.54
3492.21 -841.703 2595.39
3496.19 -835.952 2595.11
3495.28 -838.427 2594.99
3497.89 -833.775 2595.43
3496.19 -837.461 2595.17
3498.63 -834.046 2595.7
3494.6 -839.95 2594.81
3499.56 -832.968 2595.82
3491.91 -841.967 2595.88
3496.15 -840.982 2595.47
3495.49 -841.303 2595.54
3497.46 -840.802 2595.94
3497.06 -841.406 2595.44
3499.43 -834.324 2596.06
3496.73 -840.706 2595.4
3493 -842.672 2594.54
3492.6 -843.423 2594.67
3492.47 -842.17 2595.01
3495.56 -840.181 2595.16
3494.83 -842.076 2594.45
3494.07 -842.3 2594.4
3496.85 -837.871 2595.41
3497.41 -837.479 2595.62
3495.85 -841.514 2595.02
3495.07 -841.849 2595.14
3494.47 -841.945 2595.57
3493.92 -842.337 2595.55
3497.24 -838.497 2595.62
3495.45 -842.226 2594.53
3493.92 -843.22 2593.81
3492.74 -843.161 2595.39
3496.77 -842.17 2594.9
3498.9 -841.822 2596.07
3497.98 -841.153 2596
3497.89 -842.225 2595.39
3496.48 -841.366 2594.93
3498.24 -841.764 2595.63
3497.64 -841.645 2595.35
3496.04 -842.524 2594.38
3493.15 -843.43 2594.13
3494.79 -843.041 2593.84
3495.54 -843.183 2593.79
3494.12 -842.925 2594.46
3493.44 -843.074 2594.74
3493.36 -843.995 2593.61
3496.74 -842.997 2594.44
3494.83 -843.61 2593.29
3496.3 -843.78 2593.82
3498.83 -842.84 2595.51
3499.82 -842.456 2596.16
3497.76 -843.101 2594.87
3497.28 -842.815 2595.37
3492.97 -844.563 2593.15
3492.58 -844.149 2593.62
3493.97 -844.012 2593.42
3492.52 -843.871 2594.25
3493.14 -844.73 2592.52
3494.3 -844.082 2592.89
3495.3 -844.107 2593.18
3496.69 -844.261 2593.75
3497.46 -843.928 2594.29
3500.37 -842.805 2596.23
3498.68 -843.359 2595.16
3499.61 -843.158 2595.7
3498.23 -843.073 2595.66
3492 -843.533 2594.11
3494.04 -844.517 2592.52
3494.74 -844.564 2592.67
3495.86 -844.522 2593.22
3497.77 -844.47 2594.21
3496.73 -844.92 2593.63
3500.85 -843.207 2596.24
3497.15 -843.607 2595.11
3499.96 -843.536 2596.11
3493.32 -845.238 2592.05
3492.87 -845.224 2591.61
3495.22 -845.054 2592.69
3499.25 -844.343 2595.1
3500.83 -844.011 2596.14
3500.03 -844.22 2595.58
3496.8 -844.331 2594.65
3497.57 -844 2595.62
3494.42 -845.269 2592.26
3498.86 -844.081 2595.96
3492.1 -845.471 2591.45
3492.4 -844.273 2592.97
3492.26 -844.988 2592.02
3492.04 -843.844 2593.46
3498.67 -844.911 2595.38
3497.91 -845.003 2594.85
3499.67 -844.588 2596.09
3497.48 -844.688 2595.41
3498.22 -844.748 2595.83
3492.61 -844.433 2592.36
3491.25 -845.354 2591.47
3491.91 -844.119 2592.53
3491.48 -844.416 2591.91
3490.62 -845.525 2591.08
3490.24 -845.228 2591.49
3491.59 -843.754 2592.98
3490.71 -844.61 2591.73
3489.51 -845.663 2590.85
3491.53 -843.438 2593.56
3489.31 -845.277 2591.33
3490.62 -844.048 2592.1
3488.69 -845.61 2590.83
3490.75 -843.587 2592.72
3489.96 -844.678 2591.63
3489.39 -844.738 2591.87
3490.15 -843.516 2592.46
3489.65 -843.869 2591.9
3487.77 -845.63 2590.65
3488.41 -844.931 2591.41
3489.18 -843.352 2592.28
3488.83 -843.661 2591.74
3488.64 -844.251 2591.42
3487.84 -843.847 2591.41
3487.79 -844.517 2591.13
3487.47 -845.072 2590.91
