3665.98 -171.621 -115.951
3665.52 -171.972 -116.395
3665.63 -171.043 -117.499
3665.56 -171.57 -116.934
3667.01 -170.467 -116.306
3666.4 -170.336 -117.418
3665.07 -172.026 -117.315
3663.95 -172.983 -129.71
3663.66 -172.484 -130.163
3669.32 -170.041 -113.458
3667.72 -169.869 -116.477
3668.55 -169.295 -116.694
3667.29 -169.632 -117.372
3666.75 -169.849 -117.648
3666.04 -169.654 -118.646
3665.33 -170.244 -118.841
3664.72 -171.205 -118.78
3664.38 -172.382 -129.938
3674.26 -168.017 -116.663
3673.35 -168.63 -114.491
3673.6 -167.796 -117.142
3672.52 -168.809 -114.355
3664.86 -172.751 -117.533
3670.36 -168.554 -116.775
3667.85 -169.158 -117.638
3669.08 -168.833 -117.156
3666.74 -169.155 -118.592
3667.41 -168.841 -118.45
3665.36 -168.342 -120.502
3664.59 -168.986 -120.665
3663.59 -169.765 -121.243
3664.53 -172.047 -118.638
3663.99 -167.885 -122.055
3663.33 -168.401 -122.231
3664.02 -172.253 -130.631
3665.12 -172.802 -129.365
3675.97 -168.295 -116.776
3674.87 -167.915 -117.184
3674.17 -167.676 -117.537
3672.98 -167.873 -116.835
3672.75 -167.53 -117.71
3673.1 -166.058 -119.806
3671.49 -169.065 -114.055
3671.47 -167.98 -117.177
3672.03 -167.664 -117.527
3670.57 -167.847 -118.032
3669.38 -168.228 -118.048
3668.23 -168.575 -118.244
3666.12 -167.922 -120.408
3666.94 -167.561 -120.298
3664.91 -167.177 -121.976
3662.57 -168.649 -122.938
3664.25 -171.826 -119.495
3663.71 -167.463 -122.681
3662.96 -167.919 -122.95
3665.03 -175.211 -123.442
3675.41 -167.809 -117.699
3676.04 -167.93 -117.806
3674.4 -166.26 -119.746
3671.83 -165.889 -120.206
3671.91 -164.532 -121.908
3673.01 -164.575 -121.835
3671.18 -166.004 -120.233
3664.71 -174.477 -119.592
3670.41 -166.227 -120.224
3669.11 -166.64 -120.202
3667.85 -167.229 -120.145
3665.48 -166.676 -122.223
3666.53 -166.124 -122.29
3664.68 -166.811 -122.602
3664.34 -167.289 -122.281
3663.22 -170.201 -121.706
3663.02 -167.475 -123.379
3662.52 -167.512 -123.954
3664.85 -171.771 -130.038
3677.18 -168.537 -117.52
3676.43 -166.946 -119.738
3675.78 -166.647 -119.72
3675.11 -166.523 -119.626
3673.57 -164.48 -122.125
3674.71 -165.038 -121.654
3671.22 -164.333 -122.319
3672.91 -164.194 -122.509
3672.07 -163.951 -122.79
3670.5 -164.302 -122.63
3669.79 -164.734 -122.315
3664.5 -173.595 -119.247
3664.57 -174.093 -122.16
3664.77 -174.491 -123.096
3668.31 -165.328 -122.302
3665.37 -166.349 -122.743
3667.22 -165.44 -122.862
3663.77 -166.323 -123.992
3665.08 -166.106 -123.355
3662.45 -169.506 -123.376
3662.16 -168.971 -123.78
3662.23 -168.212 -123.804
3663.08 -170.67 -122.274
3664.03 -172.548 -120.668
3663.48 -166.89 -123.667
3665.6 -172.312 -131.175
3664.97 -171.953 -130.982
3665.08 -170.682 -130.409
3664.42 -170.698 -129.887
3664.46 -172.355 -129.279
3677.43 -167.537 -119.735
3676.54 -165.778 -121.736
3675.76 -165.516 -121.519
3674.16 -164.501 -122.332
3673.61 -164.058 -122.978
3675.14 -164.854 -122.248
3670.73 -163.922 -123.217
3671.34 -163.761 -123.302
3669.1 -164.511 -123.155
3664.38 -173.604 -121.298
3664.87 -174.578 -124.033
3666.18 -165.692 -123.159
3667.31 -165.062 -123.542
3664.48 -166.231 -123.808
3665.88 -165.536 -123.914
3661.97 -168.48 -124.399
3664 -172.788 -121.642
3666.8 -173.635 -131.579
3665.65 -170.642 -130.758
3666.21 -170.885 -130.943
3663.89 -169.39 -129.257
3664.81 -168.926 -129.814
3664.76 -172.921 -128.701
3663.78 -170.968 -129.386
3678.05 -168.759 -117.882
3678.63 -168.963 -117.702
3677.1 -165.976 -121.991
3677.71 -166.521 -121.823
3676.12 -165.392 -122.071
3674.64 -164.388 -122.794
3672.64 -163.742 -123.45
3675.8 -164.899 -122.709
3670.29 -163.788 -123.825
3669.47 -164.189 -123.573
3671.48 -163.534 -124.085
3664.17 -173.146 -122.304
3664.23 -173.453 -123.135
3664.74 -174.193 -124.56
3668.26 -164.512 -124.057
3667.12 -164.903 -124.354
3665.3 -165.713 -124.357
3662.05 -169.488 -124.39
3661.94 -169.081 -124.859
3662.23 -167.916 -124.586
3663 -171.158 -123.2
3663.1 -167.012 -124.361
3662.58 -166.684 -124.456
3666.89 -172.484 -131.301
3666.84 -170.862 -131.022
3667.13 -168.865 -130.496
3666.67 -168.526 -130.228
3666.06 -168.533 -130.06
3665.41 -168.766 -129.964
3663.45 -169.757 -128.878
3663.43 -169.221 -128.523
3663.88 -168.836 -128.93
3665.3 -168.226 -129.549
3664.44 -168.651 -129.394
3663.33 -171.278 -128.657
3678.34 -168.037 -119.947
3678.19 -167.079 -121.503
3676.98 -165.562 -122.769
3673.93 -163.926 -123.755
3669.05 -164.117 -124.311
3671.26 -163.547 -124.75
3672.31 -163.556 -124.323
3663.22 -171.57 -123.61
3664.32 -173.612 -124.176
3664.87 -174.236 -125.349
3666.52 -165.173 -124.856
3668.06 -164.465 -124.76
3664.63 -165.999 -124.729
3662.2 -168.22 -125.285
3662.04 -169.242 -125.542
3662.64 -167.467 -124.786
3663.62 -166.68 -124.639
3668.1 -171.278 -131.161
3667.44 -171.026 -131.112
3667.33 -168.006 -129.944
3667.73 -168.445 -130.237
3666.81 -167.501 -129.542
3666.02 -167.817 -129.564
3663.43 -168.698 -128.163
3665.85 -167.335 -129.157
3664.48 -168.117 -128.913
3662.84 -170.097 -128.013
3680.28 -169.099 -122.315
3678.08 -166.432 -122.369
3676.67 -165.263 -123.219
3680.31 -168.488 -122.891
3675.16 -164.484 -123.533
3673.14 -163.724 -124.309
3669.64 -163.828 -124.585
3670.71 -163.619 -125.283
3662.21 -170.051 -124.844
3664.4 -173.608 -125.048
3663.6 -172.285 -124.635
3662.51 -170.929 -125.412
3662.44 -168.29 -125.964
3663.39 -166.92 -125.333
3670.26 -172.71 -131.483
3668.95 -169.649 -130.714
3668.4 -169.031 -130.491
3667.95 -167.595 -129.779
3668.32 -168.156 -130.131
3667.48 -167.254 -129.473
3667.75 -166.661 -129.122
3666.94 -166.634 -128.905
3662.86 -169.089 -127.494
3664.04 -168.172 -128.455
3663.11 -168.502 -127.463
3666.26 -166.771 -128.755
3664.47 -167.628 -128.378
3663.76 -167.834 -127.699
3662.55 -169.826 -127.417
3662.53 -170.479 -127.124
3678.04 -166.002 -123.108
3675.8 -164.736 -123.555
3674.5 -164.146 -124.07
3671.25 -163.644 -125.669
3669.54 -163.873 -125.25
3670.18 -163.77 -125.578
3668.74 -164.129 -125.092
3672.02 -163.61 -125.367
3672.87 -163.87 -125.109
3663.57 -172.396 -125.521
3664.62 -173.823 -125.933
3662.39 -171.059 -126.168
3663.79 -172.686 -127.14
3667.53 -164.699 -125.573
3665.72 -165.655 -125.665
3664.44 -166.414 -125.674
3662.07 -169.755 -125.971
3662.32 -169.17 -126.185
3662.26 -170.299 -126.384
3662.8 -167.768 -126.002
3662.77 -168.324 -126.671
3662.58 -168.917 -126.84
3663.18 -167.216 -125.846
3663.74 -166.851 -125.998
3671.26 -170.979 -131.442
3669.39 -169.104 -130.509
3668.94 -168.621 -130.324
3668.49 -166.856 -129.422
3669.15 -168.019 -130.065
3668.57 -166.105 -128.761
3667.57 -166.088 -128.44
3663.53 -167.57 -127.062
3666.56 -166.282 -128.258
3665.61 -166.941 -128.478
3664.69 -167.042 -127.839
3662.61 -171.334 -126.819
3680.21 -168.043 -123.389
3676.9 -165.257 -123.85
3675.32 -164.54 -124.509
3673.98 -164.17 -124.63
3669.38 -164.084 -125.906
3663.91 -172.871 -126.454
3664.72 -165.79 -125.994
3672.05 -170.569 -131.022
3673.13 -172.451 -131.576
3669.85 -168.327 -130.145
3669.52 -166.057 -128.779
3669.98 -166.777 -129.2
3670.15 -167.543 -129.652
3668.52 -165.501 -128.051
3669.25 -165.517 -128.24
3667.63 -165.445 -127.788
3663.98 -167.138 -127.041
3666.03 -166.198 -127.681
3664.94 -166.669 -127.303
3677.73 -165.696 -123.856
3676.09 -165.203 -124.531
3674.83 -164.528 -124.982
3670.2 -163.96 -126.244
3668.28 -164.578 -126.366
3669.08 -164.362 -126.588
3672.58 -164.089 -125.749
3671.69 -163.952 -126.164
3673.75 -164.407 -125.646
3667.24 -165.179 -126.753
3665.79 -166.006 -126.9
3672.7 -170.148 -130.391
3674.25 -172.098 -130.722
3670.76 -167.881 -129.703
3670.21 -164.848 -127.706
3670.77 -165.146 -127.928
3671.18 -166.179 -128.533
3671.19 -167.122 -129.148
3668.84 -164.822 -127.305
3669.62 -164.616 -127.383
3679.72 -167.515 -124.074
3678.97 -167.251 -124.654
3670.92 -164.053 -126.572
3673.47 -169.657 -129.801
3674.99 -171.738 -130.247
3671.22 -164.614 -127.235
3671.71 -165.043 -127.536
3672.04 -165.796 -128.035
3676.03 -165.701 -125.538
3680.42 -169.022 -125.064
3674.79 -165.32 -126.065
3673.48 -164.688 -126.632
3672.2 -164.65 -126.883
3674.62 -169.106 -129.126
3675.96 -171.143 -129.704
3672.71 -166.355 -128.292
3672.76 -165.137 -127.379
3673.56 -165.985 -128.027
3675.93 -166.301 -126.191
3678.25 -167.284 -125.285
3674.73 -165.931 -126.748
3674.06 -165.766 -127.434
3675.58 -168.661 -128.431
3676.75 -170.856 -129.04
3676.39 -168.354 -127.63
3677.41 -167.666 -126.149
3679.34 -168.678 -125.515
3676.89 -168.033 -126.875
3677.77 -170.557 -128.067
3678.65 -169.969 -127.08
3679.11 -169.405 -126.326
