3416.25 -742.522 3769.35
3415.56 -742.435 3768.45
3418.11 -744.734 3768.28
3414.22 -740.443 3769.39
3414.34 -741.325 3767.84
3413.32 -739.827 3768.5
3415.51 -743.911 3767.38
3417.24 -744.649 3766.98
3418.99 -745.685 3766.78
3415.59 -743.287 3766.81
3413.74 -740.95 3766.91
3412.93 -739.728 3767.58
3412.29 -738.822 3768.19
3419.21 -745.177 3765.8
3418.49 -744.157 3766.37
3410.63 -737.628 3771.46
3411.02 -737.748 3769.31
3411.21 -738.075 3772.87
3411.36 -737.791 3770.15
3411.75 -738.185 3772.29
3412.35 -739.373 3766.7
3411.65 -738.355 3768.42
3410.54 -736.155 3774.45
3410.35 -736.895 3770.97
3409.3 -735.705 3774.23
3412.18 -738.658 3767.47
3409.15 -736.359 3770.55
3408.87 -735.057 3774.42
3405.18 -734.672 3773.72
3407.77 -735.928 3772.68
3408.38 -735.915 3770.46
3408.38 -734.541 3774.46
3407.29 -735.811 3771.39
3407.85 -734.897 3772.35
3405.03 -734.844 3771.61
3405.14 -733.739 3774.05
3403.73 -734.088 3773.58
3405.15 -735.08 3770.2
3406.69 -734.23 3772.74
3403.76 -734.345 3772.2
3404.12 -733.556 3773.96
3405.25 -735.536 3769.14
3403.92 -734.47 3771.16
3406.28 -733.377 3773.49
3404.06 -734.59 3770.15
3402.93 -733.831 3773.49
3404.35 -732.649 3774.16
3403.59 -733.135 3774.05
3402.59 -734.383 3769.41
3404.65 -735.639 3768.54
3405.8 -732.704 3773.44
3402.79 -734.314 3770.2
3405.01 -732.378 3774.23
3403.13 -734.219 3771.6
3404.39 -735.881 3767.91
3405.32 -733.62 3772.21
3402.14 -734.371 3768.47
3401.47 -734.15 3769.44
3401.97 -734.188 3769.89
3401.91 -734.083 3770.54
3402.25 -733.639 3773.5
3402.89 -732.952 3774.08
3403.42 -732.174 3774.32
3404.1 -731.783 3774.31
3403.88 -732.112 3773.19
3403.68 -733.092 3771.85
3401.17 -734.174 3768.76
3401.49 -734.287 3767.59
3400.67 -733.961 3769.61
3401.1 -733.96 3770.24
3401.29 -733.911 3770.86
3402.23 -733.969 3771.85
3401.49 -733.425 3773.55
3402.41 -732.514 3774.21
3403.09 -731.837 3773.66
3404.87 -737.451 3766.98
3402.9 -732.169 3772.73
3402.36 -732.445 3771.94
3400.46 -734.004 3768.99
3403.93 -737.122 3766.23
3400.8 -734.174 3767.19
3399.81 -733.903 3768.75
3399.72 -733.769 3769.58
3400.17 -733.776 3770.19
3400.51 -733.741 3770.93
3401.21 -733.808 3771.49
3401.62 -733.806 3772.1
3400.83 -733.607 3772.35
3401.6 -732.59 3774.21
3402.54 -731.609 3774.14
3402 -731.91 3773.13
3401.49 -732.665 3771.21
3402.59 -735.089 3769.03
3401.61 -732.292 3772
3402.85 -736.556 3765.6
3400.08 -734.056 3766.77
3399.21 -733.831 3768.33
3398.97 -733.648 3769.34
3399.35 -733.588 3770.32
3399.47 -733.502 3771.1
3400.21 -733.559 3771.78
3400.75 -732.205 3771.96
3400.46 -733.214 3773.78
3400.31 -733.411 3772.98
3399.75 -733.355 3772.55
3400.98 -731.665 3773.45
3400.96 -731.912 3772.79
3400.59 -733.064 3770.24
3400.57 -732.468 3771.21
3401.43 -735.533 3767.92
3401.84 -735.872 3764.91
3400.32 -735.336 3765.64
3398.44 -733.719 3767.8
3398.45 -733.62 3768.78
3398.05 -733.432 3769.53
3398.52 -733.435 3770.2
3398.4 -733.271 3771.01
3399.09 -733.307 3771.86
3399.49 -732.263 3771.41
3399.49 -732.512 3770.75
3400 -732.815 3773.91
3401.29 -731.787 3774.53
3399.5 -731.763 3772.73
3398.95 -734.874 3765.84
3397.36 -733.493 3768.06
3397.64 -733.441 3768.86
3397.72 -733.243 3770.13
3397.2 -733.248 3769.32
3398.33 -732.22 3771.16
3398.16 -732.47 3770.43
3398.62 -732.792 3769.75
3398.82 -733.006 3772.65
3399.73 -732.344 3774.23
3399.73 -731.486 3773.53
3398.17 -731.777 3772.27
3397.35 -734.166 3766.49
3396.8 -733.283 3768.57
3396.64 -732.902 3769.74
3396.8 -732.788 3770.41
3397.51 -732.93 3770.97
3398.13 -732.968 3771.76
3400.4 -731.261 3774.56
3398.74 -731.449 3773.31
3396.95 -731.741 3771.82
3396.66 -732.029 3770.89
3396.32 -732.257 3770.01
3396.24 -733.13 3768.04
3396.19 -732.95 3768.89
3395.64 -732.874 3768.01
3396.04 -732.693 3769.59
3394.98 -732.452 3767.94
3398.06 -732.519 3772.7
3399.24 -731.938 3774.38
3399.76 -731.154 3774.56
3397.94 -731.384 3773.23
3395.33 -731.663 3770.1
3395.34 -732.512 3769.2
3395.46 -732.387 3769.83
3396.15 -732.428 3770.67
3397.26 -732.459 3771.9
3397.31 -732.108 3772.55
3398.62 -731.502 3774.55
3397.28 -731.253 3773.29
3395.52 -731.315 3771.12
3394.53 -731.461 3769.48
3393.41 -731.627 3767.73
3394.11 -732.026 3767.75
3394.48 -732.289 3768.65
3394.86 -732.235 3769.48
3396.57 -732.226 3771.51
3398.29 -730.967 3774.44
3396.25 -731.129 3772.51
3397.28 -731.022 3773.91
3395.29 -731.856 3770.7
3396.12 -731.737 3771.84
3396.65 -731.54 3772.77
3397.53 -730.843 3774.72
3393.45 -731 3769.09
3395.06 -730.842 3771.57
3394.01 -730.86 3770.15
3392.56 -731.163 3767.63
3393.47 -731.614 3768.89
3394.53 -731.575 3770.33
3395.72 -730.675 3772.81
3392.89 -730.809 3768.77
3394.34 -730.692 3770.96
3393.45 -730.654 3769.86
3395.09 -730.825 3772.25
3395.98 -730.696 3773.45
3396.52 -730.223 3774.85
3395.98 -730.356 3774.05
3395.83 -729.964 3774.56
3391.87 -730.781 3767.51
3391.81 -730.639 3768.13
3392.95 -729.994 3771.29
3393.66 -730.201 3771.75
3395.98 -729.417 3775.74
3395.42 -730.136 3773.81
3395.24 -729.481 3774.92
3395.35 -728.871 3776.02
3392.07 -730.037 3769.45
3394.66 -729.147 3774.91
3393.85 -729.451 3773.18
3393.55 -728.562 3774.79
3394.37 -730.197 3772.54
3394.87 -730.031 3773.38
3394.8 -729.666 3773.94
3394.73 -728.592 3776.01
3390.8 -729.766 3768.29
3392.93 -728.155 3774.87
3391.44 -729.057 3770.9
3392.25 -728.799 3772.49
3392.33 -729.203 3771.88
3393.18 -729.261 3772.85
3394.22 -728.701 3775.39
3393.47 -727.671 3776.38
3394.06 -727.9 3776.27
3391.1 -729.438 3769.41
3390.23 -728.294 3770.36
3389.24 -727.37 3770.78
3392.59 -727.794 3775.3
3392.78 -727.105 3776.66
3392.11 -727.416 3775.56
3390.99 -728.011 3772.69
3393.5 -729.034 3773.6
3392.96 -728.44 3774.03
3393.94 -728.94 3774.25
3392.98 -726.714 3777.25
3393.91 -728.124 3775.68
3388.54 -725.45 3773.69
3389.29 -726.005 3773.83
3390.82 -728.404 3771.05
3391.9 -726.754 3776.55
3392.13 -726.461 3777.07
3391.51 -727.02 3775.68
3389.92 -726.326 3774.29
3392.23 -726.023 3777.65
3391.33 -726.108 3776.78
3391.48 -725.796 3777.35
3390.84 -726.504 3775.42
3391.89 -727.4 3774.61
3392.97 -727.479 3775.76
