3842.44 -170.601 1336.77
3844.74 -171.416 1335.03
3844.19 -170.972 1335.47
3843.72 -170.922 1335.9
3842.38 -168.88 1335.78
3842.88 -169.458 1335.79
3844.67 -167.867 1334.23
3840.45 -168.514 1335.68
3841.39 -169.119 1336.1
3839.38 -168.125 1335.35
3838.5 -167.715 1334.96
3837.34 -168.208 1335.25
3846.78 -170.106 1333.32
3846.19 -169.296 1333.56
3845.45 -168.522 1333.94
3844.19 -167.277 1334.16
3843.55 -166.723 1334.13
3844.46 -164.348 1332.61
3845.59 -165.332 1332.63
3835.85 -167.982 1334.62
3841.34 -164.539 1333.1
3841.94 -165.399 1333.63
3842.51 -165.919 1333.9
3840.51 -164.232 1332.83
3839.72 -163.99 1332.54
3839.17 -163.584 1332.1
3847.13 -170.24 1332.72
3847.52 -167.379 1332.03
3847.22 -166.298 1331.99
3846.29 -165.778 1332.42
3843.07 -166.332 1334.05
3844.03 -163.779 1332.42
3843.43 -163.301 1332.23
3844.53 -162.603 1331.56
3845.09 -162.115 1331.06
3845.69 -162.747 1331.12
3846.12 -163.962 1331.54
3834.48 -167.318 1333.28
3838.48 -163.608 1331.87
3837.73 -163.656 1331.53
3841.88 -160.98 1330.76
3842.33 -161.569 1331.24
3842.82 -162 1331.48
3841.19 -160.687 1330.39
3840.7 -159.711 1329.44
3842.92 -169.756 1323.39
3847.62 -170.558 1331.88
3843.14 -170.032 1324.77
3847.8 -168.037 1332.01
3848.17 -168.688 1331.87
3847.77 -166.863 1331.58
3846.43 -165.122 1331.96
3847.53 -164.935 1330.96
3843.86 -161.875 1331.26
3843.36 -160.909 1330.7
3844.94 -160.792 1330.16
3844.38 -160.89 1330.42
3845.48 -161.469 1330.38
3846 -161.847 1330.24
3846.67 -163.028 1330.53
3833.48 -166.722 1331.66
3837.53 -162.726 1330.57
3840.06 -159.706 1329.29
3832.48 -167.091 1330.68
3841.61 -159.718 1329.58
3842.47 -160.463 1330.37
3841.2 -158.961 1328.75
3840.45 -159.072 1328.64
3832.21 -166.615 1329.54
3830.95 -167.638 1329.37
3842.83 -169.495 1322.43
3842.19 -169.285 1321.89
3842.81 -168.909 1323.25
3847.72 -170.593 1331
3843.95 -169.639 1325.93
3845.29 -170.565 1327.79
3845.71 -171.145 1328.5
3847.26 -169.715 1329.53
3847.42 -170.524 1329.94
3843.13 -168.981 1324.19
3848.14 -168.04 1331.42
3847.2 -162.709 1329.63
3847.95 -165.388 1330.5
3844.09 -160.128 1329.89
3843.26 -159.691 1329.58
3845.37 -160.382 1329.62
3844.63 -159.825 1329.43
3845.05 -159.582 1328.98
3846.26 -161.245 1329.55
3836.5 -163.101 1330.13
3836.07 -162.899 1329.33
3839.71 -159.24 1328.57
3838.96 -159.729 1328.49
3835.62 -162.956 1328.73
3841.88 -158.725 1328.61
3842.32 -159.363 1329.31
3841.59 -158.324 1328.02
3840.93 -158.509 1328.13
3840.52 -158.178 1327.68
3834.47 -163.438 1327.71
3834.88 -163.363 1328.26
3833.9 -163.833 1327.17
3829.72 -168.49 1328.24
3828.81 -169.183 1325.7
3837.69 -167.512 1320.28
3841.93 -168.215 1321.86
3842.5 -168.167 1322.69
3842.95 -168.34 1323.69
3840.88 -168.062 1321.21
3848.56 -168.738 1331.18
3848.38 -168.051 1330.76
3844.69 -169.71 1326.87
3843.41 -168.711 1324.74
3846.05 -167.973 1327.54
3846.67 -169.205 1328.76
3848.06 -168.723 1330.24
3847.32 -167.292 1328.87
3847.92 -164.659 1329.84
3846.91 -161.298 1328.34
3846.35 -160.582 1328.85
3847.21 -162.033 1328.62
3843.96 -159.356 1329.13
3842.92 -158.818 1328.68
3845.61 -159.858 1328.92
3844.51 -159.119 1328.71
3844.78 -158.729 1328.01
3845.36 -159.291 1328.32
3838.73 -159.407 1327.95
3839.57 -158.723 1327.81
3837.7 -160.09 1327.34
3842.38 -158.324 1328.05
3841.12 -158.05 1327.52
3841.95 -157.922 1327.36
3837.81 -159.664 1326.68
3833.37 -164.184 1326.4
3837.48 -159.691 1325.92
3833.19 -164.285 1325.56
3832.6 -164.973 1324.75
3829.88 -168.31 1323.37
3833.22 -166.933 1320.89
3839.72 -167.125 1320.89
3840.72 -167.134 1321.21
3836.31 -167.778 1319.94
3835.47 -167.417 1320.04
3839.14 -163.598 1321.34
3840.19 -163.78 1321.43
3842.06 -167.432 1321.87
3842.56 -167.276 1322.56
3842.97 -167.618 1323.42
3843.36 -167.827 1324.29
3841.51 -167.095 1321.61
3848.22 -167.616 1330.19
3848.21 -166.702 1330.22
3844.14 -168.593 1325.61
3845.63 -167.212 1326.35
3846.6 -164.741 1326.61
3846.33 -163.445 1325.21
3846.94 -163.552 1326.5
3847.58 -163.504 1328.83
3847.24 -161.944 1327.94
3846.85 -160.889 1327.64
3846.52 -160.137 1327.76
3843.86 -158.835 1328.56
3843.28 -158.437 1328.14
3844.19 -158.48 1328
3844.71 -158.341 1327.38
3845.57 -158.928 1327.47
3846.03 -159.685 1328.05
3842.7 -158.012 1327.52
3840.13 -158.126 1326.76
3840.94 -157.876 1326.54
3838.96 -158.72 1326.78
3838.5 -158.895 1326.29
3836.81 -160.198 1325.42
3837.96 -159.058 1325.68
3833.31 -164.173 1324.21
3830.54 -167.765 1322.97
3833.7 -163.817 1323.62
3830.96 -167.71 1322.18
3834.34 -163.965 1322.35
3834.19 -167.234 1320.18
3835.64 -164.074 1321.51
3834.8 -167.068 1320.18
3841.23 -163.884 1321.57
3841.98 -164.165 1321.84
3838.22 -163.81 1321.27
3837.51 -163.947 1321.29
3836.83 -164.054 1321.3
3841.25 -160.015 1322.32
3842.29 -160.497 1322.22
3842.27 -166.766 1322.21
3843.21 -166.955 1323.48
3842.81 -166.521 1322.78
3844.79 -166.011 1324.94
3844.6 -165.558 1324.2
3842.85 -164.309 1322.27
3847.95 -167.199 1329.64
3847.44 -163.631 1327.94
3847.25 -163.656 1327.29
3845.96 -163.484 1324.69
3846.63 -162.631 1325.47
3846.34 -162.425 1324.78
3846.8 -162.09 1325.76
3847.18 -161.744 1327.06
3846.87 -160.832 1326.51
3846.58 -160.075 1327.13
3843.48 -158.113 1327.58
3844.07 -158.11 1327.38
3845.26 -158.504 1326.86
3846.19 -159.39 1327.18
3839.53 -158.282 1326.45
3842.2 -157.588 1326.47
3841.58 -157.687 1326.42
3842.88 -157.648 1326.65
3840.39 -157.953 1326.18
3838.93 -158.512 1325.95
3837.7 -159.116 1325.06
3836.86 -160.224 1324.47
3833.58 -164.171 1323.07
3836.84 -160.676 1323.6
3838.14 -159.945 1323.31
3839.21 -159.847 1322.88
3843.2 -160.841 1322.39
3843.78 -160.975 1322.63
3844.41 -161.492 1322.89
3840.41 -160.166 1322.33
3839.54 -160.559 1322.33
3842.14 -159.197 1322.78
3843.18 -159.905 1322.6
3843.13 -159.162 1322.93
3843.41 -164.416 1322.54
3844.3 -164.962 1323.3
3845.35 -163.338 1323.93
3844.99 -162.471 1323.35
3846.41 -161.673 1324.82
3846.08 -161.965 1324.34
3846.59 -161.125 1325.28
3846.69 -160.203 1326.06
3846.48 -159.694 1326.52
3843.58 -157.823 1326.85
3845.78 -158.814 1326.58
3844.07 -157.829 1326.44
3845.23 -158.319 1326.19
3840.79 -157.775 1325.52
3839.91 -158.082 1325.45
3838.08 -159.08 1324.56
3838.91 -158.564 1324.97
3838.38 -159.24 1323.94
3839.77 -159.256 1323.13
3839.39 -158.788 1323.91
3840.42 -159.312 1322.74
3844.18 -160.245 1322.85
3844.71 -160.645 1323.08
3841.31 -159.055 1322.78
3842.77 -158.499 1323.27
3845.6 -162.557 1323.84
3844.99 -161.379 1323.25
3846.19 -161.069 1324.5
3845.36 -161.74 1323.6
3846.18 -159.29 1326.02
3844.39 -157.884 1325.61
3845.37 -158.476 1325.56
3843.36 -157.546 1326.02
3841.53 -157.585 1325.32
3838.89 -158.782 1324.34
3839.59 -158.4 1324.58
3840.25 -158.041 1324.69
3840.84 -157.788 1324.81
3840.35 -158.692 1323.43
3841.07 -158.467 1323.31
3844.17 -159.585 1323.05
3841.83 -158.521 1323.17
3843.52 -158.664 1323.3
3845.78 -160.655 1324.01
3845.37 -160.287 1323.57
3846.43 -160.377 1325.04
3846.21 -159.609 1325.3
3845.83 -159.108 1325.17
3843.76 -157.665 1325.56
3844.53 -157.987 1324.99
3843.02 -157.519 1325.39
3842.4 -157.473 1325.65
3842.33 -157.49 1324.99
3840.84 -157.996 1323.99
3844.72 -159.82 1323.33
3843.63 -158.167 1323.83
3844.24 -158.801 1323.53
3845.86 -159.885 1324.32
3845.25 -158.527 1324.87
3842.08 -157.688 1324.44
3841.55 -157.843 1324.11
3842.29 -158.05 1323.76
3845 -159.311 1323.76
3842.89 -157.897 1324.07
3843.4 -157.801 1324.47
3844.61 -158.353 1324.33
3845.36 -159.077 1324.29
