4129.79 -415.064 853.769
4130.07 -412.801 851.73
4128.3 -415.964 856.354
4129.36 -412.33 852.376
4128.48 -411.955 853.08
4128.5 -414.734 855.141
4128.07 -410.96 852.945
4127.9 -407.522 851.647
4127.17 -411.429 853.825
4130.3 -415.318 853.104
4130.84 -413.096 850.666
4130.72 -415.89 852.72
4130.78 -408.91 849.972
4131.24 -409.351 849.516
4130.21 -408.601 850.462
4126.83 -407.366 852.086
4126.42 -410.368 853.46
4129.56 -408.214 850.84
4128.75 -407.896 851.306
4129.57 -405.224 849.965
4127.96 -404.702 850.551
4128.84 -404.236 849.931
4130.93 -416.644 852.729
4131.46 -413.879 849.721
4131.28 -416.777 851.82
4131.71 -410.29 849.034
4131.04 -406.014 849.036
4132.07 -406.151 847.945
4131.92 -406.642 848.325
4132.44 -407.413 847.826
4130.38 -405.428 849.407
4136.37 -426.368 837.3
4138.14 -424.465 836.898
4135.51 -422.678 837.988
4137.48 -427.752 837.073
4140.92 -425.065 835.917
4140.8 -424.131 836.009
4137.78 -428.367 837.1
4125.72 -406.973 852.336
4126.75 -403.966 850.598
4124.16 -405.759 852.092
4123.66 -404.268 851.376
4126.98 -403.057 849.998
4123.42 -403.296 850.806
4127.04 -402.493 849.564
4123.5 -402.642 850.332
4129.69 -404.696 849.64
4127.71 -403.612 850.109
4128.56 -403.289 849.541
4129.41 -404.036 849.466
4132.47 -411.424 847.972
4133.02 -413.018 847.164
4131.61 -417.168 851.117
4133.22 -408.736 846.791
4131.42 -405.086 848.168
4132.66 -406.429 847.061
4132.32 -405.232 846.975
4133.35 -407.654 846.19
4130.55 -404.524 848.739
4135.87 -421.063 838.206
4135.11 -421.78 838.467
4135.17 -420.626 838.823
4136.29 -421.482 837.819
4138.62 -423.189 836.706
4140.92 -426.519 835.555
4141.92 -425.094 835.411
4138.03 -429.218 836.18
4142.13 -424.157 835.724
4141.76 -423.542 835.923
4132.23 -416.047 848.667
4131.74 -417.899 851.166
4133.26 -415.175 846.746
4127.76 -402.836 849.604
4126.45 -402.014 849.357
4123.44 -402.121 849.812
4127.41 -402.034 849.037
4128.04 -402.413 849.14
4129.28 -403.292 849.067
4130.22 -403.935 848.658
4123.19 -401.665 849.277
4126.23 -401.341 848.51
4122.81 -401.301 848.907
4125.75 -401.143 848.171
4122.28 -401.018 848.505
4125.2 -400.962 847.825
4121.79 -400.826 847.997
4134.63 -412.181 844.166
4134.21 -409.056 844.625
4131.51 -404.285 847.493
4133.59 -407.018 845.442
4133.11 -405.888 845.887
4132.6 -404.954 846.028
4134.44 -408.264 843.567
4141.44 -426.528 834.99
4138.19 -429.472 835.613
4140.97 -427.404 834.71
4134.73 -420.247 839.795
4134.36 -421.106 839.223
4133.97 -420.396 840.648
4133.65 -421.176 839.969
4135.18 -420.023 839.096
4136.03 -420.316 838.304
4136.85 -421.403 837.55
4139.22 -422.408 836.476
4142.18 -425.024 834.54
4142.41 -424.259 834.928
4142.91 -423.798 834.811
4142.84 -423.364 835.275
4142.3 -422.97 835.864
4131.85 -418.62 850.865
4133.55 -416.299 846.046
4132.57 -418.115 847.886
4133.76 -420.178 841.975
4134.28 -419.224 842.184
4132.96 -419.232 845.8
4133.57 -418.38 845.231
4132.41 -418.841 847.981
4134.37 -417.977 843.326
4132.46 -416.757 848.235
4134.83 -414.766 843.775
4127.28 -401.532 848.524
4128.02 -401.859 848.663
4128.93 -402.578 848.795
4129.98 -403.189 848.284
4130.84 -403.696 847.77
4124.53 -400.74 847.338
4121.38 -400.671 847.477
4123.62 -400.555 846.845
4122.85 -400.433 846.362
4126.71 -401.133 847.555
4135.11 -413.552 843.085
4135.06 -410.757 842.692
4131.93 -404.262 846.714
4133.69 -406.409 844.765
4134.22 -407.077 843.596
4133.43 -405.673 844.699
4132.12 -404.147 845.966
4132.86 -404.848 845.099
4134.97 -408.936 842.058
4138.29 -429.77 835.019
4140.77 -427.919 834.273
4134.59 -419.642 840.685
4135.01 -419.571 839.931
4136.4 -419.68 838.047
4135.57 -419.252 838.649
4136.81 -419.682 837.582
4137.28 -420.556 837.532
4139.84 -421.717 836.245
4141.62 -422.74 835.842
4142.84 -424.853 833.976
4143.08 -424.23 834.152
4143.44 -423.504 834.094
4143.2 -422.925 834.218
4142.87 -422.536 834.97
4142.26 -422.238 835.458
4135.13 -417.134 841.856
4135.32 -416.506 841.511
4128.69 -402.04 848.264
4129.53 -402.622 848.183
4130.32 -402.772 847.339
4131.02 -403.249 846.893
4125.93 -400.899 847.139
4124.57 -400.568 846.347
4123.89 -400.397 845.526
4122.81 -400.315 845.558
4127.81 -401.396 847.61
4127.58 -401.282 846.893
4135.43 -415.644 841.126
4135.32 -411.102 841.733
4134.34 -406.554 842.684
4134.8 -407.727 841.629
4133.78 -405.51 843.021
4131.85 -403.729 845.439
4133.05 -404.812 844.049
4135.3 -409.498 841.09
4141.11 -428.227 833.686
4138.4 -430.29 833.969
4141.57 -428.527 833.265
4141.63 -427.15 833.636
4142 -426.031 834.127
4135.5 -418.953 839.537
4135.74 -418.682 838.15
4136.3 -418.622 837.584
4136.83 -418.749 837.122
4137.73 -420.066 837.12
4141.6 -422.169 835.38
4139.87 -421.004 836.001
4143.44 -424.709 833.349
4143.69 -424.1 833.425
4143.94 -422.237 833.26
4144.08 -422.879 833.332
4143.46 -421.876 833.607
4142.95 -421.685 834.138
4142.2 -421.732 834.715
4135.35 -418.127 839.984
4135.4 -417.533 839.128
4129.57 -402.326 847.611
4130.42 -402.593 846.686
4130.87 -402.805 846.029
4126.4 -400.959 846.48
4125.54 -400.734 845.608
4123.03 -400.23 844.139
4122.1 -400.202 845.285
4124.64 -400.51 844.53
4128.63 -401.634 847.172
4127.37 -401.238 845.925
4128.87 -401.689 846.49
4135.48 -414.627 840.57
4135.45 -416.606 838.755
4134.41 -406.029 841.413
4134.84 -406.916 840.996
4135.19 -408.142 840.492
4134.01 -405.326 841.458
4132.16 -403.854 844.734
4133.32 -404.69 842.157
4135.4 -409.105 840.333
4135.48 -413.165 839.971
4138.08 -430.655 833.501
4138.77 -431.168 832.493
4142.26 -429.714 831.889
4141.77 -427.938 832.804
4142.43 -426.874 832.919
4142.82 -425.832 833.356
4142.09 -429.195 830.893
4137.96 -430.987 831.909
4138.13 -430.537 830.074
4141.49 -429.196 829.946
4137.94 -430.701 831.117
4135.42 -418.155 838.669
4137.36 -419.155 836.863
4135.92 -418.045 837.577
4136.4 -418.098 837.034
4137.16 -418.626 836.507
4137.88 -419.654 836.664
4141.64 -421.351 835.003
4139.78 -420.056 835.548
4143.7 -424.571 832.551
4143.91 -423.505 832.714
4144.07 -422.755 832.704
4144.05 -421.484 832.5
4143.53 -421.164 833.066
4143.1 -421.046 833.646
4142.46 -421.115 834.271
4135.49 -417.434 838.316
4130.78 -402.687 845.353
4129.98 -402.244 846.373
4123.69 -400.26 842.824
4122.13 -400.154 844.525
4123.96 -400.306 843.645
4126.15 -400.91 843.383
4124.59 -400.408 842.478
4123.02 -400.258 842.594
4128.37 -401.579 845.158
4129.82 -402.166 845.367
4135.39 -416 838.257
4134.41 -405.586 840.244
4134.67 -406.155 840.401
4134.93 -406.632 839.983
4135.14 -407.602 839.96
4133.99 -405.029 840.444
4132.43 -403.986 843.186
4133.49 -404.384 840.807
4135.41 -412.567 839.509
4135.33 -408.584 839.651
4135.22 -415.268 838.081
4142.24 -428.087 832.079
4142.82 -426.815 832.316
4142.52 -427.527 831.945
4143.16 -425.84 832.527
4138.5 -430.143 829.097
4141.56 -428.906 829.301
4141.98 -428.433 830.296
4142.33 -428.006 831.134
4142.26 -428.261 829.419
4139.35 -429.531 828.248
4135.98 -417.56 837.087
4136.62 -417.843 836.385
4137.55 -418.582 835.994
4141.91 -420.713 834.547
4141.47 -420.16 834.518
4139.9 -419.078 834.778
4138.2 -419.049 835.865
4143.49 -425.55 831.984
4143.94 -424.439 831.937
4144.26 -422.612 831.92
4144.47 -422.011 831.55
4143.22 -420.567 833.251
4142.6 -420.58 833.921
4124.16 -400.407 841.203
4127.93 -401.593 842.162
4126.27 -400.914 841.319
4125.1 -400.517 840.838
4123.23 -400.388 841.324
4122.62 -400.743 840.592
4129.87 -402.474 842.995
4131.41 -403.311 842.879
4135.24 -415.86 837.433
4135.42 -416.539 837.439
4134.7 -406.145 839.561
4135.03 -406.934 839.283
4133.86 -404.876 839.713
4135.3 -411.619 838.865
4135.01 -414.392 837.731
4135.23 -407.955 839.096
4134.93 -414.92 836.844
4142.98 -426.923 831.383
4143.36 -426.095 831.425
4142.92 -427.252 830.693
4142.79 -427.533 829.835
4143.05 -427.204 829.218
4137.29 -429.836 826.678
4139.92 -428.72 827.02
4139.98 -429.034 827.639
4137.42 -429.208 825.943
4139.96 -428.358 826.417
4141.85 -428.221 828.184
4137.53 -428.523 825.316
4140.01 -427.707 825.935
4142.45 -428.1 828.685
4135.58 -416.98 837.011
4138.17 -418.331 835.355
4142.12 -419.976 833.888
4141.58 -419.266 833.741
4139.98 -418.119 833.938
4143.99 -424.893 831.016
4144.25 -423.875 830.923
4144.66 -422.258 830.918
4144.52 -420.649 831.315
4144.06 -420.101 831.85
4143.31 -419.969 832.635
4142.76 -419.974 833.364
4123.51 -400.546 840.363
4123.18 -400.843 839.416
4123.98 -400.755 839.553
4123.58 -401.141 838.751
4124.25 -401.184 838.629
4122.72 -402.553 836.492
4123.95 -402.623 836.521
4124.95 -401.422 838.241
4125.16 -402.795 836.57
4125.23 -404.189 834.633
4124.41 -404.153 834.497
4125.57 -405.126 832.191
4126.27 -405.136 832.782
4126.3 -405.404 829.962
4125.67 -404.9 833.349
4126.11 -404.713 834.128
4127 -405.203 833.452
4124.54 -400.615 840.061
4130.66 -402.982 840.799
4127.76 -401.578 840.439
4126.14 -400.98 840.122
4132.49 -403.942 840.929
4135.19 -416.617 836.259
4134.51 -405.885 838.994
4134.1 -405.301 839.153
4133.34 -404.283 839.933
4133.36 -404.553 839.166
4135.18 -410.818 838.221
4134.88 -413.375 836.934
4134.75 -414.119 836.487
4134.69 -414.716 835.885
4134.4 -413.908 835.669
4143.6 -425.979 830.635
4143.46 -426.433 829.921
4142.86 -427.435 828.486
4143.56 -426.185 829.08
4143.32 -426.441 828.356
4137.57 -427.509 823.795
4140.17 -426.57 825.273
4137.99 -427.358 824.36
4141.96 -427.808 827.527
4142.08 -427.245 827.028
4142.43 -427.952 827.945
4140.16 -427.101 825.661
4142.32 -426.499 826.661
4135.5 -416.149 835.92
4136.02 -416.616 835.856
4136.92 -417.529 835.828
4137.73 -417.765 835.317
4142.33 -419.271 833.098
4142.2 -418.562 832.452
4141.86 -418.019 832.346
4140.01 -417.47 833.308
4138.26 -417.378 834.56
4144.06 -425.042 830.204
4144.48 -423.597 830.11
4144.79 -421.385 830.412
4144.66 -420.299 830.608
4144.25 -419.7 831.112
4143.79 -419.278 831.531
4142.96 -419.368 832.567
4124.88 -400.974 839.045
4125.71 -401.466 838.298
4126.49 -403.106 836.699
4126.83 -404.76 834.544
4126.72 -405.297 832.366
4127.81 -405.255 834.171
4127.82 -405.443 833.387
4127.56 -405.449 832.661
4125.61 -400.967 839.477
4130.6 -403.059 839.9
4129.33 -402.615 839.217
4127.18 -401.635 839.339
4135.04 -415.482 835.847
4134.76 -406.691 838.473
4135.05 -407.899 838.226
4134.99 -410.567 837.661
4133.8 -405.254 838.52
4134.53 -412.608 836.341
4134.72 -414.625 835.253
4134.08 -413.182 834.919
4143.89 -425.625 829.496
4142.94 -426.972 827.818
4143.92 -425.429 828.695
4143.73 -425.602 828.083
4137.72 -425.958 823.434
4140.06 -425.684 824.648
4137.67 -426.676 823.542
4137.73 -425.144 823.36
4142.52 -425.665 826.41
4142.77 -426.419 827.096
4136.22 -421.09 822.182
4136.91 -421.646 822.702
4136.2 -422.448 822.184
4136.92 -422.739 822.792
4137.13 -420.8 822.951
4136.84 -420.272 823.127
4135.85 -420.652 822.479
4133.41 -415.239 824.051
4134.37 -416.121 824.312
4133.2 -416.217 822.335
4134.29 -417.338 822.982
4135.82 -415.968 835.295
4137.18 -417.156 835.132
4136.51 -416.41 834.887
4142.92 -418.585 831.827
4142.47 -417.889 831.571
4141.77 -417.421 831.873
4139.67 -416.905 832.908
4137.8 -416.945 834.347
4144.24 -424.654 829.507
4144.42 -424.095 829.026
4144.69 -422.945 829.359
4144.7 -420.157 829.952
4143.76 -418.76 830.89
4143.37 -418.667 831.379
4144.94 -421.324 829.495
4126.26 -401.451 838.759
4127.13 -402.031 838.477
4128.57 -404.25 836.325
4127.3 -405.569 830.436
4126.79 -405.72 827.959
4128.39 -405.668 833.495
4128.33 -405.701 832.781
4128.97 -405.731 834.109
4132.5 -404.065 839.146
4131.76 -403.977 838.695
4129.41 -403.143 838.335
4134.64 -407.305 837.659
4134.35 -406.194 838.104
4134.31 -409.698 836.449
4133.99 -408.976 836.158
4134.05 -411.992 835.649
4133.08 -404.733 838.27
4132.72 -404.35 838.599
4133.92 -412.418 835.181
4134.13 -413.619 834.34
4133.17 -412.242 833.03
4133.3 -412.221 833.912
4144.2 -424.498 828.481
4143.76 -425.133 827.495
4144.01 -424.729 827.93
4142.54 -424.637 826.047
4140.42 -424.662 824.783
4142.62 -423.565 825.908
4137.2 -423.985 822.781
4140.46 -423.847 824.738
4140.18 -422.921 824.513
4143.09 -425.026 826.532
4143.69 -424.564 826.749
4135.46 -419.916 822.505
4136.09 -419.906 823.244
4135.02 -418.808 822.642
4135.41 -418.958 823.242
4134.58 -417.288 823.677
4139.68 -422.199 824.256
4139.37 -421.589 824.144
4139.29 -420.908 824.253
4139.36 -420.131 824.512
4137.14 -419.49 823.738
4133.7 -414.672 825.739
4133.13 -414.049 825.286
4130.23 -411.565 822.848
4134.46 -415.677 825.407
4131 -409.464 829.499
4132.53 -413.154 825.92
4129.67 -407.808 828.14
4135.27 -415.135 834.685
4136.84 -416.335 834.269
4136.16 -415.799 834.264
4141.04 -416.726 831.532
4139.19 -416.328 832.479
4137.16 -416.151 833.711
4144.74 -423.022 828.613
4144.78 -422.163 828.722
4144.74 -420.054 829.341
4144.34 -419.406 829.981
4143.27 -417.97 830.825
4144.92 -421.246 828.881
4144.93 -420.358 828.819
4127.44 -405.869 828.168
4125.89 -406.551 825.022
4130.54 -405.074 836.252
4132.05 -404.367 838.136
4129.19 -406.221 833.37
4128.87 -406.174 832.585
4128.15 -405.877 830.662
4129.69 -406.116 834.151
4133.61 -408.336 835.97
4134.03 -406.683 837.307
4133.3 -411.033 834.616
4132.67 -409.962 834.002
4133.29 -405.482 837.615
4133.4 -406.206 837.08
4132.56 -404.721 837.783
4132.75 -405.235 837.334
4133.11 -411.474 834.085
4134.75 -414.335 833.851
4133.36 -412.686 832.023
4134.07 -413.592 833.19
4134.36 -413.824 832.581
4132.09 -410.443 832.56
4144.65 -423.38 827.979
4144.37 -424.088 827.511
4143.11 -424.009 826.347
4142.54 -422.681 825.874
4143.34 -422.832 826.438
4142.54 -421.985 825.971
4143.76 -423.909 826.621
4144.59 -423.735 826.644
4136.19 -418.776 823.898
4135.25 -417.894 823.92
4135 -416.968 824.434
4142.5 -421.376 826.14
4142.04 -420.692 825.994
4139.3 -419.493 824.735
4141.85 -420.08 826.009
4141.16 -419.496 825.757
4138.92 -418.763 824.9
4133.61 -413.654 827.353
4134.3 -414.934 826.449
4134.2 -414.243 827.577
4135.05 -416.405 825.146
4128.41 -408.225 824.879
4129.4 -407.306 828.473
4129.03 -408.973 824.794
4132.32 -411.993 828.326
4130.38 -408.09 830.217
4131.06 -408.483 832.608
4130.74 -408.058 832.159
4132.95 -412.634 828.831
4130.05 -407.568 830.44
4135.21 -414.758 833.617
4135.72 -415.25 833.682
4142.62 -417.272 830.886
4141.58 -416.704 830.978
4140.83 -416.222 830.926
4138.92 -415.933 832.024
4136.52 -415.316 832.866
4144.83 -421.331 828.254
4144.6 -419.355 829.329
4143.88 -418.654 830.097
4143.49 -418.044 830.149
4143.13 -417.464 830.196
4127.52 -406.144 827.402
4126.55 -406.463 825.776
4131.26 -405.634 835.974
4129.52 -406.568 832.839
4130.01 -406.901 833.034
4128.77 -406.276 830.75
4129.26 -406.663 830.742
4128.1 -406.175 828.207
4130.31 -406.552 834.19
4133.1 -407.782 835.709
4132.32 -408.997 834.145
4132.62 -407.297 835.535
4132.2 -410.045 833.097
4131.87 -406.2 835.802
4132.24 -406.74 835.655
4133.84 -413.186 831.126
4134.51 -413.746 831.042
4131.6 -408.778 833.246
4144.77 -422.586 827.655
4143.33 -421.651 826.703
4144.38 -423.008 826.688
4143.82 -422.304 826.882
4136.16 -417.757 824.404
4138.58 -418.157 825.1
4135.92 -417.05 825.034
4143.02 -420.765 826.712
4142.71 -419.947 826.665
4142.05 -419.525 826.378
4141.13 -418.81 826.048
4133.79 -413.466 829.181
4134.6 -414.789 827.176
4134.91 -415.35 826.368
4134.57 -414.16 828.535
4134.8 -414.496 827.909
4135.56 -415.788 825.796
4127.92 -407.643 825.135
4128.87 -406.997 827.811
4131.27 -408.091 833.42
4130.72 -407.682 832.941
4135.25 -414.515 832.408
4135.8 -414.894 832.683
4142.19 -416.837 830.718
4138.68 -415.55 831.556
4144.01 -418.818 829.424
4142.72 -416.946 830.347
4144.55 -419.996 828.436
4143.86 -419.257 828.775
4144.53 -420.514 827.997
4127.32 -407.237 825.022
4131.89 -408.191 834.178
4131.15 -407.129 834.285
4131.49 -407.67 834.141
4135.07 -414.253 831.51
4135.13 -414.077 830.426
4134.63 -413.867 829.574
4144.52 -421.822 827.688
4143.78 -421.454 827.318
4138.51 -417.577 825.466
4140.53 -417.955 826.185
4138.27 -416.516 826.265
4142.3 -419.051 826.762
4141.62 -418.396 826.683
4135.15 -415.165 827.17
4135.67 -415.732 826.598
4135.03 -414.257 829.264
4135.17 -414.466 828.677
4137.72 -415.884 826.952
4130.95 -407.538 833.604
4135.76 -414.667 831.978
4141.27 -416.265 830.15
4140.38 -415.822 830.31
4136.36 -414.808 831.51
4143.62 -418.346 829.144
4143.02 -417.535 829.214
4142.43 -416.878 829.552
4143.93 -419.713 828.228
4135.49 -414.402 830.83
4144.07 -421.014 827.653
4140.29 -417.05 826.71
4141.28 -417.611 827.033
4140.17 -416.371 827.259
4143.48 -419.933 827.501
4142.92 -419.256 827.246
4142.37 -418.534 827.168
4135.95 -415.255 827.431
4135.64 -414.51 829.272
4136 -414.907 828.057
4139.54 -415.751 828.018
4138.33 -415.192 830.762
4140.75 -415.907 829.716
4141.73 -416.281 829.592
4143.16 -418.502 828.035
4142.97 -417.908 828.308
4135.91 -414.506 830.278
4140.95 -416.944 827.33
4141.98 -417.785 827.462
4137.73 -415.296 827.983
4136.32 -414.724 829.078
4140.59 -416.109 828.015
4136.61 -414.775 830.61
4142.34 -417.131 828.545
4141.76 -416.488 828.859
4139.99 -415.54 829.727
4136.79 -414.733 829.635
4139.3 -415.43 828.734
4140.14 -415.678 828.603
4137.95 -415.039 829.138
4141.25 -416.253 828.444
4138.33 -415.048 829.993
4140.88 -415.938 828.854
