3762.49 -139.343 2015.57 
3763.7 -139.179 2014.69 
3762.93 -139.183 2014.66 
3763.13 -139.11 2013.86 
3763.77 -138.94 2013.29 
3763.11 -139.173 2013.24 
3764.36 -138.821 2014.04 
3763.44 -139.418 2015.41 
3764.3 -139.239 2015.1 
3764.72 -139.797 2015.77 
3764.71 -138.345 2013.01 
3765.17 -138.408 2013.88 
3765.26 -138.875 2014.79 
3765.59 -139.304 2015.32 
3765.62 -139.786 2015.85 
3763.32 -139.24 2012.2 
3762.56 -139.452 2012.54 
3764.45 -138.554 2012.14 
3765.27 -137.976 2012.35 
3766.02 -137.466 2012.55 
3765.63 -137.802 2013.1 
3765.91 -138.297 2013.97 
3766.02 -138.607 2014.54 
3766.21 -138.843 2015.1 
3766.47 -139.346 2015.77 
3766.61 -140.042 2016.13 
3763.22 -139.606 2011.41 
3764.56 -138.782 2011.37 
3766.37 -137.261 2011.35 
3766.93 -136.83 2011.82 
3767.4 -136.523 2012.28 
3766.63 -137.281 2012.85 
3766.57 -138.218 2013.87 
3767.31 -137.139 2013.17 
3766.82 -138.641 2014.95 
3767.15 -138.873 2015.57 
3767.58 -139.533 2015.93 
3767.92 -140.464 2015.74 
3764.4 -139.327 2010.27 
3766.68 -137.239 2010.42 
3768.24 -135.724 2010.99 
3768.57 -135.506 2010.28 
3768.43 -135.834 2012.72 
3767.47 -137.537 2013.88 
3767.4 -138.347 2014.75 
3768.45 -136.074 2013.34 
3767.69 -138.516 2015.29 
3768.06 -138.831 2015.8 
3768.37 -139.594 2015.3 
3768.46 -140.326 2014.93 
3765.49 -138.85 2009.19 
3762.5 -140.467 2010.62 
3768.07 -136.239 2009.47 
3771.01 -132.675 2011.04 
3770.58 -132.892 2012.14 
3771.3 -132.925 2009.55 
3770.26 -133.492 2012.9 
3770.44 -133.747 2013.92 
3768.44 -137.291 2014.9 
3768.8 -136.264 2014.56 
3768.41 -137.904 2015.6 
3769.56 -135.509 2007.97 
3763.66 -140.468 2009.29 
3770 -134.758 2008.59 
3772.47 -130.208 2013.06 
3772.78 -129.835 2012.57 
3773.62 -130.014 2009.93 
3776.34 -128.024 2005.86 
3775 -129.581 2006.06 
3769.22 -136.29 2007.48 
3764.54 -140.32 2008.38 
3772.1 -130.585 2013.8 
3772.44 -131.12 2014.62 
3772.66 -129.919 2014.33 
3770.48 -134.172 2015.09 
3768.94 -136.493 2015.27 
3768.71 -137.328 2015.64 
3770.38 -134.817 2015.65 
3772.73 -131.548 2015.21 
3768.63 -138.336 2016.41 
3768.7 -139.272 2016.11 
3768.9 -140.092 2015.6 
3769.05 -141.026 2015.06 
3786.59 -146.607 2024.72 
3784.92 -144.907 2024.14 
3785.64 -147.815 2025.52 
3784.12 -145.439 2024.69 
3771.46 -134.187 2006.94 
3774.91 -129.965 2005.53 
3774.56 -130.725 2005.31 
3772.98 -129.362 2013.57 
3773.28 -129.198 2012.93 
3774.14 -129.456 2010.21 
3777.3 -127.048 2006.36 
3779.9 -124.459 2004.64 
3780.69 -123.709 2005.08 
3770.63 -135.525 2006.78 
3767.22 -138.768 2007.09 
3773.13 -129.51 2014.83 
3773.34 -129 2014.49 
3772.94 -132.213 2015.86 
3770.17 -135.748 2016.29 
3772.67 -133.402 2016.64 
3773.41 -130.068 2015.17 
3769.11 -139.839 2016.22 
3769.07 -140.96 2016.65 
3789.34 -146.627 2022.45 
3788.57 -146.318 2023.22 
3788.87 -148.539 2024.64 
3787.94 -147.623 2024.74 
3785.32 -141.573 2022.21 
3786.18 -141.87 2021.9 
3784.21 -140.754 2022.21 
3782.5 -144.168 2024.52 
3783.31 -146.438 2025.4 
3781.93 -146.323 2025.4 
3783.13 -143.098 2023.8 
3782.92 -139.974 2022.3 
3774.51 -131.144 2004.85 
3777.5 -127.053 2003.42 
3779.7 -124.708 2004.03 
3776.48 -128.519 2003.74 
3773.81 -128.876 2012.43 
3774.59 -129.007 2010.58 
3775.92 -128.396 2008.21 
3778.73 -125.734 2006.56 
3783.53 -120.744 2006.01 
3783.95 -120.023 2005.53 
3785.03 -118.389 2004.84 
3786.1 -116.632 2004.69 
3770.86 -136.033 2006.22 
3768.29 -138.766 2006.2 
3762.92 -142.252 2008.19 
3774.14 -131.881 2004.8 
3773.7 -132.357 2016.51 
3773.59 -131.095 2015.65 
3770.15 -136.757 2017.22 
3772.13 -135.104 2017.77 
3773.12 -133.996 2017.48 
3770.28 -137.747 2018.24 
3769.13 -139.289 2016.97 
3768.96 -140.539 2017.89 
3787.26 -140.717 2020.45 
3790.22 -148.876 2022.67 
3789.67 -146.372 2021.53 
3787.78 -140.606 2019.9 
3786.71 -141.316 2021.25 
3782.9 -134.032 2018.12 
3781.56 -134.197 2018.78 
3784.53 -133.907 2017.33 
3780.34 -134.139 2019.09 
3781.04 -144.794 2025.14 
3781.4 -142.525 2023.99 
3780.64 -140.051 2022.96 
3781.69 -139.987 2022.67 
3780 -136.522 2021.03 
3783.26 -120.565 2004.7 
3783.7 -120.065 2004.13 
3773.67 -128.749 2013.39 
3774.99 -128.664 2011 
3776.04 -128.341 2009.04 
3777.02 -127.437 2008.24 
3779.09 -125.576 2007.34 
3785.8 -117.287 2005.6 
3787.64 -114.268 2004.96 
3786.85 -115.541 2004.37 
3789.18 -111.588 2005.37 
3789.09 -111.698 2006.08 
3771.46 -136.339 2005.49 
3774.52 -132.18 2004.1 
3767.99 -139.733 2005.78 
3776.58 -128.558 2002.8 
3774.03 -129.262 2014.85 
3774.05 -128.534 2013.86 
3773.93 -133.481 2017.63 
3774.22 -131.073 2016.03 
3772.07 -136.855 2019.33 
3772.9 -135.619 2018.77 
3774.43 -129.754 2015.19 
3770.32 -138.786 2019.24 
3772.26 -138.463 2020.85 
3770.38 -139.8 2020.23 
3768.91 -141.735 2019.1 
3770.42 -140.779 2021.18 
3786.44 -130.179 2014.13 
3788.09 -139.732 2018.77 
3790.76 -148.967 2021.65 
3789.97 -146.593 2021.01 
3786.94 -129.503 2013.19 
3784.72 -127.658 2013.5 
3783.37 -127.718 2014.08 
3781.9 -128.772 2015 
3785.92 -127.141 2012.55 
3778.87 -132.921 2018.26 
3781.01 -129.038 2015.23 
3780.12 -142.737 2024.4 
3779.71 -145.606 2025.59 
3779.59 -140.112 2023.25 
3778.08 -137.832 2022.21 
3778 -134.878 2019.87 
3777.01 -127.489 2002.61 
3778.08 -126.444 2002.75 
3776.33 -128.201 2009.82 
3776.92 -127.665 2009.1 
3777.8 -127.03 2009.05 
3780.48 -124.404 2007.61 
3783.54 -120.993 2006.8 
3786.28 -116.747 2005.62 
3786.71 -116.259 2005.23 
3788.68 -112.253 2005.87 
3788.49 -113.102 2004.45 
3789.69 -111.218 2005.71 
3789.62 -111.179 2006.52 
3789.41 -111.343 2007.1 
3789.02 -111.946 2006.93 
3774.96 -132.02 2003.63 
3773.09 -134.608 2004.69 
3768.44 -140.334 2005.49 
3771.43 -137.993 2004.98 
3776.97 -128.924 2002.13 
3778.39 -141.032 2023.82 
3778.36 -145.73 2025.72 
3774.73 -132.053 2017.09 
3774.52 -133.928 2018.44 
3773.81 -135.182 2019.01 
3775.1 -130.212 2015.76 
3772.72 -137.657 2020.48 
3773.54 -137.118 2020.46 
3775.1 -129.352 2015.11 
3773 -139.579 2022.13 
3773.22 -138.98 2021.8 
3773.76 -140.845 2023.41 
3771.12 -141.508 2022.33 
3774.98 -143.486 2025.14 
3791.03 -148.452 2020.47 
3786.34 -125.329 2011.41 
3788.83 -142 2019.27 
3787.26 -130.236 2012.98 
3790.07 -145.556 2019.9 
3786.94 -125.069 2010.83 
3784.85 -124.538 2011.86 
3785.32 -124.236 2011.53 
3783.62 -125.373 2012.26 
3781.2 -128.183 2014.39 
3778.07 -131.93 2017.58 
3783.27 -125.119 2011.54 
3776.99 -138.731 2022.75 
3776.72 -136.68 2021.23 
3776.56 -133.386 2018.7 
3780.02 -124.383 2003.52 
3782.01 -122.33 2003.7 
3782.46 -121.752 2003.84 
3783.72 -120.173 2003.42 
3785.85 -117.487 2003.77 
3786.43 -116.591 2004.15 
3775.39 -128.306 2011.92 
3776.64 -128.078 2010.39 
3777.12 -127.672 2009.91 
3778.09 -126.994 2009.67 
3780.64 -124.46 2008.29 
3784.05 -120.389 2007.35 
3785.46 -118.382 2006.76 
3788.64 -112.461 2006.48 
3788.01 -114.347 2004.13 
3789.81 -111.24 2005.09 
3790.12 -110.845 2006.11 
3789.13 -111.628 2007.58 
3788.71 -112.297 2007.7 
3775.57 -128.072 2012.7 
3777.71 -127.359 2002.3 
3773.4 -135.114 2004.27 
3768.04 -142.712 2004.98 
3770.08 -139.586 2005.27 
3771.75 -139.083 2004.65 
3777.56 -141.714 2024.21 
3776.67 -142.619 2024.72 
3775.49 -138.816 2022.59 
3774.42 -128.552 2014.38 
3776.63 -128.223 2013.45 
3776.92 -128.684 2013.98 
3775.52 -127.42 2013.51 
3777.42 -127.644 2011.94 
3777.56 -127.604 2011.08 
3776.88 -127.996 2011.07 
3775.69 -131.08 2016.68 
3775.38 -133.252 2018.31 
3774.57 -136.532 2020.46 
3778.74 -128.468 2014.04 
3774.2 -138.603 2021.95 
3777.07 -129.22 2014.61 
3773.92 -140.279 2023.1 
3775.68 -144.039 2024.83 
3774.79 -140.014 2023.18 
3791.14 -147.595 2019.42 
3785.64 -123.706 2011.03 
3785.75 -123.637 2010.21 
3788.32 -137.022 2016.07 
3787.24 -128.696 2011.35 
3786.68 -124.926 2009.62 
3790.31 -144.994 2018.7 
3788.75 -137.825 2015.8 
3784.12 -123.44 2010.97 
3784.39 -122.823 2010.87 
3783.53 -123.168 2010.42 
3783.65 -124.21 2010.93 
3780.1 -128.861 2014.67 
3782.68 -125.167 2011.1 
3776.75 -131.22 2017.04 
3782.94 -124.164 2010.4 
3775.62 -136.622 2020.93 
3779.31 -125.06 2003.06 
3781.26 -123.201 2003.76 
3787.1 -116.069 2004.13 
3777.37 -127.616 2010.48 
3778.27 -127.091 2010.28 
3780.54 -124.876 2009 
3785.19 -119.347 2007.71 
3786.97 -116.292 2008.3 
3786.88 -117.006 2007.01 
3787.26 -116.341 2006.98 
3786.84 -116.643 2006.08 
3787.12 -115.969 2005.92 
3787.71 -114.838 2007.26 
3788.27 -113.019 2006.12 
3790.59 -110.352 2006.03 
3790.4 -110.214 2007.05 
3789.88 -110.652 2007.59 
3789.67 -110.64 2008.87 
3789.04 -111.558 2008.29 
3788.69 -112.145 2008.36 
3787.95 -113.368 2008.92 
3788.1 -113.225 2008.32 
3788.35 -113.096 2007.29 
3778.52 -126.794 2002.26 
3775.66 -132.621 2002.99 
3774 -135.544 2004 
3776.63 -130.143 2002.25 
3773.41 -139.359 2004.2 
3769.56 -143.413 2004.45 
3777.67 -129.176 2001.86 
3778.31 -127.754 2002.01 
3778.96 -127.853 2012.36 
3777.94 -127.654 2012.39 
3779.4 -128.216 2012.79 
3778.52 -127.558 2011.75 
3779.87 -128.226 2013.86 
3781.11 -126.466 2011.6 
3782.21 -124.647 2010.06 
3791.96 -148.857 2018.81 
3791.07 -146.976 2018.26 
3791.52 -148.087 2017.51 
3784.65 -122.487 2010.39 
3784.61 -122.295 2009.66 
3785.08 -123.548 2009.31 
3787.48 -129.513 2011.1 
3785.86 -124.697 2008.58 
3786.63 -125.782 2008.14 
3790.42 -144.6 2017.29 
3788.81 -136.93 2014.64 
3784.32 -121.568 2009.78 
3782.62 -123.773 2009.88 
3783.31 -122.291 2009.46 
3778.85 -145.078 2005.3 
3778.06 -143.793 2004.88 
3778.81 -144.212 2006.03 
3778.13 -144.508 2004.26 
3777.64 -143.616 2004.1 
3777.77 -144.411 2003.57 
3777.25 -143.785 2003.42 
3780.72 -125.054 2009.57 
3786.91 -118.103 2007.76 
3787.25 -117.385 2007.53 
3787.38 -115.875 2007.72 
3787.68 -114.549 2006.26 
3788.1 -113.763 2007.49 
3789.42 -112.514 2004.13 
3790.76 -110.388 2005.35 
3791.77 -108.747 2006.34 
3791.16 -109.351 2006.72 
3790.84 -109.52 2007.75 
3790.53 -109.741 2008.77 
3790.05 -109.844 2010.01 
3789.06 -110.781 2009.75 
3788.68 -111.625 2008.95 
3787.96 -112.445 2009.58 
3787.37 -114.42 2009.06 
3787.66 -114.865 2008.19 
3780.17 -124.528 2002.91 
3777.34 -130.463 2002.03 
3774.45 -136.621 2003.86 
3776.52 -133.024 2002.74 
3774.46 -140.14 2003.95 
3773.71 -142.623 2004.03 
3781.08 -126.22 2010.88 
3779.35 -127.297 2011.22 
3782.39 -123.179 2009.08 
3782.83 -122.634 2009.16 
3790.94 -146.636 2016.95 
3791.83 -149.081 2017.25 
3791.06 -147.449 2016.29 
3784.96 -122.172 2008.91 
3787.74 -130.248 2010.72 
3786.57 -126.217 2007.35 
3790.12 -143.194 2015.79 
3788.83 -137.01 2013.91 
3785.02 -121.025 2008.76 
3784.38 -121.14 2009.3 
3778.15 -142.616 2006.02 
3781.28 -146.209 2006.94 
3777.83 -143.096 2004.89 
3777.11 -143.035 2003.79 
3777.45 -142.848 2004.33 
3776.81 -144.289 2002.9 
3776.71 -143.425 2003.29 
3776.27 -143.878 2002.82 
3784.16 -120.665 2003.19 
3786.76 -116.894 2003.67 
3787.26 -116.468 2003.67 
3788.33 -114.74 2003.72 
3782.58 -122.413 2008.52 
3784.84 -119.829 2008.11 
3786.42 -118.658 2007.81 
3786.71 -115.51 2008.77 
3787.76 -113.801 2008.31 
3786.98 -115.079 2008.25 
3787.3 -114.293 2008.28 
3788.09 -113.727 2006.7 
3791.27 -109.822 2005.18 
3792.65 -107.81 2005.97 
3791.15 -108.951 2008.57 
3791.29 -108.918 2007.62 
3788.3 -110.76 2011.25 
3788.56 -110.826 2010.3 
3787.77 -111.741 2010.1 
3782.28 -122.835 2003.4 
3774.86 -137.852 2003.77 
3776.73 -133.606 2002.76 
3774.56 -141.984 2003.75 
3774.06 -143.577 2003.73 
3775.02 -140.841 2003.65 
3778.44 -129.459 2001.88 
3779.15 -128.141 2001.91 
3790.37 -149.077 2012 
3789.67 -145.333 2012.22 
3790.39 -148.248 2012.79 
3789.82 -148.681 2011.08 
3789.44 -145.791 2011.37 
3789.23 -146.967 2010.39 
3788.81 -148.165 2009.83 
3788.46 -144.033 2009.85 
3788 -145.413 2009.46 
3788.1 -148.124 2009.46 
3787.44 -146.668 2009.18 
3783.35 -121.719 2008.78 
3790.39 -144.767 2015.35 
3791.09 -148.566 2016.07 
3790.65 -146.697 2015.07 
3785.3 -122.241 2008.18 
3785.3 -121.305 2008.2 
3785.1 -123.375 2008.31 
3787.73 -129.899 2009.52 
3785.75 -125.254 2007.76 
3786.83 -127.104 2007.29 
3788.55 -135.951 2012.76 
3788.35 -134.571 2011.68 
3785.63 -120.491 2007.44 
3777.83 -141.96 2005.36 
3781.07 -144.942 2006.87 
3777.58 -142.041 2004.66 
3777.14 -142.308 2004.29 
3775.83 -143.311 2002.94 
3788.09 -115.479 2003.53 
3787.27 -117.956 2006.93 
3787.16 -118.612 2006.98 
3786.54 -119.077 2007.35 
3790.12 -112.23 2004.99 
3792.19 -108.906 2004.92 
3789.64 -113.267 2004.41 
3791.29 -109.811 2006.18 
3792.22 -108.01 2006.73 
3787.25 -111.222 2011.91 
3791.7 -108.378 2007.53 
3787.66 -111.304 2010.6 
3787.18 -111.869 2011.09 
3779.56 -127.02 2002.13 
3781.15 -124.844 2002.87 
3783.01 -122.694 2003.4 
3775.43 -139.178 2003.69 
3778.32 -130.25 2001.94 
3775.14 -142.213 2003.41 
3774.77 -143.309 2003.42 
3775.72 -140.615 2003.53 
3775.69 -141.687 2003.4 
3789.88 -144.609 2013.11 
3790.59 -148.175 2013.74 
3788.6 -139.045 2010.84 
3788.39 -138.994 2009.93 
3788.34 -140.416 2009.81 
3791.18 -149.19 2015.45 
3790.61 -147.428 2014.48 
3791.29 -149.649 2014.63 
3790.18 -145.088 2013.74 
3784.66 -146.311 2007.87 
3786.77 -145.241 2008.67 
3787.11 -147.632 2008.95 
3787.62 -136.275 2008.19 
3787.18 -137.804 2008.18 
3787.18 -143.057 2008.77 
3789.13 -139.042 2013.12 
3790.25 -144.117 2014.35 
3785.52 -122.753 2007.51 
3785.72 -122.081 2007.37 
3785.66 -121.378 2007.46 
3785.31 -123.897 2007.73 
3787.39 -128.784 2008.01 
3786.12 -119.924 2007.09 
3778.02 -141.009 2005 
3782.8 -143.211 2007.16 
3777.3 -140.973 2004.27 
3776.17 -142.52 2003.57 
3775.64 -142.646 2003.21 
3775.05 -144.01 2003.13 
3785.97 -118.08 2003.33 
3786.63 -117.532 2003.47 
3787.49 -116.952 2003.22 
3787.45 -116.844 2006.24 
3787.94 -116.068 2004.3 
3789.07 -113.611 2005.36 
3791.25 -110.779 2004.21 
3788.2 -116.096 2003.33 
3789.98 -111.84 2006.08 
3790.13 -110.357 2008.22 
3790.92 -109.82 2007.19 
3783.75 -122.941 2003.43 
3784.98 -120.88 2003.21 
3777.38 -134.019 2002.9 
3775.79 -138.432 2003.7 
3778.95 -129.846 2001.91 
3776.24 -140.057 2003.65 
3776.26 -141.381 2003.69 
3779.99 -128.328 2001.94 
3780.27 -127.663 2002.15 
3781.74 -125.207 2002.85 
3788.5 -137.457 2011.13 
3788.03 -134.928 2009.59 
3787.83 -133.404 2008.14 
3786.77 -127.789 2005.71 
3788.9 -138.75 2012.13 
3786.34 -140.996 2007.94 
3785.94 -127.38 2005.41 
3786.11 -135.353 2006.9 
3785.51 -128.79 2005.68 
3788.27 -135.703 2011.27 
3786.04 -122.162 2006.68 
3785.82 -122.913 2006.81 
3786.01 -121.43 2006.73 
3786.37 -120.511 2006.4 
3785.61 -124.032 2006.9 
3785.84 -125.882 2007.11 
3786.95 -119.368 2006.71 
3787.06 -119.863 2006.18 
3777.59 -140.018 2004.49 
3780.01 -139.758 2006.25 
3776.78 -140.697 2003.97 
3777.07 -139.416 2004.09 
3787.37 -117.722 2006.07 
3787.28 -118.894 2006.26 
3787.57 -117.566 2004.19 
3787.94 -115.669 2005.17 
3789.25 -112.962 2006.06 
3787.68 -117.582 2003.28 
3785.55 -120.634 2003.24 
3779.57 -129.624 2001.94 
3777.98 -133.63 2002.87 
3776.31 -137.78 2003.68 
3780.79 -128.269 2002.25 
3783.7 -124.046 2003.07 
3786.89 -128.113 2007.15 
3786.73 -127.279 2006.33 
3786.64 -126.317 2005.4 
3786.6 -124.287 2004.39 
3786.37 -123.404 2004.39 
3784.97 -135.25 2006.35 
3785.13 -127.713 2005.19 
3784.49 -128.211 2004.95 
3786.33 -122.331 2006.03 
3786.07 -123.113 2006.21 
3786.41 -121.161 2005.95 
3785.7 -125.109 2006.7 
3786.12 -123.663 2005.85 
3787.31 -119.489 2005.66 
3777.69 -138.797 2004.41 
3780.29 -138.076 2006.27 
3777.74 -137.899 2003.92 
3776.99 -138.226 2003.7 
3786.6 -118.151 2003.43 
3787.91 -115.328 2005.99 
3787.38 -118.335 2005.65 
3787.5 -117.356 2005.06 
3787.59 -118.342 2003.53 
3780.19 -129.641 2002.13 
3781.57 -128.279 2002.51 
3784.38 -124.22 2003.24 
3785.59 -121.376 2003.29 
3786.66 -119.784 2003.2 
3786.91 -118.748 2003.3 
3786.18 -124.348 2005.45 
3786.71 -122.896 2004.17 
3783.52 -130.555 2004.95 
3785.65 -125.028 2004.04 
3784.5 -126.205 2003.62 
3786.49 -122.843 2005.48 
3786.78 -122.107 2005.16 
3787.07 -121.338 2005 
3787.13 -120.643 2005.45 
3786.58 -123.386 2005.04 
3787.39 -119.063 2005.15 
3787.47 -118.267 2004.76 
3778.7 -137.468 2004.33 
3780.4 -136.653 2006.84 
3777.22 -137.071 2003.66 
3779.43 -134.311 2003.53 
3778.79 -134.243 2003.29 
3787.52 -119.052 2003.91 
3780.37 -130.787 2002.52 
3781.07 -129.399 2002.45 
3783.35 -126.591 2003.18 
3785.43 -123.167 2003.47 
3786.68 -122.7 2003.58 
3782.17 -131.753 2004.26 
3781.49 -130.676 2003.14 
3782.69 -128.721 2003.37 
3786.11 -123.44 2003.76 
3784.77 -125.394 2003.58 
3787.25 -121.837 2004.34 
3787.37 -120.417 2004.54 
3780.07 -134.483 2003.9 
3779.79 -136.703 2005.12 
3781.36 -134.424 2005.28 
3781.11 -130.333 2002.74 
3787.48 -119.736 2003.87 
3786.67 -121.288 2003.46 
3787.39 -121.048 2004.04 
3787.38 -120.358 2003.68 
