4055.33 -344.243 4539.34
4053.93 -342.172 4538.07
4052.58 -338.277 4533.46
4058.35 -350.493 4541.31
4058.48 -349.414 4540.36
4060.12 -347.111 4536
4059.9 -348.061 4537.45
4059.51 -345.675 4534.46
4055.97 -339.653 4530.57
4053.06 -336.282 4529.33
4055.16 -336.51 4526.37
4059.2 -351.076 4540.53
4061.09 -349.62 4537.21
4061.26 -350.357 4537.51
4061.09 -348.879 4536.57
4051.18 -334.584 4528.02
4054.4 -335.412 4525.8
4061.11 -347.086 4534.17
4061.45 -348.458 4535.25
4057.15 -340.733 4530.17
4059.76 -344.653 4531.94
4056.04 -336.646 4525.41
4055.74 -335.911 4524.74
4059.52 -351.849 4540.36
4059.67 -352.508 4540.34
4061.55 -351.073 4537.38
4062.17 -350.075 4535.99
4061.92 -349.457 4535.49
4062.31 -350.806 4536.54
4054.25 -334.899 4524.95
4053.29 -334.643 4525.67
4055.28 -335.387 4524.32
4061.66 -347.395 4533.48
4062.1 -348.894 4534.33
4056.81 -338.995 4527.71
4060.13 -344.969 4531.28
4057.12 -339.056 4526.84
4056.39 -336.79 4524.68
4056.44 -336.291 4524.03
4059.56 -353.349 4540.73
4062.28 -351.591 4536.79
4062.38 -352.267 4536.81
4059.71 -354.119 4540.63
4062.58 -349.607 4534.77
4062.83 -350.292 4535.34
4062.82 -351.103 4535.96
4053.38 -334.397 4524.8
4054.73 -334.888 4523.98
4055.84 -335.515 4523.5
4053.38 -334.211 4524.18
4062.17 -347.777 4533.02
4062.75 -348.884 4533.66
4060.49 -345.369 4530.92
4057.6 -339.609 4526.4
4056.97 -337.203 4523.83
4056.62 -335.954 4523.26
4062.41 -352.957 4536.94
4062.84 -351.952 4536.24
4059.77 -354.846 4540.23
4063.14 -349.661 4534.19
4063.28 -350.492 4534.69
4063.17 -351.381 4535.26
4053.99 -334.401 4524.1
4055.32 -335.091 4523.25
4055.86 -335.454 4522.76
4062.64 -348.034 4532.53
4063.16 -349.02 4533.08
4057.96 -340.072 4525.95
4057.41 -337.58 4523.29
4057 -336.672 4523.23
4057.04 -336.292 4522.73
4060 -355.188 4539.59
4058.57 -355.608 4540.18
4062.67 -352.653 4536.35
4063.49 -349.929 4533.68
4063.66 -350.645 4533.94
4063.66 -351.408 4534.18
4057.18 -356.499 4539.66
4058.73 -355.505 4539.26
4054.33 -334.156 4523.23
4051.24 -334.157 4522.79
4053.73 -333.948 4523.18
4051.81 -334.35 4522.34
4061.19 -345.992 4530.36
4063.18 -348.922 4532.23
4058.21 -340.686 4525.94
4057.66 -338.116 4522.99
4057.33 -336.91 4522.45
4063.3 -352.324 4535.31
4063.53 -352.119 4534.67
4063.75 -350.152 4533.13
4061.69 -353.582 4536.49
4061.05 -354.209 4536.18
4056.87 -357.09 4538.44
4055.24 -334.877 4522.64
4056.32 -335.927 4521.94
4054.18 -334.255 4522.6
4052.21 -334.838 4521.45
4062.9 -348.07 4531.45
4063.66 -349.754 4532.45
4057.49 -337.649 4522.49
4062.68 -352.856 4535.61
4062.86 -352.837 4534.73
4063.71 -350.832 4532.97
4063.61 -351.47 4533.24
4056.7 -357.241 4537.86
4062.27 -353.283 4534.5
4060.85 -354.461 4535.56
4055.7 -335.417 4521.98
4056.77 -336.389 4521.95
4054.39 -334.637 4522.11
4054.4 -335.006 4521.57
4061.5 -346.383 4529.73
4059.68 -344.192 4527.75
4058.33 -341.161 4524.91
4063.1 -348.908 4531.14
4057.61 -338.814 4522.4
4057.06 -337.509 4521.77
4063.06 -352.612 4534.17
4063.33 -352.162 4533.69
4060.12 -355.039 4535.35
4061.68 -353.747 4534.24
4062.23 -353.198 4533.82
4052.62 -335.618 4520.76
4053.07 -336.05 4520.43
4058.52 -341.891 4524.85
4063.28 -349.5 4531.31
4063.44 -350.056 4531.87
4061.56 -346.897 4529.24
4057.37 -338.141 4521.84
4056.52 -336.788 4521.52
4063.25 -350.811 4532.35
4063.16 -351.479 4532.53
4060.2 -354.806 4534.56
4054.82 -335.493 4521.08
4055.59 -335.906 4521.17
4056.08 -336.264 4521.33
4054.74 -335.907 4520.57
4058.59 -342.575 4524.72
4062.67 -349.174 4530.39
4061.37 -347.328 4528.82
4057.51 -339.94 4522.11
4057.32 -339.289 4521.72
4056.63 -337.43 4521.24
4062.79 -352.304 4533.13
4063.19 -350.141 4531.3
4062.61 -352.008 4532.59
4059.33 -355.373 4534.6
4061.41 -353.232 4533.21
4060.47 -354.105 4533.65
4061.83 -352.614 4532.76
4053.53 -336.851 4519.92
4053.7 -337.53 4519.58
4058.46 -343.499 4524.17
4057.25 -340.613 4521.88
4056.95 -338.555 4521.18
4062.33 -351.755 4532.04
4062.63 -351.01 4531.39
4062.48 -350.568 4530.83
4054.78 -349.697 4525.1
4054.44 -348.286 4523.08
4055.28 -347.423 4523.13
4059.5 -354.629 4533.57
4060.91 -353.096 4532.65
4061.59 -352.077 4531.87
4059.17 -354.178 4532.63
4055.46 -336.846 4520.63
4062.27 -349.684 4530.13
4060.92 -347.907 4528.44
4059.65 -346.344 4526.83
4058.28 -344.114 4523.95
4057.13 -341.44 4521.7
4056.81 -339.168 4521.07
4056.85 -340.119 4521.21
4062.02 -351.224 4531.2
4061.77 -350.653 4530.45
4061.8 -350.188 4529.98
4057.17 -351.452 4528.62
4058.02 -350.475 4528.11
4058.48 -349.915 4527.81
4059.2 -353.168 4531.41
4055.74 -345.897 4522.15
4055.73 -346.605 4522.67
4058.77 -349.294 4527.47
4060.09 -353.803 4532.91
4060.23 -353.058 4532.03
4061.09 -351.803 4531.15
4061.36 -351.113 4530.68
4054.16 -338.499 4519.51
4054.42 -339.314 4519.55
4056.18 -337.768 4520.71
4054.65 -343.212 4519.83
4054.71 -342.489 4519.82
4055 -343.912 4520.3
4060.37 -348.589 4528.22
4058.31 -344.885 4524.25
4057.04 -342.718 4521.74
4056.65 -341.439 4521.09
4055.56 -338.282 4520.16
4059.67 -349.094 4527.98
4056.17 -345.475 4522.3
4060.22 -352.004 4530.78
4055.11 -344.53 4520.59
4054.54 -340.141 4519.61
4056.11 -338.608 4520.63
4054.72 -341.439 4519.77
4056.44 -342.054 4520.99
4056.95 -343.359 4521.8
4056.25 -340.706 4520.77
4057.86 -345.089 4523.8
4055.97 -339.65 4520.53
