-100.493 2475.36 2416.93
-101.004 2473.81 2416.71
-100.722 2474.11 2415.77
-100.383 2475.49 2415.92
-101.79 2472.37 2417.11
-103.301 2470.33 2416.82
-101.334 2472.81 2416.07
-102.31 2471.41 2416.15
-102.457 2471.12 2414.95
-101.509 2472.31 2415.11
-100.968 2473.33 2414.98
-100.378 2475.55 2414.86
-104.027 2469.68 2414.54
-103.969 2469.78 2412.94
-102.366 2471.16 2413.9
-100.721 2474.29 2414.18
-101.516 2472.25 2414
-105.668 2468.24 2410.17
-101.111 2473.19 2413.46
-102.071 2471.6 2412.89
-100.539 2476.16 2413.93
-100.789 2475.17 2413.53
-105.894 2468.06 2409.06
-106.665 2467.17 2409.43
-112.891 2465.69 2391.48
-101.586 2472.64 2412.44
-101.053 2475.92 2412.75
-101.657 2475.4 2411.63
-103.649 2470.13 2411.95
-108.092 2465.37 2408.04
-109.036 2463.97 2408.7
-109.567 2463.33 2407.2
-113.35 2464.77 2390.85
-113.404 2461.96 2391.52
-111.834 2464.74 2394.09
-112.516 2464.03 2392.62
-101.349 2473.99 2412.43
-103.125 2470.81 2411.27
-102.482 2471.87 2411.19
-101.847 2473.85 2411.47
-103.629 2473.31 2408.57
-109.203 2464 2405.39
-109.889 2462.8 2408.96
-113.71 2463.79 2390.48
-114.012 2460.82 2390.75
-114.002 2459.91 2391.24
-110.828 2464.93 2397.15
-112.022 2463.41 2394.24
-112.721 2462.09 2393.12
-105.949 2468.14 2407.99
-103.479 2471.32 2409.43
-104.188 2470.6 2408.47
-108.054 2465.63 2406.29
-102.729 2472.59 2410.2
-110.372 2462.69 2403.65
-110.697 2462.3 2404.56
-111.117 2462.16 2401.69
-114.919 2458.77 2389.86
-114.448 2462.88 2389.59
-109.534 2466.59 2400.26
-112.351 2462.4 2394.01
-113.386 2460.86 2392.16
-106.166 2468.64 2406.15
-107.783 2467.06 2404.37
-107.955 2466.14 2405.11
-109.961 2463.42 2403.05
-109.855 2463.96 2402.05
-104.321 2471.3 2407.69
-110.673 2462.87 2401.13
-111.567 2461.72 2400.76
-114.606 2459.99 2389.96
-106.228 2469.69 2405.29
-108.341 2467.07 2403.17
-109.743 2465.6 2400.35
-112.988 2461.11 2393.21
-112.008 2462.37 2395.29
-108.672 2465.97 2403.22
-111.127 2462.42 2399.95
-111.635 2461.76 2398.88
-115.318 2457.94 2389.36
-108.919 2466.51 2402.07
-110.155 2464.85 2399.66
-111.272 2463.56 2396.76
-110.316 2463.75 2400.59
-109.439 2465.06 2401.92
-111.301 2462.65 2398.16
-112.465 2461.05 2395.69
-111.871 2461.63 2397.67
-112.351 2460.95 2396.87
-113.111 2459.93 2395.35
-114.946 2461.54 2389.16
-115.916 2457.69 2388.51
-112.554 2461.33 2394.58
-113.84 2459.47 2392.25
-114.755 2458.09 2390.66
-113.447 2459.64 2393.88
-114.059 2458.69 2393
-111.948 2461.26 2399.95
-112.967 2459.99 2396.86
-111.391 2461.82 2402.85
-112.158 2461.23 2401.58
-115.688 2460.86 2388.39
-114.421 2459.05 2390.84
-112.89 2460.34 2399.61
-111.475 2461.77 2404.18
-116.316 2460.05 2387.9
-114.966 2457.35 2391.48
-113.852 2459.01 2396.18
-110.924 2461.97 2407.47
-115.325 2457.09 2389.98
-114.712 2457.71 2393.09
-113.03 2460.65 2401.16
-113.936 2459.29 2398.07
-116.317 2458.55 2388.03
-115.572 2456.49 2391.68
-112.321 2461.3 2402.81
-115.886 2456.75 2388.89
-116.568 2457 2388.04
-115.579 2456.34 2390.65
-117.074 2459.34 2387.42
-114.687 2458.5 2396.56
-113.964 2459.88 2399.92
-116.517 2456.01 2388.28
-116.036 2455.77 2389.89
-115.567 2457.13 2393.54
-117.069 2458.02 2387.56
-115.288 2459.11 2398.39
-115.972 2458.5 2396.85
-116.754 2457.17 2393.7
-116.357 2455.99 2391.28
-117.886 2458.86 2387
-117.372 2456.78 2387.43
-118.032 2457.55 2387.13
-117.345 2456.29 2391.68
-117.958 2457.21 2392.98
-116.659 2455.36 2389.18
-116.988 2455.63 2390.33
-118.069 2456.17 2390.86
-119.22 2457.33 2387.32
-117.482 2455.82 2387.89
-117.713 2455.49 2389.38
-118.526 2456.1 2389.93
-118.336 2456.39 2387.54
-118.788 2456.08 2388.96
