-536.169 2393.48 1245.49
-535.142 2393.1 1245.57
-534.472 2393.01 1245.57
-533.806 2392.99 1245.62
-533.087 2392.98 1245.64
-537.108 2393.68 1244.7
-536.259 2393.36 1244.73
-535.275 2393.06 1244.77
-534.377 2392.96 1244.88
-533.7 2392.89 1244.9
-533.002 2392.89 1244.88
-532.3 2392.9 1244.91
-531.619 2392.86 1244.93
-537.987 2393.92 1243.89
-536.759 2393.34 1243.88
-536.313 2393.22 1244.08
-535.305 2392.96 1244.11
-534.506 2392.89 1244.12
-533.71 2392.78 1244.08
-533 2392.81 1244.1
-532.311 2392.77 1244.13
-531.546 2392.69 1244.18
-530.762 2392.57 1244.27
-528.786 2392.32 1244.16
-528.071 2392.52 1244.34
-527.38 2392.67 1244.2
-539.665 2394.48 1243.05
-538.625 2393.94 1243.04
-537.904 2393.59 1243.2
-536.891 2393.13 1243.19
-536.13 2392.94 1243.34
-535.184 2392.74 1243.25
-534.5 2392.7 1243.3
-533.699 2392.67 1243.33
-533.003 2392.67 1243.43
-532.304 2392.64 1243.41
-531.42 2392.46 1243.43
-530.689 2392.37 1243.49
-529.571 2392.13 1243.45
-528.674 2392.03 1243.46
-528.044 2392.11 1243.6
-527.348 2392.32 1243.53
-526.773 2392.7 1243.45
-526.162 2393.51 1243.41
-541.351 2394.97 1242.13
-540.32 2394.54 1242.16
-539.408 2394.06 1242.24
-538.548 2393.59 1242.36
-537.761 2393.19 1242.36
-536.906 2392.88 1242.51
-535.983 2392.69 1242.54
-535.088 2392.55 1242.52
-534.404 2392.52 1242.64
-533.699 2392.5 1242.69
-532.904 2392.43 1242.62
-532.225 2392.42 1242.69
-531.281 2392.19 1242.66
-530.584 2392.09 1242.83
-529.587 2391.85 1242.78
-528.672 2391.7 1242.75
-527.939 2391.68 1242.8
-527.2 2391.9 1242.8
-526.629 2392.34 1242.69
-526.099 2392.94 1242.68
-541.11 2394.68 1241.36
-540.413 2394.38 1241.51
-539.34 2393.8 1241.57
-538.528 2393.31 1241.66
-537.668 2392.87 1241.67
-536.724 2392.53 1241.68
-535.883 2392.39 1241.8
-535.204 2392.34 1241.82
-534.412 2392.3 1241.87
-533.72 2392.26 1242.02
-532.899 2392.11 1241.89
-532.219 2392.09 1241.95
-531.314 2391.94 1242.03
-530.441 2391.66 1242.07
-529.642 2391.55 1242.18
-528.562 2391.28 1241.99
-527.847 2391.22 1241.99
-527.135 2391.45 1242.1
-526.545 2391.77 1241.96
-525.959 2392.51 1241.99
-525.239 2393.77 1241.93
-518.898 2393.61 1242.1
-518.005 2393.19 1241.97
-517.315 2393.39 1242.16
-516.529 2393.6 1242.2
-515.72 2393.68 1242.16
-542.229 2395.11 1240.61
-541.179 2394.63 1240.69
-540.463 2394.2 1240.72
-539.317 2393.53 1240.87
-538.387 2392.98 1240.85
-537.311 2392.49 1240.93
-536.634 2392.25 1240.97
-536.012 2392.16 1241.15
-535.099 2392.03 1241.09
-534.419 2391.99 1241.19
-533.502 2391.88 1241.21
-532.817 2391.79 1241.26
-531.954 2391.63 1241.17
-531.396 2391.67 1241.43
-530.34 2391.28 1241.37
-529.563 2391.08 1241.41
-528.468 2390.84 1241.27
-527.64 2390.8 1241.2
-527.029 2390.93 1241.31
-526.402 2391.33 1241.29
-525.939 2391.77 1241.22
-525.021 2393.47 1241.37
-519.286 2393.25 1241.2
-518.756 2393.06 1241.3
-517.916 2392.81 1241.29
-517.269 2392.84 1241.09
-516.5 2393.32 1241.56
-515.653 2393.4 1241.51
-514.949 2393.47 1241.6
-514.02 2393.34 1241.52
-513.219 2393.13 1241.51
-543.174 2395.39 1239.7
-541.789 2394.79 1239.85
-541.412 2394.63 1239.93
-540.539 2394.09 1240.05
-539.427 2393.36 1240.11
-538.517 2392.87 1240.21
-537.317 2392.22 1240.16
-536.69 2392.04 1240.29
-535.93 2391.87 1240.41
-535.118 2391.74 1240.47
-534.04 2391.55 1240.37
-533.516 2391.52 1240.45
-532.823 2391.46 1240.59
-531.859 2391.14 1240.45
-531.096 2391.12 1240.59
-530.189 2390.84 1240.58
-529.41 2390.66 1240.62
-528.347 2390.41 1240.49
-527.705 2390.49 1240.65
-526.883 2390.32 1240.4
-526.25 2390.8 1240.63
-525.716 2391.31 1240.59
-524.979 2392.54 1240.59
-524.251 2393.71 1240.7
-519.352 2392.94 1240.57
-518.63 2392.57 1240.55
-517.918 2392.51 1240.63
-517.178 2392.49 1240.52
-516.438 2392.79 1240.66
-515.552 2393.15 1240.88
-514.912 2393.13 1240.84
-513.943 2393.02 1240.77
-513.11 2392.85 1240.82
-512.3 2392.69 1240.8
-543.786 2395.58 1239
-543.146 2395.41 1239
-542.256 2395 1239.11
-541.212 2394.38 1239.2
-540.169 2393.65 1239.29
-539.414 2393.14 1239.34
-538.591 2392.66 1239.44
-537.422 2392.07 1239.44
-536.511 2391.69 1239.5
-535.836 2391.5 1239.68
-535.072 2391.43 1239.78
-533.721 2390.98 1239.42
-533.427 2391.1 1239.76
-532.618 2391 1239.86
-531.919 2390.79 1239.87
-530.996 2390.62 1239.79
-529.932 2390.31 1239.74
-529.343 2390.32 1239.98
-528.385 2390.12 1239.95
-527.6 2390.11 1239.99
-526.785 2390.05 1239.88
-526.139 2390.38 1239.94
-525.512 2390.73 1239.87
-524.874 2391.45 1239.83
-524.09 2392.94 1240.06
-523.487 2393.91 1240.22
-521.46 2393.65 1239.94
-520.308 2392.99 1239.81
-519.324 2392.46 1239.82
-518.409 2392.13 1239.83
-517.827 2392.1 1239.92
-517.107 2392.32 1239.99
-516.411 2392.45 1239.89
-515.524 2392.73 1240.06
-514.705 2392.81 1240.04
-513.642 2392.68 1239.96
-513 2392.6 1240.1
-512.2 2392.51 1240.1
-543.796 2395.62 1238.2
-543.199 2395.44 1238.19
-542.39 2394.95 1238.33
-541.023 2394.11 1238.48
-540.101 2393.44 1238.56
-539.446 2393 1238.66
-538.426 2392.36 1238.71
-537.388 2391.83 1238.74
-536.417 2391.46 1238.82
-535.675 2391.19 1238.86
-534.936 2391.07 1238.96
-533.794 2390.66 1238.79
-533.175 2390.6 1238.94
-532.504 2390.48 1239.11
-531.855 2390.42 1239.27
-531.022 2390.26 1239.17
-529.953 2390.05 1239.1
-529.208 2389.95 1239.22
-528.422 2389.82 1239.27
-527.473 2389.69 1239.17
-526.798 2389.74 1239.33
-525.993 2389.87 1239.32
-525.364 2389.88 1239
-524.723 2390.61 1239.15
-523.981 2391.72 1239.27
-523.328 2392.56 1239.33
-522.698 2393.2 1239.52
-521.922 2392.79 1239.16
-521.163 2392.76 1239.26
-520.416 2392.58 1239.27
-519.271 2392 1239.15
-518.443 2391.93 1239.15
-517.754 2391.85 1239.21
-517.076 2391.98 1239.24
-516.253 2392.29 1239.23
-515.49 2392.43 1239.32
-514.593 2392.49 1239.25
-513.516 2392.38 1239.16
-513.014 2392.39 1239.37
-512.185 2392.33 1239.38
-544.619 2395.74 1237.39
-543.924 2395.65 1237.4
-542.992 2395.22 1237.5
-542.583 2394.95 1237.54
-540.74 2393.75 1237.72
-540.041 2393.28 1237.78
-539.003 2392.55 1237.87
-538.283 2392.13 1237.99
-537.199 2391.57 1238.01
-536.461 2391.31 1238.08
-535.463 2390.89 1238.09
-535.029 2390.83 1238.34
-533.997 2390.51 1238.3
-533.069 2390.23 1238.24
-532.23 2390.01 1238.23
-531.718 2390.01 1238.44
-530.64 2389.82 1238.3
-529.875 2389.78 1238.4
-529.082 2389.61 1238.46
-528.315 2389.48 1238.55
-527.38 2389.31 1238.55
-526.698 2389.32 1238.59
-525.83 2389.24 1238.49
-525.185 2389.4 1238.4
-524.563 2389.88 1238.5
-523.811 2390.82 1238.62
-523.096 2391.19 1238.51
-522.351 2391.71 1238.54
-521.692 2391.98 1238.56
-520.92 2391.96 1238.53
-520.277 2391.99 1238.7
-519.167 2391.66 1238.43
-518.5 2391.64 1238.49
-517.806 2391.64 1238.47
-517.046 2391.9 1238.57
-516.229 2392.12 1238.52
-515.498 2392.35 1238.51
-514.605 2392.36 1238.51
-513.656 2392.25 1238.52
-512.899 2392.13 1238.59
-512.19 2392.12 1238.65
-511.36 2392.22 1238.58
-543.974 2395.61 1236.62
-543.124 2395.23 1236.73
-542.353 2394.78 1236.82
-540.871 2393.76 1236.98
-540.109 2393.19 1237
-538.923 2392.38 1237.15
-538.081 2391.89 1237.27
-537.291 2391.45 1237.27
-536.304 2391.05 1237.36
-535.39 2390.69 1237.43
-534.69 2390.42 1237.49
-533.916 2390.15 1237.51
-532.935 2389.89 1237.53
-532.076 2389.75 1237.49
-531.75 2389.78 1237.71
-530.673 2389.54 1237.63
-529.88 2389.46 1237.7
-529.139 2389.32 1237.77
-528.399 2389.18 1237.89
-527.274 2388.91 1237.84
-526.464 2388.77 1237.74
-525.669 2388.73 1237.68
-525.043 2388.9 1237.66
-524.433 2389.3 1237.74
-523.669 2389.86 1237.84
-522.951 2390.27 1237.73
-522.277 2390.65 1237.65
-521.46 2391.17 1237.83
-520.738 2391.1 1237.63
-519.989 2391.37 1237.78
-519.199 2391.38 1237.84
-518.491 2391.35 1237.81
-517.733 2391.57 1237.75
-517.065 2391.86 1237.8
-516.248 2392.16 1237.68
-515.417 2392.18 1237.8
-514.608 2392.24 1237.8
-513.673 2392.07 1237.78
-512.774 2391.98 1237.84
-512.107 2391.94 1237.86
-511.369 2392 1237.78
-510.667 2392.16 1237.83
-544.629 2395.72 1235.9
-543.953 2395.6 1235.91
-543.142 2395.21 1235.93
-541.788 2394.39 1236.09
-541.072 2393.83 1236.2
-540.096 2393.11 1236.3
-538.784 2392.24 1236.49
-538.292 2391.91 1236.5
-537.455 2391.39 1236.51
-536.35 2390.92 1236.58
-535.626 2390.63 1236.71
-534.637 2390.25 1236.77
-533.712 2389.96 1236.76
-532.918 2389.74 1236.82
-532.254 2389.62 1236.86
-531.492 2389.46 1236.89
-530.856 2389.34 1236.99
-530.07 2389.22 1237.05
-529.047 2388.93 1237.08
-528.34 2388.8 1237.23
-527.3 2388.5 1237.1
-526.374 2388.37 1237.06
-525.674 2388.39 1237.01
-525.067 2388.54 1237.03
-524.442 2388.82 1237.05
-523.652 2389.22 1237.09
-522.855 2389.8 1237.04
-522.101 2390.16 1236.93
-521.36 2390.51 1236.96
-520.662 2390.7 1236.98
-519.874 2390.86 1236.96
-519.117 2391.06 1237.08
-518.466 2391.2 1237.01
-517.708 2391.62 1237
-517.099 2391.89 1237.02
-516.227 2392.2 1236.84
-515.494 2392.28 1236.99
-514.773 2392.2 1236.99
-513.706 2391.97 1237.1
-512.769 2391.79 1237.05
-512.103 2391.76 1237.08
-511.301 2391.81 1237.1
-510.65 2391.99 1237.15
-509.825 2392.26 1237.22
-544.587 2395.72 1235.1
-543.851 2395.52 1235.1
-542.883 2395.03 1235.2
-541.634 2394.27 1235.41
-541.025 2393.79 1235.4
-540.053 2393.07 1235.51
-538.729 2392.19 1235.71
-538.355 2391.92 1235.7
-537.622 2391.47 1235.81
-536.571 2390.86 1235.92
-535.834 2390.58 1235.96
-534.657 2390.12 1235.99
-533.744 2389.87 1236.09
-532.957 2389.64 1236.08
-532.316 2389.52 1236.1
-531.481 2389.3 1236.19
-530.755 2389.14 1236.25
-529.989 2388.93 1236.3
-528.907 2388.48 1236.31
-527.928 2388.24 1236.25
-527.087 2388.09 1236.36
-526.307 2388.01 1236.43
-525.599 2388.2 1236.5
-524.982 2388.31 1236.41
-524.336 2388.58 1236.41
-523.422 2389.07 1236.43
-522.75 2389.4 1236.43
-522.002 2389.81 1236.29
-521.236 2390.1 1236.36
-520.497 2390.39 1236.3
-519.884 2390.54 1236.26
-519.118 2390.84 1236.29
-518.447 2391.2 1236.29
-517.766 2391.61 1236.31
-517.157 2391.89 1236.34
-516.269 2392.18 1236.08
-515.585 2392.22 1236.1
-514.795 2392.1 1236.22
-513.734 2391.9 1236.31
-512.792 2391.64 1236.39
-512.1 2391.57 1236.41
-511.335 2391.57 1236.36
-510.557 2391.78 1236.35
-509.823 2392.05 1236.39
-545.399 2395.82 1234.31
-544.604 2395.77 1234.3
-543.805 2395.49 1234.4
-543.039 2395.12 1234.5
-541.84 2394.44 1234.62
-541.179 2393.99 1234.59
-540.315 2393.33 1234.67
-538.858 2392.33 1234.94
-538.325 2391.96 1234.9
-537.204 2391.17 1235.09
-536.392 2390.72 1235.1
-535.612 2390.37 1235.2
-534.3 2389.92 1235.23
-533.939 2389.86 1235.31
-532.966 2389.6 1235.4
-532.292 2389.43 1235.4
-531.654 2389.31 1235.41
-530.49 2388.76 1235.43
-529.58 2388.43 1235.51
-528.684 2388.11 1235.53
-527.74 2387.82 1235.5
-527.051 2387.72 1235.64
-526.311 2387.75 1235.69
-525.552 2387.92 1235.72
-524.928 2388.18 1235.69
-524.256 2388.46 1235.67
-523.356 2388.96 1235.7
-522.77 2389.13 1235.67
-521.957 2389.58 1235.64
-521.173 2389.82 1235.62
-520.463 2390.08 1235.55
-519.899 2390.32 1235.58
-519.035 2390.78 1235.58
-518.486 2391.03 1235.59
-517.717 2391.52 1235.5
-516.926 2391.97 1235.43
-516.196 2392.17 1235.47
-515.571 2392.2 1235.44
-514.593 2392.02 1235.5
-513.531 2391.69 1235.56
-512.782 2391.51 1235.58
-512.004 2391.38 1235.66
-511.243 2391.47 1235.62
-510.487 2391.66 1235.71
-509.838 2391.82 1235.61
-508.99 2392.17 1235.61
-508.224 2392.44 1235.67
-545.402 2395.87 1233.5
-544.59 2395.77 1233.61
-543.957 2395.61 1233.59
-543.246 2395.29 1233.58
-541.907 2394.54 1233.82
-541.341 2394.17 1233.76
-540.417 2393.52 1233.86
-539.065 2392.57 1234.13
-538.481 2392.19 1234.08
-536.949 2391.01 1234.36
-536.334 2390.72 1234.39
-535.522 2390.24 1234.41
-534.524 2389.9 1234.47
-533.978 2389.81 1234.52
-533.106 2389.63 1234.6
-532.29 2389.44 1234.6
-531.483 2389.24 1234.7
-530.365 2388.56 1234.72
-529.534 2388.22 1234.76
-528.592 2387.79 1234.8
-527.756 2387.57 1234.86
-527.068 2387.49 1234.91
-526.33 2387.65 1234.94
-525.575 2387.83 1235.01
-524.888 2388.13 1234.93
-524.168 2388.38 1234.97
-523.414 2388.71 1234.94
-522.605 2389.01 1234.9
-521.852 2389.4 1234.93
-521.174 2389.62 1234.92
-520.365 2389.99 1234.86
-519.827 2390.2 1234.84
-519.128 2390.54 1234.85
-518.281 2391.03 1234.83
-517.611 2391.44 1234.76
-516.844 2391.87 1234.76
-516.266 2392.04 1234.8
-515.523 2392.04 1234.76
-514.689 2391.97 1234.75
-513.285 2391.54 1234.82
-512.66 2391.4 1234.86
-511.931 2391.26 1234.94
-511.169 2391.32 1234.91
-510.527 2391.46 1234.96
-509.809 2391.68 1234.94
-509.02 2392 1234.96
-508.243 2392.25 1234.94
-507.561 2392.48 1234.92
-506.771 2392.66 1234.86
-506.054 2392.86 1234.81
-545.495 2395.93 1232.78
-544.715 2395.86 1232.79
-544.007 2395.72 1232.76
-543.188 2395.32 1232.88
-541.788 2394.56 1233.16
-541.245 2394.23 1233.09
-540.16 2393.46 1233.21
-539.324 2392.87 1233.29
-538.348 2392.14 1233.39
-537.091 2391.19 1233.61
-536.114 2390.51 1233.67
-535.333 2390.11 1233.68
-534.599 2389.91 1233.8
-533.922 2389.78 1233.8
-532.998 2389.63 1233.8
-532.44 2389.58 1233.79
-531.656 2389.26 1233.89
-530.838 2388.77 1234.01
-529.381 2387.91 1234.05
-528.487 2387.49 1234.11
-527.694 2387.36 1234.21
-527.003 2387.28 1234.18
-526.288 2387.47 1234.21
-525.532 2387.68 1234.18
-524.866 2388.02 1234.21
-524.13 2388.2 1234.17
-523.405 2388.51 1234.2
-522.628 2388.8 1234.27
-521.863 2389.1 1234.24
-521.115 2389.33 1234.19
-520.391 2389.75 1234.17
-519.758 2389.93 1234.05
-519.048 2390.27 1233.99
-518.247 2390.89 1234.15
-517.56 2391.2 1234.08
-516.904 2391.59 1234.06
-516.266 2391.88 1234.05
-515.408 2391.85 1234.02
-514.672 2391.78 1234.05
-513.185 2391.4 1234.16
-512.784 2391.39 1234.1
-511.917 2391.16 1234.17
-511.224 2391.19 1234.18
-510.509 2391.35 1234.19
-509.752 2391.56 1234.17
-508.964 2391.8 1234.12
-508.114 2392.12 1234.14
-507.584 2392.34 1234.15
-506.769 2392.59 1234.18
-505.979 2392.81 1234.1
-544.718 2395.96 1231.99
-543.947 2395.73 1232.09
-542.993 2395.32 1232.2
-542.026 2394.82 1232.22
-541.187 2394.32 1232.3
-540.332 2393.75 1232.39
-539.617 2393.28 1232.34
-538.41 2392.29 1232.6
-537.362 2391.45 1232.71
-535.882 2390.43 1233.04
-535.441 2390.16 1233
-534.56 2389.86 1233
-533.778 2389.77 1233.1
-532.995 2389.66 1233.1
-532.58 2389.58 1233
-532.014 2389.33 1233.04
-530.724 2388.63 1233.21
-529.57 2387.85 1233.39
-528.562 2387.33 1233.47
-527.787 2387.16 1233.47
-527.008 2387.14 1233.49
-526.198 2387.32 1233.59
-525.431 2387.53 1233.55
-524.806 2387.78 1233.52
-524.092 2388.02 1233.53
-523.275 2388.32 1233.55
-522.596 2388.42 1233.35
-521.817 2388.75 1233.37
-520.986 2389.07 1233.42
-520.298 2389.36 1233.52
-519.548 2389.72 1233.45
-518.933 2390.07 1233.37
-518.325 2390.34 1233.27
-517.6 2390.9 1233.3
-516.958 2391.2 1233.24
-516.145 2391.61 1233.3
-515.359 2391.73 1233.31
-514.695 2391.61 1233.31
-513.601 2391.4 1233.3
-512.677 2391.23 1233.4
-512.005 2391.13 1233.4
-511.284 2391.13 1233.42
-510.437 2391.28 1233.38
-509.726 2391.46 1233.44
-509.022 2391.67 1233.43
-508.117 2392 1233.43
-507.573 2392.25 1233.38
-506.703 2392.52 1233.31
-505.934 2392.77 1233.3
-505.197 2392.99 1233.4
-544.833 2396.03 1231.17
-543.93 2395.8 1231.29
-543.15 2395.5 1231.29
-542.225 2395.05 1231.39
-541.31 2394.48 1231.5
-540.358 2393.9 1231.58
-539.512 2393.34 1231.67
-538.424 2392.47 1231.79
-537.7 2391.88 1231.87
-536.16 2390.68 1232.18
-535.594 2390.41 1232.1
-534.538 2389.92 1232.31
-533.783 2389.77 1232.28
-533.002 2389.65 1232.3
-532.467 2389.48 1232.32
-532.074 2389.31 1232.37
-530.315 2388.24 1232.56
-529.568 2387.75 1232.59
-528.757 2387.36 1232.73
-527.655 2386.97 1232.72
-526.913 2386.9 1232.77
-526.097 2387.1 1232.83
-525.416 2387.29 1232.79
-524.806 2387.52 1232.79
-523.983 2387.74 1232.73
-523.29 2387.96 1232.72
-522.438 2388.16 1232.72
-521.674 2388.35 1232.65
-520.93 2388.67 1232.65
-520.282 2388.96 1232.73
-519.39 2389.55 1232.98
-518.788 2389.71 1232.74
-518.264 2389.89 1232.5
-517.507 2390.56 1232.71
-516.88 2390.73 1232.5
-516.092 2391.3 1232.66
-515.32 2391.38 1232.47
-514.535 2391.44 1232.56
-513.773 2391.36 1232.58
-512.689 2391.17 1232.59
-511.9 2391.11 1232.7
-511.289 2391.12 1232.62
-510.414 2391.2 1232.69
-509.665 2391.38 1232.67
-508.959 2391.59 1232.68
-508.277 2391.81 1232.64
-507.487 2392.17 1232.68
-506.67 2392.51 1232.61
-505.94 2392.77 1232.51
-505.198 2392.99 1232.6
-544.852 2396.14 1230.34
-544.071 2395.96 1230.47
-543.149 2395.59 1230.59
-542.326 2395.15 1230.59
-541.358 2394.6 1230.69
-540.477 2394.07 1230.78
-538.981 2392.99 1231.03
-538.78 2392.87 1230.97
-537.47 2391.84 1231.21
-536.504 2391.1 1231.3
-535.543 2390.51 1231.43
-534.501 2390.02 1231.56
-533.769 2389.81 1231.51
-533 2389.6 1231.5
-532.317 2389.35 1231.61
-532.009 2389.18 1231.58
-530.395 2388.23 1231.77
-529.421 2387.53 1231.88
-528.383 2386.99 1231.94
-527.564 2386.75 1231.98
-526.829 2386.72 1231.94
-526.15 2386.79 1232.03
-525.374 2387.03 1232.03
-524.731 2387.18 1231.93
-523.957 2387.4 1231.91
-523.165 2387.63 1231.95
-522.414 2387.95 1232.18
-521.658 2388.06 1232.08
-520.878 2388.28 1231.91
-520.248 2388.47 1231.76
-519.53 2388.87 1231.96
-518.794 2389.18 1231.88
-518.132 2389.52 1231.85
-517.35 2390.12 1231.96
-516.646 2390.42 1231.86
-515.873 2390.98 1232
-515.178 2391.11 1231.84
-514.4 2391.25 1231.82
-513.627 2391.21 1231.84
-512.807 2391.13 1231.91
-511.785 2391.07 1231.93
-511.133 2391.07 1231.98
-510.394 2391.14 1231.91
-509.654 2391.31 1231.91
-508.872 2391.52 1231.91
-508.189 2391.8 1231.88
-507.426 2392.16 1231.91
-506.756 2392.42 1231.89
-505.927 2392.79 1231.81
-505.274 2393.01 1231.8
-504.556 2393.27 1231.9
-544.704 2396.18 1229.7
-543.883 2395.95 1229.8
-542.937 2395.52 1229.81
-542.391 2395.24 1229.89
-541.294 2394.61 1230
-540.659 2394.23 1229.99
-539.361 2393.35 1230.2
-538.881 2393.02 1230.19
-537.581 2392.03 1230.4
-536.419 2391.22 1230.53
-535.833 2390.87 1230.44
-534.354 2390.07 1230.83
-533.888 2389.93 1230.7
-532.978 2389.58 1230.8
-532.271 2389.27 1230.79
-531.472 2388.8 1230.92
-530.485 2388.12 1231
-529.566 2387.5 1231.11
-528.358 2386.86 1231.14
-527.682 2386.7 1231.28
-526.748 2386.56 1231.28
-526.057 2386.62 1231.25
-525.368 2386.76 1231.23
-524.727 2386.99 1231.28
-523.931 2387.23 1231.4
-523.114 2387.36 1231.28
-522.316 2387.58 1231.28
-521.613 2387.75 1231.28
-520.856 2387.98 1231.25
-520.183 2388.13 1231.15
-519.415 2388.54 1231.28
-518.712 2388.83 1231.19
-518.078 2389.1 1231.15
-517.403 2389.51 1231.02
-516.566 2390.12 1231.21
-515.903 2390.52 1231.2
-515.15 2390.87 1231.16
-514.397 2390.98 1231.11
-513.505 2391.01 1231.12
-512.706 2391.02 1231.11
-511.905 2390.98 1231.16
-511.122 2391.01 1231.18
-510.416 2391.09 1231.12
-509.705 2391.22 1231.2
-508.892 2391.47 1231.2
-508.103 2391.81 1231.1
-507.413 2392.12 1231.1
-506.704 2392.41 1231.1
-506.074 2392.7 1231.09
-505.272 2393.01 1231.1
-504.582 2393.32 1231.13
-503.82 2393.83 1231
-544.095 2396.03 1228.91
-543.181 2395.63 1229
-542.473 2395.28 1229.11
-541.403 2394.63 1229.21
-540.444 2394.04 1229.31
-539.697 2393.5 1229.45
-538.85 2392.95 1229.43
-537.687 2392.16 1229.6
-536.392 2391.3 1229.74
-535.928 2391.08 1229.65
-534.756 2390.39 1229.92
-534.142 2390.12 1229.85
-533.236 2389.69 1229.99
-532.13 2389.12 1230.09
-531.209 2388.52 1230.19
-530.319 2387.91 1230.29
-529.452 2387.37 1230.4
-528.411 2386.81 1230.49
-527.587 2386.56 1230.5
-526.747 2386.43 1230.55
-526.108 2386.54 1230.6
-525.341 2386.64 1230.61
-524.609 2386.83 1230.6
-523.866 2387.07 1230.51
-523.137 2387.16 1230.56
-522.315 2387.4 1230.52
-521.588 2387.56 1230.55
-520.825 2387.75 1230.54
-520.037 2388.02 1230.48
-519.316 2388.24 1230.49
-518.667 2388.47 1230.47
-517.974 2388.87 1230.45
-517.352 2389.25 1230.42
-516.767 2389.65 1230.37
-516.045 2390.05 1230.28
-515.05 2390.56 1230.35
-514.283 2390.79 1230.33
-513.491 2390.89 1230.34
-512.7 2390.86 1230.41
-511.907 2390.91 1230.37
-511.182 2391.02 1230.4
-510.382 2391.07 1230.49
-509.715 2391.26 1230.4
-508.996 2391.5 1230.41
-508.183 2391.76 1230.42
-507.443 2392.09 1230.4
-506.686 2392.47 1230.3
-506.045 2392.71 1230.3
-505.3 2393.1 1230.3
-504.592 2393.4 1230.33
-503.893 2393.89 1230.2
-544.153 2396.05 1228.23
-543.202 2395.6 1228.32
-542.482 2395.2 1228.35
-541.339 2394.45 1228.51
-540.622 2393.99 1228.61
-539.464 2393.2 1228.73
-538.733 2392.79 1228.76
-537.617 2392.07 1228.81
-536.754 2391.59 1228.9
-535.693 2391.01 1229
-535.1 2390.7 1228.96
-534.063 2390.18 1229.08
-532.982 2389.63 1229.3
-532.082 2389.08 1229.4
-531.582 2388.78 1229.4
-530.028 2387.72 1229.62
-529.337 2387.31 1229.6
-528.369 2386.79 1229.73
-527.561 2386.56 1229.83
-526.742 2386.48 1229.97
-526.115 2386.56 1229.81
-525.428 2386.73 1229.87
-524.684 2386.88 1229.83
-523.902 2387.01 1229.8
-523.129 2387.16 1229.8
-522.27 2387.32 1229.79
-521.564 2387.47 1229.81
-520.691 2387.67 1229.8
-520.035 2387.88 1229.82
-519.316 2388.15 1229.79
-518.612 2388.39 1229.77
-517.94 2388.7 1229.78
-517.261 2389.1 1229.69
-516.758 2389.44 1229.75
-515.946 2389.94 1229.67
-515.031 2390.33 1229.64
-514.366 2390.63 1229.56
-513.504 2390.75 1229.59
-512.702 2390.83 1229.6
-511.883 2390.89 1229.74
-511.225 2391.03 1229.62
-510.476 2391.13 1229.73
-509.718 2391.36 1229.61
-508.936 2391.61 1229.61
-508.202 2391.86 1229.63
-507.487 2392.17 1229.6
-506.691 2392.48 1229.6
-505.957 2392.86 1229.46
-505.377 2393.09 1229.64
-504.645 2393.48 1229.55
-503.702 2394.07 1229.31
-543.7 2395.8 1227.48
-543.087 2395.42 1227.5
-542.46 2395.05 1227.65
-541.128 2394.09 1227.76
-540.65 2393.78 1227.94
-539.106 2392.77 1227.92
-538.518 2392.47 1228.01
-537.655 2391.99 1228.13
-536.832 2391.58 1228.14
-535.716 2391.07 1228.2
-535.065 2390.75 1228.3
-533.849 2390.1 1228.41
-532.952 2389.68 1228.51
-532.379 2389.36 1228.49
-531.398 2388.7 1228.6
-530.193 2387.9 1228.84
-529.194 2387.29 1228.96
-528.454 2386.96 1228.92
-527.56 2386.66 1229.1
-526.902 2386.63 1229.01
-526.136 2386.67 1229.04
-525.419 2386.86 1229.02
-524.671 2387.06 1228.97
-523.978 2387.15 1228.96
-523.103 2387.25 1229.01
-522.316 2387.35 1229.02
-521.564 2387.45 1228.99
-520.679 2387.62 1229
-520.009 2387.83 1229
-519.329 2388.09 1229
-518.684 2388.33 1228.98
-517.901 2388.7 1229
-517.235 2389.06 1229
-516.692 2389.39 1229.01
-515.81 2389.93 1228.9
-515.02 2390.25 1228.9
-514.313 2390.54 1228.9
-513.397 2390.71 1228.9
-512.726 2390.91 1228.77
-511.937 2390.96 1228.93
-511.236 2391.14 1228.93
-510.504 2391.31 1229
-509.713 2391.55 1228.91
-508.941 2391.73 1228.94
-508.273 2392 1228.95
-507.592 2392.31 1228.85
-506.877 2392.59 1228.9
-505.994 2393.05 1228.63
-505.369 2393.26 1228.89
-504.637 2393.66 1228.86
-504.005 2394.07 1228.73
-503.224 2394.53 1228.71
-543.841 2395.82 1226.69
-543.165 2395.4 1226.82
-542.145 2394.64 1226.92
-540.863 2393.66 1227.03
-540.056 2393.06 1227.07
-538.91 2392.41 1227.15
-538.242 2392.05 1227.25
-537.724 2391.89 1227.4
-536.751 2391.45 1227.42
-535.686 2391.03 1227.5
-535.061 2390.77 1227.51
-533.818 2390.18 1227.7
-533.088 2389.82 1227.7
-532.303 2389.39 1227.8
-531.323 2388.72 1227.93
-530.645 2388.33 1227.88
-529.031 2387.31 1228.37
-528.718 2387.25 1228.08
-527.54 2386.79 1228.5
-526.911 2386.85 1228.24
-526.161 2386.93 1228.14
-525.391 2387.07 1228.19
-524.687 2387.24 1228.18
-524.06 2387.33 1228.09
-523.112 2387.37 1228.37
-522.316 2387.45 1228.34
-521.541 2387.51 1228.31
-520.721 2387.69 1228.31
-520.036 2387.86 1228.3
-519.32 2388.06 1228.3
-518.699 2388.32 1228.3
-517.94 2388.67 1228.21
-517.154 2389.13 1228.19
-516.507 2389.54 1228.08
-515.813 2389.94 1228.08
-515.051 2390.27 1228.09
-514.271 2390.57 1228.11
-513.483 2390.76 1228.14
-512.706 2391.07 1227.91
-511.976 2391.14 1228.19
-511.32 2391.37 1228.13
-510.52 2391.57 1228.13
-509.793 2391.78 1228.09
-509 2392 1228.1
-508.292 2392.27 1227.99
-507.599 2392.53 1228.17
-506.932 2392.8 1228.1
-506.069 2393.22 1227.97
-505.453 2393.45 1228.13
-504.655 2393.93 1227.94
-504.035 2394.15 1228.13
-544.145 2396.02 1225.89
-543.041 2395.24 1226
-542.018 2394.4 1226.18
-540.626 2393.25 1226.28
-539.65 2392.54 1226.36
-538.833 2392.1 1226.48
-538.054 2391.74 1226.49
-537.498 2391.61 1226.6
-536.59 2391.33 1226.7
-535.633 2390.97 1226.78
-534.786 2390.63 1226.8
-534.043 2390.31 1226.9
-533.277 2389.94 1226.89
-532.234 2389.44 1227.02
-531.461 2388.97 1227.11
-530.704 2388.54 1227.06
-529.348 2387.69 1227.4
-528.686 2387.44 1227.31
-527.682 2387.1 1227.47
-526.915 2387.09 1227.46
-526.232 2387.13 1227.54
-525.523 2387.28 1227.42
-524.761 2387.42 1227.36
-524.055 2387.47 1227.3
-523.21 2387.5 1227.38
-522.298 2387.54 1227.51
-521.604 2387.52 1227.5
-520.742 2387.67 1227.5
-520.063 2387.86 1227.5
-519.306 2388.12 1227.5
-518.647 2388.4 1227.51
-517.941 2388.78 1227.51
-517.282 2389.17 1227.4
-516.47 2389.65 1227.36
-515.831 2390.06 1227.28
-515.074 2390.3 1227.43
-514.354 2390.65 1227.32
-513.491 2390.87 1227.29
-512.778 2391.13 1227.29
-512.078 2391.31 1227.36
-511.306 2391.62 1227.31
-510.589 2391.91 1227.07
-509.863 2392.07 1227.15
-509.079 2392.31 1227.17
-508.29 2392.57 1227.19
-507.61 2392.82 1227.21
-506.911 2393.12 1227.21
-506.144 2393.55 1226.96
-505.347 2393.86 1227.04
-504.743 2394.11 1227.24
-504.066 2394.43 1227.14
-542.923 2395.09 1225.31
-541.55 2393.98 1225.49
-540.645 2393.21 1225.59
-539.742 2392.43 1225.67
-538.875 2392.01 1225.76
-538.14 2391.72 1225.78
-537.515 2391.54 1225.91
-536.588 2391.24 1225.9
-535.594 2390.97 1226
-534.689 2390.59 1226.11
-533.993 2390.32 1226.1
-533.218 2389.95 1226.2
-532.426 2389.64 1226.19
-531.677 2389.25 1226.28
-530.855 2388.83 1226.25
-529.691 2388.12 1226.5
-528.623 2387.61 1226.67
-527.911 2387.41 1226.57
-527.007 2387.28 1226.75
-526.277 2387.24 1226.78
-525.507 2387.43 1226.7
-524.795 2387.55 1226.57
-524.153 2387.55 1226.55
-523.222 2387.54 1226.7
-522.401 2387.58 1226.7
-521.548 2387.63 1226.68
-520.783 2387.72 1226.81
-520.052 2387.93 1226.68
-519.367 2388.21 1226.69
-518.748 2388.43 1226.87
-517.995 2388.87 1226.72
-517.297 2389.29 1226.6
-516.659 2389.7 1226.62
-515.865 2390.13 1226.59
-515.162 2390.42 1226.68
-514.221 2390.83 1226.41
-513.55 2390.95 1226.63
-512.732 2391.33 1226.44
-512.026 2391.58 1226.47
-511.316 2391.84 1226.35
-510.649 2392.04 1226.46
-509.944 2392.31 1226.36
-509.141 2392.56 1226.36
-508.336 2392.74 1226.53
-507.694 2393.09 1226.4
-506.906 2393.41 1226.34
-506.147 2393.86 1226.09
-505.424 2394.18 1226.21
-504.761 2394.36 1226.47
-542.952 2395.26 1224.51
-541.75 2394.27 1224.73
-540.623 2393.22 1224.88
-539.921 2392.63 1224.92
-538.676 2391.94 1225.17
-538.296 2391.82 1225
-537.501 2391.6 1225.1
-536.396 2391.19 1225.25
-535.701 2391.1 1225.2
-534.67 2390.64 1225.33
-534.03 2390.42 1225.29
-533.209 2390.07 1225.4
-532.361 2389.7 1225.51
-531.628 2389.34 1225.49
-530.818 2388.96 1225.55
-529.64 2388.32 1225.72
-528.93 2388.02 1225.68
-527.898 2387.61 1225.8
-526.992 2387.45 1225.92
-526.306 2387.44 1225.9
-525.592 2387.55 1225.9
-524.873 2387.6 1225.8
-524.099 2387.61 1225.92
-523.202 2387.66 1225.9
-522.397 2387.61 1226
-521.523 2387.65 1226.04
-520.807 2387.83 1226
-520.086 2388.04 1226.05
-519.329 2388.41 1225.86
-518.737 2388.56 1226.12
-518.01 2389.02 1225.9
-517.307 2389.41 1225.9
-516.624 2389.87 1225.77
-515.978 2390.24 1225.83
-515.168 2390.62 1225.78
-514.363 2390.88 1225.78
-513.564 2391.09 1225.79
-512.773 2391.41 1225.7
-512.095 2391.64 1225.69
-511.286 2391.96 1225.58
-510.696 2392.17 1225.72
-509.923 2392.44 1225.68
-509.189 2392.65 1225.7
-508.373 2392.93 1225.69
-507.771 2393.15 1225.77
-506.973 2393.66 1225.59
-506.203 2394.02 1225.54
-505.542 2394.43 1225.44
-504.842 2394.63 1225.65
-542.287 2394.9 1223.77
-540.728 2393.43 1224.14
-539.865 2392.83 1224.2
-538.59 2392.06 1224.57
-538.228 2392 1224.41
-537.421 2391.76 1224.43
-536.601 2391.5 1224.4
-535.828 2391.3 1224.37
-534.634 2390.8 1224.62
-534.126 2390.63 1224.48
-533.161 2390.2 1224.62
-532.341 2389.85 1224.73
-531.764 2389.57 1224.67
-530.612 2388.98 1224.83
-529.569 2388.46 1224.95
-529.005 2388.16 1224.87
-527.874 2387.71 1225.01
-527.128 2387.57 1225
-526.296 2387.52 1225.1
-525.593 2387.55 1225.1
-524.799 2387.59 1225.1
-524.101 2387.64 1225.1
-523.184 2387.63 1225.19
-522.319 2387.65 1225.22
-521.584 2387.73 1225.39
-520.86 2388 1225.18
-520.109 2388.19 1225.28
-519.472 2388.48 1225.26
-518.715 2388.93 1225.11
-518.119 2389.2 1225.18
-517.391 2389.64 1225.15
-516.653 2390.15 1224.92
-515.997 2390.5 1225
-515.187 2390.76 1224.99
-514.359 2391.03 1224.97
-513.555 2391.31 1224.89
-512.899 2391.43 1225.13
-512.162 2391.67 1225.01
-511.422 2391.96 1225
-510.728 2392.21 1225.01
-509.934 2392.49 1224.89
-509.111 2392.73 1224.88
-508.397 2393.04 1224.88
-507.889 2393.23 1225.05
-506.938 2393.86 1224.76
-506.284 2394.17 1224.79
-542.334 2395.15 1222.98
-540.993 2394.04 1223.26
-540.304 2393.59 1223.2
-539.041 2392.71 1223.66
-538.188 2392.33 1223.75
-537.576 2392.26 1223.59
-536.955 2392.24 1223.34
-535.894 2391.72 1223.61
-534.766 2391.12 1223.84
-534.102 2390.9 1223.7
-533.118 2390.38 1223.85
-532.296 2389.95 1223.94
-531.818 2389.75 1223.86
-530.806 2389.19 1224
-529.725 2388.64 1224.12
-528.908 2388.18 1224.2
-528.002 2387.79 1224.3
-527.107 2387.65 1224.3
-526.303 2387.53 1224.29
-525.502 2387.53 1224.4
-524.809 2387.56 1224.39
-524.002 2387.68 1224.4
-523.105 2387.68 1224.56
-522.435 2387.77 1224.43
-521.689 2387.97 1224.39
-520.903 2388.21 1224.4
-520.126 2388.54 1224.33
-519.491 2388.81 1224.5
-518.865 2389.14 1224.47
-518.295 2389.32 1224.68
-517.462 2389.91 1224.35
-516.755 2390.3 1224.34
-515.997 2390.76 1224.12
-515.25 2390.96 1224.24
-514.475 2391.21 1224.16
-513.628 2391.37 1224.23
-512.884 2391.53 1224.35
-512.149 2391.75 1224.21
-511.463 2392 1224.23
-510.709 2392.32 1224.2
-509.97 2392.52 1224.21
-509.167 2392.79 1224.09
-508.497 2393.09 1224.1
-507.924 2393.37 1224.28
-542.206 2395.34 1222.26
-541.393 2394.81 1222.3
-540.464 2394.19 1222.33
-539.2 2393.26 1222.79
-538.272 2392.77 1223.05
-537.916 2393.02 1222.54
-537.055 2392.88 1222.37
-536.004 2392.29 1222.69
-535.124 2391.85 1222.77
-534.367 2391.39 1222.85
-533.37 2390.78 1222.96
-532.472 2390.25 1223.11
-531.662 2389.78 1223.21
-531.11 2389.5 1223.12
-529.976 2388.87 1223.28
-528.818 2388.26 1223.41
-527.978 2387.86 1223.5
-526.972 2387.57 1223.59
-526.212 2387.48 1223.66
-525.592 2387.51 1223.6
-524.834 2387.6 1223.49
-524.019 2387.63 1223.61
-523.239 2387.8 1223.75
-522.471 2388 1223.81
-521.748 2388.12 1223.89
-520.987 2388.49 1223.7
-520.208 2389.02 1223.4
-519.545 2389.19 1223.65
-518.891 2389.58 1223.49
-518.213 2389.93 1223.51
-517.521 2390.34 1223.32
-516.832 2390.56 1223.53
-516.054 2390.98 1223.36
-515.235 2391.23 1223.33
-514.473 2391.4 1223.35
-513.62 2391.55 1223.44
-512.876 2391.67 1223.57
-512.155 2391.86 1223.38
-511.405 2392.11 1223.4
-510.701 2392.4 1223.4
-509.987 2392.66 1223.44
-509.21 2392.93 1223.41
-508.511 2393.2 1223.46
-542.314 2395.74 1221.46
-541.512 2395.28 1221.49
-540.429 2394.54 1221.68
-539.46 2394.01 1221.77
-538.644 2393.62 1221.95
-538.037 2393.62 1221.68
-537.267 2393.44 1221.57
-536.416 2393.07 1221.68
-535.601 2392.75 1221.69
-534.368 2391.8 1222.05
-533.667 2391.36 1221.99
-532.755 2390.71 1222.27
-531.647 2390 1222.43
-530.842 2389.52 1222.38
-529.8 2388.9 1222.6
-528.658 2388.27 1222.73
-527.74 2387.82 1222.81
-526.977 2387.52 1222.78
-526.198 2387.45 1222.87
-525.544 2387.48 1222.89
-524.834 2387.62 1222.79
-524.084 2387.74 1222.79
-523.31 2388.03 1222.81
-522.543 2388.32 1222.86
-521.847 2388.45 1223.09
-521.037 2388.98 1222.85
-520.392 2389.29 1222.79
-519.637 2389.76 1222.61
-518.912 2390.09 1222.57
-518.241 2390.36 1222.62
-517.617 2390.64 1222.72
-516.913 2390.93 1222.71
-516.134 2391.19 1222.73
-515.304 2391.47 1222.46
-514.556 2391.57 1222.52
-513.639 2391.69 1222.76
-512.857 2391.81 1222.78
-512.182 2392.05 1222.58
-511.486 2392.27 1222.59
-510.765 2392.55 1222.65
-510.046 2392.85 1222.56
-509.288 2393.16 1222.59
-508.613 2393.35 1222.8
-541.374 2395.53 1220.81
-540.725 2395.25 1220.67
-539.664 2394.6 1220.95
-538.759 2394.26 1220.99
-538.117 2394.13 1220.86
-537.357 2393.91 1220.85
-536.544 2393.69 1220.8
-535.441 2393.03 1221.06
-534.423 2392.27 1221.28
-533.553 2391.63 1221.36
-532.278 2390.64 1221.73
-531.487 2390.16 1221.72
-530.893 2389.81 1221.7
-529.844 2389.1 1221.83
-528.94 2388.59 1221.92
-527.775 2387.88 1222.02
-526.926 2387.53 1222.1
-526.402 2387.46 1222.01
-525.535 2387.39 1222.09
-524.83 2387.58 1222.09
-524.134 2387.96 1221.99
-523.334 2388.27 1221.95
-522.592 2388.74 1221.86
-521.915 2389.03 1222.02
-521.148 2389.39 1222.06
-520.449 2389.8 1221.96
-519.714 2390.21 1221.79
-519.084 2390.46 1221.88
-518.36 2390.66 1221.98
-517.673 2390.92 1222
-516.925 2391.27 1221.93
-516.202 2391.51 1221.8
-515.304 2391.62 1221.91
-514.589 2391.8 1221.77
-513.713 2391.9 1221.92
-512.951 2392.03 1221.97
-512.233 2392.29 1221.83
-511.617 2392.47 1222
-510.811 2392.83 1221.81
-510.127 2393.11 1221.72
-509.328 2393.5 1221.61
-508.674 2393.62 1222.01
-541.71 2396.08 1219.79
-540.869 2395.66 1219.84
-539.748 2395.04 1220.17
-539.027 2394.81 1220.06
-538.18 2394.49 1220.24
-537.456 2394.37 1220.09
-536.548 2394.05 1220.13
-535.515 2393.47 1220.29
-534.467 2392.75 1220.53
-533.517 2392.01 1220.66
-532.275 2390.99 1221.03
-531.444 2390.41 1221.06
-531.015 2390.28 1220.79
-529.963 2389.46 1221.03
-529.057 2388.81 1221.07
-527.875 2388.04 1221.24
-526.918 2387.55 1221.32
-526.301 2387.42 1221.3
-525.513 2387.45 1221.3
-524.859 2387.66 1221.39
-524.189 2388.08 1221.3
-523.388 2388.54 1221.14
-522.61 2389.27 1220.85
-522.001 2389.37 1221.31
-521.299 2389.9 1221.1
-520.534 2390.51 1220.76
-519.9 2390.44 1221.24
-519.184 2390.85 1221.08
-518.443 2391.19 1220.91
-517.749 2391.34 1220.93
-517.035 2391.58 1220.91
-516.219 2391.78 1221.03
-515.488 2391.91 1220.97
-514.609 2391.99 1221.12
-513.806 2392.14 1221.11
-513.022 2392.28 1221.13
-512.363 2392.47 1221.16
-511.657 2392.76 1221.25
-510.918 2393.14 1221.02
-510.073 2393.5 1220.87
-509.468 2393.66 1221.07
-540.757 2395.9 1219.13
-539.869 2395.47 1219.23
-539.288 2395.35 1219.1
-538.139 2394.78 1219.53
-537.39 2394.64 1219.42
-536.487 2394.34 1219.42
-535.663 2393.97 1219.44
-534.72 2393.46 1219.58
-533.557 2392.5 1219.92
-532.838 2392.09 1219.87
-532.071 2391.54 1219.93
-530.921 2390.62 1220.17
-530.068 2389.95 1220.22
-529.076 2389.13 1220.31
-528.032 2388.41 1220.43
-526.842 2387.64 1220.64
-526.176 2387.45 1220.62
-525.54 2387.47 1220.62
-524.951 2387.7 1220.63
-524.335 2388.09 1220.64
-523.424 2388.81 1220.36
-522.749 2389.51 1220.29
-522.096 2389.99 1220.3
-521.359 2390.31 1220.37
-520.663 2390.89 1220
-519.99 2390.97 1220.28
-519.226 2391.18 1220.34
-518.516 2391.56 1220.04
-517.827 2391.58 1220.34
-517.064 2391.87 1220.15
-516.3 2392.1 1220.2
-515.553 2392.22 1220.1
-514.702 2392.32 1220.31
-513.79 2392.34 1220.57
-513.106 2392.62 1220.31
-512.417 2392.85 1220.22
-511.701 2393.1 1220.2
-510.915 2393.51 1220.11
-510.219 2393.81 1220.11
-540.054 2395.96 1218.34
-539.196 2395.61 1218.41
-538.24 2395.23 1218.6
-537.542 2395.13 1218.43
-536.637 2394.77 1218.55
-535.738 2394.41 1218.66
-534.814 2393.97 1218.78
-533.663 2393.15 1219.07
-533.11 2392.98 1218.89
-532.407 2392.53 1218.86
-531.102 2391.25 1219.32
-530.499 2390.97 1219.1
-529.171 2389.74 1219.42
-528.216 2388.98 1219.49
-526.88 2387.96 1219.83
-526.252 2387.68 1219.89
-525.589 2387.59 1220.01
-524.999 2387.8 1220.01
-524.424 2388.25 1219.87
-523.502 2389.2 1219.55
-522.918 2389.72 1219.61
-522.193 2390.49 1219.49
-521.506 2390.81 1219.51
-520.751 2391.27 1219.31
-520.079 2391.53 1219.35
-519.359 2391.56 1219.63
-518.661 2391.74 1219.62
-517.843 2391.97 1219.57
-517.137 2392.14 1219.56
-516.38 2392.42 1219.36
-515.597 2392.48 1219.39
-514.803 2392.62 1219.51
-513.9 2392.68 1219.78
-513.158 2392.93 1219.62
-512.506 2393.22 1219.41
-511.793 2393.49 1219.39
-511.054 2393.79 1219.35
-538.952 2395.77 1217.91
-538.358 2395.65 1217.77
-537.587 2395.45 1217.72
-536.754 2395.19 1217.71
-535.825 2394.83 1217.87
-534.859 2394.4 1218.05
-534.078 2394.06 1218.03
-533.121 2393.45 1218.21
-532.727 2393.45 1217.9
-531.585 2392.57 1218.1
-530.756 2391.9 1218.13
-529.453 2390.54 1218.55
-528.387 2389.52 1218.71
-527.042 2388.41 1219.07
-526.19 2387.94 1219.3
-525.749 2387.77 1219.33
-525.078 2388.13 1219.21
-524.49 2388.69 1219.02
-523.658 2389.66 1218.77
-523.069 2390.07 1218.93
-522.365 2391 1218.78
-521.633 2391.57 1218.49
-520.945 2391.89 1218.45
-520.184 2392.03 1218.55
-519.436 2392.02 1218.83
-518.65 2392.18 1218.85
-517.968 2392.42 1218.51
-517.258 2392.42 1218.79
-516.475 2392.69 1218.56
-515.602 2392.81 1218.7
-514.836 2393.06 1218.47
-513.97 2393.17 1218.54
-513.232 2393.3 1218.75
-535.897 2395.21 1217.1
-534.965 2394.91 1217.15
-534.345 2394.76 1217.02
-533.402 2394.3 1217.2
-532.936 2394.36 1216.87
-531.792 2393.35 1217.28
-530.763 2392.52 1217.43
-529.585 2391.32 1217.71
-528.214 2389.93 1218.08
-527.455 2389.38 1218.06
-526.235 2388.35 1218.65
-525.8 2388.38 1218.55
-525.2 2388.52 1218.62
-524.561 2389.14 1218.33
-523.827 2390.34 1217.93
-523.179 2390.98 1217.88
-522.475 2391.79 1217.61
-521.684 2392.06 1217.77
-521.053 2392.4 1217.66
-520.364 2392.65 1217.54
-519.583 2392.65 1217.7
-518.812 2392.65 1217.88
-518.084 2392.82 1217.71
-517.282 2392.9 1217.75
-516.518 2392.99 1217.84
-515.709 2393.15 1217.82
-514.885 2393.32 1217.77
-535.032 2395.31 1216.39
-534.285 2395.06 1216.43
-533.602 2394.89 1216.39
-532.959 2394.78 1216.24
-531.968 2394.25 1216.39
-530.73 2393.09 1216.78
-529.62 2391.99 1216.98
-528.486 2390.94 1217.12
-527.634 2390.21 1217.2
-526.372 2388.88 1217.93
-525.942 2389.22 1217.64
-525.392 2389.32 1217.67
-524.747 2390.05 1217.38
-523.949 2391.16 1216.94
-523.189 2392.04 1216.75
-522.648 2392.57 1216.64
-521.879 2392.64 1216.96
-521.184 2393 1216.84
-520.484 2393.09 1216.83
-519.685 2393.12 1216.89
-518.901 2393.14 1217.02
-518.104 2393.17 1217.04
-517.404 2393.25 1217.02
-516.592 2393.34 1216.98
-515.807 2393.44 1217.01
-535.165 2395.72 1215.55
-534.366 2395.54 1215.61
-533.568 2395.31 1215.71
-533.011 2395.3 1215.54
-532.255 2395.23 1215.38
-531.082 2394.23 1215.83
-529.804 2393 1216.1
-529.036 2392.36 1216.06
-527.631 2390.82 1216.58
-526.758 2389.97 1216.93
-526.037 2390 1216.82
-525.576 2390.44 1216.56
-524.911 2390.94 1216.54
-524.126 2392.02 1216.02
-523.384 2392.88 1215.68
-522.707 2393 1215.95
-522.021 2393.19 1216.25
-521.293 2393.45 1216.07
-520.524 2393.38 1216.3
-519.788 2393.58 1216.04
-519.1 2393.65 1216.02
-518.201 2393.59 1216.25
-517.314 2393.48 1216.52
-532.368 2395.93 1214.35
-531.468 2395.52 1214.61
-530.451 2394.62 1214.92
-529.344 2393.66 1215.05
-527.946 2391.96 1215.66
-527.014 2391.15 1215.88
-526.298 2390.99 1215.9
-525.72 2391.15 1215.86
-525.08 2391.58 1215.7
-524.357 2392.36 1215.46
-523.553 2393.48 1214.82
-522.938 2393.58 1215.12
-522.101 2393.71 1215.31
-521.312 2393.83 1215.36
-520.584 2393.9 1215.26
-519.183 2394 1215.14
-518.401 2394 1215.22
-531.574 2396.36 1213.69
-530.781 2395.95 1213.74
-529.69 2394.88 1214.08
-528.477 2393.63 1214.43
-527.188 2392.29 1214.92
-526.408 2391.83 1215.12
-525.922 2391.77 1215.1
-525.224 2392.26 1214.96
-524.475 2392.99 1214.68
-523.684 2393.71 1214.33
-523.034 2393.98 1214.33
-522.297 2394.22 1214.29
-530.934 2396.67 1212.89
-530.036 2396.11 1213.04
-528.852 2395.14 1213.33
-527.613 2393.67 1213.89
-526.578 2392.77 1214.29
-526.067 2392.65 1214.27
-525.344 2393.26 1213.86
-524.582 2393.77 1213.68
-523.859 2394.28 1213.5
-523.171 2394.41 1213.46
-522.411 2394.48 1213.49
-529.03 2395.96 1212.56
-527.77 2394.92 1212.96
-526.781 2393.83 1213.43
-526.152 2393.76 1213.31
-525.503 2394.21 1212.91
-524.78 2394.44 1212.85
-523.974 2394.66 1212.72
-523.201 2394.8 1212.72
-528.076 2396.1 1212
-527.124 2395.24 1212.27
-526.254 2394.69 1212.54
-525.603 2394.92 1212.19
-524.984 2395.14 1211.82
-524.109 2395.17 1211.88
-526.537 2395.88 1211.26
-525.922 2395.91 1211.03
