-435.934 2367.17 1522.78
-435.136 2367.69 1522.91
-434.553 2367.91 1522.84
-430.421 2367.88 1522.62
-430.049 2368.04 1522.89
-428.485 2368.06 1522.82
-438.538 2365.47 1522.17
-437.867 2365.74 1522.13
-437.124 2366.17 1522.19
-436.486 2366.64 1522.3
-435.854 2366.8 1522.17
-435.131 2367.26 1522.19
-434.441 2367.58 1522.18
-433.741 2367.86 1522.2
-433.116 2368.12 1522.38
-432.448 2368.22 1522.48
-431.716 2368.14 1522.42
-430.623 2367.72 1522.14
-429.768 2367.48 1522
-429.177 2367.8 1522.3
-428.358 2367.58 1521.97
-427.659 2368.13 1522.15
-426.928 2368.65 1522.28
-426.148 2369.31 1522.39
-425.55 2369.66 1522.34
-439.191 2364.77 1521.42
-438.462 2365 1521.46
-437.746 2365.38 1521.48
-437.017 2365.85 1521.66
-436.41 2366.04 1521.53
-435.713 2366.52 1521.73
-435.06 2366.62 1521.48
-434.3 2367.09 1521.61
-433.6 2367.1 1521.4
-432.964 2367.43 1521.65
-432.357 2367.73 1521.9
-431.608 2367.76 1521.91
-430.66 2367.29 1521.56
-429.802 2366.99 1521.41
-429.002 2366.87 1521.52
-428.236 2366.56 1521.19
-427.535 2367.15 1521.34
-426.914 2367.72 1521.38
-426.164 2368.65 1521.54
-425.575 2369.13 1521.54
-424.999 2369.29 1521.21
-439.901 2364.18 1520.61
-439.098 2364.17 1520.62
-438.303 2364.31 1520.59
-437.559 2364.59 1520.73
-436.955 2364.69 1520.75
-436.282 2364.86 1520.66
-435.573 2365.12 1520.73
-434.862 2365.49 1520.8
-434.156 2365.77 1520.83
-433.461 2366 1520.81
-432.789 2366.23 1520.87
-432.109 2366.53 1521.03
-431.124 2366.16 1520.84
-430.45 2366.2 1520.92
-429.616 2365.72 1520.73
-428.718 2365.13 1520.33
-428.037 2365.68 1520.44
-427.328 2365.22 1520.09
-426.752 2366.19 1520.24
-426.178 2367.36 1520.51
-425.534 2368.11 1520.47
-424.948 2368.87 1520.48
-423.967 2369.84 1520.79
-423.515 2370.12 1520.59
-441.536 2364.09 1519.96
-440.579 2363.89 1519.87
-439.787 2363.77 1519.86
-438.867 2363.46 1519.76
-438.054 2363.1 1519.54
-437.496 2363.61 1520.02
-436.7 2363.33 1519.84
-436.094 2363.65 1520
-435.298 2363.59 1519.92
-434.512 2363.46 1519.75
-433.737 2363.32 1519.6
-433.102 2364.11 1519.88
-432.394 2364.38 1519.96
-431.699 2364.71 1520.09
-430.803 2364.47 1519.97
-429.998 2364.21 1519.88
-429.182 2363.82 1519.67
-428.416 2363.7 1519.55
-427.76 2364.06 1519.59
-427.109 2363.73 1519.21
-426.626 2364.88 1519.54
-426.092 2366.15 1519.65
-425.35 2367.67 1519.94
-424.827 2368.29 1519.83
-423.945 2369.53 1520
-423.458 2369.97 1519.88
-442.307 2364.02 1519.23
-441.519 2363.88 1519.23
-440.664 2363.6 1519.28
-439.634 2363.13 1519.12
-438.694 2362.63 1518.98
-437.794 2362.01 1518.8
-437.171 2362.2 1519.05
-436.378 2361.98 1519.06
-435.801 2362.1 1519.21
-434.893 2361.72 1518.97
-434.123 2361.56 1518.87
-433.4 2361.46 1518.72
-432.815 2362.43 1519.13
-432.052 2362.35 1518.97
-431.389 2362.96 1519.27
-430.599 2363.32 1519.34
-429.796 2362.93 1519.16
-428.974 2362.61 1519.05
-428.101 2362.28 1518.72
-427.519 2362.32 1518.62
-426.901 2362.62 1518.55
-426.437 2364.32 1518.97
-425.843 2365.82 1519.16
-425.305 2367 1519.2
-424.65 2368.17 1519.22
-424.024 2369.14 1519.12
-423.401 2369.8 1519.1
-422.761 2370.38 1519.09
-442.212 2363.81 1518.42
-441.658 2363.67 1518.56
-440.714 2363.26 1518.51
-439.577 2362.53 1518.38
-438.567 2361.91 1518.2
-437.886 2361.72 1518.37
-436.771 2360.66 1518.09
-436.197 2360.81 1518.39
-435.491 2360.63 1518.35
-434.62 2359.99 1517.99
-433.921 2359.99 1517.9
-433.229 2360.45 1518.1
-432.545 2361.08 1518.3
-431.9 2361.16 1518.23
-431.157 2361.88 1518.54
-430.487 2362.22 1518.63
-429.599 2361.81 1518.39
-428.783 2361.77 1518.34
-427.932 2361.39 1517.99
-427.264 2361.46 1518.01
-426.841 2362.07 1518.06
-426.342 2363.06 1518.16
-425.705 2364.83 1518.34
-425.254 2365.95 1518.34
-424.494 2367.89 1518.47
-424.062 2368.54 1518.38
-423.229 2369.83 1518.45
-422.661 2370.33 1518.42
-442.062 2363.52 1517.63
-441.697 2363.45 1517.87
-440.681 2362.91 1517.87
-439.558 2362.12 1517.76
-438.381 2361.16 1517.56
-437.673 2360.74 1517.66
-436.592 2359.8 1517.46
-436.103 2359.89 1517.71
-435.175 2359.37 1517.49
-434.445 2359.07 1517.25
-433.812 2359.35 1517.43
-433.174 2359.55 1517.47
-432.486 2360.21 1517.6
-431.809 2360.48 1517.56
-430.984 2361.15 1517.75
-430.279 2361.42 1517.94
-429.373 2361.04 1517.55
-428.68 2361.1 1517.6
-427.92 2361.04 1517.52
-427.246 2361.14 1517.48
-426.729 2361.62 1517.51
-426.337 2362.06 1517.39
-425.737 2363.71 1517.58
-425.129 2365.64 1517.66
-424.691 2366.87 1517.65
-423.911 2368.54 1517.73
-423.138 2369.75 1517.77
-422.664 2370.27 1517.71
-442.069 2363.18 1516.96
-441.087 2362.66 1516.9
-440.592 2362.45 1517.15
-439.337 2361.38 1516.94
-438.482 2360.72 1516.98
-437.233 2359.52 1516.77
-436.573 2359.25 1516.95
-435.903 2358.99 1517.01
-434.974 2358.29 1516.6
-434.375 2358.49 1516.72
-433.733 2358.56 1516.69
-432.968 2359.19 1516.93
-432.346 2359.65 1516.96
-431.587 2360.18 1517.01
-430.886 2360.56 1517.03
-430.212 2360.88 1517.28
-429.292 2360.73 1516.95
-428.574 2360.73 1516.9
-427.879 2360.74 1516.9
-427.163 2360.95 1516.95
-426.736 2361.34 1516.92
-426.312 2361.83 1516.91
-425.681 2363.4 1516.95
-425.186 2365.29 1516.86
-424.756 2366.36 1516.86
-423.757 2368.56 1516.93
-423.199 2369.55 1516.92
-422.757 2370.15 1516.9
-442.135 2362.92 1516.24
-440.734 2361.93 1516.01
-440.394 2361.78 1516.27
-439.244 2360.76 1516.16
-438.407 2359.99 1516.21
-437.109 2358.72 1515.99
-436.473 2358.35 1516.15
-435.678 2357.87 1516.13
-434.913 2357.56 1515.92
-434.289 2357.79 1516.03
-433.718 2357.8 1515.89
-432.803 2358.79 1516.27
-432.132 2359.32 1516.25
-431.525 2359.77 1516.26
-430.894 2360.09 1516.21
-430.051 2360.42 1516.29
-429.301 2360.48 1516.16
-428.6 2360.5 1516.2
-427.847 2360.6 1516.18
-427.241 2360.82 1516.2
-426.688 2361.28 1516.25
-426.417 2361.7 1516.27
-425.745 2363.25 1516.22
-425.343 2364.53 1516.23
-424.576 2366.93 1516.2
-424.084 2367.92 1516.2
-423.506 2369.02 1516.2
-422.852 2370.01 1516.21
-442.987 2363.04 1515.54
-441.98 2362.54 1515.48
-440.849 2361.69 1515.41
-440.193 2361.21 1515.5
-439.154 2360.24 1515.47
-438.138 2359.26 1515.45
-436.816 2357.82 1515.23
-436.173 2357.4 1515.33
-435.465 2356.97 1515.27
-434.833 2356.95 1515.27
-434.253 2357.07 1515.23
-433.642 2357.57 1515.33
-432.81 2358.41 1515.5
-432.165 2358.96 1515.51
-431.636 2359.41 1515.43
-430.763 2360.02 1515.58
-430.039 2360.16 1515.47
-429.305 2360.41 1515.49
-428.611 2360.46 1515.5
-427.883 2360.64 1515.49
-427.322 2360.88 1515.59
-426.704 2361.44 1515.58
-426.27 2362.11 1515.65
-425.824 2363.37 1515.63
-425.32 2364.77 1515.62
-424.711 2366.7 1515.56
-424.184 2367.86 1515.56
-423.503 2369.11 1515.53
-422.857 2370.11 1515.53
-442.838 2362.84 1514.71
-441.855 2362.16 1514.68
-441.247 2361.71 1514.77
-439.801 2360.41 1514.62
-439.137 2359.86 1514.81
-437.816 2358.48 1514.7
-436.656 2357.32 1514.6
-435.841 2356.62 1514.43
-435.168 2356.29 1514.24
-434.688 2356.46 1514.51
-434.397 2356.57 1514.53
-433.612 2357.19 1514.69
-432.777 2358.18 1514.8
-432.174 2358.77 1514.79
-431.793 2359.05 1514.75
-430.778 2359.86 1514.81
-430.037 2360.11 1514.79
-429.346 2360.38 1514.83
-428.599 2360.52 1514.87
-428.023 2360.74 1514.78
-427.383 2361.1 1514.89
-426.742 2361.92 1514.79
-426.272 2362.74 1514.86
-425.758 2364.28 1514.82
-425.238 2365.78 1514.81
-424.843 2366.79 1514.89
-424.102 2368.5 1514.77
-423.316 2369.84 1514.67
-422.659 2370.69 1514.65
-443.788 2363.35 1514
-442.716 2362.62 1513.99
-441.886 2362.02 1514
-441.08 2361.4 1514.02
-439.912 2360.29 1513.98
-438.849 2359.24 1513.97
-437.697 2358.07 1513.94
-436.703 2357.05 1513.9
-435.633 2356.31 1513.8
-435.248 2356.21 1513.9
-434.801 2356.27 1513.96
-434.251 2356.52 1514
-433.437 2357.22 1514
-432.76 2358.05 1514.01
-432.225 2358.71 1514.01
-431.661 2359.26 1514.05
-430.804 2359.81 1514
-430.114 2360.24 1514.01
-429.356 2360.57 1514.07
-428.708 2360.7 1514.09
-428.004 2361.1 1514.09
-427.46 2361.48 1514.21
-426.763 2362.74 1514.05
-426.329 2363.59 1514.15
-425.757 2365.42 1514.04
-425.25 2366.88 1513.97
-424.785 2367.9 1514.11
-424.152 2369 1514.09
-423.509 2370.01 1514.01
-443.782 2363.37 1513.29
-442.498 2362.45 1513.29
-441.72 2361.79 1513.29
-440.839 2361.07 1513.29
-439.917 2360.18 1513.28
-438.537 2358.74 1513.3
-437.77 2358.02 1513.29
-436.527 2356.83 1513.36
-435.728 2356.33 1513.39
-435.377 2356.14 1513.42
-434.944 2356.08 1513.52
-434.222 2356.54 1513.36
-433.514 2357.27 1513.35
-432.812 2358.11 1513.3
-432.221 2358.82 1513.31
-431.502 2359.59 1513.26
-430.9 2359.96 1513.36
-430.117 2360.58 1513.2
-429.392 2360.87 1513.29
-428.791 2361.04 1513.43
-428.187 2361.47 1513.5
-427.514 2362.19 1513.4
-426.844 2363.68 1513.26
-426.378 2364.89 1513.28
-425.846 2366.54 1513.19
-425.306 2368 1513.05
-424.778 2368.89 1513.18
-424.246 2369.62 1513.31
-423.574 2370.47 1513.25
-444.755 2364.1 1512.45
-443.432 2363.23 1512.54
-442.742 2362.76 1512.51
-441.537 2361.69 1512.53
-440.695 2360.92 1512.51
-439.813 2360.09 1512.5
-438.695 2359.02 1512.53
-437.899 2358.2 1512.52
-436.889 2357.24 1512.64
-435.962 2356.52 1512.73
-435.399 2356.35 1512.62
-434.793 2356.31 1512.82
-434.187 2356.81 1512.69
-433.599 2357.36 1512.66
-432.733 2358.48 1512.44
-432.227 2359.12 1512.51
-431.519 2359.92 1512.45
-430.901 2360.47 1512.41
-430.066 2361.23 1512.14
-429.496 2361.2 1512.64
-428.899 2361.35 1512.84
-428.348 2361.88 1512.76
-427.684 2362.93 1512.65
-427.015 2364.5 1512.51
-426.44 2366.25 1512.4
-425.951 2367.69 1512.32
-425.257 2369.28 1512.11
-424.913 2369.41 1512.51
-424.374 2370.17 1512.55
-444.675 2364.24 1511.75
-443.327 2363.37 1511.94
-442.941 2363.15 1511.78
-441.75 2362.06 1511.84
-440.594 2361 1511.87
-439.908 2360.29 1511.82
-438.978 2359.42 1511.81
-438.028 2358.47 1511.83
-436.949 2357.5 1511.89
-435.966 2356.78 1511.98
-435.396 2356.62 1512.03
-434.815 2356.77 1511.84
-434.329 2356.98 1511.94
-433.471 2357.88 1511.79
-432.76 2358.7 1511.75
-432.296 2359.3 1511.8
-431.718 2360.01 1511.86
-430.775 2361.01 1511.55
-430.149 2361.58 1511.5
-429.579 2361.65 1511.91
-428.958 2361.99 1512.03
-428.333 2363.05 1511.74
-427.751 2363.93 1511.84
-427.127 2365.64 1511.7
-426.634 2367.04 1511.7
-426.086 2368.39 1511.66
-425.443 2369.73 1511.49
-424.9 2370.19 1511.66
-444.599 2364.4 1511
-443.721 2364.03 1511.07
-442.806 2363.32 1511.07
-442.018 2362.68 1511.09
-440.866 2361.53 1511.16
-439.858 2360.55 1511.18
-438.741 2359.49 1511.25
-438.103 2358.91 1511.15
-437.155 2358.06 1511.14
-436.205 2357.39 1511.21
-435.514 2357 1511.34
-434.824 2357.09 1511.2
-434.42 2357.23 1511.34
-433.545 2358.15 1511.08
-432.774 2359.11 1511.02
-432.385 2359.56 1511.13
-431.62 2360.53 1511.07
-430.761 2361.42 1510.85
-430.217 2361.92 1510.87
-429.64 2362.17 1511.14
-429.092 2362.62 1511.21
-428.483 2363.46 1511.16
-427.941 2364.72 1511.02
-427.281 2366.63 1510.88
-426.934 2367.25 1511.07
-426.313 2368.75 1510.95
-425.615 2370.06 1510.83
-425.091 2370.39 1510.99
-444.503 2364.65 1510.42
-443.995 2364.61 1510.19
-442.971 2363.94 1510.33
-442.084 2363.22 1510.32
-441.112 2362.29 1510.37
-439.838 2360.97 1510.48
-438.863 2360.08 1510.49
-437.948 2359.2 1510.51
-437.461 2359.02 1510.23
-436.114 2357.83 1510.54
-435.468 2357.44 1510.64
-434.929 2357.61 1510.43
-434.457 2357.69 1510.54
-433.728 2358.32 1510.41
-432.838 2359.46 1510.23
-432.44 2359.93 1510.31
-431.663 2360.89 1510.25
-430.934 2361.63 1510.19
-430.342 2362.21 1510.21
-429.907 2362.4 1510.48
-429.271 2363.08 1510.44
-428.733 2363.74 1510.54
-428.103 2365.24 1510.36
-427.502 2366.9 1510.3
-427.128 2367.79 1510.41
-426.373 2369.32 1510.24
-425.817 2370.2 1510.25
-425.193 2370.69 1510.3
-444.644 2365.1 1509.69
-444.068 2365.07 1509.49
-443.202 2364.6 1509.6
-442.347 2364.12 1509.53
-441.271 2363.13 1509.63
-440.001 2361.81 1509.79
-439.121 2360.99 1509.79
-438.055 2359.89 1509.89
-437.524 2359.77 1509.56
-436.111 2358.19 1510.14
-435.559 2358.1 1509.98
-435.014 2358.24 1509.82
-434.573 2357.92 1510.13
-433.938 2358.57 1509.88
-433.183 2359.35 1509.69
-432.573 2360.12 1509.67
-432.063 2360.7 1509.75
-431.018 2361.93 1509.49
-430.545 2362.35 1509.62
-429.898 2362.91 1509.67
-429.334 2363.71 1509.69
-428.807 2364.71 1509.73
-428.304 2365.78 1509.73
-427.677 2367.53 1509.65
-426.984 2369.16 1509.37
-426.445 2369.96 1509.41
-425.825 2370.6 1509.46
-444.133 2365.51 1508.69
-443.299 2365.2 1508.8
-442.513 2364.87 1508.78
-441.41 2364.02 1508.93
-440.57 2363.43 1508.85
-439.456 2362.34 1509.02
-438.471 2361.45 1509.03
-437.571 2360.46 1509.12
-436.707 2359.83 1509.08
-435.935 2359.36 1509.14
-435.195 2359.19 1509.18
-434.637 2358.54 1509.58
-434.062 2358.86 1509.47
-433.229 2359.92 1509.01
-432.605 2360.58 1508.96
-431.981 2361.16 1508.99
-431.265 2362.17 1508.78
-430.628 2362.83 1508.82
-429.907 2363.82 1508.73
-429.519 2364.24 1508.96
-428.943 2365.56 1508.9
-428.324 2367.21 1508.82
-427.857 2368.08 1508.91
-427.106 2369.66 1508.67
-426.606 2370.21 1508.8
-443.419 2365.76 1508.02
-442.484 2365.45 1508.13
-441.751 2365.18 1507.99
-441.023 2365.01 1507.8
-439.844 2363.77 1508.22
-438.82 2362.89 1508.27
-437.734 2361.71 1508.47
-437.157 2361.86 1508.22
-436.238 2361.01 1508.31
-435.46 2360.63 1508.34
-434.701 2359.95 1508.54
-434.069 2359.61 1508.76
-433.334 2360.95 1508.16
-432.722 2361.23 1508.22
-432.066 2361.77 1508.24
-431.445 2362.34 1508.29
-430.859 2363.01 1508.27
-430.115 2364.27 1508.19
-429.609 2365.25 1508.19
-429.032 2366.71 1508.12
-428.423 2368.31 1507.96
-427.956 2368.93 1508.14
-427.248 2370.16 1507.98
-426.799 2370.4 1508.18
-426.229 2370.89 1508.27
-442.743 2366.14 1507.18
-441.911 2365.86 1507.27
-441.167 2365.85 1507.03
-440.06 2364.9 1507.52
-439.307 2364.88 1507.38
-438.385 2364.23 1507.45
-437.605 2363.89 1507.38
-436.815 2363.48 1507.34
-435.886 2362.63 1507.46
-434.967 2361.82 1507.66
-434.213 2361.83 1507.64
-433.5 2361.63 1507.74
-432.838 2361.88 1507.6
-432.288 2362.02 1507.79
-431.572 2363.06 1507.6
-431.008 2363.5 1507.77
-430.288 2365.14 1507.48
-429.768 2366.69 1507.27
-429.224 2367.97 1507.23
-428.684 2368.89 1507.29
-428.043 2369.95 1507.25
-427.367 2370.74 1507.18
-440.297 2366.03 1506.63
-439.589 2366.34 1506.55
-438.783 2366.42 1506.33
-438.012 2366.17 1506.35
-437.338 2366.38 1506.17
-436.29 2364.81 1506.64
-435.503 2364.59 1506.59
-434.697 2364.21 1506.62
-433.632 2362.98 1507.11
-433.035 2362.93 1507.13
-432.427 2362.99 1507.22
-431.801 2363.97 1506.93
-431.122 2364.94 1506.88
-430.534 2366.36 1506.75
-429.934 2367.72 1506.64
-429.389 2368.89 1506.59
-428.79 2369.79 1506.59
-428.208 2370.51 1506.61
-427.522 2371.04 1506.63
-440.418 2366.68 1505.95
-439.712 2367.2 1505.75
-438.915 2367.56 1505.6
-438.171 2367.74 1505.5
-437.585 2367.96 1505.5
-436.822 2367.17 1505.67
-436.048 2366.9 1505.69
-434.988 2365.92 1505.95
-433.964 2365 1506.16
-433.243 2364.57 1506.32
-432.609 2364.69 1506.34
-431.94 2365.44 1506.24
-431.37 2366.2 1506.18
-430.775 2367.04 1506.24
-430.247 2368.37 1506.07
-429.57 2369.98 1505.77
-428.913 2371.02 1505.56
-437.043 2368.96 1504.71
-436.317 2368.48 1504.93
-435.401 2367.8 1505.1
-434.46 2367.19 1505.32
-433.596 2366.93 1505.4
-432.91 2366.52 1505.65
-432.31 2366.73 1505.65
-431.67 2368.26 1505.24
-431.027 2368.79 1505.28
-430.34 2370.05 1505.03
-429.684 2370.87 1504.96
-435.73 2369.44 1504.19
-434.941 2369.19 1504.23
-433.985 2368.57 1504.52
-433.229 2368.46 1504.67
-432.471 2368.46 1504.72
-431.822 2369.53 1504.45
-431.11 2370.4 1504.26
-430.458 2371.25 1504.12
-435.018 2370.23 1503.53
-434.31 2370.13 1503.52
-433.595 2370.27 1503.47
-432.709 2370.22 1503.62
-432.002 2370.34 1503.78
-431.328 2371.15 1503.64
-432.903 2371.01 1502.91
