-375.208 2370.37 1612.09
-374.611 2370.71 1611.99
-376.595 2368.97 1611.22
-375.893 2369.08 1611.22
-375.117 2369.33 1611.16
-374.413 2370.09 1611.33
-373.885 2370.19 1611.07
-373.037 2371.72 1611.6
-372.445 2372.11 1611.48
-377.9 2368.24 1610.32
-377.198 2368.22 1610.38
-376.388 2368.12 1610.3
-375.7 2368.3 1610.4
-374.945 2368.18 1610.16
-374.347 2368.69 1610.27
-373.709 2369.03 1610.17
-372.949 2370.36 1610.58
-372.302 2370.8 1610.5
-371.571 2372.18 1611.04
-370.911 2371.86 1610.32
-378.805 2367.97 1609.76
-377.899 2367.81 1609.7
-377.101 2367.7 1609.7
-376.272 2367.42 1609.58
-375.488 2367.16 1609.41
-374.808 2367.44 1609.55
-374.104 2367.27 1609.21
-373.511 2367.88 1609.42
-372.829 2368.73 1609.64
-372.149 2369.65 1609.8
-371.443 2370.93 1610.1
-370.777 2370.77 1609.57
-370.079 2371.68 1609.7
-369.272 2372.67 1609.83
-382.452 2366.95 1608.96
-381.809 2367.23 1609
-381.113 2367.44 1609
-380.375 2367.7 1609.03
-379.587 2367.73 1609.16
-378.72 2367.55 1608.98
-377.833 2367.3 1608.97
-377.027 2367.04 1608.96
-376.172 2366.58 1608.81
-375.272 2366.12 1608.51
-374.713 2366.34 1608.71
-373.959 2366.4 1608.61
-373.307 2367.11 1608.88
-372.622 2367.9 1609.08
-371.85 2368.35 1609.01
-371.225 2369.03 1609.05
-370.553 2369.21 1608.64
-369.988 2370.41 1608.77
-369.193 2371.89 1609.01
-368.458 2373.06 1609.18
-368.05 2373.45 1609.08
-383.318 2366.75 1608.2
-382.486 2366.95 1608.2
-381.723 2367.17 1608.24
-381.062 2367.31 1608.25
-380.386 2367.34 1608.31
-379.615 2367.36 1608.41
-378.767 2367.11 1608.38
-377.744 2366.61 1608.28
-376.954 2366.28 1608.33
-375.98 2365.57 1608
-375.301 2365.59 1608.11
-374.504 2365.15 1607.87
-373.802 2365.71 1608.09
-373.12 2365.75 1608.02
-372.339 2366.6 1608.29
-371.7 2366.7 1608.1
-371.026 2367.33 1608.05
-370.391 2367.46 1607.76
-369.841 2368.78 1607.79
-369.212 2370.15 1607.9
-368.507 2372.2 1608.3
-368.021 2372.98 1608.25
-367.494 2373.86 1608.34
-383.959 2366.58 1607.51
-383.258 2366.82 1607.5
-382.499 2366.89 1607.5
-381.801 2366.99 1607.65
-381.092 2367.01 1607.58
-380.296 2367.03 1607.58
-379.554 2366.89 1607.68
-378.597 2366.39 1607.58
-377.466 2365.45 1607.33
-376.662 2364.97 1607.3
-375.897 2364.61 1607.38
-375.214 2364.72 1607.52
-374.314 2363.94 1607.08
-373.595 2364.49 1607.32
-372.926 2364.48 1607.18
-372.203 2364.91 1607.29
-371.472 2365.11 1607.11
-370.841 2365.56 1607
-370.261 2366.17 1606.91
-369.677 2367.37 1606.98
-369.219 2368.78 1607.04
-368.473 2371.37 1607.43
-367.97 2372.57 1607.55
-367.211 2373.96 1607.64
-384.702 2366.31 1606.7
-383.956 2366.5 1606.72
-383.261 2366.64 1606.81
-382.498 2366.6 1606.74
-381.801 2366.69 1606.85
-381 2366.5 1606.7
-380.236 2366.37 1606.8
-379.286 2365.82 1606.68
-378.072 2364.75 1606.4
-377.09 2364.05 1606.39
-376.287 2363.4 1606.31
-375.664 2363.22 1606.43
-374.89 2362.84 1606.29
-374.124 2362.62 1606.16
-373.448 2362.93 1606.29
-372.736 2363.29 1606.37
-372.019 2363.84 1606.54
-371.394 2364.06 1606.4
-370.724 2364.56 1606.37
-370.149 2364.66 1606.03
-369.407 2366.49 1606.31
-369.121 2367.78 1606.35
-368.411 2370.46 1606.72
-367.93 2372.15 1606.77
-367.133 2373.9 1606.93
-384.633 2366.13 1606.09
-384.019 2366.29 1606.24
-383.288 2366.34 1606.17
-382.403 2366.26 1606.07
-381.596 2366.12 1605.98
-380.951 2366.1 1606.16
-380.277 2365.94 1606.22
-379.099 2364.9 1605.9
-377.718 2363.51 1605.5
-376.804 2362.85 1605.58
-376.046 2362.29 1605.53
-375.269 2361.79 1605.46
-374.536 2361.62 1605.43
-373.958 2361.75 1605.45
-373.293 2361.64 1605.28
-372.578 2362.42 1605.65
-371.886 2362.98 1605.83
-371.229 2363.34 1605.76
-370.562 2363.7 1605.6
-369.936 2364.16 1605.44
-369.347 2365.69 1605.65
-368.903 2367.3 1605.75
-368.251 2370.21 1605.99
-367.873 2371.92 1606.09
-367.284 2373.39 1606.1
-366.648 2374.56 1606.2
-384.6 2365.7 1605.2
-383.988 2365.88 1605.47
-383.203 2365.83 1605.38
-382.304 2365.66 1605.23
-381.46 2365.34 1605.07
-380.985 2365.52 1605.44
-380.215 2365.28 1605.49
-379.18 2364.4 1605.29
-377.626 2362.85 1604.89
-376.456 2361.87 1604.74
-375.998 2361.68 1604.89
-375.103 2361.14 1604.7
-374.406 2360.94 1604.65
-373.887 2361.05 1604.72
-373.268 2361.09 1604.66
-372.486 2361.78 1605.02
-371.731 2362.29 1605.09
-371.235 2362.3 1604.76
-370.455 2363.19 1604.95
-369.827 2363.9 1604.92
-369.197 2365.14 1604.95
-368.681 2367.44 1605.14
-368.119 2370.08 1605.31
-367.687 2371.97 1605.31
-367.157 2373.53 1605.41
-366.709 2374.41 1605.4
-365.97 2375.49 1605.49
-386.083 2365.26 1604.61
-385.217 2365.12 1604.3
-384.501 2365.23 1604.48
-383.807 2365.27 1604.61
-382.998 2365.11 1604.49
-382.204 2365.08 1604.52
-381.252 2364.47 1604.23
-380.786 2364.75 1604.63
-379.997 2364.23 1604.55
-379.065 2363.61 1604.47
-377.599 2362.38 1604.17
-376.562 2361.59 1604.21
-375.887 2361.21 1604.26
-375.304 2360.99 1604.3
-374.375 2360.73 1604.13
-373.731 2360.7 1604.09
-373.153 2360.93 1604.16
-372.56 2361.08 1604.13
-371.653 2361.73 1604.34
-371.08 2362.05 1604.16
-370.459 2362.6 1604.18
-369.774 2363.2 1604.12
-369.113 2364.7 1604.31
-368.575 2367.31 1604.49
-368.178 2369.61 1604.49
-367.686 2371.7 1604.6
-367.114 2373.52 1604.71
-366.593 2374.62 1604.7
-365.985 2375.5 1604.69
-386.794 2364.89 1603.68
-385.993 2364.89 1603.67
-385.148 2364.68 1603.52
-384.505 2364.75 1603.74
-383.587 2364.46 1603.65
-383.031 2364.55 1603.85
-382.083 2364.17 1603.63
-381.299 2364 1603.7
-380.771 2364.13 1603.96
-379.853 2363.5 1603.79
-378.969 2362.89 1603.67
-377.808 2362.19 1603.6
-376.73 2361.52 1603.57
-376.071 2361.16 1603.6
-375.234 2360.82 1603.51
-374.481 2360.62 1603.51
-373.725 2360.58 1603.53
-373.051 2360.73 1603.51
-372.541 2360.88 1603.4
-371.592 2361.39 1603.5
-370.95 2361.78 1603.47
-370.386 2362.25 1603.49
-369.726 2362.85 1603.42
-369.061 2364.32 1603.51
-368.64 2366.74 1603.68
-368.18 2369.03 1603.8
-367.755 2371.41 1603.8
-367.288 2373.13 1603.9
-366.332 2374.96 1603.99
-386.792 2364.69 1602.99
-385.712 2364.53 1602.85
-385.042 2364.44 1602.92
-384.423 2364.3 1603.05
-383.392 2363.7 1602.68
-382.941 2363.97 1603.11
-381.687 2363.06 1602.5
-381.058 2363.05 1602.67
-380.536 2363.3 1603.07
-379.716 2362.85 1602.94
-378.865 2362.55 1602.98
-377.763 2361.97 1602.89
-376.987 2361.52 1602.82
-376.153 2361.15 1602.81
-375.073 2360.78 1602.84
-374.444 2360.64 1602.83
-373.8 2360.59 1602.79
-373.074 2360.66 1602.79
-372.412 2360.84 1602.8
-371.623 2361.25 1602.8
-370.899 2361.6 1602.8
-370.257 2362.08 1602.78
-369.538 2362.76 1602.75
-369.153 2363.88 1602.85
-368.789 2365.63 1602.87
-368.358 2368.47 1603.03
-367.815 2371.32 1603.11
-367.342 2373.05 1603.21
-366.45 2374.85 1603.19
-365.975 2375.57 1603.2
-387.585 2364.66 1602.32
-386.848 2364.62 1602.35
-385.835 2364.41 1602.18
-385.061 2364.2 1602.18
-384.345 2363.88 1602.25
-383.489 2363.42 1602.19
-382.584 2363.03 1602.05
-381.712 2362.7 1601.96
-380.965 2362.35 1601.79
-380.4 2362.6 1602.2
-379.654 2362.5 1602.39
-378.784 2362.11 1602.21
-377.551 2361.65 1602.03
-376.902 2361.4 1602.1
-376.131 2361.1 1602.1
-375.446 2360.93 1602.1
-374.612 2360.7 1602.1
-373.804 2360.59 1602.09
-373.046 2360.7 1602.02
-372.381 2360.87 1602.01
-371.671 2361.16 1602.1
-370.905 2361.51 1602.1
-370.306 2361.96 1602.09
-369.72 2362.51 1602.07
-369.351 2363.17 1602.03
-368.829 2365.6 1602.26
-368.448 2368.38 1602.38
-367.775 2371.62 1602.41
-367.287 2373.23 1602.41
-366.675 2374.58 1602.5
-365.997 2375.51 1602.5
-386.94 2364.55 1601.52
-385.997 2364.41 1601.5
-385.276 2364.12 1601.52
-384.1 2363.47 1601.46
-383.291 2363.08 1601.44
-382.405 2362.45 1601.24
-381.593 2362.17 1601.16
-380.9 2362 1601.24
-380.214 2362 1601.29
-379.641 2362.05 1601.55
-378.71 2361.84 1601.42
-377.567 2361.55 1601.33
-376.911 2361.36 1601.4
-375.855 2361.06 1601.34
-375.294 2360.92 1601.3
-374.633 2360.79 1601.29
-373.8 2360.69 1601.3
-373.044 2360.77 1601.32
-372.376 2360.91 1601.32
-371.648 2361.21 1601.3
-370.949 2361.49 1601.31
-370.241 2362.06 1601.31
-369.798 2362.45 1601.35
-369.333 2363.79 1601.53
-368.838 2366.55 1601.6
-368.365 2369.54 1601.65
-367.794 2371.73 1601.61
-367.2 2373.55 1601.7
-366.679 2374.49 1601.7
-366.033 2375.44 1601.81
-387.61 2364.47 1600.79
-386.818 2364.49 1600.82
-385.875 2364.27 1600.8
-385.294 2364.02 1600.82
-384.208 2363.39 1600.7
-383.219 2362.76 1600.65
-382.485 2362.29 1600.66
-381.386 2361.87 1600.45
-380.863 2361.78 1600.58
-380.209 2361.73 1600.66
-379.5 2361.71 1600.71
-378.596 2361.67 1600.6
-377.821 2361.57 1600.6
-376.908 2361.35 1600.6
-375.894 2361.12 1600.65
-375.232 2360.98 1600.64
-374.574 2360.83 1600.63
-373.798 2360.82 1600.61
-373.038 2360.83 1600.63
-372.372 2360.97 1600.63
-371.547 2361.29 1600.59
-370.995 2361.57 1600.63
-370.299 2362.13 1600.63
-369.872 2362.72 1600.75
-369.136 2366.01 1600.71
-368.674 2368.3 1600.79
-368.042 2370.84 1600.87
-367.768 2372.19 1600.9
-366.952 2373.94 1601.03
-366.435 2374.8 1601.06
-366.132 2375.13 1600.99
-365.315 2376.12 1601.01
-386.891 2364.49 1600.11
-386.04 2364.25 1600
-385.27 2363.91 1600.02
-384.153 2363.27 1599.99
-383.35 2362.77 1600
-382.611 2362.28 1600
-381.164 2361.72 1599.98
-380.733 2361.66 1599.91
-380.2 2361.64 1599.89
-379.433 2361.56 1599.92
-378.497 2361.62 1599.97
-377.696 2361.53 1599.91
-376.909 2361.45 1599.89
-376.11 2361.36 1599.89
-375.383 2361.17 1599.91
-374.56 2360.97 1599.95
-373.795 2360.88 1599.93
-373.117 2360.91 1599.94
-372.412 2361.05 1599.91
-371.697 2361.31 1599.94
-371.011 2361.76 1599.94
-370.333 2362.43 1599.97
-369.787 2363.69 1599.97
-368.969 2367.15 1599.92
-368.491 2369.41 1600.05
-367.871 2371.83 1600.23
-367.597 2372.63 1600.26
-366.99 2373.72 1600.31
-366.399 2374.6 1600.41
-365.974 2375.1 1600.33
-365.188 2376.11 1600.34
-364.799 2376.6 1600.3
-387.515 2364.48 1599.29
-386.803 2364.47 1599.3
-386.023 2364.22 1599.3
-385.219 2363.93 1599.3
-384.148 2363.28 1599.31
-383.15 2362.65 1599.24
-382.591 2362.32 1599.2
-381.389 2361.87 1599.41
-380.698 2361.72 1599.36
-380.3 2361.75 1599.19
-379.515 2361.8 1599.24
-378.51 2361.7 1599.38
-377.804 2361.8 1599.17
-376.918 2361.67 1599.15
-376.215 2361.54 1599.18
-375.355 2361.36 1599.15
-374.525 2361.17 1599.24
-373.901 2361.09 1599.1
-373.119 2361.02 1599.14
-372.397 2361.19 1599.1
-371.779 2361.46 1599.18
-371.08 2362 1599.13
-370.377 2362.98 1599.19
-369.739 2364.98 1599.18
-369.022 2367.87 1599.28
-368.393 2370.37 1599.46
-367.809 2371.79 1599.63
-367.478 2372.63 1599.64
-367.02 2373.22 1599.61
-366.65 2373.84 1599.47
-365.952 2374.86 1599.52
-365.215 2375.95 1599.63
-364.657 2376.66 1599.6
-387.582 2364.45 1598.6
-386.806 2364.47 1598.59
-386.025 2364.32 1598.6
-385.056 2363.87 1598.51
-383.978 2363.29 1598.6
-383.256 2362.89 1598.6
-382.489 2362.46 1598.62
-381.607 2362.21 1598.68
-380.849 2361.98 1598.73
-380.301 2362.05 1598.59
-379.503 2362.07 1598.54
-378.708 2362.04 1598.55
-377.923 2362.12 1598.31
-377.037 2361.99 1598.37
-376.148 2361.79 1598.48
-375.52 2361.64 1598.38
-374.7 2361.4 1598.4
-373.888 2361.27 1598.42
-373.115 2361.21 1598.42
-372.455 2361.32 1598.45
-371.747 2361.66 1598.45
-371.174 2362.19 1598.47
-370.467 2363.24 1598.42
-369.58 2365.81 1598.45
-369.029 2368.29 1598.67
-368.355 2370.21 1598.89
-368.109 2371.01 1598.86
-367.416 2372.14 1598.95
-367.043 2372.6 1598.8
-366.612 2373.17 1598.63
-366.024 2374.39 1598.74
-365.472 2375.2 1598.74
-364.621 2376.64 1598.8
-364.012 2377.51 1598.88
-387.593 2364.58 1597.9
-386.971 2364.77 1597.77
-385.985 2364.45 1597.82
-384.947 2363.97 1597.88
-383.659 2363.24 1598.16
-383.511 2363.37 1597.79
-382.639 2362.9 1597.94
-381.754 2362.63 1597.97
-381.091 2362.67 1597.86
-380.395 2362.6 1597.78
-379.593 2362.5 1597.85
-378.797 2362.55 1597.74
-377.891 2362.4 1597.76
-377.134 2362.39 1597.59
-376.169 2362.09 1597.74
-375.674 2361.98 1597.62
-374.929 2361.74 1597.58
-373.842 2361.39 1597.78
-373.202 2361.38 1597.72
-372.449 2361.47 1597.73
-371.753 2361.89 1597.72
-371.224 2362.32 1597.76
-370.499 2363.7 1597.7
-369.551 2366.33 1597.83
-368.984 2368.54 1598.15
-368.458 2369.61 1598.18
-368.09 2370.33 1598.09
-367.594 2370.8 1597.91
-367.068 2371.46 1597.83
-366.455 2372.73 1597.96
-365.988 2373.69 1597.9
-365.402 2375.06 1597.97
-364.674 2376.48 1598.1
-364.094 2377.37 1598.11
-387.599 2364.7 1597.1
-386.892 2364.9 1597.06
-386.137 2364.86 1597
-385.004 2364.29 1597.19
-383.989 2363.74 1597.35
-383.599 2363.7 1597.1
-382.801 2363.5 1597.1
-381.999 2363.41 1597.01
-381.182 2363.27 1597.16
-380.5 2363.4 1597
-379.692 2363.21 1597.11
-379.008 2363.42 1596.91
-377.834 2362.81 1597.25
-376.955 2362.67 1597.11
-376.277 2362.56 1597.04
-375.451 2362.13 1597.06
-374.858 2361.96 1596.95
-373.986 2361.67 1597.02
-373.127 2361.6 1597.01
-372.53 2361.63 1597.02
-371.753 2362.13 1596.98
-371.264 2362.47 1597.07
-370.462 2364.09 1597
-369.57 2366.58 1597.23
-369.085 2367.91 1597.33
-368.516 2369.14 1597.53
-368.014 2369.52 1597.29
-367.603 2369.71 1596.97
-367.139 2370.27 1596.84
-366.519 2371.48 1596.94
-365.914 2372.8 1597.07
-365.299 2374.84 1597.27
-364.625 2376.46 1597.41
-363.784 2377.83 1597.36
-387.548 2365.06 1596.23
-386.888 2365.12 1596.37
-386.284 2365.29 1596.12
-385.262 2364.79 1596.45
-384.381 2364.45 1596.44
-383.704 2364.28 1596.29
-382.907 2364.14 1596.25
-382.198 2364.3 1596.06
-381.306 2363.96 1596.46
-380.612 2364 1596.41
-379.899 2364.17 1596.26
-379.197 2364.62 1595.91
-378.089 2363.94 1596.35
-377.154 2363.5 1596.4
-376.335 2363.03 1596.4
-375.53 2362.63 1596.38
-374.637 2362.16 1596.36
-373.988 2362.05 1596.22
-373.21 2361.83 1596.3
-372.589 2361.8 1596.46
-371.813 2362.23 1596.21
-371.282 2362.68 1596.25
-370.534 2364.11 1596.3
-369.628 2366.14 1596.39
-369.204 2367.27 1596.49
-368.64 2368.04 1596.37
-367.927 2368.91 1596.47
-367.526 2369.07 1596.17
-367.01 2369.58 1596.06
-366.511 2370.37 1596.09
-365.927 2371.93 1596.32
-365.224 2374.41 1596.59
-364.651 2376.28 1596.6
-386.892 2365.74 1595.49
-386.222 2365.48 1595.63
-385.422 2365.34 1595.67
-384.423 2364.92 1595.74
-383.814 2364.84 1595.56
-382.883 2364.5 1595.82
-382.276 2364.86 1595.42
-381.416 2364.68 1595.68
-380.78 2364.94 1595.54
-380.058 2365.23 1595.4
-379.27 2365.37 1595.31
-378.462 2365.25 1595.28
-377.637 2364.89 1595.33
-376.918 2364.44 1595.31
-375.931 2363.64 1595.46
-374.767 2362.64 1595.65
-373.873 2362.29 1595.7
-373.212 2362.06 1595.65
-372.561 2362.05 1595.76
-371.865 2362.44 1595.55
-371.297 2362.9 1595.56
-370.725 2363.66 1595.54
-370.017 2365.16 1595.59
-369.247 2366.86 1595.62
-368.654 2367.45 1595.52
-367.88 2368.37 1595.71
-367.369 2368.79 1595.66
-367.004 2369.17 1595.5
-366.453 2369.93 1595.5
-365.762 2371.78 1595.61
-365.316 2373.96 1595.76
-364.57 2376.09 1595.9
-364.001 2377.54 1595.9
-386.304 2365.97 1594.88
-385.576 2365.9 1594.78
-384.373 2365.29 1595.13
-383.928 2365.37 1594.82
-382.923 2364.86 1595.3
-382.32 2365.14 1595.01
-381.531 2365.3 1594.99
-380.903 2365.51 1594.91
-380.178 2366.1 1594.62
-379.415 2366.29 1594.47
-378.637 2366.13 1594.57
-377.939 2365.85 1594.54
-377.059 2365.19 1594.64
-376.02 2364.37 1594.68
-375.116 2363.58 1594.78
-373.912 2362.59 1595.1
-373.411 2362.62 1594.75
-372.651 2362.44 1594.92
-371.868 2362.66 1594.88
-371.396 2363.05 1594.93
-370.768 2363.64 1594.91
-370.002 2364.92 1594.81
-369.219 2366.41 1594.89
-368.587 2367.18 1594.87
-367.865 2367.96 1594.91
-367.364 2368.47 1594.87
-366.94 2368.92 1594.84
-366.375 2369.77 1594.84
-365.759 2371.57 1594.98
-365.352 2373.17 1594.97
-364.547 2376.15 1595.11
-363.967 2377.62 1595.2
-363.463 2378.45 1595.2
-385.532 2366.33 1594.16
-384.529 2365.79 1594.32
-384.055 2365.88 1594.06
-383.038 2365.39 1594.52
-382.318 2365.68 1594.25
-381.606 2365.92 1594.21
-380.955 2366.11 1594.28
-380.273 2366.43 1594.14
-379.44 2366.98 1593.65
-378.762 2366.76 1593.83
-378.091 2366.46 1593.89
-377.083 2365.77 1594.06
-376.073 2364.92 1594.04
-374.989 2363.93 1594.21
-374.051 2363.25 1594.3
-373.497 2363.11 1594.11
-372.648 2362.79 1594.31
-371.95 2362.96 1594.27
-371.327 2363.51 1594.1
-370.645 2364.14 1594.12
-370.086 2364.99 1594.15
-369.207 2366.31 1594.1
-368.557 2367.05 1594.09
-367.818 2367.92 1594.21
-367.566 2368.15 1594.2
-366.753 2369.04 1594.2
-366.314 2369.83 1594.21
-366.003 2370.73 1594.26
-365.431 2373.38 1594.34
-364.607 2376 1594.4
-363.806 2377.98 1594.4
-363.347 2378.75 1594.49
-385.545 2366.71 1593.58
-384.803 2366.49 1593.5
-383.853 2366.07 1593.7
-383.195 2366.08 1593.6
-382.402 2366.21 1593.51
-381.722 2366.36 1593.55
-381.094 2366.57 1593.64
-380.356 2366.84 1593.6
-379.555 2367.13 1593.35
-378.958 2367.15 1593.18
-377.946 2366.64 1593.39
-377.25 2366.35 1593.27
-375.923 2365.29 1593.45
-375.137 2364.68 1593.45
-374.332 2364.11 1593.38
-373.436 2363.59 1593.45
-372.72 2363.28 1593.65
-372.016 2363.46 1593.6
-371.361 2363.79 1593.5
-370.808 2364.31 1593.44
-370.213 2364.93 1593.49
-369.233 2366.23 1593.41
-368.542 2367.13 1593.4
-368.012 2367.8 1593.43
-367.323 2368.62 1593.41
-366.857 2369.11 1593.57
-366.394 2370.05 1593.62
-366.051 2370.86 1593.66
-365.414 2373.77 1593.65
-364.75 2376.15 1593.64
-364.101 2377.7 1593.7
-363.46 2378.64 1593.71
-385.526 2367.25 1592.93
-384.654 2366.87 1593
-383.937 2366.66 1593.01
-383.209 2366.49 1593.09
-382.531 2366.76 1592.84
-381.835 2366.99 1592.78
-381.139 2367.2 1592.78
-380.397 2367.49 1592.69
-379.692 2367.52 1592.61
-378.893 2367.4 1592.6
-377.819 2366.86 1592.69
-376.921 2366.37 1592.69
-376.006 2365.73 1592.76
-375.328 2365.26 1592.68
-374.533 2364.84 1592.55
-373.557 2364.3 1592.69
-372.777 2364.09 1592.76
-372.078 2363.95 1592.9
-371.462 2364.15 1592.89
-370.817 2364.83 1592.71
-370.215 2365.38 1592.79
-369.397 2366.36 1592.69
-368.675 2367.23 1592.77
-368.251 2367.69 1592.84
-367.322 2369.14 1592.65
-366.9 2369.54 1592.8
-366.573 2370.2 1592.99
-366.158 2371.32 1593.15
-365.588 2373.71 1593.01
-364.905 2376.37 1592.99
-364.491 2377.34 1593.07
-363.567 2378.85 1593.02
-384.777 2367.59 1592.29
-384.174 2367.6 1592.11
-383.293 2367.14 1592.43
-382.7 2367.6 1592
-381.889 2367.45 1592.24
-381.211 2367.76 1592.05
-380.576 2368.03 1591.87
-379.848 2368.1 1591.72
-378.877 2367.6 1591.94
-377.903 2367.21 1591.96
-376.774 2366.5 1592.06
-376.195 2366.21 1591.9
-375.416 2365.77 1591.88
-374.565 2365.28 1591.96
-373.769 2364.97 1591.97
-372.858 2364.62 1592.23
-372.219 2364.71 1592.12
-371.509 2364.86 1592.16
-370.771 2365.67 1591.87
-370.205 2365.89 1592.18
-369.438 2366.91 1591.99
-368.856 2367.49 1592.12
-368.303 2368.21 1592.26
-367.639 2369.25 1592.19
-367.038 2370.96 1592.12
-366.544 2371.89 1592.28
-366.166 2372.93 1592.39
-365.74 2374.75 1592.43
-365.136 2376.36 1592.43
-364.466 2377.78 1592.35
-363.452 2379.38 1592.24
-384.412 2368.55 1591.24
-383.6 2368.2 1591.43
-382.801 2368.41 1591.31
-382.048 2368.15 1591.6
-381.405 2368.61 1591.2
-380.605 2368.57 1591.2
-379.863 2368.4 1591.17
-378.585 2367.72 1591.39
-377.854 2367.48 1591.33
-376.891 2366.89 1591.28
-376.138 2366.53 1591.27
-375.482 2366.24 1591.23
-374.522 2365.73 1591.37
-373.876 2365.69 1591.29
-372.965 2365.27 1591.59
-372.315 2365.61 1591.34
-371.664 2365.37 1591.68
-370.929 2366.07 1591.42
-370.263 2366.76 1591.41
-369.609 2367.35 1591.5
-368.898 2368.62 1591.39
-368.276 2369.59 1591.47
-367.805 2370.49 1591.52
-367.293 2372.63 1591.41
-366.746 2374.31 1591.45
-366.288 2375.26 1591.6
-365.71 2376.6 1591.63
-365.166 2377.4 1591.83
-364.275 2379.07 1591.48
-363.645 2379.65 1591.53
-383.797 2369.34 1590.53
-382.999 2369.29 1590.59
-382.201 2369.25 1590.67
-381.609 2369.56 1590.42
-380.817 2369.32 1590.52
-379.783 2368.74 1590.63
-378.651 2368.16 1590.65
-377.567 2367.57 1590.71
-376.857 2367.18 1590.64
-376.21 2366.91 1590.63
-375.235 2366.36 1590.82
-374.657 2366.42 1590.7
-374.002 2366.58 1590.47
-373.2 2366.36 1590.58
-372.425 2366.42 1590.68
-371.772 2366.5 1590.78
-371.115 2366.88 1590.77
-370.341 2368.04 1590.57
-369.683 2368.62 1590.74
-369.011 2370.3 1590.61
-368.518 2371.61 1590.62
-367.995 2372.83 1590.73
-367.524 2374.97 1590.59
-366.968 2376.53 1590.51
-366.393 2377.42 1590.55
-365.69 2378.29 1590.65
-365.015 2379 1590.69
-364.374 2379.69 1590.67
-383.088 2370.14 1589.84
-382.361 2370.45 1589.56
-381.612 2370.18 1589.75
-380.957 2370.2 1589.71
-379.895 2369.51 1589.91
-378.954 2368.97 1589.86
-377.768 2368.21 1589.94
-377.123 2367.85 1589.91
-376.185 2367.33 1590.06
-375.579 2367.26 1589.95
-374.778 2367.07 1590.06
-374.198 2367.37 1589.76
-373.469 2367.71 1589.55
-372.608 2367.53 1589.84
-371.93 2367.76 1589.9
-371.296 2368.04 1590.04
-370.573 2369.16 1589.93
-369.934 2370.61 1589.85
-369.264 2372.96 1589.72
-368.812 2374.17 1589.78
-368.322 2375.01 1589.93
-367.71 2377.07 1589.74
-367.134 2377.95 1589.77
-366.478 2378.75 1589.73
-365.774 2379.33 1589.84
-365.104 2379.82 1589.87
-364.567 2379.93 1590.17
-383.24 2370.88 1589.04
-382.457 2371.01 1589.03
-381.777 2371.03 1589.03
-381.123 2371.06 1588.94
-380.297 2370.68 1588.95
-378.984 2369.65 1589.26
-378.092 2369.21 1589.11
-377.103 2368.4 1589.3
-376.452 2368.24 1589.25
-375.787 2368.11 1589.22
-374.903 2367.88 1589.32
-374.301 2368.21 1589.11
-373.57 2368.59 1588.93
-372.79 2368.24 1589.37
-372.154 2368.79 1589.26
-371.441 2369.07 1589.43
-370.852 2370.3 1589.35
-370.143 2372.68 1589.13
-369.559 2374.85 1589.03
-369.057 2376.33 1589.03
-368.544 2376.86 1589.23
-367.952 2377.86 1589.24
-367.257 2378.82 1589.14
-366.634 2379.2 1589.23
-365.978 2379.56 1589.28
-383.227 2371.39 1588.38
-382.608 2371.53 1588.42
-381.85 2371.73 1588.35
-381.192 2371.86 1588.27
-380.382 2371.73 1588.09
-379.275 2370.84 1588.45
-378.209 2370.02 1588.58
-377.302 2369.3 1588.69
-376.624 2369.12 1588.6
-375.772 2368.8 1588.7
-375.116 2368.89 1588.58
-374.476 2369.49 1588.23
-373.735 2369.22 1588.49
-372.988 2369.31 1588.63
-372.358 2370.16 1588.53
-371.71 2370.6 1588.61
-371.115 2372.61 1588.42
-370.385 2374.76 1588.37
-369.852 2376.32 1588.33
-369.206 2377.72 1588.28
-368.629 2378.31 1588.41
-368.127 2378.53 1588.63
-382.672 2371.96 1587.82
-381.923 2372.47 1587.52
-381.237 2372.64 1587.49
-380.484 2372.81 1587.31
-379.498 2371.9 1587.71
-378.317 2371.12 1587.89
-377.531 2370.63 1587.91
-376.849 2370.44 1587.83
-375.969 2369.86 1588.02
-375.399 2370.27 1587.72
-374.614 2370.28 1587.75
-373.923 2370.47 1587.72
-373.174 2370.73 1587.83
-372.588 2371.38 1587.88
-371.999 2372.55 1587.84
-371.368 2374.49 1587.66
-370.641 2375.97 1587.74
-370.001 2377.55 1587.59
-369.396 2378.29 1587.68
-382.792 2372.36 1587.09
-381.993 2373.02 1586.75
-381.336 2373.14 1586.87
-380.64 2373.43 1586.62
-379.738 2373.05 1586.84
-378.72 2372.65 1586.93
-377.756 2371.98 1587.14
-377.101 2371.9 1587
-376.386 2371.66 1587.02
-375.598 2371.73 1586.96
-374.814 2371.5 1587.09
-374.136 2371.7 1587.11
-373.445 2371.62 1587.34
-372.879 2372.73 1587.22
-372.226 2374.31 1587.03
-371.527 2375.71 1587.03
-370.837 2377.3 1586.94
-370.19 2378.28 1586.98
-381.444 2373.49 1586.36
-380.659 2373.93 1585.98
-379.816 2373.88 1586.07
-378.937 2373.75 1586.08
-378.112 2373.36 1586.25
-377.287 2373.06 1586.29
-376.727 2373.32 1586.06
-375.905 2373.23 1586.1
-375.104 2373.03 1586.26
-374.263 2372.85 1586.53
-373.696 2372.84 1586.75
-373.046 2374.43 1586.37
-372.408 2375.7 1586.31
-371.709 2376.9 1586.31
-379.9 2374.28 1585.49
-379.011 2374.28 1585.43
-378.202 2374.26 1585.47
-377.498 2374.05 1585.55
-376.798 2374.22 1585.42
-376.075 2374.43 1585.2
-375.287 2374.32 1585.41
-374.48 2373.9 1585.89
-373.934 2374.66 1585.79
-373.191 2375.79 1585.59
-372.598 2376.46 1585.7
-378.285 2374.67 1584.74
-377.579 2374.79 1584.73
-376.892 2374.84 1584.75
-376.101 2375.25 1584.51
-375.386 2375.17 1584.77
-374.73 2374.96 1585.18
-373.986 2376.08 1584.78
-373.339 2376.74 1584.85
-377.685 2375.14 1584.08
-376.896 2375.28 1584.09
-376.113 2375.8 1583.79
-375.522 2375.66 1584.15
-374.88 2375.81 1584.39
-374.067 2376.84 1583.96
-374.954 2376.58 1583.45
