-355.341 2440.51 1311.01
-356.425 2440.07 1307.81
-354.741 2440.27 1313.85
-355.407 2439.25 1312.78
-356.689 2440.16 1306.5
-357.073 2442.26 1293.93
-357.179 2439.84 1303.92
-355.313 2438.96 1313.89
-356.056 2439.39 1310.2
-357.138 2439.45 1305.81
-356.908 2441.23 1300.38
-357.159 2440.2 1301.34
-357.671 2440.05 1294.44
-357.497 2439.12 1301.35
-354.363 2440.3 1315.7
-356.002 2438.19 1312.46
-357.476 2440.19 1295.61
-357.446 2439.71 1297.86
-357.237 2438.47 1308
-356.639 2438.29 1310.24
-357.598 2438.5 1305.99
-357.722 2439.07 1296.89
-358.053 2438.73 1295.31
-357.465 2441.55 1293.05
-354.03 2440.58 1317.13
-354.788 2439.31 1316.16
-357.591 2438.87 1304.29
-357.788 2438.34 1302.01
-354.559 2439.48 1317.21
-354.408 2439.63 1318.69
-357.717 2438.55 1299.17
-355.667 2438.15 1314.46
-358.004 2437.84 1299.83
-358.112 2439.01 1294.27
-355.111 2438.64 1317.34
-355.426 2438.35 1315.86
-357.744 2438 1307.13
-358.155 2437.73 1305.48
-358.237 2437.93 1297
-357.924 2440.76 1292.51
-357.826 2441.89 1291.43
-356.31 2437.43 1313.82
-356.295 2437.4 1314.84
-358.2 2437.71 1298.54
-355.038 2438.84 1319.05
-356.736 2437.28 1312.18
-358.38 2437.26 1303.02
-356.043 2437.63 1316.98
-357.863 2437.56 1308.1
-358.521 2437.07 1307.51
-358.43 2437.05 1300.55
-357.273 2437.45 1310.13
-358.282 2437.42 1306.46
-358.612 2436.95 1299.35
-356.615 2437.1 1315.74
-355.68 2438.05 1318.01
-357.161 2436.76 1313.03
-358.573 2437.59 1295.88
-358.896 2436.8 1305.34
-359.147 2436.45 1303.23
-358.527 2438.79 1293.36
-355.742 2438.35 1319.72
-357.798 2436.44 1312.31
-359.116 2436.32 1300.85
-358.636 2438.09 1294.25
-356.465 2437.49 1318.66
-356.883 2436.99 1317.2
-357.218 2436.9 1318.16
-359.316 2437.98 1293.39
-358.585 2439.97 1292.1
-358.88 2436.92 1297.82
-357.528 2436.5 1316.22
-358.078 2436.71 1310.21
-359.109 2436.48 1308.27
-359.048 2436.65 1306.38
-359.104 2437.04 1296.55
-358.566 2441.55 1290.74
-357.127 2436.69 1314.64
-358.125 2436.14 1314.52
-359.467 2439.98 1291.56
-356.692 2437.59 1319.73
-358.292 2436.11 1315.59
-359.103 2437.42 1295.02
-358.377 2436.4 1318.68
-358.003 2436.24 1313.3
-359.195 2438.92 1292.5
-357.888 2436.41 1317.4
-357.616 2436.88 1319.21
-358.794 2436 1312.5
-359.773 2436.31 1307.18
-359.334 2436.24 1299.6
-359.686 2437.4 1294.15
-358.951 2436.24 1310.35
-360.163 2438.26 1292.68
-360.419 2440.21 1291.18
-358.787 2436.03 1316.52
-359.974 2435.92 1300.39
-360.455 2436.44 1296.69
-359.768 2436.39 1297.48
-359.797 2436.14 1298.48
-359.702 2436.9 1295.67
-359.028 2436.02 1317.55
-359.212 2435.98 1313.59
-360.407 2436.23 1306.41
-360.526 2437.54 1293.62
-361.218 2438.08 1292.97
-360.577 2436.98 1294.69
-359.562 2436.09 1311.16
-359.954 2436.09 1303.72
-361.386 2439.66 1291.6
-361.039 2436.74 1295.55
-359.582 2436.01 1314.82
-361.019 2436.14 1297.95
-359.88 2436.1 1316.99
-360.542 2435.91 1299.49
-360.119 2436.24 1308.6
-361.097 2436.25 1304.43
-361.742 2437.03 1294.83
-361.636 2437.55 1293.8
-361.547 2436.46 1296.79
-360.087 2436.17 1313.04
-361.039 2436.41 1307.31
-360.925 2436.08 1302.54
-361.155 2436 1300.4
-361.735 2436.18 1299.08
-362.182 2436.44 1297.81
-362.787 2437.94 1293.8
-362.366 2436.87 1295.83
-361.711 2436.58 1306.11
-363.063 2437.42 1295.09
-362.057 2436.36 1300.71
-363.256 2437.13 1296.26
-362.138 2436.52 1302.57
-363.317 2436.89 1298.12
