-839.412 130.014 5636.39 
-839.695 128.697 5636.59 
-839.946 127.866 5636.91 
-839.266 129.385 5636.07 
-840.441 126.679 5637.97 
-840.153 126.779 5637.43 
-841.985 98.2513 5654.2 
-841.917 97.7206 5656.07 
-841.923 97.3326 5657.54 
-842.374 96.526 5659.61 
-844.153 94.1334 5665.68 
-845.394 93.3662 5667.05 
-842.821 95.2624 5663.41 
-845.712 92.6825 5668.38 
-845.689 93.0283 5667.74 
-846.437 91.8785 5669.14 
-846.334 91.312 5670.37 
-847.443 88.722 5673.52 
-848.126 87.7786 5674.54 
-848.306 87.1589 5675.32 
-847.676 87.6537 5675.4 
-847.143 87.7749 5675.95 
-846.467 88.3142 5675.89 
-845.313 89.425 5675.37 
-846.972 89.8038 5672.18 
-846.959 90.1715 5671.62 
-843.811 90.4347 5676.18 
-844.387 89.8673 5675.89 
-845.127 89.2128 5676.08 
-843.528 90.9388 5676.98 
-842.461 92.7425 5678.48 
-843.387 98.9936 5652.12 
-842.555 99.0103 5652.37 
-842.212 98.3455 5653.73 
-842.605 98.6324 5652.91 
-826.559 130.042 5632 
-824.351 128.433 5634.06 
-824.906 128.602 5633.98 
-824.178 127.908 5634.4 
-822.811 122.193 5634.13 
-821.951 124.596 5635.12 
-828.165 121.197 5632.94 
-830.774 119.963 5633.94 
-831.064 119.589 5634.33 
-831.478 119.195 5634.73 
-835.617 113.498 5640.44 
-838.842 108.754 5645.12 
-840.153 106.555 5646.94 
-840.705 105.131 5647.92 
-842.014 102.566 5649.6 
-842.719 101.053 5650.55 
-843.802 100.64 5650.75 
-860.168 91.4663 5677.13 
-860.548 90.8116 5678.25 
-860.584 90.0053 5679.78 
-859.389 92.2606 5676.17 
-860.548 89.0402 5683.32 
-860.976 88.703 5683.32 
-861.693 87.6755 5683.89 
-861.13 88.9018 5682.34 
-860.211 89.0976 5683.79 
-859.862 89.4513 5683.73 
-859.464 89.8197 5683.85 
-861.001 87.8631 5685.07 
-861.522 87.4524 5684.74 
-857.912 92.4611 5680.58 
-858.907 90.9267 5682.09 
-858.954 90.2593 5683.31 
-846.86 100.222 5681.99 
-849.054 98.4434 5680.64 
-850.012 97.3584 5680.63 
-850.877 96.2205 5680.78 
-852.78 95.6269 5680.1 
-854.326 95.0955 5679.65 
-857.916 92.2081 5681.39 
-852.011 104.611 5664.42 
-851.932 106.302 5662.44 
-852.313 106.381 5660.06 
-852.447 107.004 5658.88 
-854.08 98.97 5670.8 
-853.748 99.5149 5669.96 
-853.059 100.546 5667.87 
-852.505 101.531 5666.97 
-852.519 101.879 5666.4 
-852.35 102.435 5666.17 
-857.039 94.9444 5674.23 
-834.497 133.599 5634.47 
-833.356 133.301 5633.85 
-832.668 133.175 5633.37 
-832.257 132.808 5632.85 
-830.894 131.853 5632.13 
-831.498 132.691 5632.33 
-831.279 132.175 5632.49 
-838.603 132.045 5636.39 
-837.002 133.657 5636.08 
-836.052 133.845 5635.47 
-829.395 131.391 5631.43 
-828.7 131.142 5631.41 
-830.394 131.842 5631.89 
-827.177 130.487 5631.1 
-852.573 108.407 5654.48 
-852.733 108.043 5655.3 
-852.56 107.253 5658.04 
-852.672 107.896 5656.53 
-852.459 108.447 5653.93 
-852.121 108.951 5653.21 
-851.341 110.852 5653.11 
-851.749 109.22 5652.72 
-844.522 118.906 5645.23 
-844.768 118.373 5645.5 
-846.233 117.147 5648.62 
-847.077 116.18 5650.32 
-841.189 123.853 5640.52 
-841.36 123.181 5641.1 
-841.751 122.634 5641.83 
-838.527 131.179 5635.78 
-839.048 129.979 5635.87 
-839.115 130.462 5636.1 
-838.719 130.632 5635.7 
-839.63 128.001 5636.5 
-840.187 126.212 5637.66 
-839.877 126.763 5636.94 
-842.461 98.0364 5654.13 
-841.767 98.135 5654.81 
-842.386 97.5382 5655.93 
-842.388 97.2082 5657.16 
-842.728 96.6404 5658.79 
-843.91 94.3954 5664.97 
-845.486 93.4999 5666.36 
-843.157 95.3114 5662.87 
-846.32 92.23 5668.57 
-846.745 91.5438 5669.46 
-846.864 90.6195 5671 
-848.335 88.1296 5673.57 
-848.201 87.9633 5674.08 
-848.982 86.5164 5675.25 
-848.683 86.1874 5676.23 
-849.664 84.7381 5676.9 
-848.166 86.5098 5676.55 
-847.256 87.4319 5676.4 
-846.015 88.6056 5675.98 
-847.594 89.1574 5672.6 
-847.587 89.5123 5672.05 
-844.194 89.7868 5676.49 
-844.632 89.3769 5676.45 
-845.34 88.782 5676.56 
-846.082 88.1316 5676.72 
-843.958 90.3298 5676.75 
-843.218 91.7235 5678.1 
-843.971 100.069 5651.11 
-844.11 99.3827 5651.6 
-843.742 98.7263 5652.37 
-823.666 128.591 5633.47 
-823.393 128.344 5633.87 
-826.905 130.266 5631.59 
-825.203 129.286 5632.92 
-826.655 129.441 5633.27 
-827.155 129.31 5633.22 
-823.562 127.254 5634.72 
-824.17 127.108 5634.51 
-824.652 127.568 5634.35 
-825.551 128.355 5633.98 
-821.206 122.921 5635.16 
-824.665 122.022 5633.65 
-826.736 121.391 5633.22 
-827.229 121.483 5633.07 
-829.014 121.068 5632.92 
-831.62 119.673 5634.3 
-832.049 117.76 5636.12 
-833.012 116.428 5637.52 
-833.395 115.427 5638.4 
-835.523 113.897 5640.07 
-838.905 109.182 5644.76 
-839.341 108.187 5645.65 
-838.391 110.217 5643.83 
-837.247 111.666 5642.42 
-844.35 100.42 5650.88 
-860.793 90.8517 5677.49 
-860.988 89.4629 5679.72 
-860.883 89.3277 5680.81 
-861.947 87.0484 5684.49 
-863.073 85.8503 5684.08 
-862.315 87.0521 5683.54 
-861.929 87.8511 5682.96 
-861.094 87.5285 5685.65 
-860.668 87.9907 5685.61 
-860.195 88.557 5685.42 
-860.307 88.1152 5686.41 
-862.319 86.0063 5686.21 
-862.553 85.988 5685.44 
-862.879 85.7206 5685.14 
-858.609 90.9885 5682.52 
-859.377 89.6768 5684.6 
-859.888 88.5275 5686.52 
-848.396 98.4281 5681.52 
-850.333 96.4091 5681.04 
-852.459 95.3664 5680.59 
-856.202 94.2399 5679.92 
-857.03 93.3469 5680.73 
-852.284 103.414 5665.1 
-852.362 104.359 5663.8 
-852.492 105.91 5659.92 
-854.038 99.2365 5669.54 
-854.428 98.6588 5670.37 
-852.423 102.202 5665.72 
-858.781 92.9513 5675.33 
-855.296 97.162 5672.67 
-856.891 95.1359 5673.48 
-833.961 133.55 5634.17 
-832.995 132.728 5633.48 
-835.498 133.597 5635.02 
-837.58 132.837 5636 
-836.474 133.568 5635.63 
-836.046 133.247 5635.15 
-835.054 133.81 5634.87 
-828.175 130.981 5631.2 
-829.668 131.45 5631.88 
-827.731 130.749 5631.44 
-852.781 107.702 5654.57 
-852.699 107.374 5657.21 
-852.786 107.43 5656.11 
-852.843 107.376 5655.51 
-852.309 108.182 5653.33 
-850.335 112.474 5652.75 
-848.157 114.871 5651.89 
-848.562 114.403 5652.2 
-851.556 109.728 5652.59 
-842.077 121.359 5642.38 
-843.259 120.122 5643.72 
-841.853 121.762 5642.08 
-841.537 121.956 5641.56 
-844.059 118.693 5644.46 
-845.231 117.915 5646.39 
-846.698 116.006 5649.85 
-847.176 115.814 5650.65 
-847.27 115.32 5650.94 
-838.234 131.764 5635.82 
-838.883 129.328 5635.57 
-845.385 93.6769 5665.75 
-846.044 93.3256 5666.55 
-846.357 92.4783 5668.04 
-847.053 91.7866 5668.61 
-847.277 90.238 5671.21 
-849.256 86.9366 5674.26 
-848.882 87.35 5674.23 
-849.547 85.6728 5675.58 
-850.48 84.0094 5676.88 
-850.036 83.9415 5677.62 
-851.33 82.2406 5678.48 
-849.536 84.3178 5677.81 
-849.25 84.319 5678.28 
-847.909 86.3792 5677.16 
-846.805 87.4865 5676.9 
-848.112 89.2776 5671.88 
-848.515 88.4635 5672.72 
-849.376 87.4459 5673.39 
-845.089 88.6701 5677.09 
-845.572 88.3356 5677.03 
-847.313 86.7133 5677.52 
-844.715 99.4682 5651.53 
-844.26 98.845 5652.06 
-843.217 98.5649 5652.77 
-843.031 98.1997 5653.46 
-827.566 130.58 5631.97 
-826.34 129.869 5632.62 
-827.641 129.515 5633.01 
-828.269 129.352 5633.01 
-827.827 128.923 5633.22 
-825.758 127.72 5634.01 
-821.622 123.216 5634.91 
-821.688 122.681 5634.61 
-825.443 121.545 5633.55 
-826.139 121.317 5633.4 
-822.741 125.688 5634.99 
-824.632 126.852 5634.37 
-829.836 120.926 5632.99 
-830.341 120.636 5633.28 
-831.993 119.287 5634.7 
-834.647 115.023 5638.94 
-836.675 113.02 5641.09 
-839.323 108.61 5645.29 
-838.961 109.596 5644.44 
-839.54 107.705 5646.06 
-838.302 110.653 5643.46 
-840.575 107.15 5646.58 
-841.452 105.025 5648.04 
-843.5 101.019 5650.54 
-844.401 99.8187 5651.28 
-861.537 88.5783 5682.14 
-863.345 85.2737 5684.93 
-864.037 84.55 5684.87 
-863.995 84.7709 5684.26 
-863.43 85.5922 5683.66 
-863.917 85.0448 5683.64 
-862.987 86.4491 5682.99 
-861.891 86.3645 5686.52 
-861.249 86.9948 5686.73 
-861.57 86.4482 5687.31 
-863.197 84.6722 5687.09 
-863.541 84.4464 5686.73 
-863.723 84.4532 5686.25 
-864.23 84.107 5685.81 
-858.814 89.9977 5685.2 
-860.976 87.0226 5687.52 
-849.73 96.673 5681.39 
-851.64 95.4147 5681.13 
-854.142 94.8374 5680.47 
-858.204 90.9503 5683.04 
-858.584 90.278 5683.71 
-852.298 103.073 5664.31 
-852.327 105.547 5662.02 
-854.884 97.9456 5671.3 
-853.555 99.8132 5669.16 
-853.268 100.177 5668.71 
-852.776 101.008 5666.89 
-852.618 101.328 5666.42 
-852.287 102.621 5664.6 
-860.606 91.1323 5676.95 
-861.236 89.2817 5679.26 
-861.893 88.1894 5682.07 
-858.324 93.5142 5674.22 
-858.694 93.1036 5674.77 
-831.72 132.519 5632.79 
-836.684 133.052 5635.48 
-837.381 132.487 5635.59 
-829.003 131.184 5631.95 
-852.866 107.264 5654.98 
-852.833 106.885 5656.98 
-852.917 106.791 5656.46 
-852.923 106.933 5655.97 
-852.132 107.971 5652.82 
-852.549 107.642 5653.85 
-852.416 107.469 5653.39 
-851.37 110.292 5652.67 
-851.08 110.887 5652.6 
-849.282 113.579 5652.38 
-847.792 115.04 5651.57 
-851.88 108.634 5652.69 
-845.502 117.702 5646.96 
-844.723 117.854 5645.43 
-846.837 115.495 5650.31 
-840.621 124.674 5639.11 
-840.993 123.368 5640.37 
-841.377 122.498 5641.19 
-838.626 129.914 5635.4 
-838.149 130.89 5635.25 
-839.499 127.458 5636.37 
-839.535 126.862 5636.5 
-839.218 128.106 5635.99 
-839.274 128.825 5636.04 
-842.681 97.6865 5654.89 
-842.951 97.8524 5654.14 
-842.731 97.2617 5656.47 
-844.011 94.4906 5664.48 
-846.256 92.966 5667.46 
-843.533 95.2909 5662.51 
-847.094 92.121 5667.89 
-846.79 92.5126 5667.55 
-847.036 90.9347 5670.32 
-849.959 85.6289 5675.09 
-850.583 84.4892 5676.09 
-851.178 83.3852 5677.04 
-852.206 81.1911 5678.85 
-851.127 82.1317 5679.11 
-850.726 82.3099 5679.49 
-848.938 84.3644 5678.72 
-848.699 89.0077 5671.68 
-849.54 88.0079 5672.29 
-850.122 85.805 5674.64 
-845.515 87.9983 5677.7 
-846.028 87.6199 5677.68 
-846.389 87.6315 5677.19 
-848.437 84.7168 5678.95 
-844.571 89.1388 5677.04 
-843.555 91.308 5677.96 
-842.88 92.3935 5678.83 
-845.165 99.2929 5651.69 
-844.751 99.0297 5651.87 
-844.382 98.4213 5652.63 
-843.907 98.2796 5652.97 
-843.598 97.8918 5653.77 
-827.038 130.259 5632.14 
-826.961 129.882 5632.99 
-828.151 128.414 5633.25 
-828.594 128.897 5633.09 
-821.227 123.422 5635.18 
-821.546 123.969 5635.15 
-822.113 123.222 5634.72 
-823.221 122.685 5634.14 
-823.244 125.475 5634.78 
-826.14 127.281 5633.89 
-828.591 121.43 5632.7 
-830.283 121.161 5632.88 
-831.052 120.303 5633.65 
-832.476 118.071 5635.88 
-831.73 120.163 5633.9 
-833.504 116.618 5637.43 
-838.942 109.994 5644.1 
-840.063 107.412 5646.33 
-841.23 106.78 5646.94 
-840.955 106.342 5647.15 
-841.951 104.932 5648.16 
-842.636 102.788 5649.47 
-844.829 100.299 5650.96 
-863.559 85.7818 5682.83 
-864.501 83.9942 5685.27 
-864.567 84.08 5684.7 
-864.28 84.6258 5683.75 
-862.669 85.211 5687.29 
-862.308 85.2559 5688.15 
-862.776 84.7488 5687.98 
-859.367 88.8397 5687.28 
-860.499 87.2862 5688.27 
-861.99 85.4931 5688.49 
-850.589 95.6865 5681.52 
-852.296 95.1792 5681.22 
-857.756 92.0904 5682 
-857.827 91.0104 5683.39 
-858.102 90.248 5684.31 
-852.302 103.429 5663.44 
-856.284 95.8801 5672.68 
-853.543 99.687 5668.5 
-852.972 100.699 5667.37 
-852.321 102.655 5665.21 
-861.48 89.0948 5678.7 
-862.168 87.924 5681.52 
-862.528 87.53 5680.97 
-834.936 133.18 5634.52 
-834.209 133.102 5634.12 
-833.741 132.888 5633.88 
-832.119 132.236 5633 
-835.483 133.133 5634.79 
-835.466 132.681 5634.55 
-852.74 106.465 5657.78 
-852.637 106.108 5658.98 
-852.929 106.387 5656.89 
-851.815 108.056 5652.38 
-850.967 110.166 5651.97 
-851.403 109.339 5652.19 
-848.629 113.852 5651.96 
-851.494 108.708 5652.1 
-841.854 120.767 5642.04 
-843.032 119.762 5643.36 
-841.422 121.423 5641.43 
-844.248 118.183 5644.71 
-846.13 116.633 5648.53 
-845.219 117.174 5646.49 
-844.664 117.349 5645.33 
-845.036 117.514 5646.05 
-846.445 115.516 5649.73 
-838.428 129.409 5635.14 
-837.75 130.946 5634.9 
-838.079 130.416 5634.99 
-837.796 131.58 5635.27 
-838.831 128.037 5635.54 
-840.288 124.349 5638.59 
-839.702 126.096 5636.87 
-843.269 97.3801 5655.37 
-843.617 97.5148 5654.68 
-843.354 97.0662 5656.46 
-843.377 96.5365 5658.4 
-844.767 94.3433 5664.04 
-845.901 93.6374 5665.27 
-844.317 95.1696 5662.03 
-847.353 91.1591 5669.53 
-847.763 91.3232 5668.91 
-847.806 90.4359 5670.38 
-848.128 89.7972 5671.06 
-851.566 83.8873 5675.99 
-851.84 83.0786 5676.8 
-851.992 81.8932 5678.12 
-852.01 81.0739 5679.56 
-852.926 80.2671 5679.28 
-851.742 81.0492 5680.2 
-850.201 82.6552 5679.76 
-851.196 81.4199 5680.48 
-849.647 83.0486 5679.98 
-850.277 86.1598 5674.03 
-849.245 88.8103 5671.41 
-850.02 87.6447 5672.33 
-852.059 83.5623 5675.94 
-845.262 87.9293 5678.21 
-846.802 86.6791 5678.3 
-844.84 88.6478 5677.55 
-844.17 90.3607 5677.3 
-845.064 88.544 5678.12 
-845.414 98.7543 5652.11 
-844.962 98.1745 5652.85 
-844.823 98.5261 5652.41 
-827.101 130.223 5632.64 
-827.682 130.053 5632.88 
-828.321 129.997 5632.9 
-825.283 126.92 5634.16 
-827.625 127.779 5633.4 
-822.457 124.73 5634.94 
-826.71 121.883 5633.04 
-829.326 121.427 5632.71 
-829.935 121.563 5632.67 
-831.02 120.723 5633.32 
-831.524 120.719 5633.42 
-832.591 119.287 5634.87 
-832.305 119.667 5634.44 
-834.35 115.865 5638.22 
-837.967 111.497 5642.68 
-836.602 113.428 5640.74 
-839.86 108.57 5645.43 
-840.399 107.95 5645.98 
-841.083 107.228 5646.61 
-841.9 106.309 5647.35 
-843.262 102.771 5649.52 
-844.005 101.343 5650.33 
-845.171 99.9491 5651.23 
-858.974 89.214 5687.41 
-861.467 85.7063 5689.39 
-853.803 94.8342 5680.87 
-856.131 94.1126 5680.48 
-858.365 90.0977 5685.55 
-858.44 89.8721 5686.93 
-852.29 103.424 5662.9 
-852.449 104.794 5661.74 
-854.711 98.3532 5670.02 
-856.093 96.1286 5672 
-860.177 91.6027 5675.61 
-852.247 102.571 5663.29 
-862.527 87.5507 5680.44 
-863.696 85.8045 5682.26 
-863.977 85.5759 5681.86 
-864.442 84.6367 5683.17 
-861.419 89.389 5677.63 
-861.208 89.8891 5677.03 
-862.405 87.72 5679.55 
-834.215 132.378 5633.82 
-832.985 132.23 5633.29 
-832.034 131.695 5632.96 
-831.446 131.889 5632.9 
-836.027 132.661 5634.84 
-837.049 132.254 5635.22 
-830.492 131.222 5632.69 
-852.761 107.01 5654.27 
-852.907 106.773 5655.22 
-852.698 106.237 5658.46 
-852.594 105.421 5659.83 
-852.776 106.065 5657.43 
-852.227 107.443 5652.81 
-852.609 106.897 5653.76 
-849.309 113.159 5652.05 
-847.935 114.41 5651.51 
-847.442 114.8 5651.15 
-842.781 119.384 5643 
-841.138 121.141 5641.04 
-841.519 120.566 5641.63 
-840.992 121.708 5640.74 
-843.666 118.266 5643.9 
-844.317 117.661 5644.8 
-845.788 116.415 5647.97 
-845.972 115.418 5648.94 
-846.474 115.038 5649.99 
-847.033 114.902 5650.7 
-840.808 122.781 5640.19 
-840.544 121.826 5640.06 
-838.086 129.737 5634.85 
-838.944 128.566 5635.61 
-839.031 127.456 5635.82 
-839.973 125.659 5637.49 
-843.663 97.0874 5656.04 
-845.602 93.9184 5664.45 
-844.952 94.5043 5663.35 
-846.414 93.3759 5666.04 
-846.709 93.1278 5666.89 
-844.696 95.1644 5661.62 
-847.863 91.6808 5668.22 
-847.327 92.4859 5667.29 
-848.124 90.6598 5669.84 
-848.485 90.0195 5670.35 
-848.172 91.1274 5669.15 
-848.601 89.6068 5670.87 
-852.783 81.8931 5677.39 
-852.762 81.4862 5677.8 
-852.553 81.1588 5678.24 
-853.18 80.3277 5678.68 
-852.592 80.3532 5679.85 
-852.317 80.3286 5680.53 
-853.419 79.5011 5680.05 
-853.046 79.8667 5679.88 
-851.907 80.4317 5681.17 
-850.96 81.3295 5681.1 
-850.399 81.9781 5680.81 
-850.834 85.8482 5674.03 
-852.074 83.9717 5675.41 
-853.315 81.8753 5676.88 
-853.248 81.5201 5677.35 
-846.33 86.7967 5678.72 
-847.865 84.9629 5679.49 
-849.599 82.7212 5680.75 
-850.332 81.7507 5681.37 
-845.445 87.723 5678.78 
-844.791 89.3231 5677.69 
-844.045 90.9716 5678.38 
-843.418 91.9656 5679.15 
-845.326 98.3763 5652.57 
-844.546 98.0017 5653.23 
-845.188 97.8067 5653.38 
-844.216 97.6971 5653.87 
-828.727 129.637 5632.97 
-822.029 123.901 5634.94 
-824.317 122.418 5633.71 
-825.445 122.18 5633.4 
-826.119 121.818 5633.27 
-827.126 122.25 5632.75 
-827.712 121.78 5632.76 
-828.257 122.072 5632.57 
-833.043 118.132 5635.99 
-834.158 116.601 5637.59 
-839.394 109.096 5644.93 
-841.807 106.777 5647.05 
-842.945 105.3 5648.09 
-843.968 102.922 5649.51 
-844.669 100.906 5650.59 
-844.683 101.723 5650.17 
-845.857 99.8981 5651.34 
-864.915 83.853 5684.31 
-859.232 88.5305 5688.65 
-859.999 87.6137 5688.91 
-861.231 85.7634 5689.86 
-852.635 94.9961 5681.56 
-854.194 94.6323 5681.23 
-857.664 90.6851 5683.98 
-857.774 90.1709 5684.92 
-852.289 103.543 5662.32 
-852.539 105.057 5660.19 
-855.24 97.3963 5670.96 
-854.412 98.7324 5669.56 
-859.011 92.7642 5674.33 
-860.672 91.0653 5676.34 
-854.026 99.1213 5668.99 
-853.319 100.059 5668.01 
-852.266 102.561 5664 
-852.231 102.537 5662.73 
-862.247 87.9735 5678.75 
-862.049 88.3165 5678.21 
-863.688 86.0922 5681.34 
-834.72 132.69 5634.17 
-833.538 132.271 5633.53 
-832.69 131.819 5633.1 
-836.601 131.868 5634.71 
-837.266 131.228 5634.74 
-835.933 132.247 5634.55 
-834.984 132.159 5634 
-835.478 132.19 5634.28 
-829.448 131.29 5632.32 
-830.222 131.531 5632.37 
-830.864 131.555 5632.63 
-852.979 106.436 5655.96 
-852.969 105.948 5656.14 
-852.616 105.582 5658.74 
-852.715 105.576 5657.89 
-852.994 105.836 5656.69 
-852.431 106.872 5653.21 
-851.953 107.439 5652.37 
-852.853 106.714 5654.68 
-850.723 109.251 5651.4 
-850.731 109.837 5651.6 
-850.283 109.903 5651.23 
-850.056 112.213 5652.26 
-848.763 113.254 5651.73 
-848.209 113.693 5651.48 
-851.385 108.243 5651.8 
-851.189 108.86 5651.7 
-842.566 118.872 5642.76 
-841.177 120.668 5641.2 
-840.742 120.995 5640.61 
-843.43 117.823 5643.6 
-843.835 117.427 5644.1 
-845.063 116.652 5646.3 
-844.853 117.004 5645.73 
-845.673 115.151 5648.49 
-846.037 114.978 5649.3 
-846.093 114.516 5649.62 
-840.39 122.269 5639.68 
-838.407 128.906 5635.08 
-838.37 128.397 5635.06 
-837.77 129.491 5634.52 
-838.969 126.813 5635.87 
-839.634 125.063 5637.25 
-839.329 126.4 5636.36 
-839.433 125.471 5636.77 
-844.347 97.3962 5654.58 
-843.926 96.5058 5657.87 
-845.454 94.3242 5663.31 
-846.904 93.3612 5665.75 
-847.189 93.1364 5666.55 
-848.331 91.4235 5668.57 
-848.43 91.7435 5667.96 
-848.621 90.3202 5669.91 
-849.172 89.5778 5670.36 
-853.317 81.0361 5677.7 
-853.407 79.7914 5679.48 
-852.819 79.7785 5680.59 
-852.493 79.8374 5681.18 
-854.05 79.2076 5679.94 
-853.307 79.3234 5680.55 
-853.981 79.0021 5680.41 
-851.432 80.3805 5682.09 
-852.02 80.0116 5681.71 
-850.971 80.8779 5681.95 
-851.386 85.587 5673.96 
-852.786 83.3042 5675.58 
-850.279 88.3226 5671.31 
-850.809 87.0544 5672.57 
-853.862 81.3709 5677 
-853.928 80.9018 5677.42 
-847.627 84.9462 5679.93 
-849.135 83.1847 5680.66 
-850.24 81.4515 5682.1 
-849.706 82.1086 5681.76 
-850.845 80.6312 5682.63 
-844.498 90.0934 5677.59 
-845.303 88.4068 5678.61 
-845.724 99.4035 5651.67 
-845.66 98.0175 5653.06 
-828.872 130.11 5632.87 
-822.608 123.227 5634.52 
-822.715 123.862 5634.68 
-825.925 122.482 5633.18 
-828.729 128.284 5633.02 
-827.14 127.446 5633.57 
-825.335 126.396 5634.13 
-826.663 122.696 5632.91 
-827.672 122.57 5632.64 
-829.034 121.996 5632.53 
-829.542 122.075 5632.5 
-830.884 121.406 5632.91 
-832.274 120.278 5633.93 
-833.086 119.555 5634.85 
-833.047 120.156 5634.33 
-835.566 115.135 5639.16 
-837.403 113.192 5641.16 
-838.728 111.383 5642.94 
-839.879 109.616 5644.63 
-839.54 110.263 5644.05 
-840.92 107.704 5646.26 
-842.756 105.987 5647.69 
-844.469 103.911 5649.08 
-844.824 102.895 5649.64 
-845.271 102.01 5650.12 
-845.91 100.47 5650.98 
-845.224 100.626 5650.78 
-859.485 88.0178 5689.36 
-860.667 86.4274 5689.96 
-855.949 94.0754 5681.07 
-857.262 92.5399 5682.12 
-857.796 90.0517 5686.67 
-857.67 90.0092 5687.77 
-857.976 89.8442 5688.46 
-858.34 89.7512 5687.67 
-858.902 88.6617 5689.32 
-852.438 104.204 5661.48 
-855.018 97.7801 5670.05 
-856.58 95.5063 5672.18 
-854.64 98.2611 5669.5 
-861.568 89.0241 5678.14 
-853.516 99.5562 5667.81 
-853.306 99.9339 5667.52 
-853.1 100.205 5667.14 
-852.351 101.932 5665.06 
-852.546 101.393 5665.87 
-864.619 84.6779 5682.37 
-865.279 83.5314 5684.07 
-865.299 83.7226 5683.34 
-863.473 86.4385 5680.4 
-863.817 86.0136 5680.65 
-833.484 131.741 5633.32 
-832.219 131.214 5633.01 
-831.301 131.368 5632.97 
-837.049 130.847 5634.45 
-836.299 131.341 5634.26 
-834.614 131.949 5633.71 
-828.351 130.951 5631.93 
-852.874 106.227 5654.98 
-852.913 105.978 5655.53 
-852.537 105.061 5659.38 
-852.402 103.816 5661.15 
-852.777 106.389 5654.11 
-850.45 110.406 5651.6 
-849.032 112.555 5651.68 
-849.81 111.843 5651.86 
-847.607 114.012 5651.19 
-847.89 113.353 5651.2 
-841.949 119.902 5642.13 
-840.419 121.336 5640.1 
-844.073 116.987 5644.48 
-844.476 116.764 5645.1 
-844.649 116.016 5645.8 
-845.41 114.899 5648.11 
-845.421 116.045 5647.45 
-845.681 114.615 5648.81 
-845.649 114.099 5648.98 
-845.288 114.298 5648.23 
-845.863 113.858 5649.42 
-847.177 114.179 5650.99 
-846.548 114.54 5650.27 
-840.014 123.835 5638.4 
-840.195 121.785 5639.59 
-837.457 130.47 5634.53 
-838.453 127.564 5635.23 
-839.285 124.772 5636.9 
-844.374 96.9874 5655.88 
-846.414 93.7345 5664.54 
-845.413 95.0831 5661.08 
-848.789 91.1278 5668.84 
-847.985 91.9345 5667.74 
-849.452 89.9356 5669.8 
-853.918 80.3 5678.06 
-853.982 79.9454 5678.56 
-852.95 79.3155 5681.28 
-854.54 78.8764 5680.04 
-854.5 78.6228 5680.6 
-854.426 78.41 5681.2 
-853.65 78.7537 5681.32 
-854.222 78.3272 5681.67 
-852.969 78.9668 5681.93 
-852.443 79.3819 5682.06 
-851.861 79.7223 5682.48 
-851.256 80.1789 5682.75 
-852.159 85.0916 5673.97 
-851.46 86.436 5672.89 
-854.649 80.6853 5677.2 
-854.567 80.1023 5677.87 
-854.472 79.8144 5678.37 
-847.163 85.2456 5680.16 
-848.777 83.0588 5681.53 
-848.323 83.493 5681.48 
-849.473 82.0813 5682.21 
-850.692 80.4007 5683.32 
-850.211 80.9722 5683.07 
-845.886 86.868 5679.21 
-844.794 89.872 5678 
-846.048 98.9373 5652.01 
-844.913 97.5962 5653.83 
-828.105 130.522 5632.31 
-828.607 130.403 5632.55 
-823.092 123.592 5634.48 
-824.2 122.981 5633.82 
-828.154 127.896 5633.2 
-829.272 128.943 5632.94 
-828.683 122.36 5632.45 
-830.48 121.915 5632.59 
-831.188 121.873 5632.73 
-831.502 121.164 5633.13 
-833.562 118.321 5636.01 
-834.311 117.187 5637.2 
-834.638 116.501 5637.87 
-837.461 113.905 5640.68 
-838.314 112.814 5641.72 
-840.134 109.018 5645.14 
-840.549 108.415 5645.68 
-841.641 107.178 5646.78 
-842.576 106.553 5647.36 
-845.761 101.963 5650.22 
-845.249 101.334 5650.42 
-846.447 99.8364 5651.46 
-860.15 86.7001 5690.34 
-860.596 86.2353 5690.49 
-851.959 95.0762 5681.81 
-850.068 95.3097 5681.73 
-857.419 91.3182 5683.46 
-857.261 90.7748 5684.33 
-857.221 90.1672 5685.44 
-857.503 89.9883 5688.29 
-858.025 89.5578 5689.31 
-855.672 96.6957 5670.96 
-860.712 90.6452 5676.01 
-861.863 88.6887 5677.69 
-862.941 87.0706 5679.03 
-854.429 98.3832 5669 
-853.811 99.1829 5668.26 
-854.141 98.6277 5668.45 
-852.718 100.78 5666.42 
-852.327 101.848 5664.33 
-852.481 101.387 5665.26 
-852.616 100.906 5665.73 
-852.224 102.554 5662.13 
-864.251 85.4726 5680.93 
-864.634 84.8258 5681.82 
-834.147 131.886 5633.54 
-833.129 131.402 5633.14 
-831.682 130.956 5632.88 
-835.419 131.643 5633.94 
-828.836 130.864 5632.32 
-830.868 130.895 5632.76 
-852.788 105.44 5657.32 
-852.454 104.548 5660.12 
-852.591 104.923 5658.85 
-852.578 106.311 5653.61 
-851.577 107.761 5651.94 
-852.182 106.853 5652.65 
-852.845 105.715 5654.93 
-849.87 110.219 5651.01 
-850.857 108.654 5651.34 
-846.886 113.602 5650.57 
-847.683 112.946 5650.93 
-848.298 112.898 5651.32 
-847.281 113.387 5650.8 
-842.138 118.499 5642.34 
-841.309 119.533 5641.53 
-841.017 119.874 5641.18 
-840.018 120.878 5639.79 
-844.564 115.002 5646.27 
-845 115.432 5646.93 
-845.295 112.843 5648.68 
-845.043 113.872 5647.96 
-844.887 114.229 5647.45 
-844.836 113.45 5647.74 
-844.966 112.735 5648.21 
-846.438 113.559 5650.12 
-845.183 112.113 5648.49 
-839.766 123.085 5638.37 
-839.357 122.738 5638.01 
-839.674 121.316 5639.16 
-837.979 128.844 5634.66 
-837.992 128.291 5634.71 
-837.296 129.994 5634.32 
-838.61 126.772 5635.49 
-844.928 97.1907 5655 
-844.499 96.4043 5657.66 
-846.042 93.9922 5663.87 
-846.496 93.5837 5665.04 
-845.699 94.4396 5662.73 
-845.844 94.8649 5661.47 
-849.298 90.3814 5669.41 
-847.775 92.5862 5667.01 
-849.126 91.5935 5668.05 
-851.635 86.9539 5672.16 
-852.307 85.6723 5673.22 
-850.187 89.4939 5669.95 
-850.305 88.8528 5670.64 
-854.219 79.4288 5679.31 
-855.225 78.3452 5680.37 
-854.95 78.0648 5681.42 
-854.753 77.9075 5682.08 
-854.195 78.1202 5682.26 
-853.7 78.4953 5681.94 
-852.463 79.0892 5682.65 
-851.763 79.4771 5683.13 
-851.046 80.0448 5683.34 
-853.096 83.9505 5674.65 
-853.559 82.6232 5675.8 
-854.493 81.1036 5676.91 
-855.294 79.9457 5677.57 
-855.008 79.5191 5678.43 
-854.975 79.2096 5678.94 
-847.523 84.0502 5681.79 
-849.404 81.7343 5682.99 
-848.944 82.2534 5682.79 
-848.152 82.9479 5682.86 
-849.984 80.9124 5683.57 
-850.838 79.9185 5683.94 
-846.69 85.5113 5680.43 
-845.977 86.8506 5679.76 
-845.649 87.9093 5679.25 
-843.828 91.5932 5679.29 
-846.529 98.9426 5652.16 
-846.346 99.3213 5651.83 
-845.949 98.4314 5652.52 
-845.724 97.5291 5653.75 
-845.591 97.1763 5654.75 
-829.631 130.235 5632.77 
-829.561 129.744 5632.9 
-823.612 123.158 5634.15 
-825.072 122.56 5633.44 
-824.638 123.259 5633.69 
-825.964 123.045 5633.11 
-829.485 128.236 5632.84 
-828.608 127.605 5633 
-823.398 124.943 5634.63 
-824.527 125.43 5634.28 
-826.404 126.829 5633.78 
-824.117 123.798 5634.11 
-827.117 122.851 5632.74 
-828.367 122.836 5632.46 
-828.961 122.788 5632.34 
-830.433 122.432 5632.37 
-831.97 121.391 5633.13 
-832.292 120.855 5633.57 
-834.045 118.733 5635.9 
-833.57 119.831 5634.82 
-834.86 117.403 5637.35 
-832.947 120.751 5633.87 
-835.477 116.562 5638.19 
-836.134 115.457 5639.2 
-838.076 113.641 5641.09 
-842.168 107.253 5646.86 
-844.235 104.687 5648.66 
-845.731 102.683 5649.9 
-845.93 101.39 5650.52 
-846.647 100.372 5651.19 
-852.783 94.7595 5682 
-856.108 93.6838 5681.85 
-853.982 94.5799 5681.68 
-856.882 92.7423 5682.42 
-856.936 91.3684 5683.97 
-856.854 90.6726 5684.91 
-857.188 90.0385 5686.84 
-857.539 89.7313 5689.45 
-859.038 88.2366 5689.85 
-855.593 96.7485 5670.29 
-855.193 97.2347 5669.71 
-863.656 86.1293 5679.7 
-864.678 84.9481 5681.15 
-854.846 97.7955 5669.44 
-853.236 99.6569 5666.99 
-865.206 84.1312 5682.07 
-865.54 83.4827 5682.85 
-833.839 131.244 5633.28 
-832.705 130.933 5632.96 
-836.018 131.025 5633.97 
-835.48 130.728 5633.62 
-852.829 105.092 5655.66 
-852.921 105.279 5656.33 
-852.866 104.973 5656.81 
-852.717 104.652 5657.86 
-852.283 102.65 5661.54 
-852.411 103.308 5661 
-852.548 104.251 5659.08 
-851.86 106.89 5652.18 
-852.43 105.803 5653.34 
-852.73 105.8 5654.08 
-852.308 106.333 5653 
-850.291 109.218 5651 
-849.652 111.416 5651.48 
-849.625 109.719 5650.68 
-848.404 112.424 5651.18 
-845.875 113.048 5649.49 
-845.957 112.115 5649.41 
-846.99 112.557 5650.33 
-846.73 113.007 5650.27 
-847.984 112.333 5650.87 
-843.107 117.47 5643.28 
-841.758 118.237 5642 
-840.606 119.627 5640.83 
-840.566 120.274 5640.62 
-843.726 116.612 5644.08 
-843.329 117.031 5643.54 
-844.282 115.603 5645.31 
-844.475 114.093 5646.65 
-843.944 115.353 5644.9 
-844.302 113.647 5646.5 
-844.55 112.717 5647.43 
-844.889 111.671 5647.98 
-844.721 112.194 5647.85 
-837.182 129.472 5634.1 
-837.54 128.955 5634.28 
-837.542 127.683 5634.37 
-836.908 130.326 5634.15 
-838.902 126.073 5635.99 
-838.795 124.948 5636.3 
-838.557 125.384 5635.88 
-838.172 126.88 5635.06 
-838.703 123.97 5636.63 
-844.965 96.8024 5656.28 
-845.638 95.518 5659.83 
-847.133 93.6012 5664.95 
-847.557 93.1959 5666.02 
-846.227 94.7644 5661.82 
-849.582 91.0231 5668.5 
-849.833 90.1571 5669.34 
-848.585 92.5148 5667.01 
-848.34 92.2239 5667.35 
-849.112 91.9707 5667.61 
-852.141 86.4633 5672.44 
-853.273 84.3657 5674.16 
-853.696 83.0401 5675.31 
-851.232 88.4464 5670.69 
-851.773 87.333 5671.66 
-855.06 78.8496 5679.52 
-853.191 78.5679 5682.59 
-856.106 77.665 5681.09 
-855.478 77.7425 5681.6 
-855.611 77.4023 5682.33 
-855.315 77.2668 5683.02 
-854.733 77.6889 5682.68 
-853.738 78.13 5683 
-852.605 78.7726 5683.16 
-852.208 79.0741 5683.21 
-851.634 79.35 5683.69 
-855.824 79.6161 5677.7 
-855.516 79.2608 5678.49 
-855.455 78.9656 5678.99 
-855.497 78.6003 5679.53 
-847.659 83.5949 5682.58 
-849.718 80.7748 5684.29 
-849.243 81.2954 5684.13 
-848.505 82.1834 5683.9 
-850.192 80.2145 5684.54 
-851.178 79.456 5684.36 
-844.504 90.6653 5678.79 
-845.252 88.9052 5678.59 
-846.175 97.7677 5653.44 
-845.324 96.9107 5655.81 
-846.011 97.1875 5654.45 
-845.691 97.0011 5655.36 
-829.211 130.637 5632.64 
-829.714 129.177 5632.89 
-829.842 128.6 5632.82 
-828.382 127.11 5633.05 
-824.107 125.03 5634.38 
-824.963 125.878 5634.19 
-825.401 123.501 5633.43 
-829.601 122.602 5632.36 
-831.092 122.538 5632.46 
-831.716 121.845 5632.83 
-832.649 121.342 5633.42 
-833.759 120.455 5634.48 
-834.167 120.165 5634.9 
-833.541 121.056 5634 
-836.67 115.244 5639.59 
-835.553 117.151 5637.87 
-839.285 111.693 5642.87 
-840.254 109.948 5644.53 
-840.43 109.487 5644.92 
-841.287 108.022 5646.12 
-842.88 107.021 5647.19 
-843.507 106.349 5647.7 
-845.595 104.025 5649.27 
-846.363 102.921 5649.92 
-846.293 102.086 5650.27 
-846.392 100.798 5650.91 
-853.604 94.5321 5682.06 
-851.008 94.8301 5681.88 
-857.932 88.8385 5689.95 
-857.21 94.7407 5672.37 
-856.32 95.7596 5671.23 
-862.19 88.2848 5677.69 
-863.299 86.559 5678.97 
-865.054 84.4684 5681.37 
-855.44 96.7263 5669.81 
-854.806 97.5095 5668.86 
-854.456 98.0072 5668.46 
-852.931 100.086 5666.48 
-852.424 101.338 5664.68 
-852.255 102.029 5663.03 
-852.146 102.022 5661.94 
-834.735 131.252 5633.51 
-836.358 130.418 5633.86 
-836.062 130.081 5633.62 
-829.901 130.969 5632.59 
-830.404 130.673 5632.74 
-852.735 104.853 5655.1 
-852.593 104.184 5658.28 
-852.415 103.858 5659.5 
-850.393 108.684 5650.93 
-847.862 111.598 5650.49 
-845.987 111.624 5649.25 
-845.453 111.657 5648.71 
-846.577 111.575 5649.67 
-846.958 111.708 5650 
-840.919 119.247 5641.19 
-839.294 120.489 5639.19 
-839.794 120.171 5639.85 
-843.335 115.988 5643.71 
-843.946 116.008 5644.57 
-844.078 114.589 5645.55 
-843.903 113.344 5645.85 
-844.141 112.825 5646.59 
-845.221 111.289 5648.24 
-837.436 128.322 5634.23 
-837.125 128.932 5633.97 
-837.953 127.56 5634.76 
-838.377 126.184 5635.42 
-838.19 125.077 5635.63 
-837.946 126.26 5635 
-838.362 123.586 5636.45 
-846.079 95.2495 5660.47 
-846.609 94.0864 5663.77 
-846.309 94.3699 5662.92 
-847.281 93.4176 5665.41 
-850.751 89.318 5669.94 
-849.644 91.3956 5668.14 
-848.095 92.9204 5666.59 
-853.342 84.6987 5673.78 
-854.404 82.2584 5675.74 
-854.204 81.7269 5676.41 
-852.442 86.8038 5671.93 
-853.324 78.1143 5683.75 
-856.225 77.8416 5680.49 
-854.303 77.6883 5683.4 
-854.944 77.2226 5683.73 
-853.871 77.6906 5684.12 
-852.479 78.6808 5683.65 
-851.937 78.9319 5684.13 
-856.285 79.0884 5678.23 
-855.637 80.3344 5677.02 
-855.93 78.73 5679.03 
-855.947 78.3682 5679.59 
-849.899 80.168 5685.2 
-850.535 79.7751 5684.88 
-849.315 80.803 5685.22 
-851.563 78.9601 5684.83 
-850.908 79.35 5685.19 
-847.176 84.0927 5682.73 
-847.978 82.7673 5683.95 
-845.517 88.6299 5679.1 
-844.212 91.3747 5679.72 
-845.255 96.4457 5657.42 
-845.778 96.7532 5656.19 
-829.464 127.715 5632.8 
-830.355 128.566 5632.74 
-827.121 126.444 5633.41 
-824.56 124.355 5634.04 
-825.848 126.2 5633.86 
-825.058 124.525 5633.86 
-825.529 125.606 5633.85 
-830.136 129.765 5632.85 
-827.708 123.333 5632.57 
-828.339 123.406 5632.39 
-828.874 123.51 5632.27 
-830.208 123.332 5632.24 
-831.752 122.655 5632.58 
-832.477 121.987 5633.03 
-833.158 121.658 5633.47 
-834.619 118.958 5636.06 
-833.971 121.035 5634.26 
-834.798 120.383 5635.17 
-835.206 119.203 5636.28 
-835.897 116.48 5638.49 
-837.138 115.093 5639.89 
-835.28 117.775 5637.35 
-839.07 112.85 5641.98 
-838.636 113.539 5641.38 
-840.66 108.99 5645.31 
-841.067 108.571 5645.69 
-841.813 108.501 5646.05 
-844.844 105.264 5648.54 
-844.619 105.883 5648.2 
-846.304 103.68 5649.58 
-846.816 102.734 5650.1 
-846.752 101.55 5650.59 
-860.111 85.9619 5690.77 
-854.09 94.3651 5682.17 
-856.653 91.7845 5683.86 
-857.052 90.0074 5687.64 
-856.98 89.9515 5688.71 
-858.313 87.8599 5690.29 
-858.936 87.2807 5690.36 
-858.453 93.3209 5673.24 
-857.556 94.2256 5671.96 
-860.059 91.2606 5675.03 
-861.108 89.9197 5676.37 
-857.179 94.6213 5671.48 
-862.483 87.8407 5677.83 
-856.533 95.3485 5670.79 
-855.146 96.8966 5669.24 
-852.673 100.355 5665.9 
-852.533 100.772 5665.2 
-852.193 101.516 5663.36 
-851.959 101.763 5661.43 
-852.113 101.769 5662.4 
-832.18 130.663 5632.83 
-831.54 130.474 5632.78 
-836.678 129.791 5633.83 
-852.76 104.567 5656.13 
-852.713 104.58 5655.55 
-852.674 105.11 5654.24 
-852.156 102.29 5661.19 
-852.27 102.875 5660.55 
-852.176 105.904 5652.74 
-851.252 107.738 5651.5 
-851.607 107.207 5651.87 
-850.874 107.959 5651.18 
-851.966 106.289 5652.31 
-849.119 111.213 5651.02 
-849.214 110.086 5650.56 
-848.511 110.912 5650.51 
-847.475 111.246 5650.1 
-847.023 111.218 5649.83 
-842.796 116.879 5643.01 
-841.616 117.554 5641.93 
-840.582 118.589 5640.98 
-840.099 119.702 5640.3 
-840.309 119.195 5640.64 
-839.009 120.976 5638.59 
-843.094 115.474 5643.6 
-843.586 115.476 5644.25 
-844.044 113.826 5645.87 
-843.637 114.353 5644.9 
-844.424 111.951 5647.39 
-843.894 112.356 5646.37 
-844.899 110.973 5647.81 
-844.323 111.42 5647.16 
-838.876 122.333 5637.66 
-838.318 121.806 5637.35 
-836.834 128.201 5633.78 
-837.903 125.403 5635.24 
-838.428 124.507 5636.1 
-837.797 124.678 5635.41 
-837.589 126.582 5634.59 
-837.972 123.335 5636.17 
-847.027 93.9165 5664.19 
-846.954 94.5148 5662.72 
-846.655 94.8747 5661.47 
-850.093 90.8507 5668.5 
-850.725 89.8367 5669.33 
-848.596 93.0227 5666.42 
-854.092 83.397 5674.78 
-855.346 80.8958 5676.64 
-852.87 85.861 5672.74 
-853.332 77.8952 5684.41 
-852.828 78.2468 5684.18 
-856.841 77.5544 5680.59 
-852.239 78.5186 5684.56 
-856.948 78.5739 5678.7 
-856.481 78.409 5679.23 
-856.485 79.385 5677.74 
-856.474 78.1138 5679.74 
-848.805 81.3801 5685.25 
-850.385 79.5662 5685.7 
-849.741 80.044 5685.82 
-851.5 78.8082 5685.34 
-851.064 78.9069 5685.99 
-851.922 78.4546 5685.37 
-846.571 85.4938 5681.09 
-845.9 87.7268 5679.75 
-846.297 86.8056 5680.43 
-845.2 89.7027 5678.7 
-846.96 99.4674 5651.9 
-846.422 98.2417 5652.86 
-846.728 97.9763 5653.27 
-846.344 95.7138 5659.34 
-846.468 97.4114 5653.98 
-846.117 97.0331 5654.99 
-846.095 96.5247 5656.95 
-830.912 130.39 5632.75 
-826.503 123.298 5632.96 
-827.234 123.768 5632.8 
-830.262 129.268 5632.81 
-829.962 128.103 5632.76 
-829.059 127.176 5632.84 
-827.441 126.922 5633.4 
-826.16 123.934 5633.24 
-826.517 126.327 5633.61 
-825.876 124.927 5633.58 
-829.552 123.453 5632.25 
-830.651 123.661 5632.2 
-831.032 123.17 5632.35 
-832.077 123.04 5632.55 
-833.093 122.133 5633.22 
-833.644 122.383 5633.36 
-833.986 121.669 5633.9 
-834.371 121.356 5634.3 
-834.526 120.782 5634.72 
-835.908 118.01 5637.59 
-836.778 116.19 5639.16 
-836.356 116.98 5638.48 
-839.863 113.048 5642.21 
-838.867 114.206 5641.13 
-839.585 113.575 5641.78 
-840.884 109.711 5644.95 
-841.261 109.172 5645.45 
-842.143 107.861 5646.5 
-846.783 103.395 5649.82 
-847.259 102.532 5650.29 
-847.204 102.007 5650.5 
-847.065 99.938 5651.61 
-847.08 100.777 5651.11 
-847.382 101.263 5650.94 
-860.054 85.2806 5691.19 
-856.036 93.5204 5682.36 
-852.149 94.562 5682.03 
-849.811 94.8564 5681.75 
-856.738 90.1529 5685.93 
-856.321 90.8263 5685.33 
-856.969 89.7346 5689.22 
-859.106 86.3511 5690.74 
-859.566 91.979 5674.57 
-858.982 92.3694 5673.57 
-858.11 93.4152 5672.43 
-853.79 99.0185 5667.76 
-853.558 99.1635 5667.2 
-853.17 99.4906 5666.48 
-852.507 100.235 5665.41 
-835.907 129.597 5633.39 
-836.41 129.449 5633.57 
-834.288 130.756 5633.25 
-833.344 130.853 5633.04 
-852.631 104.602 5654.59 
-852.415 103.546 5658.23 
-852.12 102.536 5660.08 
-851.813 101.54 5661 
-851.323 106.902 5651.49 
-852.495 105.324 5653.68 
-852.045 105.409 5652.59 
-849.606 109.157 5650.46 
-848.302 110.545 5650.23 
-846.691 110.997 5649.46 
-846.042 111.045 5649.01 
-846.606 110.47 5649.12 
-842.766 115.896 5643.13 
-842.059 116.173 5642.43 
-840.131 118.385 5640.68 
-840.975 117.277 5641.47 
-839.484 119.366 5639.82 
-839.705 118.331 5640.36 
-839.093 119.494 5639.4 
-838.61 120.189 5638.58 
-842.723 115.102 5643.32 
-843.199 114.888 5643.89 
-842.376 115.584 5642.82 
-843.882 112.834 5646.09 
-836.533 128.805 5633.54 
-836.368 128.064 5633.44 
-837.374 127.16 5634.28 
-837.522 125.004 5635.03 
-837.393 125.54 5634.72 
-837.775 123.94 5635.69 
-837.364 124.264 5635.16 
-837.062 125.876 5634.34 
-837.456 122.919 5635.89 
-847.402 94.1382 5663.77 
-847.11 94.7051 5662.23 
-847.909 93.4872 5665.38 
-846.713 95.4309 5660.01 
-852.034 88.0667 5670.78 
-849.232 92.2998 5667.21 
-855.172 81.377 5676.23 
-853.421 85.9037 5672.46 
-853.992 84.1772 5674.04 
-853.254 77.7729 5684.91 
-852.565 78.1117 5685.04 
-857.256 77.8505 5679.81 
-857.252 77.5833 5680.26 
-849.309 80.434 5686.04 
-849.913 79.6694 5686.36 
-852.505 77.91 5685.76 
-851.746 78.4126 5685.84 
-851.301 78.5083 5686.49 
-848.388 81.7505 5685.56 
-846.68 85.638 5681.6 
-847.52 83.2268 5684.13 
-845.837 88.4431 5679.74 
-845.55 89.2124 5679.27 
-846.543 86.7534 5680.9 
-847.155 99.0698 5652.26 
-846.765 97.2057 5654.59 
-846.198 96.8809 5655.55 
-826.708 123.978 5633.04 
-830.88 128.129 5632.63 
-830.295 126.309 5632.43 
-828.229 126.612 5633.04 
-826.94 124.447 5633.06 
-826.365 125.188 5633.42 
-829.773 124.119 5632.2 
-830.526 124.263 5632.16 
-831.363 123.587 5632.32 
-832.144 123.61 5632.42 
-832.635 123.149 5632.7 
-832.731 122.689 5632.89 
-833.425 122.799 5633.11 
-834.216 122.454 5633.66 
-834.853 121.363 5634.61 
-835.403 120.962 5635.23 
-836.072 117.496 5637.99 
-834.48 122.044 5633.99 
-837.864 115.353 5640.13 
-840.033 111.765 5643.12 
-840.369 110.482 5644.18 
-840.632 112.125 5643.17 
-841.843 108.962 5645.84 
-846.322 104.264 5649.33 
-846.836 103.94 5649.62 
-843.397 107.201 5647.26 
-847.244 103.135 5650.05 
-847.788 102.225 5650.62 
-852.965 94.1858 5682.15 
-855.554 93.6443 5682.64 
-856.209 91.9492 5684.23 
-856.247 90.1264 5686.54 
-856.471 90.0002 5687.63 
-856.419 89.8221 5688.85 
-857.469 89.2339 5689.75 
-857.459 88.4985 5690.05 
-860.625 90.2458 5675.4 
-864.25 85.2787 5679.63 
-859.654 91.3374 5674.22 
-854.68 97.2391 5668.44 
-856.255 95.6207 5670.45 
-860.109 90.798 5674.76 
-852.792 99.7245 5665.86 
-852.305 101.462 5663.99 
-851.895 101.415 5662.11 
-835.188 130.3 5633.36 
-835.463 129.419 5633.16 
-833.029 130.335 5632.82 
-852.701 104.295 5657.19 
-850.723 107.351 5650.94 
-851.658 106.401 5651.92 
-851.307 106.345 5651.49 
-851.615 105.761 5651.95 
-852.215 105.256 5653.04 
-852.029 104.771 5652.86 
-851.655 105.281 5652.13 
-849.151 109.428 5650.26 
-849.904 108.61 5650.49 
-845.821 110.662 5648.66 
-845.339 110.727 5648.2 
-841.983 115.57 5642.49 
-841.492 115.814 5642.06 
-839.18 118.965 5639.71 
-839.605 118.849 5640.13 
-839.233 117.927 5640.08 
-840.322 116.908 5641.05 
-838.485 119.613 5638.79 
-838.789 118.987 5639.35 
-837.758 121.159 5637.16 
-843.177 114.06 5644.29 
-843.593 113.546 5645.24 
-843.98 111.355 5646.73 
-843.447 112.592 5645.56 
-844.393 110.831 5647.27 
-836.924 127.343 5633.92 
-835.872 127.967 5633.18 
-836.435 127.474 5633.54 
-835.887 128.755 5633.19 
-837.05 126.716 5634.11 
-837.314 123.386 5635.52 
-836.962 123.737 5635.02 
-836.904 125.379 5634.37 
-836.88 122.419 5635.65 
-847.317 94.3451 5663.29 
-851.365 89.556 5669.49 
-853.084 86.7314 5671.74 
-850.579 90.3412 5668.85 
-856.05 80.0052 5677.18 
-854.62 84.2923 5673.69 
-854.701 83.5532 5674.37 
-855.218 81.8267 5675.79 
-855.983 80.6224 5676.59 
-853.93 77.3402 5685.04 
-857.577 78.1129 5679.21 
-857.041 78.8447 5678.24 
-849.419 80.0016 5686.65 
-850.499 79.2733 5686.19 
-850.193 79.229 5686.89 
-849.554 79.6 5687.24 
-852.015 77.9952 5686.39 
-851.427 78.2104 5686.98 
-848.834 80.9904 5686.1 
-847.136 83.5563 5684.47 
-846.81 84.4671 5682.97 
-848.065 82.1692 5685.43 
-846.196 87.6333 5680.36 
-845.226 90.0138 5679.15 
-844.582 91.0387 5679.84 
-847.465 99.6997 5651.92 
-846.868 98.6745 5652.57 
-847.261 98.222 5653.25 
-847.163 97.7264 5653.79 
-847.473 98.8446 5652.66 
-846.872 95.6745 5659.43 
-846.818 97.0106 5655.27 
-827.837 124.06 5632.64 
-831.012 128.89 5632.67 
-831.253 126.768 5632.36 
-830.897 129.649 5632.74 
-829.363 124.894 5632.32 
-829.746 125.999 5632.47 
-829.074 125.98 5632.64 
-826.873 125.497 5633.27 
-827.327 124.783 5633 
-828.435 124.113 5632.41 
-827.921 124.615 5632.72 
-829.214 124.031 5632.23 
-829.957 125.064 5632.28 
-830.992 124.068 5632.17 
-831.173 124.713 5632.16 
-832.456 124.161 5632.34 
-832.742 123.645 5632.58 
-833.226 123.424 5632.83 
-833.692 123.242 5633.07 
-834.115 122.991 5633.38 
-835.703 121.534 5635.11 
-835.388 121.746 5634.76 
-835.02 122.138 5634.29 
-835.849 121.164 5635.44 
-835.889 119.603 5636.51 
-836.669 118.431 5637.91 
-836.75 116.902 5638.79 
-834.862 122.651 5633.95 
-838.574 115.092 5640.59 
-841.079 110.176 5644.74 
-841.392 109.685 5645.22 
-840.148 114.097 5641.78 
-842.342 108.443 5646.32 
-847.279 103.735 5649.83 
-845.19 106.123 5648.27 
-842.675 108.033 5646.63 
-847.808 102.746 5650.4 
-847.877 101.643 5650.93 
-847.537 100.399 5651.51 
-855.833 90.9736 5685.76 
-850.533 94.5587 5681.86 
-855.964 89.9819 5688 
-849.568 94.4064 5681.78 
-856.731 89.0832 5689.43 
-857.58 87.7615 5690.41 
-858.238 86.6898 5690.84 
-859.005 85.7605 5691.05 
-861.63 89.0615 5676.48 
-863.955 85.6722 5679.44 
-864.985 84.5451 5680.84 
-861.036 89.64 5675.7 
-865.513 83.4113 5681.93 
-854.944 96.8012 5668.69 
-854.262 98.223 5668.01 
-852.32 100.9 5664.36 
-852.121 100.959 5663.82 
-833.794 130.27 5632.96 
-852.555 103.764 5657.19 
-852.692 104.157 5656.48 
-852.57 104.041 5655.7 
-852.455 103.56 5656.37 
-851.535 101.031 5660.49 
-851.892 101.131 5662.72 
-850.286 108.033 5650.67 
-852.369 104.736 5653.67 
-852.449 103.973 5654.89 
-848.199 109.651 5649.76 
-849.217 108.746 5650.08 
-846.937 109.979 5649.15 
-845.6 110.106 5648.25 
-846.162 110.145 5648.7 
-838.866 118.479 5639.61 
-841.128 115.495 5641.86 
-837.977 119.27 5638.51 
-838.411 118.99 5639.02 
-838.438 118.362 5639.33 
-842.353 114.852 5643.01 
-843.338 112.92 5645.18 
-843.48 112.173 5645.85 
-843.833 111.814 5646.49 
-843.48 111.428 5646.13 
-845.182 110.328 5647.91 
-836.478 126.937 5633.62 
-835.971 127.327 5633.25 
-835.405 128.395 5632.92 
-836.648 126.278 5633.9 
-836.556 123.913 5634.61 
-836.775 124.703 5634.47 
-836.676 122.844 5635.24 
-836.307 125.221 5633.96 
-836.581 122.015 5635.59 
-847.698 94.5899 5662.73 
-847.596 93.7181 5664.73 
-848.089 93.3 5665.89 
-854.054 85.5717 5672.64 
-849.039 92.7161 5666.75 
-851.777 88.7523 5670.19 
-856.663 80.0824 5676.98 
-855.236 83.19 5674.55 
-855.71 81.8141 5675.67 
-856.333 80.9196 5676.28 
-858.674 77.4549 5679.93 
-858.001 78.3026 5678.69 
-857.077 79.4915 5677.5 
-850.71 78.9077 5686.67 
-850.052 79.0495 5687.6 
-852.396 77.6283 5686.69 
-847.153 83.3614 5685 
-846.83 84.1792 5684.16 
-848.478 81.1511 5686.66 
-847.995 100.137 5651.86 
-847.801 99.3034 5652.41 
-846.333 96.6506 5656.36 
-846.955 96.7684 5656.2 
-831.685 127.992 5632.49 
-831.455 127.3 5632.41 
-831.317 125.376 5632.16 
-830.542 125.253 5632.23 
-831.964 125.763 5632.21 
-831.833 129.952 5632.75 
-828.859 124.608 5632.34 
-828.414 124.985 5632.63 
-828.486 125.913 5632.82 
-827.631 125.715 5633.06 
-827.908 125.139 5632.87 
-831.756 124.036 5632.28 
-831.821 125.262 5632.18 
-832.224 124.655 5632.25 
-832.899 124.749 5632.33 
-833.05 124.066 5632.57 
-833.6 123.924 5632.83 
-834.463 123.851 5633.27 
-836.153 121.589 5635.43 
-835.857 122.226 5634.88 
-835.5 122.59 5634.43 
-836.395 120.045 5636.62 
-837.136 118.683 5638.12 
-836.726 117.83 5638.28 
-837.24 116.636 5639.23 
-835.397 123.451 5633.95 
-834.917 123.567 5633.62 
-841.015 110.707 5644.33 
-840.513 113.186 5642.47 
-840.311 113.627 5642.1 
-840.079 114.553 5641.55 
-842.319 109.042 5646.05 
-842.95 108.472 5646.59 
-847.296 104.364 5649.58 
-846.821 104.969 5649.2 
-848.426 102.029 5650.95 
-848.128 100.671 5651.59 
-851.102 94.2026 5681.96 
-855.718 90.1088 5687.13 
-850.171 94.1804 5681.86 
-857.989 87.4659 5690.55 
-859.077 85.2358 5691.3 
-862.407 87.9418 5677.26 
-863.643 85.9916 5678.82 
-855.966 95.7049 5669.9 
-861.858 88.4848 5676.52 
-861.335 89.0571 5675.85 
-863.43 86.0533 5678.25 
-853.883 98.5406 5667.34 
-852.412 99.7153 5665.15 
-852.416 100.433 5664.84 
-834.809 129.899 5633.09 
-834.342 130.261 5633.09 
-834.911 129.112 5632.87 
-833.35 129.901 5632.78 
-832.568 129.916 5632.75 
-852.23 102.987 5656.85 
-852.305 103.07 5657.6 
-852.187 103.041 5655.95 
-851.933 102.073 5659.44 
-851.67 101.039 5661.54 
-851.334 105.275 5651.74 
-851.182 105.646 5651.44 
-852.423 104.178 5654.25 
-852.221 104.218 5653.71 
-851.692 104.64 5652.37 
-847.876 109.305 5649.45 
-849.299 108.248 5650 
-849.934 107.859 5650.35 
-846.688 109.581 5648.85 
-841.379 115.046 5642.17 
-841.798 115.041 5642.48 
-838.522 117.623 5639.64 
-839.873 116.484 5640.85 
-837.591 118.804 5638.41 
-837.177 120.68 5636.9 
-838.083 117.983 5639.2 
-842.482 114.452 5643.32 
-842.829 113.557 5644.09 
-842.912 112.488 5644.81 
-843.177 111.794 5645.57 
-843.643 110.903 5646.41 
-844.716 110.199 5647.56 
-843.968 110.685 5646.78 
-836.033 126.572 5633.35 
-836.249 125.87 5633.71 
-835.848 125.424 5633.55 
-836.129 124.461 5634.09 
-847.722 93.9719 5664.23 
-847.856 94.3344 5663.42 
-847.101 94.9416 5660.95 
-853.88 86.1089 5672.19 
-855.3 83.6027 5674.17 
-849.686 92.6006 5666.84 
-849.983 92.1094 5667.42 
-850.056 91.5559 5667.87 
-850.971 90.8171 5668.46 
-851.43 90.0921 5669.03 
-852.919 87.9879 5670.71 
-856.183 81.5526 5675.79 
-858.84 77.7578 5679.36 
-849.21 79.991 5687.18 
-849.397 79.5317 5687.72 
-851.179 78.2244 5687.44 
-850.626 78.6819 5687.38 
-850.477 78.5352 5688.03 
-849.775 79.0233 5688.2 
-851.987 77.6858 5687.28 
-848.871 80.4893 5687.01 
-847.815 82.2873 5685.9 
-848.568 80.6368 5687.47 
-845.499 89.8768 5679.58 
-844.962 90.7852 5680.18 
-848.187 99.7705 5652.28 
-847.568 97.4979 5654.41 
-847.371 95.7285 5659.27 
-832.226 126.225 5632.25 
-832.054 129.478 5632.69 
-831.917 128.47 5632.54 
-832.382 126.976 5632.31 
-832.902 125.759 5632.25 
-833.36 125.135 5632.45 
-833.766 124.652 5632.68 
-834.316 124.278 5633.03 
-834.912 124.231 5633.39 
-834.96 124.941 5633.18 
-836.085 122.99 5634.67 
-837.385 118.171 5638.59 
-837.29 117.572 5638.81 
-837.904 117.189 5639.39 
-838.487 115.613 5640.34 
-835.577 124.245 5633.78 
-841.559 110.963 5644.52 
-841.655 110.311 5644.96 
-840.95 113.55 5642.54 
-842.025 109.492 5645.68 
-847.972 103.737 5650.06 
-843.605 107.882 5647.1 
-848.265 102.47 5650.69 
-848.391 101.301 5651.33 
-856.125 89.1743 5689.07 
-849.313 93.9438 5681.8 
-857.075 88.0187 5690.04 
-858.342 86.1386 5691.06 
-864.891 84.2112 5680.36 
-865.459 83.3932 5681.25 
-854.035 97.6354 5667.53 
-857.707 93.4957 5671.74 
-862.954 87.0501 5677.95 
-853.506 98.2863 5666.92 
-852.167 100.223 5664.3 
-852.963 99.1027 5666.11 
-853.505 98.8087 5666.84 
-851.926 100.122 5663.82 
-851.691 100.685 5662.55 
-851.972 100.606 5663.44 
-834.248 128.718 5632.68 
-834.809 128.457 5632.73 
-834.249 129.674 5632.92 
-833.651 129.355 5632.73 
-833.133 129.019 5632.6 
-832.453 128.84 5632.58 
-851.803 101.765 5659.04 
-851.948 102.467 5656.25 
-851.893 102.496 5655.43 
-852.275 103.367 5655.29 
-851.278 100.536 5660.18 
-851.529 100.861 5660.98 
-850.995 106.707 5651.14 
-850.874 106.099 5651.05 
-850.751 105.607 5651.03 
-852.181 103.638 5654.16 
-851.865 104.044 5653.04 
-847.329 108.985 5649.03 
-848.958 107.966 5649.72 
-848.492 108.57 5649.57 
-845.871 109.581 5648.32 
-841.496 114.532 5642.44 
-839.468 116.233 5640.67 
-839.054 115.929 5640.52 
-840.597 115.083 5641.63 
-838.052 118.641 5638.88 
-842.339 113.17 5643.81 
-835.428 127.037 5632.97 
-835.342 127.581 5632.89 
-835.535 126.19 5633.15 
-835.421 125.107 5633.39 
-847.412 94.7904 5661.81 
-848.197 93.8622 5664.83 
-850.525 91.2344 5668.11 
-851.595 90.5726 5668.66 
-851.855 89.7866 5669.27 
-853.555 87.2538 5671.3 
-856.895 80.8189 5676.28 
-857.093 80.2847 5676.73 
-857.674 78.877 5678.07 
-848.986 79.878 5687.95 
-850.841 78.1534 5688.33 
-851.277 77.9795 5687.92 
