-901.726 406.346 5553.83 
-902.579 404.258 5551.82 
-903.309 402.288 5549.57 
-903.603 401.023 5547.12 
-904.246 399.606 5544.86 
-905.465 399.091 5544.08 
-916.743 404.732 5530.85 
-917.227 404.485 5531.07 
-917.856 404.495 5531.28 
-913.549 401.501 5533.61 
-914.101 402.267 5532.94 
-915.588 404.467 5531.01 
-915.148 403.055 5532.1 
-915.435 403.749 5531.53 
-919.782 405.498 5530.72 
-920.84 405.992 5530.12 
-923.126 407.087 5527.96 
-923.144 407.117 5527.43 
-921.944 406.487 5529.56 
-922.864 406.922 5529.01 
-923.279 407.131 5528.44 
-924.558 407.753 5526.79 
-925.483 408.182 5526.04 
-925.622 408.264 5525.54 
-926.357 408.605 5524.95 
-925.858 408.404 5524.65 
-926.893 408.878 5523.98 
-927.817 409.287 5522.99 
-926.69 406.828 5518.11 
-928.005 408.254 5520.7 
-927.888 407.862 5519.95 
-928.312 407.498 5519.08 
-926.34 406.141 5516.62 
-929.358 408.81 5521.35 
-926.602 405.895 5515.99 
-930.03 408.878 5521.24 
-929.794 409.288 5522.1 
-929.654 409.52 5522.59 
-929.029 409.558 5522.88 
-930.151 409.746 5522.84 
-917.612 404.133 5512.77 
-920.546 404.831 5514 
-923.634 405.467 5515.03 
-927.049 405.74 5515.58 
-910.47 402.417 5510.05 
-913.042 402.916 5510.73 
-907.724 401.726 5509.27 
-909.608 401.932 5509.22 
-911.123 402.077 5509.38 
-904.417 400.518 5508.49 
-907.205 401.33 5508.77 
-916.637 403.42 5511.33 
-906.375 394.084 5503.99 
-905.369 395.665 5504.44 
-905.647 395.057 5504.19 
-904.146 399.831 5507.75 
-905.307 400.468 5508.18 
-905.682 399.978 5507.52 
-905.815 399.138 5506.66 
-907.193 399.835 5507.05 
-908.139 400.339 5507.43 
-904.53 397.931 5505.86 
-904.624 397.341 5505.45 
-908.594 389.461 5504.17 
-908.476 390.174 5504.25 
-908.276 391.275 5504.32 
-906.92 392.527 5503.66 
-907.337 393.03 5504.04 
-901.911 383.152 5549.31 
-903.594 383.077 5545.33 
-904.779 382.902 5542.65 
-905.39 381.818 5540.2 
-906.978 380.258 5533.79 
-906.911 380.567 5534.46 
-907.106 377.969 5529.86 
-907.14 378.57 5530.5 
-907.106 378.994 5532.19 
-906.989 380.994 5534.98 
-905.866 381.972 5538.98 
-907.107 378.709 5528.94 
-908.162 380.306 5516.51 
-907.015 379.983 5521.91 
-907.066 379.742 5521.34 
-906.824 379.661 5524.23 
-906.874 379.454 5526.32 
-909.729 381.402 5510.57 
-910.292 386.24 5505.92 
-910.337 385.643 5506.74 
-910.386 385.145 5507.01 
-910.395 384.617 5507.66 
-910.259 383.854 5508.86 
-910.132 383.233 5509.17 
-909.941 382.08 5510.39 
-910.208 383.284 5510.04 
-911.38 378.288 5490.21 
-912.289 378.296 5490.75 
-911.736 378.045 5490.69 
-910.465 377.727 5490.56 
-906.525 378.414 5489.37 
-913.509 379.029 5493.01 
-913.563 379.18 5492.49 
-913.036 378.607 5491.29 
-912.682 378.249 5491.14 
-912.878 378.264 5491.64 
-906.158 377.187 5490.77 
-906.075 376.883 5491.25 
-906.762 376.682 5491.39 
-907.58 376.033 5492.14 
-910.208 375.417 5492.91 
-910.796 375.312 5493.06 
-906.711 399.06 5543.04 
-907.78 399.075 5542.09 
-908.824 399.065 5541.2 
-909.351 399.411 5540.33 
-910.472 399.098 5539.72 
-911.583 398.874 5538.94 
-911.59 399.46 5538.19 
-911.811 399.655 5537.42 
-912.173 399.455 5536.69 
-912.271 399.827 5535.92 
-912.425 400.175 5535.05 
-912.885 400.82 5534.24 
-902.027 405.412 5554.18 
-903.074 403.491 5552.18 
-903.746 401.675 5550.1 
-904.103 400.254 5547.5 
-904.623 398.999 5545.34 
-905.805 398.402 5544.61 
-906.718 398.504 5543.69 
-913.816 401.031 5533.89 
-914.311 401.797 5533.23 
-915.033 402.447 5532.55 
-916.261 404.644 5530.72 
-915.945 403.258 5531.44 
-916.215 403.825 5531.01 
-916.758 404.008 5531.04 
-917.2 403.736 5531.25 
-919.183 405.129 5531.17 
-920.634 405.539 5530.59 
-922.522 406.491 5529.55 
-918.721 404.285 5531.55 
-919.699 404.825 5531.23 
-924.473 407.671 5527.82 
-923.52 407.005 5529 
-924.272 407.467 5528.51 
-925.147 407.903 5528 
-925.82 408.295 5526.77 
-926.175 408.47 5526.27 
-926.984 408.844 5525.65 
-927.808 409.241 5524.67 
-927.304 409.039 5524.34 
-928.265 409.478 5523.74 
-929.425 409.764 5523.13 
-928.19 406.903 5517.91 
-929.449 407.436 5518.57 
-929.94 408.337 5520.23 
-929.796 407.997 5519.6 
-930.552 407.961 5519.33 
-928.642 406.686 5517.32 
-930.624 409.169 5521.55 
-928.828 406.43 5516.73 
-930.633 409.689 5522.55 
-931.134 409.476 5521.91 
-931.058 409.914 5522.81 
-919.961 404.21 5512.63 
-922.162 404.873 5513.82 
-925.207 405.416 5514.83 
-928.186 405.811 5515.62 
-929.339 406.342 5516.39 
-913.592 402.576 5510.08 
-916.597 403 5510.53 
-908.868 401.676 5508.96 
-911.764 401.769 5508.81 
-914.099 402.293 5509.55 
-908.543 401.373 5508.57 
-918.986 403.768 5511.77 
-905.934 395.71 5504.53 
-905.254 396.372 5504.76 
-905.79 396.363 5504.79 
-907.336 400.754 5508.04 
-908.626 400.775 5507.87 
-906.427 398.886 5506.38 
-908.576 399.903 5506.95 
-908.56 399.494 5506.6 
-909.268 400.329 5507.29 
-910.011 400.766 5507.67 
-907.088 398.643 5506.13 
-906.332 398.158 5505.87 
-905.096 396.956 5505.18 
-909.523 388.246 5505.14 
-909.364 388.762 5505.16 
-908.895 389.811 5504.58 
-908.775 391.165 5504.61 
-907.989 391.711 5504.19 
-906.905 393.751 5504.09 
-902.785 383.509 5547.39 
-901.663 384.437 5550.46 
-903.951 384.132 5545.21 
-904.938 384.068 5543.2 
-905.422 383.008 5541.08 
-907.275 380.613 5533.53 
-907.262 381.011 5534.25 
-907.394 379.57 5531.76 
-907.273 379.996 5532.76 
-907.334 381.487 5534.87 
-906.17 381.46 5537.57 
-906.59 381.281 5536.35 
-907.271 381.7 5535.37 
-906.157 383.304 5539.68 
-912.98 376.863 5495.07 
-912.487 376.226 5494.42 
-907.226 378.829 5529.94 
-907.305 380.383 5521.32 
-907.063 380.372 5522.6 
-906.993 379.855 5526.79 
-910.214 386.805 5505.95 
-910.225 383.188 5510.58 
-911.324 377.508 5491.11 
-910.874 377.552 5490.86 
-911.875 377.527 5491.36 
-912.306 377.579 5491.66 
-907.432 378.96 5488.84 
-908.431 378.97 5488.84 
-910.687 376.782 5491.62 
-910.286 377.212 5491.13 
-909.923 377.908 5490.24 
-909.788 377.052 5491.23 
-906.074 377.902 5489.91 
-906.578 377.856 5490.06 
-913.308 378.513 5492.37 
-913.416 378.79 5493.45 
-913.354 378.536 5492.94 
-913.46 378.862 5494.6 
-912.628 377.667 5492.04 
-906.783 377.128 5490.94 
-906.822 377.561 5490.47 
-907.89 376.336 5491.78 
-908.701 376.074 5492.15 
-909.175 375.552 5492.78 
-911.353 375.622 5493.24 
-912.122 375.778 5493.87 
-912.415 376.31 5493.63 
-912.723 376.512 5494.78 
-907.842 398.473 5542.76 
-908.885 398.414 5541.92 
-909.967 398.206 5541.23 
-910.114 398.664 5540.56 
-911.304 398.44 5539.77 
-912.058 398.668 5538.04 
-912.218 398.947 5537.23 
-912.517 399.661 5535.46 
-913.009 400.323 5534.57 
-901.277 405.262 5555.63 
-902.549 403.889 5553.87 
-903.752 402.089 5551.87 
-904.536 400.136 5549.63 
-904.484 399.765 5548.1 
-905.092 398.284 5545.83 
-906.286 397.731 5544.99 
-907.107 397.811 5544.18 
-907.893 397.885 5543.42 
-917.72 403.753 5531.41 
-919.343 403.909 5531.59 
-913.744 400.379 5534.37 
-914.586 401.038 5533.65 
-914.851 401.71 5533.1 
-915.743 402.563 5531.97 
-916.52 402.908 5531.28 
-916.853 403.328 5531.23 
-922.199 405.933 5529.98 
-923.405 406.541 5529.32 
-924.104 406.968 5528.89 
-920.221 404.559 5531.26 
-926.233 408.401 5527.43 
-925.647 408.201 5527.23 
-924.933 407.437 5528.4 
-925.844 407.918 5527.89 
-926.879 408.425 5527.33 
-927.151 408.853 5526.84 
-927.298 408.948 5526.34 
-927.754 409.169 5525.78 
-928.314 409.442 5525.04 
-929.192 409.845 5524.45 
-928.744 409.669 5524.08 
-929.729 410.041 5523.59 
-930.558 409.953 5523.08 
-930.382 407.393 5518.21 
-931.054 407.838 5518.96 
-930.744 408.763 5520.72 
-931.085 409.104 5521.2 
-930.786 408.389 5520.06 
-931.298 408.317 5519.72 
-930.742 407.174 5517.69 
-931.535 409.375 5521.52 
-930.944 406.932 5517.15 
-931.606 410.056 5522.84 
-931.434 409.712 5522.24 
-931.897 409.907 5522.42 
-931.885 410.297 5523.2 
-922.089 404.186 5512.3 
-923.846 404.955 5513.83 
-926.74 405.336 5514.64 
-929.336 405.995 5515.73 
-930.699 406.544 5516.39 
-917.555 402.847 5510.15 
-919.954 403.531 5511.12 
-914.107 401.979 5509.07 
-912.285 401.504 5508.44 
-910.423 401.637 5508.59 
-916.603 402.348 5509.49 
-909.165 401.166 5508.23 
-906.318 396.469 5504.94 
-906.576 395.79 5504.64 
-906.333 394.798 5504.2 
-906.149 396.967 5505.16 
-910.582 401.108 5507.97 
-910.149 400.36 5507.25 
-910.302 399.932 5506.85 
-910.775 400.3 5507.15 
-911.42 400.809 5507.61 
-912.312 401.061 5507.88 
-909.479 399.479 5506.52 
-910.827 399.524 5506.51 
-907.325 398.114 5505.75 
-909.977 387.113 5505.54 
-909.862 388.11 5505.62 
-908.977 389.126 5504.74 
-907.831 392.199 5504.13 
-907.629 393.484 5504.31 
-906.803 394.266 5504.18 
-902.931 384.356 5547.59 
-902.007 386.677 5551.11 
-904.311 385.206 5545.22 
-905.401 384.357 5542.27 
-901.79 390.091 5554.2 
-903.092 392.134 5553.7 
-907.672 380.887 5532.85 
-907.569 381.125 5533.59 
-907.623 381.581 5534.23 
-907.231 379.417 5530.92 
-907.541 380.366 5531.98 
-907.649 382.004 5534.88 
-906.716 382.654 5537.89 
-907.242 381.944 5535.81 
-907.016 382.38 5536.91 
-907.581 382.203 5535.36 
-906.935 384.538 5539.51 
-905.997 385.069 5541.69 
-908.361 380.854 5516.6 
-907.534 379.992 5519.36 
-907.23 380.64 5521.84 
-906.957 380.254 5524.19 
-907.491 380.047 5529.34 
-907.28 379.436 5529.23 
-907.399 379.736 5530.27 
-909.592 381.582 5511.18 
-909.104 381.37 5513.57 
-910.288 386.154 5506.49 
-910.419 384.335 5509.15 
-910.331 383.796 5509.88 
-911.607 376.62 5492.12 
-912.007 376.689 5492.49 
-908.811 378.298 5489.75 
-907.163 378.4 5489.55 
-913.063 377.83 5493.3 
-912.916 377.74 5492.61 
-913.325 377.991 5494.96 
-913.227 377.969 5494.2 
-913.325 377.715 5495.39 
-912.365 376.751 5492.84 
-908.059 376.71 5491.36 
-907.3 377.11 5490.97 
-911.81 375.822 5493.47 
-912.69 376.625 5494.17 
-908.83 397.796 5542.71 
-909.837 397.635 5542.03 
-910.867 397.505 5541.21 
-911.245 397.902 5540.4 
-912.02 398.158 5538.82 
-912.609 399.124 5535.92 
-912.951 399.723 5535.02 
-901.137 404.338 5556.17 
-902.605 402.927 5554.1 
-904.389 400.7 5551.45 
-905.317 398.497 5548.78 
-905.226 398.15 5547.07 
-906.153 397.289 5545.64 
-907.47 397.145 5544.67 
-908.448 397.176 5543.78 
-918.175 403.119 5531.72 
-918.592 402.523 5531.98 
-918.616 403.447 5531.75 
-913.66 399.725 5534.85 
-914.459 400.385 5534.13 
-915.313 401.202 5533.04 
-915.607 401.909 5532.43 
-916.402 402.447 5531.55 
-917.048 402.181 5531.58 
-917.105 402.808 5531.44 
-917.632 403.088 5531.55 
-924.816 406.948 5528.73 
-925.587 407.4 5528.27 
-921.907 405.051 5530.6 
-921.518 405.378 5530.48 
-922.744 405.904 5529.87 
-927.795 408.933 5526.8 
-926.353 407.847 5527.81 
-928.605 409.442 5526.26 
-928.773 409.605 5525.81 
-928.958 409.709 5525.24 
-930.104 410.227 5524.65 
-930.186 410.247 5523.86 
-930.569 410.428 5524.15 
-931.197 410.428 5523.74 
-931.51 407.725 5518.61 
-931.768 408.22 5519.36 
-931.305 408.751 5520.48 
-931.801 409.612 5521.88 
-931.926 408.792 5520.29 
-931.781 407.515 5518.13 
-932.069 407.338 5517.7 
-932.376 410.037 5522.49 
-932.087 407.002 5517.07 
-932.278 410.519 5523.48 
-932.494 410.768 5523.88 
-923.017 404.175 5512.26 
-925.574 404.933 5513.79 
-927.85 405.341 5514.62 
-929.802 405.914 5515.45 
-932.222 406.757 5516.57 
-919.293 402.963 5510.13 
-914.829 401.825 5508.83 
-917.388 402.149 5509.07 
-912.966 401.365 5508.26 
-906.926 395.161 5504.48 
-907.176 395.794 5504.72 
-907.033 396.25 5504.9 
-907.635 397.312 5505.32 
-907.896 398.146 5505.74 
-909.043 398.374 5505.85 
-911.201 399.969 5506.82 
-912.021 399.987 5506.82 
-912.183 400.688 5507.47 
-914.446 401.23 5508.04 
-913.562 400.727 5507.53 
-915.459 401.486 5508.34 
-911.527 399.561 5506.55 
-912.988 400.047 5506.92 
-910.127 399.087 5506.23 
-912.265 399.594 5506.61 
-909.685 388.622 5505.53 
-908.965 390.316 5504.76 
-907.843 392.905 5504.21 
-908.488 391.85 5504.46 
-907.458 394.164 5504.35 
-903.052 385.597 5548.12 
-903.088 388.958 5550.48 
-902.908 390.248 5552.2 
-903.839 385.831 5546.61 
-905.087 385.916 5544.27 
-903.853 391.763 5552.2 
-902.13 392.931 5555.91 
-903.22 392.686 5553.95 
-905.915 392.465 5549.56 
-905.275 392.691 5550.76 
-907.958 382.128 5534.24 
-907.939 382.508 5534.93 
-907.355 384.283 5538.39 
-907.458 382.43 5536 
-907.537 383.609 5537.22 
-907.847 382.712 5535.45 
-907.337 386.185 5540.44 
-906.109 386.502 5542.89 
-907.722 380.523 5519.39 
-906.99 380.395 5524.86 
-909.885 382.124 5510.97 
-909.686 382.085 5512.21 
-909.29 382.027 5514.13 
-910.358 385.614 5507.29 
-910.38 384.403 5508.62 
-910.494 384.976 5508.07 
-910.105 382.691 5510.67 
-911.747 376.295 5492.71 
-911.259 376.037 5492.49 
-908.087 378.168 5489.96 
-909.37 377.213 5491 
-908.176 377.639 5490.49 
-907.29 377.925 5490.17 
-910.03 376.391 5491.94 
-910.18 376.836 5491.5 
-908.959 376.735 5491.44 
-909.473 376.523 5491.74 
-912.749 376.98 5493.45 
-912.976 377.106 5494.32 
-908.605 376.394 5491.77 
-908.151 377.164 5490.93 
-909.39 376.142 5492.16 
-910.016 375.865 5492.46 
-909.52 397.099 5542.94 
-910.633 396.967 5541.88 
-911.795 398.049 5539.58 
-912.228 398.106 5538.32 
-912.319 398.434 5537.63 
-912.652 398.622 5536.47 
-912.934 399.16 5535.44 
-901.561 402.996 5555.88 
-903.134 401.652 5553.6 
-905.174 399.102 5550.53 
-903.865 400.19 5552.81 
-906.307 396.454 5547.3 
-906.02 396.929 5546.55 
-907.264 396.661 5545.42 
-908.412 396.471 5544.65 
-909.344 396.464 5543.85 
-919.882 403.939 5531.52 
-913.494 399.031 5535.38 
-914.361 399.747 5534.56 
-915.234 400.601 5533.43 
-916.103 401.649 5532.18 
-917.536 401.904 5531.81 
-917.904 402.445 5531.8 
-926.174 407.311 5528.19 
-926.927 407.763 5527.73 
-923.274 405.378 5530.07 
-924.267 406.321 5529.25 
-929.192 409.403 5526.18 
-927.431 408.374 5527.23 
-928.936 408.67 5526.7 
-928.432 408.936 5526.65 
-930.014 409.433 5525.97 
-930.041 410.174 5525.22 
-931.72 410.887 5524.45 
-931.572 410.653 5524.03 
-932.288 408.142 5519.01 
-932.748 408.981 5520.26 
-932.814 408.744 5519.81 
-932.229 409.215 5520.92 
-932.493 409.518 5521.4 
-933.475 410.113 5522.17 
-933.845 409.539 5520.87 
-932.766 408.129 5518.77 
-933.002 407.901 5518.27 
-932.611 410.31 5522.94 
-933.619 410.357 5522.6 
-933.191 407.649 5517.76 
-932.886 410.668 5523.53 
-924.652 404.284 5512.57 
-926.433 404.757 5513.48 
-928.445 405.277 5514.46 
-931.159 406.377 5516.01 
-933.048 407.065 5516.81 
-921.19 403.493 5510.93 
-923.954 403.922 5511.79 
-916.76 401.719 5508.58 
-919.013 402.47 5509.37 
-907.44 394.808 5504.49 
-907.682 396.353 5504.96 
-908.543 397.534 5505.42 
-910.416 398.55 5505.97 
-911.086 398.535 5506.01 
-911.215 399.035 5506.23 
-912.108 399.085 5506.33 
-914.552 400.478 5507.34 
-915.6 401.158 5507.97 
-914.866 400.827 5507.65 
-916.703 401.156 5507.97 
-913.919 400.087 5507.03 
-912.976 399.61 5506.67 
-909.53 389.275 5505.2 
-909.275 389.927 5504.98 
-909.38 390.402 5505.17 
-908.186 393.291 5504.48 
-907.873 395.188 5504.66 
-908.044 394.658 5504.59 
-908.134 394.049 5504.53 
-908.605 394.256 5504.67 
-904.22 388.814 5548.34 
-905.256 390.652 5548.61 
-905.639 391.786 5549.31 
-904.99 387.78 5546.07 
-905.2 386.954 5544.96 
-903.214 393.077 5554.3 
-904.399 392.887 5552.29 
-907.122 391.791 5546.9 
-907.045 392.248 5547.5 
-907.763 391.457 5545.47 
-906.388 392.753 5549.07 
-907.871 381.582 5533.52 
-908.116 382.118 5533.66 
-907.546 380.203 5531.1 
-907.91 381.148 5532.29 
-908.228 382.677 5534.41 
-908.313 383.198 5534.95 
-907.958 385.742 5538.78 
-908.007 383.45 5535.88 
-908.117 384.879 5537.38 
-908.499 383.933 5535.29 
-908.036 387.626 5540.62 
-907.049 387.895 5542.64 
-908.572 381.39 5516.63 
-907.558 381.062 5521.3 
-907.183 380.29 5527.21 
-907.654 380.238 5530.13 
-907.8 380.583 5530.73 
-909.907 382.262 5511.58 
-910.518 384.095 5510.62 
-910.618 375.728 5492.64 
-910.54 376.345 5492.06 
-910.2 396.479 5542.81 
-911.355 397.214 5540.35 
-910.826 396.513 5541.3 
-912.219 397.659 5538.9 
-912.709 397.764 5537.44 
-912.803 398.14 5536.68 
-912.872 398.599 5535.96 
-902.373 401.417 5554.99 
-905.983 397.445 5549.28 
-904.864 398.611 5551.6 
-903.307 399.612 5553.97 
-906.963 395.498 5547.54 
-907.616 395.561 5546.43 
-907.104 396.211 5546.1 
-908.268 395.888 5545.47 
-909.248 395.782 5544.65 
-909.9 395.933 5543.43 
-919.373 402.648 5531.9 
-920.753 404.256 5531.3 
-914.13 399.066 5535.1 
-915.173 399.986 5533.81 
-916.054 401.051 5532.54 
-916.828 401.629 5531.71 
-918.031 401.241 5532.13 
-918.519 401.573 5532.2 
-919.231 401.544 5532.2 
-927.658 407.776 5527.56 
-928.425 408.236 5527.09 
-924.667 405.961 5529.39 
-925.824 406.782 5528.6 
-926.78 407.28 5528.07 
-930.227 409.917 5525.62 
-929.735 408.722 5526.48 
-931.641 410.295 5525.1 
-931.161 410.675 5524.73 
-933.942 408.916 5519.62 
-934.59 409.534 5520.54 
-933.948 409.793 5521.33 
-935.543 410.933 5522.85 
-935.352 410.6 5522.32 
-935.359 410.343 5521.82 
-935.584 410.183 5521.4 
-935.965 410.103 5521.07 
-934.32 408.791 5519.22 
-934.513 408.592 5518.77 
-933.635 410.77 5523.43 
-935.341 411.265 5523.58 
-934.006 407.89 5517.8 
-935.298 408.642 5518.53 
-932.965 411.084 5524.32 
-933.614 411.073 5524.04 
-935.108 411.571 5524.3 
-933.89 411.524 5525.24 
-927.905 404.838 5513.6 
-927.123 404.449 5512.98 
-929.673 405.45 5514.64 
-932.39 406.492 5516.09 
-931.305 405.934 5515.24 
-934.231 407.694 5517.37 
-921.374 403.086 5510.23 
-924.353 403.752 5511.47 
-920.643 402.777 5509.8 
-907.742 395.847 5504.81 
-911.91 398.544 5506.08 
-912.994 399.138 5506.44 
-913.694 399.115 5506.5 
-913.78 399.638 5506.76 
-917.1 400.902 5507.75 
-917.607 401.592 5508.38 
-918.769 401.591 5508.36 
-918.475 402.064 5508.85 
-920.162 402.501 5509.42 
-916.636 400.567 5507.51 
-915.714 400.544 5507.46 
-917.852 400.862 5507.74 
-910.165 387.187 5506.29 
-909.946 389.117 5505.58 
-909.728 389.844 5505.32 
-909.635 390.982 5505.15 
-909.217 391.251 5504.89 
-908.294 392.635 5504.39 
-908.724 392.415 5504.56 
-908.918 391.712 5504.71 
-908.525 395.032 5504.77 
-908.177 395.592 5504.82 
-908.668 395.645 5504.92 
-908.948 394.707 5504.8 
-906.312 389.769 5545.98 
-906.27 388.355 5544.53 
-907.12 390.716 5545.72 
-902.937 393.732 5555.33 
-904.093 393.399 5553.22 
-905.381 393.159 5551.01 
-908.392 390.633 5543.55 
-908.333 391.206 5544.24 
-907.653 391.985 5546.19 
-909.005 390.441 5542.3 
-908.098 381.772 5532.88 
-907.779 380.718 5531.61 
-908.525 383.153 5534.38 
-908.921 384.325 5534.78 
-908.56 387.035 5538.94 
-908.535 385.091 5536.53 
-908.769 384.821 5535.6 
-908.94 386.96 5537.84 
-909.255 385.405 5535.13 
-909.027 388.919 5540.17 
-908.799 389.009 5540.74 
-907.893 381.144 5519.68 
-907.065 380.53 5523.62 
-907.709 380.556 5529.34 
-907.876 380.812 5530.04 
-909.585 382.516 5514.13 
-909.876 382.519 5512.72 
-910.619 384.957 5508.81 
-910.237 383.085 5511.07 
-910.494 384.21 5510.11 
-910.687 384.816 5509.81 
-910.468 396.058 5541.99 
-911.908 397.245 5539.69 
-911.035 396.145 5540.53 
-912.472 396.94 5538.75 
-912.887 397.257 5537.6 
-912.665 397.352 5538.07 
-912.962 397.676 5536.86 
-913.352 397.629 5536.43 
-913.847 398.368 5535.7 
-901.785 401.099 5556.11 
-906.188 396.778 5549.8 
-904.638 397.853 5552.24 
-902.063 399.945 5556.01 
-903.307 398.444 5554.35 
-907.295 394.892 5548.26 
-908.17 394.895 5546.7 
-908.857 395.218 5545.55 
-909.604 395.397 5543.91 
-910.239 395.583 5542.32 
-920.186 403.02 5531.71 
-920.951 403.324 5531.54 
-921.993 404.587 5530.87 
-914.759 399.127 5534.59 
-915.651 399.833 5533.51 
-917.386 401.054 5531.97 
-917.634 400.47 5532.19 
-918.554 400.49 5532.48 
-928.406 407.814 5527.36 
-929.27 408.296 5526.86 
-926.264 406.337 5528.78 
-927.422 406.866 5528.18 
-928.285 407.338 5527.68 
-931.417 409.757 5525.47 
-930.446 408.778 5526.28 
-932.272 411.076 5524.68 
-932.753 411.231 5524.75 
-936.02 409.636 5520.13 
-936.662 410.144 5520.77 
-938.312 412.276 5523.86 
-936.867 411.385 5522.98 
-937.596 411.218 5522.25 
-938.618 411.391 5521.94 
-936.703 409.459 5519.48 
-937.412 409.494 5519.22 
-935.555 411.579 5524.07 
-938.395 412.505 5524.35 
-938.308 412.79 5525.31 
-936.012 408.633 5518.24 
-938.725 409.835 5519.16 
-934.225 411.604 5524.86 
-935.063 411.79 5524.83 
-937.87 412.902 5526.16 
-934.39 411.762 5525.63 
-936.353 412.852 5527.74 
-933.453 411.466 5524.93 
-929.227 405.078 5513.99 
-927.628 404.381 5512.88 
-930.984 405.672 5514.81 
-932.637 406.118 5515.41 
-933.599 406.79 5516.16 
-923.167 403.351 5510.65 
-926.32 403.927 5512.06 
-922.596 403.047 5510.16 
-909.569 396.751 5505.27 
-909.301 397.223 5505.38 
-914.709 399.201 5506.64 
-915.18 399.785 5506.96 
-916.242 399.762 5507.04 
-920.433 402.071 5509.01 
-920.694 402.435 5509.33 
-918.798 401.091 5507.91 
-919.328 401.384 5508.2 
-909.893 387.536 5505.82 
-910.163 389.613 5505.66 
-908.864 393.226 5504.69 
-909.249 395.496 5504.99 
-910.143 396.427 5505.29 
-909.72 395.168 5505.03 
-907.577 388.789 5542.86 
-908.273 388.81 5541.67 
-908.171 389.388 5542.54 
-903.368 393.992 5554.9 
-904.689 393.546 5552.43 
-906.142 393.284 5549.94 
-907.137 392.675 5547.77 
-909.396 389.627 5540.8 
-909.402 390.564 5541.53 
-909.893 390.349 5540.4 
-908.205 391.73 5544.99 
-908.19 381.75 5532.34 
-908.273 382.224 5533.14 
-908.598 382.88 5533.65 
-908.88 383.662 5534.23 
-909.371 385.133 5534.64 
-909.331 388.686 5539.09 
-909.244 386.618 5536.57 
-909.509 386.337 5535.52 
-909.754 388.507 5537.75 
-909.834 386.502 5534.99 
-909.941 389.346 5539.03 
-908.786 381.772 5516.37 
-907.251 380.931 5523.01 
-907.748 381.622 5521.37 
-907.315 380.994 5522.23 
-908.056 381.171 5531.39 
-908.062 381.179 5530.89 
-909.536 382.735 5515.11 
-910.18 383.034 5512.3 
-910.401 385.606 5507.82 
-910.396 383.651 5510.84 
-910.708 384.688 5510.43 
-910.859 395.725 5540.74 
-911.502 396.507 5539.92 
-912.08 396.528 5539.53 
-912.219 397.097 5539.23 
-912.728 396.756 5538.28 
-913.07 396.793 5537.5 
-905.937 396.154 5550.55 
-904.711 396.732 5552.48 
-901.759 399.168 5556.79 
-903.291 397.429 5554.71 
-907.903 393.987 5547.58 
-908.256 394.375 5546.86 
-906.549 394.756 5549.94 
-908.835 394.659 5545.54 
-909.399 394.949 5544.2 
-910.06 395.132 5542.53 
-921.644 403.578 5531.4 
-921.86 404.026 5531.21 
-923.28 404.868 5530.39 
-924.516 405.422 5529.76 
-925.751 405.962 5529.13 
-915.171 398.938 5534.37 
-918.441 399.83 5532.62 
-919.97 401.807 5532.05 
-920.864 402.506 5531.76 
-929.171 407.831 5527.17 
-929.929 408.281 5526.71 
-929.059 407.382 5527.48 
-932.002 409.589 5525.75 
-931.349 409.288 5525.79 
-932.072 410.058 5525.43 
-932.584 410.358 5525.51 
-932.83 410.827 5525.28 
-938.988 410.996 5520.96 
-939.801 411.106 5520.66 
-940.093 411.818 5521.82 
-940.302 413.727 5525.82 
-940.394 413.464 5525.13 
-939.312 412.445 5523.56 
-940.445 413.16 5524.4 
-939.587 412.314 5523.11 
-940.186 412.321 5522.74 
-941.108 412.524 5522.57 
-940.313 411.067 5520.32 
-940.964 411.085 5520.04 
-940.162 413.869 5526.36 
-939.487 409.976 5519 
-941.874 411.175 5519.8 
-937.278 412.912 5526.85 
-937.789 413.014 5526.66 
-939.657 413.93 5527.5 
-936.971 413.059 5527.78 
-940.105 414.24 5529.49 
-939.598 414.047 5528.82 
-930.705 405.399 5514.38 
-928.55 404.429 5512.94 
-932.302 405.826 5514.96 
-934.919 407.555 5516.87 
-936.619 408.383 5517.57 
-939.344 409.648 5518.55 
-925.538 403.496 5511.31 
-912.653 397.945 5505.97 
-912.592 398.515 5506.14 
-915.464 399.248 5506.74 
-918.191 400.198 5507.41 
-919.366 400.931 5507.9 
-920.893 401.878 5508.91 
-920.466 401.664 5508.64 
-922.452 402.688 5509.77 
-921.866 402.398 5509.43 
-921.536 402.096 5509.18 
-925.146 403.271 5510.96 
-920.197 401.339 5508.3 
-910.098 388.417 5505.98 
-910.211 388.032 5506.31 
-910.018 390.784 5505.42 
-909.385 393.714 5504.88 
-909.487 394.334 5504.92 
-909.368 392.359 5504.83 
-910.906 396.558 5505.42 
-911.442 396.506 5505.49 
-913.156 397.861 5506.01 
-911.542 395.9 5505.45 
-909.354 389.33 5540.3 
-909.882 389.553 5539.72 
-903.27 394.479 5555.48 
-904.251 394.035 5553.56 
-905.571 393.649 5551.15 
-906.675 393.406 5549.21 
-907.681 392.81 5546.98 
-910.285 390.096 5539.92 
-910.079 390.825 5540.29 
-909.624 391.032 5541.22 
-908.908 391.005 5543 
-910.63 390.746 5539.91 
-908.755 382.796 5533 
-909.288 384.421 5534.15 
-909.78 385.79 5534.44 
-910.117 389.118 5538.14 
-910.035 388.192 5536.55 
-910.235 387.791 5535.44 
-910.66 388.918 5536.58 
-910.238 387.176 5534.8 
-910.762 389.539 5537.82 
-910.661 389.852 5538.75 
-908.101 381.638 5519.63 
-908.776 381.991 5517.24 
-907.352 380.87 5526.83 
-907.874 381.024 5529.21 
-908.317 381.655 5531.46 
-909.619 382.991 5515.73 
-909.936 383.198 5514.72 
-909.952 382.965 5513.86 
-910.326 383.604 5512.9 
-910.324 386.188 5507.13 
-910.578 385.47 5508.45 
-910.329 383.437 5511.69 
-910.785 385.462 5509.15 
-912.426 396.421 5539.14 
-913.355 396.721 5537.02 
-913.192 396.167 5537.56 
-914.169 397.197 5536.1 
-914.275 398.22 5535.46 
-904.835 395.729 5552.59 
-902.078 397.812 5556.68 
-903.51 396.169 5554.74 
-907.439 393.775 5548.31 
-908.419 393.657 5546.05 
-908.705 394.09 5545.55 
-906.07 394.299 5550.83 
-909.212 394.445 5544.4 
-909.759 394.652 5543.05 
-910.338 394.783 5541.57 
-910.908 394.925 5540.26 
-911.406 395.653 5539.89 
-922.282 403.727 5531.26 
-924.096 404.626 5530.35 
-927.14 406.389 5528.54 
-916.65 400.56 5532.34 
-916.094 399.683 5533.25 
-917.892 399.872 5532.43 
-919.276 400.788 5532.39 
-919.038 399.89 5532.64 
-919.858 400.478 5532.4 
-920.642 402.03 5531.91 
-921.478 402.6 5531.67 
-930.74 408.32 5526.5 
-931.106 408.805 5526.13 
-931.844 409.066 5526.07 
-928.127 406.877 5528.01 
-929.901 407.857 5526.99 
-931.392 408.379 5526.4 
-933.088 410.595 5525.64 
-941.176 412.107 5521.69 
-941.715 412.062 5521.28 
-942.093 412.73 5522.38 
-941.512 414.292 5526.53 
-941.665 414.06 5525.81 
-941.865 413.856 5525.14 
-940.994 413.104 5523.92 
-940.966 412.836 5523.34 
-941.768 412.96 5523.1 
-942.744 413.159 5522.92 
-942.15 411.894 5520.84 
-942.731 411.848 5520.52 
-941.452 414.439 5527.06 
-943.353 411.864 5520.27 
-939.245 413.891 5528.22 
-941.862 414.587 5527.95 
-937.683 413.459 5528.9 
-940.502 414.399 5530.26 
-942.195 414.837 5530.56 
-942.516 414.84 5529.95 
-943.45 415.018 5530.79 
-941.921 414.708 5529.25 
-935.89 412.445 5527.52 
-930.304 405.042 5513.82 
-931.721 405.5 5514.45 
-928.315 404.132 5512.5 
-933.333 406.09 5515.18 
-934.769 407.024 5516.14 
-935.477 407.633 5516.79 
-937.439 408.413 5517.31 
-939.809 409.653 5518.34 
-941.707 410.72 5519.1 
-928.043 403.86 5512.08 
-915.053 398.826 5506.54 
-917.633 400.216 5507.34 
-917.202 399.844 5507.16 
-919.098 400.33 5507.59 
-920.939 401.362 5508.47 
-922.569 402.057 5509.33 
-924.7 403.021 5510.6 
-922.005 401.626 5508.9 
-923.279 402.116 5509.53 
-922.529 401.514 5508.96 
-910.283 388.947 5505.93 
-910.548 389.413 5506.02 
-909.973 390.281 5505.55 
-909.59 391.742 5505 
-909.625 393.167 5504.95 
-910.156 393.926 5505.09 
-910.353 394.847 5505.13 
-910.17 393.363 5505.12 
-909.775 392.652 5505.01 
-914.699 397.923 5506.26 
-914.234 397.182 5506.06 
-915.719 398.506 5506.55 
-914.061 396.424 5505.96 
-912.505 395.556 5505.61 
-910.458 389.891 5539.24 
-903.758 394.877 5554.7 
-902.351 396.455 5556.65 
-904.982 394.116 5552.5 
-906.301 393.809 5550.16 
-907.451 393.385 5547.93 
-908.021 392.81 5546.39 
-908.531 392.014 5544.65 
-909.186 391.697 5542.8 
-910.887 390.436 5539.33 
-910.235 391.333 5540.23 
-909.77 391.512 5541.12 
-911.19 390.878 5539.37 
-909.752 391.958 5541.44 
-908.976 383.358 5533.62 
-909.843 385.35 5533.88 
-910.204 386.476 5534.17 
-910.85 389.311 5537.11 
-910.761 388.563 5535.55 
-910.605 388.062 5534.81 
-911.228 388.888 5535.37 
-911.453 389.334 5535.94 
-910.488 387.334 5534.15 
-911.554 389.716 5536.62 
-911.635 390.029 5537.1 
-911.591 390.333 5537.76 
-910.996 389.888 5538.13 
-911.067 390.272 5538.72 
-908.174 381.902 5520.12 
-907.608 381.533 5521.96 
-907.481 381.392 5523.87 
-907.288 381.087 5524.86 
-908.092 381.395 5529.77 
-908.231 381.554 5530.5 
-908.444 381.837 5530.93 
-908.691 382.297 5531.58 
-908.616 382.297 5532.17 
-909.031 382.399 5517.54 
-910.094 383.483 5515.15 
-910.281 383.648 5514.29 
-908.225 382.142 5520.74 
-910.231 386.804 5506.72 
-910.914 384.826 5510.96 
-910.623 384.264 5511.1 
-910.597 384.007 5512.11 
-912.037 395.697 5539.49 
-912.881 396.055 5538.32 
-912.651 396.243 5538.73 
-913.855 396.543 5536.68 
-913.576 396.14 5537.06 
-914.758 397.188 5535.64 
-915.153 397.96 5534.91 
-904.911 394.698 5552.77 
-908.041 393.313 5546.78 
-908.76 393.294 5544.92 
-909.097 393.69 5544.25 
-909.393 394.106 5543.7 
-910.035 394.299 5542.09 
-910.699 394.474 5540.48 
-922.295 403.18 5531.42 
-922.73 404.177 5530.95 
-923.615 404.243 5530.71 
-925.04 404.706 5530.09 
-925.572 405.088 5529.72 
-926.165 405.662 5529.23 
-927.743 406.073 5528.6 
-928.621 406.537 5528.11 
-916.144 398.724 5533.72 
-917.259 399.902 5532.29 
-917.062 399.406 5532.65 
-918.336 399.207 5532.74 
-920.768 400.872 5532.19 
-920.32 401.318 5532.13 
-918.72 398.646 5532.96 
-919.888 399.778 5532.57 
-929.949 407.054 5527.48 
-931.261 407.911 5526.71 
-931.951 408.641 5526.47 
-932.512 409.716 5525.97 
-932.959 409.903 5526.1 
-933.585 410.658 5525.88 
-933.559 411.05 5525.49 
-934.228 411.223 5525.72 
-942.444 412.639 5521.96 
-942.815 412.543 5521.56 
-943.639 413.346 5522.8 
-942.474 414.465 5526.46 
-943.174 414.675 5526.86 
-942.839 414.355 5525.95 
-942.407 413.757 5524.55 
-943.001 414.131 5525.22 
-942.336 413.424 5523.79 
-943.314 413.59 5523.57 
-944.082 413.714 5523.49 
-943.242 412.494 5521.25 
-943.725 412.495 5521 
-943.418 414.766 5527.67 
-943.494 411.56 5519.76 
-943.327 411.124 5519.17 
-944.177 412.461 5520.72 
-944.18 414.877 5528.56 
-944.595 414.879 5528.17 
-944.14 414.912 5529.15 
-941.499 414.709 5530.91 
-943.124 415.085 5531.43 
-944.853 415.349 5532.1 
-943.797 414.972 5530.15 
-944.302 415.105 5530.93 
-943.985 414.939 5529.64 
-936.991 412.828 5529.03 
-931.417 405.22 5514.02 
-932.801 405.641 5514.57 
-929.962 404.778 5513.47 
-937.036 407.986 5516.79 
-938.39 408.596 5517.28 
-940.695 409.919 5518.33 
-942.346 410.7 5518.81 
-917.241 399.277 5506.99 
-918.75 399.959 5507.42 
-920.109 400.719 5507.92 
-921.52 401.11 5508.42 
-925.643 403.022 5510.77 
-927.615 403.603 5511.68 
-928.075 403.418 5511.57 
-929.474 404.287 5512.77 
-924.551 402.246 5509.93 
-925.645 402.243 5510.19 
-926.589 402.757 5510.8 
-924.258 401.853 5509.59 
-910.641 388.244 5506.65 
-910.482 387.715 5506.75 
-910.464 390.204 5505.84 
-910.36 391.263 5505.5 
-910.79 394.367 5505.22 
-910.194 391.949 5505.23 
-917.036 398.576 5506.8 
-916.711 398.174 5506.67 
-916.515 397.64 5506.56 
-915.292 396.553 5506.23 
-908.556 392.84 5545.19 
-909.138 392.606 5543.48 
-909.749 392.468 5541.75 
-911.65 390.965 5538.71 
-911.367 391.64 5539.53 
-910.856 391.711 5539.86 
-910.391 391.877 5540.18 
-912.042 391.518 5538.73 
-908.969 382.91 5532.33 
-909.693 384.379 5533.26 
-909.366 383.56 5532.74 
-910.126 385.611 5533.49 
-910.394 386.449 5533.47 
-911.002 388.386 5534.68 
-910.804 387.904 5533.98 
-911.487 388.704 5534.42 
-911.78 389.213 5534.98 
-912.109 389.751 5535.52 
-910.64 387.184 5533.35 
-912.247 390.285 5536.31 
-912.163 390.45 5536.81 
-912.02 390.736 5537.65 
-911.665 390.648 5538.21 
-907.734 381.749 5522.83 
-908.038 382.091 5521.93 
-907.61 381.706 5524.97 
-907.562 381.417 5526.34 
-910.042 383.475 5516.29 
-909.038 382.553 5518.29 
-908.363 382.456 5521.75 
-912.565 395.668 5539.1 
-912.845 395.522 5538.68 
-914.436 396.426 5536.29 
-914.18 395.998 5536.68 
-913.755 395.598 5537.15 
-915.269 397.147 5535.26 
-915.754 397.975 5534.43 
-909.574 393.381 5542.78 
-909.791 393.835 5542.47 
-910.479 394.023 5540.75 
-911.408 394.869 5539.81 
-911.92 394.827 5539.48 
-923.597 403.809 5530.98 
-926.013 404.838 5529.78 
-926.593 405.254 5529.38 
-927.336 405.71 5528.92 
-929.519 406.664 5527.82 
-917.735 399.361 5532.5 
-918.228 398.635 5532.84 
-921.231 401.78 5531.9 
-919.247 399.096 5532.82 
-921.747 401.362 5531.95 
-922.802 403.238 5531.35 
-930.853 407.558 5526.97 
-931.832 408.184 5526.76 
-932.315 408.998 5526.42 
-934.058 410.654 5526.16 
-943.387 413.092 5522.38 
-943.962 412.957 5521.78 
-944.392 413.387 5522.57 
-944.491 413.614 5523.11 
-943.959 414.67 5526.43 
-945.189 414.851 5527.14 
-945.636 414.855 5526.78 
-944.379 414.622 5526.07 
-943.714 414.445 5525.8 
-943.431 413.929 5524.41 
-943.704 414.234 5525.17 
-944.137 414.024 5524.34 
-944.861 414.007 5524.01 
-944.423 412.951 5521.54 
-945.073 414.877 5527.66 
-944.112 411.658 5519.61 
-945.027 412.79 5520.94 
-944.273 412.151 5520.23 
-946.617 415.19 5530.34 
-942.657 415.099 5531.79 
-944.343 415.36 5532.81 
-945.621 415.278 5533.08 
-945.514 415.305 5531.48 
-946.086 415.253 5530.94 
-938.14 413.499 5529.87 
-934.161 406.423 5515.46 
-939.298 408.764 5517.24 
-936.028 407.468 5516.35 
-920.92 400.624 5508.05 
-919.991 400.144 5507.7 
-923.282 401.488 5509.15 
-928.696 403.453 5511.74 
-929.982 404.103 5512.58 
-928.365 402.794 5511.26 
-929.606 403.531 5512.03 
-930.259 403.585 5512.21 
-910.377 387.239 5507.06 
-910.554 388.716 5506.3 
-910.897 389.192 5506.34 
-911.253 394.204 5505.33 
-913.241 395.274 5505.77 
-915.845 396.488 5506.35 
-910.538 392.575 5505.3 
-911.084 393.081 5505.4 
-918.771 399.38 5507.27 
-918.263 398.784 5507.06 
-918.777 398.467 5507.15 
-917.465 397.477 5506.77 
-909.722 392.905 5542.09 
-910.244 392.283 5540.45 
-912.385 391.408 5538.03 
-912.769 391.942 5538.05 
-912.045 391.032 5538.13 
-911.621 392.062 5539.4 
-911.15 392.196 5539.72 
-912.259 392.219 5539.01 
-909.297 383.244 5532.01 
-909.71 383.926 5532.48 
-910.025 384.776 5532.89 
-910.326 385.603 5532.77 
-910.577 386.355 5532.7 
-911.286 388.229 5533.73 
-911.052 387.736 5533.08 
-912.19 388.786 5533.05 
-912.465 389.299 5533.66 
-912.727 389.793 5534.24 
-910.879 387.154 5532.59 
-912.992 390.386 5534.87 
-912.889 390.604 5535.53 
-912.741 390.8 5536.24 
-912.659 391.04 5536.9 
-907.853 382.037 5523.79 
-908.107 382.155 5522.65 
-907.959 381.4 5528.67 
-907.858 382.119 5524.67 
-908.892 382.448 5530.9 
-908.494 381.983 5529.7 
-908.515 381.978 5530.35 
-909.275 383.055 5531.31 
-909.412 382.978 5518.26 
-910.527 383.907 5515.43 
-910.23 383.701 5516.87 
-908.447 382.493 5521.16 
-908.504 382.604 5522.57 
-910.572 384.013 5513.24 
-911.088 384.793 5511.53 
-913.097 395.365 5538.21 
-915.295 396.654 5535.5 
-914.826 395.968 5536.22 
-913.269 395.503 5537.75 
-910.229 393.146 5540.88 
-910.205 393.578 5541.2 
-911.014 393.965 5539.98 
-911.686 394.306 5539.58 
-912.319 394.68 5539.21 
-916.767 398.695 5533.25 
-917.574 398.83 5532.64 
-918.829 397.952 5533.14 
-919.657 398.596 5532.9 
-922.75 401.96 5531.68 
-922.045 402.216 5531.7 
-922.945 402.72 5531.46 
-920.405 399.315 5532.63 
-920.909 400.262 5532.33 
-932.691 409.382 5526.35 
-931.418 407.169 5527.3 
-932.288 408.426 5526.85 
-933.438 410.087 5526.26 
-934.53 410.645 5526.44 
-934.732 411.469 5526.08 
-935.015 411.236 5526.46 
-945.036 413.2 5521.93 
-945.112 413.423 5522.46 
-945.128 413.757 5523.3 
-946.123 414.845 5526.4 
-947.207 415.131 5529.63 
-947.861 415.098 5528.9 
-945.075 414.563 5525.56 
-944.445 414.361 5525.19 
-944.884 414.299 5524.8 
-945.814 414.393 5524.86 
-945.871 414.212 5524.36 
-945.416 413.1 5521.57 
-945.761 412.991 5521.22 
-944.199 411.317 5519.15 
-944.906 412.289 5520.23 
-947.211 415.397 5531.75 
-947.445 415.363 5531.23 
-941.634 414.769 5531.4 
-945.13 414.732 5534.35 
-945.617 414.34 5534.74 
-945.022 414.574 5534.89 
-945.346 414.291 5535.26 
-946.581 415.317 5532.46 
-936.497 412.199 5528.33 
-937.453 413.273 5529.36 
-938.465 413.533 5530.34 
-933.437 405.735 5514.6 
-932.366 405.316 5514.11 
-935.116 406.597 5515.44 
-941.799 410.048 5517.98 
-937.443 407.68 5516.28 
-940.575 409.072 5517.2 
-930.963 404.786 5513.53 
-932.406 404.942 5513.72 
-922.977 401.023 5508.82 
-925.339 401.87 5509.92 
-926.801 402.291 5510.54 
-931.154 404.143 5512.75 
-931.768 404.523 5513.24 
-930.152 403.144 5511.9 
-931.202 403.559 5512.34 
-931.842 403.892 5512.68 
-928.949 402.746 5511.4 
-910.911 389.915 5506.19 
-913.226 394.768 5505.78 
-914.395 395.442 5506.03 
-916.637 396.567 5506.56 
-918.344 397.52 5506.99 
-911.698 393.371 5505.52 
-911.91 392.719 5505.7 
-920.08 399.605 5507.59 
-920.584 399.189 5507.65 
-919.662 398.329 5507.36 
-911.121 392.909 5539.81 
-912.777 391.533 5537.57 
-913.325 391.885 5537.31 
-913.601 392.416 5537.53 
-911.881 392.52 5539.28 
-912.879 392.435 5538.46 
-909.607 383.612 5531.76 
-910.029 384.229 5532 
-910.275 384.881 5532.37 
-910.611 385.603 5532.18 
-910.873 386.399 5532.13 
-911.949 388.265 5532.35 
-911.769 387.76 5531.82 
-912.928 388.923 5531.74 
-913.242 389.45 5532.29 
-913.454 389.88 5532.83 
-911.288 387.117 5531.86 
-913.72 390.745 5534.05 
-913.607 390.328 5533.4 
-913.651 390.938 5534.65 
-913.378 391.096 5535.55 
-913.076 391.348 5536.75 
-913.958 391.395 5535.33 
-908.163 382.385 5523.41 
-908.223 381.692 5529.09 
-908.136 381.824 5528.39 
-908.158 382.511 5524.35 
-907.947 381.956 5526.44 
-908.487 382.537 5526.33 
-908.44 382.222 5528.19 
-909.17 382.784 5530.55 
-908.911 382.504 5529.81 
-909.527 383.301 5530.73 
-909.251 383.032 5519.48 
-910.623 384.017 5515.99 
-910.372 383.875 5517.72 
-910.593 384.035 5514.41 
-908.534 382.759 5523.32 
-910.702 385.956 5508.75 
-910.508 386.04 5508.1 
-911.021 384.518 5512.18 
-912.854 394.956 5538.85 
-915.684 396.361 5535.36 
-913.685 394.882 5537.52 
-910.771 393.543 5540.1 
-911.463 393.798 5539.67 
-923.862 403.292 5531.18 
-924.69 404.016 5530.6 
-928.155 405.798 5528.68 
-930.535 406.803 5527.5 
-917.221 397.993 5533.27 
-922.558 401.513 5531.81 
-923.593 402.172 5531.52 
-921.265 399.713 5532.43 
-921.949 400.786 5532.07 
-922.647 400.909 5531.96 
-933.172 409.61 5526.47 
-931.854 407.456 5527.35 
-932.925 409.091 5526.72 
-934.08 410.239 5526.54 
-935.516 410.761 5527.14 
-935.887 411.884 5527.53 
-945.722 413.461 5522.38 
-946.029 413.331 5521.97 
-945.741 413.792 5523.24 
-948.062 415.319 5530.76 
-948.348 415.292 5530.28 
-948.854 415.38 5529.77 
-947.009 414.749 5526.15 
-948.146 415.064 5528.48 
-947.714 414.672 5526.09 
-946.621 414.232 5524.34 
-947.971 414.552 5525.57 
-946.377 413.224 5521.62 
-943.765 411.078 5518.93 
-945.481 412.51 5520.44 
-947.53 414.993 5532.69 
-946.852 414.6 5533.67 
-947.875 415.281 5531.92 
-946.45 414.264 5534.4 
-946.123 414.103 5534.84 
-943.71 415.357 5533.22 
-941.17 414.615 5531.56 
-934.522 406.016 5514.79 
-933.413 405.357 5514.14 
-936.178 407.03 5515.75 
-942.901 410.535 5518.34 
-941.551 409.423 5517.33 
-933.966 405.302 5514.09 
-922.219 400.779 5508.46 
-924.326 401.301 5509.37 
-923.824 401.031 5509.09 
-921.374 400.3 5508.09 
-927.923 402.171 5510.85 
-933.386 404.924 5513.72 
-932.866 404.549 5513.3 
-932.229 404.151 5512.92 
-934.109 404.757 5513.6 
-910.909 387.96 5507.04 
-911.336 389.296 5506.64 
-911.106 388.727 5506.78 
-910.884 390.542 5505.97 
-911.282 390.278 5506.3 
-910.982 391.381 5505.71 
-917.596 396.783 5506.81 
-919.425 397.651 5507.29 
-920.304 398.392 5507.52 
-910.985 392.069 5505.56 
-912.609 392.713 5505.93 
-913.66 394.172 5505.97 
-916.674 395.23 5506.69 
-916.233 395.778 5506.49 
-920.954 399.851 5507.87 
-921.812 399.233 5508.03 
-911.888 393.236 5539.35 
-913.754 391.832 5536.81 
-914.525 392.117 5536.3 
-914.126 392.199 5536.86 
-912.512 392.706 5538.9 
-914.709 392.764 5536.83 
-913.851 392.976 5537.79 
-913.172 392.953 5538.49 
-914.723 393.283 5537.27 
-909.939 383.92 5531.1 
-910.528 384.845 5531.76 
-911.37 386.68 5531.33 
-912.768 388.425 5531.11 
-912.128 387.465 5531 
-912.764 388.025 5530.68 
-913.664 389.044 5530.51 
-913.995 389.61 5531 
-914.198 390.022 5531.48 
-914.546 390.548 5532 
-914.983 391.03 5532.57 
-914.881 391.2 5533.21 
-914.619 391.336 5534.04 
-914.742 391.719 5534.88 
-915.391 391.635 5533.54 
-914.819 391.942 5535.37 
-908.743 382.397 5529.05 
-908.569 382.855 5524.36 
-908.909 382.668 5528.31 
-909.415 383.092 5529.73 
-909.196 382.887 5529.17 
-909.89 383.66 5530.15 
-909.225 383.112 5520.47 
-910.928 384.317 5515.47 
-910.752 384.176 5516.9 
-910.104 383.703 5519.03 
-908.995 383.118 5522.79 
-908.931 383.106 5523.95 
-910.887 384.407 5513.23 
-911.086 384.621 5512.72 
-910.383 386.339 5507.63 
-911.125 385.365 5510.48 
-910.974 385.348 5509.98 
-913.202 394.41 5538.48 
-916.132 396.163 5535.11 
-916.222 397.267 5534.45 
-915.241 395.669 5536.05 
-914.515 395.259 5536.74 
-912.152 394.187 5539.27 
-912.741 394.124 5538.89 
-925.17 403.709 5530.68 
-926.326 404.25 5530.07 
-927.812 405.036 5529.23 
-928.999 405.222 5528.84 
-929.049 405.893 5528.41 
-929.786 405.943 5528.21 
-931.087 406.803 5527.45 
-920.05 398.102 5532.98 
-920.813 398.777 5532.72 
-923.614 401.546 5531.68 
-924.641 402.7 5531.26 
-922.215 400.231 5532.18 
-923.197 400.961 5531.88 
-933.73 409.672 5526.77 
-931.826 406.989 5527.7 
-932.346 407.759 5527.41 
-933.048 408.455 5527.3 
-933.459 408.993 5527.14 
-936.158 412.179 5527.88 
-946.652 413.893 5523.39 
-947.084 413.743 5522.93 
-949.398 415.478 5529.42 
-948.325 415.199 5532.27 
-948.676 415.46 5531.41 
-949.146 415.555 5530.89 
-949.651 415.66 5530.49 
-947.814 414.76 5526.62 
-949.09 415.059 5528.4 
-949.696 414.946 5527.84 
-948.392 414.453 5525.18 
-948.538 414.551 5525.68 
-947.448 413.613 5522.54 
-946.386 412.993 5521.15 
-946.657 412.718 5520.65 
-947.668 414.088 5534.99 
-948.038 414.591 5533.85 
-946.777 413.696 5535.82 
-944.409 415.073 5534.36 
-937.803 413.243 5530.22 
-940.099 414.11 5531.2 
-941.031 414.678 5532.05 
-943.961 415.345 5534.38 
-939.222 408.235 5516.54 
-942.405 410.002 5517.75 
-943.629 410.445 5518 
-935.164 406.04 5514.74 
-921.679 399.881 5508.08 
-927.323 401.905 5510.56 
-926.535 401.626 5510.22 
-930.715 402.729 5511.9 
-932.57 403.586 5512.7 
-934.982 405.521 5514.29 
-934.562 405.065 5513.88 
-933.367 404.476 5513.31 
-910.681 387.16 5507.46 
-911.292 388.356 5507.18 
-911.435 389.792 5506.56 
-911.81 390.334 5506.51 
-911.335 391.127 5505.96 
-918.542 396.832 5507.09 
-920.27 397.691 5507.56 
-921.286 398.399 5507.84 
-922.061 398.642 5508.1 
-914.903 393.804 5506.42 
-913.867 392.895 5506.31 
-917.188 395.05 5506.9 
-918.286 396.333 5507.06 
-918.738 396.074 5507.27 
-922.997 399.361 5508.47 
-922.641 399.762 5508.39 
-912.508 393.653 5538.99 
-915.396 392.424 5535.69 
-915.848 392.288 5534.56 
-915.438 392.787 5536.18 
-915.901 393.039 5535.98 
-913.697 393.359 5538.13 
-915.514 393.4 5536.66 
-910.443 384.496 5530.92 
-910.959 385.819 5531.62 
-911.361 386.183 5530.83 
-912.273 387.174 5530.22 
-911.844 386.619 5530.01 
-913.62 388.529 5529.8 
-913.056 387.764 5529.45 
-914.699 389.717 5529.73 
-914.323 389.121 5529.33 
-914.96 390.102 5530.08 
-915.526 390.633 5530.5 
-916.019 391.129 5531.02 
-916.208 391.387 5531.42 
-915.935 391.513 5532.27 
-916.293 391.944 5532.85 
-916.05 392.102 5533.7 
-916.719 391.876 5531.88 
-909.005 383.052 5525.87 
-909.36 383.113 5527.88 
-909.575 383.281 5528.55 
-909.891 383.574 5529.07 
-910.1 383.807 5529.54 
-910.506 384.429 5530.18 
-909.335 383.343 5521.98 
-911.098 384.453 5516.16 
-910.767 384.178 5515 
-910.761 384.176 5518.09 
-909.784 383.66 5521.47 
-909.427 383.456 5523.6 
-909.453 383.428 5525.49 
-911.643 385.174 5512.71 
-911.554 385.027 5513.19 
-911.482 385.162 5511.98 
-911.377 385.338 5511.27 
-913.362 394.608 5538.02 
-917.104 396.967 5533.91 
-916.669 396.138 5534.7 
-915.538 394.98 5536.12 
-916.216 395.418 5535.43 
-914.166 394.296 5537.4 
-914.711 394.686 5536.84 
-930.522 405.778 5528.16 
-931.421 406.471 5527.85 
-918.141 397.742 5533.04 
-918.742 397.324 5533.3 
-919.026 396.775 5533.43 
-919.395 397.382 5533.24 
-921.724 399.217 5532.5 
-924.183 401.62 5531.59 
-925.598 402.966 5531.01 
-925.905 403.32 5530.75 
-926.248 403.643 5530.47 
-922.966 400.485 5532.03 
-932.616 407.475 5527.81 
-932.809 407.973 5527.54 
-934.213 409.891 5526.9 
-934.974 410.623 5526.72 
-937.245 412.171 5529.63 
-936.804 412.035 5528.78 
-937.332 412.856 5529.73 
-950.3 415.825 5530.34 
-949.281 415.236 5534.04 
-949.52 415.661 5532.76 
-949.683 415.73 5531.73 
-950.32 415.891 5531.35 
-949.875 415.541 5529.25 
-950.851 415.938 5529.94 
-950.581 415.479 5528.77 
-950.431 414.877 5527.35 
-948.783 414.282 5524.48 
-947.353 413.433 5522.07 
-944.695 411.863 5519.73 
-947.216 413.043 5521.23 
-946.1 412.698 5520.66 
-948.979 414.71 5536.3 
-949.08 414.777 5535.42 
-944.55 414.867 5534.89 
-944.906 414.534 5535.4 
-945.262 414.203 5535.9 
-942.636 415.314 5533.55 
-943.125 415.386 5533.47 
-944.099 415.134 5534.95 
-937.553 407.29 5515.78 
-936.702 406.835 5515.45 
-942.35 409.477 5517.19 
-943.95 410.729 5518.35 
-944.4 411.057 5518.72 
-936.278 406.427 5515.07 
-922.828 400.238 5508.53 
-929.646 402.272 5511.4 
-927.899 401.687 5510.68 
-925.402 401.228 5509.71 
-933.158 403.336 5512.78 
-935.651 405.322 5514.14 
-936.082 406.053 5514.73 
-935.123 404.984 5513.86 
-936.632 405.712 5514.47 
-937.034 406.245 5514.84 
-911.212 387.793 5507.49 
-910.612 386.541 5508.05 
-912.076 389.969 5506.82 
-911.947 390.992 5506.28 
-911.54 391.773 5505.82 
-921.091 397.795 5507.83 
-920.575 397.116 5507.74 
-923.241 398.899 5508.56 
-912.672 392.177 5506.12 
-916.825 394.269 5506.97 
-917.652 394.9 5507.1 
-915.467 393.305 5506.78 
-919.336 395.851 5507.54 
-921.117 396.933 5507.99 
-925.037 400.045 5509.32 
-924.665 400.586 5509.27 
-925.537 399.714 5509.51 
-917.057 392.62 5533.41 
-916.63 392.717 5534.41 
-917.197 392.485 5532.76 
-917.05 393.303 5535.15 
-916.561 393.036 5535.32 
-917.389 393.031 5533.97 
-916.9 393.577 5535.55 
-916.389 393.631 5536.03 
-914.123 393.724 5537.67 
-915.063 393.88 5536.92 
-913.651 393.934 5537.95 
-915.992 394.106 5536.16 
-911.145 385.404 5530.53 
-911.409 385.838 5530.01 
-911.671 386.091 5529.14 
-912.789 387.175 5528.57 
-912.292 386.561 5528.36 
-913.841 388.276 5528.42 
-914.597 389.073 5528.42 
-913.684 387.867 5527.75 
-915.234 389.874 5529.01 
-915.521 390.292 5529.41 
-915.85 390.693 5529.86 
-916.759 391.596 5530.65 
-917.278 392.37 5532.25 
-909.862 383.588 5527.79 
-910.193 383.881 5528.37 
-910.57 384.236 5528.82 
-910.984 384.868 5529.33 
-911.14 384.471 5517.28 
-911.107 384.542 5514.18 
-910.453 384.048 5519.88 
-910.447 384.22 5523.58 
-910.028 383.886 5524.32 
-910.174 383.863 5527.48 
-911.364 384.795 5513.67 
-911.854 385.412 5512.21 
-910.956 385.955 5509.26 
-911.57 385.659 5510.71 
-911.341 385.793 5510.02 
-917.667 396.952 5533.49 
-917.219 396.082 5534.3 
-915.147 394.519 5536.6 
-916.019 394.756 5535.87 
-914.618 394.107 5537.15 
-927.402 404.188 5529.86 
-928.942 404.782 5529.13 
-918.749 396.327 5533.55 
-919.566 396.763 5533.38 
-920.421 397.328 5533.13 
-922.683 399.726 5532.25 
-924.879 401.764 5531.47 
-925.08 402.209 5531.34 
-927.065 403.364 5530.45 
-924.492 401.209 5531.66 
-932.523 407.039 5528.09 
-933.259 408.144 5527.68 
-934.374 409.358 5527.42 
-934.719 410.099 5527.05 
-935.872 410.446 5527.62 
-950.446 414.742 5526.86 
-950.617 414.561 5525.95 
-951.111 416.091 5531.14 
-950.455 415.504 5535.64 
-950.644 415.926 5534.36 
-950.404 415.934 5532.89 
-950.709 415.986 5532.16 
-951.402 416.163 5532 
-951.433 416.034 5529.69 
-951.603 416.205 5530.68 
-952.096 415.947 5529.15 
-951.258 415.403 5528.3 
-951.665 415.24 5527.75 
-952.66 416.04 5529.11 
-948.868 414.129 5523.91 
-944.876 411.437 5519.15 
-947.961 413.425 5522.03 
-946.667 412.453 5520.22 
-946.093 412.257 5520.03 
-950.012 415.717 5536.98 
-950.892 416.073 5537 
-950.483 415.504 5536.54 
-948.501 414.703 5536.51 
-950.213 416.175 5537.39 
-940.403 414.471 5532.16 
-943.481 415.633 5534.4 
-944.468 414.784 5535.5 
-940.574 408.599 5516.65 
-939.082 407.657 5515.9 
-943.535 410.12 5517.59 
-938.384 407.232 5515.57 
-932.307 402.892 5512.42 
-931.554 402.573 5512.11 
-927.65 401.239 5510.49 
-933.869 404.142 5513.17 
-935.456 404.584 5513.76 
-937.543 406.269 5514.88 
-939.831 407.522 5515.76 
-911.08 387.329 5507.72 
-911.652 388.922 5507.14 
-911.773 389.426 5506.92 
-922.582 398.346 5508.34 
-925.21 399.204 5509.38 
-914.414 392.585 5506.62 
-918.093 394.457 5507.37 
-918.826 395.062 5507.52 
-917.088 393.678 5507.25 
-920.86 396.05 5508.1 
-921.835 396.877 5508.31 
