-928.751 439.218 3489.35 
-936.833 439.145 3493.59 
-935.74 439.327 3491.92 
-932.625 439.339 3491.06 
-940.107 438.846 3496.28 
-922.342 438.67 3495.83 
-923.1 438.573 3493.41 
-923.448 438.472 3492.09 
-923.385 438.419 3490.96 
-926.858 439.035 3488.04 
-925.282 438.791 3488.8 
-924.025 438.58 3489.29 
-923.296 438.425 3489.84 
-917.934 439.276 3502.93 
-919.034 439.194 3501.56 
-919.856 438.701 3499.64 
-913.731 440.831 3510.31 
-911.377 441.324 3513.71 
-915.485 440.135 3507.23 
-917.29 439.201 3503.23 
-908.944 442.22 3517.27 
-907.663 442.879 3519.59 
-921.635 438.567 3496.42 
-920.407 438.55 3498.15 
-921.05 438.501 3496.9 
-906.863 443.211 3521.27 
-900.968 445.89 3541.92 
-901.841 445.269 3536.52 
-1004.41 461.369 3524.65 
-1007.6 460.273 3525.99 
-1009.96 459.848 3527.85 
-1002.82 461.541 3523.01 
-999.925 461.794 3521.13 
-1001.86 461.494 3522.08 
-998.265 461.565 3519.55 
-996.382 462.234 3518.77 
-994.695 462.736 3517.28 
-994.349 463.318 3517.53 
-993.704 463.804 3517.01 
-992.756 465.118 3516.71 
-990.162 469.707 3516.68 
-987.193 474.803 3514.59 
-972.801 478.598 3509.59 
-984.419 476.017 3513.36 
-980.838 476.72 3512.13 
-970.738 478.614 3510.73 
-926.04 476.508 3497.12 
-925.488 476.778 3498.13 
-924.637 477.238 3498.71 
-922.722 478.531 3501.87 
-921.604 479.098 3504.23 
-917.424 481.342 3509.39 
-920.007 480.078 3505.91 
-918.077 481.082 3508.09 
-913.486 482.751 3514.07 
-915.906 482.084 3510.8 
-911.375 483.224 3517.38 
-909.392 483.94 3519.24 
-907.508 484.496 3522.27 
-970.613 472.206 3510.76 
-970.237 472.728 3510.86 
-971.958 471.965 3510.15 
-977.654 469.323 3509.89 
-980.322 461.521 3505.92 
-985.634 463.671 3510.8 
-985.283 462.187 3509.48 
-986.531 462.901 3510.87 
-984.673 465.575 3511.53 
-986.323 464.166 3511.54 
-979.189 468.994 3510.37 
-981.194 468.111 3511.06 
-981.537 467.696 3511.04 
-984.717 466.092 3511.86 
-967.814 477.065 3512.12 
-968.901 477.94 3511.59 
-968.638 477.43 3511.64 
-969.966 478.597 3511.13 
-970.29 478.067 3510.82 
-967.624 475.351 3512.1 
-968.25 476.599 3511.76 
-968.644 476.292 3511.54 
-968.159 474.638 3511.83 
-969.32 473.281 3511.14 
-922.668 475.535 3488.5 
-922.633 475.284 3488 
-922.097 473.03 3481.02 
-923.693 475.901 3490.45 
-925.411 476.103 3493.46 
-920.668 472.693 3478.46 
-918.316 471.397 3472.88 
-917.694 470.641 3471.08 
-916.99 468.345 3467.11 
-916.716 468.83 3467.47 
-917.455 467.758 3466.75 
-921.329 466.95 3468.9 
-918.798 467.265 3467.24 
-924.391 466.046 3470.38 
-927.041 465.406 3471.88 
-928.708 464.931 3472.7 
-930.045 465.169 3473.93 
-932.094 465.524 3475.61 
-925.999 476.518 3495.78 
-925.992 476.533 3496.62 
-935.167 465.352 3477.32 
-939.687 464.612 3479.81 
-937.294 464.95 3478.36 
-942.921 463.947 3481.52 
-946.061 463.56 3483.52 
-950.217 463.797 3486.49 
-952.942 462.985 3487.27 
-955.633 462.255 3488.1 
-954.885 462.615 3487.97 
-947.937 463.433 3484.83 
-948.909 462.957 3485.1 
-949.826 462.965 3485.66 
-968.523 460.673 3497.61 
-971.383 460.333 3499.49 
-966.081 460.847 3495.94 
-973.682 459.793 3500.81 
-976.439 460.058 3502.76 
-979.97 460.781 3505.3 
-960.767 462.074 3492.46 
-957.73 462.354 3489.71 
-957.275 462.502 3489.41 
-961.969 461.804 3493.31 
-963.53 461.303 3494.24 
-906.611 485.759 3522.31 
-907.053 485.135 3522.19 
-907.373 485.068 3521.41 
-921.503 501.762 3489.44 
-924.075 500.257 3486.58 
-926.692 500.16 3481.54 
-925.826 501.751 3480.07 
-927.07 499.851 3481.19 
-927.284 498.245 3483.49 
-927.916 498.298 3482.46 
-926.892 497.937 3484.52 
-926.224 497.935 3485.57 
-925.798 502.183 3478.74 
-926.021 501.723 3479.53 
-926.051 501.952 3478.37 
-926.143 502.011 3477.69 
-925.744 503.917 3475.5 
-925.692 506.665 3472.71 
-922.542 513.045 3465.69 
-922.279 513.582 3465.32 
-922.685 512.673 3466.31 
-922.162 514.975 3462.75 
-922.174 515.586 3462 
-923.511 511.278 3469.24 
-922.784 512.381 3467.77 
-922.905 512.238 3467.15 
-924.481 509.724 3470.52 
-924.621 509.683 3469.68 
-925.422 508.204 3471.25 
-925.638 507.775 3471.4 
-970.612 434.126 3519.41 
-971.816 433.759 3519.85 
-973.685 433.386 3519.84 
-965.678 438.779 3508.73 
-965.631 439.007 3507.57 
-964.393 439.03 3507.18 
-962.124 439.076 3506.08 
-966.88 438.375 3510.34 
-967.934 438.096 3511.2 
-967.946 437.673 3512.54 
-968.153 436.554 3515.22 
-968.193 436.243 3515.8 
-969.444 434.576 3518.45 
-970.31 434.303 3518.68 
-967.905 437.282 3513.71 
-968.222 436.989 3514.24 
-968.138 436.783 3514.7 
-959.413 439.125 3503.95 
-954.828 438.858 3502.58 
-951.256 438.723 3500.99 
-948.1 438.604 3499.68 
-945.519 438.647 3498 
-941.894 438.797 3496.5 
-982.552 432.851 3521.28 
-983.29 433.109 3521.12 
-983.586 433.48 3521.6 
-982.172 432.616 3520.94 
-984.397 433.908 3521.76 
-985.37 434.047 3521.65 
-986.371 435.08 3522.8 
-986.334 435.332 3523.25 
-997.555 436.855 3531.14 
-994.894 436.978 3530.07 
-1000.94 436.686 3532.48 
-993.681 437.089 3529.01 
-992.877 437.25 3528.23 
-992.74 437.275 3527.57 
-1003.27 436.777 3534.79 
-992.609 437.288 3526.9 
-991.873 437.266 3525.69 
-991.356 437.135 3525.45 
-989.78 436.674 3525.34 
-990.707 436.878 3525.07 
-992.328 437.271 3526.42 
-978.598 432.767 3521.73 
-978.267 432.639 3521.16 
-905.294 443.487 3523.08 
-903.486 443.685 3524.53 
-930.076 439.273 3489.88 
-928.897 439.33 3488.14 
-938.508 439.043 3494.24 
-937.234 439.281 3492.4 
-934.567 439.468 3490.82 
-931.163 439.421 3489.41 
-922.048 438.539 3495.38 
-922.836 438.627 3494.36 
-922.603 438.457 3493.41 
-922.799 438.396 3492.66 
-922.781 438.312 3491.39 
-922.602 438.278 3490.38 
-927.473 439.22 3486.99 
-924.927 438.838 3486.94 
-923.765 438.6 3488.05 
-922.758 438.396 3488.64 
-922.4 438.274 3489.36 
-919.425 438.651 3499.92 
-912.875 440.857 3510.9 
-914.553 440.239 3508.41 
-909.026 441.912 3516.51 
-910.964 441.169 3513.25 
-915.942 439.622 3505.36 
-916.96 438.937 3502.68 
-918.094 438.935 3501.66 
-906.739 443.041 3520.74 
-921.511 438.42 3495.77 
-920.467 438.361 3497.02 
-920.982 438.306 3496.04 
-906.159 443.419 3522.47 
-900.335 446.094 3544.01 
-901.157 445.757 3540.83 
-902.814 444.35 3530.3 
-901.609 444.856 3535.46 
-902.185 444.781 3533.66 
-902.419 444.081 3529.91 
-903.311 443.937 3527.35 
-903.748 443.938 3525.68 
-1009.9 459.522 3526.98 
-1002.62 461.309 3522.45 
-1004.85 460.847 3524.09 
-996.967 461.665 3518.6 
-1000.23 461.397 3520.76 
-999.721 461.261 3520.22 
-995.865 462.213 3518.17 
-995.214 462.185 3517.34 
-994.33 462.944 3516.99 
-993.824 463.377 3516.68 
-991.718 466.945 3516.72 
-989.003 472.509 3515.5 
-989.597 471.224 3515.84 
-987.951 473.896 3514.85 
-971.509 478.719 3510.22 
-972.25 478.355 3509.77 
-975.373 478.02 3509.97 
-987.255 474.247 3514.35 
-971.134 478.397 3510.34 
-924.049 477.49 3499.89 
-925.559 476.791 3497.39 
-922.126 479.032 3502.67 
-923.553 477.747 3500.2 
-920.941 479.771 3504.57 
-918.826 480.853 3506.74 
-916.87 481.875 3509.12 
-911.943 483.278 3515.97 
-914.47 482.636 3512.37 
-910.142 483.812 3518.44 
-908.453 484.336 3520.18 
-907.649 484.526 3521.76 
-971.271 472.34 3510.57 
-972.622 471.97 3510.1 
-974.508 470.932 3509.64 
-978.57 469.454 3510.29 
-977.494 470.005 3510.13 
-975.882 470.489 3509.83 
-985.608 461.712 3509.41 
-987.209 462.139 3510.88 
-987.33 463.205 3511.57 
-982.375 461.288 3506.93 
-983.665 461.558 3507.89 
-986.874 464.391 3511.99 
-984.764 466.558 3512.12 
-987.231 464.796 3512.38 
-969.318 477.794 3511.3 
-969.935 477.312 3510.83 
-968.378 474.185 3511.73 
-968.907 474.052 3511.51 
-970.251 473.24 3510.86 
-922.227 475.245 3487.21 
-921.78 474.489 3484.45 
-921.918 473.683 3482.28 
-921.344 472.886 3479.8 
-924.731 476.068 3492.03 
-924.922 476.278 3493.1 
-919.864 472.401 3476.71 
-918.765 471.971 3474.38 
-917.721 471.26 3472.06 
-917.207 470.477 3470.3 
-916.666 469.575 3468.42 
-916.436 467.887 3465.97 
-916.948 467.245 3465.66 
-916.216 468.374 3466.37 
-918.328 466.836 3466.32 
-921.037 466.487 3468.13 
-924.363 465.556 3469.82 
-926.907 464.872 3471.2 
-928.647 464.423 3472.15 
-930.145 464.603 3473.44 
-932.107 464.919 3475.03 
-925.833 476.568 3494.74 
-934.918 464.797 3476.68 
-937.097 464.55 3477.86 
-950.884 463.019 3486.3 
-952.972 462.351 3486.84 
-947.884 462.928 3484.39 
-949.672 462.422 3485.19 
-948.467 462.525 3484.5 
-950.719 462.524 3485.88 
-968.344 460.245 3497.22 
-971.396 459.791 3499.18 
-964.488 460.759 3494.69 
-966.3 460.134 3495.68 
-973.478 459.189 3500.36 
-975.469 459.44 3501.79 
-977.975 459.864 3503.63 
-980.588 460.264 3505.39 
-959.021 462.225 3490.9 
-960.737 461.647 3492.17 
-956.876 462.319 3488.95 
-961.743 461.375 3492.87 
-962.439 460.859 3493.12 
-908.107 484.232 3521.21 
-907.876 484.739 3520.61 
-916.887 487.068 3503.85 
-918.251 487.915 3501.28 
-922.839 499.954 3488.97 
-925.088 498.768 3486.47 
-927.344 499.698 3480.74 
-928.445 498.222 3481.78 
-927.84 497.744 3483.38 
-928.496 497.778 3482.36 
-928.851 497.724 3482 
-926.329 501.468 3479.16 
-926.714 501.06 3479 
-926.511 501.422 3478.36 
-922.286 516.931 3460.5 
-925.713 505.304 3474.02 
-926.032 503.205 3475.57 
-926.105 502.707 3476.12 
-926.367 501.994 3476.69 
-922.516 513.161 3464.67 
-922.978 512.181 3466.38 
-922.196 514.419 3463.01 
-922.571 512.969 3464 
-923.911 510.791 3468.68 
-923.225 511.747 3466.9 
-924.969 509.134 3469.9 
-925.397 508.384 3470.49 
-925.266 508.69 3469.95 
-925.656 507.91 3470.65 
-925.778 507.101 3471.86 
-971.142 434.21 3518.25 
-971.469 433.937 3519.05 
-972.803 433.646 3518.99 
-976.622 433.019 3520.62 
-966.513 438.67 3509.1 
-965.106 439.123 3506.91 
-966.62 438.927 3508.12 
-963.546 439.085 3506.55 
-961.811 439.202 3505.22 
-967.74 438.289 3510.4 
-968.518 437.79 3512.04 
-968.596 438.179 3510.95 
-968.48 437.401 3513.21 
-968.893 436.357 3515.22 
-968.933 435.366 3516.91 
-970.381 434.492 3517.97 
-968.834 436.658 3514.72 
-959.125 439.224 3503.27 
-955.504 438.976 3502.37 
-955.883 439.108 3501.97 
-951.725 438.822 3500.69 
-948.635 438.674 3499.41 
-946.475 438.695 3498.06 
-943.455 438.836 3496.6 
-939.737 439.043 3494.47 
-984.325 433.245 3521 
-984.661 433.6 3521.33 
-981.331 432.385 3521.07 
-986.549 434.856 3522.36 
-986.893 435.302 3523.02 
-987.177 435.76 3523.62 
-986.98 435.963 3524.31 
-998.641 436.853 3530.87 
-995.561 436.949 3529.68 
-1001.56 436.708 3532.3 
-994.047 437.1 3528.56 
-993.588 437.28 3527.79 
-993.356 437.301 3527.1 
-1003.51 436.807 3533.95 
-993.411 437.365 3526.55 
-992.428 437.31 3525.59 
-992.892 437.312 3526.38 
-989.76 436.549 3524.71 
-991.256 436.974 3524.7 
-979.72 432.451 3520.76 
-977.258 432.926 3520.93 
-903.364 443.477 3524 
-904.176 443.369 3523.15 
-929.352 439.45 3487.69 
-936.441 439.443 3491.33 
-938.136 439.344 3492.62 
-933.947 439.61 3489.74 
-931.018 439.562 3488.21 
-921.904 438.402 3494.66 
-922.137 438.365 3493.6 
-922.185 438.265 3492.82 
-922.4 438.252 3492.12 
-922.141 438.185 3491.29 
-922.078 438.17 3490.47 
-921.828 438.161 3489.5 
-927.684 439.326 3486.41 
-924.189 438.884 3485.77 
-922.231 438.491 3487.13 
-921.728 438.323 3488.13 
-913.226 440.461 3509.83 
-915.002 439.792 3506.77 
-910.982 440.891 3512.52 
-915.752 439.209 3504.43 
-917.236 438.642 3501.61 
-918.051 438.708 3501.14 
-918.777 438.522 3500.12 
-907.657 442.687 3519.05 
-906.756 442.858 3520.09 
-906 443.084 3521.38 
-921.509 438.26 3494.97 
-920.404 438.19 3496.39 
-920.96 438.147 3495.47 
-900.666 445.483 3541.23 
-901.335 445.429 3538.85 
-901.769 445.447 3537.62 
-901.864 444.033 3531.04 
-902.793 443.691 3527 
-1010.04 459.247 3526.57 
-1004.11 460.697 3523.11 
-1007.9 459.81 3525.37 
-1006.29 459.946 3524.13 
-997.612 461.289 3518.75 
-997.212 461.281 3518.36 
-996.592 461.647 3518.19 
-1001.73 461.147 3521.48 
-995.753 461.813 3517.54 
-1002.86 460.91 3522.16 
-994.522 462.497 3516.77 
-993.469 463.596 3516.31 
-992.91 464.522 3516.27 
-991.155 467.774 3516.63 
-990.722 468.501 3516.67 
-973.718 477.978 3509.44 
-976.855 477.31 3510.54 
-978.541 476.632 3511.03 
-985.21 475.705 3513.65 
-985.944 475.275 3513.9 
-970.815 478.027 3510.51 
-922.516 478.962 3501.22 
-922.955 478.332 3500.88 
-921.639 479.521 3503.23 
-919.888 480.637 3505.22 
-917.829 481.549 3507.42 
-916.141 482.348 3509.71 
-912.114 483.393 3515.32 
-910.59 483.768 3517.77 
-971.042 472.818 3510.67 
-974.064 471.154 3509.76 
-976.496 470.466 3509.99 
-975.167 470.738 3509.7 
-986.074 461.301 3509.5 
-987.99 461.271 3510.92 
-988.165 462.169 3511.5 
-988.196 463.511 3512.22 
-982.752 460.431 3506.73 
-983.385 467.671 3511.99 
-981.294 468.663 3511.37 
-986.047 466.816 3512.83 
-987.578 465.528 3512.92 
-988.652 464.891 3513.12 
-979.126 469.483 3510.55 
-981.075 469.216 3511.46 
-969.03 475.939 3511.35 
-968.828 474.847 3511.51 
-969.48 473.785 3511.22 
-970.035 473.85 3511 
-921.793 475.359 3486.84 
-921.561 474.035 3482.66 
-921.59 473.411 3481.15 
-921.128 473.256 3480.27 
-922.019 474.994 3486.34 
-924.958 476.375 3493.66 
-918.219 471.838 3473.48 
-917.142 471.05 3471.11 
-916.69 470.356 3469.57 
-915.849 467.671 3465.13 
-916.335 466.918 3464.74 
-918.016 466.326 3465.48 
-915.803 468.471 3466.06 
-915.345 467.873 3464.87 
-920.988 466.065 3467.63 
-924.077 465.142 3469.15 
-926.252 464.368 3470.18 
-928.757 463.923 3471.76 
-930.249 464.074 3473.02 
-932.001 464.388 3474.47 
-925.687 476.721 3495.35 
-934.63 464.278 3476.05 
-937.009 464.117 3477.43 
-939.525 464.22 3479.34 
-943.01 463.3 3481.04 
-946.087 463.123 3483.14 
-956.126 462.186 3488.34 
-955.1 462.026 3487.63 
-949.948 461.994 3485.12 
-948.317 462.129 3484.13 
-946.93 462.395 3483.23 
-968.514 459.666 3497.01 
-964.239 460.29 3494.22 
-966.092 459.729 3495.31 
-973.423 458.689 3500.07 
-975.383 458.847 3501.44 
-978.039 459.309 3503.37 
-980.585 459.679 3505.1 
-961.173 460.866 3492.09 
-962.221 460.341 3492.66 
-908.828 484.487 3519.35 
-909.741 484.512 3517.97 
-909.609 484.929 3517.46 
-922.25 493.248 3493.46 
-922.16 495.299 3492.98 
-922.427 491.527 3493.5 
-923.65 496.923 3490.13 
-917.17 486.156 3503.97 
-916.184 485.966 3505.62 
-918.827 486.57 3501.2 
-919.029 485.585 3501.49 
-920.094 486.504 3499.24 
-922.521 499.346 3490.12 
-925.083 498.214 3486.95 
-929.33 497.501 3481.85 
-928.932 497.358 3482.37 
-927.332 497.484 3484.54 
-928.227 497.399 3483.33 
-926.513 497.509 3485.67 
-927.569 499.741 3479.85 
-928.91 497.969 3481.21 
-927.904 499.419 3479.62 
-926.371 501.822 3477.25 
-926.808 501.132 3477.83 
-927.114 500.65 3478.57 
-926.077 503.686 3474.66 
-926.342 502.615 3475.36 
-926.482 502.018 3476.01 
-926.031 505.999 3472.38 
-922.785 512.588 3465.77 
-922.759 512.607 3465.17 
-922.753 512.551 3464.57 
-922.331 514.677 3461.97 
-922.356 513.746 3463.47 
-922.495 513.263 3463.27 
-922.402 515.028 3461.42 
-922.411 516.559 3460.18 
-924.262 510.33 3468.24 
-925.098 509.087 3469.1 
-924.11 510.501 3467.74 
-925.947 506.918 3471.14 
-925.813 507.423 3470.89 
-971.152 434.456 3517.51 
-971.802 434.077 3518.03 
-975.216 433.164 3520.15 
-967.957 438.471 3509.84 
-966.196 439.16 3507.16 
-964.163 439.264 3506.06 
-963.28 439.267 3505.74 
-968.015 438.74 3509.06 
-961.617 439.305 3504.7 
-969.103 437.864 3511.76 
-969.067 438.362 3510.51 
-968.648 437.117 3513.84 
-969.728 435.249 3516.73 
-969.207 436.919 3514.09 
-959.686 439.333 3503.16 
-956.838 439.274 3501.77 
-952.429 438.954 3500.48 
-953.101 439.121 3500.26 
-948.897 438.813 3498.96 
-946.53 438.835 3497.58 
-943.641 438.978 3496 
-940.867 439.059 3494.65 
-984.089 432.852 3520.42 
-984.863 433.024 3520.65 
-985.371 433.602 3521.14 
-983.757 432.992 3520.79 
-986.144 434.413 3521.76 
-999.081 436.892 3530.39 
-995.97 436.991 3529.28 
-994.67 437.108 3528.24 
-994.077 437.314 3527.28 
-994.096 437.392 3526.67 
-1003.82 436.852 3533.36 
-993.519 437.409 3526.03 
-994.087 437.496 3526.1 
-991.93 437.166 3524.76 
-992.994 437.402 3525.39 
-990.303 436.586 3524.03 
-980.585 432.213 3520.79 
-981.234 432.151 3520.6 
-904.782 443.232 3522.53 
-929.733 439.578 3487.31 
-936.306 439.597 3490.71 
-940.291 439.269 3493.66 
-938.013 439.594 3491.72 
-933.188 439.769 3488.43 
-921.793 438.188 3493.21 
-921.909 438.134 3492.03 
-921.634 438.072 3491.02 
-921.456 438.061 3490.12 
-920.904 438.047 3489.1 
-921.238 438.202 3488.5 
-927.898 439.438 3485.97 
-924.642 439.172 3484.32 
-922.349 438.835 3484.27 
-921.41 438.518 3485.74 
-920.824 438.407 3486.19 
-919.902 438.453 3498.54 
-920.018 438.286 3497.44 
-914.33 439.793 3507.55 
-908.877 441.675 3515.96 
-916.468 438.609 3502.21 
-915.104 439.236 3505.35 
-917.579 438.414 3501 
-907.271 442.28 3518.39 
-921.779 438.277 3493.98 
-900.473 445.413 3541.81 
-901.043 445.368 3539.51 
-901.326 444.986 3537.35 
-903.153 443.68 3525.5 
-902.411 443.582 3527.46 
-1004.79 460.27 3523.23 
-1008.85 459.187 3525.28 
-998.321 460.828 3518.79 
-996.629 461.287 3517.84 
-997.192 460.839 3517.86 
-997.901 460.638 3518.26 
-1002.51 460.834 3521.78 
-996.142 461.251 3517.34 
-995.073 461.885 3516.82 
-993.678 463.13 3516.19 
-992.043 465.843 3516 
-991.331 467.263 3516.18 
-989.976 470.079 3516.14 
-990.003 469.541 3515.71 
-990.368 469.295 3516.35 
-988.278 473.401 3514.96 
-973.245 478.326 3509.43 
-972.738 478.092 3509.47 
-972.271 477.844 3509.56 
-975.784 477.631 3510.1 
-980.763 476.231 3511.88 
-986.827 474.535 3514.17 
-982.814 476.076 3512.59 
-925.146 477.032 3497.55 
-925.421 476.893 3496.91 
-922.02 479.502 3501.91 
-922.568 478.653 3500.55 
-920.61 480.427 3504.07 
-924.077 477.518 3499.17 
-918.695 481.495 3505.99 
-916.43 482.409 3508.96 
-971.954 472.457 3510.34 
-971.548 473.059 3510.5 
-973.29 471.314 3509.84 
-974.999 471.248 3509.86 
-977.972 470.08 3510.33 
-977.198 470.555 3510.2 
-976.299 471.048 3510.05 
-978.534 470.178 3510.53 
-979.18 470.094 3510.78 
-986.366 460.741 3509.42 
-988.307 460.486 3510.72 
-989.534 461.698 3512.1 
-989.377 463.331 3512.78 
-982.872 459.92 3506.59 
-984.202 460.786 3507.84 
-983.34 468.484 3512.32 
-987.661 466.553 3513.39 
-988.139 466.027 3513.39 
-988.871 466.271 3513.8 
-989.333 465.824 3513.86 
-970.364 477.178 3510.54 
-969.321 474.849 3511.3 
-970.635 473.691 3510.8 
-971.11 473.429 3510.65 
-922.408 476.134 3489.14 
-921.381 473.854 3481.89 
-924.466 476.399 3492.67 
-924.505 476.491 3493.44 
-924.846 476.714 3494.11 
-925.304 476.544 3494.42 
-917.251 471.413 3471.78 
-916.117 470.375 3468.93 
-915.922 469.826 3467.93 
-916.221 469.43 3467.76 
-915.666 466.757 3463.96 
-914.996 466.952 3463.56 
-916.711 465.994 3464.08 
-919.089 465.525 3465.59 
-920.757 465.674 3467.06 
-922.525 464.999 3467.77 
-926.912 463.686 3470.1 
-923.902 464.416 3468.33 
-928.707 463.301 3471.17 
-930.249 463.466 3472.47 
-931.969 463.677 3473.82 
-925.622 476.759 3496.3 
-934.671 463.579 3475.47 
-937 463.569 3476.99 
-939.53 463.46 3478.71 
-942.697 463.029 3480.63 
-944.763 462.376 3481.57 
-955.786 461.767 3487.82 
-955.014 461.528 3487.29 
-949.09 462.178 3484.69 
-946.458 461.959 3482.56 
-968.429 459.218 3496.72 
-971.343 458.868 3498.64 
-964.145 459.83 3493.89 
-966.15 459.22 3495.11 
-971.905 458.269 3498.76 
-974.64 458.246 3500.68 
-977.698 458.666 3502.83 
-980.591 459.163 3504.87 
-959.133 461.695 3490.63 
-959.501 461.194 3490.69 
-957.76 461.738 3489.28 
-957.188 461.849 3488.85 
-956.715 461.748 3488.4 
-960.903 460.49 3491.64 
-962.201 459.842 3492.38 
-909.75 485.346 3516.73 
-910.406 484.863 3516 
-910.514 484.329 3516.49 
-911.265 483.93 3515.78 
-911.312 484.368 3515 
-923.87 495.347 3490.51 
-923.908 494.34 3490.68 
-923.88 496.249 3490.18 
-923.248 491.725 3492.22 
-924.102 493.452 3490.64 
-922.495 489.764 3493.69 
-921.76 489.056 3494.89 
-925.765 495.515 3487.8 
-925.87 496.251 3487.33 
-920.886 487.151 3497.55 
-918.912 484.782 3502.17 
-917.879 484.858 3503.75 
-920.454 485.05 3499.54 
-920.588 484.189 3499.86 
-921.036 485.793 3498.11 
-916.177 485.368 3506.09 
-910.34 485.739 3515.24 
-916.092 484.921 3506.56 
-923.583 497.743 3489.56 
-925.381 497.72 3486.97 
-929.65 497.069 3481.93 
-929.575 497.361 3481.3 
-928.671 496.733 3483.67 
-927.755 496.854 3484.73 
-929.253 496.957 3482.51 
-926.893 496.994 3485.66 
-929.234 497.79 3480.62 
-926.773 501.325 3476.94 
-928.263 499.12 3479.22 
-926.268 503.403 3474.22 
-925.949 505.056 3473.59 
-926.26 503.091 3474.9 
-926.743 501.505 3476.25 
-925.958 506.623 3471.75 
-926.178 504.575 3473.18 
-923.079 511.957 3465.77 
-923.354 511.52 3466.37 
-922.309 514.16 3462.26 
-922.408 513.455 3462.49 
-922.608 512.73 3463.29 
-925.583 508.188 3469.83 
-925.753 507.775 3470.09 
-971.687 434.354 3517.49 
-972.947 433.694 3518.5 
-977.297 432.989 3519.85 
-976.02 433.195 3519.56 
-978.126 432.75 3520.29 
-979.246 432.418 3520.31 
-965.176 439.295 3506.28 
-967.526 439.113 3507.83 
-963.471 439.546 3504.96 
-969.468 438.572 3510 
-968.943 437.491 3512.87 
-969.733 436.323 3514.97 
-970.113 435.347 3516.4 
-960.294 439.459 3503.12 
-955.927 439.389 3500.86 
-949.917 438.955 3498.97 
-953.023 439.268 3499.77 
-950.132 439.215 3498.25 
-948.542 439.18 3497.53 
-946.893 439.019 3497.18 
-943.727 439.135 3495.36 
-985.074 432.852 3520.17 
-985.738 433.338 3520.69 
-986.171 433.996 3521.26 
-983.249 432.797 3520.65 
-987.116 434.586 3521.75 
-987.43 435.092 3522.36 
-987.835 435.766 3523.09 
-999.486 436.958 3530 
-1001.95 436.851 3531.44 
-996.308 437.073 3528.81 
-994.777 437.264 3527.57 
-995.548 437.174 3528.02 
-1003.9 436.918 3532.75 
-993.954 437.638 3525.47 
-993.115 437.511 3524.89 
-992.36 437.297 3524.28 
-992.263 437.302 3523.74 
-980.268 432.149 3520.38 
-982.908 432.799 3520.28 
-906.09 442.704 3520 
-903.68 443.127 3522.92 
-929.689 439.693 3486.76 
-932.07 439.873 3487.34 
-935.575 439.808 3489.52 
-940.801 439.393 3493.41 
-938.815 439.734 3491.7 
-937.124 439.834 3490.4 
-921.764 438.093 3492.54 
-921.423 438.024 3491.74 
-921.099 437.959 3490.85 
-920.864 437.95 3490.05 
-920.248 437.939 3489.08 
-920.162 438.231 3487.06 
-927.547 439.522 3485.22 
-924.698 439.314 3483.56 
-922.82 439.153 3482.64 
-921.577 438.883 3483.12 
-920.499 438.586 3483.98 
-919.972 438.125 3496.93 
-912.766 440.3 3509.96 
-908.404 441.299 3515.4 
-910.124 440.409 3512.52 
-918.357 438.243 3499.79 
-919.133 438.267 3499.16 
-921.154 438.056 3494.65 
-920.936 437.945 3494.12 
-921.463 438.127 3493.61 
-920.588 437.85 3495.07 
-901.198 444.736 3536.68 
-901.491 444.437 3533.67 
-901.857 443.677 3529.62 
-901.891 443.34 3527.49 
-1009.88 459.052 3526.07 
-1007.56 459.422 3524.55 
-1009.81 458.686 3525.41 
-1000.09 460.869 3520.04 
-998.761 460.404 3518.66 
-1002.46 460.442 3521.36 
-997.524 460.312 3517.6 
-998.481 460.049 3518.11 
-995.999 460.986 3516.92 
-995.661 461.39 3517.01 
-994.452 462.123 3516.28 
-992.539 464.832 3515.94 
-991.742 466.518 3516.13 
-990.98 467.793 3516.12 
-990.45 468.68 3516.1 
-990.16 469.013 3515.8 
-974.183 477.796 3509.49 
-979.613 476.165 3511.39 
-977.013 476.821 3510.47 
-986.291 474.73 3513.93 
-988.176 472.911 3514.82 
-988.83 471.444 3515.12 
-924.6 477.31 3498.08 
-922.129 479.566 3501.03 
-921.418 480.039 3502.79 
-919.666 481.306 3504.51 
-917.439 482.197 3507.22 
-915.607 482.81 3509.89 
-912.9 483.742 3513.31 
-972.463 472.705 3510.2 
-973.035 472.421 3510.08 
-975.594 471.123 3509.91 
-979.44 470.557 3511.03 
-986.256 460.205 3509.08 
-987.187 459.636 3509.54 
-989.657 459.746 3511.28 
-990.612 460.965 3512.43 
-990.079 464.549 3513.7 
-983.067 459.46 3506.55 
-984.487 459.93 3507.68 
-985.69 467.369 3512.9 
-987.815 467.258 3513.7 
-988.416 466.826 3513.8 
-989.176 466.983 3514.23 
-969.442 475.638 3511.15 
-969.801 474.936 3511.08 
-970.416 474.392 3510.84 
-923.532 476.316 3491.05 
-921.744 475.633 3487.3 
-922.103 475.729 3488.05 
-920.156 473.017 3478.43 
-919.379 472.416 3476.06 
-918.138 472.211 3474.01 
-917.319 471.672 3472.23 
-916.138 470.689 3469.4 
-915.445 469.642 3467.12 
-915.447 469.095 3466.43 
-915.547 465.939 3463.03 
-914.737 465.916 3462.31 
-917.28 465.373 3463.93 
-920.577 464.695 3466.01 
-914.479 467.04 3463.18 
-914.225 465.918 3461.84 
-925.403 463.56 3468.78 
-921.906 464.204 3466.6 
-928.153 462.905 3470.42 
-930.214 463.036 3472.1 
-931.993 463.114 3473.37 
-925.446 476.868 3494.92 
-934.616 462.94 3474.94 
-937.032 463.039 3476.61 
-939.511 462.952 3478.33 
-942.252 462.663 3480.07 
-943.324 462.138 3480.46 
-956.249 461.577 3487.97 
-953.038 461.689 3486.51 
-950.802 461.736 3485.48 
-949.64 461.372 3484.54 
-950.407 461.181 3484.93 
-947.049 461.616 3482.8 
-944.967 461.505 3481.19 
-948.808 461.386 3483.99 
-968.806 458.741 3496.74 
-964.1 459.336 3493.62 
-965.891 458.733 3494.72 
-968.336 458.418 3496.28 
-971.194 457.908 3498.1 
-973.987 457.698 3500.02 
-977.215 458.15 3502.3 
-979.981 458.551 3504.25 
-957.46 461.313 3488.72 
-957.943 461.061 3489.03 
-959.209 460.987 3490.28 
-960.904 460.048 3491.39 
-962.02 459.382 3492.02 
-911 485.236 3514.52 
-911.813 484.68 3513.68 
-912.665 484.156 3512.98 
-914.141 483.088 3512.14 
-925.844 495.021 3487.92 
-925.912 494.255 3488.13 
-923.582 491.144 3491.85 
-924.674 492.456 3490.16 
-922.92 489.7 3493.01 
-926.046 493.422 3488.16 
-922.541 488.357 3493.77 
-921.888 487.768 3495.27 
-921.921 486.968 3495.65 
-925.587 496.726 3487.49 
-926.912 495.067 3486.52 
-927.299 495.491 3485.92 
-926.861 496.296 3486.1 
-927.143 494.511 3486.54 
-921.528 486.493 3496.81 
-919.919 483.524 3501.37 
-920.593 483.693 3500.17 
-918.278 484.087 3503.65 
-921.281 484.795 3498.32 
-921.442 484.223 3498.44 
-921.731 485.534 3497.07 
-912.675 484.828 3512.16 
-912.718 485.194 3511.79 
-914.973 484.547 3508.74 
-916.69 484.256 3506.13 
-925.691 497.324 3486.89 
-929.915 496.718 3481.5 
-929.851 497.025 3481 
-930.084 496.24 3481.55 
-929.806 496.378 3482.36 
-930.04 495.961 3482.16 
-930.2 496.324 3481.01 
-927.099 500.805 3477.4 
-928.567 498.834 3478.92 
-929.465 497.618 3480.02 
-926.614 502.12 3475.15 
-926.691 501.785 3475.57 
-926.224 505.743 3471.61 
-922.858 512.036 3464.16 
-923.007 511.962 3465.03 
-922.405 514.497 3461.4 
-922.457 512.942 3462.43 
-922.742 512.464 3463.87 
-925.997 506.954 3470.61 
-973.837 433.659 3518.69 
-978.723 432.676 3519.54 
-976.611 433.211 3519.14 
-966.105 439.395 3506.42 
-964.02 439.62 3504.99 
-969.576 438.829 3509.38 
-962.271 439.446 3504.62 
-969.553 437.972 3511.45 
-969.696 437.616 3512.42 
-969.347 437.28 3513.3 
-969.795 437.109 3513.54 
-969.681 436.676 3514.39 
-970.272 436.446 3514.64 
-960.174 439.591 3502.59 
-958.066 439.448 3501.7 
-955.801 439.554 3500.32 
-952.119 439.443 3498.73 
-948.888 439.489 3496.85 
-947.044 439.347 3496.25 
-945.722 439.155 3496.18 
-943.409 439.413 3494.31 
-986.351 433.448 3520.55 
-986.758 434.139 3521.17 
-998.637 437.074 3529.26 
-1001.82 436.939 3530.77 
-995.935 437.328 3527.57 
-997.565 437.212 3528.4 
-994.71 437.397 3526.88 
-994.427 437.689 3525.63 
-993.256 437.632 3524.36 
-993.655 437.645 3525.03 
-990.724 436.63 3523.33 
-992.468 437.428 3523.2 
-905.212 442.954 3521.38 
-902.948 443.423 3524.47 
-903.546 443.366 3523.52 
-904.112 443.021 3522.25 
-931.092 439.954 3486.58 
-929.419 439.8 3486.06 
-934.333 440.086 3487.7 
-940.295 439.671 3492.44 
-938.718 439.964 3490.94 
-936.493 440.061 3489.19 
-921.38 438.012 3492.95 
-920.912 437.847 3492 
-920.51 437.841 3490.74 
-919.712 438.097 3487.39 
-919.234 438.209 3485.16 
-919.912 438.551 3483.27 
-928.144 439.754 3484.99 
-925.168 439.452 3483.2 
-923.257 439.409 3481.83 
-921.695 439.144 3481.6 
-920.678 438.903 3481.75 
-919.394 438.092 3497.98 
-919.868 437.842 3496.35 
-913.807 439.698 3507.88 
-908.321 440.75 3514.45 
-916.214 438.171 3501.84 
-918.937 437.949 3498.36 
-907.089 441.611 3517.24 
-906.047 442.067 3518.77 
-920.727 437.84 3493.64 
-920.273 437.916 3495.85 
-901.081 444.545 3536.21 
-902.261 443.441 3526.6 
-902.539 443.462 3525.81 
-1009.65 458.408 3524.99 
-1000.43 460.228 3519.67 
-1002.18 460.251 3520.98 
-1004.58 459.6 3522.34 
-1004.33 460.023 3522.55 
-996.556 460.894 3517.36 
-997.089 460.114 3517.07 
-998.316 459.687 3517.69 
-1007.36 459.153 3524.11 
-995.532 461.002 3516.48 
-993.859 462.658 3515.98 
-995.068 461.39 3516.33 
-989.213 471.32 3515.42 
-971.718 478.185 3509.93 
-973.014 477.695 3509.33 
-973.554 477.49 3509.35 
-980.276 475.978 3511.6 
-975.789 477.137 3510 
-983.389 475.756 3512.73 
-984.475 475.461 3513.17 
-985.497 475.179 3513.64 
-985.782 474.694 3513.69 
-987.678 473.584 3514.54 
-989.657 469.798 3515.38 
-921.423 480.246 3502.31 
-922.381 478.693 3500.05 
-923.01 478.107 3499.91 
-923.519 477.817 3499.39 
-919.857 481.46 3503.79 
-916.176 482.932 3508.65 
-973.244 471.94 3510.05 
-974.32 471.627 3509.96 
-974.663 472.075 3510.05 
-978.29 470.704 3510.59 
-977.299 471.213 3510.37 
-977.765 470.954 3510.46 
-976.44 471.595 3510.23 
-978.892 470.744 3510.82 
-980.891 469.835 3511.55 
-981.124 470.399 3511.8 
-985.727 459.29 3508.34 
-988.412 458.923 3510.11 
-990.763 458.882 3511.62 
-992.383 459.203 3512.74 
-992.4 460.068 3513.16 
-990.511 464.245 3513.82 
-982.037 458.752 3505.63 
-984.168 459.065 3507.17 
-987.377 468.054 3513.8 
-988.557 467.684 3514.17 
-987.971 468.111 3514.06 
-989.624 466.619 3514.32 
-989.334 467.618 3514.54 
-983.204 469.368 3512.56 
-985.46 468.559 3513.21 
-986.961 468.75 3513.8 
-970.116 475.823 3510.78 
-921.476 475.252 3486.1 
-920.952 473.561 3480.67 
-924.015 476.652 3492.65 
-919.768 473.369 3478.63 
-919.026 472.922 3476.53 
-914.927 468.337 3464.97 
-915.771 465.319 3462.62 
-914.607 465.184 3461.52 
-915.134 465.154 3461.95 
-918.716 464.669 3464.49 
-913.843 465.858 3461.43 
-914.216 465.057 3461.06 
-922.338 463.667 3466.5 
-925.233 463.078 3468.27 
-919.662 464.135 3464.82 
-928.033 462.457 3469.99 
-930.074 462.583 3471.66 
-931.899 462.647 3472.96 
-934.592 462.434 3474.55 
-937.043 462.446 3476.21 
-939.738 462.408 3478.13 
-942.314 461.778 3479.59 
-939.703 461.958 3477.82 
-955.848 461.329 3487.58 
-956.643 461.079 3487.96 
-951.092 461.069 3485.29 
-949.78 460.743 3484.29 
-950.673 460.736 3484.86 
-943.494 461.165 3480.03 
-948.786 460.846 3483.69 
-963.509 458.797 3492.92 
-965.36 458.216 3494.11 
-967.966 458.082 3495.91 
-979.388 457.918 3503.66 
-957.063 461.239 3488.34 
-959.251 460.434 3490.04 
-961.287 459.294 3491.41 
-913.526 484.049 3511.52 
-914.501 483.517 3510.63 
-915.38 483.23 3509.62 
-927.814 494.03 3486.14 
-927.67 493.481 3486.3 
-924.874 491.574 3490.01 
-923.88 490.527 3491.43 
-923.485 489.971 3491.98 
-926.284 492.869 3487.98 
-923.281 488.922 3492.4 
-927.949 493.06 3486.03 
-923.092 487.83 3492.8 
-922.521 487.478 3494.07 
-922.545 486.863 3494.37 
-922.492 486.4 3494.83 
-922.086 486.398 3495.74 
-928.27 494.989 3485.18 
-928.574 495.354 3484.62 
-927.82 495.955 3485.14 
-928.841 494.929 3484.83 
-929.618 494.981 3484.22 
-922.121 485.961 3496.02 
-920.087 483.02 3501.45 
-921.362 482.698 3499.59 
-921.362 483.477 3499.06 
-922.027 484.895 3497.01 
-922.154 483.862 3497.54 
-922.25 485.384 3496.22 
-915.124 484.098 3508.91 
-917.333 483.767 3505.52 
-918.756 483.383 3503.48 
-930.113 496.664 3480.53 
-929.447 496.058 3483.31 
-928.964 495.759 3483.98 
-927.451 500.345 3478.08 
-926.136 506.234 3471.28 
-924.461 509.958 3467.61 
-923.269 511.266 3465 
-923.022 511.67 3464.46 
-922.403 514.002 3461.59 
-922.635 512.228 3463.18 
-922.468 516.052 3460.08 
-925.475 508.468 3469.23 
-926.133 506.482 3470.72 
-970.742 435.355 3516.14 
-973.251 433.981 3518.05 
-967.519 439.411 3507 
-962.926 439.764 3504.12 
-970.283 438.878 3509.61 
-970.29 438.163 3511.33 
-961.009 439.714 3502.91 
-958.787 439.786 3501.02 
-957.49 439.796 3500.36 
-954.935 439.721 3499.49 
-951.757 439.644 3498.03 
-948.206 439.696 3495.97 
-945.621 439.579 3494.88 
-944.528 439.541 3494.44 
-941.668 439.717 3492.82 
-985.571 432.819 3519.98 
-986.383 432.979 3520 
-987.039 433.627 3520.45 
-987.57 434.107 3520.82 
-988.226 435.169 3521.75 
-988.65 435.802 3522.61 
-995.268 437.377 3527.19 
-995.228 437.697 3526.16 
-995 437.844 3525.55 
-1004.66 437.048 3532.4 
-994.285 437.824 3525.01 
-992.839 437.532 3523.82 
-990.969 436.661 3522.57 
-984.562 432.98 3520.1 
-904.335 442.69 3521.33 
-905.03 442.655 3520.48 
-930.158 440.006 3485.86 
-933.218 440.246 3486.57 
-939.987 440.105 3491.19 
-938.432 440.195 3490.15 
-936.331 440.272 3488.38 
-920.706 437.768 3492.5 
-919.741 437.764 3489.46 
-918.277 437.888 3485.85 
-918.74 438.084 3485.33 
-919.261 438.49 3482.61 
-919.997 438.817 3481.09 
-929.381 440.047 3485.07 
-927.579 439.842 3484.2 
-925.571 439.625 3482.89 
-923.715 439.696 3481.14 
-921.918 439.363 3480.64 
-920.756 439.076 3480.65 
-919.568 437.961 3497.2 
-913.457 439.309 3507.56 
-911.826 439.885 3510.16 
-909.706 440.085 3512.39 
-907.519 440.981 3515.46 
-914.71 438.847 3505.06 
-917.131 437.835 3500.55 
-906.422 441.429 3517.43 
-905.151 442.279 3519.7 
-919.997 437.619 3495.34 
-900.599 445.088 3540.55 
-900.936 444.946 3538.5 
-901.226 444.018 3532.96 
-901.19 443.651 3531.88 
-901.492 443.11 3528.68 
-901.887 443.068 3526.26 
-902.356 443.278 3525.14 
-902.52 443.155 3524.31 
-899.812 445.404 3544.01 
-1010.52 458.701 3525.98 
-1003.88 459.66 3521.83 
-1007.86 458.64 3523.95 
-996.256 460.236 3516.45 
-1000.41 459.561 3519.13 
-999.541 459.233 3518.23 
-992.586 464.18 3515.48 
-991.298 466.796 3515.7 
-993.18 462.843 3515.27 
-994.748 461.153 3515.8 
-994.284 461.666 3515.7 
-990.5 468.207 3515.7 
-974.837 477.829 3509.65 
-975.356 477.505 3509.79 
-977.341 476.319 3510.49 
-986.478 474.188 3513.91 
-988.362 471.629 3514.81 
-989.12 470.246 3515.12 
-989.677 469.257 3515.28 
-971.175 477.907 3510.04 
-924.879 477.379 3497.15 
-924.31 477.682 3497.73 
-921.638 480.315 3501.54 
-922.269 479.952 3500.14 
-922.561 479.106 3499.58 
-923.173 478.793 3499.08 
-923.386 478.137 3498.96 
-920.134 481.478 3503.06 
-918.082 482.248 3505.98 
-923.921 477.733 3498.54 
-971.819 473.732 3510.36 
-975.286 471.672 3510.05 
-978.488 471.338 3510.76 
-977.662 471.712 3510.58 
-975.828 471.568 3510.08 
-979.586 471.127 3511.18 
-978.999 471.442 3510.98 
-981.54 470.575 3512.03 
-986.925 458.258 3508.82 
-989.207 458.161 3510.38 
-991.759 458.182 3511.98 
-993.203 458.323 3512.9 
-994.53 458.24 3513.82 
-992.147 461.518 3513.67 
-982.39 458.308 3505.73 
-985.361 458.114 3507.7 
-987.644 468.657 3514.05 
-989.25 468.141 3514.66 
-988.725 468.188 3514.4 
-990.006 466.886 3514.68 
-989.795 467.614 3514.8 
-985.21 469.296 3513.3 
-986.623 469.291 3513.79 
-970.962 474.597 3510.56 
-970.323 475.041 3510.79 
-922.285 476.501 3489.47 
-921.409 474.835 3484.64 
-921.277 474.355 3483.03 
-921.184 473.804 3481.37 
-920.533 473.445 3479.9 
-919.023 473.157 3477.05 
-918.094 472.632 3474.66 
-925.007 477.004 3494.49 
-916.218 471.02 3469.97 
-915.322 470.017 3467.46 
-914.903 469.094 3465.83 
-913.841 467.445 3463 
-916.686 464.709 3462.82 
-915.204 464.584 3461.53 
-914.704 464.535 3461.07 
-916.947 464.237 3462.65 
-913.627 465.611 3461 
-922.152 463.209 3466.03 
-924.794 462.589 3467.6 
-927.739 462.064 3469.47 
-930.137 462.041 3471.33 
-931.807 462.266 3472.62 
-934.291 462.086 3474.1 
-936.885 461.982 3475.8 
-953.147 461.14 3486.28 
-950.096 460.165 3484.23 
-949.005 460.278 3483.57 
-950.984 460.23 3484.82 
-946.651 461.212 3482.27 
-946.749 460.527 3481.99 
-962.282 458.593 3491.88 
-963.293 458.072 3492.48 
-965.945 457.682 3494.35 
-971.511 457.104 3498.04 
-974.099 457.155 3499.89 
-976.867 457.682 3501.91 
-957.37 460.655 3488.34 
-957.749 460.186 3488.48 
-956.966 460.555 3487.97 
-960.643 459.26 3490.87 
-915.572 483.765 3508.59 
-916.533 483.276 3507.49 
-925.114 491.037 3489.64 
-926.606 491.988 3487.59 
-924.242 490.02 3490.88 
-923.919 489.486 3491.24 
-923.72 488.914 3491.51 
-927.74 492.526 3486.25 
-923.549 487.927 3491.89 
-923.393 487.205 3492.32 
-923.116 486.994 3493.04 
-923.164 486.454 3493.33 
-922.932 485.937 3494.22 
-922.529 485.937 3495.12 
-929.925 495.414 3483.56 
-930.351 495.338 3483.29 
-922.562 485.525 3495.41 
-921.462 482.048 3499.9 
-922.478 482.581 3497.91 
-922.159 482.047 3498.74 
-922.565 484.636 3496.17 
-922.896 483.683 3496.45 
-923.484 482.235 3496.56 
-922.673 485.012 3495.61 
-917.02 483.631 3506.16 
-919.05 482.837 3503.48 
-919.487 482.809 3502.72 
-920.963 482.039 3500.82 
-930.447 496.105 3480.28 
-930.159 496.73 3479.95 
-930.424 495.905 3480.77 
-930.657 495.611 3480.4 
-929.603 496.308 3482.9 
-930.335 495.805 3481.3 
-927.165 500.807 3476.8 
-929.795 497.251 3479.7 
-926.488 502.691 3474.62 
-926.73 502.026 3474.65 
-926.966 501.428 3475.3 
-925.192 508.899 3468.62 
-923.489 511.277 3465.88 
-922.428 513.106 3461.94 
-922.389 513.416 3461.42 
-922.432 512.534 3461.79 
-922.502 512.275 3462.31 
-922.735 511.546 3462.95 
-922.898 511.217 3463.39 
-925.889 507.27 3469.82 
-925.663 507.874 3469.34 
-977.588 433.245 3518.83 
-975.039 433.721 3518.41 
-965.483 439.706 3505.46 
-968.42 439.498 3507.19 
-963.844 439.98 3504.13 
-970.792 438.156 3511.61 
-970.521 437.79 3512.25 
-960.368 439.843 3502.07 
-970.041 437.402 3512.86 
-957.823 440.018 3499.91 
-955.601 439.977 3499.1 
-952.844 439.947 3497.9 
-949.657 439.842 3496.42 
-945.272 439.918 3493.85 
-946.508 439.972 3494.37 
-942.768 439.93 3492.71 
-987.862 434.585 3521.35 
-988.497 435.037 3521.35 
-989.52 435.914 3522.1 
-1000.8 437.092 3529.68 
-1002.77 436.982 3531.12 
-995.798 437.679 3526.5 
-996.344 437.477 3527.18 
-998.05 437.292 3528.2 
-993.816 437.821 3524.32 
-990.317 436.106 3521.73 
-991.397 436.833 3521.98 
-993.136 437.768 3523.16 
-904.513 442.305 3520.46 
-903.886 442.569 3521.66 
-931.139 440.241 3485.63 
-934.201 440.456 3486.47 
-940.637 440.347 3490.86 
-939.284 440.466 3489.95 
-937.125 440.446 3488.43 
-920.619 437.766 3493.09 
-920.393 437.775 3491.27 
-920.295 437.843 3489.95 
-919.183 437.9 3487.74 
-918.11 437.979 3484.55 
-919.241 438.629 3480.74 
-918.67 438.435 3480.61 
-919.93 438.887 3480.27 
-930.116 440.311 3484.77 
-928.545 440.123 3484.23 
-926.123 439.899 3482.69 
-924.493 439.905 3481.09 
-922.444 439.633 3480.06 
-920.802 439.204 3479.89 
-919.176 437.825 3497.52 
-919.388 437.598 3496.54 
-919.664 437.555 3495.83 
-911.085 439.416 3510.08 
-907.09 440.976 3515.84 
-915.743 437.839 3502.07 
-913.751 438.692 3506.07 
-914.885 438.117 3503.5 
-917.833 437.771 3499.5 
-916.211 437.35 3500.97 
-916.976 437.126 3499.75 
-918.666 437.636 3498.01 
-906.207 440.998 3516.79 
-920.384 437.653 3494.12 
-920.193 437.548 3493.6 
-920.252 437.63 3494.75 
-1010.42 458.409 3525.57 
-1008.23 458.153 3523.78 
-997.528 459.613 3517.04 
-995.321 460.601 3515.87 
-1003.43 459.638 3521.47 
-1002.83 459.159 3520.67 
-1000.01 458.92 3518.34 
-1005.85 458.846 3522.68 
-992.779 463.038 3514.96 
-991.512 465.95 3515.41 
-993.187 462.2 3514.9 
-975.008 477.122 3509.65 
-974.475 477.383 3509.53 
-982.311 475.798 3512.32 
-987.244 473.706 3514.27 
-987.754 472.915 3514.55 
-988.715 469.953 3514.84 
-989.848 468.789 3515.34 
-921.792 480.454 3500.91 
-922.468 480.217 3499.67 
-922.835 479.584 3498.99 
-923.35 479.325 3498.44 
-923.394 478.685 3498.62 
-918.641 482.57 3504.47 
-920.557 481.412 3502.19 
-972.187 473.337 3510.25 
-971.018 474.099 3510.64 
-972.897 472.964 3510.08 
-973.627 472.481 3510.01 
-975.158 472.175 3510.12 
-976.91 471.849 3510.4 
-981.182 470.925 3511.91 
-983.188 470.483 3512.78 
-988.667 457.33 3509.74 
-991.544 457.645 3511.68 
-994.364 457.483 3513.4 
-994.756 456.907 3513.49 
-995.644 457.395 3514.26 
-997.864 457.454 3515.88 
-992.232 462.088 3514.01 
-994.825 458.493 3514.17 
-998.158 457.703 3516.21 
-990.567 464.921 3514.16 
-982.286 457.715 3505.51 
-985.233 457.415 3507.42 
-988.388 456.731 3509.38 
-987.273 469.167 3514 
-989.026 468.678 3514.69 
-988.306 468.89 3514.4 
-984.66 469.689 3513.19 
-986.946 469.638 3513.96 
-970.622 475.974 3510.47 
-971.433 474.703 3510.38 
-971.107 475.203 3510.37 
-922.075 476.183 3488.75 
-921.336 475.568 3486.64 
-921.598 475.975 3487.77 
-916.657 471.831 3471.68 
-915.741 471.056 3469.4 
-914.934 470.256 3467.24 
-914.152 468.424 3464.27 
-913.484 465.166 3460.5 
-915.246 463.897 3461.06 
-916.788 463.741 3462.16 
-914.757 463.706 3460.52 
-913.834 464.74 3460.48 
-914.369 464.367 3460.66 
-919.717 463.402 3464.28 
-921.736 462.857 3465.49 
-924.729 462.172 3467.27 
-928.107 461.599 3469.46 
-929.92 461.652 3470.92 
-931.617 461.819 3472.21 
-925.311 476.999 3495.72 
-924.994 477.313 3496.58 
-933.788 461.68 3473.52 
-937.25 461.252 3475.62 
-934.949 461.316 3474.07 
-954.968 460.934 3486.97 
-953.511 460.495 3486.16 
-955.742 460.663 3487.25 
-951.769 460.352 3485.32 
-950.564 459.744 3484.35 
-949.39 459.847 3483.64 
-947.09 460.165 3482.08 
-951.582 459.884 3485.03 
-943.528 460.489 3479.73 
-940.329 461.103 3477.81 
-961.146 458.691 3491.06 
-964.243 457.503 3493.03 
-961.743 458.199 3491.34 
-966.399 457.272 3494.56 
-974.364 456.394 3499.83 
-977.141 456.878 3501.87 
-979.721 457.031 3503.66 
-959.204 459.92 3489.8 
-917.511 483.227 3505.75 
-929.935 494.442 3483.95 
-925.347 490.458 3489.27 
-926.782 491.561 3487.35 
-927.497 491.996 3486.47 
-924.623 489.41 3490.28 
-924.323 488.969 3490.65 
-924.178 488.468 3490.67 
-923.917 487.872 3491.14 
-923.698 487.257 3491.73 
-929.118 493.911 3484.81 
-923.42 485.921 3493.16 
-923.541 486.192 3492.66 
-922.988 485.493 3494.46 
-923.454 485.421 3493.46 
-929.946 495.798 3483.11 
-922.984 485.104 3494.84 
-922.01 481.473 3499.47 
-922.393 481.564 3498.68 
-923.168 481.798 3497.31 
-923.154 484.078 3495.51 
-923.706 482.596 3495.92 
-923.803 481.733 3496.39 
-923.146 484.503 3495.02 
-920.825 481.798 3501.31 
-930.608 495.294 3481.3 
-930.192 495.577 3482.62 
-930.339 495.52 3481.93 
-928.939 498.467 3478.52 
-927.882 499.95 3477.69 
-930.741 495.706 3479.85 
-926.338 504.267 3472.69 
-923.189 511.018 3464.41 
-922.354 513.288 3460.9 
-922.365 512.931 3461.28 
-922.338 512.259 3461.12 
-922.489 510.958 3461.34 
-922.283 511.651 3460.67 
-922.831 510.94 3462.87 
-922.529 515.571 3459.83 
-922.375 513.896 3460.87 
-926.275 505.855 3470.98 
-926.021 506.835 3470.06 
-977.892 432.974 3519.15 
-981.06 432.444 3520.09 
-973.651 434.32 3517.52 
-968.938 439.617 3507.16 
-962.481 439.868 3503.61 
-960.916 439.989 3502.15 
-970.656 439.418 3508.44 
-971.363 438.244 3511.72 
-971.107 437.916 3512.29 
-970.596 437.576 3512.71 
-970.79 436.444 3514.68 
-971.64 435.387 3516.07 
-958.839 439.98 3500.55 
-958.018 440.322 3499.38 
-955.88 440.197 3498.73 
-952.601 440.105 3497.4 
-949.382 440.071 3495.74 
-944.301 440.406 3492.26 
-942.837 440.215 3492.05 
-946.466 440.316 3493.55 
-988.125 433.913 3520.27 
-989.063 435.605 3521.67 
-1003.3 437.14 3530.8 
-994.866 437.984 3525.07 
-994.487 438.098 3524.3 
-994.063 438.077 3523.75 
-993.337 437.712 3523.87 
-993.408 437.943 3522.75 
-993.743 438.027 3523.34 
-905.487 441.696 3518.49 
-903.104 442.94 3523.22 
-903.491 442.544 3522.05 
-903.528 442.182 3521.35 
-904.984 441.339 3518.63 
-932.616 440.521 3485.54 
-935.574 440.668 3486.68 
-939.839 440.705 3489.62 
-941.507 440.645 3490.52 
-938.08 440.665 3488.49 
-920.123 437.505 3492.95 
-920.39 437.637 3492.08 
-919.902 437.652 3490.91 
-918.82 437.636 3488.74 
-918.52 437.707 3487.77 
-918.589 438.291 3482.57 
-919.076 438.626 3480.05 
-918.21 438.286 3480.44 
-919.688 438.881 3479.66 
-929.445 440.497 3483.87 
-931.129 440.706 3484.34 
-927.596 440.162 3483.34 
-925.669 440.132 3481.65 
-924.05 440.051 3480.32 
-922.038 439.697 3479.33 
-920.811 439.306 3479.31 
-912.872 439.029 3507.75 
-908.823 439.987 3513 
-906.94 440.566 3515.33 
-913.834 438.39 3505.37 
-917.788 437.148 3498.77 
-916.375 436.917 3500.28 
-917.204 436.756 3499.07 
-918.31 437.583 3498.58 
-900.712 444.977 3539.7 
-900.755 444.11 3536.4 
-900.887 443.922 3534.53 
-900.997 442.786 3529.98 
-901.528 442.683 3527.28 
-902.78 443.043 3523.79 
-902.598 442.586 3523.24 
-900.306 444.949 3541.39 
-1009.59 457.94 3524.49 
-996.736 459.304 3516.13 
-995.564 460.004 3515.64 
-999.21 458.714 3517.59 
-1003.23 458.723 3520.67 
-1005.36 458.412 3522.01 
-1002.56 458.424 3519.95 
-1007.86 457.862 3523.3 
-990.879 467.441 3515.62 
-993.744 461.391 3514.95 
-994.722 460.358 3515.16 
-991.624 464.68 3514.81 
-980.676 475.501 3511.65 
-987.091 473.111 3514.2 
-987.806 471.869 3514.5 
-985.237 474.67 3513.43 
-986.585 473.631 3513.95 
-988.521 470.522 3514.8 
-989.048 469.306 3514.88 
-989.668 468.32 3514.96 
-990.448 467.829 3515.34 
-921.938 480.627 3500.44 
-923.019 480.122 3498.52 
-923.543 479 3498.02 
-923.461 479.802 3497.93 
-923.881 478.058 3497.75 
-972.275 473.896 3510.18 
-972.691 473.599 3510.1 
-978.521 471.944 3510.84 
-978.12 472.367 3510.74 
-979.645 471.93 3511.27 
-990.93 457.089 3511.13 
-993.634 456.892 3512.77 
-997.397 456.438 3515.15 
-996.429 455.925 3514.36 
-998.045 455.899 3515.42 
-999.18 456.48 3516.4 
-1000.4 456.725 3517.37 
-1001.07 457.023 3518 
-994.347 459.812 3514.49 
-992.377 462.872 3514.51 
-996.36 458.576 3515.39 
-1001.52 457.475 3518.58 
-982.656 457.065 3505.61 
-985.755 456.578 3507.56 
-988.522 456.156 3509.32 
-990.948 456.541 3511.01 
-987.698 469.761 3514.27 
-988.497 469.489 3514.62 
-987.952 469.298 3514.31 
-970.835 477.511 3510.2 
-971.039 476.072 3510.21 
-971.495 476.304 3509.94 
-921.038 475.855 3486.29 
-918.613 473.1 3476.25 
-918.251 473.211 3475.89 
-917.702 472.51 3473.93 
-916.093 471.627 3470.63 
-915.185 470.756 3468.24 
-913.737 468.538 3463.95 
-913.286 466.608 3461.63 
-916.574 463.26 3461.66 
-915.21 463.195 3460.55 
-914.796 462.828 3460.01 
-914.318 463.398 3459.97 
-919.332 462.951 3463.67 
-921.978 462.348 3465.37 
-919.825 462.54 3463.83 
-928.008 461.207 3469.16 
-930.95 461.381 3471.5 
-932.067 461.138 3472.11 
-936.803 460.864 3475.13 
-933.304 460.885 3472.77 
-955.19 460.266 3486.86 
-953.225 460.159 3485.91 
-950.957 459.374 3484.45 
-949.823 459.367 3483.73 
-948.669 459.589 3483.05 
-946.324 459.901 3481.39 
-952.039 459.537 3485.14 
-960.441 458.613 3490.48 
-962.514 457.576 3491.75 
-965.745 457.049 3494.04 
-968.541 457.206 3496.01 
-971.372 456.429 3497.75 
-979.956 456.534 3503.71 
-957.252 459.926 3487.99 
-956.475 460.29 3487.55 
-925.285 489.651 3489.33 
-924.922 488.65 3489.7 
-924.634 488.44 3490.12 
-924.211 487.677 3490.54 
-924.012 487.239 3491.12 
-923.441 486.711 3492.49 
-923.754 484.927 3493.25 
-923.389 485.091 3493.92 
-922.523 480.841 3499.15 
-922.749 481.061 3498.51 
-923.208 481.226 3497.58 
-924.06 482.174 3495.67 
-923.69 481.356 3496.77 
-923.574 484.182 3494.4 
-924.206 482.434 3495.16 
-921.817 481.299 3500 
-930.458 496.277 3479.68 
-926.394 502.962 3473.89 
-927.208 500.83 3476.28 
-927.276 500.838 3475.74 
-925.457 508.258 3468.75 
-924.488 509.738 3467.06 
-925.205 508.537 3468.2 
-923.558 510.775 3465.2 
-923.299 510.385 3464.31 
-922.174 512.146 3460.33 
-922.218 511.063 3459.87 
-922.43 510.539 3460.71 
-922.713 509.879 3461.81 
-922.78 510.378 3462.4 
-922.733 509.323 3461.48 
-922.615 509.961 3461.32 
-922.099 511.47 3459.57 
-922.984 510.383 3463.22 
-923.054 510.712 3463.63 
-922.43 514.249 3460.32 
-979.588 432.401 3519.82 
-982.065 432.826 3519.96 
-976.285 433.556 3518.61 
-966.437 440.003 3505.3 
-969.6 439.731 3507.23 
-964.868 440.361 3503.91 
-962.688 440.218 3503 
-960.865 440.197 3501.64 
-971.338 438.906 3510.13 
-971.236 439.583 3508.43 
-971.959 438.389 3511.78 
-971.701 438.079 3512.26 
-971.197 437.681 3512.81 
-970.375 437.261 3513.25 
-970.407 437 3513.75 
-971.303 436.549 3514.62 
-959.45 440.421 3499.99 
-952.872 440.36 3496.99 
-949.902 440.271 3495.58 
-943.851 440.752 3491.31 
-941.592 441.017 3489.7 
-947.673 440.63 3493.61 
-945.352 440.808 3491.89 
-988.357 434.306 3520.58 
-988.945 434.737 3520.58 
-987.104 433.316 3520.05 
-989.33 435.216 3520.82 
-1001.18 437.249 3529.36 
-996.212 437.934 3526.02 
-998.51 437.481 3527.75 
-996.775 437.751 3526.6 
-995.572 437.99 3525.58 
-995.289 438.349 3524.48 
-1003.96 437.377 3530.52 
-994.801 438.496 3523.41 
-995.284 438.52 3524 
-990.464 436.07 3521.22 
-991.995 437.182 3521.71 
-994.062 438.261 3522.66 
-902.932 442.343 3522.31 
-904.004 441.884 3520.47 
-905.584 440.563 3516.71 
-934.063 440.768 3485.63 
-937.571 440.861 3487.53 
-939.715 440.929 3488.96 
