-906.904 393.536 3449.96 
-907.126 393.549 3448.39 
-926.141 468.23 3435.7 
-925.457 468.972 3437.49 
-926.123 466.907 3434.26 
-922.404 461.995 3432.18 
-917.511 444.877 3433.76 
-920.179 452.535 3429.17 
-916.474 429.998 3445.72 
-916.52 429.679 3446.23 
-916.05 430.487 3444.18 
-920.62 453.756 3429.17 
-921.278 457.095 3429.34 
-921.423 458.473 3429.64 
-925.887 469.611 3434.07 
-920.237 467.198 3432.67 
-921.255 464.214 3431.94 
-921.05 463.461 3431.59 
-922.85 472.596 3435.74 
-922.614 471.798 3435.18 
-921.849 471.718 3435 
-924.065 471.063 3434.87 
-921.205 470.28 3434.11 
-920.246 468.928 3433.46 
-926.342 469.677 3436.18 
-926.516 469.396 3435.74 
-920.985 462.983 3431.37 
-920.903 458.964 3429.06 
-918.667 458.379 3426.21 
-919.636 457.767 3427.26 
-910.102 427.573 3437.45 
-910.012 425.688 3439.38 
-909.738 426.657 3437.51 
-909.687 424.834 3439.54 
-916.735 457.96 3424.76 
-916.821 454.991 3425.74 
-915.941 454.431 3425.68 
-916.691 456.663 3425.08 
-916.724 457.321 3424.92 
-916.203 455.885 3425.16 
-916.486 455.451 3425.43 
-914.737 453.804 3425.54 
-914.487 452.545 3426.14 
-914.503 451.819 3426.59 
-914.32 450.96 3427.06 
-915.059 430.319 3442.64 
-915.777 432.081 3441.9 
-915.207 430.811 3442.38 
-914.357 429.424 3442.61 
-912.581 427.668 3441.58 
-911.654 427.408 3440.41 
-915.785 445.773 3431.65 
-916.518 446.13 3431.83 
-917.232 447.329 3431.29 
-917.977 447.626 3431.6 
-917.642 447.791 3431.19 
-910.9 426.188 3440.54 
-910.575 425.706 3440.56 
-911.205 426.74 3440.41 
-910.315 425.034 3440.98 
-914.691 448.672 3428.9 
-915.469 447.077 3430.44 
-916.08 446.483 3431.27 
-907.529 403.576 3402.15 
-907.756 404.834 3405.67 
-907.605 404.088 3403.96 
-907.538 403.318 3403.42 
-907.638 401.669 3400.3 
-907.716 399.951 3399.45 
-907.709 399.255 3398.23 
-907.502 402.686 3402.57 
-907.6 401.368 3401.2 
-907.728 399.119 3397.01 
-908.097 405.536 3409.05 
-908.456 408.029 3412.57 
-908.469 407.44 3412.4 
-908.391 406.385 3410.92 
-908.505 406.879 3412.26 
-908.5 406.443 3411.9 
-907.627 397.585 3394.73 
-907.52 395.793 3389.99 
-907.571 396.666 3392.62 
-908.038 410.612 3422.1 
-908.843 414.976 3427.62 
-908.968 414.324 3428.83 
-909.07 412.876 3428.18 
-909.13 412.157 3428.49 
-909.125 411.237 3428.38 
-909.027 411.018 3427.66 
-908.615 410.204 3425.8 
-908.478 410.338 3425.03 
-908.108 410.275 3422.88 
-907.816 409.585 3418.69 
-907.925 409.615 3421.86 
-907.995 409.982 3422.27 
-907.895 409.899 3421.43 
-908.369 408.401 3413.95 
-908.129 409.162 3415.6 
-907.864 409.414 3418.01 
-908.427 408.201 3413.25 
-909.873 423.516 3441.83 
-910.434 422.558 3444.95 
-910.568 421.26 3446.29 
-910.393 421.383 3445.48 
-909.991 421.65 3443.12 
-909.271 415.662 3432.16 
-909.515 415.307 3433.48 
-909.156 414.717 3431.2 
-909.092 413.716 3429.67 
-925.895 469.913 3437.31 
-913.723 415.687 3471.08 
-913.485 415.906 3470.41 
-913.352 415.596 3469.81 
-912.306 413.711 3461.86 
-912.633 411.935 3461.95 
-912.829 412.688 3463.45 
-911.839 413.897 3459.76 
-911.754 414.294 3459.43 
-913.242 414.962 3468.67 
-916.108 428.506 3446.74 
-916.354 429.213 3446.35 
-915.083 426.582 3447.97 
-914.123 425.237 3449.21 
-913.615 424.814 3448.82 
-915.423 427.411 3446.87 
-915.815 427.976 3446.87 
-912.644 424.062 3448.1 
-911.505 423.419 3446.62 
-911.871 423.83 3446.58 
-912.311 424.082 3447.07 
-910.245 422.585 3444.19 
-910.265 423.035 3443.84 
-911.08 422.908 3446.6 
-910.591 423.254 3444.49 
-910.209 423.468 3443.09 
-911.187 423.442 3445.71 
-911.633 414.176 3458.5 
-911.525 414.252 3457.54 
-911.456 414.452 3456.61 
-911.422 419.259 3451.17 
-911.296 420.445 3450.1 
-911.455 418.465 3452.56 
-911.491 416.438 3454.13 
-911.443 414.963 3454.77 
-911.451 414.485 3455.31 
-909.11 396.749 3457.47 
-913.048 411.132 3463.87 
-912.913 410.14 3461.88 
-912.843 408.903 3459.91 
-912.812 407.789 3458.27 
-912.797 407.421 3457.11 
-912.876 405.082 3456.12 
-912.779 406.617 3456.03 
-913.754 402.922 3454.21 
-912.981 404.982 3455.63 
-915.097 399.732 3450.84 
-910.543 397.677 3456.35 
-910.026 397.4 3456.82 
-911.796 398.072 3454.7 
-913 398.411 3452.97 
-913.603 398.708 3452.28 
-907.021 393.155 3446.75 
-906.823 392.815 3446.07 
-906.053 391.583 3443.19 
-906.048 391.523 3444.69 
-905.736 390.883 3445.26 
-904.922 389.216 3445.86 
-906.252 391.927 3442.83 
-907.232 394.028 3450.05 
-908.491 396.194 3457.03 
-908.475 396.051 3456.08 
-925.716 469.357 3437.28 
-922.621 462.476 3432.65 
-922.875 462.953 3432.83 
-923.657 464.07 3433.31 
-920.241 452.17 3429.6 
-915.479 431.453 3442.12 
-915.892 431.204 3443.07 
-916.099 429.812 3445.01 
-916.221 429.607 3445.51 
-920.54 454.6 3428.69 
-925.333 469.47 3433.83 
-920.789 467.392 3432.8 
-920.366 466.442 3432.42 
-920.953 464.692 3432.01 
-921.549 463.806 3431.9 
-923.73 470.637 3434.48 
-922.499 471.206 3434.74 
-921.405 471.469 3434.8 
-921.377 469.672 3433.86 
-920.641 469.774 3433.88 
-920.488 468.483 3433.23 
-926.569 469.226 3434.02 
-926.726 469.304 3434.59 
-926.71 469.12 3435.19 
-920.383 458.575 3428.31 
-920.128 458.317 3427.92 
-921.681 462.154 3431.45 
-921.482 462.769 3431.46 
-917.45 457.773 3425.24 
-917.815 458.21 3425.47 
-917.419 458.433 3425.13 
-918.141 458.529 3425.69 
-917.338 454.542 3426.16 
-916.79 456.16 3425.3 
-916.051 453.812 3426.03 
-915.156 453.021 3426.16 
-915.236 452.443 3426.54 
-914.714 449.579 3428.28 
-915.474 430.394 3443.14 
-915.308 429.933 3443.37 
-915.054 429.424 3443.56 
-914.679 428.932 3443.58 
-913.236 427.6 3442.65 
-911.653 426.664 3441.18 
-918.065 447.289 3432 
-916.719 446.969 3431.27 
-917.22 447.789 3430.9 
-918.142 449.598 3429.89 
-918.886 449.656 3430.44 
-911.163 426.005 3441.19 
-910.772 425.383 3441.33 
-910.498 424.842 3441.62 
-915.546 447.714 3430.05 
-916.322 447.459 3430.66 
-907.673 403.97 3405.51 
-907.824 404.273 3407.3 
-907.584 403.257 3404.78 
-907.531 402.546 3404.04 
-907.693 398.696 3399.1 
-907.699 399.348 3400.45 
-907.579 397.602 3396.49 
-907.557 397.219 3397.3 
-907.522 402.09 3403.39 
-907.6 400.942 3401.86 
-908.183 404.999 3410.02 
-908.472 407.596 3412.99 
-908.461 405.848 3411.68 
-908.502 407.062 3412.83 
-908.579 406.216 3412.73 
-908.602 405.689 3412.78 
-907.535 395.677 3391.14 
-907.506 394.8 3389.56 
-907.518 396.332 3394.09 
-909.203 412.246 3429.3 
-909.213 411.542 3429.13 
-909.244 410.822 3429.1 
-908.947 410.034 3427.5 
-908.152 409.824 3423.5 
-907.842 409.797 3420.75 
-907.815 409.613 3420.26 
-907.961 409.32 3422.32 
-908.196 409.472 3423.89 
-908.371 407.984 3414.49 
-908.434 407.743 3413.68 
-907.863 409.089 3418.51 
-910.827 421.024 3447.35 
-910.249 421.227 3444.31 
-909.784 421.658 3441.57 
-910.531 420.995 3445.83 
-910.188 416.985 3436.71 
-909.967 415.819 3435.65 
-909.303 414.979 3432.28 
-909.555 414.677 3433.61 
-909.235 413.222 3430.58 
-909.388 414.203 3432.51 
-912.228 412.936 3461 
-912.507 411.757 3461.12 
-912.628 410.961 3460.86 
-912.743 411.239 3461.88 
-911.874 413.255 3459.52 
-911.734 413.706 3458.91 
-913.278 415.268 3469.22 
-913.334 413.945 3468.55 
-913.166 414.122 3466.75 
-913.355 414.539 3469.06 
-915.956 428.652 3446.14 
-914.625 426.149 3447.66 
-913.662 425.071 3448.02 
-913.398 424.994 3447.43 
-911.176 423.697 3445.17 
-910.718 423.752 3443.96 
-913.316 425.144 3446.8 
-911.712 424.192 3445.38 
-913.175 425.245 3446.19 
-909.999 424.316 3441.25 
-911.618 413.715 3457.96 
-911.518 413.944 3457.03 
-911.472 414.095 3455.9 
-911.201 420.295 3449.38 
-911.554 417.826 3452.08 
-911.523 416.126 3453.64 
-911.392 419.614 3450.45 
-911.582 413.951 3453.51 
-911.619 414.189 3452.95 
-908.541 396.338 3457.76 
-909.483 396.909 3456.8 
-913.386 413.918 3469.42 
-913.413 414.957 3469.75 
-912.984 412.2 3463.95 
-912.791 408.684 3458.7 
-912.792 407.779 3456.57 
-914.466 401.837 3452.44 
-912.796 406.392 3455.43 
-912.843 405.647 3455.66 
-913.151 404.462 3455.37 
-913.893 403.055 3453.64 
-915.239 399.461 3450.35 
-915.456 399.991 3450.33 
-914.613 398.736 3450.34 
-914.995 398.917 3450 
-913.57 415.337 3470.49 
-907.125 393.221 3446.14 
-907.021 393.026 3445.18 
-906.603 392.451 3444.7 
-906.61 392.484 3441.8 
-906.44 392.245 3440.64 
-902.307 385.07 3441.84 
-905.243 390.233 3442 
-905.837 391.257 3440.45 
-906.353 392.109 3439.44 
-904.833 389.495 3443.17 
-904.125 388.242 3443.45 
-903.984 387.834 3444.21 
-907.263 393.517 3447.33 
-907.713 395.127 3454.32 
-908.701 396.196 3455.65 
-926.111 468.654 3436.07 
-926.252 469.191 3436.27 
-921.743 459.995 3430.73 
-926.035 466.587 3433.75 
-919.841 451.884 3429.2 
-915.869 430.707 3443.57 
-915.974 430.045 3444.47 
-920.208 453.009 3428.92 
-920.659 455.429 3428.66 
-920.785 456.56 3428.66 
-921.106 458.275 3429.13 
-920.711 467.933 3433 
-921.214 467.711 3432.95 
-921.022 466.906 3432.67 
-920.57 465.368 3432.11 
-921.644 464.57 3432.16 
-924.472 470.167 3434.21 
-922.034 470.945 3434.5 
-922.143 470.451 3434.21 
-921.9 469.852 3433.93 
-921 468.59 3433.29 
-921.242 469.195 3433.63 
-924.684 469.652 3433.85 
-921.422 460.052 3430.27 
-921.896 460.982 3431.22 
-919.034 458.023 3426.6 
-917.504 457.169 3425.38 
-917.317 455.324 3425.85 
-917.357 453.827 3426.52 
-917.722 453.364 3426.93 
-917.192 455.895 3425.6 
-914.771 451.241 3427.1 
-915.399 451.941 3426.93 
-916.34 453.007 3426.62 
-917.223 453.294 3426.77 
-916.412 452.497 3426.97 
-914.89 450.225 3427.91 
-915.813 448.521 3429.64 
-915.673 430.04 3443.87 
-915.454 429.563 3444.04 
-915.235 429.087 3444.23 
-914.967 428.566 3444.42 
-914.391 428.076 3444.01 
-912.977 427.012 3442.83 
-911.599 426.166 3441.66 
-911.085 425.499 3441.72 
-910.771 424.806 3442.19 
-910.349 424.092 3442.43 
-916.394 448.121 3430.19 
-917.457 449.52 3429.58 
-907.702 403.436 3406.45 
-907.913 403.928 3408.51 
-907.606 402.634 3405.44 
-907.568 401.89 3404.45 
-907.714 398.255 3399.79 
-907.588 396.934 3398.3 
-907.729 398.753 3401.03 
-907.467 395.944 3396.41 
-907.618 400.553 3402.48 
-908.262 404.339 3410.87 
-908.503 407.118 3413.4 
-908.56 405.238 3412.45 
-908.652 406.119 3413.47 
-908.712 404.795 3413.29 
-907.542 395.135 3391.3 
-907.537 395.771 3393.9 
-907.516 393.937 3389.53 
-907.552 394.396 3390.6 
-909.313 411.551 3429.92 
-909.411 410.506 3430 
-909.099 409.645 3428.24 
-908.448 409.187 3425.25 
-907.869 409.055 3421.19 
-907.872 408.864 3420.71 
-908.051 409.405 3422.97 
-908.39 407.633 3415.08 
-908.469 407.281 3414.16 
-908.108 408.884 3416.06 
-908.132 408.372 3416.77 
-907.811 409.239 3419.13 
-909.822 421.227 3440.82 
-910.709 420.56 3446.2 
-910.791 420.536 3446.85 
-910.163 421.194 3443.61 
-911.005 420.59 3448.35 
-910.37 417.788 3437.97 
-910.367 418.135 3438.38 
-910.513 417.12 3438.17 
-910.453 416.672 3437.68 
-910.368 415.19 3437.03 
-909.788 414.508 3434.77 
-909.615 413.967 3433.67 
-909.391 412.852 3431.41 
-912.153 412.415 3460.07 
-912.709 410.253 3460.48 
-912.489 411.193 3460.26 
-912.588 410.481 3459.78 
-912.831 409.523 3460.51 
-911.74 413.268 3458.55 
-915.888 428.848 3445.68 
-914.645 426.348 3447.12 
-915.108 426.856 3447.18 
-914.92 426.866 3446.67 
-915.198 427.529 3446.16 
-915.561 427.914 3446.32 
-915.641 428.258 3445.96 
-911.076 424.039 3444.24 
-910.792 424.232 3443.14 
-911.811 424.703 3444.43 
-913.091 425.394 3445.62 
-912.945 425.471 3445.12 
-914.226 426.306 3446.13 
-911.682 413.111 3457.72 
-911.581 413.44 3457.22 
-911.498 413.653 3456.22 
-911.626 417.368 3451.85 
-911.48 418.64 3451.31 
-911.468 418.855 3450.57 
-911.656 415.349 3452.45 
-911.69 412.963 3451.74 
-911.711 413.506 3451.69 
-908.725 396.324 3456.54 
-909.928 397.132 3456.18 
-912.739 409.276 3459.09 
-912.746 408.472 3457.14 
-912.818 407.336 3455.28 
-912.884 406.304 3454.48 
-912.917 405.578 3455.14 
-914.651 401.868 3451.88 
-913.235 404.574 3454.7 
-915.417 400.662 3450.22 
-914.855 401.47 3451.55 
-915.289 399.338 3449.79 
-915.533 399.86 3449.77 
-914.214 398.55 3450.69 
-910.87 397.662 3455.67 
-913.956 398.571 3451.39 
-907.269 393.274 3444.81 
-907.21 393.182 3443.42 
-906.939 392.896 3442.3 
-907.444 393.625 3438.81 
-907.437 393.639 3437.97 
-907.367 393.547 3437.37 
-903.457 386.87 3444.08 
-902.837 386.166 3442.34 
-902.078 384.592 3440.73 
-902.391 385.381 3441.18 
-904.206 388.547 3440.83 
-903.711 387.745 3441.67 
-905.524 390.712 3439.5 
-906.451 392.241 3438.05 
-907.385 393.521 3436.63 
-903.323 387.06 3441.89 
-903.111 386.658 3442.25 
-907.581 393.826 3446.87 
-907.572 394.514 3450.52 
-907.448 393.504 3445.26 
-926.454 468.855 3435.69 
-926.427 467.822 3434.67 
-926.3 467.357 3434.4 
-922.184 461.256 3431.61 
-925.636 466.2 3433.94 
-915.869 429.232 3445.14 
-920.352 454.029 3428.62 
-920.307 454.966 3428.3 
-920.622 455.97 3428.53 
-920.96 457.485 3428.85 
-920.522 458.044 3428.33 
-925.986 469.187 3433.79 
-925.592 468.912 3433.53 
-922.672 468.043 3433.1 
-921.696 467.17 3432.8 
-920.908 465.959 3432.38 
-921.122 465.204 3432.2 
-922.028 464.065 3432.1 
-923.249 470.256 3434.19 
-922.774 469.752 3433.86 
-922.597 469.086 3433.52 
-921.845 469.394 3433.71 
-922.676 468.536 3433.27 
-924.229 469.292 3433.61 
-924.972 469.196 3433.55 
-923.925 469.745 3433.91 
-926.806 468.783 3434.35 
-926.771 468.627 3434.85 
-920.138 457.607 3427.82 
-921.848 461.541 3431.36 
-921.91 462.728 3431.75 
-918.209 457.97 3425.82 
-917.956 457.172 3425.7 
-917.448 456.524 3425.53 
-917.842 456.16 3425.87 
-918.812 457.607 3426.41 
-918.13 453.797 3426.88 
-917.907 455.615 3426.09 
-915.478 450.668 3427.86 
-915.508 451.321 3427.39 
-916.472 451.917 3427.37 
-917.404 452.571 3427.29 
-915.489 449.694 3428.6 
-917.132 449.928 3429.12 
-915.644 429.351 3444.6 
-914.652 427.918 3444.62 
-914.16 427.43 3444.31 
-911.521 425.764 3442.1 
-919.517 451.222 3429.46 
-918.708 451.042 3428.95 
-917.808 449.93 3429.41 
-918.265 451.3 3428.51 
-907.749 402.938 3407.09 
-907.86 403.382 3408.25 
-908.048 403.38 3409.94 
-907.669 402.286 3406.13 
-907.622 401.555 3405 
-907.629 400.477 3403.17 
-907.742 397.716 3400.43 
-907.627 396.536 3399.21 
-907.485 395.589 3397.59 
-907.743 398.438 3401.6 
-907.46 395.269 3396.94 
-907.531 395.341 3394.27 
-908.412 403.933 3411.91 
-908.571 406.704 3414.03 
-908.663 406.167 3413.99 
-908.765 405.608 3414.17 
-908.836 404.445 3413.97 
-908.501 403.537 3412.56 
-907.425 393.149 3388.74 
-906.949 390.166 3385.2 
-907.007 390.324 3386.1 
-907.58 394.583 3391.91 
-907.577 393.138 3389.96 
-907.62 393.634 3390.67 
-907.649 393.733 3391.45 
-909.489 411.172 3430.74 
-909.523 408.604 3429.75 
-909.725 409.6 3430.78 
-909.69 410.203 3431.09 
-909.24 408.155 3428.48 
-907.937 408.801 3421.67 
-908.199 408.745 3423.84 
-908.125 408.618 3423.27 
-908.307 408.84 3424.52 
-908.464 407.226 3415.6 
-908.506 406.995 3414.84 
-907.839 408.958 3419.63 
-910.037 420.884 3441.84 
-910.987 420.016 3446.84 
-910.511 420.723 3445.12 
-910.914 420.061 3446.28 
-911.197 419.94 3448.84 
-910.342 418.499 3438.75 
-910.648 417.456 3438.96 
-910.647 417.871 3439.31 
-911.159 415.868 3439.81 
-910.959 415.457 3439.08 
-911.164 414.921 3439.61 
-910.956 413.588 3438.73 
-910.482 413.905 3437.13 
-910.226 413.729 3436.13 
-909.559 412.655 3432.22 
-909.769 413.607 3434.24 
-912.098 412.071 3459.17 
-912.665 409.824 3459.24 
-912.457 410.888 3459.38 
-912.525 410.222 3458.51 
-911.785 412.797 3458.16 
-915.278 428.592 3444.89 
-914.27 426.143 3446.63 
-914.679 426.802 3446.21 
-915.261 427.897 3445.73 
-911.623 424.975 3443.48 
-911.733 412.705 3457.16 
-911.596 413.144 3456.57 
-911.617 413.278 3454.07 
-911.753 412.335 3451.92 
-911.668 417.484 3451.13 
-911.75 416.508 3451.48 
-911.604 418.016 3450.64 
-911.365 419.492 3449.7 
-912.009 415.436 3449.44 
-911.852 414.735 3450.82 
-911.322 419.451 3448.88 
-911.704 412.802 3450.82 
-911.722 412.222 3450.21 
-911.754 413.633 3451.03 
-909.144 396.519 3456 
-910.583 397.336 3455.19 
-912.669 409.021 3457.48 
-912.78 407.837 3455.1 
-912.875 406.747 3453.96 
-913.058 405.215 3454.63 
-912.501 398.13 3453.31 
-913.756 398.171 3450.66 
-915.021 398.785 3449.46 
-907.508 393.486 3443.81 
-907.444 393.44 3441.96 
-907.481 393.618 3439.81 
-902.59 385.761 3441.97 
-902.269 385.077 3440.3 
-902.079 384.507 3439.81 
-902.541 385.734 3440.78 
-901.923 383.943 3438.95 
-903.973 388.079 3439.82 
-903.103 386.697 3440.07 
-903.104 386.744 3440.82 
-906.5 392.194 3436.94 
-905.557 390.666 3438.44 
-907.397 393.43 3435.8 
-902.868 386.32 3441.19 
-908.036 395.406 3454.02 
-907.82 394.616 3449.82 
-907.838 394.162 3447.42 
-907.921 394.04 3445.95 
-909.022 396.308 3455.19 
-908.452 395.718 3453.79 
-907.693 393.679 3444.43 
-922.113 461.908 3431.71 
-922.633 463.037 3432.34 
-922.952 463.398 3432.58 
-924.846 465.361 3433.37 
-922.379 462.522 3432.05 
-920.03 453.803 3428.31 
-919.775 452.446 3428.71 
-920.526 457.359 3428.28 
-920.462 456.693 3428.2 
-922.798 467.483 3432.94 
-921.226 466.357 3432.53 
-921.617 465.657 3432.4 
-921.666 465.087 3432.28 
-921.652 463.326 3431.78 
-923.409 469.42 3433.69 
-923.217 468.855 3433.41 
-923.533 468.183 3433.1 
-920.153 457.09 3427.8 
-919.528 457.232 3427.14 
-919.269 457.654 3426.86 
-918.312 456.876 3426.03 
-918.266 456.061 3426.18 
-917.766 454.173 3426.55 
-918.413 453.429 3427.18 
-918.249 455.292 3426.4 
-917.922 454.892 3426.34 
-918.256 454.516 3426.68 
-916.58 451.259 3427.87 
-916.617 450.641 3428.35 
-917.851 451.617 3428.11 
-914.535 427.449 3444.95 
-914.942 427.775 3445.31 
-912.801 426.46 3443.2 
-911.514 425.36 3442.69 
-918.873 451.602 3428.62 
-919.283 451.451 3429 
-907.864 402.723 3408.24 
-907.974 402.974 3409.37 
-908.184 402.852 3410.91 
-907.763 402.147 3407 
-907.684 399.821 3403.4 
-907.698 400.966 3405.22 
-907.765 397.425 3401.25 
-907.703 395.89 3400.6 
-907.661 396.177 3399.96 
-907.535 395.365 3398.76 
-907.782 397.822 3402.05 
-907.463 394.791 3397.23 
-907.532 394.908 3394.53 
-908.612 406.482 3414.68 
-908.812 405.524 3414.75 
-908.833 405.013 3414.21 
-909.003 404.533 3414.94 
-908.598 403.292 3413.12 
-908.303 402.476 3411.69 
-906.701 386.187 3378.59 
-907.517 392.451 3389.39 
-907.275 391.197 3388 
-906.934 389.484 3382.54 
-906.944 389.602 3384.89 
-907.014 389.471 3386.13 
-907.079 389.742 3386.95 
-906.9 387.376 3379.69 
-906.845 386.946 3379.15 
-906.779 386.178 3379.26 
-907.659 393.875 3392.54 
-907.704 392.705 3390.81 
-907.705 392.07 3390.49 
-907.756 392.716 3391.34 
-907.813 392.697 3392 
-909.759 410.861 3431.82 
-910.154 408.318 3431.91 
-909.883 407.117 3430.82 
-909.751 406.875 3430.21 
-910.357 408.875 3432.8 
-910.203 409.826 3432.88 
-908.61 408.861 3425.97 
-909.345 407.537 3428.7 
-908.047 408.592 3422.59 
-908.031 408.311 3421.95 
-908.405 408.444 3424.9 
-908.224 408.243 3423.66 
-908.543 406.947 3416.07 
-908.62 406.523 3415.37 
-908.155 408.034 3417.55 
-911.183 419.58 3447.16 
-911.159 419.877 3448.2 
-910.686 418.134 3439.82 
-910.498 418.655 3439.79 
-910.461 419.024 3440.2 
-911.343 416.758 3440.91 
-911.26 416.348 3440.35 
-911.363 414.646 3440.22 
-911.76 415.456 3441.6 
-911.059 412.932 3438.99 
-910.89 412.814 3438.23 
-911.14 413.463 3439.4 
-910.482 413.051 3436.75 
-909.783 412.342 3433.09 
-910.323 412.846 3435.98 
-912.096 411.698 3458.29 
-912.597 409.523 3457.84 
-912.147 411.169 3457.12 
-912.506 409.651 3456.65 
-914.505 426.885 3445.68 
-912.852 425.63 3444.59 
-912.718 425.989 3443.73 
-913.9 426.402 3445.23 
-911.836 412.164 3455.13 
-912.194 410.734 3455.08 
-911.758 412.489 3454.39 
-911.818 411.602 3450.99 
-911.976 416.532 3449.2 
-911.94 416.326 3449.67 
-912.082 415.752 3448.73 
-911.558 418.331 3450.08 
-911.494 418.829 3449.67 
-912.211 415.313 3447.84 
-912.011 414.856 3449.55 
-911.645 411.169 3448.32 
-911.619 411.347 3447.85 
-911.774 413.152 3449.93 
-911.695 412.234 3449.33 
-911.702 410.922 3448.84 
-909.667 396.786 3455.47 
-912.695 408.491 3455.01 
-912.872 407.117 3453.46 
-912.929 406.53 3453.37 
-913.136 405.201 3454.12 
-913.345 404.632 3453.99 
-914.067 403.041 3452.96 
-912.981 405.886 3454.06 
-914.829 402.072 3451.18 
-913.581 398.236 3451.37 
-914.412 398.448 3449.86 
-907.763 393.743 3442.35 
-907.941 393.896 3443.18 
-907.96 394.015 3440.92 
-907.868 394.054 3439.85 
-908.192 394.533 3438.77 
-908.13 394.496 3438.14 
-908.131 394.525 3437.48 
-908.146 394.539 3436.86 
-908.13 394.5 3436.14 
-902.404 385.337 3439.86 
-902.229 384.733 3439.05 
-902.71 386.029 3440.25 
-902.08 384.118 3437.99 
-904.059 388.042 3438.87 
-903.018 386.39 3439.22 
-902.725 385.934 3439.51 
-906.562 392.034 3435.67 
-907.427 393.262 3434.72 
-905.75 390.744 3437.15 
-907.935 393.918 3444.82 
-908.428 394.737 3447.61 
-908.429 394.478 3446.13 
-908.145 394.161 3445.45 
-908.733 395.866 3453.35 
-909.366 396.397 3454.35 
-908.174 394.11 3443.74 
-920.276 455.551 3428.13 
-925.494 468.445 3433.26 
-926.047 468.598 3433.49 
-921.949 466.167 3432.52 
-922.274 465.452 3432.39 
-925.039 468.738 3433.31 
-923.773 468.655 3433.31 
-926.67 468.214 3434.39 
-920.264 456.138 3428.01 
-919.862 456.599 3427.52 
-922.111 463.168 3431.99 
-919.345 456.693 3427.01 
-919.111 457.177 3426.74 
-918.731 457.05 3426.36 
-918.781 456.402 3426.49 
-917.874 452.925 3427.26 
-918.264 451.96 3428.05 
-918.594 455.026 3426.72 
-917.52 452.17 3427.59 
-914.08 426.974 3444.71 
-918.944 452.451 3428.05 
-918.743 452.003 3428.26 
-907.998 402.372 3409.37 
-908.12 402.488 3410.42 
-907.887 402.033 3408.06 
-907.762 399.003 3403.44 
-907.813 400.765 3406.02 
-907.882 398.572 3403.99 
-907.795 395.846 3401.39 
-907.882 397.424 3402.8 
-907.5 394.233 3397.49 
-907.491 394.94 3398.26 
-907.543 394.868 3399.32 
-908.893 405.288 3415.32 
-908.695 403.054 3413.61 
-908.887 404.002 3414.29 
-906.448 385.673 3377.56 
-906.77 385.39 3379.92 
-907.362 390.575 3388.73 
-907.658 391.423 3390.16 
-907.183 389.206 3387.94 
-906.977 388.879 3383.32 
-906.976 388.048 3381.59 
-906.95 387.833 3380.89 
-907.038 388.924 3385.77 
-907.126 388.969 3387.33 
-906.96 387.102 3380.82 
-906.857 386.314 3379.87 
-906.924 386.66 3380.41 
-907.793 392.951 3393.07 
-907.546 394.514 3395.06 
-907.859 391.491 3391.41 
-907.886 390.83 3391.37 
-907.935 391.553 3392.07 
-907.929 392.084 3392.9 
-908.075 391.292 3393.06 
-910.359 410.247 3433.78 
-910.309 407.966 3432.39 
-910.884 408.736 3434.71 
-909.946 406.547 3430.94 
-909.729 406.47 3429.84 
-910.973 409.083 3435.25 
-909.086 407.711 3427.65 
-907.988 408.254 3421.04 
-908.258 407.897 3423.09 
-909.007 407.582 3427.14 
-908.923 407.479 3426.52 
-908.701 406.261 3415.95 
-908.601 406.701 3416.58 
-908.801 405.776 3415.64 
-907.959 408.306 3419.91 
-910.433 420.445 3443.73 
-911.358 419.123 3447.56 
-911.351 419.185 3448.14 
-911.009 419.718 3445.85 
-911.287 419.129 3446.49 
-911.215 417.65 3441.33 
-910.429 419.653 3441.43 
-911.057 418.367 3441.89 
-911.929 416.143 3442.39 
-912.082 415.998 3442.86 
-911.97 415.116 3442.29 
-912.096 415.424 3442.73 
-911.117 412.237 3438.94 
-911.231 412.43 3439.65 
-910.952 412.085 3438.05 
-911.288 413.202 3440.04 
-910.35 411.602 3434.9 
-910.885 411.18 3436.74 
-910.802 412.127 3437.41 
-912.724 408.17 3453.37 
-911.999 411.243 3452.48 
-912.457 409.208 3452.58 
-911.945 410.959 3451.2 
-911.793 410.466 3449.1 
-912.319 415.84 3446.7 
-912.289 415.51 3447.15 
-911.9 417.157 3448.78 
-911.594 411.406 3446.77 
-911.564 410.575 3444.9 
-911.613 410.246 3446.4 
-911.546 410.927 3444.2 
-911.796 413.071 3449.14 
-911.999 414.249 3449.11 
-911.688 412.352 3448.29 
-912.309 414.87 3447.04 
-911.588 411.554 3445.95 
-911.664 409.887 3446.79 
-910.339 397.021 3454.56 
-912.156 397.752 3452.92 
-912.906 406.896 3452.76 
-913.273 405.046 3453.54 
-913.456 404.547 3453.47 
-913.054 405.925 3453.21 
-915.213 401.126 3450.63 
-915.031 401.464 3451.02 
-915.464 399.417 3449.11 
-915.603 400.386 3449.49 
-915.635 399.985 3449.1 
-914.322 398.267 3449.4 
-914.985 398.687 3448.93 
-908.232 394.229 3441.81 
-908.449 394.386 3442.59 
-908.528 394.581 3440.98 
-908.383 394.566 3440.08 
-908.472 394.773 3439.29 
-908.481 394.877 3438.49 
-908.609 395.101 3437.97 
-908.565 395.098 3437.42 
-908.114 394.382 3435.15 
-902.466 385.331 3439.15 
-902.395 384.872 3438.09 
-901.569 382.434 3436.78 
-902.172 384.04 3437.07 
-903.878 387.444 3437.85 
-904.89 389.166 3437.69 
-903.008 386.111 3438.27 
-902.669 385.529 3438.4 
-907.489 392.993 3433.33 
-906.57 391.62 3434.02 
-905.721 390.274 3435.76 
-908.444 394.353 3444.3 
-908.738 395.055 3448.01 
-908.828 394.845 3446.44 
-908.589 394.488 3445.03 
-909.178 394.969 3445.33 
-910.063 396.78 3454.13 
-909.133 396.014 3452.49 
-908.328 395.088 3450.09 
-909.856 396.56 3453.48 
-908.899 394.724 3443.39 
-926.344 467.157 3433.87 
-925.427 465.984 3433.44 
-920.07 454.539 3428.11 
-919.968 453.151 3428.5 
-919.562 452.811 3428.26 
-924.242 468.106 3433.01 
-923.584 467.615 3432.93 
-923.127 466.757 3432.72 
-924.324 467.622 3432.86 
-922.244 464.516 3432.23 
-924.392 468.742 3433.33 
-926.576 468.407 3433.38 
-926.834 468.317 3433.91 
-926.57 468.758 3433.76 
-918.628 452.755 3427.7 
-918.012 452.538 3427.57 
-918.749 453.936 3427.17 
-919.337 451.984 3428.63 
-908.09 401.762 3409.56 
-907.971 399.574 3405.77 
-908.038 401.406 3408.55 
-908.063 397.778 3404.45 
-908.14 395.574 3403.4 
-907.702 394.72 3400.76 
-907.604 394.496 3399.9 
-908.141 396.767 3404.05 
-907.572 393.712 3398.04 
-907.647 393.54 3395.68 
-907.558 394.077 3398.79 
-908.955 405.242 3415.85 
-909.191 404.449 3415.98 
-909.208 404.025 3415.57 
-909.619 402.912 3416.57 
-908.446 402.145 3412.55 
-908.632 402.141 3413.37 
-908.849 402.897 3414.27 
-908.296 401.768 3411.36 
-906.509 385.093 3378.71 
-905.917 383.792 3377.07 
-906.579 384.747 3379.52 
-906.791 384.817 3380.53 
-907.451 389.906 3389.44 
-907.292 388.658 3388.91 
-907.846 390.358 3391.11 
-907.037 388.309 3384.12 
-907.035 387.54 3382.39 
-907.08 386.899 3382.33 
-907.004 387.166 3381.58 
-907.095 388.326 3386.29 
-907.21 388.323 3388.14 
-907.17 387.884 3387.21 
-907.017 386.202 3381.32 
-907.08 386.361 3381.95 
-906.926 385.811 3380.73 
-906.945 385.239 3381.03 
-907.907 392.304 3393.99 
-908.198 390.369 3392.97 
-908.126 390.303 3392.44 
-908.149 389.707 3392.32 
-908.312 389.27 3393.05 
-908.326 390.074 3393.81 
-908.142 391.214 3394.11 
-908.389 390.008 3394.47 
-910.989 410.001 3435.96 
-911.17 408.688 3435.9 
-911.288 409.382 3436.91 
-910.515 407.816 3433.1 
-910.058 407.009 3431.48 
-909.72 406.084 3429.51 
-909.611 406.652 3429.35 
-909.484 406.609 3428.63 
-908.809 407.489 3425.86 
-908.83 407.073 3425.06 
-908.173 407.814 3421.8 
-909.481 406.366 3428.03 
-909.402 406.34 3427.3 
-908.787 406.071 3416.51 
-908.914 405.538 3416.3 
-908.652 406.504 3417.18 
-908.236 407.624 3417.99 
-908.1 407.857 3420.61 
-910.808 419.669 3444.23 
-911.535 418.652 3448.03 
-911.631 418.046 3445.2 
-911.492 418.238 3444.59 
-911.859 416.673 3442.64 
-911.038 418.692 3442.59 
-911.8 417.135 3443.02 
-912.059 416.479 3443.14 
-912.219 416.067 3443.44 
-911.514 414.428 3440.73 
-911.186 411.668 3438.9 
-911.342 412.146 3440.29 
-911.1 410.824 3437.45 
-911.245 410.635 3438.08 
-912.824 407.259 3452.07 
-912.105 410.188 3451.41 
-912.612 407.989 3451.19 
-911.849 409.892 3448.82 
-911.803 408.709 3445.55 
-911.516 418.796 3449.07 
-911.915 417.266 3448.28 
-912.391 415.397 3446.13 
-911.532 411.287 3443.43 
-911.6 410.252 3443.53 
-911.539 410.934 3442.29 
-911.669 409.575 3444.07 
-912.021 414.029 3448.44 
-911.79 412.849 3447.98 
-911.691 412.375 3447.71 
-911.602 411.766 3445.17 
-912.295 414.664 3446.32 
-911.782 408.716 3444.45 
-912.093 397.568 3452.35 
-912.954 406.598 3452.21 
-913.029 406.231 3452.6 
-913.854 403.956 3452.4 
-913.437 404.852 3452.88 
-914.268 403.098 3452.13 
-913.275 405.343 3452.86 
-915.373 401.092 3449.79 
-914.778 402.383 3450.77 
-914.973 401.96 3450.45 
-915.508 399.318 3448.61 
-913.659 397.981 3450.1 
-913.734 397.906 3449.38 
-915.161 398.831 3448.32 
-908.936 394.875 3441.67 
-909.106 394.925 3442.4 
-909.27 395.238 3441.12 
-908.907 395.015 3440.46 
-908.928 395.144 3439.81 
-909.134 395.452 3439.38 
-908.859 395.257 3438.9 
-908.871 395.367 3438.36 
-908.441 394.98 3436.38 
-908.248 394.336 3433.9 
-908.554 395.063 3434.85 
-908.462 394.964 3435.51 
-908.395 393.974 3431.84 
-902.5 384.716 3436.98 
-901.963 383.156 3435.99 
-903.714 386.774 3436.63 
-904.77 388.314 3435.67 
-902.855 385.547 3437.36 
-907.586 392.398 3430.8 
-906.63 390.956 3431.51 
-905.949 389.949 3433.1 
-905.098 388.329 3434.02 
-909.29 395.044 3444.28 
-909.215 395.292 3447.49 
-909.589 395.361 3445.95 
-909.978 395.551 3444.76 
-911.189 397.112 3452.62 
-909.723 396.264 3451.86 
-909.061 395.482 3449.38 
-911.256 397.033 3452.05 
-909.773 395.429 3442.99 
-909.665 395.345 3443.64 
-926.46 467.637 3433.97 
-924.052 464.5 3433.43 
-919.806 454.821 3427.72 
-919.686 453.449 3428.07 
-920 455.702 3427.74 
-925.935 468.17 3433.14 
-924.878 468.246 3433.06 
-922.823 465.591 3432.43 
-923.997 467.213 3432.8 
-922.591 465.015 3432.33 
-919.725 456.125 3427.43 
-919.114 455.628 3426.95 
-918.885 454.715 3427.01 
-908.468 398.674 3407.14 
-908.487 398.071 3406.61 
-908.185 400.987 3409.02 
-908.394 399.49 3407.7 
-908.436 401.1 3411.52 
-908.506 397.468 3406.21 
-908.445 395.057 3404.93 
-908.432 394.071 3404.49 
-908.069 394.508 3402.69 
-908.654 396.486 3406.28 
-907.703 394.19 3400.6 
-907.706 393.126 3396.17 
-907.656 393.602 3399.47 
-907.741 393.679 3400.44 
-909.644 403.383 3417.01 
-909.69 401.933 3416.45 
-909.085 402.696 3414.97 
-909.974 400.945 3416.94 
-910.109 401.979 3417.85 
-910.173 402.516 3418.54 
-908.437 401.439 3412.11 
-908.749 401.817 3413.78 
-905.395 382.465 3375.78 
-906.063 383.704 3378.06 
-906.844 384.544 3381.03 
-906.64 384.488 3380.1 
-906.09 383.15 3378.82 
-907.576 389.407 3390.15 
-907.412 388.312 3389.75 
-907.347 387.952 3389.39 
-907.782 389.03 3391.04 
-907.303 387.805 3388.91 
-907.132 387.111 3383.28 
-907.097 387.765 3384.79 
-907.182 386.545 3383.15 
-907.167 386.173 3382.65 
-907.153 387.395 3385.49 
-907.235 387.48 3387.82 
-907.092 385.768 3381.84 
-907.168 385.709 3382.45 
-906.981 384.738 3381.54 
-908.19 391.128 3395.02 
-908.406 389.257 3393.72 
-908.76 388.16 3395.13 
-907.88 388.562 3391.52 
-907.979 388.164 3391.93 
-908.394 388.499 3393.5 
-908.79 388.391 3395.64 
-908.468 389.858 3395.3 
-908.931 388.251 3396.78 
-911.159 408.191 3435.65 
-911.284 408.474 3436.39 
-911.379 408.769 3437 
-911.443 409.16 3437.64 
-910.074 406.28 3431.62 
-910.24 406.724 3432.23 
-909.858 406.188 3430.41 
-909.96 405.896 3431.15 
-909.441 406.043 3426.79 
-908.335 407.48 3422.43 
-909.468 405.812 3426.22 
-908.195 407.644 3421.26 
-909.645 405.839 3428.09 
-908.913 405.744 3416.93 
-909.127 404.946 3416.52 
-908.319 407.303 3418.65 
-908.742 406.219 3417.64 
-908.331 407.239 3419.18 
-911.328 418.385 3443.71 
-911.84 417.68 3446.08 
-912.007 417.234 3446.89 
-912.036 416.977 3444.41 
-911.69 417.584 3443.62 
-911.901 417.214 3443.98 
-912.167 416.533 3443.78 
-912.235 415.211 3443.47 
-911.688 414.099 3441.44 
-911.378 410.468 3438.78 
-911.291 411.863 3439.73 
-911.407 412.154 3440.85 
-911.402 411.625 3440.46 
-911.387 412.949 3440.57 
-912.848 407.058 3451.46 
-911.965 409.493 3449.12 
-912.204 408.921 3449.87 
-912.405 407.963 3449.57 
-912.711 407.314 3450.58 
-911.89 408.24 3445.82 
-911.989 407.365 3444.39 
-912.345 415.957 3445.11 
-912.35 415.92 3445.82 
-912.019 417.096 3447.4 
-912.377 415.333 3445.49 
-912.357 415.224 3445 
-911.741 409.171 3442.21 
-911.553 410.735 3441.8 
-911.48 411.413 3441.51 
-912.032 413.856 3447.84 
-912.004 413.618 3447.1 
-911.718 412.506 3446.56 
-911.63 412.054 3444.31 
-912.294 414.565 3445.76 
-911.506 411.787 3442.15 
-911.933 407.6 3443.59 
-913.307 397.95 3450.93 
-912.916 397.635 3450.61 
-912.988 406.448 3451.71 
-913.233 405.588 3452.22 
-913.439 405.048 3452.34 
-915.113 401.719 3450.02 
-915.63 400.421 3448.84 
-914.202 398.158 3448.91 
-914.555 398.372 3448.51 
-909.675 395.429 3442.03 
-909.423 395.533 3440.23 
-909.609 395.897 3439.66 
-908.768 395.435 3436.73 
-908.931 395.516 3437.85 
-908.781 395.51 3436.21 
-908.621 394.854 3433.48 
-908.602 393.968 3430.59 
-908.021 392.543 3428.59 
-902.411 383.962 3435.5 
-902.767 384.97 3436.22 
-901.732 381.652 3433.86 
-903.641 386.089 3435.2 
-904.568 387.136 3433.54 
-907.184 391.188 3428.47 
-906.757 390.517 3428.82 
-905.686 388.889 3431.37 
-904.923 387.467 3432.47 
-910.401 395.856 3444.31 
-909.602 395.604 3447.86 
-909.941 395.659 3446.59 
-910.393 395.88 3445.65 
-910.711 396.047 3445.01 
-911.271 396.92 3451.21 
-909.537 395.807 3449.52 
-911.047 396.709 3450.4 
-912.827 397.505 3450.03 
-923.227 463.835 3432.68 
-923.836 464.36 3432.83 
-919.637 454.132 3427.77 
-919.308 453.759 3427.62 
-919.327 454.719 3427.35 
-924.875 467.735 3432.82 
-923.628 466.373 3432.63 
-924.881 467.157 3432.7 
-923.3 465.329 3432.44 
-922.757 464.44 3432.29 
-922.596 463.577 3432.2 
-919.571 455.332 3427.42 
-918.955 453.19 3427.62 
-909.044 398.245 3410.03 
-908.972 398.688 3410.37 
-908.584 399.786 3409.58 
-908.748 399.938 3411.5 
-908.867 399.775 3412.2 
-908.598 401.08 3412.6 
-908.87 400.038 3412.69 
-908.912 397.847 3408.25 
-908.537 395.02 3405.46 
-908.818 396.18 3406.98 
-908.42 393.505 3404.03 
-908.555 393.555 3405.04 
-909.008 397.202 3408.26 
-907.666 393.245 3398.58 
-907.769 393.174 3400.01 
-908.112 393.668 3402.5 
-908.177 392.903 3402.05 
-909.687 403.925 3418 
-909.282 401.929 3415.36 
-909.285 401.018 3415.03 
-909.705 399.38 3415.11 
-910.105 401.01 3417.44 
-910.252 401.42 3418.19 
-910.257 401.882 3418.45 
-910.295 402.509 3419.04 
-908.567 401.505 3412.96 
-905.453 382.078 3376.59 
-906.707 384.01 3380.79 
-907.019 384.239 3381.96 
-905.47 381.608 3377.14 
-907.49 387.865 3390.17 
-907.425 387.573 3389.71 
-907.373 387.356 3389.25 
-907.239 386.533 3383.95 
-907.237 385.992 3383.18 
-907.211 387.059 3385.9 
-907.323 386.058 3384.51 
-907.273 386.809 3386.53 
-907.329 387.035 3388.38 
-907.083 385.267 3381.81 
-907.13 384.855 3382.32 
-907.946 392.087 3396.55 
-908.578 389.663 3396.47 
-908.759 387.575 3394.75 
-909.141 387.039 3396.53 
-909.087 386.625 3395.77 
-908.041 387.694 3392.15 
-908.203 387.171 3392.57 
-908.669 386.467 3393.78 
-909.289 387.156 3398.17 
-908.96 388.447 3397.55 
-909.462 387.794 3401.14 
-909.576 387.386 3401.45 
-911.471 408.538 3437.45 
-911.544 408.8 3438.01 
-911.53 409.329 3438.44 
-910.719 407.482 3433.86 
-909.848 405.777 3430.11 
-909.895 405.142 3429.41 
-909.75 405.751 3429.09 
-909.868 405.221 3428.7 
-909.594 405.813 3427.49 
-908.903 406.637 3424.22 
-909.42 405.728 3425.32 
-908.362 407.301 3421.78 
-908.902 406.461 3423.47 
-909.713 405.209 3426.45 
-909.674 405.137 3425.51 
-909.035 405.452 3417.47 
-909.589 404.343 3418.4 
-908.917 405.809 3418.14 
-912.233 416.526 3445.2 
-912.315 415.97 3444.46 
-912.288 415.716 3443.83 
-912.032 414.746 3442.66 
-911.48 410.295 3439.48 
-911.574 410.098 3440.23 
-911.498 412.978 3441.13 
-911.573 412.923 3441.64 
-912.912 406.659 3450.96 
-911.98 407.991 3446.35 
-912.114 407.708 3446.96 
-912.579 407.182 3449.23 
-912.31 407.118 3447.09 
-912.868 406.593 3450.28 
-912.096 407.011 3445.1 
-912.089 406.79 3444.59 
-912.297 414.595 3445.19 
-912.337 415.304 3444.43 
-911.624 409.977 3440.98 
-911.843 408.293 3441.99 
-911.952 413.387 3446.41 
-911.946 413.313 3445.44 
-911.689 412.329 3444.9 
-911.633 412.233 3443.34 
-911.621 412.548 3442.5 
-911.469 412.211 3441.5 
-913.229 397.67 3449.7 
-913.127 405.923 3451.74 
-913.052 406.218 3451.26 
-913.411 405.172 3451.81 
-914.345 403.199 3451.3 
-915.121 398.791 3447.73 
-913.984 398.003 3448.45 
-913.7 397.843 3448.88 
-914.77 398.5 3447.97 
-910.644 396.048 3443.53 
-909.932 395.71 3441.63 
-910.679 396.165 3442.51 
-909.885 395.85 3440.77 
-909.172 395.651 3438.72 
-909.265 395.927 3437.89 
-909.164 396.081 3436.67 
-908.78 394.502 3431.29 
-908.683 393.597 3428.32 
-908.095 392.459 3427.45 
-908.709 395.213 3434.17 
-908.904 394.939 3431.93 
-902.689 384.086 3434.5 
-902.057 381.944 3432.84 
-903.645 385.423 3433.48 
-904.489 386.482 3431.97 
-906.666 390.188 3428.13 
-907.396 391.269 3426.93 
-905.992 389.091 3429.47 
-905.105 387.534 3431.38 
-911.95 396.786 3445.88 
-910.956 396.4 3448.41 
-911.331 396.541 3447.89 
-911.786 396.7 3446.51 
-912.422 397.238 3449.41 
-911.207 396.649 3449.33 
-913.169 397.558 3449.09 
-925.432 468.034 3432.97 
-924.088 466.153 3432.62 
-909.228 398.446 3412.21 
-908.952 400.18 3413.31 
-909.221 397.3 3409.89 
-908.513 394.313 3405.17 
-908.516 392.794 3403.85 
-908.587 392.848 3404.45 
-908.665 393.078 3405.54 
-909.383 397.514 3412.15 
-907.851 392.491 3398.89 
-908.581 392.279 3403.51 
-910.244 403.031 3419.43 
-909.213 400.429 3414.52 
-909.061 400.297 3413.89 
-909.425 398.646 3413.65 
-910.166 400 3417.14 
-909.922 398.683 3415.35 
-910.283 400.562 3417.99 
-910.374 401.473 3418.8 
-905.03 381.11 3375 
-906.783 383.745 3381.28 
-906.156 382.694 3379.47 
-905.56 381.161 3377.77 
-905.238 380.677 3376.3 
-907.512 386.903 3389.78 
-907.284 386.033 3383.74 
-907.464 386.743 3389.3 
-907.382 385.82 3385.11 
-907.38 385.487 3384.42 
-907.375 386.436 3387.07 
-907.23 385.199 3382.92 
-908.097 391.455 3397.14 
-908.283 390.819 3397.9 
-908.59 389.993 3398.72 
-909.205 388.489 3400.2 
-909.393 386.738 3398.49 
-909.2 385.963 3395.87 
-908.87 385.581 3394.07 
-907.636 387.285 3390.72 
-908.24 386.429 3392.35 
-907.989 386.353 3391.44 
-909.692 387.011 3401.9 
-909.758 387.557 3403.35 
-909.594 388.126 3403 
-909.885 387.045 3403.65 
-911.631 408.528 3438.51 
-911.632 409.188 3439.22 
-910.045 405.59 3431.83 
-910.356 406.547 3432.86 
-911.398 407.998 3436.85 
-911.571 407.847 3437.92 
-909.906 405.217 3430.15 
-909.945 404.582 3427.99 
-909.794 405.068 3427.12 
-909.49 405.448 3424.36 
-909.679 405.006 3424.57 
-908.527 406.782 3419.75 
-908.906 406.324 3422.74 
-909.694 404.723 3422.15 
-909.877 404.476 3425.46 
-909.809 404.661 3425 
-909.58 404.573 3419.26 
-909.379 405.04 3419.57 
-911.911 413.704 3442.9 
-911.792 413.816 3442.11 
-911.74 408.754 3439.88 
-912.298 406.657 3446.23 
-912.846 406.464 3449.61 
-912.661 406.639 3448.42 
-912.495 406.667 3447.31 
-912.456 406.423 3446.72 
-913.023 406.077 3450.13 
-912.171 406.955 3445.76 
-912.191 406.512 3445.05 
-912.019 407.04 3443.96 
-912.258 414.476 3444.65 
-912.284 414.82 3444.17 
-911.965 413.381 3444.77 
-911.959 413.448 3444.14 
-911.959 413.584 3443.63 
-913.417 405.206 3451.27 
-914.252 403.558 3450.7 
-913.049 406.125 3450.72 
-915.426 401.037 3449.25 
-915.249 401.504 3449.53 
-915.68 399.756 3447.9 
-915.688 399.831 3448.45 
-913.404 397.644 3448.47 
-914.225 398.133 3447.49 
-912.123 396.884 3445.36 
-910.449 396.124 3441.72 
-912.429 397.151 3444.79 
-910.368 396.194 3441.23 
-909.966 396.095 3440.28 
-909.193 395.972 3437.21 
-908.677 393.366 3426.74 
-908.119 392.374 3426.43 
-909.017 395.325 3432.42 
-908.972 394.383 3429.25 
-908.86 395.616 3435.32 
-909.09 396.13 3436.14 
-902.53 382.672 3432.22 
-903.655 384.722 3431.78 
-904.765 386.594 3430.8 
-904.384 385.841 3430.96 
-906.918 390.358 3426.75 
-907.475 391.263 3426.02 
-906.324 389.346 3427.93 
-905.308 387.664 3430.32 
-912.759 397.313 3448.6 
-913.092 397.456 3448.1 
-913.368 397.633 3446.98 
-926.475 468.044 3432.92 
-909.182 399.023 3412.99 
-909.365 398.362 3412.95 
-908.618 394.185 3406.12 
-908.646 394.769 3406.36 
-908.609 393.679 3405.55 
-908.634 393.239 3406.06 
-908.642 392.379 3404.19 
-908.696 392.478 3404.79 
-909.53 397.791 3413.1 
-907.987 392.216 3399.63 
-908.281 392.221 3401.55 
-908.706 391.565 3403.1 
-908.7 391.938 3403.88 
-910.345 402.842 3420.11 
-910.405 400.679 3418.61 
-910.264 399.489 3417.36 
-910.486 401.347 3419.34 
-910.421 402.097 3419.58 
-910.437 402.369 3420.26 
-910.481 402.335 3420.85 
-904.782 380.223 3374.13 
-906.806 383.239 3381.59 
-906.3 382.649 3380.05 
-905.753 381.24 3378.58 
-907.036 383.177 3382.29 
-905.488 379.603 3377.43 
-905.209 379.22 3376.23 
-907.109 384.08 3382.46 
-907.24 383.513 3382.93 
-907.25 384.388 3383.02 
-904.801 378.807 3374.53 
-907.922 385.851 3390.66 
-907.327 385.07 3383.46 
-907.509 385.428 3385.51 
-907.513 385.116 3385.02 
-907.496 385.993 3387.46 
-907.864 385.46 3389.66 
-907.428 384.555 3383.91 
-907.453 384.046 3383.89 
-908.754 390.137 3400.64 
-909.092 389.843 3402.52 
-908.452 385.173 3392.2 
-909.241 386.574 3396.7 
-908.653 384.43 3392.42 
-908.481 384.571 3391.43 
-909.777 387.756 3404.23 
-909.915 387.151 3404.31 
-909.268 389.449 3403.22 
-911.843 407.563 3440.62 
-911.709 407.998 3438.96 
-911.745 408.434 3439.47 
-910.175 406.057 3432.27 
-910.871 407.242 3434.54 
-911.375 407.363 3436.94 
-909.972 404.656 3429.07 
-909.96 405.089 3430.98 
-909.978 404.714 3431.6 
-910.054 403.893 3427.44 
-910.045 403.854 3426.51 
-909.937 404.319 3426.05 
-909.819 404.478 3422.64 
-909.991 404.026 3422.42 
-908.587 406.685 3420.37 
-909.229 405.549 3421.18 
-910.089 403.615 3420.54 
-910.229 403.386 3423.29 
-910.001 404.034 3423.02 
-910.303 403.069 3420.63 
-912.449 406.124 3446.26 
-912.862 406.171 3448.76 
-913.015 405.965 3449.51 
-912.733 406.139 3447.77 
-913.265 405.473 3450.08 
-912.298 406.222 3445.49 
-912.052 406.635 3443.62 
-911.877 407.834 3441.48 
-911.985 406.999 3443.04 
-913.42 405.223 3450.69 
-914.941 402.268 3449.83 
-915.667 400.329 3448.33 
-915.491 399.193 3447.96 
-914.811 398.523 3447.41 
-914.675 398.49 3446.85 
-913.433 397.649 3447.66 
-913.395 397.649 3446.19 
-911.061 396.499 3442.55 
-910.826 396.537 3441.62 
-909.491 395.94 3439.02 
-908.865 393.784 3427.09 
-908.632 393.24 3425.74 
-908.177 392.445 3425.49 
-907.651 391.531 3425.47 
-908.954 395.715 3434.61 
-909.022 394.28 3428.05 
-902.464 381.622 3430.31 
-901.97 380.136 3428.92 
-904.119 384.969 3430.49 
-903.451 383.383 3430.06 
-904.991 386.621 3429.77 
-904.654 385.889 3429.98 
-904.463 385.366 3429.89 
-907.467 391.159 3425.12 
-907.135 390.561 3425.67 
-906.888 390.111 3426.2 
-906.482 389.315 3427.01 
-905.546 387.894 3429.25 
-913.82 397.922 3446.9 
-924.136 464.798 3432.68 
-925.382 466.161 3432.97 
-926.186 466.959 3433.43 
-925.348 467.546 3432.74 
-923.133 464.824 3432.38 
-908.585 393.558 3406.5 
-908.854 395.672 3407.49 
-909.258 396.856 3410.39 
-908.698 392.53 3405.66 
-908.788 391.788 3404.84 
-908.425 391.622 3401.4 
-908.877 391.062 3403.62 
-908.825 391.498 3404.33 
-910.221 399.091 3416.76 
-910.331 398.819 3417.26 
-910.463 402.409 3421.61 
-906.236 382.051 3380.01 
-905.738 379.893 3378.41 
-907.206 383.023 3382.77 
-906.648 381.948 3381.21 
-906.381 381.893 3380.48 
-905.58 378.427 3377.76 
-905.326 377.933 3376.77 
-905.011 377.563 3375.5 
-904.641 376.832 3373.93 
-908.377 384.463 3390.82 
-908.231 384.645 3390.35 
-907.874 384.382 3386.46 
-907.869 384.605 3386.97 
-907.936 384.005 3386.12 
-907.657 384.279 3384.98 
-907.859 385.097 3388.49 
-908.236 384.086 3388.81 
-909.445 386.115 3398.35 
-909.791 386.406 3402.07 
-909.96 386.51 3403.66 
-909.288 385.479 3396.23 
-908.593 384.098 3391.29 
-910.014 386.658 3404.5 
-909.393 389.139 3403.9 
-909.865 387.431 3405.18 
-910.034 386.696 3405.03 
-910.118 386.256 3405.35 
-910.025 386.443 3406.66 
-910.153 405.68 3432.71 
-910.327 406.06 3433.19 
-910.937 406.98 3435.11 
-910.513 406.481 3433.66 
-911.473 407.227 3437.69 
-911.956 406.766 3442.33 
-910.14 403.151 3426.81 
-909.992 404.662 3430.53 
-910.023 404.404 3429.91 
-910.294 402.75 3424.14 
-910.271 403.065 3423.74 
-912.942 405.741 3448.29 
-913.085 405.585 3448.78 
-913.291 405.24 3449.4 
-912.609 406.17 3447.14 
-914.029 403.974 3450.18 
-912.108 406.41 3444.26 
-914.726 402.658 3449.45 
-915.425 400.983 3448.48 
-915.372 399.166 3447.45 
-914.279 398.224 3446.58 
-913.613 397.847 3445.73 
-911.362 396.856 3442.34 
-909.453 396.091 3438.34 
-909.815 396.334 3439.39 
-908.943 393.89 3425.74 
-908.206 392.522 3424.5 
-908.714 393.386 3424.79 
-907.663 391.565 3424.79 
-909.097 396.142 3435.35 
-909.225 395.856 3432.73 
-909.145 394.393 3424.88 
-909.242 396.672 3435.43 
-902.664 381.512 3429.18 
-902.196 380.147 3427.83 
-901.526 378.537 3426.23 
-904.182 384.064 3428.83 
-903.623 382.711 3428.38 
-905.385 386.912 3428.68 
-905.028 386.039 3428.95 
-904.844 385.524 3428.93 
-904.563 384.737 3428.68 
-907.482 391.213 3424.27 
-907.112 390.325 3425.15 
-907.395 390.909 3424.68 
-906.909 389.908 3425.69 
-907.478 391.175 3423.75 
-905.944 388.337 3427.98 
-906.679 389.333 3426.02 
-925.839 466.403 3433.29 
-923.804 465.268 3432.51 
-926.535 467.571 3433.46 
-925.339 466.927 3432.75 
-924.779 465.553 3432.9 
-908.544 393.483 3407 
-908.715 395.142 3407.12 
-909.089 396.123 3409.36 
-908.539 392.868 3407.25 
-908.61 392.714 3406.67 
-909.947 397.875 3414.97 
-908.644 392.123 3406.35 
-908.823 391.404 3405.37 
-908.721 391.861 3405.81 
-908.939 390.988 3404.73 
-910.289 398.175 3416.49 
-909.02 390.595 3404.2 
-910.483 400.729 3419.17 
-910.332 399.784 3417.97 
-910.512 401.431 3419.91 
-910.516 401.859 3420.59 
-905.998 379.893 3379.24 
-905.857 378.728 3378.69 
-907.457 382.189 3383.3 
-907.276 381.961 3382.78 
-907.106 381.401 3382.24 
-906.555 380.212 3380.72 
-905.533 377.813 3377.73 
-905.228 377.425 3376.63 
-907.655 382.569 3383.87 
-907.993 381.469 3384.42 
-904.638 376.229 3374.09 
-908.346 382.899 3386.67 
-907.957 383.424 3385.46 
-907.878 383.123 3384.86 
-907.789 382.82 3384.37 
-908.207 382.537 3385.67 
-908.158 381.994 3385.14 
-910.047 386.167 3404.14 
-908.945 384.903 3393.98 
-908.681 383.891 3391.74 
-909.459 388.927 3404.55 
-909.871 386.882 3407.36 
-909.421 388.996 3405.23 
-910.082 385.929 3407.6 
-909.979 386.156 3409.06 
-909.979 405.179 3432.38 
-909.915 404.596 3432.59 
-911.137 406.979 3436.06 
-911.79 407.244 3440.21 
-911.896 406.265 3442.25 
-910.053 403.619 3428.91 
-910.327 402.089 3423.78 
-910.015 404.261 3431.21 
-910.009 403.203 3429.69 
-909.906 403.766 3431.58 
-909.852 403.844 3432.13 
-910.504 401.94 3421.36 
-912.434 405.619 3445.5 
-913.162 405.115 3448.31 
-913.996 403.881 3449.15 
-912.92 405.529 3447.82 
-912.69 405.65 3446.79 
-912.8 405.139 3446.52 
-912.621 405.285 3445.95 
-912.279 405.861 3444.86 
-915.553 399.695 3447.4 
-915.594 400.312 3447.76 
-914.085 398.174 3445.86 
-912.547 397.295 3444.31 
-910.233 396.543 3440.19 
-910.488 396.517 3440.83 
-912.423 397.32 3443.78 
-909.363 396.414 3437.38 
-909.35 396.72 3436.73 
-909.068 394.176 3423.63 
-909.52 395.197 3422.13 
-908.453 393.141 3423.01 
-908.941 394.013 3422.95 
-907.654 391.611 3423.97 
-909.207 395.04 3429.34 
-909.191 394.61 3425.42 
-909.705 395.679 3421.52 
-902.942 381.401 3428.05 
-902.513 380.277 3426.91 
-901.691 378.556 3425.39 
-901.873 378.653 3424.82 
-904.737 384.122 3427.32 
-904.304 383.294 3427.34 
-903.633 382.017 3427.21 
-905.469 386.319 3427.83 
-905.682 387.414 3427.95 
-905.244 385.691 3427.96 
-905.146 385.228 3427.72 
-905.152 384.311 3426.56 
-907.593 391.59 3423.27 
-907.316 390.588 3423.96 
-907.039 389.838 3424.88 
-907.575 391.654 3422.7 
-907.461 391.035 3423.2 
-906.364 388.631 3426.65 
-926.034 467.911 3432.71 
-908.455 393.449 3407.65 
-908.526 393.901 3407.44 
-908.58 394.221 3407.05 
-909.282 396.55 3411.35 
-908.416 392.846 3407.85 
-908.449 392.333 3407.63 
-908.595 391.838 3406.83 
-908.706 391.426 3406.31 
-908.806 390.901 3406.09 
-908.977 390.561 3405.32 
-910.514 400.784 3420.12 
-906.422 379.259 3380.17 
-906.515 378.631 3380.31 
-907.682 381.046 3383.51 
-907.31 380.54 3382.51 
-905.889 378.177 3378.74 
-905.173 376.869 3376.56 
-904.912 376.949 3375.27 
-904.614 375.706 3374.26 
-908.334 383.284 3387.22 
-908.209 383.005 3386.15 
-908.777 383.926 3392.7 
-909.42 385.531 3397.67 
-909.857 385.672 3402.07 
-908.706 383.318 3391.81 
-908.604 383.583 3391.1 
-908.452 383.621 3389.35 
-909.6 387.967 3406.73 
-909.731 386.8 3409.38 
-909.099 389.853 3406.11 
-910.111 385.69 3409.83 
-909.944 386.22 3409.81 
-912.015 406.434 3442.93 
-910.077 405.325 3433.25 
-909.828 404.128 3432.89 
-911.701 406.897 3439.85 
-910.944 406.642 3435.6 
-910.156 402.651 3426.16 
-910.325 401.699 3423.28 
-910.455 401.347 3421.45 
-909.946 402.892 3430.26 
