-919.942 530.688 3458.05 
-918.595 526.31 3464.22 
-918.348 525.231 3466.18 
-920.113 535.069 3452.72 
-920.968 534.074 3452.26 
-921.139 533.393 3452.82 
-920.766 534.786 3451.56 
-921.184 532.949 3453.33 
-921.218 532.588 3453.73 
-920.115 535.853 3451.2 
-912.341 543.728 3453.64 
-911.43 545.432 3452.38 
-911.73 544.907 3452.62 
-910.483 547.021 3452.39 
-911.025 546.088 3452.37 
-917.299 518.532 3478.11 
-918.175 522.903 3469.46 
-918.157 521.181 3471.32 
-918.362 519.864 3472.15 
-918.328 519.272 3473.2 
-918.001 519.163 3474.69 
-917.937 518.047 3476.98 
-910.65 549.697 3446.25 
-909.845 549.741 3449.37 
-911.535 550.665 3440.35 
-911.324 549.762 3443.14 
-912.165 554.336 3432.71 
-913.205 553.545 3430.46 
-913.705 553.259 3428.99 
-912.731 552.965 3433.09 
-912.723 551.198 3435.5 
-912.341 549.717 3438.85 
-910.306 547.932 3450.98 
-910.329 548.759 3449.22 
-955.145 439.236 3515.65 
-956.958 438.937 3515.83 
-958.768 438.584 3516.09 
-955.72 439.211 3513.67 
-954.035 439.452 3513.85 
-951.296 439.45 3511.44 
-953.512 439.384 3511.77 
-955.107 439.276 3511.59 
-908.897 444.115 3524.63 
-930.671 439.979 3504.79 
-929.11 439.896 3502.93 
-941.796 439.445 3508.32 
-937.461 439.474 3505.92 
-948.807 439.449 3510.71 
-946.96 439.125 3507.93 
-943.893 439.052 3506.31 
-933.663 439.579 3503.52 
-926.035 440.098 3503.73 
-924.825 440.6 3506.94 
-922.512 441.16 3510.12 
-927.61 439.744 3501.38 
-919.33 441.678 3513.11 
-913.066 443.079 3519 
-915.69 442.194 3515.12 
-918.175 441.577 3512.7 
-908.926 443.926 3523.49 
-911.018 443.411 3520.72 
-923.221 478.136 3507.87 
-925.1 477.229 3506.28 
-926.061 476.647 3504.21 
-927.369 475.648 3501.32 
-929.13 474.505 3498.83 
-921.023 479.084 3509.66 
-920.549 479.302 3509.7 
-918.528 480.003 3511.98 
-925.514 473.78 3487.46 
-924.635 472.98 3484.01 
-924.174 472.253 3481.55 
-926.577 475.23 3492.45 
-923.992 471.435 3479.49 
-924.536 470.802 3478.54 
-925.545 470.108 3477.9 
-926.735 475.352 3492.98 
-934.798 468.325 3480.98 
-939.178 467.617 3483.18 
-931.759 469.006 3479.91 
-942.36 467.269 3485.15 
-945.219 466.888 3486.66 
-927.748 469.682 3478.56 
-954.46 465.641 3490.85 
-955.692 465.255 3491.15 
-956.79 465.224 3491.95 
-965.469 464.537 3498.63 
-963.966 464.418 3497.33 
-961.874 464.761 3495.98 
-966.931 464.268 3499.36 
-969.064 464.21 3500.75 
-959.167 465.084 3493.92 
-957.367 464.985 3492.11 
-897.45 589.378 3409.73 
-895.459 585.802 3404.81 
-896.055 584.042 3411.62 
-896.079 584.037 3410.75 
-895.072 586.214 3404.37 
-895.122 586.175 3404.92 
-902.221 576.467 3402.85 
-901.472 577.435 3402.55 
-902.145 576.234 3404.82 
-903.482 574.472 3405.96 
-903.825 573.615 3407.8 
-900.661 578.975 3401.51 
-898.676 581.951 3401.22 
-900.077 580.414 3399.8 
-907.944 567.059 3409.39 
-908.128 566.37 3410.08 
-908.411 565.527 3410.66 
-909.143 564.21 3410.7 
-909.684 563.157 3410.78 
-909.991 562.41 3411.03 
-909.919 562.26 3412.06 
-909.997 561.891 3412.8 
-910.365 561.059 3413.73 
-910.278 561.246 3413.04 
-910.461 560.977 3414.64 
-913.364 554.464 3425.17 
-913.242 555.068 3422.28 
-913.788 553.803 3424.69 
-912.52 557.186 3418.73 
-912.876 556.203 3420.24 
-906.994 570.11 3406.24 
-906.854 570.527 3405.68 
-907.088 569.5 3407.27 
-907.697 568.458 3407.51 
-905.891 571.787 3405.66 
-906.859 570.833 3404.93 
-913.906 553.212 3427.92 
-913.989 553.276 3426.9 
-896.064 585.126 3413.56 
-886.702 598.671 3362.57 
-887.539 597.942 3363.51 
-887.979 597.339 3364.12 
-887.821 597.457 3363.63 
-888.552 596.671 3366.89 
-888.492 596.645 3365.57 
-889.263 594.725 3368.96 
-888.814 596.108 3367.45 
-889.677 593.443 3369.52 
-890.218 591.792 3369.43 
-889.93 592.477 3369.08 
-888.139 597.202 3364.67 
-883.997 600.222 3359.46 
-883.788 600.085 3358.57 
-884.827 600.023 3361.05 
-885.042 599.673 3360.74 
-890.337 590.906 3368.21 
-890.148 591.563 3368.52 
-890.241 590.156 3365.89 
-890.32 589.607 3365.1 
-890.139 590.666 3366.57 
-899.835 581.145 3396.59 
-900.234 580.621 3397.49 
-900.321 580.539 3396.71 
-900.09 580.641 3398.74 
-902.031 577.071 3394.24 
-900.974 579.526 3395.69 
-900.657 580.032 3395.83 
-901.303 578.943 3395.55 
-900.288 580.548 3395.9 
-902.059 577.242 3395.09 
-902.279 574.39 3387.3 
-902.693 574.123 3388.77 
-902.758 574.583 3390.7 
-903.023 574.922 3393.35 
-893.505 589.049 3399.42 
-896.104 580.771 3371.59 
-895.339 583.041 3373 
-896.782 579.989 3372.57 
-896.624 579.975 3372 
-894.807 582.648 3368.32 
-894.833 582.064 3365.59 
-895.75 580.73 3368.79 
-896.177 580.055 3370 
-892.354 586.351 3365.37 
-891.191 588.199 3365.37 
-894.026 582.854 3363.62 
-894.633 581.721 3363.55 
-896.592 579.393 3370.6 
-890.256 589.012 3363.61 
-895.639 583.891 3374.69 
-896.949 582.192 3375.83 
-899.036 578.389 3377 
-899.415 577.986 3378.02 
-898.619 578.466 3375.54 
-897.993 578.504 3373.77 
-899.126 577.678 3376.03 
-900.324 576.128 3378.85 
-900.827 575.841 3381.43 
-901.916 574.189 3384.28 
-902.523 573.534 3386.32 
-895.228 590.614 3403.88 
-893.507 590.818 3400.26 
-869.084 623.728 3360.32 
-869.107 623.476 3359.83 
-870.758 621.374 3362.44 
-869.772 622.853 3360.07 
-870.43 622.403 3361.33 
-868.08 623.626 3358.41 
-868.206 622.227 3356.13 
-877.073 607.883 3350.22 
-878.056 605.941 3349.28 
-869.087 620.308 3353.61 
-868.88 620.274 3352.02 
-868.892 619.829 3349.27 
-869.337 620.12 3354.39 
-870.473 617.343 3347.88 
-870.413 617.375 3346.7 
-871.43 615.862 3348.2 
-872.758 613.679 3348.3 
-873.375 612.81 3348.59 
-869.42 620.173 3355.24 
-873.857 612.215 3349.06 
-870.79 618.555 3359.46 
-870.925 618.356 3360.12 
-870.416 618.969 3358.43 
-870.269 619.107 3357.76 
-869.541 620.188 3355.93 
-874.832 611.329 3350.37 
-876.164 609.719 3351.18 
-880.685 602.045 3348.4 
-878.146 604.935 3346.61 
-871.176 618.603 3362.52 
-870.933 619.581 3363.56 
-883.852 599.112 3356.35 
-883.805 599.381 3356.94 
-883.861 599.533 3357.51 
-884.102 598.416 3355.2 
-884.065 598.677 3355.98 
-883.947 598.38 3353.87 
-883.205 598.579 3348.43 
-883.579 598.339 3349.92 
-884.086 597.79 3351.76 
-881.677 600.033 3346.31 
-882.522 598.817 3346.27 
-884.035 599.578 3358.14 
-866.753 621.794 3344.52 
-868.007 620.35 3345.25 
-867.534 621.266 3346.64 
-867.376 621.844 3349.57 
-868.306 620.994 3351.89 
-868.177 621.404 3353.26 
-868.061 621.744 3354.13 
-868.418 621.644 3355.24 
-868.359 621.528 3354.64 
-868.524 621.708 3355.78 
-864.217 622.795 3337.39 
-864.707 622.666 3339.18 
-863.177 623.804 3335.78 
-865.738 622.035 3341.19 
-867.635 620.533 3344.14 
-860.913 626.463 3332.85 
-862.654 624.005 3332.92 
-859.826 627.34 3329.49 
-859.066 628.301 3329.32 
-858.4 629.03 3328.91 
-858.486 628.398 3326.13 
-858.24 628.396 3323.53 
-855.144 631.344 3314.58 
-856.269 630.197 3317.06 
-858.105 628.126 3319.48 
-852.185 634.102 3309.81 
-850.611 635.576 3310.3 
-847.056 639.116 3309.24 
-848.747 637.408 3309.43 
-846.983 639.637 3305.55 
-847.364 639.22 3306.18 
-847.062 639.651 3304.34 
-847.101 639.628 3303.61 
-834.892 647.476 3295.46 
-837.181 645.773 3294.73 
-840.438 643.536 3299.11 
-840.646 643.184 3296.4 
-842.957 641.974 3300.4 
-842.037 642.238 3298.91 
-845.796 640.494 3302.02 
-845.253 640.779 3301.42 
-846.52 640.03 3302.22 
-847.165 639.577 3302.9 
-916.952 516.186 3482.05 
-915.907 516.085 3484.42 
-918.857 514.681 3479.51 
-918.201 516.223 3479.19 
-915.343 515.685 3486.09 
-915.362 539.54 3455.94 
-914.016 541.667 3454.16 
-916.939 538.602 3453.59 
-918.743 537.273 3451.78 
-920.146 536.54 3449.59 
-919.525 537.173 3449.84 
-912.854 543.661 3452.15 
-920.487 531.512 3456.38 
-920.773 531.939 3455.37 
-921.164 532.189 3454.29 
-919.763 529.478 3459.24 
-919.224 527.666 3461.53 
-919.162 526.323 3462.64 
-920.703 530.49 3456.68 
-918.979 524.676 3464.89 
-919.297 525.046 3463.42 
-918.729 523.086 3467.61 
-920.625 535.421 3450.71 
-921.3 534.608 3450.5 
-921.306 533.978 3451.51 
-921.398 533.283 3452.29 
-921.105 535.33 3449.57 
-921.547 532.846 3452.52 
-920.61 536.036 3449.4 
-912.198 544.851 3451.03 
-911.39 546.242 3450.39 
-911.914 545.662 3449.91 
-910.855 546.977 3450.76 
-919.433 514.82 3477.86 
-918.364 521.602 3470.22 
-918.72 519.828 3470.89 
-918.748 518.651 3472.57 
-918.943 518.799 3471.54 
-918.586 518.457 3473.63 
-918.493 518.007 3475 
-919.038 516.339 3476.51 
-920.328 513.832 3476.61 
-911.109 548.858 3445.84 
-911.995 549.084 3441.46 
-913.503 552.715 3430.92 
-914.053 552.469 3429.25 
-914.244 552.485 3428.29 
-914.166 549.657 3433.19 
-913.974 551.462 3431.32 
-913.71 548.576 3436.07 
-913.318 548.204 3437.96 
-910.897 547.957 3448.45 
-957.444 438.936 3513.84 
-959.135 438.676 3513.75 
-960.374 438.409 3514.29 
-957.613 438.992 3511.33 
-958.114 438.882 3512.29 
-955.785 439.233 3512.27 
-953.73 439.096 3509.41 
-950.618 439.113 3508.76 
-955.568 439.033 3509.57 
-956.374 438.948 3509.05 
-956.997 439.035 3510.31 
-907.627 444.119 3525.02 
-931.72 439.581 3501.58 
-930.033 439.597 3500.31 
-940.615 439.064 3504.68 
-936.833 439.257 3503.22 
-948.63 438.824 3506.01 
-944.98 438.791 3504.46 
-941.401 438.877 3503.08 
-934.163 439.261 3500.48 
-925.122 440.072 3503.34 
-925.799 439.692 3500.92 
-923.707 440.527 3506.68 
-921.092 441.162 3510.05 
-927.018 439.516 3499.38 
-928.754 439.506 3499.32 
-913.609 442.749 3517.58 
-915.65 441.92 3514.16 
-917.16 441.372 3511.76 
-919.905 441.065 3509.54 
-908.998 443.773 3522.65 
-910.119 443.407 3520.85 
-924.904 477.299 3505.79 
-925.424 476.943 3503.92 
-926.615 476.107 3501.83 
-928.691 474.757 3498.62 
-927.965 475.167 3499.17 
-919.781 479.568 3510.06 
-921.971 478.855 3507.93 
-916.595 480.978 3513.77 
-914.738 481.609 3516.43 
-925.107 474.076 3487.83 
-926.051 474.488 3490.13 
-924.255 473.251 3484.39 
-926.033 475.229 3491.79 
-923.408 471.828 3479.76 
-923.126 470.822 3477.35 
-923.899 470.45 3477.27 
-924.805 469.78 3476.66 
-926.46 469.33 3477.05 
-928.546 474.724 3495.66 
-928.769 474.798 3496.46 
-928.08 474.925 3495.14 
-927.298 475.114 3493.3 
-927.607 475.117 3494.49 
-929.064 474.599 3497.69 
-936.447 467.802 3481.32 
-932.922 468.226 3479.42 
-939.889 467.185 3482.91 
-929.712 469.094 3478.77 
-942.766 466.937 3484.91 
-945.514 466.555 3486.37 
-948.792 466.202 3488.05 
-954.334 465.27 3490.25 
-952.008 466.004 3489.84 
-955.176 464.876 3490.28 
-956.207 464.913 3491.07 
-965.266 464.247 3498.18 
-963.614 464.028 3496.6 
-961.489 464.377 3495.19 
-966.152 464.009 3498.6 
-968.362 463.855 3499.95 
-895.894 584.656 3411.08 
-895.905 584.813 3408.92 
-895.436 585.921 3406.72 
-902.048 576.805 3401.55 
-903.526 574.866 3403.77 
-902.626 576.059 3402.11 
-901.731 577.333 3401.18 
-905.261 572.522 3405.7 
-905.751 572.365 3404.09 
-901.074 578.695 3400.15 
-900.772 579.76 3398.28 
-911.777 558.883 3417.71 
-910.915 560.379 3416.34 
-912.407 557.466 3417.94 
-908.686 567.188 3407.02 
-908.402 567.9 3406.59 
-908.657 566.144 3408.85 
-908.717 565.543 3409.65 
-909.029 564.758 3410 
-909.537 563.712 3410.1 
-909.999 562.791 3410.16 
-910.201 562.043 3410.67 
-910.12 561.878 3411.68 
-910.244 561.382 3412.24 
-910.579 560.591 3413.4 
-910.611 560.601 3414.34 
-910.523 560.736 3412.53 
-911.195 559.692 3415.78 
-914.09 553.367 3422.84 
-914.188 553.089 3424.4 
-914.404 552.591 3426.4 
-913.48 554.924 3419.71 
-913.675 554.369 3420.95 
-908.3 568.993 3404.87 
-908.173 569.42 3404.37 
-907.799 569.981 3404.16 
-908.623 568.432 3405.02 
-907.05 571.103 3403.4 
-907.505 570.508 3403.69 
-914.37 552.493 3427.44 
-897.386 588.917 3412.05 
-887.253 597.987 3362.52 
-888.745 596.033 3366.72 
-889.201 594.877 3368.33 
-889.678 593.164 3368.7 
-889.862 592.105 3367.91 
-888.319 596.724 3364.43 
-884.251 599.815 3359.21 
-884.351 599.504 3358.8 
-885.932 599.152 3361.71 
-885.35 599.058 3360.21 
-890.027 591.289 3367.34 
-889.746 590.58 3364.63 
-889.838 589.989 3364.03 
-889.578 589.521 3362.03 
-889.824 591.101 3365.9 
-900.641 580.033 3397.7 
-900.699 579.987 3397.01 
-900.732 579.953 3396.37 
-902.877 575.571 3395.14 
-901.045 579.457 3396.2 
-902.051 577.444 3396.09 
-902.737 575.961 3396.17 
-902.879 573.42 3387.79 
-903.528 573.161 3390.1 
-903.314 573.097 3388.99 
-903.789 573.271 3391.77 
-903.712 573.96 3393.96 
-903.302 574.844 3395.17 
-894.69 586.698 3403.89 
-893.303 590.084 3399.5 
-893.621 588.905 3400.11 
-897.076 578.581 3371.1 
-896.264 582.499 3374.61 
-897.061 580.318 3373.83 
-897.531 577.999 3371.74 
-895.463 580.896 3366.11 
-895.621 579.77 3363.62 
-895.179 580.39 3362.86 
-896.16 579.536 3367.2 
-896.573 578.992 3369.03 
-896.895 578.468 3369.76 
-891.288 587.232 3363.55 
-893.411 583.676 3363.03 
-892.067 585.573 3362.52 
-890.358 588.327 3362.54 
-897.153 578.078 3370.41 
-889.231 589.219 3360.05 
-899.804 576.842 3377.46 
-899.744 576.477 3376.51 
-898.395 577.414 3373.36 
-899.202 576.909 3375.11 
-899.719 576.095 3375.8 
-900.416 575.389 3377.76 
-901.507 574.351 3382.07 
-901.112 574.381 3379.77 
-902.505 573.044 3384.78 
-902.95 572.744 3386.42 
-903.26 572.671 3387.7 
-893.677 590.169 3400.59 
-870.821 620.793 3362.62 
-870.107 622.761 3360.7 
-868.224 622.506 3356.8 
-875.428 609.967 3348.88 
-875.203 610.588 3349.65 
-876.352 608.165 3348.17 
-877.112 606.519 3346.88 
-868.63 620.859 3353.34 
-868.626 621.044 3354.16 
-869.013 620.602 3354.44 
-868.136 620.779 3348.84 
-869.659 618.394 3346.49 
-869.12 620.667 3355.25 
-871.732 615.507 3345.02 
-871.315 616.04 3344.5 
-872.215 614.693 3346.51 
-873.262 612.871 3347.48 
-872.654 613.948 3346.1 
-874.369 611.246 3347.98 
-873.832 611.982 3347.61 
-870.563 618.943 3359.16 
-870.065 619.564 3357.64 
-869.934 619.663 3357 
-869.588 620.348 3356.63 
-879.903 602.365 3346.1 
-876.567 606.455 3344.36 
-878.053 604.298 3344.16 
-871.02 618.908 3361.63 
-871.006 619.641 3362.79 
-884.454 598.229 3356.48 
-884.165 598.8 3356.84 
-884.325 599.002 3357.81 
-884.523 597.538 3354.38 
-884.575 597.832 3355.83 
-884.848 597.164 3355.25 
-883.702 597.881 3348.81 
-883.586 597.284 3346.57 
-883.079 597.887 3345.96 
-884.15 597.38 3349.96 
-884.648 596.844 3352.09 
-880.243 601.267 3344.11 
-884.461 599.11 3358.39 
-870.057 617.371 3343.3 
-868.983 619.194 3345.85 
-870.316 617.21 3343.97 
-868.782 621.079 3354.91 
-868.821 621.244 3355.56 
-865.693 620.51 3335.8 
-866.549 619.624 3337.27 
-865.888 620.836 3338.49 
-864.828 621.221 3333.12 
-866.457 620.439 3339.7 
-867.291 619.877 3341.3 
-867.469 620.428 3343.12 
-869.744 617.523 3342.61 
-861.176 625.544 3330.12 
-862.946 622.985 3329.27 
-860.826 625.53 3327.45 
-859.381 627.374 3326.77 
-859.676 626.79 3325.04 
-859.829 626.377 3321.97 
-849.897 636.24 3308.67 
-850.788 635.303 3307.94 
-847.831 638.523 3307.68 
-849.063 637.121 3308.08 
-847.575 639.207 3304.42 
-847.944 638.781 3304.94 
-847.727 639.091 3303.42 
-847.789 639.024 3302.57 
-842.219 641.876 3296.92 
-843.904 641.135 3299.5 
-843.307 641.104 3297.78 
-846.125 640.204 3301.43 
-845.199 640.345 3299.64 
-846.588 639.899 3301.67 
-846.961 639.646 3302.02 
-847.594 639.128 3302.05 
-917.133 514.753 3483.07 
-919.115 513.036 3480.55 
-916.076 513.489 3486.24 
-920.419 511.627 3479.15 
-920.614 512.414 3477.82 
-915.102 540.609 3453.62 
-913.835 543.271 3450 
-916.844 539.323 3451.94 
-918.716 538.036 3449.98 
-920.53 536.708 3448.08 
-920.037 537.294 3448.09 
-919.342 538.025 3448.25 
-913.295 544.53 3448.13 
-920.917 531.22 3455.72 
-921.179 531.438 3454.93 
-921.434 531.763 3454.07 
-921.572 532.401 3453.07 
-919.733 528.488 3459.93 
-919.639 526.503 3461.31 
-919.703 525.113 3462.05 
-920.902 529.392 3457.02 
-921.276 530.543 3455.54 
-919.364 523.318 3465.13 
-919.778 523.785 3463.07 
-918.92 521.64 3468.32 
-920.892 536.076 3448.53 
-921.805 532.65 3452.11 
-921.569 533.681 3451.18 
-921.887 532.263 3452.43 
-912.778 545.548 3447.1 
-911.89 546.892 3446.91 
-911.407 547.468 3447.48 
-912.434 546.376 3446.22 
-921.972 511.044 3476.15 
-919.011 519.947 3469.66 
-919.372 518.591 3469.89 
-919.28 517.625 3472.2 
-919.519 517.61 3470.93 
-919.841 517.601 3469.33 
-919.284 517.132 3473.42 
-919.607 515.913 3475.21 
-920.644 513.774 3475.68 
-922.214 511.379 3474.99 
-911.679 548.39 3444.38 
-912.684 548.027 3440.74 
-914.322 551.614 3429.81 
-914.499 551.67 3428.92 
-914.701 551.683 3427.88 
-915.01 547.085 3434.08 
-914.941 548.564 3432.21 
-914.662 550.46 3430.47 
-914.757 546.755 3435.53 
-914.137 546.937 3437.5 
-959.531 438.731 3512.01 
-960.438 438.606 3512.55 
-958.296 438.965 3510.03 
-958.95 438.881 3510.8 
-952.471 438.926 3507.54 
-955.136 438.891 3507.88 
-956.066 438.823 3507.3 
-957.34 438.905 3508.74 
-908.321 443.849 3523.26 
-931.997 439.367 3499.21 
-930.161 439.337 3497.99 
-937.825 439.029 3501.53 
-950.09 438.708 3505.2 
-946.305 438.645 3503.65 
-942.235 438.756 3502.04 
-934.534 439.135 3498.87 
-924.387 440.072 3503.49 
-925.254 439.485 3499.09 
-922.484 440.486 3506.63 
-927.992 439.335 3497.7 
-926.163 439.349 3497.72 
-914.924 441.881 3514.09 
-916.472 441.256 3510.97 
-919.138 440.972 3509.05 
-921.402 440.328 3505.86 
-912.804 442.812 3517.99 
-908.586 443.63 3522.08 
-910.113 443.255 3520.21 
-923.985 477.724 3506.18 
-925.625 476.663 3502.06 
-924.484 477.449 3504.85 
-926.777 475.878 3500.32 
-918.261 480.167 3511.47 
-920.708 479.463 3508.57 
-922.896 478.273 3506.61 
-915.392 481.505 3514.82 
-924.889 474.402 3488.47 
-923.891 474.089 3486.5 
-925.637 475.005 3490.79 
-923.529 472.508 3481.48 
-922.816 472.245 3480.03 
-922.651 471.498 3478.27 
-926.228 475.535 3492.74 
-922.551 470.319 3475.7 
-923.734 469.672 3475.55 
-925.149 469.049 3475.57 
-926.775 468.775 3476.35 
-929.281 468.719 3477.86 
-928.045 475.239 3496.04 
-928.394 475.043 3497.12 
-927.592 475.445 3495.51 
-926.815 475.641 3493.95 
-927.162 475.614 3494.98 
-934.523 467.701 3479.73 
-937.148 467.367 3481.11 
-932.14 467.828 3478.29 
-940.424 466.844 3482.81 
-943.273 466.573 3484.75 
-946.126 466.193 3486.29 
-947.933 465.879 3487.09 
-951.194 465.635 3488.82 
-953.091 465.265 3489.5 
-954.57 464.768 3489.78 
-955.748 464.613 3490.36 
-964.407 463.725 3496.93 
-961.838 463.898 3494.95 
-959.275 464.362 3493.16 
-957.661 464.492 3491.75 
-965.329 463.625 3497.59 
-966.956 463.505 3498.7 
-969.46 463.547 3500.42 
-956.657 464.651 3491.09 
-895.545 590.729 3404.82 
-895.829 584.921 3411.57 
-894.99 586.394 3405.4 
-902.111 576.921 3400.31 
-902.392 576.468 3400.64 
-902.58 576.159 3401.29 
-903.641 574.865 3402.64 
-906.052 572.292 3402.92 
-905.818 572.637 3402.28 
-903.184 575.418 3401.74 
-907.518 570.853 3402.4 
-901.499 578.173 3399.41 
-901.078 579.4 3397.38 
-901.62 578.145 3398.65 
-912.265 557.759 3417.2 
-913.074 555.94 3418.5 
-909.423 566.825 3405.58 
-909.305 567.687 3404.46 
-909.52 566.179 3406.23 
-909.148 565.376 3408.52 
-909.326 564.502 3409.39 
-909.815 563.48 3409.46 
-910.364 561.755 3410.24 
-910.36 561.374 3411.15 
-910.486 560.87 3411.72 
-910.706 560.301 3412.87 
-910.806 560.157 3414.47 
-910.777 560.158 3413.72 
-910.686 560.387 3412 
-911.412 559.221 3415.73 
-914.812 551.929 3423.56 
-914.804 551.903 3425.01 
-914.94 551.573 3425.87 
-914.874 551.597 3426.86 
-914.286 553.081 3420.06 
-914.699 552.14 3422.16 
-909.066 568.298 3403.98 
-908.765 568.859 3403.76 
-908.632 569.208 3403.4 
-908.25 569.686 3403.47 
-908.011 570.152 3402.92 
-895.912 585.38 3413 
-886.518 598.451 3361.64 
-886.922 598.202 3362.1 
-887.541 597.681 3362.96 
-888.704 596.025 3365.99 
-889.147 594.756 3367.47 
-889.586 592.993 3367.76 
-889.618 592.188 3366.77 
-889.747 591.598 3366.47 
-884.75 599.028 3358.91 
-889.319 590.826 3363.27 
-889.541 591.325 3364.93 
-888.898 590.64 3361.38 
-889.064 590.158 3361.18 
-888.634 590.116 3359.46 
-901.133 579.339 3396.76 
-903.085 575.371 3396.41 
-902.056 577.487 3396.6 
-901.409 578.817 3396.14 
-902.587 576.323 3396.98 
-903.829 572.222 3389.15 
-904.312 571.983 3390.38 
-904.744 571.845 3391.92 
-904.443 572.741 3393.43 
-904.131 573.525 3394.88 
-903.531 574.589 3395.96 
-893.466 589.604 3399.96 
-894.618 587.227 3403.48 
-897.571 577.537 3371.05 
-898.011 576.865 3371.58 
-896.144 578.739 3363.96 
-896.635 577.655 3364.22 
-896.778 578.124 3367.53 
-897.111 577.595 3368.93 
-897.335 577.321 3369.75 
-890.275 587.639 3360.59 
-892.424 584.409 3360.84 
-890.553 586.844 3359.62 
-889.508 588.554 3359.76 
-897.59 577.023 3370.41 
-888.536 589.939 3358.69 
-900.331 575.163 3376.92 
-898.753 576.514 3373.3 
-899.689 575.541 3375.01 
-900.197 574.849 3375.98 
-901.076 573.642 3377.99 
-902.348 572.82 3383.43 
-901.853 572.864 3380.99 
-902.962 572.342 3385.55 
-903.452 571.968 3387.14 
-903.813 571.822 3388.36 
-893.463 590.19 3399.99 
-868.671 623.107 3358.54 
-869.636 622.74 3359.59 
-875.147 609.501 3346.66 
-875.964 607.645 3345.32 
-870.887 616.549 3344.18 
-872.047 614.991 3343.74 
-872.268 614.655 3344.3 
-871.792 615.296 3343.31 
-873.001 613.325 3345.51 
-873.753 611.948 3346.53 
-872.589 614.067 3343.76 
-874.276 611.044 3346.87 
-869.18 621.044 3356.52 
-870.363 619.405 3358.98 
-870.821 619.014 3360.57 
-870.645 618.975 3359.71 
-870.23 619.442 3358.37 
-869.651 620.513 3357.22 
-875.59 607.741 3343.72 
-876.899 605.622 3343.1 
-875.983 606.832 3342.59 
-878.551 603.296 3342.93 
-870.996 618.668 3361.05 
-870.986 619.793 3362.06 
-870.88 620.694 3361.97 
-884.534 598.348 3357.08 
-884.828 597.79 3356.86 
-884.9 597.45 3356.36 
-884.662 598.394 3357.58 
-884.729 598.608 3358.15 
-885.096 596.454 3354.29 
-885.094 596.88 3355.93 
-885.333 596.223 3355.27 
-884.12 597.073 3348.61 
-884.686 596.299 3349.77 
-885.241 595.726 3352.14 
-884.972 598.591 3358.71 
-871.061 615.764 3341.76 
-871.203 615.854 3342.57 
-871.448 615.669 3343.06 
-868.733 621.606 3356.32 
-868.8 621.857 3356.99 
-867.881 617.644 3335.94 
-867.032 618.435 3333.02 
-867.967 617.995 3338.35 
-868.808 616.617 3337.03 
-865.049 620.491 3329.64 
-868.601 617.408 3339.06 
-869.159 617.523 3341 
-870.462 615.692 3340.01 
-861.722 624.215 3326.42 
-861.164 624.81 3323.47 
-849.907 636.192 3307.53 
-851.579 634.348 3306.73 
-850.824 635.127 3306.65 
-848.377 638.078 3306.38 
-849.49 636.663 3306.84 
-848.779 637.644 3305.71 
-848.144 638.689 3303.63 
-848.397 638.332 3304.05 
-848.306 638.5 3301.63 
-846.377 639.832 3300.73 
-845.769 639.799 3299.11 
-847.122 639.389 3300.96 
-847.984 638.727 3301.18 
-918.495 512.177 3482.51 
-916.959 512.603 3485.15 
-919.503 510.098 3482.38 
-921.052 509.258 3480.15 
-916.396 511.021 3487.45 
-922.165 508.863 3478.22 
-922.847 508.678 3476.93 
-915.435 541.38 3450.44 
-914.949 543.165 3446.61 
-914.3 544.228 3445.48 
-918.133 539.087 3448.92 
-920.659 536.952 3446.97 
-920.344 537.381 3446.93 
-920.893 536.396 3447.72 
-919.814 538.009 3446.93 
-918.75 538.96 3447.46 
-913.803 545.206 3444.13 
-921.526 530.886 3454.67 
-919.923 527.794 3459.86 
-920.005 526.181 3460.51 
-920.114 525.01 3460.96 
-920.15 523.931 3461.64 
-921.44 529.705 3455.71 
-920.822 528.477 3457.64 
-919.718 521.621 3465.53 
-920.394 522.228 3462.55 
-919.701 519.862 3467.12 
-921.54 534.98 3449.13 
-921.645 534.295 3450.03 
-921.244 536.041 3447.57 
-922.029 532.814 3451.21 
-922.005 533.489 3450.13 
-922.142 532.191 3451.85 
-913.466 545.977 3443.04 
-912.336 547.594 3443.37 
-912.983 546.758 3442.8 
-923.437 508.977 3475.28 
-920.014 518.528 3467.32 
-920.736 517.105 3466.19 
-920.324 516.345 3469.49 
-919.961 516.505 3471.17 
-920.751 516.261 3467.56 
-921.023 516.255 3466.22 
-919.959 516.177 3472.36 
-920.044 515.507 3474.14 
-920.833 513.794 3474.87 
-922.306 511.707 3474.16 
-923.642 509.441 3474.16 
-913.727 546.821 3439.39 
-914.946 550.337 3429.5 
-914.974 550.779 3428.53 
-915.137 550.911 3427.36 
-915.76 546.144 3432.82 
-915.618 545.742 3434.15 
-915.398 548.136 3431.17 
-915.374 545.647 3435.42 
-914.961 545.807 3436.88 
-960.054 438.808 3510.48 
-960.74 438.698 3511.14 
-961.516 438.576 3511.61 
-959.596 438.883 3509.84 
-958.605 438.89 3508.85 
-952.93 438.794 3506.27 
-957.627 438.813 3507.42 
-954.973 438.768 3506.05 
-952.255 438.664 3504.66 
-907.661 443.913 3523.86 
-932.215 439.227 3497.47 
-931.088 439.225 3495.74 
-929.204 439.245 3496.1 
-937.993 438.949 3500.4 
-948.661 438.537 3503.54 
-944.881 438.558 3502.02 
-941.145 438.723 3500.93 
-934.592 439.105 3497.77 
-925.186 439.661 3500.77 
-923.229 440.03 3503.59 
-924.647 439.469 3498.85 
-925.265 439.312 3497.48 
-926.933 439.243 3496.09 
-925.71 439.178 3496.01 
-916.295 441.208 3510.4 
-915.265 441.424 3511.69 
-913.678 442.009 3515.08 
-918.556 440.799 3508.19 
-920.379 440.211 3505.33 
-922.812 439.833 3502.65 
-911.295 442.787 3518.25 
-909.161 443.309 3520.57 
-924.699 477.257 3503.32 
-927.245 475.607 3499.24 
-925.909 476.366 3500.38 
-923.659 477.833 3505.13 
-928.345 475.066 3497.83 
-918.946 479.945 3510.17 
-916.78 480.971 3512.68 
-920.442 479.68 3508.2 
-921.998 478.797 3506.95 
-914.468 481.91 3515.36 
-923.494 473.548 3484.29 
-923.355 472.785 3481.95 
-924.571 474.691 3488.88 
-925.733 475.538 3492.09 
-922.647 472.612 3480.71 
-922.104 472.004 3478.79 
-922.031 471.061 3476.76 
-925.767 475.784 3492.87 
-921.531 470.315 3474.6 
-922.985 469.338 3474.18 
-924.461 468.627 3474.27 
-925.91 468.448 3475.15 
-927.706 467.951 3475.7 
-928.811 468.303 3476.93 
-927.863 475.375 3496.88 
-927.459 475.622 3496.31 
-926.399 475.944 3493.96 
-926.75 475.863 3494.67 
-934.55 467.257 3479.11 
-937.676 467.047 3481.01 
-931.146 467.658 3477.45 
-940.853 466.535 3482.74 
-943.745 466.227 3484.62 
-945.645 465.886 3485.57 
-949.55 465.547 3487.72 
-947.233 465.627 3486.33 
-954.678 464.318 3489.37 
-952.056 465.116 3488.74 
-955.39 464.438 3489.94 
-963.185 463.406 3495.56 
-961.212 463.597 3494.14 
-959.171 463.98 3492.63 
-964.286 463.125 3496.21 
-966.23 463.084 3497.76 
-956.236 464.419 3490.5 
-955.975 464.198 3490.08 
-913.761 501.032 3504.93 
-914.623 502.333 3503.13 
-915.105 502.879 3502.09 
-915.365 503.743 3501.38 
-915.464 504.447 3500.81 
-911.426 492.525 3510.44 
-898.257 589.25 3409.31 
-896.051 590.521 3406 
-897.408 589.749 3407.76 
-896.518 590.221 3406.88 
-895.613 585.436 3409.15 
-895.659 585.366 3408.64 
-895.169 586.351 3406.46 
-902.259 576.826 3399.46 
-902.609 576.273 3399.76 
-902.838 575.913 3400.44 
-903.185 575.465 3400.9 
-905.498 573.031 3401.72 
-907.474 571.085 3401.55 
-903.792 574.779 3401.3 
-908.217 570.296 3401.67 
-908.396 569.903 3402.23 
-901.828 577.848 3398.13 
-901.901 577.806 3397.49 
-913.03 556.027 3417.85 
-911.906 558.283 3416.18 
-909.774 567.103 3404 
-909.607 567.728 3403.39 
-909.885 565.742 3405.7 
-910.07 566.464 3403.95 
-909.491 565.025 3407.93 
-909.672 564.36 3408.48 
-910.066 563.32 3408.92 
-910.243 562.464 3409.68 
-910.511 561.127 3410.59 
-910.614 560.632 3411.17 
-910.84 559.958 3412.39 
-910.945 559.69 3413.12 
-911.169 559.39 3414.57 
-911.076 559.396 3413.79 
-910.769 560.183 3411.5 
-915.335 550.834 3424.32 
-915.264 550.955 3425.17 
-915.287 550.794 3426.23 
-914.302 552.965 3419.21 
-915.129 551.116 3421.49 
-915.291 550.871 3423.05 
-909.275 568.383 3403.13 
-909.048 568.955 3402.53 
-908.64 569.431 3402.76 
-895.606 585.474 3409.66 
-885.963 598.252 3360.18 
-887.538 597.373 3362.51 
-887.292 597.513 3362.06 
-886.821 597.914 3361.47 
-888.482 596.507 3364.97 
-889.405 592.93 3366.68 
-889.373 592.34 3365.7 
-889.456 591.86 3365.34 
-888.05 597.002 3363.68 
-889.162 591.456 3363.51 
-888.533 591.583 3361.31 
-888.395 591.322 3360.54 
-888.21 590.847 3359.17 
-887.836 591.518 3358.92 
-902.957 575.715 3397.49 
-903.324 575.165 3397.54 
-902.589 576.375 3397.73 
-904.697 570.982 3389.78 
-905.112 570.812 3390.92 
-905.389 570.76 3391.86 
-905.184 571.625 3393.41 
-905.603 570.775 3392.83 
-904.935 572.279 3394.39 
-904.661 572.875 3395.31 
-904.036 573.866 3396.07 
-903.65 574.561 3396.98 
-894.573 587.195 3402.8 
-898.215 575.59 3370.72 
-898.735 574.719 3371.4 
-897.101 576.638 3365.16 
-897.47 576.132 3367.63 
-897.87 575.237 3368.43 
-898.071 575.006 3369.15 
-898.189 575.081 3369.87 
-900.927 573.24 3376.65 
-899.063 575.433 3373.05 
-899.828 573.917 3373.76 
-900.655 572.811 3375.18 
-901.825 571.474 3378.33 
-901.68 570.937 3376.71 
-902.776 572.176 3384.39 
-902.309 571.81 3381.68 
-902.73 571.783 3383.7 
-903.269 571.808 3386.12 
-903.848 571.163 3387.39 
-904.222 571.017 3388.32 
-893.796 588.699 3400.84 
-894.405 590.481 3402.11 
-893.712 589.649 3400.68 
-870.642 621.876 3361.24 
-868.99 622.561 3358.32 
-869.303 622.085 3358.34 
-870.478 622.227 3360.81 
-874.937 609.361 3345.29 
-872.296 614.583 3343.5 
-872.056 614.871 3342.95 
-873.232 612.833 3344.82 
-874.095 611.086 3345.79 
-873.417 612.374 3344.3 
-872.771 613.655 3343.11 
-872.407 614.356 3343.03 
-874.63 609.503 3343.92 
-870.822 619.976 3361 
-870.683 619.436 3360.27 
-870.469 619.424 3359.54 
-869.958 620.126 3357.81 
-870.219 620.028 3358.88 
-869.538 620.953 3357.6 
-869.83 620.579 3358.07 
-869.282 621.144 3357.04 
-869.165 621.49 3357.4 
-875.015 608.393 3342.65 
-875.21 607.74 3341.23 
-870.777 621.394 3361.86 
-885.172 597.153 3356.84 
-885.195 597.422 3357.35 
-885.33 596.621 3356.51 
-885.085 597.794 3357.73 
-885.242 598.131 3358.6 
-885.536 595.651 3354.6 
-885.528 596.042 3356.02 
-885.762 595.404 3355.4 
-885.601 594.664 3350.66 
-885.83 594.728 3352.97 
-871.13 614.87 3339.95 
-871.775 615.119 3342.45 
-869.445 615.439 3334.54 
-870.324 614.414 3335.5 
-869.205 615.453 3331.34 
-869.91 615.349 3337.38 
-870.59 614.277 3336.46 
-870.236 615.2 3338.19 
-850.226 635.786 3306.47 
-851.047 634.774 3305.52 
-850.19 635.812 3305.61 
-849.193 637.177 3304.98 
-848.842 637.879 3303.15 
-848.336 638.537 3302.52 
-848.672 638.132 3301.67 
-846.903 639.35 3300.26 
-917.577 510.494 3485.66 
-920.124 508.067 3483.15 
-918.172 508.885 3486.06 
-922.196 506.785 3480.5 
-916.632 509.953 3487.97 
-923.549 506.218 3478.25 
-923.949 507.037 3476.39 
-924.328 505.526 3477.32 
-916.531 541.157 3447.68 
-915.682 543.025 3444.22 
-915.021 544.081 3442.92 
-920.4 537.687 3445.88 
-920.998 536.558 3446.85 
-920.778 537.181 3445.94 
-919.986 538.189 3445.88 
-918.993 539.089 3446.32 
-917.219 540.938 3446.03 
-914.682 544.828 3441.47 
-914.323 545.594 3440.29 
-921.786 530.985 3453.96 
-921.793 531.837 3453.1 
-922.105 531.817 3452.32 
-920.242 526.826 3459.56 
-920.394 525.516 3459.84 
-920.436 524.372 3460.44 
-920.963 522.025 3460.72 
-920.779 523.392 3460.1 
-920.696 519.428 3464.04 
-920.813 517.842 3465.04 
-921.546 535.434 3448.17 
-921.617 535.706 3447.27 
-921.952 534.557 3448.85 
-921.323 536.178 3446.81 
-922.258 532.677 3450.68 
-914.236 546.11 3439.12 
-924.472 506.511 3475.84 
-924.223 508.082 3474.54 
-921.054 516.84 3465.24 
-921.536 515.345 3465.25 
-921.578 515.617 3464.7 
-921.112 515.284 3467.96 
-921.354 515.153 3466.82 
-920.808 515.382 3469.37 
-921.486 515.147 3465.98 
-920.612 515.356 3470.66 
-920.391 515.265 3472.71 
-920.806 514.255 3473.79 
-922.409 511.967 3473.32 
-923.872 509.621 3473.15 
-924.43 508.347 3473.61 
-915.787 547.552 3430.42 
-915.472 549.427 3428.82 
-915.383 550.08 3427.91 
-915.439 550.291 3426.98 
-916.175 545.661 3431.92 
-916.249 544.909 3433.12 
-916.146 544.631 3434.34 
-915.89 544.652 3435.55 
-915.361 545.077 3437.08 
-961.172 438.768 3509.98 
-960.846 438.813 3509.33 
-961.919 438.66 3510.8 
-959.798 438.857 3508.88 
-958.973 438.798 3507.49 
-956.078 438.762 3505.92 
-952.318 438.657 3503.89 
-949.56 438.465 3503 
-907.176 443.921 3524.09 
-932.504 439.185 3496.36 
-931.458 439.195 3494.41 
-929.584 439.199 3494.47 
-927.536 439.197 3494.89 
-937.83 438.921 3499.13 
-946.365 438.463 3501.87 
-942.792 438.575 3500.72 
-939.32 438.793 3498.97 
-935.314 439.036 3497.12 
-924.548 439.72 3501.49 
-924.363 439.527 3499.48 
-924.641 439.193 3497.05 
-924.298 439.377 3497.91 
-925.06 439.091 3495.8 
-926.323 439.096 3494.25 
-925.372 439.011 3494.26 
-917.565 440.708 3507.78 
-914.542 441.444 3512.45 
-915.97 441.037 3509.4 
-912.595 442.053 3515.68 
-919.374 440.084 3504.78 
-921.491 439.815 3502.93 
-924.179 439.534 3500.11 
-923.429 439.501 3500.96 
-910.155 442.839 3518.59 
-908.507 443.325 3520.76 
-908.132 443.643 3522.31 
-924.423 477.345 3502.73 
-927.459 475.548 3498.64 
-923.418 477.903 3504.31 
-922.211 478.598 3506.18 
-927.808 475.407 3497.42 
-918.334 480.322 3510.31 
-913.365 482.35 3516.09 
-923.337 474.637 3487.27 
-923.14 474.281 3486.06 
-922.722 472.91 3481.51 
-925.266 475.45 3491.29 
-925.965 475.926 3493.38 
-920.457 470.7 3474.17 
-919.883 470.08 3472.4 
-921.291 469.649 3473.05 
-923.401 468.462 3473.01 
-925.048 467.868 3473.53 
-926.391 467.831 3474.58 
-927.714 467.298 3474.78 
-929.687 467.468 3476.28 
-927.174 475.767 3495.5 
-926.948 475.937 3496.21 
-933.626 466.982 3478.14 
-936.161 466.864 3479.69 
-942.24 466.089 3483.27 
-944.821 465.69 3484.72 
-949.101 465.248 3487.1 
-946.411 465.448 3485.6 
-952.775 464.36 3488.35 
-954.77 463.783 3488.9 
-955.476 463.952 3489.5 
-949.797 464.836 3487.12 
-967.965 463.07 3499 
-961.633 463.234 3494.15 
-957.423 464.202 3491.21 
-956.81 463.941 3490.42 
-965.656 462.645 3496.88 
-963.198 462.923 3495.12 
-956.179 463.799 3489.81 
-912.562 495.913 3507.82 
-913.39 498.03 3506.05 
-914.702 500.99 3503.28 
-914.549 499.364 3503.89 
-915.416 501.758 3501.78 
-915.823 502.569 3500.74 
-915.711 503.635 3500.48 
-915.667 504.296 3500.1 
-911.281 491.638 3510.91 
-912.839 494.574 3507.47 
-912.913 493.333 3507.48 
-895.785 590.45 3405.27 
-895.311 586.209 3407.35 
-902.486 576.511 3398.68 
-903.033 575.695 3399.61 
-902.772 576.073 3398.93 
-903.436 575.174 3400.02 
-903.985 574.584 3400.48 
-905.698 572.852 3401.26 
-907.463 571.116 3401.05 
-908.341 570.227 3401.17 
-905.27 573.283 3400.92 
-908.962 569.264 3402.01 
-913.288 555.323 3417.67 
-910.029 567.003 3403.21 
-909.642 568.01 3402.62 
-909.93 567.432 3402.68 
-910.114 565.357 3405.44 
-910.416 565.885 3403.61 
-910.417 566.349 3402.92 
-910.036 564.08 3407.67 
-910.143 564.951 3405.88 
-910.459 562.262 3409.01 
-910.692 560.559 3410.67 
-910.499 561.609 3409.68 
-910.979 559.456 3411.89 
-911.094 559.107 3412.52 
-911.265 558.804 3413.29 
-911.489 558.504 3414.2 
-915.626 550.134 3424.99 
-915.714 549.972 3424.19 
-915.519 550.306 3425.8 
-914.511 552.368 3418.84 
-915.28 550.693 3421.24 
-915.667 550.018 3423.29 
-909.677 568.163 3402.06 
-909.328 568.81 3401.78 
-896.039 585.851 3413.54 
-897.66 588.813 3411.64 
-886.206 597.78 3360.08 
-887.948 596.889 3363.1 
-889.066 594.493 3366.39 
-888.745 595.543 3365.23 
-888.609 595.942 3364.74 
-888.45 596.206 3364.25 
-889.231 592.929 3365.74 
-888.991 594.363 3365.78 
-889.105 592.628 3364.65 
-889.136 592.082 3364.14 
-888.74 591.865 3362.34 
-887.82 592.818 3360.2 
-887.289 593.338 3359 
-887.088 593.128 3358.04 
-903.017 575.699 3398.54 
-903.466 575.123 3398.83 
-903.862 574.5 3398.19 
-905.184 570.247 3390.23 
-905.742 569.817 3391.38 
-905.916 569.885 3392.12 
-906.016 570.061 3392.82 
-905.709 571.084 3394.14 
-906.09 570.311 3393.57 
-905.345 571.898 3395.01 
-905.073 572.485 3395.9 
-904.621 573.24 3396.57 
-904.212 573.924 3397.38 
-894.425 587.539 3402.26 
-899.204 572.709 3370.4 
-900.046 571.111 3371.33 
-900.345 571.487 3372.72 
-897.94 574.486 3366.47 
-898.901 572.144 3367.62 
-899.394 571.287 3368.67 
-899.702 570.968 3369.67 
-901.615 570.068 3375.27 
-901.284 569.248 3373.23 
-902.337 570.656 3379.98 
-902.518 567.885 3376.29 
-902.684 567.917 3377.36 
-902.538 566.987 3375.15 
-903.168 571.478 3385.21 
-902.726 571.156 3382.82 
-903.111 570.927 3384.36 
-903.725 570.942 3386.61 
-904.261 570.538 3387.87 
-904.68 570.469 3388.98 
-894.083 588.154 3401.5 
-894.6 590.115 3402.57 
-895.5 590.199 3404.36 
-893.952 589.713 3401.3 
-870.308 622.391 3360.31 
-872.144 614.612 3342.48 
-874.125 610.132 3342.64 
-873.616 611.836 3343.9 
-873.038 613.013 3342.9 
-872.712 613.483 3342.16 
-872.508 614.008 3342.52 
-874.219 609.296 3340.37 
-873.67 610.341 3340.3 
-870.69 620.272 3360.57 
-870.495 620.536 3360.04 
-870.322 620.829 3359.58 
-870.109 621.048 3359.14 
-869.733 621.543 3358.62 
-873.852 609.608 3338.66 
-885.538 596.444 3356.94 
-885.43 597.334 3357.92 
-885.554 596.91 3357.66 
-885.747 595.842 3356.65 
-886.07 594.615 3354.93 
-885.912 595.311 3356.08 
-886.174 594.586 3355.75 
-886.496 593.191 3352.52 
-871.575 614.265 3339.87 
-870.954 614.349 3338.27 
-871.644 614.988 3341.63 
-871.297 613.027 3334.95 
-870.846 613.513 3333.56 
-871.249 613.266 3336.01 
-870.826 614.258 3337.5 
-871.29 613.466 3337.06 
-849.526 636.796 3304.05 
-849.136 637.524 3302.61 
-920.509 507.021 3483.62 
-918.413 507.663 3486.96 
-916.943 508.965 3488.4 
-923.553 505.152 3479.64 
-922.237 505.571 3481.98 
-924.469 504.491 3478.32 
-924.886 504.428 3477.34 
-916.005 505.905 3496.96 
-916.138 505.961 3496.36 
-916.149 506.207 3495.74 
-916.366 506.497 3493.84 
-916.421 505.569 3496.11 
-916.01 543.112 3442.29 
-917.394 541.198 3444.35 
-915.655 543.83 3440.56 
-920.282 538.018 3445.21 
-919.736 538.638 3445.15 
-921.163 536.696 3445.89 
-919.227 539.16 3445.22 
-915.302 544.586 3439.22 
-915.123 545.117 3438.11 
-922.004 531.126 3453.25 
-921.673 530.354 3454.8 
-921.077 528.168 3457.2 
-920.566 526.004 3459.12 
-920.693 524.571 3459.54 
-921.401 520.965 3460.14 
-921.253 522.478 3459.22 
-921.242 519.503 3462.15 
-921.073 523.719 3458.89 
-921.618 529.211 3455.51 
-921.375 517.315 3463.46 
-921.485 516.315 3464.19 
-921.845 535.646 3446.58 
-921.552 536.065 3446.32 
-922.052 534.797 3448.13 
-924.914 506.123 3475.28 
-925.16 504.382 3476.72 
-924.815 507.412 3473.96 
-921.772 514.795 3465.2 
-921.852 514.987 3464.49 
-921.608 514.388 3467.55 
-921.657 514.504 3466.64 
-921.757 514.576 3465.82 
-921.493 514.348 3468.6 
-921.171 514.525 3470.15 
-921.031 514.388 3471.8 
-922.291 512.388 3472.52 
-924.034 509.877 3472.18 
-924.521 508.768 3472.63 
-924.859 507.945 3473.12 
-916.05 547.267 3429.69 
-916.406 545.4 3431.28 
-915.763 549.062 3427.97 
-915.82 549.274 3427.05 
-915.719 549.737 3426.38 
-916.566 544.561 3432.3 
-916.643 543.994 3433.38 
-916.531 543.798 3434.7 
-916.262 543.95 3435.92 
-916.014 544.094 3437 
-962.489 438.72 3510.07 
-962.29 438.81 3509.18 
-960.464 438.815 3508.31 
-961.933 438.841 3508.6 
-959.516 438.81 3506.96 
-957.425 438.783 3505.92 
-953.879 438.718 3504.29 
-950.102 438.526 3502.16 
-948.188 438.446 3501.97 
-932.684 439.169 3495.73 
-929.902 439.154 3493.5 
-932.423 439.177 3494.14 
-927.707 439.133 3493.47 
-944.84 438.502 3500.93 
-941.807 438.61 3499.56 
-938.366 438.854 3497.6 
-934.801 439.058 3496.03 
-923.737 439.391 3498.08 
-923.834 439.105 3496.97 
-924.301 438.991 3495.58 
-924.718 438.922 3494.04 
-926.976 439.011 3492.07 
-925.995 438.952 3492.6 
-925.2 438.839 3492.53 
-919.401 439.849 3503.77 
-917.777 440.208 3505.84 
-914.943 441.12 3510.35 
-913.433 441.505 3513.47 
-916.581 440.517 3507.44 
-911.229 442.2 3516.64 
-921.876 439.638 3502.03 
-923.194 439.339 3498.88 
-922.529 439.208 3499.81 
-908.699 443.015 3519.32 
-907.914 443.377 3521.19 
-907.208 443.684 3522.84 
-924.187 477.405 3501.98 
-927.502 475.583 3497.86 
-926.567 476.07 3498.84 
-925.336 476.715 3499.95 
-923.136 477.989 3503.49 
-922.119 478.598 3505.6 
-927.208 475.782 3497.04 
-916.049 481.357 3513.03 
-918.315 480.499 3509.82 
-920.455 479.724 3507.63 
-922.821 474.564 3486.36 
-923.172 473.515 3483.76 
-922.072 472.708 3480.32 
-924.154 475.154 3489.49 
-925.144 475.713 3491.72 
-921.286 472.017 3477.93 
-921.503 471.166 3476.39 
-919.713 471.037 3473.9 
-919.094 470.339 3472.01 
-921.115 468.791 3471.36 
-919.231 469.529 3470.8 
-923.923 467.633 3472.14 
-925.979 467.253 3473.37 
-927.543 466.793 3473.98 
-929.101 466.875 3475.16 
-931.465 467.066 3476.88 
-926.712 476.073 3495.51 
-926.26 476.337 3495.03 
-926.222 476.192 3494.37 
-936.533 466.547 3479.51 
-938.846 466.659 3481.34 
-941.909 465.744 3482.59 
-943.621 465.339 3483.41 
-947.838 465.206 3486.28 
-946.049 465.057 3484.93 
-952.338 464.122 3487.88 
-954.934 463.344 3488.58 
-955.663 463.484 3489.16 
-949.379 464.552 3486.6 
-969.377 462.436 3499.46 
-966.959 462.252 3497.61 
-956.738 463.512 3489.93 
-962.834 462.708 3494.64 
-965.017 462.321 3496.11 
-956.197 463.295 3489.31 
-914.191 496.152 3504.89 
-915.695 500.116 3501.76 
-915.407 497.591 3502.73 
-916.247 501.173 3500.41 
-916.669 501.754 3499.34 
-916.264 502.843 3499.61 
-916.203 503.368 3499.34 
-915.711 504.953 3499.6 
-915.865 504.287 3499.44 
-912.047 491.031 3509.65 
-913.09 492.247 3507.36 
-914.496 494.28 3504.64 
-910.679 489.924 3512.53 
-911.151 490.508 3511.46 
-903.871 574.613 3399.24 
-904.311 574.193 3399.76 
-905.12 573.412 3400.44 
-908.173 570.442 3400.74 
-908.695 569.718 3401.61 
-908.699 569.808 3400.86 
-907.254 571.329 3400.59 
-909.209 569.095 3401.34 
-912.227 557.344 3415.98 
-910.256 566.872 3402.53 
-910.224 567.22 3401.93 
-910.628 565.479 3403.32 
-910.616 566.021 3402.52 
-910.503 566.563 3402.08 
-910.235 563.726 3407.33 
-910.361 562.976 3408.28 
-910.612 561.035 3410.02 
-911.386 557.871 3411.06 
-911.202 558.503 3410.78 
-911.552 557.682 3412.55 
-911.823 557.22 3413.54 
-912.118 557.267 3415.33 
-910.872 559.999 3410.53 
-911.012 559.289 3410.51 
-915.904 549.426 3425.47 
-916.027 549.162 3424.75 
-916.057 549.091 3424.03 
-914.519 552.181 3418.22 
-915.112 550.861 3419.81 
-915.677 549.748 3422.1 
-915.918 549.304 3423.16 
-909.895 568.043 3401.33 
-909.531 568.678 3401.13 
-895.673 585.669 3411.32 
-896.873 587.443 3412.41 
-895.419 585.994 3409.1 
-897.995 589.142 3410.5 
-885.682 597.35 3358.55 
-887.255 597.212 3361.62 
-885.973 596.878 3358.69 
-888.887 594.32 3365.15 
-889.046 593.11 3364.9 
-888.824 593.058 3363.84 
-888.793 592.424 3363.14 
-888.285 596.438 3363.81 
-888.316 592.593 3361.54 
-887.627 593.64 3360.23 
-887.207 594.375 3359.52 
-886.879 594.571 3358.82 
-886.582 594.882 3358.25 
-886.452 594.835 3357.7 
-886.4 594.653 3357.21 
-886.979 593.126 3357.53 
-886.307 594.495 3356.44 
-886.151 595.006 3356.67 
-886.868 592.859 3356.02 
-886.925 592.882 3356.67 
-904.452 573.933 3399 
-904.549 573.717 3398.37 
-905.631 569.48 3390.63 
-906.036 569.314 3391.61 
-906.327 569.283 3392.52 
-906.393 569.496 3393.04 
-906.415 569.865 3393.7 
-906.311 570.368 3394.47 
-905.937 571.145 3395.15 
-906.558 569.959 3394.31 
-905.558 571.934 3395.99 
-905.255 572.622 3397.07 
-904.926 573.196 3397.77 
-900.466 569.444 3370.63 
-901.317 567.766 3371.67 
-887.006 592.337 3355.01 
-902.237 566.497 3373.5 
-902.979 568.687 3381.17 
-903.024 569.273 3382.32 
-903.056 567.506 3379.51 
-903.477 565.629 3378.84 
-903.595 570.473 3385.64 
-903.241 569.292 3383.43 
-903.484 569.197 3384.38 
-904.082 570.246 3387.02 
-904.592 570.053 3388.28 
-905.035 569.888 3389.37 
-893.87 589.228 3401.12 
-893.989 588.763 3401.49 
-870.826 621.005 3361.52 
-870.588 621.715 3360.74 
-870.394 621.796 3360.25 
-869.994 622.313 3359.66 
-872.323 614.117 3341.92 
-873.593 611.555 3342.76 
-873.293 611.203 3340.33 
-873.306 611.847 3341.71 
-873.011 612.918 3342.31 
-872.544 612.931 3340.43 
-872.791 612.552 3340.7 
-872.949 611.228 3338.56 
-872.92 611.546 3339.28 
-870.735 620.991 3360.95 
-872.802 611.017 3336.61 
-872.643 611.43 3337.43 
-885.855 595.944 3357.2 
-885.736 596.883 3358.13 
-885.698 596.436 3357.44 
-886.082 595.379 3357.07 
-871.906 613.814 3339.94 
-871.474 613.584 3338.13 
-872.226 613.404 3340.19 
-872.34 611.523 3335.19 
-871.798 612.431 3336.03 
-871.942 612.402 3336.79 
-871.823 612.846 3337.59 
-920.201 506.196 3485.35 
-918.288 506.926 3488.23 
-924.548 503.972 3479 
-923.581 504.178 3481.02 
-922.36 504.466 3483.4 
-925.018 503.681 3478.09 
-925.284 503.646 3477.31 
-916.771 506.156 3493.29 
-916.699 507.298 3491.3 
-917.344 507.201 3489.94 
-916.322 505.433 3496.71 
-916.463 505.69 3495.4 
-916.685 505.247 3495.75 
-917.038 505.157 3494.7 
-916.666 505.038 3496.28 
-916.549 542.733 3440.98 
-917.701 541.093 3443.26 
-916.154 543.494 3439.3 
-919.691 538.811 3444.34 
-920.212 538.234 3444.6 
-918.798 539.909 3443.25 
-918.162 540.676 3442.78 
-920.725 537.476 3445.21 
-915.778 544.203 3438.08 
-921.967 529.895 3454.46 
-922.386 532.201 3451.12 
-921.185 527.427 3457.17 
-920.868 525.342 3458.58 
-921.513 521.994 3458.66 
-921.605 520.348 3460.01 
-921.698 517.741 3461.97 
-921.388 523.08 3458.23 
-921.228 524.35 3457.99 
-921.459 527.439 3456.52 
-922.014 528.975 3454.79 
-921.785 516.198 3463.13 
-921.957 535.284 3447.34 
-922.291 533.899 3448.99 
-922.379 534.35 3448.09 
-922.355 532.969 3449.89 
-925.559 503.555 3476.68 
-925.078 507.401 3473.43 
-921.863 515.338 3463.91 
-921.924 513.787 3467.5 
-921.906 513.964 3466.47 
-921.872 513.716 3468.73 
-921.804 513.623 3469.95 
-922.72 512.207 3470.68 
-922.244 512.678 3471.63 
-923.863 510.382 3471.45 
-924.488 509.384 3471.67 
-924.881 508.349 3472.34 
-925.154 507.824 3472.62 
-916.21 547.283 3428.8 
-916.61 545.198 3430.51 
-916.805 544.361 3431.41 
-916.068 548.873 3426.13 
-916.16 548.271 3427.09 
-916.907 543.793 3432.36 
-917.01 543.143 3433.9 
-917.303 542.833 3432.93 
-916.86 543.194 3435.08 
-916.64 543.341 3436.18 
-916.432 543.479 3437.19 
-963.575 438.837 3508.65 
-960.672 438.828 3507.82 
-962.72 438.892 3508.11 
-959.711 438.848 3506.2 
-956.568 438.782 3504.85 
-952.048 438.668 3502.62 
-947.978 438.466 3500.98 
-946.211 438.481 3500.96 
-931.078 439.147 3492.87 
-928.759 439.129 3492.53 
-933.386 439.213 3492.87 
-935.143 439.095 3494.99 
-942.628 438.6 3499.18 
-938.945 438.847 3497.18 
-923.109 439.184 3497.46 
-923.133 438.944 3496.53 
-923.603 438.885 3495.25 
-924.073 438.827 3493.8 
-924.527 438.741 3492.4 
-927.537 439.022 3490.95 
-925.974 438.85 3490.98 
-924.914 438.699 3491.09 
-919.394 439.681 3503.1 
-921.48 439.441 3501.46 
-914.267 441.11 3510.91 
-912.186 441.58 3514.34 
-909.37 442.541 3517.91 
-922.543 439.121 3497.87 
-921.454 438.981 3499.47 
-921.882 439 3498.27 
-907.362 443.417 3521.69 
-924.005 477.456 3501.22 
-926.939 475.931 3497.74 
-925.911 476.466 3498.82 
-924.86 477.015 3499.81 
-923.178 477.932 3502.03 
-922.387 478.358 3504.03 
-921.454 478.973 3505.73 
-926.757 476.062 3496.94 
-915.975 481.525 3512.08 
-918.281 480.683 3509.33 
-914.329 482.242 3513.63 
-923.121 474.89 3487.66 
-922.692 474.913 3487.09 
-922.396 474.652 3486.02 
-921.55 472.519 3479.31 
-923.961 475.556 3490.07 
-920.464 471.525 3475.74 
-925.736 476.259 3494.03 
-918.291 469.732 3470.21 
-920.774 468.273 3470.24 
-918.579 468.938 3469.3 
-924.347 466.975 3471.53 
-926.388 466.692 3472.91 
-928.041 466.249 3473.67 
-929.198 466.324 3474.58 
-931.388 466.743 3476.44 
-926.419 476.263 3496.14 
-934.438 466.563 3478.15 
-936.801 466.187 3479.28 
-939.239 465.986 3480.81 
-943.443 464.841 3482.75 
-940.106 465.471 3480.92 
-946.123 464.566 3484.5 
-953.085 463.736 3487.93 
-950.37 464.162 3486.85 
-948.888 464.256 3486.08 
-947.711 464.508 3485.55 
-968.795 461.95 3498.7 
-966.606 461.721 3496.95 
-961.179 463.02 3493.58 
-959.185 463.451 3492.11 
-957.38 463.582 3490.53 
-957.064 463.127 3489.82 
-956.625 463.019 3489.35 
-962.505 462.452 3494.18 
-964.637 461.987 3495.55 
-916.959 499.344 3499.84 
-916.591 497.679 3500.82 
-915.759 494.65 3502.57 
-917.355 500.237 3498.8 
-917.722 500.856 3497.87 
-916.96 502.051 3498.66 
-916.51 503.259 3498.83 
-915.821 504.836 3499.11 
-912.91 490.9 3508.08 
-914.184 492.364 3505.49 
-911.004 489.185 3512.2 
-912.616 489.242 3509.42 
-912.73 489.91 3508.87 
-897.981 589.265 3409.8 
-897.883 589.416 3408.72 
-896.356 590.15 3406.25 
-897.055 589.971 3407.16 
-894.665 587.041 3404.42 
-904.923 573.476 3399.37 
-906.09 572.418 3399.99 
-907.924 570.705 3400.35 
-909.25 569.123 3400.76 
-909.155 569.303 3400.29 
-908.278 570.375 3400.04 
-913.657 554.323 3417.56 
-910.291 567.354 3401.32 
-910.487 566.9 3401.43 
-910.779 565.233 3402.9 
-910.547 564.605 3404.81 
-910.632 562.158 3408.32 
-910.526 562.908 3407.29 
-910.724 561.265 3409.16 
-911.253 557.489 3407.48 
-911.426 556.904 3407.15 
-911.748 556.579 3410 
-911.193 558.196 3409 
-912.59 554.693 3412.46 
-912.437 555.915 3414.64 
-912.96 553.923 3413.67 
-910.817 560.426 3409.77 
-910.925 559.712 3410.06 
-911.04 559.043 3409.32 
