-610.016 142.977 4756.27
-602.875 147.591 4753.12
-613.683 138.674 4761.38
-612.815 139.146 4760.19
-611.782 141.35 4757.91
-613.719 137.629 4762.81
-614.741 136.246 4765.77
-597.675 148.194 4755.2
-616.509 134.259 4769.16
-616.03 134.095 4769.52
-586.241 148.655 4755.57
-586.248 148.834 4754.56
-585.099 150.099 4750.35
-585.494 149.443 4751.63
-607.389 143.808 4754.85
-606.752 144.042 4754.59
-608.517 143.366 4755.46
-606.53 144.443 4754.35
-609.517 142.872 4756.14
-604.637 145.869 4753.54
-605.741 144.019 4754.42
-605.218 144.462 4754.18
-604.05 145.668 4753.67
-610.561 142.115 4757
-603.443 146.658 4753.34
-601.86 147.395 4753.56
-600.173 148.017 4754.03
-613.386 138.186 4761.67
-613.134 138.748 4760.81
-612.062 140.242 4758.79
-611.035 141.187 4757.68
-611.024 141.875 4757.34
-611.36 140.61 4758.19
-614.238 136.658 4764.67
-614.82 135.681 4766.84
-615.586 134.472 4769.05
-585.738 149.106 4752.51
-585.985 148.807 4753.14
-585.697 148.198 4755.22
-586.173 148.848 4753.82
-584.353 150.074 4749.72
-583.943 150.14 4749.4
-585.166 149.556 4750.89
-606.996 143.361 4754.94
-607.989 143.423 4755.23
-606.402 143.53 4754.74
-609.055 142.695 4756.03
-608.316 142.842 4755.63
-609.909 142.019 4756.76
-605.623 143.275 4754.69
-605.128 143.921 4754.37
-603.027 147.001 4753.27
-602.494 147.078 4753.38
-613.59 137.99 4762.16
-612.842 138.327 4760.99
-612.347 139.52 4759.49
-611.769 139.637 4759.04
-610.589 140.889 4757.64
-610.22 141.458 4757.21
-610.916 140.348 4758.13
-613.357 137.22 4762.96
-614.092 136.935 4764.17
-614.322 136.3 4765.44
-598.194 148.03 4754.97
-616.2 133.902 4770.1
-585.799 148.469 4754.17
-583.516 149.875 4749.25
-582.306 150.571 4748.24
-584.619 149.776 4750.17
-585.082 148.744 4751.57
-584.746 149.213 4750.76
-585.36 148.821 4752.12
-606.368 142.85 4755
-607.094 142.784 4755.23
-607.525 142.571 4755.46
-608.888 142.194 4756.2
-608.022 142.193 4755.8
-609.485 141.658 4756.75
-604.743 144.85 4753.98
-604.707 143.196 4754.58
-604.742 141.992 4754.95
-604.575 143.845 4754.34
-604.009 144.75 4753.97
-603.364 146.149 4753.54
-603.5 145.499 4753.72
-601.975 146.894 4753.56
-612.695 138.632 4760.57
-613.001 137.746 4761.79
-612.227 139.099 4759.75
-611.36 140.128 4758.5
-610.139 140.584 4757.58
-609.77 141.169 4757.12
-610.543 139.977 4758.12
-613.616 137.105 4763.48
-615.477 133.957 4770.01
-597.785 147.657 4755.12
-585.494 148.516 4752.91
-585.094 147.69 4754.77
-585.416 148.102 4753.96
-585.67 148.526 4753.52
-584.097 149.563 4749.88
-584.361 149.138 4750.44
-606.434 142.275 4755.23
-607.05 141.865 4755.58
-608.609 141.576 4756.35
-607.666 141.393 4755.98
-609.039 141.265 4756.7
-604.113 143.491 4754.4
-603.862 142.714 4754.62
-602.856 142.081 4754.61
-602.907 141.298 4754.92
-604.405 140.258 4755.44
-603.22 140.607 4755.2
-605.818 140.216 4755.74
-605.319 138.18 4756.29
-603.037 145.684 4753.67
-602.864 146.296 4753.51
-601.436 147.169 4753.71
-599.916 147.486 4754.24
-612.223 138.224 4760.45
-613.002 137.289 4762.38
-611.681 138.779 4759.54
-611.098 139.517 4758.71
-610.625 139.525 4758.38
-609.402 140.768 4757.1
-609.94 140.111 4757.7
-610.061 139.424 4758.06
-613.953 135.933 4765.68
-614.877 134.051 4769.78
-614.455 135.274 4767.36
-615.667 133.597 4770.75
-597.07 147.757 4755.48
-585.017 147.721 4753.75
-584.494 147.154 4754.32
-583.365 149.387 4749.45
-584.812 148.809 4751.06
-585.142 148.384 4752.39
-606.395 140.336 4755.88
-606.895 139.82 4756.22
-608.204 140.985 4756.39
-607.293 139.389 4756.54
-608.747 140.605 4756.8
-603.404 143.441 4754.31
-603.925 144.043 4754.18
-603.068 142.738 4754.48
-602.152 141.95 4754.45
-602.457 142.455 4754.36
-602.329 141.4 4754.74
-602.307 140.911 4755.01
-603.883 139.495 4755.59
-604.537 136.916 4756.55
-602.817 140.023 4755.31
-602.149 140.038 4755.24
-606.045 137.435 4756.79
-605.22 136.345 4756.93
-604.554 135.647 4756.99
-603.043 145.099 4753.83
-603.561 144.526 4753.98
-602.389 146.586 4753.55
-613.732 136.512 4764.45
-612.58 137.824 4761.19
-612.08 137.621 4760.84
-613.107 136.623 4763.35
-613.286 136.431 4763.89
-612.201 138.65 4760.09
-611.109 138.385 4759.33
-611.225 138.911 4759.12
-610.746 138.967 4758.73
-610.238 138.95 4758.38
-609.257 140.054 4757.32
-609.6 139.519 4757.73
-609.008 137.952 4758.04
-613.695 135.98 4765.21
-584.645 147.378 4753.53
-585.029 147.9 4753.17
-583.966 148.999 4750.16
-584.596 148.25 4751.25
-584.816 148.2 4751.85
-584.346 148.493 4750.82
-606.059 136.503 4757.14
-607.696 139.199 4756.81
-608.109 138.958 4757.11
-603.066 143.859 4754.1
-602.274 143.308 4754.12
-601.69 141.501 4754.59
-601.81 141.083 4754.87
-601.581 140.464 4755.07
-601.499 139.973 4755.2
-603.901 137.164 4756.34
-603.113 138.817 4755.73
-603.509 134.434 4757.2
-603.357 133.331 4757.57
-602.253 139.39 4755.46
-601.57 139.472 4755.38
-605.221 135.409 4757.27
-601.896 146.268 4753.64
-599.835 146.816 4754.22
-599.396 147.189 4754.44
-598.403 147.559 4754.85
-611.466 138.267 4759.7
-611.818 137.768 4760.43
-612.604 137.508 4761.6
-610.298 137.544 4759.19
-610.641 138.431 4758.94
-610.783 137.664 4759.53
-611.201 137.692 4759.87
-609.656 137.766 4758.57
-609.066 137.458 4758.31
-608.386 138.528 4757.42
-608.558 137.97 4757.76
-613.783 135.28 4766.57
-584.175 146.864 4754.06
-583.447 148.979 4749.75
-583.048 149.609 4749.09
-581.861 150.369 4748.13
-583.89 147.794 4751.02
-584.673 147.728 4752.49
-583.753 148.296 4750.43
-605.014 133.771 4757.89
-606.683 136.297 4757.49
-602.444 143.984 4753.93
-601.882 142.958 4753.99
-601.086 142.071 4753.96
-601.568 141.902 4754.3
-600.785 140.391 4754.95
-600.871 139.616 4755.29
-603.336 137.157 4756.25
-602.821 133.772 4757.31
-602.509 137.587 4756.04
-602.377 138.488 4755.78
-602.391 131.9 4757.9
-601.617 138.955 4755.57
-600.955 139.148 4755.47
-604.08 133.274 4757.8
-602.347 131.279 4758.13
-603.099 130.809 4758.55
-602.305 145.801 4753.65
-602.545 145.148 4753.74
-602.724 144.683 4753.8
-601.39 146.276 4753.73
-612.405 136.909 4761.98
-612.125 137.223 4761.27
-611.553 137.112 4760.72
-612.922 136.793 4762.86
-613.257 135.64 4765.07
-612.908 136.189 4763.63
-609.059 136.18 4759.01
-609.835 136.326 4759.56
-608.503 134.741 4759.44
-610.598 136.864 4759.9
-611.221 137.178 4760.28
-607.456 134.78 4758.65
-607.31 135.222 4758.32
-606.21 131.705 4759.54
-613.38 135.038 4766.34
-615.667 133.406 4771.35
-584.043 146.959 4752.95
-584.174 147.612 4751.52
-584.164 147.31 4751.93
-583.322 148.454 4749.94
-603.712 130.805 4758.76
-605.632 133.524 4758.28
-604.272 131.002 4758.89
-605.827 132.411 4758.93
-601.902 144.048 4753.77
-601.699 143.448 4753.88
-600.645 142.462 4753.52
-600.012 142.866 4752.77
-601.221 141.309 4754.66
-600.628 140.944 4754.54
-600.26 139.333 4755.36
-601.695 136.901 4756.2
-601.571 137.908 4755.91
-602.565 134.295 4757.08
-601.44 138.388 4755.77
-600.9 138.612 4755.66
-600.352 138.861 4755.54
-602.92 129.803 4758.92
-602.066 145.306 4753.65
-600.048 146.394 4753.96
-612.469 136.473 4762.57
-611.229 136.383 4760.96
-611.522 136.308 4761.4
-611.823 136.245 4761.86
-610.576 136.034 4760.5
-612.473 135.989 4763.22
-606.737 132.19 4759.62
-608.655 133.8 4760.17
-608.011 133.2 4760.01
-610.051 135.8 4760.13
-604.66 130.033 4759.54
-605.383 129.846 4760.03
-614.918 133.364 4770.97
-583.727 146.392 4753.53
-584.237 147.215 4752.42
-582.944 148.861 4749.35
-582.588 149.258 4748.94
-603.767 129.587 4759.33
-604.039 129.031 4759.69
-600.883 143.768 4753.29
-600.776 143.197 4753.29
-600.177 143.447 4752.46
-600.32 141.995 4753.61
-599.527 142.473 4752.77
-600.794 141.478 4754.34
-599.7 143.172 4752.23
-599.34 142.765 4752.03
-600.294 140.1 4754.94
-600.365 141.108 4754.11
-599.767 139.018 4755.46
-601.773 131.874 4757.78
-601.067 131.444 4757.8
-601.839 130.858 4758.18
-601.29 135.946 4756.49
-600.837 137.148 4756.12
-601.631 133.925 4757.12
-600.546 137.808 4755.95
-602.139 130.363 4758.45
-602.046 129.508 4758.75
-599.953 138.385 4755.71
-602.981 128.909 4759.28
-602.366 128.78 4759.11
-601.477 145.718 4753.69
-601.799 144.715 4753.63
-601.353 144.185 4753.53
-598.564 146.863 4754.53
-612.142 135.912 4762.77
-611.793 135.806 4762.32
-610.557 135.212 4761.15
-610.171 135.128 4760.77
-611.28 135.653 4761.7
-608.758 133.269 4760.65
-609.162 133.5 4760.93
-612.639 135.513 4764.13
-612.887 135.274 4764.93
-613.118 134.598 4766.66
-614.191 134.011 4769.35
-606.112 129.994 4760.39
-607.681 131.24 4760.95
-606.911 131.087 4760.38
-606.319 129.663 4760.74
-604.419 128.407 4760.12
-603.499 127.122 4760.2
-604.489 127.479 4760.57
-605.519 127.663 4761.15
-605.14 127.361 4761.02
-583.393 145.908 4753.06
-583.52 147.342 4751.1
-583.776 146.895 4751.85
-583.359 147.775 4750.49
-583.025 147.839 4750.01
-582.899 148.257 4749.62
-602.89 127.993 4759.58
-602.441 126.489 4759.99
-600.665 143.638 4752.84
-599.13 142.039 4752.75
-599.775 141.572 4753.55
-599.324 141.343 4753.4
-599.712 139.765 4754.99
-599.128 139.491 4755.27
-600.031 140.574 4754.41
-599.62 140.684 4754.14
-598.719 138.63 4755.62
-601.331 129.888 4758.44
-600.337 136.589 4756.32
-600.703 135.254 4756.7
-600.972 133.663 4757.17
-599.937 137.281 4756.12
-601.118 132.011 4757.65
-599.447 137.753 4755.97
-600.471 131.768 4757.69
-598.984 138.044 4755.86
-601.699 128.732 4758.89
-601.81 127.638 4759.31
-601.32 128.114 4758.96
-600.145 145.852 4753.61
-601.291 145.161 4753.55
-600.384 145.319 4753.24
-598.989 146.44 4754.12
-599.446 145.975 4753.67
-611.683 135.236 4762.78
-612.105 135.414 4763.3
-611.344 135.33 4762.12
-609.837 133.732 4761.56
-609.444 133.343 4761.39
-608.081 131.346 4761.3
-608.461 131.501 4761.62
-612.318 134.931 4764.3
-607.303 129.774 4761.54
-605.992 127.475 4761.62
-602.451 124.83 4760.65
-600.056 124.665 4759.63
-602.829 124.22 4761.06
-603.559 124.565 4761.33
-615.332 133.183 4771.83
-614.586 132.909 4771.37
-583.724 146.571 4752.57
-582.54 148.356 4749.15
-582.09 149.056 4748.7
-583.134 146.941 4751.06
-601.457 126.606 4759.57
-599.673 125.339 4759.19
-600.706 144.176 4753.04
-598.979 142.164 4751.91
-598.365 139.347 4755.25
-599.026 140.193 4754.54
-598.815 140.735 4753.82
-598.615 141.085 4753.07
-598.564 141.445 4751.83
-597.866 138.746 4755.56
-600.656 131.091 4757.88
-601.066 130.361 4758.21
-600.851 129.864 4758.3
-599.188 136.793 4756.32
-599.554 136.087 4756.54
-599.793 134.534 4756.96
-600.315 133.403 4757.23
-600.434 132.316 4757.54
-598.801 137.264 4756.16
-598.236 137.636 4756.02
-597.811 137.976 4755.88
-601.071 129.101 4758.57
-600.94 128.589 4758.66
-600.525 128.808 4758.44
-597.304 138.21 4755.77
-600.865 127.453 4759.02
-600.801 126.813 4759.23
-600.618 128.066 4758.71
-600.366 144.922 4752.71
-611.922 134.908 4763.59
-611.47 134.58 4763.18
-611.194 134.784 4762.48
-610.408 134.704 4761.44
-610.131 133.517 4762.15
-608.873 131.84 4761.85
-609.381 132.353 4762.13
-607.702 129.892 4761.91
-608.195 130.138 4762.3
-612.754 134.056 4766.61
-613.763 133.206 4769.76
-604.399 124.802 4761.77
-606.915 127.616 4762.4
-605.215 125.024 4762.28
-599.036 123.915 4759.41
-601.105 122.886 4760.81
-598.299 124.591 4758.63
-602.75 122.877 4761.61
-601.793 122.083 4761.49
-603.065 122.564 4761.99
-603.695 123.229 4762.04
-614.989 132.809 4771.94
-582.613 147.818 4749.52
-599.538 125.803 4758.95
-600.104 144.226 4752.09
-600.894 144.593 4753.37
-598.297 140.024 4754.53
-597.927 139.746 4754.72
-597.444 139.306 4755.05
-598.298 140.557 4753.77
-597.034 138.917 4755.42
-599.93 130.879 4757.84
-600.442 130.561 4758.02
-598.233 136.016 4756.65
-597.885 136.688 4756.44
-599.008 135.266 4756.83
-599.548 133.5 4757.25
-598.561 134.515 4757.09
-600.012 132.632 4757.44
-599.977 132.006 4757.6
-597.629 137.234 4756.25
-597.207 137.572 4756.1
-599.866 128.532 4758.26
-596.494 138.384 4755.7
-600.316 127.59 4758.76
-599.635 126.539 4758.74
-599.946 127.863 4758.51
-599.951 145.185 4752.9
-611.798 134.276 4764.11
-610.927 134.158 4762.73
-611.384 134.001 4763.68
-610.568 133.923 4762.4
-610.033 132.752 4762.73
-609.299 131.694 4762.56
-608.835 130.858 4762.58
-608.172 129.362 4762.79
-607.576 127.992 4762.9
-613.556 132.719 4770.04
-614.34 132.427 4771.51
-604.449 123.78 4762.35
-604.704 123.434 4762.77
-606.323 125.355 4763.11
-605.878 125.048 4762.85
-598.758 123.289 4759.49
-600.701 121.884 4761.05
-601.266 121.127 4761.68
-602.039 121.431 4761.96
-604.13 122.567 4762.84
-603.17 121.873 4762.47
-615.38 132.94 4772.3
-583.327 146.34 4751.91
-581.393 150.113 4747.93
-582.9 147.39 4750.37
-598.089 125.084 4758.24
-600.06 144.817 4752.26
-597.297 139.773 4754.5
-597.791 140.083 4754.09
-596.711 139.502 4754.7
-596.379 139.139 4755.1
-596.116 138.794 4755.41
-598.268 140.869 4752.22
-595.772 138.36 4755.69
-599.783 131.356 4757.71
-599.76 130.387 4757.89
-598.099 135.36 4756.89
-597.208 135.796 4756.86
-597.16 136.329 4756.66
-596.826 136.875 4756.48
-597.831 134.373 4757.22
-597.576 135.104 4757.05
-596.639 137.308 4756.27
-596.262 137.771 4756.04
-599.432 128.08 4758.21
-598.496 125.513 4758.39
-599.262 126.952 4758.41
-599.263 145.596 4753.36
-612.149 133.687 4765.8
-611.04 133.517 4763.61
-610.605 133.202 4763.2
-611.53 133.5 4764.62
-609.896 132.094 4763.14
-609.466 131.377 4763.07
-607.937 127.766 4763.52
-607.203 126.429 4763.42
-614.01 131.957 4771.57
-614.651 132.272 4772.06
-604.589 122.37 4763.4
-604.208 122.087 4763.24
-606.085 124.164 4763.63
-605.546 123.789 4763.32
-604.986 122.693 4763.56
-597.8 124.623 4758.16
-598.799 122.673 4759.77
-600.622 121.157 4761.33
-601.492 120.365 4762.22
-601.017 120.253 4762.03
-603.483 121.408 4763.05
-602.352 120.722 4762.6
-583.151 145.593 4752.65
-582.898 146.206 4751.51
-582.483 147.335 4749.9
-597.364 124.607 4757.61
-597.87 125.421 4757.76
-596.527 139.691 4754
-597.196 140.051 4753.18
-597.917 140.375 4752.97
-595.88 139.349 4754.62
-595.486 138.995 4754.95
-599.289 130.845 4757.69
-599.155 131.652 4757.64
-600.057 129.716 4758.09
-596.628 135.592 4757.02
-596.451 136.122 4756.84
-599 133.459 4757.32
-599.043 132.74 4757.48
-596.913 134.892 4757.2
-599.073 128.418 4757.96
-598.534 127.295 4757.9
-598.752 126.073 4758.39
-598.259 125.873 4758.1
-612.085 133.229 4766.38
-612.925 132.282 4769.5
-610.524 132.656 4763.65
-611.07 132.976 4764.29
-611.618 132.952 4765.61
-609.917 131.513 4763.69
-609.475 130.531 4763.82
-608.773 130.145 4763.08
-606.625 124.672 4763.88
-607.034 125.271 4763.99
-613.468 131.401 4771.46
-614.222 131.691 4772.15
-603.876 121.134 4763.62
-604.313 121.372 4763.88
-603.386 120.873 4763.35
-605.982 123.392 4764.06
-605.532 123.108 4763.8
-605.027 122.278 4763.92
-597.49 123.924 4758.28
-597.854 123.793 4758.68
-599.087 121.967 4760.24
-600.595 120.34 4761.76
-600.525 118.473 4762.86
-601.405 118.809 4763.22
-600.955 118.407 4763.19
-602.722 120.234 4763.2
-615.111 132.204 4772.69
-580.978 149.828 4747.8
-581.978 148.479 4748.71
-582.501 145.905 4751.33
-582.77 145.501 4752.14
-582.712 146.925 4750.59
-582.517 146.447 4750.79
-582.136 147.949 4749.03
-597.689 140.394 4752.19
-598.046 140.675 4751.67
-595.242 138.566 4755.33
-599.211 130.155 4757.77
-599.474 128.8 4758.03
-595.922 136.216 4756.83
-596.059 135.412 4757.15
-595.904 136.956 4756.51
-595.847 137.419 4756.26
-597.105 134.242 4757.34
-596.239 134.861 4757.29
-597.956 133.684 4757.37
-598.549 132.856 4757.5
-598.667 131.288 4757.67
-598.359 126.525 4758.05
-597.956 126.631 4757.73
-598.686 128.654 4757.73
-598.218 127.786 4757.57
-612.625 131.854 4769.45
-610.44 132.093 4764.05
-611.062 132.437 4764.95
-611.63 132.183 4766.64
-612.206 132.007 4768.34
-610.094 130.743 4764.72
-609.615 130.212 4764.34
-608.71 128.178 4764.4
-608.412 127.897 4764.11
-606.466 123.874 4764.29
-613.02 130.903 4771.4
-613.664 131.059 4772.23
-614.002 130.984 4772.81
-602.922 119.196 4764.23
-602.409 118.692 4764.17
-605.921 122.89 4764.4
-597.386 123.471 4758.5
-598.292 122.304 4759.66
-600.106 120.384 4761.51
-600.067 118.64 4762.52
-600.313 116.309 4764.21
-600.021 115.465 4764.54
-600.815 116.47 4764.45
-601.656 118.292 4763.8
-615.363 132.729 4772.8
-581.64 149.195 4748.34
-582.322 145.354 4751.69
-582.286 146.783 4750.19
-597.3 125.037 4757.25
-597.618 125.626 4757.34
-598.55 130.666 4757.72
-599.254 129.321 4757.87
-595.483 136.677 4756.65
-595.521 137.862 4756.02
-598.668 132.02 4757.6
-598.05 132.578 4757.62
-598.135 131.856 4757.64
-598.023 126.129 4757.69
-612.571 130.777 4770.78
-610.493 131.499 4764.77
-610.947 131.55 4765.73
-611.639 131.382 4767.67
-612.182 130.832 4769.88
-609.466 129.002 4765.14
-608.962 128.219 4764.84
-610.37 130.386 4765.69
-607.888 125.772 4764.88
-607.569 125.55 4764.53
-606.832 124.198 4764.52
-606.298 123.191 4764.64
-613.298 130.396 4772.4
-612.831 130.329 4771.71
-613.335 130.07 4772.91
-602.284 117.392 4765.14
-601.853 116.816 4765.14
-604.029 119.791 4764.97
-603.468 119.096 4764.92
-605.296 121.857 4764.57
-605.791 122.247 4764.86
-597.434 122.964 4758.89
-597.22 124.122 4757.8
-598.692 121.492 4760.31
-600.224 114.702 4765.14
-599.69 116.412 4763.74
-599.112 114.618 4764.51
-599.384 113.776 4765.2
-600.749 114.923 4765.43
-600.632 113.741 4766.09
-614.681 132.284 4774.58
-614.509 131.291 4773.1
-613.505 129.962 4773.4
-582.234 147.517 4749.39
-598.437 130.069 4757.73
-598.675 129.341 4757.71
-598.125 128.803 4757.58
-595.26 136.196 4756.85
-595.315 135.269 4757.23
-595.762 134.649 4757.4
-597.162 133.468 4757.53
-597.692 133.05 4757.55
-598.003 131.23 4757.7
-597.604 126.925 4757.38
-597.331 127.288 4757.1
-612.161 129.846 4771.08
-610.931 130.654 4766.75
-611.434 130.36 4768.52
-611.815 129.958 4770.09
-609.099 127.548 4765.72
-608.288 126.014 4765.43
-609.847 128.82 4766.21
-607.79 125 4765.38
-607.467 124.683 4765.06
-606.967 123.695 4765.12
-606.151 122.457 4765.15
-612.509 129.709 4771.93
-612.408 129.345 4772.28
-602.046 116.387 4765.61
-601.362 115.176 4765.79
-601.561 114.701 4766.31
-603.431 117.811 4766.07
-603.041 117.687 4765.73
-602.466 116.478 4766
-604.655 120.178 4765.42
-597.022 124.585 4757.2
-598.147 121.685 4759.96
-596.991 123.176 4758.37
-596.847 123.457 4757.92
-599.498 118.967 4762.07
-599.833 113.124 4765.85
-599.12 111.964 4766.04
-599.195 116.779 4763.29
-598.609 115.241 4763.94
-598.617 113.367 4765.02
-598.461 112.087 4765.63
-600.873 112.782 4766.93
-600.446 112.348 4766.81
-599.937 111.887 4766.69
-614.506 132.115 4775.06
-581.265 148.867 4748.09
-581.599 148.108 4748.73
-582.142 146.053 4750.79
-581.873 145.189 4751.17
-581.749 146.53 4749.9
-597.492 128.855 4757.41
-597.756 128.044 4757.3
-595.207 137.462 4756.28
-594.803 138.314 4755.7
-595.044 134.663 4757.46
-596.226 134.009 4757.51
-596.34 133.419 4757.67
-596.802 133.018 4757.69
-597.573 132.291 4757.69
-597.105 132.134 4757.83
-597.42 131.009 4757.78
-597.875 130.707 4757.76
-597.439 131.78 4757.71
-596.94 131.244 4757.89
-611.598 129.092 4770.69
-611.832 129.03 4771.39
-610.226 128.874 4767.1
-610.67 128.843 4768.44
-611.068 128.815 4769.63
-608.642 125.953 4766.21
-608.103 125.137 4765.85
-608.877 126.079 4766.69
-607.636 124.318 4765.71
-605.371 120.663 4765.94
-605.449 120.216 4766.58
-606.56 122.205 4766.09
-611.62 128.422 4771.78
-601.958 114.597 4766.79
-601.13 112.349 4767.49
-603.952 118.383 4766.26
-603.696 117.564 4766.66
-603.237 116.778 4766.67
-602.951 116.924 4766.23
-602.602 115.371 4766.94
-604.711 118.891 4766.93
-596.788 123.856 4757.49
-596.502 124.356 4757.12
-596.998 122.704 4758.84
-599.328 111.488 4766.46
-598.264 109.553 4766.77
-598.232 114.702 4764.12
-598.361 113.927 4764.61
-597.72 111.904 4765.35
-597.697 109.573 4766.44
-600.044 109.76 4768.05
-599.401 109.535 4767.6
-615.179 132.495 4773.43
-615.264 132.008 4773.23
-614.307 131.949 4775.58
-614.703 131.111 4773.72
-612.859 129.149 4773.5
-611.761 128.228 4772.56
-597.085 125.29 4756.83
-597.699 130.139 4757.8
-597.344 129.33 4757.57
-597.215 128.238 4757.26
-594.808 136.793 4756.54
-594.698 135.438 4757.21
-595.713 133.824 4757.66
-594.815 134.363 4757.82
-595.78 133.256 4757.82
-596.207 132.847 4757.86
-596.612 132.377 4757.92
-595.936 130.485 4757.95
-596.535 130.337 4757.82
-597.005 130.029 4757.82
-597.672 126.36 4757.24
-611.013 128.217 4770.35
-611.242 128.19 4771.08
-609.229 126.394 4767.27
-609.519 126.547 4767.97
-610.35 127.499 4769.36
-608.121 124.726 4766.26
-606.873 123.219 4765.46
-605.933 120.612 4766.93
-605.292 119.173 4767.58
-604.896 118.718 4767.42
-611.049 127.342 4772.11
-610.984 127.528 4771.49
-601.994 112.689 4768.2
-601.353 112.002 4767.95
-600.259 109.371 4768.49
-604.038 117.55 4767.19
-603.692 116.765 4767.33
-603.154 115.43 4767.6
-602.555 112.664 4768.93
-604.395 118.155 4767.17
-596.528 122.963 4757.58
-596.036 123.451 4757.48
-596.034 124.14 4757.31
-597.531 121.602 4759.79
-599.096 119.153 4761.82
-596.641 122.633 4758.07
-598.733 108.747 4767.51
-596.768 106.204 4767.65
-597.302 106.151 4767.98
-598.304 115.762 4763.51
-598.625 117.509 4762.65
-597.99 114.216 4764.31
-597.931 113.401 4764.7
-597.551 112.382 4765.04
-597.101 109.736 4766.07
-598.504 106.035 4768.92
-597.787 106.011 4768.38
-615.226 132.046 4773.83
-614.111 131.782 4776.1
-612.536 128.761 4773.5
-611.295 127.414 4772.78
-581.547 145.756 4750.49
-581.552 146.884 4749.41
-597.365 125.809 4756.93
-594.408 137.469 4756.27
-594.395 135.098 4757.67
-595.207 134.041 4757.77
-594.39 134.489 4758.06
-595.568 132.561 4758.08
-596.017 132.144 4758.11
-596.427 131.575 4758.08
-596 131.368 4758.24
-595.013 130.599 4758.6
-596.075 129.541 4757.62
-595.449 129.534 4757.82
-596.648 129.429 4757.6
-610.524 127.306 4770.29
-608.23 124.179 4767.25
-608.916 125.234 4767.88
-609.307 125.606 4768.79
-607.592 123.496 4766.51
-607.21 123.076 4766.26
-605.506 119.095 4768.04
-605.041 118.452 4767.95
-604.653 118.118 4767.63
-610.382 126.601 4771.28
-610.484 126.451 4772.21
-610.215 126.657 4770.45
-600.663 109.481 4768.85
-601.046 109.306 4769.4
-599.07 106.233 4769.3
-604.449 117.518 4767.86
-604.159 116.75 4768.04
-603.744 115.483 4768.39
-603.593 113.367 4769.82
-603.131 110.857 4771.14
-595.639 122.94 4757.7
-596.052 122.71 4757.39
-596.531 122.156 4759.04
-598.228 119.673 4761.27
-595.924 124.758 4757.22
-596.259 104.012 4768.54
-595.99 104.351 4768.25
-596.796 104.255 4768.72
-598.27 116.466 4763.1
-597.883 115.133 4763.74
-596.531 108.09 4766.58
-596.362 106.461 4767.34
-598.27 104.262 4769.82
-597.37 104.011 4769.22
-615.116 131.795 4774.32
-613.932 131.624 4776.58
-614.625 130.726 4774.23
-612.618 128.49 4774.14
-610.947 126.784 4773.03
-580.981 148.459 4747.96
-581.668 147.643 4749.04
-581.877 145.01 4750.54
-596.656 125.006 4756.94
-596.68 125.666 4756.82
-594.189 136.871 4756.81
-593.972 136.138 4757.42
-595.224 133.527 4758.07
-594.759 133.741 4758.29
-593.806 135.455 4757.95
-595.497 131.825 4758.31
-595.107 133.077 4758.33
-595.53 131.326 4758.42
-594.179 130.663 4759.24
-594.557 130.59 4758.91
-594.131 129.178 4758.83
-593.643 129.244 4759.3
-594.6 129.099 4758.37
-595.026 129.151 4758.03
-594.719 128.17 4758.11
-607.739 122.593 4768.32
-607.268 121.79 4768.25
-609.233 125.199 4769.42
-607.798 122.369 4769
-606.963 121.418 4768.03
-606.406 121.307 4766.96
-605.792 119.102 4768.57
-605.913 119.611 4768.14
-605.376 118.6 4768.38
-605.124 118.126 4768.46
-604.762 117.797 4768.15
-609.778 125.515 4771.65
-609.602 125.444 4770.78
-610.116 125.79 4772.57
-599.68 106.306 4769.88
-601.453 108.466 4770.59
-599.88 106.011 4770.32
-599.06 104.432 4770.54
-604.644 116.9 4768.73
-604.223 115.711 4768.98
-604.497 113.779 4770.72
-604.247 111.597 4772.04
-602.838 109.408 4771.92
-604.438 110.672 4773.05
-596.044 122.172 4757.36
-595.598 122.222 4757.63
-596.383 122.242 4758.41
-595.573 123.687 4757.55
-596.566 121.477 4759.51
-597.468 120.611 4760.51
-597.746 119.52 4761.28
-597.106 103.565 4769.29
-596.511 103.451 4768.98
-598.202 118.17 4762.17
-596.969 110.477 4765.69
-596.509 109.433 4765.98
-595.911 105.788 4767.5
-595.864 103.433 4768.62
-598.371 103.517 4770.33
-598.769 103.68 4770.68
-597.799 103.331 4769.95
-613.143 128.783 4774.78
-611.967 127.671 4774.23
-610.485 126.022 4773.3
-581.149 147.91 4748.56
-581.303 146.188 4749.65
-596.22 125.287 4757.04
-596.908 128.822 4757.35
-597.219 126.946 4756.69
-594.291 133.862 4758.54
-593.506 135.012 4758.46
-595.002 131.385 4758.68
-595.045 132.385 4758.51
-594.553 131.75 4759.03
-593.6 130.694 4759.74
-593.228 129.521 4759.75
-594.234 128.23 4758.5
-593.699 128.254 4759
-593.177 128.212 4759.47
-596.157 128.932 4757.4
-595.487 128.465 4757.69
-595.312 127.526 4757.7
-594.596 127.144 4758.08
-597.299 126.336 4756.72
-606.885 120.438 4769.55
-606.51 120.066 4769.08
-608.021 122.626 4769.52
-607.231 120.762 4770.2
-606.002 119.142 4769.04
-605.181 117.805 4768.91
-608.811 123.786 4771.23
-609.096 124.143 4772.15
-608.251 122.892 4770.19
-609.622 124.873 4772.92
-610.074 125.361 4773.73
-601.72 106.783 4772.6
-600.977 105.824 4772.12
-600.08 105.464 4770.97
-601.42 105.576 4773.17
-599.511 104.426 4771.07
-599.204 103.763 4771.12
-605.01 116.763 4769.42
-604.61 115.888 4769.44
-604.898 114.345 4770.9
-605.36 113.249 4772.11
-602.8 108.778 4772.5
-603.89 110.296 4772.66
-601.927 106.564 4773.22
-604.559 110.195 4773.49
-594.63 122.168 4758.27
-595.627 121.791 4758.3
-596.087 121.15 4759.58
-595.046 122.685 4758.03
-594.593 123.076 4757.99
-595.114 123.165 4757.81
-595.484 124.18 4757.48
-596.51 102.972 4769.21
-595.781 102.843 4768.83
-597.302 102.73 4769.84
-597.278 103.19 4769.61
-597.74 116.985 4762.7
-597.456 115.605 4763.4
-597.485 118.59 4761.77
-597.455 114.58 4763.93
-596.804 112.346 4764.77
-595.958 108.238 4766.3
-595.825 106.281 4767.2
-595.354 104.293 4768.02
-595.17 103.578 4768.26
-598.82 103.236 4770.97
-612.264 127.674 4775.13
-610.895 126.305 4774.24
-582.045 144.818 4749.68
-597.167 127.777 4757.06
-596.704 128.003 4757.05
-596.174 128.189 4757.27
-594.699 132.758 4758.75
-594.254 133.367 4758.77
-593.191 134.529 4758.99
-592.805 134.022 4759.58
-592.98 130.707 4760.3
-592.232 130.957 4761.05
-592.568 130.8 4760.71
-591.797 131.02 4761.45
-592.731 129.615 4760.23
-592.842 128.691 4759.9
-593.83 127.339 4758.65
-593.331 127.257 4759.1
-592.832 127.036 4759.51
-592.572 127.738 4759.92
-595.307 126.732 4757.62
-594.866 126.758 4757.88
-594.057 126.597 4758.34
-596.687 126.607 4756.81
-606.617 119.845 4769.68
-607.685 121.54 4770.41
-607.463 120.861 4770.93
-607.083 120.214 4770.61
-605.631 118.64 4768.82
-605.724 118.227 4769.49
-605.435 117.795 4769.38
-605.331 117.319 4769.52
-608.089 122.327 4770.79
-608.461 122.929 4771.69
-608.963 123.719 4772.51
-609.447 124.362 4773.47
-609.867 124.861 4774.54
-610.515 125.717 4774.83
-600.81 104.662 4772.84
-599.945 104.291 4771.72
-599.515 103.683 4771.55
-605.443 116.74 4770.09
-605.101 116.019 4770.03
-605.338 114.624 4771.3
-604.757 111.84 4772.43
-604.932 110.688 4773.42
-606.348 109.737 4773.65
-602.649 107.721 4773.33
-603.399 109.353 4772.92
-602.112 106.428 4773.67
-601.771 104.811 4774.4
-605.168 110.295 4773.67
-605.514 109.748 4773.83
-607.137 109.127 4773.42
-594.11 121.903 4758.56
-594.623 121.528 4758.86
-595.489 120.895 4759.67
-597.286 119.644 4761.11
-595.066 123.899 4757.67
-596.043 102.451 4769.13
-596.796 102.354 4769.61
-597.44 102.314 4770.12
-597.319 116.478 4762.89
-597.386 113.404 4764.47
-596.143 110.016 4765.58
-595.168 106.762 4766.76
-595.292 106.329 4767.01
-595.234 102.85 4768.6
-595.594 102.075 4769.02
-598.183 102.915 4770.47
-598.647 102.705 4771.07
-614.816 131.049 4774.66
-613.625 131.319 4777.43
-581.208 146.642 4749.01
-582.158 144.729 4748.89
-596.677 127.354 4756.9
-595.935 127.214 4757.31
-593.979 132.209 4759.41
-593.969 132.874 4759.16
-592.115 133.6 4760.35
-592.209 129.554 4760.7
-591.014 129.362 4761.82
-591.721 129.863 4761.23
-591.19 131.144 4761.94
-590.04 128.079 4762.61
-592.34 128.606 4760.35
-593.569 126.355 4758.66
-593.051 126.185 4759.09
-592.516 125.862 4759.51
-592.302 126.655 4759.9
-592.053 127.446 4760.33
-595.356 126.087 4757.53
-594.887 125.918 4757.79
-593.761 125.715 4758.42
-594.025 125.327 4758.23
-595.794 126.327 4757.3
-595.44 124.915 4757.39
-606.345 119.5 4769.39
-606.862 120.044 4770.16
-607.799 121.551 4771.12
-607.312 120.392 4771.12
-606.064 118.652 4769.69
-605.63 117.249 4770.06
-608.682 123.136 4772.78
-608.399 122.638 4772.57
-609.006 123.628 4773.45
-609.296 123.96 4774.64
-610.497 125.543 4775.51
-609.768 124.543 4775.46
-600.541 104.164 4772.74
-601.546 104.089 4774.55
-599.868 103.526 4772.13
-599.312 103.057 4771.63
-605.624 116.368 4770.57
-605.943 116.745 4770.86
-605.924 110.288 4773.85
-605.793 113.528 4772.46
-605.476 111.97 4773
-606.407 109.009 4774.04
-606.617 108.468 4773.95
-607.146 108.437 4773.58
-602.683 107.286 4773.8
-603.394 108.861 4773.45
-602.304 105.822 4774.43
-603.927 109.699 4773.4
-604.776 109.844 4773.78
-602.137 104.5 4775.18
-607.643 108.756 4773.23
-605.997 109.358 4773.82
-608.326 108.166 4772.97
-607.509 107.953 4773.48
-593.837 121.426 4758.91
-595.466 120.39 4760.14
-593.62 121.994 4758.64
-594.143 122.543 4758.28
-594.106 123.174 4758.12
-595.097 124.517 4757.56
-596.358 101.896 4769.5
-595.703 101.601 4769.25
-597.368 101.814 4770.25
-597.871 101.889 4770.65
-597.463 117.606 4762.3
-596.65 119.464 4761.09
-596.93 115.361 4763.44
-596.902 114.527 4763.84
-596.306 112.459 4764.61
-595.445 110.089 4765.36
-594.74 104.502 4767.73
-594.527 103.607 4768.02
-594.842 101.425 4768.92
-598.282 102.447 4770.82
-614.484 131.039 4775.8
-613.405 129.278 4775.7
-613.998 131.137 4777
-612.889 130.928 4779.11
-581.286 147.313 4748.88
-581.067 147.968 4748.06
-591.331 133.039 4761.24
-591.11 132.231 4761.72
-591.851 128.207 4760.7
-591.707 128.95 4761.02
-591.032 128.359 4761.56
-589.622 125.664 4762.53
-590.252 131.229 4762.59
-589.393 127.859 4763.23
-588.424 124.791 4763.69
-588.79 124.59 4763.23
-593.245 125.358 4758.72
-592.697 125.066 4759.15
-592.128 124.68 4759.58
-591.987 125.539 4759.92
-591.792 126.415 4760.32
-591.434 127.041 4760.82
-594.899 125.202 4757.71
-594.371 125.012 4758
-593.483 124.848 4758.5
-606.638 119.394 4770.3
-608.119 122.172 4771.59
-607.687 121.15 4771.72
-607.972 121.662 4772.47
-607.094 119.758 4771.23
-606.372 119.049 4769.95
-605.948 118.204 4769.96
-608.196 122.148 4772.63
-608.614 122.886 4773.8
-608.856 123.343 4773.86
-609.381 123.978 4776.02
-610.261 125.155 4776.15
-602.393 104.3 4775.81
-600.442 103.613 4772.96
-601.069 103.589 4774.12
-601.533 103.508 4775.03
-602.264 103.831 4776.07
-601.987 103.943 4775.45
-600.073 103.133 4772.67
-599.624 102.877 4772.17
-599.207 102.555 4771.75
-605.755 114.853 4771.65
-606.259 115.498 4771.84
-606.272 109.482 4774.24
-606.47 109.719 4775.15
-605.988 111.858 4773.37
-606.054 110.959 4774.24
-606.45 110.239 4775.5
-606.627 109.071 4775.17
-606.724 108.455 4775.02
-606.815 107.851 4773.9
-606.818 107.789 4774.81
-602.554 106.304 4774.38
-608.036 107.502 4773.29
-608.697 107.548 4772.8
-608.419 107.016 4773.17
-607.293 107.179 4773.76
-594.126 120.986 4759.37
-595.013 119.873 4760.5
-596.401 118.882 4761.41
-593.201 121.519 4758.96
-593.103 122.041 4758.72
-594.599 123.596 4757.88
-594.639 124.168 4757.78
-596.304 101.161 4769.73
-595.624 100.824 4769.47
-595.144 101.047 4769.17
-596.958 101.738 4769.95
-596.875 116.992 4762.56
-596.985 118.18 4761.92
-596.636 116.148 4762.97
-596.33 114.637 4763.69
-596.635 113.509 4764.23
-595.737 112.44 4764.51
-594.642 106.807 4766.59
-594.117 104.756 4767.48
-594.673 102.78 4768.39
-594.982 101.998 4768.79
-594.624 100.745 4769.03
-598.346 101.838 4771.14
-613.052 129.211 4776.43
-613.808 130.588 4776.68
-611.651 126.964 4775.84
-581.004 148.578 4747.24
-581.146 147.047 4748.27
-582.23 144.814 4748.13
-581.055 147.993 4747.46
-590.201 132.718 4762.25
-591.139 127.492 4761.24
-589.778 124.854 4762.16
-588.319 122.003 4763.19
-587.621 121.343 4763.87
-589.648 131.052 4763.01
-588.692 127.699 4763.69
-587.705 124.206 4764.32
-586.554 120.51 4765.2
-587.269 121.627 4764.29
-592.928 124.367 4758.79
-592.36 123.991 4759.19
-591.638 123.46 4759.75
-591.464 124.243 4760.12
-591.257 124.891 4760.5
-590.967 125.338 4760.92
-590.017 124.21 4761.74
-593.182 123.967 4758.59
-593.406 123.553 4758.42
-607.457 120.311 4772.02
-607.796 121.127 4772.56
-608.098 121.801 4773.18
-606.681 119.09 4770.8
-606.101 118.062 4770.45
-606.245 117.989 4770.97
-608.397 122.483 4773.43
-608.856 123.242 4774.81
-608.634 122.751 4774.92
-608.396 122.332 4774.35
-608.983 123.387 4775.72
-609.659 124.288 4777.07
-609.214 123.668 4776.66
-610.464 125.405 4776.62
-600.683 103.227 4773.67
-601.845 103.465 4775.62
-602.54 103.697 4776.69
-600.281 102.848 4773.19
-599.847 102.627 4772.62
-599.443 102.364 4772.18
-598.906 102.179 4771.56
-606.382 113.996 4772.64
-606.882 109.391 4776.34
-606.556 113.208 4772.8
-606.212 111.484 4774.61
-606.399 110.825 4775.8
-606.794 110.136 4776.64
-607.009 108.611 4776.21
-607.051 107.851 4775.87
-606.893 107.103 4774.44
-607.068 107.106 4775.43
-603.011 107.737 4773.95
-602.887 106.795 4774.46
-603.687 108.805 4773.97
-604.19 109.135 4774.01
-604.997 109.154 4774.05
-602.486 105.432 4774.98
-602.591 104.176 4776.32
-607.928 106.498 4773.28
-607.215 106.883 4773.25
-606.509 107.391 4773.61
-607.077 106.412 4774.2
-595.954 118.326 4761.7
-596.407 117.986 4761.95
-593.419 122.449 4758.49
-593.96 124.085 4758.15
-593.39 122.975 4758.4
-594.901 99.9998 4769.32
-595.385 100.292 4769.48
-597.172 101.304 4770.29
-597.759 101.265 4770.76
-595.935 114.195 4763.82
-596.4 115.301 4763.38
-596.046 113.663 4764.07
-594.574 108.426 4765.86
-593.814 106.178 4766.77
-593.815 103.78 4767.81
-594.025 101.252 4768.67
-594.38 99.6203 4769.24
-612.64 129.165 4777.34
-613.287 130.363 4777.67
-613.167 130.557 4778.79
-612.473 130.567 4780.22
-611.8 127.319 4776.38
-580.886 148.62 4746.62
-589.746 132.531 4762.65
-588.588 121.492 4762.8
-588.182 120.455 4763.59
-587.75 120.569 4763.89
-588.094 128.064 4764.02
-587.211 124.718 4764.63
-586.214 121.015 4765.39
-586.711 118.449 4766.07
-585.996 118.848 4766.24
-592.628 123.405 4758.86
-592.069 122.993 4759.22
-591.391 121.996 4759.71
-590.751 121.258 4760.46
-590.425 121.541 4760.78
-590.051 121.73 4761.19
-589.782 122.221 4761.56
-589.056 121.337 4762.28
-607.265 119.903 4771.75
-608.131 121.748 4774.02
-606.968 119.089 4771.71
-606.26 117.235 4771.23
-606.455 118.056 4771.48
-606.654 115.895 4772.21
-608.735 122.933 4775.49
-608.808 123.029 4776.55
-608.542 122.48 4775.8
-609.157 123.592 4777.5
-610.544 125.549 4777.1
-601.084 103.156 4774.47
-602.254 103.201 4776.62
-598.922 101.671 4771.8
-606.912 114.124 4772.94
-606.955 114.69 4772.98
-607.064 109.401 4777.26
-606.566 112.477 4773.85
-607.098 113.65 4773.02
-606.417 112.034 4774.73
-606.361 111.423 4776.16
-606.742 110.847 4777.04
-607.049 110.133 4777.7
-607.053 107.635 4776.41
-607.045 106.839 4775.94
-607.07 106.364 4774.98
-607.038 106.084 4775.48
-603.423 107.85 4774.47
-603.938 108.106 4774.42
-602.727 105.226 4775.54
-602.921 104.685 4776.39
-603.343 104.497 4776.91
-603.268 104.019 4777.07
-607.451 106.232 4773.68
-606.674 106.634 4773.9
-606.065 106.788 4774.35
-605.922 107.256 4774.19
-593.782 120.581 4759.8
-595.882 117.434 4762.26
-593.401 121.047 4759.38
-596.054 100.372 4769.8
-595.189 99.393 4769.57
-596.049 99.7786 4769.93
-595.569 99.7539 4769.69
-594.713 98.8989 4769.5
-597.049 100.623 4770.37
-598.41 101.3 4771.41
-596.15 116.654 4762.7
-595.848 115.95 4763.03
-595.401 112.795 4764.3
-595.045 110.494 4765.13
-593.829 107.13 4766.34
-593.176 104.501 4767.42
-592.816 104.929 4767.21
-593.98 102.739 4768.21
-594.188 101.839 4768.56
-593.974 100.186 4768.99
-594.229 98.8157 4769.38
-595.231 97.6006 4769.99
-612.243 129.341 4778.57
-612.728 130.127 4778.84
-612.16 130.208 4781.02
-582.074 145.541 4747.33
-581.432 147.171 4747.04
-581.291 147.901 4746.39
-588.637 120.623 4763
-588.625 120.126 4763.47
-588.074 119.451 4764.46
-587.25 119.914 4764.85
-587.823 117.601 4765.65
-589.18 131.747 4763.19
-587.726 128.448 4764.06
-586.755 125.093 4764.81
-585.956 121.908 4765.47
-584.91 118.803 4766.48
-587.282 116.606 4766.28
-586.27 116.894 4766.65
-585.178 117.351 4766.98
-591.714 121.302 4759.55
-590.888 120.79 4760.73
-589.923 120.759 4761.65
-589.434 120.838 4762.04
-589.07 120.481 4762.72
-606.724 118.753 4771.37
-607.695 120.491 4773.04
-607.398 119.767 4772.6
-608.265 121.95 4774.88
-606.891 116.386 4772.53
-608.289 121.868 4775.95
-608.492 122.504 4776.78
-608.852 123.214 4777.74
-609.427 123.99 4777.97
-610.316 125.328 4777.75
-611.685 127.603 4777.36
-602.841 103.51 4777.14
-600.751 102.64 4774.21
-601.391 102.977 4775.14
-601.731 102.986 4775.77
-602.346 102.994 4777.09
-599.856 102.11 4772.88
-600.466 102.595 4773.69
-607.173 114.581 4773.56
-606.856 113.109 4774.36
-607.065 108.508 4776.86
-607.023 107.389 4776.85
-607.046 109.106 4777.74
-606.654 112.619 4775.02
-606.286 112.036 4776.26
-606.696 111.534 4777.43
-607.032 110.793 4778.13
-607.048 109.753 4778.22
-607.012 106.539 4776.42
-607.003 105.767 4775.98
-606.989 105.099 4775.53
-603.56 107.329 4774.76
-604.441 107.546 4774.77
-603.192 106.675 4774.88
-602.898 106.122 4774.95
-605.336 108.157 4774.14
-604.852 108.168 4774.35
-605.905 107.806 4773.9
-605.493 107.317 4774.44
-603.32 105.074 4776.54
-604.501 103.927 4777.03
-607.04 105.683 4774.55
-606.463 106.006 4774.45
-606.02 106.252 4774.58
-605.586 106.758 4774.6
-607.016 105.411 4775.03
-594.635 119.483 4760.75
-593.061 120.724 4759.82
-592.628 121.597 4759.03
-592.794 121.148 4759.42
-592.549 120.873 4759.78
-592.327 122.442 4758.93
-595.912 99.258 4769.93
-595.547 98.7864 4769.83
-597.712 100.649 4770.85
-595.751 114.71 4763.59
-594.883 113.1 4764.15
-595.034 112.206 4764.49
-595.42 113.901 4763.88
-595.608 115.469 4763.24
-594.435 110.155 4765.15
-592.694 103.321 4767.76
-593.101 102.97 4767.95
-592.259 103.599 4767.63
-593.227 101.883 4768.34
-593.232 100.994 4768.6
-593.427 99.4711 4769.03
-594.044 98.2278 4769.48
-594.977 96.7327 4770.13
-595.876 96.5834 4770.45
-611.817 129.253 4779.51
-612.161 129.932 4780.22
-611.612 129.945 4782.17
-582.355 145.003 4746.45
-581.869 146.459 4746.32
-589.108 119.955 4763.16
-588.917 118.974 4764.09
-588.498 119.149 4764.31
-589.015 116.588 4765.26
-588.429 116.984 4765.49
-588.411 116.072 4765.85
-587.939 115.457 4766.23
-588.075 130.955 4763.7
-585.823 124.074 4765.5
-586.799 127.254 4764.7
-585.167 121.195 4766.06
-583.826 117.745 4767.2
-584.075 116.208 4767.64
-587.043 114.817 4766.72
-586.048 114.532 4767.15
-585.466 116.008 4767.18
-591.806 121.881 4759.22
-591.22 121.128 4760.09
-590.379 120.701 4761.27
-589.535 120.329 4762.41
-607.71 120.368 4773.53
-607.542 119.797 4773.16
-607.848 120.946 4773.36
-608.029 121.221 4774.9
-606.724 118.027 4772.15
-607.153 119.123 4772.35
-607.298 117.113 4773.36
-608.333 122.097 4777.03
-608.207 121.685 4776.53
-608.64 122.853 4777.39
-608.581 122.835 4778.31
-608.768 123.186 4778.66
-609.126 123.7 4778.72
-609.962 124.917 4778.47
-611.266 127.424 4778.5
-604.25 103.593 4777.43
-601.127 102.292 4775.13
-600.849 102.185 4774.69
-601.878 102.749 4776.35
-601.545 102.325 4775.94
-602.064 102.484 4777.09
-603.857 103.277 4777.86
-606.253 103.96 4777.35
-605.971 103.909 4777.8
-602.762 103.122 4777.72
-602.315 102.52 4777.63
-600.093 102.012 4773.33
-600.335 102.019 4773.81
-599.494 101.806 4772.52
-599.132 101.222 4772.27
-598.736 101.078 4771.78
-607.415 115.521 4773.88
-607.446 114.755 4774.12
-607.224 113.995 4775.08
-607.009 113.49 4774.95
-606.366 112.677 4776.55
-607.008 108.128 4777.78
-606.982 106.331 4776.89
-607.013 108.86 4778.27
-606.565 112.181 4777.5
-606.919 112.105 4778.7
-607.027 111.375 4778.58
-607.052 110.377 4778.64
-607.01 109.439 4778.8
-606.969 105.46 4776.47
-603.34 106.011 4775.38
-604.057 104.554 4776.55
-604.797 104.1 4776.55
-603.596 105.399 4776.2
-603.348 105.63 4775.72
-604.325 105.189 4775.97
-606.205 104.081 4776.51
-606.632 104.004 4776.94
-595.328 118.105 4761.81
-595.236 117.368 4762.31
-595.464 116.813 4762.59
-593.505 120.229 4760.26
-592.758 120.469 4760.18
-596.744 100.195 4770.27
-596.113 97.3232 4770.38
-596.17 98.6889 4770.14
-596.712 97.2077 4770.64
-597.297 100.27 4770.64
-597.804 100.063 4771.11
-598.285 100.692 4771.39
-595.214 116.282 4762.84
-594.678 113.809 4763.89
-595.168 115 4763.44
-594.908 115.538 4763.17
-593.119 107.115 4766.29
-591.998 102.268 4768.05
-592.657 102.056 4768.17
-591.817 104.932 4767.12
-591.523 102.968 4767.8
-592.749 101.082 4768.5
-592.925 99.2152 4769
-594.015 96.4665 4769.95
-594.722 96.1326 4770.21
-596.374 96.4636 4770.64
-596.316 94.7389 4770.93
-611.527 129.556 4781.16
-610.946 127.26 4779.37
-611.167 129.671 4782.98
-580.689 148.009 4744.94
-581.527 145.577 4744.99
-581.761 146.871 4745.8
-581.192 147.227 4744.97
-589.614 119.88 4762.77
-589.371 118.918 4763.8
-589.894 116.62 4764.75
-589.868 115.386 4765.17
-589.153 115.66 4765.52
-588.619 115.087 4765.99
-589.468 114.886 4765.58
-587.984 114.45 4766.44
-587.428 114.276 4766.7
-586.472 128.268 4765
-584.456 120.844 4766.58
-585.349 124.618 4765.83
-582.988 117.145 4767.76
-582.975 114.919 4768.35
-584.404 114.821 4767.86
-586.673 113.332 4767.15
-585.986 112.582 4767.48
-585.497 114.167 4767.51
-591.974 120.96 4759.86
-592.187 120.591 4760.22
-590.748 120.109 4761.6
-590.035 120.276 4762
-607.801 120.442 4774.23
-607.631 119.65 4773.77
-607.369 119.229 4773.01
-607.021 118.5 4772.53
-607.696 115.914 4774.42
-608.315 122.142 4777.73
-608.696 123.162 4779.44
-608.929 123.591 4779.67
-609.726 124.901 4779.5
-601.636 102.07 4776.46
-603.82 102.97 4778.36
-605.933 104.587 4778.24
-606.887 105.337 4777.47
-606.937 105.19 4776.95
-606.854 105.99 4777.87
-602.459 102.268 4778.23
-599.931 101.485 4773.29
-599.432 101.01 4772.73
-598.741 100.499 4771.89
-607.71 115.525 4774.96
-607.664 114.999 4774.65
-607.202 114.261 4776.23
-606.74 113.892 4777.24
-606.523 113.281 4776.93
-606.543 112.781 4777.91
-606.977 107.837 4778.22
-606.969 107.071 4777.78
-606.976 108.385 4778.69
-606.852 112.841 4779.06
-607.068 112.164 4779.58
-607.011 110.209 4779.4
-606.965 108.971 4779.2
-606.919 104.426 4776.48
-606.953 104.754 4776.01
-604.955 106.839 4774.92
-605.301 106.228 4775.03
-604.237 106.862 4775.17
-604.641 104.624 4776.15
-605.409 104.176 4776.27
-604.039 105.732 4775.76
-606.457 105.457 4774.78
-606.549 105.122 4775.16
-594.233 119.182 4761.05
-592.985 120.088 4760.55
-592.402 120.216 4760.59
-596.601 99.3673 4770.34
-596.764 98.9005 4770.49
-596.174 97.9593 4770.24
-596.75 98.323 4770.5
-597.251 96.7779 4770.9
-597.381 99.4063 4770.86
-594.518 114.259 4763.7
-594.629 115.099 4763.36
-594.478 115.803 4763.1
-591.286 105.256 4767.03
-592.159 101.138 4768.41
-591.368 101.662 4768.2
-591.087 103.324 4767.68
-590.671 101.871 4768.1
-593.556 95.1262 4770.24
-595.199 93.6523 4770.94
-596.165 94.0083 4771.05
-597.519 93.7813 4771.33
-597.15 93.3348 4771.36
-596.812 95.163 4770.96
-610.787 127.503 4780.38
-610.8 128.528 4782.09
-610.62 129.25 4784
-580.592 147.461 4743.93
-579.515 147.145 4742.35
-580.99 146.582 4743.95
-589.87 119.06 4763.29
-590.372 116.655 4764.47
-590.736 115.519 4764.67
-590.181 114.574 4765.25
-589.219 114.145 4765.87
-590.277 113.83 4765.38
-587.378 113.487 4766.86
-588.439 113.611 4766.37
-584.632 125.392 4766.61
-583.803 120.531 4767.05
-583.951 122.634 4767.01
-581.847 114.729 4768.75
-582.336 117.248 4768.21
-583.512 113.484 4768.48
-582.095 113.277 4769.06
-584.887 113.417 4767.97
-586.727 112.511 4767.2
-585.498 112.1 4767.8
-586.163 111.556 4767.49
-591.613 120.503 4760.56
-591.187 120.4 4760.93
-590.89 118.994 4762.51
-590.37 119.208 4762.77
-607.929 120.512 4775.22
-607.824 120.082 4774.93
-607.842 119.504 4775.29
-607.753 119.697 4774.48
-608.113 121.215 4776.01
-607.608 119.151 4774.08
-607.456 118.64 4773.64
-607.249 118.556 4773.12
-607.566 117.072 4773.91
-607.948 116.091 4775.49
-608.246 122.068 4778.31
-608.816 123.582 4780.34
-608.459 122.738 4780.09
-609.664 125.261 4780.4
-601.291 101.734 4775.93
-605.562 104.673 4778.67
-606.905 106.796 4778.22
-603.522 102.723 4778.85
-602.759 102.67 4778.18
-602.635 102.222 4778.77
-600.304 101.491 4773.9
-600.532 101.818 4774.28
-600.731 101.714 4774.83
-599.146 100.666 4772.41
-607.812 115.49 4775.97
-607.466 114.492 4775.64
-607.082 114.608 4777.32
-606.596 114.185 4778.48
-606.504 113.437 4778.28
-606.586 107.331 4779
-606.786 113.535 4779.39
-607.062 112.814 4780.04
-607.041 111.901 4780.12
-607.063 111.315 4779.16
-607.008 110.777 4779.91
-606.981 109.698 4779.63
-606.409 108.192 4779.67
-606.13 107.043 4779.35
-605.783 105.665 4775.03
-605.117 105.561 4775.46
-605.386 104.957 4775.61
-605.817 104.407 4776.09
-605.918 105.108 4775.28
-606.392 104.723 4775.71
-594.704 117.935 4761.95
-593.831 118.721 4761.5
-593.302 118.827 4761.57
-592.537 119.856 4760.97
-597.507 95.2791 4771.11
-597.825 99.166 4771.19
-598.338 100.169 4771.57
-598.229 99.6368 4771.53
-594.509 112.286 4764.44
-593.826 110.481 4765.02
-592.433 107.325 4766.2
-594.281 114.702 4763.54
-594.09 113.882 4763.84
-594.286 112.923 4764.21
-594.196 115.417 4763.3
-594.243 116.464 4762.85
-590.333 103.161 4767.74
-591.311 99.6297 4768.72
-591.83 99.1376 4768.87
-590.653 99.8279 4768.64
-589.829 101.424 4768.24
-589.854 99.5716 4768.69
-592.55 95.6056 4769.92
-592.569 91.6732 4770.87
-591.566 93.6361 4770.32
-593.99 91.915 4771.07
-595.948 91.7298 4771.46
-596.84 92.3422 4771.48
-597.734 93.2933 4771.45
-610.203 127.545 4782.71
-609.882 127.519 4783.9
-590.649 117.26 4764.01
-591.261 115.439 4764.4
-591.085 116.351 4764.19
-591.622 114.418 4764.53
-590.816 114.37 4764.93
-591.636 113.563 4764.72
-591.068 113.563 4765.01
-589.637 113.217 4765.83
-590.949 112.894 4765.22
-587.843 112.038 4766.74
-588.692 112.633 4766.33
-589.324 112.498 4766.06
-582.689 122.09 4768.28
-582.67 119.603 4768.01
-580.878 113.451 4769.47
-581.097 115.874 4769.24
-583.941 112.149 4768.61
-582.544 112.156 4769.13
-581.113 111.905 4769.7
-585.115 111.86 4768.12
-587.07 111.196 4767.12
-585.688 111.124 4767.8
-586.117 110.497 4767.56
-591.796 119.841 4761.26
-591.368 118.939 4762.19
-591.672 117.494 4763.09
-591.301 116.994 4763.73
-607.908 120.148 4775.66
-607.698 119.126 4774.63
-607.859 118.47 4775.91
-607.746 118.409 4775.17
-607.728 117.462 4774.38
-607.713 117.916 4774.66
-608.091 116.623 4775.32
-608.17 116.647 4775.85
-608.007 115.999 4776.31
-608.387 122.508 4779.02
-608.325 122.421 4779.72
-608.108 121.821 4779.15
-608.097 121.553 4777.51
-608 120.718 4777.5
-607.97 120.876 4776.36
-609.077 124.612 4781.25
-608.785 124.243 4781.82
-608.501 123.058 4780.87
-602.052 101.988 4777.9
-602.161 101.837 4778.47
-605.182 104.717 4779.09
-604.932 105.066 4779.55
-603.214 102.541 4779.46
-600.457 101.214 4774.31
-601.094 101.266 4775.95
-599.754 100.894 4773.22
-599.28 100.214 4772.63
-599.761 100.386 4773.36
-607.329 115.257 4777.63
-606.787 114.882 4778.93
-606.725 114.19 4779.71
-607.043 113.518 4780.42
-607.051 112.819 4780.64
-606.981 111.055 4780.38
-607.021 112.017 4780.62
-606.751 109.706 4780.08
-605.636 107.175 4779.94
-594.066 117.598 4762.32
-594.64 116.987 4762.58
-593.487 117.349 4762.53
-592.686 118.74 4761.82
-592.006 118.743 4762
-597.087 97.662 4770.76
-598.288 95.5291 4771.31
-598.119 94.0595 4771.35
-597.401 98.4036 4770.93
-593.71 116.819 4762.75
-593.722 112.059 4764.5
-593.355 110.661 4764.97
-590.758 105.221 4767.06
-589.464 103.001 4767.82
-593.812 114.305 4763.75
-593.799 114.993 4763.55
-594.21 113.429 4764.02
-593.747 115.687 4763.27
-590.367 96.0615 4769.55
-591.476 95.8185 4769.72
-588.541 100.829 4768.41
-588.628 98.4951 4768.93
-589.18 95.6648 4769.58
-591.213 91.1283 4770.8
-591.702 89.1514 4771.28
-592.657 89.175 4771.41
-590.256 93.6074 4770.16
-593.865 89.6359 4771.5
-594.915 89.8478 4771.64
-596.416 90.9066 4771.69
-597.605 92.6988 4771.53
-609.388 126.73 4784.59
-591.771 115.776 4764.01
-591.965 114.711 4764.28
-591.647 112.954 4764.87
-589.907 112.554 4765.79
-591.204 112.35 4765.19
-589.341 111.205 4766.12
-588.078 110.496 4766.72
-590.131 110.958 4765.78
-581.348 118.313 4769.26
-580.824 119.243 4769.92
-579.69 112.09 4770.31
-579.453 113.684 4770.73
-584.584 111.539 4768.4
-583.516 111.282 4768.79
-582.406 111.469 4769.22
-580.969 111.261 4769.72
