2532.6 -2492.39 2210.44
2532.75 -2492 2211.75
2531.23 -2496.42 2205.78
2531.37 -2495.43 2205.14
2531.94 -2494.61 2210.86
2532.29 -2493.35 2211.73
2531.52 -2495.93 2209.58
2531.02 -2497.54 2208.56
2530.85 -2497.93 2207.15
2531.04 -2497.21 2205.89
2531.19 -2495.65 2203.94
2530.7 -2495.6 2200.67
2530.61 -2495.63 2200
2530.95 -2495.61 2202.35
2531.3 -2494.14 2195.6
2530.87 -2495.6 2195.96
2531.79 -2493.77 2193.75
2531.76 -2494.66 2192.83
2532.01 -2493.89 2192.08
2530.42 -2496.32 2199.02
2530.44 -2496.47 2199.53
2530.44 -2496.55 2197.57
2530.36 -2496.63 2198.6
2532.71 -2492.1 2213.21
2533.05 -2490.84 2214.89
2530.96 -2497.3 2204.73
2531.14 -2496.52 2204.7
2532.21 -2493.68 2212.62
2531.85 -2495.01 2211.39
2532.48 -2492.73 2213.52
2531.43 -2496.38 2210.39
2530.95 -2497.94 2209.25
2530.5 -2499.28 2207.99
2530.49 -2499.24 2206.84
2530.75 -2498.12 2205.42
2533.45 -2489.47 2217.29
2533.12 -2490.45 2216.13
2531.03 -2496.5 2203.7
2530.77 -2496.51 2202
2530.58 -2496.18 2200.41
2530.82 -2497.16 2203.23
2530.76 -2496.13 2196.16
2531.3 -2494.97 2194.75
2531.07 -2495.95 2194.88
2531.3 -2496.07 2193.57
2531.23 -2496.86 2193.19
2531.52 -2496.04 2192.2
2530.33 -2496.96 2199.29
2530.48 -2496.86 2196.77
2530.34 -2497.22 2197.5
2530.2 -2497.93 2198.26
2530.58 -2497.32 2195.95
2532.81 -2491.68 2214.98
2530.73 -2498.14 2204.33
2530.91 -2497.27 2204.09
2532.15 -2494.09 2213.13
2532.48 -2492.85 2214.57
2531.36 -2496.85 2210.89
2530.9 -2498.37 2209.67
2530.42 -2499.75 2208.59
2530.16 -2500.47 2207.41
2530.39 -2499.71 2205.88
2530.04 -2500.92 2206.56
2530.53 -2499.17 2204.59
2533.17 -2490.38 2217.43
2532.91 -2491.17 2216.16
2530.64 -2497.14 2201.97
2530.61 -2498.15 2202.83
2530.5 -2496.93 2200.51
2530.68 -2498.12 2203.54
2530.37 -2497.24 2199.77
2530.74 -2497.38 2195.18
2530.93 -2496.69 2194.8
2530.96 -2497.48 2193.97
2531.09 -2497.84 2192.58
2530.85 -2498.46 2193.56
2530.91 -2499.03 2192.16
2530.28 -2497.36 2198.82
2530.22 -2498.53 2199.23
2530.3 -2498.55 2196.62
2530.43 -2498.26 2196.06
2530.22 -2498.76 2197.15
2530.18 -2498.67 2197.95
2530.05 -2500.04 2197.95
2530.07 -2499.64 2198.45
2530.6 -2498.73 2194.77
2530.48 -2499.28 2203.74
2532.1 -2494.44 2213.49
2532.43 -2493.27 2215.03
2532.72 -2492.01 2216.1
2531.75 -2495.58 2212.18
2531.25 -2497.49 2211.13
2531.62 -2496.31 2212.23
2530.73 -2499.14 2209.86
2530.34 -2500.16 2208.87
2530.04 -2501.02 2207.65
2529.91 -2501.57 2206.64
2530.12 -2500.78 2205.32
2529.86 -2501.77 2206.06
2530.22 -2500.37 2203.96
2533.06 -2490.88 2217.38
2530.46 -2498.38 2201.85
2530.36 -2499.45 2202.26
2530.45 -2499.27 2203.15
2530.33 -2498.52 2200.75
2530.21 -2499.1 2200.06
2530.79 -2499.22 2193.17
2530.43 -2499.96 2194.47
2530.73 -2499.84 2191.69
2530.43 -2500.65 2193.87
2530.44 -2500.95 2192.91
2530.62 -2500.58 2191.1
2530.11 -2499.33 2198.93
2530.03 -2500.44 2199.81
2530.17 -2500.28 2196.04
2530.36 -2499.78 2195.27
2530.06 -2500.67 2196.56
2530.04 -2500.62 2197.1
2529.98 -2500.74 2198.94
2529.93 -2501.12 2198.17
2529.86 -2501.73 2197.62
2530.37 -2502.2 2188.31
2530.14 -2503.55 2186.19
2529.95 -2504.11 2187.72
2529.95 -2504.62 2185.71
2530.21 -2500.48 2202.98
2532.38 -2493.62 2215.4
2531.99 -2494.97 2213.6
2532.81 -2492.01 2217.12
2531.17 -2498.08 2211.47
2531.51 -2497.01 2212.42
2531.81 -2495.9 2213.58
2530.65 -2499.59 2210.12
2530.22 -2500.8 2209.01
2529.98 -2501.42 2208.07
2529.87 -2501.82 2207.15
2529.63 -2502.82 2206.21
2529.63 -2502.84 2206.81
2529.96 -2501.55 2204.53
2529.64 -2502.95 2205.46
2530.01 -2501.58 2202.7
2530.22 -2500.4 2202.13
2530.15 -2500 2200.95
2530.18 -2501.01 2195.2
2530.21 -2502.19 2192.31
2530.04 -2502.03 2194.77
2529.99 -2502.68 2193.86
2530.24 -2502.36 2190.72
2529.86 -2501.77 2199.81
2530.05 -2500.88 2200.68
2529.94 -2501.83 2196.04
2529.82 -2502.21 2196.86
2529.79 -2502.27 2198.94
2529.72 -2502.77 2198.29
2529.64 -2503.22 2197.61
2529.89 -2504.12 2189.61
2529.71 -2505.11 2187.3
2529.54 -2505.37 2189.46
2529.68 -2505.65 2186.58
2529.68 -2506.02 2185.85
2530 -2501.5 2201.39
2532.23 -2494.36 2215.37
2531.19 -2498.48 2212.06
2530.7 -2499.8 2210.63
2531.67 -2496.91 2213.61
2530.2 -2501.4 2209.36
2529.93 -2501.97 2208.42
2529.79 -2502.16 2207.72
2529.6 -2502.96 2207.41
2529.46 -2503.73 2206.35
2529.48 -2503.71 2205.58
2529.46 -2503.77 2207.06
2529.71 -2502.84 2203.93
2529.48 -2503.83 2204.36
2529.6 -2503.58 2201.9
2529.7 -2504.2 2194.14
2529.78 -2504.1 2192.82
2529.73 -2503.2 2195.7
2529.68 -2504.67 2191.51
2529.64 -2503.21 2200.32
2529.59 -2503.71 2196.67
2529.46 -2504.08 2199.1
2529.38 -2504.46 2198.08
2529.26 -2505.19 2197.05
2529.48 -2506.07 2188.31
2529.34 -2506.07 2191.73
2529.32 -2506.55 2190.29
2529.49 -2506.51 2187.48
2529.5 -2506.81 2186.51
2529.46 -2507.49 2185.49
2529.36 -2508.84 2185.02
2531.48 -2497.76 2212.99
2531.26 -2499.13 2212.88
2530.81 -2499.9 2211.29
2530.26 -2501.71 2209.96
2529.85 -2502.76 2208.8
2529.66 -2502.96 2208.09
2529.51 -2503.67 2207.71
2529.34 -2504.26 2206.51
2529.3 -2504.49 2205.67
2529.33 -2504.54 2204.74
2529.39 -2504.26 2207.21
2529.37 -2504.61 2202.9
2529.31 -2504.94 2200.69
2529.34 -2505.37 2195.55
2529.38 -2505.68 2193.65
2529.13 -2505.92 2198.39
2529.07 -2506.31 2196.92
2529.05 -2506.75 2195.48
2529.3 -2506.87 2189.37
2529.12 -2507.07 2192.12
2529 -2507.84 2191.01
2529.26 -2507.24 2188.26
2529.32 -2507.89 2186.8
2529.18 -2509.05 2186.58
2530.79 -2500.68 2211.93
2530.29 -2502.23 2210.53
2529.91 -2503.09 2209.39
2529.61 -2503.75 2208.41
2529.44 -2504.35 2207.77
2529.27 -2504.97 2206.32
2529.21 -2505.27 2205.4
2529.25 -2505.32 2203.9
2529.27 -2505.04 2206.84
2529.23 -2505.35 2202.09
2529.08 -2506.13 2199.83
2529.09 -2506.89 2194.15
2528.92 -2507.46 2197.8
2528.93 -2507.6 2196.5
2528.86 -2508.17 2195.03
2528.86 -2508.3 2193.15
2529 -2508.23 2190.07
2528.79 -2509.06 2191.99
2528.96 -2508.78 2189.9
2529.1 -2508.48 2188.35
2529.06 -2510.46 2186.45
2528.95 -2509.79 2188.6
2530.71 -2501.98 2212.4
2530.48 -2503.08 2211.96
2530.02 -2503.41 2210.12
2529.21 -2505.89 2206.19
2529.19 -2505.83 2205.6
2529.1 -2506.63 2204.33
2529.13 -2506.08 2203.71
2529.12 -2506.19 2201.57
2529.21 -2505.86 2206.86
2528.91 -2507.51 2199.12
2528.75 -2509.18 2198.63
2528.7 -2509.21 2196.77
2528.58 -2509.86 2195.31
2528.66 -2509.52 2193.71
2528.54 -2510.57 2193.31
2528.75 -2509.93 2190.75
2528.91 -2511.03 2188.31
2528.9 -2512.31 2186.82
2528.71 -2510.82 2190.3
2528.14 -2519.48 2183.96
2528.03 -2520.38 2182.98
2527.99 -2521.13 2182.22
2527.88 -2521.16 2183.17
2528.32 -2518.12 2186.17
2528.07 -2519.75 2185.03
2530.21 -2503.98 2211.26
2529.77 -2504.05 2209.32
2529.48 -2504.97 2208.34
2529.33 -2505.41 2207.55
2529.09 -2507.22 2205
2529.13 -2507 2206.42
2529.06 -2507.64 2205.59
2529.02 -2508.45 2203.86
2529.12 -2507.05 2202.46
2528.96 -2507.67 2200.49
2529.14 -2507.43 2206.86
2528.82 -2509.17 2200.39
2528.69 -2510.13 2200.52
2528.53 -2510.52 2198.04
2528.41 -2511.2 2196.5
2528.4 -2511.16 2194.65
2528.26 -2512.1 2195.81
2528.5 -2510.95 2192.66
2528.25 -2512.17 2194.54
2528.45 -2511.64 2192.13
2528.64 -2512.24 2189.91
2528.73 -2513.19 2188.32
2528.68 -2514.41 2187.95
2528.38 -2512.8 2191.82
2527.9 -2520.83 2184
2527.89 -2522.05 2182.18
2527.81 -2521.83 2182.96
2527.78 -2521.77 2183.85
2527.81 -2521.51 2184.39
2528 -2520.41 2186.28
2528.14 -2519.56 2187.6
2528.22 -2518.72 2188.18
2528.3 -2517.58 2188.6
2528.42 -2516.45 2188.97
2527.89 -2521.13 2185.07
2530.27 -2505.47 2212.12
2529.91 -2504.58 2210.16
2529.52 -2505.45 2208.8
2529.36 -2505.82 2207.97
2529.26 -2506.75 2207.66
2529.15 -2508.16 2207.2
2528.99 -2508.96 2205.08
2529 -2508.76 2205.8
2528.95 -2509.4 2204.13
2528.9 -2508.86 2202.13
2529.02 -2509.13 2206.49
2528.85 -2509.78 2202.54
2528.48 -2511.15 2199.34
2528.58 -2511.08 2201.62
2528.74 -2510.54 2203.08
2528.27 -2512.01 2198.12
2528.12 -2512.73 2197.3
2528.14 -2512.88 2195.6
2527.99 -2513.49 2196.93
2528.24 -2512.56 2193.81
2527.99 -2513.73 2195.27
2527.91 -2514.17 2196.16
2528.12 -2513.57 2193.81
2528.41 -2513.87 2190.9
2528.54 -2514.08 2189.63
2528.51 -2515.3 2189.31
2528.14 -2514.27 2193.15
2527.79 -2522.76 2182.34
2527.71 -2522.57 2183.23
2527.69 -2522.45 2183.99
2527.7 -2522.39 2184.76
2527.73 -2522.22 2185.76
2527.92 -2521.33 2188.08
2527.76 -2522.03 2186.67
2528.07 -2520.31 2189.33
2528.15 -2519.42 2189.82
2528.2 -2518.41 2190.14
2528.31 -2517.23 2190.27
2529.88 -2505.79 2210.51
2529.65 -2506.71 2209.72
2529.43 -2506.19 2208.61
2529.33 -2507.73 2208.36
2529.19 -2508.69 2207.68
2529.04 -2509.66 2207.11
2528.93 -2509.77 2205.13
2528.95 -2509.59 2205.86
2528.89 -2510.09 2204.34
2528.98 -2510.01 2206.52
2528.37 -2511.91 2200.09
2528.57 -2511.41 2203.59
2528.35 -2512.41 2202.19
2528.72 -2510.85 2204.53
2528.06 -2513.15 2199.25
2527.87 -2514.02 2198.49
2527.71 -2514.84 2197.96
2527.84 -2514.39 2196.78
2527.6 -2515.63 2197.63
2527.91 -2514.63 2195.26
2527.66 -2515.87 2196.43
2527.54 -2516.31 2197.31
2527.94 -2515 2194.84
2528.22 -2515.3 2192.1
2528.33 -2516.11 2190.74
2527.98 -2515.25 2194.28
2527.68 -2523.08 2183.33
2527.64 -2523.32 2184.19
2527.62 -2523.57 2185.09
2527.57 -2523.79 2186.36
2527.58 -2523.56 2187.2
2527.8 -2521.96 2189.31
2527.63 -2523.15 2188.44
2527.99 -2520.54 2190.38
2527.76 -2522.05 2190.36
2528.02 -2519.89 2190.97
2528.14 -2518.88 2191.03
2528.16 -2518.22 2191.49
2529.94 -2507.7 2211.26
2529.5 -2508.33 2209.34
2529.17 -2509.7 2207.89
2529.03 -2510.4 2207.23
2528.83 -2510.5 2205.26
2528.88 -2510.34 2205.99
2528.9 -2510.76 2206.71
2528.01 -2513.69 2200.95
2528.31 -2512.67 2203.62
2528.45 -2512.23 2204.61
2527.91 -2514.41 2202.41
2528.69 -2511.23 2205.37
2527.71 -2514.95 2199.99
2527.53 -2515.83 2199.34
2527.38 -2516.86 2199.16
2527.39 -2517.03 2198.59
2527.64 -2516.28 2196.06
2527.31 -2517.75 2198.04
2527.35 -2517.73 2197.42
2527.18 -2518.36 2198.82
2527.7 -2516.43 2195.54
2528.07 -2516.24 2193.03
2528.16 -2517.5 2192.08
2527.91 -2515.91 2194.43
2527.73 -2516.75 2195.13
2527.68 -2523.83 2183.21
2527.83 -2523.73 2182.23
2527.61 -2524.54 2184.56
2527.55 -2525.07 2185.53
2527.46 -2525.3 2186.54
2527.42 -2524.91 2187.78
2527.52 -2524.19 2188.92
2527.47 -2523.88 2190.31
2527.91 -2520.83 2191.15
2527.72 -2522.08 2191.21
2528 -2519.62 2191.77
2527.9 -2520.5 2191.78
2528.06 -2519.06 2192.28
2527.82 -2527.72 2182.32
2527.79 -2525.21 2182.64
2527.76 -2526.62 2183.16
2529.71 -2509.63 2210.76
2529.36 -2509.47 2208.81
2529.13 -2510.49 2208.06
2528.94 -2511.27 2207.53
2528.76 -2511.05 2206.13
2528.73 -2511.63 2206.71
2527.65 -2515.52 2201.37
2528 -2514.17 2203.39
2528.45 -2512.45 2205.29
2528.06 -2514.03 2204.08
2527.69 -2515.6 2202.48
2528.57 -2512.08 2205.99
2527.48 -2516.32 2200.56
2527.3 -2517.35 2200.19
2527.09 -2518.54 2199.89
2527.39 -2517.79 2196.89
2526.94 -2520.03 2198.64
2527.13 -2519.64 2197.51
2526.86 -2520.32 2199.05
2527.48 -2517.76 2196.28
2527.99 -2517 2193.67
2528.04 -2518.35 2192.77
2527.86 -2517.71 2194.23
2527.67 -2518.04 2195.09
2527.66 -2524.91 2183.57
2527.62 -2525.59 2184.43
2527.47 -2526.63 2185.48
2527.41 -2526.26 2187.19
2527.3 -2525.81 2188.61
2527.31 -2525.11 2189.82
2527.28 -2524.94 2191.5
2527.43 -2523.72 2191.69
2527.68 -2522.01 2191.92
2527.92 -2520.03 2192.4
2527.76 -2521.28 2192.34
2527.96 -2519.42 2192.96
2527.63 -2526.96 2184.37
2527.6 -2527.89 2184.09
2527.73 -2529.06 2182.5
2529.48 -2512.12 2210.89
2529.37 -2510.74 2209.58
2529.07 -2511.55 2208.51
2528.73 -2512.45 2207.39
2528.57 -2512.57 2206.59
2528.4 -2512.98 2205.76
2527.42 -2516.82 2201.48
2527.72 -2515.67 2203.26
2528.17 -2513.65 2204.78
2527.77 -2515.57 2203.82
2527.48 -2516.66 2202.15
2527.27 -2517.5 2200.9
2526.91 -2519.79 2199.94
2527.19 -2519.75 2196.97
2526.83 -2521.12 2198.25
2526.91 -2521.39 2197.38
2526.78 -2521.05 2198.99
2527.4 -2518.9 2196.15
2527.87 -2518.96 2193.67
2527.72 -2519.47 2194.37
2527.36 -2527.45 2187.05
2527.5 -2527.66 2185.3
2527.19 -2527.37 2189.06
2527.21 -2525.98 2191.01
2527.17 -2525.17 2192.6
2527.34 -2524.23 2192.34
2527.42 -2523.06 2192.82
2527.85 -2520.43 2192.81
2527.63 -2521.83 2192.79
2527.85 -2519.91 2193.36
2527.49 -2528.83 2184.64
2527.59 -2530.36 2182.68
2527.56 -2531.62 2182.41
2527.62 -2532.03 2181.51
2527.63 -2533.04 2181.19
2529.29 -2513.59 2210.64
2529.04 -2512.71 2209.01
2528.63 -2513.35 2207.45
2528.3 -2514.06 2206.14
2528.14 -2514.28 2205.32
2527.94 -2514.94 2204.57
2527.11 -2518.4 2200.83
2527.2 -2518.02 2201.57
2527.45 -2517 2202.52
2527.58 -2516.71 2203.41
2526.8 -2520.81 2199.49
2527.18 -2520.86 2196.4
2526.94 -2522.05 2196.68
2526.7 -2522.04 2198.6
2526.77 -2522.35 2197.49
2526.81 -2522.89 2196.55
2526.66 -2521.92 2199.11
2526.71 -2521.42 2199.4
2527.52 -2520.01 2195.1
2527.71 -2520.53 2193.81
2527.17 -2528.81 2188.07
2527.4 -2528.19 2186.07
2527.1 -2527.08 2191.06
2527.05 -2528.9 2189.95
2527.14 -2525.97 2192.56
2527.21 -2524.34 2193.36
2527.09 -2525.37 2193.46
2527.31 -2523.71 2193.3
2527.69 -2520.92 2193.21
2527.45 -2522.75 2193.37
2527.25 -2529.39 2185.95
2527.17 -2530.37 2185.23
2527.29 -2530.69 2184.36
2527.2 -2531.52 2184.36
2527.24 -2532.04 2184.02
2527.47 -2532.37 2182.57
2527.5 -2533.33 2182.35
2527.59 -2533.91 2181.3
2529.09 -2514.73 2210.31
2528.8 -2514.2 2208.74
2528.43 -2514.72 2207.43
2528.13 -2515.1 2206.02
2527.94 -2515.46 2205.07
2527.8 -2515.98 2204.56
2526.98 -2519.39 2200.54
2527.12 -2518.76 2201.57
2527.28 -2518.15 2202.46
2527.51 -2517.57 2203.74
2526.84 -2520.4 2200.38
2526.75 -2521.29 2200.38
2527.29 -2521.36 2195.4
2527.1 -2522.96 2195.19
2527 -2523.59 2195.14
2526.62 -2522.67 2198.76
2526.64 -2522.88 2198.14
2526.71 -2523.09 2197.33
2527.37 -2522.26 2194.17
2526.95 -2530.46 2188.49
2526.96 -2530.74 2187.38
2527.1 -2529.78 2186.86
2526.95 -2529.39 2191.09
2527.04 -2527.77 2191.98
2527.07 -2526.78 2192.89
2526.87 -2530.82 2189.51
2527.07 -2526.17 2193.68
2527.15 -2524.47 2193.84
2527.02 -2525.56 2194.11
2527.21 -2523.81 2193.95
2526.93 -2531 2186.4
2527.01 -2531.39 2185.89
2527.02 -2532.08 2185.58
2527.14 -2532.56 2184.53
2527.23 -2532.94 2183.77
2527.49 -2534.14 2182.29
2527.24 -2533.57 2183.94
2527.61 -2535.49 2181.53
2527.73 -2536.3 2180.81
2529.02 -2516.13 2210.48
2528.74 -2515.82 2209.21
2528.61 -2515.33 2208.49
2528.22 -2515.73 2207
2528 -2515.88 2205.83
2527.83 -2516.6 2205.16
2527.63 -2517.36 2204.48
2526.97 -2519.77 2201.01
2527.05 -2519.52 2201.66
2527.28 -2518.67 2202.79
2527.34 -2518.87 2203.39
2526.68 -2521.81 2200.16
2526.64 -2522.06 2199.71
2526.74 -2521.62 2200.8
2526.65 -2523.37 2197.96
2526.6 -2523.32 2198.58
2526.8 -2523.74 2196.42
2526.92 -2524.38 2195.12
2526.59 -2523.38 2199.08
2526.58 -2522.86 2199.52
2526.8 -2531.69 2188.49
2526.84 -2531.66 2187.45
2526.83 -2531.52 2186.83
2526.96 -2528.9 2192.62
2526.83 -2530.79 2191.86
2526.79 -2531.78 2190.45
2526.99 -2528.03 2193.54
2527.03 -2527.09 2194.01
2526.99 -2526.3 2194.22
2526.86 -2525.24 2195.23
2526.84 -2532.02 2186.25
2526.86 -2532.66 2185.75
2526.9 -2533.24 2185.35
2527.29 -2534.41 2183.84
2527.5 -2536.12 2182.75
2526.94 -2534.19 2185.56
2527.44 -2537.7 2183.23
2527.56 -2538.23 2182.34
2527.69 -2538.21 2180.94
2528.94 -2517.26 2210.33
2528.62 -2517.03 2208.95
2528.2 -2516.67 2207.21
2527.9 -2516.99 2205.9
2527.75 -2517.64 2205.24
2527.55 -2518.32 2204.41
2526.86 -2520.58 2201.13
2527.09 -2519.63 2202.16
2527.21 -2519.64 2203.24
2526.99 -2520.21 2202.16
2526.61 -2522.53 2199.93
2526.81 -2521.28 2201.23
2526.71 -2524.08 2197.23
2526.72 -2524.4 2196.52
2526.64 -2524.13 2197.8
2526.62 -2523.81 2198.35
2526.6 -2523.32 2199.77
2526.82 -2532.2 2187.73
2526.77 -2532.66 2188.43
2526.72 -2532.52 2189.22
2526.83 -2532.24 2186.79
2526.97 -2529.15 2193.97
2526.89 -2530.13 2193.43
2526.75 -2531.86 2192.51
2526.68 -2532.82 2190.98
2526.97 -2527.95 2194.56
2527 -2528.78 2194.57
2526.96 -2526.95 2194.56
2526.82 -2526.1 2195.49
2526.84 -2532.55 2186.38
2526.87 -2533.37 2186.06
2526.96 -2534.79 2185.83
2527.23 -2535.7 2184.23
2527.3 -2537.05 2184.38
2526.89 -2533.93 2186.55
2527.34 -2538.32 2184.66
2527.39 -2539.54 2183.88
2527.49 -2540.3 2182.05
2527.64 -2540.2 2180.09
2527.73 -2540.31 2178.18
2528.57 -2517.73 2208.79
2528.83 -2518.35 2209.93
2528.1 -2517.75 2206.88
2527.84 -2518.13 2205.84
2527.58 -2519.02 2204.84
2527.46 -2519.08 2204.31
2526.88 -2520.9 2201.72
2527.19 -2520.13 2203.42
2526.7 -2522.64 2200.66
2526.65 -2522.94 2200.26
2526.77 -2521.81 2201.4
2526.65 -2525.07 2196.73
2526.58 -2524.8 2197.97
2526.6 -2524.04 2199.37
2526.58 -2524.36 2198.67
2526.84 -2532.53 2187.23
2526.69 -2533.06 2189.93
2526.66 -2533.48 2188.89
2526.77 -2533.13 2187.85
2526.92 -2530 2194.68
2526.97 -2529.51 2195.24
2526.88 -2530.95 2194.26
2526.71 -2532.35 2193.49
2526.65 -2533.09 2192.14
2526.66 -2533.34 2191.29
2526.94 -2527.12 2195.03
2526.73 -2526.06 2196.3
2526.86 -2533.01 2186.79
2527.06 -2535.88 2185.49
2526.89 -2534.55 2186.86
2527.17 -2537.44 2185.75
2526.8 -2533.83 2187.48
2527.2 -2538.24 2186.56
2527.22 -2539.3 2185.83
2527.29 -2540.63 2185.41
2527.39 -2542.13 2183.56
2527.52 -2541.98 2181.69
2527.63 -2541.12 2180.04
2528.46 -2519.1 2208.42
2528.12 -2518.63 2207.03
2527.62 -2519.63 2205.27
2527.48 -2519.72 2204.68
2527.03 -2520.89 2202.76
2526.68 -2523.41 2200.5
2526.74 -2523.16 2201.02
2526.77 -2522.88 2201.47
2526.63 -2525.47 2197.45
2526.59 -2525.04 2198.7
2526.65 -2525.94 2198.41
2526.66 -2526.03 2197.88
2526.66 -2524.14 2200.02
2526.67 -2533.61 2190.45
2526.72 -2533.99 2189.51
2526.7 -2533.86 2188.38
2526.94 -2530.24 2195.75
2526.91 -2531.03 2195.04
2526.94 -2528.91 2195.54
2526.92 -2529.89 2196.36
2526.81 -2532.34 2194.62
2526.73 -2533.77 2193.47
2526.72 -2534.22 2192.54
2526.7 -2534.29 2191.64
2526.9 -2527.77 2195.5
2526.97 -2535.63 2186.53
2526.8 -2534.89 2187.65
2526.96 -2536.49 2187.46
2526.72 -2534.65 2188.27
2526.99 -2537.8 2188.8
2527.06 -2539.19 2188.29
2527.16 -2540.45 2187.82
2527.28 -2542.87 2185.5
2527.16 -2542.49 2187.46
2527.38 -2543.7 2183.4
2527.3 -2544.37 2184.36
2527.43 -2543.53 2182.54
2527.6 -2542.73 2181.12
2527.66 -2541.85 2179.73
2528.55 -2521.17 2208.76
2528.23 -2519.97 2207.53
2527.73 -2520.08 2205.8
2527.53 -2521.08 2204.94
2527.31 -2520.84 2204.15
2527.07 -2521.32 2203.07
2526.94 -2521.59 2202.32
2526.81 -2522.35 2201.88
2526.71 -2523.91 2200.63
2526.78 -2523.62 2201.23
2526.84 -2523.31 2201.72
2526.74 -2526.66 2196.94
2526.63 -2524.77 2199.51
2526.62 -2525.33 2199.12
2526.73 -2527.34 2197.93
2526.74 -2527.21 2197.36
2526.65 -2534.5 2190.78
2526.73 -2534.85 2189.48
2526.97 -2531.04 2196.33
2526.91 -2531.68 2195.71
2526.87 -2528.16 2196.17
2526.89 -2528.81 2196.58
2526.91 -2530.43 2197.12
2526.88 -2529.01 2197.36
2526.94 -2533 2196.03
2526.84 -2534.5 2195.3
2526.72 -2535.47 2194.72
2526.72 -2535.75 2193.82
2526.68 -2535.75 2192.46
2526.8 -2536.02 2188.78
2526.95 -2539.22 2190.52
2526.83 -2537.52 2190.8
2527.03 -2540.54 2189.96
2527.04 -2542.19 2189.45
2527.18 -2544.45 2187.05
2527.22 -2544.99 2185.64
2527.11 -2544.01 2188.56
2527.34 -2545.63 2183.69
2527.39 -2545.33 2183.04
2527.24 -2546.26 2184.69
2527.47 -2544.17 2182.26
2527.71 -2543.5 2180.72
2527.63 -2544.27 2181.59
2527.72 -2542.94 2179.81
2528.29 -2522.28 2207.72
2527.8 -2521.46 2206.02
2527.23 -2521.67 2203.85
2527.43 -2522.05 2204.54
2528.15 -2524.19 2207.12
2528.29 -2525.47 2207.53
2527.01 -2522.08 2202.88
2526.89 -2522.78 2202.17
2526.8 -2524.15 2201.23
2526.69 -2525.74 2199.68
2526.69 -2526.31 2199.25
2526.77 -2527.6 2198.44
2526.74 -2524.87 2200.49
2526.69 -2535.89 2191.26
2526.75 -2536.16 2190.29
2526.99 -2531 2197.62
2526.95 -2531.45 2196.86
2527 -2532.41 2197.2
2526.89 -2529.68 2197.89
2526.95 -2534.38 2196.88
2527.03 -2533.46 2197.93
2526.8 -2535.91 2196.66
2526.8 -2536.5 2196.23
2526.75 -2537.44 2195.67
2526.73 -2537.3 2194.27
2526.7 -2537.61 2193.12
2526.87 -2539.93 2191.91
2526.77 -2537.81 2192.02
2526.96 -2541.67 2191.27
2527.01 -2543.54 2190.27
2527.11 -2545.2 2188.43
2527.11 -2545.98 2187.67
2527.12 -2546.47 2186.77
2527.16 -2547 2185.71
2527.06 -2544.89 2189.67
2527.27 -2547.91 2184.05
2527.38 -2547.13 2183.25
2527.51 -2546.58 2182.6
2527.53 -2545.26 2182.25
2527.15 -2548.66 2184.81
2527.89 -2545.01 2180.13
2527.93 -2544.42 2179.44
2527.76 -2545.52 2181.14
2527.87 -2545.49 2180.49
2527.81 -2522.84 2205.87
2527.12 -2522.57 2203.33
2527.34 -2523.15 2204.06
2527.75 -2523.92 2205.51
2528.01 -2525.31 2206.23
2528.1 -2526.47 2206.34
2526.81 -2525.28 2200.79
2526.92 -2523.96 2202.07
2526.83 -2527.65 2199.37
2526.85 -2527.33 2199.82
2526.84 -2528.14 2198.84
2526.86 -2526.58 2200.35
2527.01 -2531.2 2198.4
2527.02 -2531.85 2198
2527.08 -2532.82 2198.42
2526.98 -2534.51 2198.17
2526.87 -2535.8 2197.52
2527.08 -2533.8 2198.95
2526.73 -2537.33 2197.19
2526.73 -2538.03 2196.89
2526.78 -2538.67 2195.71
2526.72 -2538.76 2196.48
2526.76 -2539.22 2195.22
2526.82 -2539.56 2193.66
2526.93 -2541.8 2192.81
2527.02 -2543.89 2191.23
2527.09 -2546.93 2187.88
2527.05 -2548.05 2186.83
2527.1 -2546.08 2188.95
2527.06 -2548.61 2185.78
2527.13 -2545.71 2190.44
2527.29 -2549.21 2183.49
2527.17 -2549.62 2184.29
2527.4 -2548.73 2182.74
2527.76 -2546.57 2181.36
2527.65 -2547.25 2181.81
2527.72 -2546 2181.49
2527.05 -2549.8 2185.19
2528.03 -2546.45 2180.08
2528.09 -2546.12 2179.6
2527.19 -2523.23 2203.39
2527.53 -2524.52 2204.56
2527.27 -2523.93 2203.54
2527.84 -2526.31 2205.22
2527.94 -2528.03 2205.25
2527.08 -2523.65 2202.82
2526.91 -2527.69 2200.21
2526.94 -2525.32 2201.52
2527.03 -2524.84 2202.19
2526.89 -2529.46 2198.86
2526.91 -2528.91 2199.53
2527.09 -2532.13 2198.79
2527 -2530.77 2199.02
2527.15 -2532.98 2199.23
2526.9 -2535.89 2198.27
2527.05 -2534.69 2199.13
2526.78 -2537.33 2197.96
2527.16 -2533.86 2199.7
2526.7 -2538.24 2197.55
2526.66 -2539.03 2197.24
2526.7 -2539.66 2196.67
2526.79 -2540.59 2196.2
2526.87 -2541.44 2195.02
2528.22 -2550.14 2175.16
2528.21 -2551.01 2175.32
2527 -2543.39 2193.29
2527.14 -2545.29 2192.03
2527.04 -2548.32 2188.08
2526.99 -2549.11 2187.02
2526.99 -2549.68 2186.01
2527.13 -2546.89 2189.13
2527.23 -2546.85 2191.78
2527.17 -2546.8 2190.33
2527.16 -2550.24 2183.96
2527.28 -2550.16 2183.1
2527.04 -2550.46 2184.82
2527.51 -2550.64 2181.4
2527.6 -2550.04 2180.9
2527.57 -2548.6 2181.68
2527.92 -2547.17 2180.45
2527 -2550.32 2185.56
2527.44 -2525.86 2203.67
2527.16 -2525.01 2202.69
2527.63 -2528.19 2203.62
2528.02 -2530.22 2205.17
2527.69 -2530.27 2203.46
2526.97 -2527.44 2200.77
2527.02 -2529.09 2200.35
2527.01 -2529.94 2199.7
2527.06 -2526.85 2201.51
2527.12 -2531.78 2199.45
2527.21 -2532.73 2199.87
2526.95 -2536.17 2198.98
2526.82 -2537.53 2198.49
2527.09 -2535.36 2199.73
2526.71 -2538.51 2198.03
2527.25 -2533.24 2200.23
2527.24 -2534.15 2200.27
2526.71 -2539.76 2197.35
2526.77 -2540.56 2197.15
2526.8 -2541.39 2196.53
2526.88 -2542.5 2195.44
2528.03 -2549.78 2177.3
2528.04 -2550.41 2176.85
2528.06 -2551.14 2177
2528.17 -2551.85 2175.78
2528 -2551.83 2177.68
2527.11 -2544.94 2194.46
2527.24 -2547.09 2193.41
2527.07 -2548.53 2188.64
2527.01 -2550 2187.74
2527 -2549.96 2187.04
2527.15 -2548.21 2189.74
2527.36 -2548.69 2192.41
2527.24 -2547.94 2191.18
2527.34 -2549.13 2191.99
2527.18 -2550.91 2183.44
2527.08 -2550.96 2184.5
2527.41 -2551.25 2181.89
2527.04 -2550.83 2185.31
2527.82 -2548.51 2180.21
2527.85 -2549.93 2179.36
2527.78 -2550.52 2179.31
2527.72 -2551.03 2179.96
2528 -2547.25 2179.73
2527.27 -2527.09 2202.34
2527.34 -2528.94 2202.24
2528.06 -2532.53 2204.78
2527.69 -2532.32 2203.02
2527.39 -2531.02 2201.92
2527.19 -2529.17 2201.4
2527.19 -2530.74 2200.98
2527.15 -2531.49 2200.08
2527.29 -2532.33 2200.84
2526.88 -2537.42 2199.01
2526.83 -2538.29 2198.78
2527.28 -2534.91 2200.6
2527.05 -2536.76 2199.75
2526.72 -2539.04 2198.25
2527.37 -2533.44 2200.97
2526.73 -2539.59 2198.02
2526.83 -2541.11 2197.27
2526.9 -2542.75 2196.49
2526.95 -2543.61 2195.69
2528.12 -2548.89 2177.96
2527.91 -2550.79 2178
2527.92 -2550.22 2178.31
2527.83 -2551.41 2178.73
2528.16 -2553.08 2176.67
2527.96 -2552.41 2178.6
2527.71 -2551.67 2180.05
2528.32 -2553.9 2176.07
2527.18 -2547.11 2195.12
2527.09 -2545.24 2195.89
2527.33 -2549.1 2193.85
2527.06 -2550.08 2188.54
2526.99 -2551.12 2187.53
2526.99 -2550.72 2186.97
2527 -2550.65 2186.46
2527.19 -2549.36 2190.19
2527.44 -2550.62 2192.97
2527.32 -2549.66 2191.26
2527.43 -2550.96 2192.02
2527.15 -2551.34 2183.98
2527.3 -2551.51 2182.54
2527.08 -2551.31 2185.11
2527.04 -2551.31 2185.85
2527.93 -2548.75 2179.24
2526.97 -2551.41 2186.55
2528.01 -2534.25 2204.12
2527.45 -2532.63 2201.62
2527.58 -2533.93 2202.2
2526.83 -2538.93 2198.93
2527.27 -2536.24 2200.67
2527.43 -2534.42 2201.29
2527.03 -2537.9 2199.83
2526.85 -2539.93 2198.55
2526.85 -2540.63 2198.03
2526.92 -2541.8 2197.38
2526.97 -2543.46 2196.81
2527.08 -2545.24 2196.43
2528.05 -2548.71 2178.48
2528.03 -2553.54 2178.75
2528.28 -2555.19 2177.45
2527.75 -2552.8 2180.35
2527.63 -2552.09 2180.58
2528.44 -2555.83 2176.53
2527.17 -2547.3 2196.07
2527.24 -2548.64 2195.43
2527.41 -2550.43 2194.38
2527.09 -2551.12 2188.77
2527.06 -2551.88 2188.25
2527.07 -2552.37 2187.76
2527.23 -2551.21 2190.09
2527.52 -2551.7 2193.35
2527.41 -2551.57 2191.43
2527.54 -2552.38 2192.51
2527.16 -2551.68 2184.58
2527.2 -2551.84 2183.73
2527.42 -2552.04 2182.22
2527.08 -2551.91 2185.4
2527.02 -2552.12 2186.21
2527.04 -2552.5 2186.72
2527.9 -2535.83 2203.41
2527.49 -2535.42 2201.61
2526.92 -2538.99 2199.43
2526.88 -2539.47 2199.03
2527.23 -2537.47 2200.65
2527.1 -2538.81 2200.15
2526.96 -2540.15 2199.05
2526.94 -2541.29 2198.47
2527 -2542.74 2197.69
2527.05 -2544.54 2197.16
2527.19 -2546.67 2197
2527.2 -2547.57 2196.61
2527.92 -2554.22 2180.34
2528.15 -2555.4 2178.73
2528.35 -2556.57 2177.3
2528.26 -2556.73 2178.16
2527.67 -2553.03 2181.19
2528.53 -2556.83 2176.37
2527.29 -2548.98 2196.14
2527.44 -2550.66 2194.93
2527.21 -2552.83 2189.21
2527.19 -2553.46 2188.74
2527.08 -2552.99 2187.41
2527.18 -2554.1 2188.33
2527.38 -2553.38 2190.4
2527.55 -2551.79 2194.93
2527.68 -2552.95 2193.99
2527.56 -2553.22 2192
2527.76 -2553.81 2193.49
2527.19 -2552.12 2184.33
2527.31 -2552.34 2183.17
2527.12 -2552.93 2186.06
2527.15 -2552.68 2185.47
2527.12 -2553.53 2186.65
2527.17 -2554.11 2187.26
2527.93 -2537.5 2203.35
2527.49 -2536.82 2201.67
2527.02 -2539.77 2199.62
2527.31 -2538.74 2200.96
2527.19 -2539.79 2200.34
2527.06 -2540.93 2199.27
2527.06 -2542.18 2198.65
2527.13 -2543.62 2198.19
2527.17 -2545.4 2197.61
2527.28 -2547.35 2197.49
2527.31 -2548.64 2196.91
2527.69 -2553.74 2181.68
2527.89 -2555.06 2181.52
2528.06 -2555.77 2180.15
2528.18 -2556.83 2179.1
2528.43 -2558.11 2176.91
2528.38 -2558.26 2177.43
2528.29 -2558.54 2178.53
2528.34 -2558.45 2177.94
2528.56 -2558.13 2176.33
2527.45 -2550.23 2196.15
2527.32 -2554.63 2189.65
2527.31 -2555.71 2189.17
2527.19 -2554.6 2187.95
2527.39 -2556.45 2188.88
2527.51 -2554.74 2191.33
2527.39 -2555.82 2190.13
2527.67 -2552.44 2195.72
2527.92 -2554.54 2195
2527.77 -2554.83 2192.98
2527.97 -2555.76 2194.16
2527.19 -2552.81 2184.84
2527.29 -2552.92 2183.52
2527.25 -2554.62 2186.57
2527.3 -2554.41 2185.86
2527.28 -2555.43 2187.54
2527.35 -2556.18 2188.36
2528.09 -2539.2 2203.76
2527.5 -2538 2201.74
2527.57 -2539.14 2201.89
2527.21 -2540.66 2200.1
2527.39 -2540.12 2201.05
2527.31 -2542.35 2199.89
2527.29 -2543.3 2199.36
2527.3 -2544.68 2198.76
2527.32 -2546.22 2198.16
2527.37 -2547.91 2197.95
2527.44 -2549.18 2197.39
2527.52 -2550.59 2196.63
2527.6 -2554.19 2182.83
2527.89 -2556.36 2182.99
2527.99 -2556.35 2181.62
2528.07 -2556.77 2180.46
2528.2 -2557.68 2179.61
2528.27 -2559.14 2179.14
2528.45 -2559.52 2177.03
2528.54 -2559.35 2176.46
2528.39 -2559.69 2177.68
2528.34 -2559.93 2178.69
2528.68 -2558.28 2175.69
2527.42 -2556.71 2189.41
2527.54 -2558.05 2189.05
2527.59 -2558.53 2188.85
2527.64 -2556.38 2191.47
2527.59 -2557.64 2190.2
2527.79 -2552.94 2196.53
2528.01 -2554.44 2196.75
2528.19 -2556.5 2195.77
2527.9 -2556.54 2193.23
2528.24 -2557.78 2194.86
2527.32 -2553.84 2184.85
2527.44 -2556.43 2187.08
2527.45 -2557.03 2187.68
2527.47 -2556.23 2186.16
2527.49 -2557.78 2188.05
2528.21 -2540.87 2203.92
2527.77 -2540.19 2202.41
2527.4 -2541.61 2200.57
2527.74 -2541.48 2201.9
2527.52 -2544.03 2200.19
2527.45 -2544.99 2199.57
2527.48 -2546.14 2199.11
2527.47 -2547.26 2198.68
2527.49 -2548.59 2198.34
2527.55 -2549.87 2197.7
2527.68 -2551.68 2197.14
2527.59 -2555.36 2184.49
2527.72 -2557.06 2185.24
2527.95 -2558 2184.42
2528.02 -2557.6 2182.99
2528.1 -2557.76 2181.83
2528.17 -2558.25 2180.82
2528.24 -2559.45 2180.12
2528.33 -2560.77 2179.76
2528.56 -2560.17 2176.72
2528.45 -2560.18 2177.37
2528.62 -2559.38 2175.87
2528.62 -2560.03 2176.22
2528.38 -2560.29 2178.24
2528.35 -2561.25 2179.42
2528.91 -2559.49 2174.69
2527.59 -2558.61 2189.59
2527.78 -2560.4 2189.44
2527.8 -2560.53 2188.94
2527.79 -2560.38 2188.32
2527.76 -2558.3 2191.4
2527.76 -2559.45 2190.83
2528.3 -2556.18 2197.44
2527.99 -2553.78 2197.7
2528.48 -2558.13 2196.71
2527.97 -2558.18 2192.88
2528.37 -2559.79 2194.3
2528.67 -2559.99 2196.6
2527.65 -2559.09 2187.58
2527.59 -2557.9 2187.06
2527.71 -2559.7 2187.93
2527.75 -2558.5 2186.17
2528.15 -2542.49 2203.13
2527.78 -2543.23 2201.45
2527.97 -2545.6 2201.34
2527.71 -2546.53 2199.99
2527.66 -2547.86 2199.34
2527.65 -2550.09 2198.29
2527.82 -2551.83 2198.06
2528.08 -2559.15 2184.44
2528.13 -2558.85 2183.53
2528.16 -2559.18 2182.74
2528.23 -2560.08 2181.71
2528.34 -2561.4 2180.55
2528.36 -2562.75 2180.64
2528.49 -2560.75 2177.28
2528.59 -2560.9 2176.69
2528.41 -2560.85 2178.07
2528.41 -2563.64 2180.42
2528.43 -2562.03 2179.29
2527.81 -2560.26 2190.34
2527.96 -2562.39 2188.75
2528.05 -2562.43 2189.8
2527.95 -2562.09 2188.07
2527.96 -2561.84 2187.4
2527.98 -2560.4 2191.47
2528.12 -2560.51 2192.4
2528.03 -2561.58 2190.71
2528.38 -2556.31 2198.18
2528.16 -2554.07 2198.78
2528.69 -2558.05 2198.5
2528.8 -2559.58 2198.12
2528.66 -2561.27 2195.55
2528.43 -2561.9 2193.37
2528.89 -2561.61 2197.45
2528.99 -2561.03 2198.51
2527.76 -2559.64 2187
2527.87 -2560.67 2186.93
2527.89 -2561.01 2187.32
2527.92 -2559.99 2186.06
2528.34 -2544.68 2203.1
2528.37 -2547.29 2202.25
2527.92 -2547.9 2200.47
2527.91 -2549.26 2199.98
2527.94 -2550.42 2199.66
2527.91 -2550.93 2199.1
2528.03 -2552.32 2199.11
2528.11 -2560.01 2184.75
2528.21 -2560.22 2183.95
2528.28 -2561.23 2183.39
2528.33 -2561.9 2181.82
2528.34 -2563.32 2181.52
2528.42 -2564.73 2181.62
2528.49 -2561.88 2178.48
2528.54 -2561.69 2177.67
2528.67 -2562.24 2177.39
2528.69 -2561.27 2176.35
2528.72 -2560.67 2175.78
2529.02 -2560.45 2174.42
2528.47 -2565.4 2181.73
2528.54 -2563.85 2179.6
2528.07 -2563.23 2188.31
2528.12 -2563.43 2189.03
2528.18 -2563.56 2189.86
2528.21 -2563.11 2190.8
2528.02 -2562.81 2187.65
2528.08 -2563.07 2187.19
2528.05 -2562.18 2186.86
2528.24 -2562.37 2191.71
2528.48 -2555.95 2199.15
2528.3 -2554.04 2199.77
2528.87 -2557.9 2199.75
2529.01 -2559.69 2199.43
2528.76 -2562.7 2195.78
2528.55 -2562.97 2193.57
2528.4 -2563.51 2192.06
2529.01 -2562.89 2197.78
2528.92 -2563.95 2196.62
2529.21 -2561.08 2199.79
2529.14 -2562.67 2198.7
2528.04 -2560.96 2185.83
2528.05 -2561.56 2186.4
2528.41 -2549.09 2201.96
2528.23 -2550.56 2201.05
2528.31 -2551.8 2200.99
2528.24 -2552.48 2200.27
2528.17 -2561.44 2185.03
2528.23 -2562.36 2184.57
2528.33 -2563.13 2182.95
2528.31 -2564.63 2182.99
2528.31 -2565.33 2183.91
2528.38 -2566.25 2183.6
2528.65 -2563.27 2178.59
2528.84 -2562.7 2176.91
2528.77 -2563.82 2178.39
2528.86 -2561.61 2175.87
2528.51 -2565.75 2181.2
2528.48 -2567.07 2183.25
2528.58 -2564.77 2179.71
2528.59 -2565.94 2180.57
2528.08 -2563.93 2187.76
2528.13 -2564.3 2188.55
2528.19 -2564.43 2189.3
2528.27 -2563.9 2190.81
2528.28 -2564.72 2190.21
2528.15 -2563.37 2186.4
2528.12 -2564.36 2186.88
2528.11 -2562.54 2186.09
2528.64 -2555.78 2200.23
2528.48 -2554.08 2200.77
2529.11 -2557.69 2201.22
2529.18 -2559.58 2200.5
2528.82 -2564.33 2195.24
2528.53 -2564.14 2192.75
2528.4 -2565.01 2191.25
2529.09 -2564.9 2197.43
2528.98 -2565.71 2196.45
2529.48 -2561.16 2201.06
2529.32 -2562.75 2199.63
2529.22 -2564.65 2198.29
2528.71 -2550.46 2202.99
2528.71 -2551.86 2202.79
2528.6 -2552.97 2201.88
2528.23 -2563.87 2184.84
2528.25 -2566 2185.14
2528.31 -2567.3 2184.88
2528.39 -2568.36 2184.74
2529.06 -2563.23 2176.36
2528.92 -2563.77 2177.62
2528.81 -2564.83 2178.76
2528.75 -2565.74 2179.56
2528.6 -2567.34 2182.42
2528.46 -2568.39 2184.19
2528.7 -2566.61 2180.47
2528.7 -2567.83 2181.87
2528.11 -2565.42 2187.47
2528.13 -2565.04 2188.02
2528.2 -2565.61 2188.74
2528.24 -2565.33 2189.53
2528.34 -2566.13 2190.44
2528.16 -2565.15 2185.97
2528.17 -2566.46 2186.94
2528.97 -2555.62 2201.99
2528.88 -2554.14 2202.5
2528.88 -2566.09 2195.43
2528.75 -2565.67 2194.14
2528.53 -2565.32 2192.32
2528.43 -2566.49 2191.24
2529.18 -2566.55 2197.3
2529.03 -2566.87 2196.32
2528.89 -2567.43 2195.32
2529.54 -2562.95 2200.55
2529.37 -2564.58 2199.09
2529.33 -2566.49 2198.09
2528.2 -2567.41 2186.37
2528.25 -2568.43 2186.05
2528.29 -2569.35 2185.93
2528.41 -2570.04 2185.23
2528.36 -2570.57 2185.99
2529.19 -2564.13 2176.7
2528.95 -2564.92 2178.09
2528.92 -2566.54 2179.29
2528.82 -2567.65 2180.74
2528.59 -2568.68 2183.36
2528.53 -2569.99 2184.5
2528.79 -2569.01 2182.23
2528.15 -2567.51 2187.73
2528.19 -2566.69 2188.35
2528.23 -2567.73 2188.99
2528.29 -2566.79 2189.58
2528.34 -2568.03 2190.4
2528.18 -2568.95 2187.28
2528.78 -2567.34 2194.31
2528.6 -2567.03 2192.96
2528.47 -2567.85 2191.43
2529.17 -2568.22 2196.76
2529.04 -2568.08 2196.06
2528.89 -2568.62 2195.08
2528.72 -2569.24 2194.07
2529.62 -2564.79 2200.01
2529.47 -2566.16 2198.87
2529.38 -2567.9 2197.76
2528.25 -2569.74 2186.99
2528.3 -2570.74 2186.72
2528.35 -2571.52 2186.46
2528.5 -2571.75 2185.41
2528.46 -2572.51 2185.87
2529.11 -2565.48 2177.67
2529.37 -2565.82 2176.74
2529.07 -2567.03 2178.88
2528.97 -2568.34 2180.29
2528.98 -2569.66 2181.57
2528.72 -2569.76 2183.47
2528.62 -2572.19 2184.94
2528.71 -2570.83 2183.94
2528.87 -2570.3 2182.79
2528.18 -2569.8 2187.96
2528.18 -2569 2188.36
2528.28 -2569.06 2189.76
2528.24 -2570.32 2189.29
2528.41 -2569.87 2191.39
2528.36 -2570.38 2190.85
2528.27 -2571.2 2187.62
2528.63 -2569.21 2193.23
2528.52 -2569.18 2192.33
2529.16 -2569.56 2196.43
2528.97 -2569.58 2195.52
2528.92 -2570.47 2195.19
2528.78 -2570.01 2194.61
2528.64 -2570.41 2193.72
2528.56 -2570.63 2192.98
2529.99 -2565.09 2201.33
2529.8 -2566.36 2199.94
2529.62 -2567.58 2198.92
2529.43 -2569.11 2197.51
2528.35 -2571.94 2187.08
2528.45 -2572.8 2186.68
2528.57 -2573.34 2185.48
2528.56 -2573.83 2186
2528.51 -2573.69 2186.52
2529.24 -2567.46 2178.3
2529.7 -2567.16 2176.35
2529.14 -2569.07 2179.79
2529.18 -2570.48 2180.9
2529.06 -2571 2182.11
2528.64 -2573.51 2185.01
2528.74 -2572.49 2184.36
2528.91 -2571.52 2183.07
2528.23 -2571.03 2188.74
2528.29 -2571.85 2188.29
2528.28 -2571.13 2190.3
2528.23 -2571.76 2189.75
2528.5 -2570.83 2192.19
2528.43 -2571.3 2191.49
2528.36 -2571.82 2190.97
2528.33 -2572.74 2187.9
2529.2 -2570.74 2196.14
2528.92 -2571.25 2194.99
2528.72 -2571.12 2194.1
2528.75 -2571.93 2194.14
2528.62 -2571.43 2193.45
2528.49 -2571.52 2192.48
2530.19 -2567.1 2201.01
2529.94 -2568.13 2199.61
2529.66 -2569.29 2198.21
2528.4 -2573.23 2187.24
2528.46 -2574 2187.1
2528.6 -2574.04 2185.49
2528.52 -2574.3 2186.56
2528.56 -2574.4 2186.04
2529.46 -2568.89 2178.33
2529.32 -2569.58 2179.25
2529.4 -2571.17 2180.25
2529.35 -2572.04 2181.45
2529.13 -2571.94 2182.49
2528.85 -2573.05 2183.93
2528.25 -2572.19 2189.3
2528.28 -2572.61 2188.87
2528.3 -2572.29 2190.33
2528.44 -2572.1 2191.69
2528.37 -2572.7 2190.94
2528.39 -2573.81 2187.78
2528.33 -2573.3 2188.58
2529.5 -2570.89 2197.05
2529.16 -2571.89 2195.55
2529 -2572.21 2194.95
2528.84 -2572.67 2194.27
2528.65 -2572.33 2193.54
2528.69 -2573.1 2193.52
2528.5 -2572.03 2192.67
2528.47 -2572.61 2192.21
2530.46 -2569.22 2200.75
2529.92 -2569.84 2198.82
2528.46 -2574.57 2187.14
2528.43 -2574.36 2187.68
2528.57 -2574.91 2186.29
2529.79 -2571.48 2178.45
2529.99 -2570.49 2177.27
2529.68 -2571.96 2179.55
2529.36 -2572.76 2182.09
2529.8 -2573.99 2180.7
2528.97 -2573.37 2183.52
2528.67 -2574.85 2185.48
2528.74 -2574.55 2184.93
2528.81 -2574.25 2184.46
2528.31 -2572.88 2190.16
2528.3 -2573.09 2189.58
2528.39 -2573 2191.39
2529.76 -2571.38 2197.65
2529.11 -2573.07 2194.99
2528.92 -2573.35 2194.26
2528.58 -2573.06 2192.86
2528.68 -2573.77 2192.85
2528.44 -2573.33 2191.8
2530.33 -2570.58 2199.66
2528.48 -2574.92 2187.71
2528.51 -2575.09 2187.21
2528.43 -2574.49 2188.23
2528.59 -2575.44 2186.66
2530.16 -2573.33 2178.41
2530.3 -2572.28 2177.17
2529.58 -2574.03 2181.77
2529.81 -2575.04 2181.58
2530.09 -2575.45 2180.44
2530.29 -2574.77 2178.79
2528.7 -2575.46 2185.89
2528.36 -2573.45 2189.11
2528.37 -2573.6 2190.08
2528.43 -2573.94 2189.49
2528.36 -2573.44 2190.86
2528.45 -2574.19 2188.91
2529.99 -2572.21 2197.93
2529.4 -2572.9 2195.92
2529.05 -2573.94 2194.37
2529.23 -2574.03 2194.89
2529.43 -2574.28 2195.34
2528.92 -2574.08 2193.74
2528.81 -2574.17 2193.19
2528.56 -2573.62 2192.31
2528.65 -2574.21 2192.44
2528.45 -2573.83 2191.41
2530.56 -2572.42 2199.39
2528.57 -2575.56 2187.46
2528.58 -2575.73 2187.93
2528.49 -2575.1 2188.21
2530.51 -2574.12 2177.42
2529.26 -2574.42 2182.99
2528.91 -2574.75 2184.26
2529.95 -2575.8 2181.22
2530.25 -2576.18 2179.99
2530.41 -2575.72 2178.72
2529.67 -2575.42 2182.08
2530.66 -2575.54 2177.32
2528.85 -2575.28 2184.84
2528.71 -2575.84 2186.23
2528.78 -2575.5 2185.33
2528.48 -2574.27 2189.98
2528.45 -2574.05 2190.66
2528.51 -2574.74 2188.8
2530.14 -2573.93 2197.59
2529.74 -2574.26 2196.29
2529.17 -2574.44 2194.48
2529.38 -2574.82 2194.91
2530.03 -2575.71 2196.37
2529.95 -2576.42 2195.83
2528.53 -2574.08 2191.93
2528.88 -2574.7 2193.09
2528.52 -2574.32 2191.28
2530.79 -2574.71 2199
2531.14 -2575.72 2199.6
2528.55 -2575.35 2188.68
2528.69 -2576.11 2187.06
2529.32 -2575.3 2183.3
2530.28 -2576.9 2181.24
2530.54 -2577.01 2179.34
2530.69 -2576.62 2178
2529.98 -2576.55 2182.08
2530.84 -2576.46 2176.88
2529.54 -2576.02 2183.13
2528.92 -2575.77 2184.91
2528.83 -2576.14 2185.81
2528.53 -2574.74 2189.46
2530.55 -2576.27 2197.72
2529.15 -2574.78 2194.11
2529.03 -2574.88 2193.54
2529.7 -2576.31 2195.03
2530.59 -2577.18 2197.42
2530.58 -2577.97 2196.96
2530.28 -2577.83 2195.95
2528.67 -2574.85 2191.81
2528.8 -2574.89 2192.44
2531.39 -2576.83 2200.05
2531.06 -2577.38 2198.77
2528.62 -2575.91 2188.47
2528.78 -2576.36 2186.52
2529.05 -2575.7 2184.41
2530.33 -2578.31 2182.46
2530.57 -2579.26 2181.82
2530.72 -2578.35 2180.14
2531.16 -2578.58 2177.86
2531.05 -2577.47 2177.21
2530.1 -2577.68 2182.84
2529.57 -2576.75 2183.6
2529.13 -2576.19 2184.51
2528.56 -2574.67 2190.53
2528.59 -2575.39 2189.34
2529.73 -2576.81 2194.65
2529.25 -2575.49 2194.06
2529.05 -2575.53 2193.21
2531.05 -2578.55 2198.48
2531.15 -2579.42 2198.4
2530.81 -2579.08 2197.16
2530.43 -2578.57 2195.91
2528.69 -2575.2 2191.42
2528.95 -2575.7 2192.49
2531.43 -2578.38 2199.78
2528.7 -2576.27 2187.89
2528.7 -2576.08 2188.96
2528.84 -2576.6 2187.11
2530.32 -2579.44 2183.5
2530.12 -2578.97 2183.83
2530.58 -2580.38 2182.81
2530.94 -2581.46 2181.91
2530.96 -2580.71 2181.15
2531.19 -2580.12 2179.5
2531.35 -2579.86 2178.6
2529.98 -2578.23 2183.95
2529.54 -2577.07 2184.02
2529.1 -2576.56 2184.92
2528.97 -2576.45 2185.42
2529.2 -2576.11 2193.38
2529.08 -2576.16 2192.89
2531.69 -2579.83 2200.09
2531.4 -2580.53 2198.55
2531.81 -2580.94 2199.97
2530.98 -2579.99 2197.23
2528.79 -2575.67 2191.59
2528.71 -2575.48 2190.9
2528.98 -2576.28 2192.17
2528.87 -2576.68 2188.41
2528.95 -2576.83 2186.36
2530.36 -2580.07 2184.03
2530.15 -2579.39 2184.28
2529.95 -2578.73 2184.56
2530.67 -2581.21 2183.5
2531.08 -2582.71 2182.46
2531.56 -2583.6 2181.04
2531.38 -2582.43 2180.64
2531.47 -2581.29 2179.66
2529.46 -2577.29 2184.65
2529.43 -2577.6 2185.05
2531.78 -2582.31 2179.18
2528.68 -2575.57 2190.21
2528.74 -2576.16 2189.65
2529.83 -2577.63 2194.21
2529.46 -2576.99 2193.24
2529.24 -2576.82 2192.66
2532.07 -2582.37 2199.85
2531.72 -2582.04 2198.62
2531 -2580.55 2196.63
2531.61 -2582.17 2197.94
2530.45 -2579.3 2195.41
2528.87 -2576.16 2191.37
2528.8 -2576.08 2190.63
2528.96 -2577.04 2187.59
2528.9 -2576.66 2189.34
2529.37 -2578.05 2185.7
2529.23 -2577.83 2186.39
2529.33 -2578.16 2186.77
2530.16 -2579.74 2184.64
2530.42 -2580.73 2184.39
2530.76 -2582.08 2184.09
2531.03 -2582.89 2183.21
2531.4 -2584.16 2182.55
2531.58 -2584.62 2181.81
2531.95 -2585.72 2181.15
2531.99 -2584.31 2179.72
2529.88 -2579.13 2184.92
2532.19 -2585.6 2179.87
2528.91 -2576.55 2190.22
2530.08 -2578.61 2194.48
2529.83 -2578.23 2193.46
2529.66 -2578.02 2192.74
2532.32 -2583.72 2199.59
2532 -2583.78 2198.03
2531.47 -2582.27 2196.93
2530.91 -2580.83 2195.67
2529.19 -2576.88 2191.82
2529.54 -2577.91 2192.11
2529.23 -2578.02 2187.76
2529.16 -2577.83 2188.24
2529.04 -2577.17 2189.06
2529.09 -2577.12 2189.86
2529.86 -2579.18 2185.64
2530.02 -2579.58 2185.24
2529.93 -2579.68 2186.32
2529.93 -2580.02 2186.87
2529.79 -2579.65 2187.41
2530.29 -2580.45 2185.01
2530.59 -2581.65 2184.82
2531.12 -2583.5 2183.78
2530.98 -2583.27 2184.72
2531.36 -2584.3 2183.33
2531.53 -2585.66 2183.47
2531.65 -2585.92 2182.79
2531.86 -2587.17 2182.95
2532.22 -2587.39 2181.6
2532.46 -2587.28 2180.47
2529.07 -2576.81 2190.77
2530.48 -2579.88 2194.54
2530.37 -2579.93 2193.7
2530.21 -2579.79 2192.82
2532.34 -2584.93 2198.59
2531.93 -2584.88 2196.54
2531.74 -2583.92 2196.39
2531.29 -2582.28 2195.7
2530.9 -2581.45 2194.7
2529.46 -2578.05 2191.08
2529.84 -2579.03 2191.78
2529.79 -2579.61 2187.99
2529.38 -2578.33 2189.16
2529.8 -2579.64 2188.65
2529.53 -2578.44 2190.42
2529.49 -2578.53 2189.86
2530.14 -2580.23 2185.7
2530.19 -2580.67 2186.36
2530.25 -2581 2186.99
2530.07 -2580.57 2187.41
2530.07 -2580.59 2187.98
2530.38 -2581.05 2185.54
2530.78 -2582.65 2185.54
2531.29 -2584.29 2184.23
2530.96 -2583.49 2185.88
2531.09 -2584.02 2185.51
2531.45 -2585.58 2184.23
2531.63 -2587.37 2184.57
2531.73 -2587.47 2183.96
2531.93 -2588.69 2183.98
2532.03 -2588.62 2183.42
2532.45 -2589.15 2182.2
2532.79 -2589.36 2181.05
2530.7 -2581.38 2193.61
2530.49 -2581.03 2192.5
2530.25 -2580.38 2191.89
2532.34 -2586.29 2197.46
2532.02 -2586.63 2195.38
2531.65 -2584.85 2194.85
2531.39 -2583.58 2194.76
2532.76 -2587.54 2198.68
2531.06 -2582.48 2193.97
2530.05 -2579.8 2191.19
2529.95 -2579.93 2189.26
2530.05 -2580.51 2188.57
2530.03 -2579.92 2190.21
2530.52 -2581.92 2186.33
2530.27 -2581.18 2187.52
2530.48 -2582.05 2187.08
2530.74 -2583 2186.57
2531.26 -2584.68 2184.99
2531.41 -2585.86 2184.95
2530.99 -2584.01 2186.63
2531.15 -2584.61 2186.02
2531.56 -2587.4 2185.19
2531.82 -2588.42 2184.42
2532.16 -2590.15 2184.5
2532.35 -2590.67 2184.19
2532.58 -2590.66 2183.2
2532.91 -2591.11 2182.29
2533.05 -2592.03 2182.5
2533.12 -2592.6 2182.66
2530.81 -2582.07 2192.75
2530.49 -2581.44 2191.53
2530.21 -2580.7 2190.86
2532.55 -2588.54 2196.62
2532.23 -2588.82 2194.59
2531.78 -2586.41 2194.19
2531.51 -2585.28 2193.4
2531.27 -2583.87 2193.64
2533.08 -2589.73 2198.5
2531.02 -2583.1 2192.95
2530.29 -2581.35 2188.47
2530.19 -2580.97 2189.11
2530.09 -2580.47 2189.85
2530.47 -2582.13 2188.06
2531.34 -2585.91 2185.55
2531.52 -2587.49 2185.8
2530.92 -2584.02 2187.29
2531.11 -2584.82 2186.96
2531.31 -2586.07 2186.39
2531.69 -2588.28 2185.36
2531.99 -2589.49 2184.73
2532.06 -2590.06 2185.24
2532.35 -2591.29 2185.1
2532.53 -2591.71 2184.62
2532.7 -2592.08 2184.17
2532.88 -2592.69 2183.88
2533.11 -2593.11 2183.02
2530.77 -2582.49 2191.79
2530.52 -2581.87 2190.7
2530.33 -2581.36 2189.92
2532.82 -2590.7 2196.14
2532.64 -2591.55 2194.5
2532.22 -2589.88 2193.56
2531.79 -2587.4 2193.3
2531.23 -2584.31 2192.6
2531.47 -2586.04 2192.49
2533.25 -2591.84 2197.63
2530.98 -2583.53 2191.98
2530.44 -2581.89 2189.13
2530.54 -2582.43 2188.7
2530.67 -2583 2187.44
2530.64 -2583.02 2188.14
2531.53 -2587.6 2186.46
2531.69 -2588.4 2186
2530.88 -2584.13 2187.98
2531.04 -2584.89 2187.77
2531.31 -2586.24 2187.17
2531.95 -2589.74 2185.7
2532.49 -2591.84 2185.39
2532.36 -2591.39 2185.8
2532.63 -2592.38 2184.87
2532.72 -2592.61 2184.35
2532.97 -2593.34 2183.83
2533.24 -2593.72 2182.92
2533.33 -2594.37 2182.94
2530.76 -2583.01 2191.04
2530.57 -2582.42 2190.01
2533.11 -2593.26 2195.6
2532.59 -2592.3 2193.38
2532.34 -2591.2 2192.87
2531.9 -2588.62 2192.75
2532.91 -2593.69 2193.9
2531.2 -2584.86 2191.65
2531.58 -2587.28 2191.75
2533.52 -2593.98 2197.43
2530.99 -2583.96 2191.12
2530.62 -2582.87 2189.48
2530.67 -2583.29 2188.92
2530.86 -2584.07 2188.54
2531.57 -2587.87 2187.08
2531.81 -2589.13 2186.67
2532.07 -2590.34 2186.41
2531.11 -2585.44 2188.26
2531.34 -2586.65 2187.83
2532.58 -2592.29 2185.77
2532.39 -2591.76 2186.52
2532.79 -2593.08 2184.59
2532.92 -2593.54 2184.33
2533.04 -2594.1 2184.14
2533.08 -2594.78 2184.35
2533.32 -2594.99 2183.09
2533.45 -2596.03 2182.68
2530.72 -2583.35 2190.35
2533.5 -2595.16 2196.2
2533.19 -2595.14 2194.35
2532.18 -2590.47 2192.42
2532.5 -2592.59 2192.45
2532.76 -2593.64 2193.07
2531.91 -2589.23 2191.88
2533 -2594.91 2193.4
2531.28 -2585.92 2190.84
2531.64 -2587.99 2191.12
2531.09 -2584.75 2190.55
2533.91 -2597.68 2196.75
2533.57 -2596.62 2195.47
2530.82 -2583.88 2189.72
2530.98 -2584.59 2189.1
2531.55 -2587.93 2187.98
2531.83 -2589.34 2187.73
2532.1 -2590.57 2187.54
2532.3 -2591.41 2186.98
2531.42 -2587.3 2188.73
2532.67 -2592.92 2185.55
2532.53 -2592.55 2186.22
2532.48 -2592.24 2186.98
2532.96 -2594.35 2184.75
2532.97 -2595.02 2184.92
2533.1 -2595.44 2184.32
2533.64 -2597.88 2181.94
2533.38 -2597.59 2183.39
2533.19 -2597.15 2184.38
2533.22 -2596.57 2193.6
2532.32 -2591.61 2191.86
2532.7 -2593.94 2192.39
2532.51 -2593.02 2191.79
2532.86 -2594.93 2192.54
2532.09 -2590.5 2191.32
2532.98 -2596.15 2192.42
2531.37 -2586.75 2190.23
2531.77 -2588.95 2190.81
2531.15 -2585.52 2189.72
2534.03 -2599.69 2196.23
2533.66 -2598.61 2194.81
2531.34 -2586.73 2189.23
2531.82 -2589.38 2188.81
2532.14 -2590.87 2188.55
2532.31 -2591.59 2187.95
2531.63 -2588.52 2189.26
2532.76 -2593.46 2185.35
2532.54 -2592.82 2186.65
2532.45 -2592.36 2187.82
2532.85 -2594.01 2185.25
2532.86 -2594.63 2185.34
2532.86 -2595.08 2185.66
2533 -2595.78 2185.13
2533.47 -2599.23 2183.27
2533.69 -2599.04 2182.25
2533.32 -2599.23 2184.08
2533.16 -2597.99 2184.81
2533.82 -2599.76 2181.73
2533.94 -2601.03 2181.64
2533.96 -2602.27 2182.3
2534.09 -2603.36 2182.61
2534.05 -2604.02 2183.31
2534.15 -2604.86 2182.86
2533.19 -2598.13 2192.52
2532.38 -2592.2 2191.02
2532.67 -2594.31 2191.5
2532.76 -2595.18 2191.63
2532.54 -2593.53 2191.12
2532.88 -2596.42 2191.52
2532.12 -2590.79 2190.77
2533.03 -2598 2191.63
2531.53 -2587.89 2189.9
2531.96 -2589.95 2190.33
2533.93 -2600.78 2194.92
2533.51 -2599.5 2193.37
2532.03 -2590.26 2189.7
2532.22 -2591.46 2189.11
2532.33 -2591.96 2188.49
2532.77 -2593.75 2185.76
2532.64 -2593.4 2186.4
2532.55 -2593.18 2187.09
2532.44 -2592.8 2188.53
2532.81 -2594.42 2185.85
2532.8 -2594.98 2186.38
2532.87 -2595.86 2186.1
2533.05 -2597.99 2185.59
2533.53 -2600.39 2183.14
2533.43 -2600.25 2183.64
2533.22 -2599.45 2184.8
2533.7 -2602.16 2183.5
2533.8 -2603.46 2184.03
2533.8 -2604.1 2184.33
2533.9 -2605.35 2184.25
2534.22 -2605.74 2182.71
2534.06 -2606.25 2183.64
2533.33 -2599.73 2192.02
2532.5 -2593.24 2190.39
2532.34 -2591.94 2190.24
2532.62 -2594.28 2190.62
2532.7 -2595.2 2190.85
2532.83 -2596.91 2190.75
2532.98 -2598.34 2190.74
2532.22 -2591.43 2189.8
2533.09 -2599.13 2191.01
2534.21 -2602.73 2194.89
2533.79 -2601.61 2193.16
2532.41 -2592.52 2189.01
2532.75 -2594.06 2186.33
2532.69 -2593.96 2186.98
2532.5 -2593.21 2187.98
2532.63 -2593.87 2187.7
2532.47 -2593.45 2188.88
2532.79 -2595.87 2186.81
2532.75 -2594.73 2186.93
2532.97 -2597.82 2186.2
2533.12 -2599.44 2185.66
2533.56 -2602.01 2184.1
2533.27 -2600.4 2184.93
2533.48 -2601.71 2184.63
2533.66 -2603.3 2184.6
2533.69 -2603.99 2184.92
2533.8 -2605.01 2184.96
2533.91 -2606.56 2184.38
2534.28 -2606.28 2182.34
2534.07 -2606.87 2183.63
2534.32 -2606.79 2181.61
2534.4 -2607.32 2180.6
2533.38 -2601.08 2191.1
2533.59 -2601.82 2191.74
2532.44 -2592.7 2189.61
2532.54 -2593.67 2189.93
2532.67 -2595.15 2190.14
2532.6 -2594.29 2189.87
2532.74 -2596.62 2190.24
2532.91 -2598.25 2189.74
2532.97 -2598.83 2189.94
2533.19 -2600.33 2190.45
2534.02 -2603.41 2192.93
2534.5 -2604.51 2194.98
2532.69 -2594.74 2187.7
2532.59 -2593.96 2188.52
2532.65 -2594.9 2188.48
2532.58 -2594.07 2189.29
2532.72 -2595.96 2187.62
2532.88 -2597.77 2186.85
2533.06 -2599.35 2186.49
2533.19 -2600.43 2185.69
2533.4 -2601.74 2185.26
2533.57 -2603.17 2185.22
2533.6 -2604.22 2185.41
2533.72 -2605.48 2185.56
2533.82 -2606.51 2184.96
2533.95 -2607.35 2184.3
2534.03 -2607.42 2183.44
