2635.42 -2342.04 3192.12 
2636.31 -2341.3 3192.09 
2636.41 -2341.21 3191.49 
2637.21 -2340.53 3192.01 
2637.65 -2340.16 3191.64 
2638.34 -2339.58 3191.58 
2639.17 -2338.85 3191.68 
2613.45 -2359.83 3197.54 
2612.41 -2360.64 3196.68 
2610.56 -2362.27 3196.78 
2609.18 -2363.52 3197.16 
2607.99 -2364.55 3196.02 
2607.84 -2364.69 3196.74 
2607.9 -2364.68 3195.08 
2617.7 -2356.18 3197.85 
2616.25 -2357.46 3198.47 
2614.37 -2359.11 3198.52 
2606.6 -2365.91 3195.29 
2604.97 -2367.45 3195.79 
2603.99 -2368.47 3195.37 
2603.29 -2369.23 3194.51 
2603.21 -2369.44 3193.38 
2669.89 -2325.78 3217.66 
2668.78 -2325.72 3215.35 
2666.94 -2326.09 3213.78 
2665.09 -2326.09 3207.43 
2664.43 -2326.52 3211.06 
2665.27 -2326.4 3212.24 
2662.85 -2326.89 3210.15 
2663.87 -2326.54 3209.08 
2662.61 -2326.99 3197.16 
2662.43 -2326.89 3195.26 
2661.89 -2326.98 3193.69 
2660.71 -2327.36 3192.86 
2660.66 -2327.35 3191.47 
2660.31 -2327.47 3191.99 
2659.56 -2327.74 3190.85 
2663.68 -2326.46 3205.64 
2663.23 -2326.61 3206.89 
2662.34 -2326.88 3205.64 
2662.65 -2326.84 3204.29 
2662.78 -2326.93 3202.3 
2661.77 -2327.47 3200.96 
2662.45 -2327.2 3199.7 
2661.69 -2327.5 3198.71 
2659.66 -2327.75 3189.98 
2659.18 -2327.9 3190.22 
2659.93 -2327.9 3188.25 
2659.58 -2327.87 3189.19 
2659.15 -2328.12 3188.59 
2659.05 -2328.05 3189.38 
2660.18 -2328.02 3187.28 
2659.56 -2328.13 3187.78 
2659.39 -2328.35 3187.18 
2658.95 -2328.67 3186.75 
2646.99 -2334.2 3189.9 
2648.57 -2333.44 3189.7 
2645.09 -2334.93 3190.35 
2643.76 -2335.63 3190.33 
2643.48 -2335.89 3189.95 
2643.26 -2336.15 3189.52 
2650.44 -2332.52 3188.74 
2652.08 -2331.64 3188.43 
2649.8 -2332.77 3189.3 
2653.34 -2331.18 3187.34 
2642.7 -2336.56 3189.4 
2654.26 -2330.8 3186.82 
2655.05 -2330.56 3186.33 
2656 -2330.03 3186.54 
2658.2 -2329.1 3186.36 
2656.71 -2329.48 3187.21 
2657.75 -2329.11 3186.94 
2642.05 -2336.87 3189.85 
2641.36 -2337.25 3190.19 
2641.81 -2336.87 3190.31 
2641.03 -2337.34 3190.77 
2640.77 -2337.43 3191.32 
2639.57 -2338.52 3191.49 
2640.5 -2337.54 3191.87 
2619.2 -2354.99 3198 
2629.4 -2347.03 3194.95 
2627.92 -2348.18 3196.17 
2631.25 -2345.52 3194.11 
2632.91 -2344.2 3193.73 
2626.42 -2349.39 3197.21 
2634.1 -2343.18 3193.11 
2624.5 -2350.89 3197.64 
2622.68 -2352.24 3197.69 
2621.57 -2353.26 3198.82 
2620.01 -2354.53 3199.01 
2635.08 -2342.34 3192.92 
2635.81 -2341.72 3192.86 
2636.43 -2341.2 3192.7 
2637.19 -2340.53 3192.72 
2638.4 -2339.4 3193.05 
2638.09 -2339.74 3192.46 
2638.94 -2338.94 3192.48 
2639.66 -2338.22 3192.61 
2640.23 -2337.7 3192.37 
2612.42 -2360.81 3198.38 
2611.38 -2361.62 3197.59 
2609.47 -2363.32 3197.79 
2607.74 -2364.83 3197.51 
2606.51 -2365.94 3196.18 
2606.35 -2366.12 3196.83 
2618.43 -2355.76 3198.88 
2616.94 -2357 3199.11 
2615.12 -2358.59 3199.27 
2613.34 -2360.24 3199.82 
2604.75 -2367.67 3196.64 
2603.36 -2369.05 3195.93 
2602.61 -2369.8 3195.37 
2601.89 -2370.6 3194.8 
2601.59 -2371.14 3193.63 
2667.85 -2326.27 3216.7 
2666.18 -2326.49 3214.93 
2664.44 -2326.77 3213.27 
2663.12 -2326.71 3208.32 
2663.1 -2327 3211.98 
2662.5 -2327.07 3211.06 
2661.72 -2327.17 3209.33 
2661.52 -2327.3 3210.27 
2660.51 -2327.9 3197.56 
2661.01 -2327.45 3195.55 
2660.56 -2327.47 3193.89 
2659.27 -2327.82 3191.83 
2659.33 -2327.83 3192.7 
2658.48 -2328.21 3189.93 
2661.93 -2327 3206.9 
2661.72 -2327.1 3208.12 
2660.92 -2327.34 3207.42 
2661.23 -2327.25 3206.16 
2661.6 -2327.3 3203.83 
2660.84 -2327.42 3205.62 
2660.84 -2327.79 3202.01 
2659.31 -2328.5 3201.34 
2660.35 -2328.1 3200.21 
2659.37 -2328.48 3199.24 
2658.98 -2328.28 3188.13 
2658.55 -2328.33 3188.79 
2658.1 -2328.59 3188.42 
2658.13 -2328.45 3189.19 
2658.89 -2328.43 3187.63 
2658.37 -2328.57 3187.98 
2658.32 -2328.76 3187.31 
2647.92 -2333.67 3190.26 
2645.9 -2334.52 3190.61 
2649.32 -2332.95 3189.95 
2644.44 -2335.16 3190.89 
2643.11 -2335.96 3190.54 
2643.43 -2335.7 3190.85 
2642.83 -2336.26 3190.12 
2651.68 -2331.74 3189.02 
2653.3 -2330.96 3188.24 
2651.17 -2331.92 3189.61 
2654.43 -2330.58 3187.28 
2655.18 -2330.34 3186.8 
2655.92 -2329.89 3187.09 
2656.34 -2329.49 3187.76 
2657.27 -2329.17 3187.48 
2642.39 -2336.49 3190.33 
2641.6 -2336.88 3190.82 
2641.95 -2336.56 3191.12 
2641.33 -2336.99 3191.27 
2641.03 -2337.11 3191.77 
2640.74 -2337.27 3192.28 
2629.97 -2346.64 3195.57 
2628.72 -2347.68 3197.02 
2631.69 -2345.3 3195.29 
2632.95 -2344.27 3194.77 
2634.08 -2343.29 3194.07 
2627.45 -2348.74 3198.01 
2625.41 -2350.32 3198.53 
2635.04 -2342.47 3193.87 
2623.23 -2351.95 3198.56 
2620.7 -2354.24 3200.34 
2622.24 -2353.01 3200.16 
2619.1 -2355.51 3200.45 
2635.74 -2341.82 3193.58 
2636.35 -2341.27 3193.41 
2637.15 -2340.54 3193.45 
2638.45 -2339.33 3193.58 
2639.34 -2338.45 3193.3 
2639.49 -2338.28 3193.92 
2639.95 -2337.87 3193.18 
2640.44 -2337.46 3192.84 
2611.25 -2362.03 3199.5 
2610.43 -2362.57 3198.51 
2608.68 -2364.07 3198.17 
2607.53 -2365.15 3198.34 
2606.12 -2366.38 3197.43 
2604.64 -2367.82 3197.47 
2617.75 -2356.5 3199.97 
2615.9 -2358.03 3199.88 
2603.14 -2369.24 3196.71 
2602.1 -2370.27 3196.6 
2601.41 -2371.02 3195.93 
2600.53 -2372.01 3195.3 
2600.22 -2372.25 3196.11 
2599.72 -2372.91 3194.89 
2667.28 -2326.76 3218.24 
2665.56 -2326.89 3216.07 
2663.89 -2327.05 3214.02 
2662.45 -2327.27 3212.52 
2661.65 -2327.36 3211.3 
2660.48 -2327.59 3209.62 
2660.84 -2327.42 3208.88 
2660.63 -2327.62 3210.44 
2658.27 -2328.83 3198.05 
2659.3 -2328.16 3195.68 
2659.2 -2328 3193.96 
2658.39 -2328.2 3191.05 
2658.29 -2328.23 3191.83 
2658.14 -2328.34 3192.79 
2657.78 -2328.53 3189.69 
2657.53 -2328.6 3190.26 
2657.59 -2328.56 3190.88 
2661.12 -2327.29 3208.1 
2660.05 -2327.63 3207 
2659.83 -2327.71 3207.7 
2660.21 -2327.59 3208.31 
2660.4 -2327.86 3203.37 
2660 -2327.81 3205.3 
2659.6 -2327.85 3206.33 
2658.45 -2328.78 3202.54 
2657.09 -2329.33 3201.8 
2658.11 -2328.97 3200.5 
2656.89 -2329.39 3199.42 
2657.65 -2328.71 3188.91 
2657.46 -2328.92 3188.2 
2657.11 -2328.98 3188.68 
2657.24 -2328.8 3189.42 
2657.85 -2328.86 3187.72 
2648.43 -2333.33 3190.62 
2646.81 -2334.09 3190.94 
2644.9 -2334.87 3191.2 
2649.67 -2332.67 3190.47 
2644 -2335.29 3191.4 
2643.19 -2335.74 3191.33 
2653.02 -2331.02 3188.79 
2654.39 -2330.37 3188.21 
2652.96 -2330.95 3189.33 
2655.42 -2330.05 3187.36 
2656.89 -2329.19 3188.04 
2642.42 -2336.32 3190.93 
2641.49 -2336.73 3191.84 
2630.69 -2346.14 3196.15 
2629.76 -2347.03 3197.68 
2632.22 -2345.04 3196.49 
2633.25 -2344.14 3195.68 
2634.12 -2343.37 3195.08 
2634.87 -2342.71 3194.75 
2628.48 -2348.15 3198.84 
2626.59 -2349.57 3199.16 
2624.23 -2351.34 3199.26 
2635.59 -2342.03 3194.33 
2623.53 -2352.19 3200.83 
2636.36 -2341.32 3194.29 
2637.19 -2340.51 3194.32 
2638.45 -2339.32 3194.18 
2640.02 -2337.77 3193.69 
2640.09 -2337.68 3194.29 
2640.5 -2337.35 3193.37 
2640.86 -2337.07 3193.12 
2609.22 -2363.75 3199.05 
2607.74 -2365.15 3199.32 
2606.13 -2366.48 3198.19 
2604.58 -2367.97 3198.42 
2603.07 -2369.31 3197.7 
2601.93 -2370.44 3197.61 
2600.92 -2371.5 3197.58 
2600.95 -2371.46 3196.82 
2599.85 -2372.57 3196.82 
2599.08 -2373.49 3195.57 
2598.83 -2373.72 3196.11 
2598.48 -2374.46 3193.88 
2598.1 -2374.66 3194.95 
2596.99 -2376.15 3193.89 
2593.16 -2380.81 3192.38 
2665.62 -2327.18 3217.58 
2663.77 -2327.43 3215.87 
2663.4 -2327.3 3214.65 
2662.18 -2327.46 3213.23 
2661.34 -2327.56 3212.08 
2660.51 -2327.73 3211.23 
2659.43 -2327.96 3209.67 
2659.84 -2327.76 3209.01 
2659.56 -2327.99 3210.42 
2656.08 -2329.67 3197.84 
2657.6 -2328.95 3196.4 
2657.77 -2328.63 3194.18 
2657.3 -2328.67 3191.64 
2656.86 -2328.89 3192.47 
2656.4 -2329.16 3193.5 
2656.78 -2328.94 3190.01 
2656.62 -2328.97 3190.87 
2656.15 -2329.2 3190.56 
2656.31 -2329.1 3191.49 
2659.01 -2328.05 3206.94 
2659.03 -2328.02 3207.64 
2659.32 -2327.92 3208.34 
2658.89 -2328.4 3204.2 
2658.71 -2328.27 3205.93 
2657.66 -2328.89 3204.32 
2656.68 -2329.4 3203.29 
2655.89 -2329.77 3202.45 
2656.41 -2329.58 3200.9 
2655.17 -2330.09 3199.42 
2656.66 -2329.08 3189.19 
2656.5 -2329.28 3188.5 
2656.15 -2329.38 3188.85 
2656.17 -2329.25 3189.71 
2648.97 -2332.98 3191.04 
2647.72 -2333.61 3191.16 
2645.73 -2334.45 3191.53 
2644.37 -2335.05 3191.71 
2650.78 -2332.02 3190.78 
2643.71 -2335.36 3191.92 
2642.78 -2335.93 3191.57 
2643.21 -2335.61 3192.11 
2654.05 -2330.45 3188.72 
2655.14 -2329.9 3188.6 
2655.61 -2329.73 3188.27 
2652.7 -2331.02 3189.93 
2654.3 -2330.25 3189.23 
2642.07 -2336.31 3191.86 
2641.55 -2336.58 3192.47 
2631.41 -2345.69 3196.88 
2631.07 -2346.09 3197.92 
2629.98 -2347.17 3199.23 
2633.29 -2344.27 3196.66 
2632.57 -2344.96 3197.56 
2634.07 -2343.54 3196.32 
2634.84 -2342.84 3195.69 
2635.4 -2342.29 3195.14 
2628.37 -2348.47 3199.91 
2626.88 -2349.67 3200.38 
2625.3 -2350.78 3200.26 
2636.01 -2341.71 3194.94 
2636.85 -2340.9 3195.4 
2637.81 -2339.94 3195.25 
2638.64 -2339.12 3194.76 
2639.43 -2338.32 3194.94 
2640.07 -2337.67 3194.95 
2640.54 -2337.27 3194.01 
2640.59 -2337.21 3194.73 
2640.85 -2337.03 3193.7 
2606.08 -2366.7 3199.25 
2604.61 -2368.09 3199.41 
2603.03 -2369.47 3198.86 
2601.92 -2370.51 3198.48 
2600.88 -2371.59 3198.37 
2599.81 -2372.69 3198.22 
2599.75 -2372.69 3197.51 
2598.7 -2373.82 3196.66 
2597.81 -2374.88 3195.74 
2597.63 -2375 3196.45 
2596.8 -2376.18 3194.93 
2595.58 -2377.65 3194.13 
2594.42 -2379.14 3193.57 
2593.18 -2380.57 3193.9 
2592.25 -2381.82 3193.1 
2591.49 -2382.98 3192.2 
2665.35 -2327.6 3219 
2664.09 -2327.63 3217.24 
2662.12 -2327.85 3215.24 
2662.07 -2327.63 3214.1 
2661.09 -2327.77 3212.93 
2660.2 -2327.96 3212.1 
2659.45 -2328.14 3211.32 
2659.04 -2328.06 3208.99 
2658.71 -2328.24 3209.69 
2658.89 -2328.26 3210.52 
2654.71 -2330.19 3197.2 
2656.08 -2329.5 3195.48 
2655.74 -2329.38 3192.31 
2655.2 -2329.7 3193.37 
2654.87 -2329.97 3194.91 
2655.5 -2329.55 3190.14 
2655.46 -2329.51 3191.17 
2654.96 -2329.77 3190.75 
2654.88 -2329.8 3192.03 
2658.33 -2328.33 3207.42 
2658.2 -2328.43 3206.67 
2658.55 -2328.23 3208.24 
2657.31 -2328.93 3205.42 
2656 -2329.64 3204.03 
2655.32 -2330.02 3201.05 
2654.87 -2330.21 3202.07 
2655.03 -2330.11 3203.43 
2654.13 -2330.53 3200.32 
2653.62 -2330.73 3198.37 
2655.6 -2329.58 3189.12 
2655.04 -2329.81 3189.6 
2648.06 -2333.37 3191.53 
2649.27 -2332.79 3191.53 
2646.61 -2334.04 3191.86 
2644.92 -2334.75 3192.07 
2650.96 -2331.87 3191.4 
2652.66 -2330.97 3190.58 
2642.54 -2335.98 3192.15 
2642.15 -2336.19 3192.39 
2642.95 -2335.69 3192.62 
2653.85 -2330.39 3189.97 
2641.88 -2336.29 3192.85 
2631.39 -2346.14 3199.26 
2632.22 -2345.37 3198.45 
2630.15 -2347.42 3200.68 
2634.21 -2343.56 3197.2 
2633.54 -2344.27 3197.74 
2633.09 -2344.75 3198.52 
2634.89 -2342.87 3196.63 
2635.4 -2342.37 3196 
2635.95 -2341.85 3195.89 
2636.57 -2341.24 3195.99 
2637.87 -2339.96 3196.59 
2638.25 -2339.53 3195.89 
2639.03 -2338.75 3195.62 
2639.42 -2338.36 3195.6 
2639.97 -2337.8 3195.6 
2640.55 -2337.24 3195.44 
2640.94 -2336.92 3194.43 
2641 -2336.85 3195.21 
2641.49 -2336.52 3193.53 
2603.17 -2369.47 3199.81 
2601.92 -2370.61 3199.41 
2600.99 -2371.53 3199.21 
2599.86 -2372.73 3199.05 
2598.67 -2373.82 3197.25 
2598.71 -2373.86 3198.04 
2597.57 -2375.03 3197.13 
2596.57 -2376.35 3195.64 
2596.51 -2376.35 3196.26 
2595.37 -2377.76 3195.01 
2594.25 -2379.21 3194.37 
2593.15 -2380.5 3194.7 
2592.07 -2381.91 3194.06 
2591.14 -2383.27 3193.29 
2590.32 -2384.42 3192.77 
2663.53 -2328.14 3218.4 
2662.32 -2328.08 3216.44 
2661.01 -2327.96 3213.85 
2661.1 -2328.18 3214.97 
2659.89 -2328.22 3213 
2659.17 -2328.36 3212.18 
2658.67 -2328.45 3211.35 
2658.37 -2328.34 3209.03 
2658.34 -2328.48 3210.48 
2658.11 -2328.5 3209.77 
2653.39 -2330.67 3196.07 
2654.29 -2330.09 3192.96 
2653.77 -2330.4 3194.32 
2654.2 -2330.16 3190.5 
2654.24 -2330.1 3191.69 
2653.79 -2330.32 3191.23 
2653.5 -2330.46 3192.48 
2657.94 -2328.5 3207.97 
2657.73 -2328.62 3207.27 
2656.97 -2329.04 3206.13 
2658.06 -2328.47 3208.59 
2655.81 -2329.69 3205.02 
2653.96 -2330.62 3202 
2654.24 -2330.46 3203.79 
2653.06 -2331.02 3200.04 
2652.39 -2331.24 3197.69 
2649.41 -2332.68 3192.2 
2644.86 -2334.72 3192.58 
2643.97 -2335.15 3192.87 
2643.45 -2335.38 3192.88 
2652.67 -2330.93 3191.18 
2651.24 -2331.7 3192.04 
2642.55 -2335.87 3192.97 
2642.14 -2336.07 3193.27 
2631.78 -2346.4 3201.15 
2632.61 -2345.5 3200.03 
2634.48 -2343.62 3198.49 
2634.99 -2342.96 3197.61 
2633.97 -2344.24 3199.29 
2633.39 -2344.86 3199.9 
2635.43 -2342.41 3196.76 
2636.12 -2341.78 3196.83 
2636.9 -2341 3197.14 
2638.46 -2339.43 3197.3 
2639.02 -2338.81 3196.57 
2639.57 -2338.26 3196.52 
2639.85 -2337.96 3196.23 
2640.41 -2337.42 3196.2 
2640.89 -2337.01 3196.03 
2641.52 -2336.5 3194.2 
2641.52 -2336.49 3194.85 
2603.4 -2369.46 3200.82 
2602.15 -2370.56 3200.38 
2601.03 -2371.72 3200.5 
2600.2 -2372.53 3200.1 
2599.18 -2373.57 3199.62 
2598.68 -2373.99 3198.78 
2597.62 -2375.06 3197.89 
2597.7 -2375.08 3198.76 
2596.5 -2376.31 3196.92 
2595.21 -2377.87 3195.66 
2595.22 -2377.81 3196.3 
2595.36 -2377.66 3197.01 
2594.21 -2379.12 3195.18 
2593.27 -2380.27 3195.35 
2592.13 -2381.78 3194.87 
2590.75 -2383.63 3194.37 
2589.84 -2384.93 3193.68 
2588.91 -2386.28 3193.32 
2588.14 -2387.48 3192.62 
2662.77 -2328.75 3219.49 
2661.65 -2328.49 3216.97 
2659.88 -2328.42 3213.92 
2660.54 -2328.52 3215.41 
2658.96 -2328.6 3213 
2658.46 -2328.65 3212.16 
2658.14 -2328.67 3211.27 
2657.86 -2328.59 3209.27 
2657.87 -2328.7 3210.51 
2657.6 -2328.76 3209.9 
2652.32 -2331.15 3195.5 
2652.92 -2330.77 3193.79 
2652.8 -2330.81 3191.94 
2652.12 -2331.18 3193.3 
2657.3 -2328.81 3207.86 
2657.56 -2328.71 3208.59 
2656.66 -2329.15 3206.82 
2655.43 -2329.87 3205.43 
2653.14 -2331 3202.04 
2654.65 -2330.27 3205.45 
2653.48 -2330.84 3203.82 
2652.11 -2331.45 3199.83 
2651.4 -2331.7 3197.43 
2648.13 -2333.27 3192.52 
2646.67 -2333.91 3192.87 
2649.43 -2332.64 3192.97 
2644.96 -2334.65 3193.12 
2644.06 -2335.08 3193.4 
2643.53 -2335.33 3193.4 
2651.21 -2331.69 3192.8 
2642.73 -2335.71 3193.7 
2642.14 -2336.06 3193.87 
2633.31 -2345.44 3201.74 
2634.52 -2343.99 3200.06 
2635.02 -2343.24 3198.82 
2635.45 -2342.6 3197.84 
2634 -2344.83 3201.52 
2635.92 -2342.05 3197.39 
2636.71 -2341.43 3198.11 
2637.78 -2340.19 3197.82 
2639.24 -2338.69 3197.76 
2638.93 -2339.14 3198.47 
2639.53 -2338.33 3197.15 
2639.96 -2337.93 3197.29 
2640.18 -2337.68 3196.87 
2640.63 -2337.31 3196.87 
2641.55 -2336.49 3195.67 
2641.34 -2336.79 3196.85 
2641.58 -2336.57 3196.47 
2642.09 -2336.1 3194.48 
2600.04 -2372.93 3201.31 
2598.94 -2374.05 3200.66 
2597.98 -2374.96 3199.9 
2596.58 -2376.32 3197.9 
2596.93 -2376.05 3199.07 
2595.44 -2377.7 3197.92 
2594.19 -2379.09 3196.01 
2594.3 -2378.97 3196.8 
2593.16 -2380.45 3196.24 
2592.38 -2381.46 3195.66 
2591.17 -2383 3195.21 
2589.86 -2384.83 3194.91 
2589.12 -2385.85 3194.54 
2588.39 -2386.88 3194.22 
2587.43 -2388.35 3193.36 
2586.63 -2389.47 3193.18 
2587.14 -2388.92 3192.13 
2586.15 -2390.28 3192.02 
2585.35 -2391.6 3191.29 
2661.26 -2328.88 3217.8 
2660.97 -2329.27 3218.68 
2659.47 -2328.74 3214.58 
2658.77 -2328.84 3213.69 
2660.23 -2328.89 3216.28 
2658.24 -2328.9 3212.91 
2657.94 -2328.86 3212.04 
2657.65 -2328.9 3211.23 
2657.32 -2328.85 3209.16 
2657.32 -2328.97 3210.46 
2656.99 -2329.06 3209.67 
2650.41 -2332.15 3195.95 
2651.37 -2331.61 3194.54 
2649.88 -2332.4 3193.82 
2656.86 -2329.05 3208.27 
2656.22 -2329.38 3207.18 
2652.16 -2331.48 3201.83 
2654 -2330.61 3205.61 
2655.71 -2329.69 3207.23 
2652.75 -2331.25 3204.06 
2651.03 -2331.97 3199.18 
2649.62 -2332.64 3197.28 
2648.24 -2333.2 3193.19 
2646.75 -2333.84 3193.47 
2645.03 -2334.6 3193.76 
2644.05 -2335.08 3193.93 
2643.54 -2335.32 3193.98 
2642.74 -2335.72 3194.34 
2635.21 -2343.48 3200.32 
2634.88 -2344.21 3201.92 
2635.63 -2342.76 3199.12 
2636.25 -2342.02 3198.57 
2637.09 -2341.31 3199.2 
2637.86 -2340.27 3198.49 
2639.74 -2338.21 3197.82 
2639.52 -2338.55 3198.45 
2639.15 -2339.09 3199.22 
2640.14 -2337.89 3197.94 
2640.4 -2337.58 3197.5 
2640.82 -2337.28 3197.58 
2641.23 -2336.99 3197.71 
2641.86 -2336.33 3196.13 
2641.57 -2336.68 3197.3 
2642.09 -2336.11 3195.55 
2597.52 -2375.76 3201.1 
2595.69 -2377.57 3198.93 
2596.62 -2376.6 3200.01 
2594.37 -2378.98 3197.66 
2593.41 -2380.16 3197.03 
2592.26 -2381.68 3196.68 
2591.64 -2382.42 3196.02 
2590.35 -2384.11 3195.5 
2589 -2385.98 3195.88 
2588.33 -2386.89 3195.35 
2587.4 -2388.2 3194.63 
2587.07 -2388.72 3193.95 
2586.22 -2389.87 3193.77 
2585.75 -2390.59 3193.1 
2585.44 -2390.94 3193.54 
2584.86 -2392.03 3192.53 
2583.89 -2393.58 3191.93 
2578.32 -2402.82 3188.75 
2578.93 -2401.74 3189.34 
2577.77 -2403.81 3188.5 
2577.27 -2404.75 3188.17 
2660.81 -2329.76 3220.04 
2660.04 -2329.33 3217.53 
2659.19 -2329.08 3215.38 
2658.51 -2329.1 3214.3 
2657.97 -2329.19 3213.6 
2657.69 -2329.12 3212.69 
2657.37 -2329.12 3211.79 
2657.04 -2329.17 3210.93 
2656.75 -2329.13 3208.96 
2656.64 -2329.29 3210.07 
2656.27 -2329.42 3209.22 
2649.41 -2332.65 3194.84 
2648.54 -2333.11 3195.59 
2648.31 -2333.17 3193.86 
2656.12 -2329.46 3208.31 
2651.37 -2331.89 3202.05 
2654.96 -2330.14 3207.19 
2653.41 -2330.98 3205.99 
2651.79 -2331.78 3204.08 
2650.25 -2332.45 3200.01 
2648.98 -2333.13 3198.62 
2648.27 -2333.34 3197 
2646.8 -2333.8 3194.1 
2644.86 -2334.66 3194.39 
2643.86 -2335.2 3194.66 
2643.34 -2335.45 3194.68 
2642.58 -2335.83 3194.98 
2635.96 -2342.97 3200.89 
2635.68 -2343.62 3202.27 
2636.45 -2342.24 3200.03 
2637.09 -2341.9 3201.15 
2637.93 -2340.54 3199.86 
2638.4 -2339.84 3199.19 
2639.89 -2338.19 3198.38 
2639.7 -2338.51 3199.05 
2639.47 -2338.93 3199.81 
2639.03 -2339.47 3200.25 
2640.28 -2337.9 3198.58 
2640.55 -2337.58 3198.12 
2641.26 -2337.1 3198.45 
2642.18 -2336.2 3196.94 
2595.66 -2377.9 3200.35 
2594.78 -2378.64 3198.76 
2593.67 -2380.03 3198.39 
2592.7 -2381.18 3197.7 
2591.43 -2382.84 3197.2 
2590.68 -2383.7 3196.29 
2589.39 -2385.57 3196.86 
2588.07 -2387.21 3196.34 
2587.39 -2388.15 3195.64 
2586.88 -2388.86 3195.26 
2586.19 -2389.85 3194.4 
2585.25 -2391.17 3194.09 
2584.53 -2392.29 3193.34 
2584.35 -2392.51 3193.83 
2583.6 -2393.88 3192.57 
2582.49 -2395.64 3191.87 
2582.09 -2396.64 3190.64 
2580.91 -2398.44 3190.43 
2579.86 -2400.28 3189.52 
2578.61 -2401.91 3190.83 
2577.87 -2403.2 3190.34 
2579.39 -2400.63 3191.09 
2577.08 -2404.57 3190.27 
2576.63 -2405.47 3189.65 
2576.06 -2406.68 3188.99 
2570.81 -2417.1 3185.91 
2660.06 -2330 3219.66 
2659.44 -2329.76 3217.95 
2658.92 -2329.42 3216.07 
2658.22 -2329.43 3214.96 
2657.6 -2329.54 3214.21 
2657.33 -2329.42 3213.16 
2657.08 -2329.38 3212.3 
2656.73 -2329.4 3211.4 
2656.42 -2329.48 3210.67 
2656.02 -2329.63 3209.92 
2655.49 -2329.91 3208.96 
2655.28 -2329.99 3208.14 
2647.99 -2333.31 3194.6 
2647.03 -2333.86 3196.22 
2646.62 -2333.97 3195.52 
2650.17 -2332.57 3201.99 
2653.83 -2330.84 3207.49 
2652.27 -2331.61 3205.71 
2650.58 -2332.45 3203.91 
2648.82 -2333.35 3200.52 
2647.85 -2333.84 3199.75 
2647.54 -2333.84 3198.19 
2646.28 -2334.29 3196.96 
2646.37 -2334.03 3194.85 
2644.68 -2334.8 3195.16 
2643.54 -2335.4 3195.31 
2643.96 -2335.22 3195.67 
2642.79 -2335.77 3195.64 
2636.61 -2342.76 3202.36 
2636.49 -2343.48 3204.12 
2637.56 -2341.86 3202.57 
2638.25 -2340.56 3201.04 
2639.93 -2338.5 3199.85 
2640.42 -2337.92 3199.27 
2639.22 -2339.53 3201.18 
2639.72 -2338.94 3200.79 
2640.65 -2337.62 3198.78 
2641.87 -2336.6 3198.22 
2641.28 -2337.24 3199.21 
2642.56 -2335.94 3196.36 
2642.17 -2336.29 3197.68 
2594.55 -2379.18 3199.83 
2593.52 -2380.63 3200.03 
2592.52 -2381.65 3198.71 
2591.42 -2382.98 3198.02 
2590.14 -2384.64 3197.45 
2588.74 -2386.54 3197.6 
2587.4 -2388.08 3196.61 
2586.7 -2389.06 3196.22 
2586.07 -2389.99 3195.4 
2585.1 -2391.35 3194.6 
2584.2 -2392.71 3194.34 
2583.36 -2394.14 3193.07 
2583.16 -2394.37 3193.48 
2582.27 -2395.82 3192.59 
2581.19 -2397.62 3191.75 
2580.1 -2399.56 3190.97 
2578.15 -2402.49 3191.81 
2579.35 -2400.35 3192.33 
2576.91 -2404.54 3191.85 
2580.26 -2398.96 3192.08 
2576.06 -2406.11 3191.21 
2575.67 -2406.88 3190.72 
2575.41 -2407.53 3189.99 
2570.67 -2416.8 3188.07 
2570.15 -2417.91 3187.48 
2570.14 -2418.22 3186.1 
2569.7 -2419.13 3185.96 
2569.15 -2420.44 3185.84 
2563.12 -2432.77 3184.47 
2561.57 -2436 3183.72 
2658.58 -2330.25 3218.01 
2658.46 -2329.8 3216.53 
2657.69 -2329.85 3215.44 
2657.11 -2329.97 3214.71 
2656.96 -2329.73 3213.56 
2656.64 -2329.73 3212.79 
2656.52 -2329.63 3211.98 
2656.08 -2329.76 3211.39 
2655.87 -2329.79 3210.63 
2655.17 -2330.17 3209.79 
2654.23 -2330.69 3208.68 
2644.96 -2334.77 3196.05 
2648.91 -2333.4 3202.49 
2652.58 -2331.56 3207.08 
2650.91 -2332.38 3205.4 
2649.03 -2333.4 3203.87 
2647.86 -2333.97 3201.57 
2647.12 -2334.3 3200.5 
2646.74 -2334.32 3199.02 
2645.59 -2334.67 3197.58 
2644.24 -2335.16 3196.64 
2643.56 -2335.45 3196.27 
2643.03 -2335.7 3196.19 
2637.36 -2342.69 3204.39 
2638.2 -2341.72 3204.14 
2638.78 -2340.45 3202.46 
2640.44 -2338.21 3200.51 
2640.26 -2338.52 3201.06 
2640.84 -2337.67 3199.7 
2639.65 -2339.42 3202.19 
2640.12 -2338.87 3201.85 
2641.24 -2337.44 3200.08 
2641.76 -2336.99 3199.68 
2642.19 -2336.61 3199.28 
2642.41 -2336.33 3198.65 
2641.72 -2337.2 3200.57 
2642.85 -2335.85 3196.82 
2642.62 -2336.1 3198.03 
2643.02 -2335.87 3197.75 
2591.18 -2383.55 3199.12 
2589.99 -2385.05 3198.52 
2588.52 -2386.96 3198.35 
2587.41 -2388.17 3197.32 
2586.5 -2389.43 3196.98 
2585.78 -2390.42 3196.06 
2585 -2391.46 3195.54 
2584.13 -2392.79 3194.95 
2583.1 -2394.43 3194.12 
2581.98 -2396.15 3193.1 
2581.16 -2397.48 3192.44 
2578.89 -2401.04 3192.97 
2577.81 -2402.96 3192.53 
2580.38 -2398.61 3192.79 
2579.89 -2399.33 3193.28 
2576.69 -2404.8 3192.73 
2575.9 -2406.22 3191.93 
2574.98 -2407.77 3191.74 
2574.6 -2408.58 3191.04 
2574.79 -2408.77 3189.73 
2572.25 -2413.74 3188.72 
2571.44 -2415.45 3187.9 
2573.22 -2411.92 3188.8 
2571.6 -2414.83 3189.14 
2570.89 -2416.09 3189.29 
2570.05 -2417.66 3189.06 
2569.67 -2418.73 3187.61 
2569.56 -2418.56 3188.85 
2569.36 -2419.47 3187.32 
2568.75 -2421.06 3186.94 
2568.98 -2420.11 3187.88 
2566.58 -2425.9 3188.49 
2565.87 -2427.5 3187.24 
2565.15 -2428.66 3186.84 
2564.49 -2430.07 3185.8 
2563.87 -2431.39 3184.59 
2562.13 -2434.74 3185.09 
2563.67 -2431.46 3186.39 
2562.77 -2433.22 3186.12 
2561.26 -2436.42 3185.67 
2560.66 -2437.68 3184.36 
2559.14 -2440.81 3182.76 
2559.71 -2439.4 3184.25 
2657.59 -2330.82 3218.04 
2657.32 -2330.31 3216.23 
2656.56 -2330.07 3214 
2656.82 -2330.29 3215.23 
2656.07 -2329.95 3212.35 
2656.15 -2330.09 3213.22 
2655.5 -2330.2 3211.87 
2655.39 -2330.12 3210.97 
2654.25 -2330.8 3210.08 
2653.22 -2331.33 3208.58 
2647.72 -2334.13 3202.8 
2651.16 -2332.38 3206.77 
2649.08 -2333.45 3204.95 
2647.56 -2334.29 3203.63 
2646.9 -2334.49 3201.58 
2646.18 -2334.71 3200.25 
2645.06 -2334.99 3198.39 
2643.94 -2335.38 3197.33 
2643.33 -2335.65 3197.08 
2638.44 -2342.18 3206.22 
2638.89 -2341.38 3205.24 
2639.6 -2340.09 3203.86 
2640.83 -2338.13 3201.5 
2640.84 -2338.37 3202.26 
2641.19 -2337.65 3200.8 
2640.34 -2339.18 3203.32 
2640.93 -2338.61 3203.14 
2641.75 -2337.35 3201.36 
2642.38 -2336.72 3200.35 
2642.44 -2336.84 3201.11 
2642.95 -2336.41 3200.58 
2642.86 -2336.3 3199.71 
2643.01 -2336.08 3199.02 
2642.58 -2336.92 3201.89 
2643.64 -2335.61 3198.05 
2643.35 -2335.84 3198.7 
2587.78 -2388.05 3199.09 
2587.19 -2388.63 3198.1 
2586.3 -2389.87 3197.69 
2585.53 -2390.82 3196.88 
2584.75 -2391.88 3196.33 
2584 -2393.05 3196 
2582.94 -2394.66 3194.77 
2583.11 -2394.39 3195.4 
2581.78 -2396.38 3194.25 
2580.9 -2397.76 3193.28 
2580.59 -2398.16 3194.03 
2578.55 -2401.56 3193.76 
2579.54 -2399.87 3193.77 
2577.47 -2403.43 3193.23 
2576.33 -2405.29 3193.39 
2575.78 -2406.33 3192.56 
2575.01 -2407.63 3192.4 
2574.25 -2409.03 3192.1 
2574.11 -2409.39 3191.63 
2573.92 -2409.96 3190.93 
2573.93 -2410.42 3189.63 
2572.95 -2412.02 3189.94 
2572.36 -2413.16 3190.01 
2571.69 -2414.47 3189.99 
2570.7 -2416.26 3190.11 
2569.76 -2418.02 3189.91 
2569.42 -2418.68 3189.53 
2569.15 -2419.32 3188.8 
2569.02 -2419.36 3189.59 
2568.29 -2422.05 3187.22 
2568.56 -2420.87 3188.55 
2568.77 -2420.08 3189.13 
2567.76 -2423.02 3188.27 
2567.16 -2424.52 3188.33 
2566.81 -2425.37 3188.62 
2566.32 -2426.01 3189.8 
2566.06 -2426.65 3189.41 
2565.73 -2427.48 3188.82 
2566.58 -2425.55 3189.8 
2565.12 -2428.49 3188.51 
2564.35 -2430.03 3187.77 
2561.8 -2435.24 3186.32 
2563.35 -2431.91 3187.08 
2563.99 -2430.66 3188.1 
2562.65 -2433.32 3187.08 
2561.01 -2436.73 3186.88 
2560.44 -2437.84 3185.81 
2559.5 -2439.57 3185.63 
2558.51 -2441.47 3184.82 
2558.02 -2442.84 3183.2 
2547.76 -2463.97 3172 
2657.02 -2331.39 3218.69 
2656.82 -2330.71 3216.55 
2656.06 -2330.43 3214.28 
2655.52 -2330.35 3212.71 
2655.55 -2330.52 3213.52 
2654.57 -2330.88 3212.13 
2654.53 -2330.74 3211.21 
2653.01 -2331.6 3209.88 
2652.14 -2331.97 3208.5 
2646.49 -2334.78 3202.43 
2650.38 -2332.95 3207.43 
2649.24 -2333.46 3205.91 
2647.64 -2334.33 3204.58 
2646.48 -2334.86 3203.22 
2645.81 -2334.98 3201.13 
2644.52 -2335.33 3199.3 
2639.43 -2341.16 3206.17 
2640.1 -2340.92 3207.29 
2641.17 -2340.57 3208.89 
2640.27 -2339.9 3205.06 
2641.64 -2337.83 3202.66 
2641.75 -2337.53 3201.9 
2641.7 -2338.1 3203.69 
2641.16 -2338.95 3204.64 
2641.77 -2338.51 3204.94 
2642.56 -2337.13 3202.62 
2643.25 -2336.44 3201.68 
2643.51 -2336.51 3202.85 
2643.81 -2336.03 3201.29 
2644.2 -2336.01 3202.52 
2643.7 -2335.93 3200.33 
2644.11 -2335.63 3199.89 
2643.62 -2336.7 3203.92 
2586.92 -2389.33 3199.34 
2586.15 -2390.39 3198.97 
2585.39 -2391.24 3197.96 
2584.45 -2392.54 3197.35 
2583.61 -2393.72 3196.53 
2582.5 -2395.34 3195.79 
2581.87 -2396.3 3195.24 
2580.82 -2397.85 3194.84 
2579.97 -2399.15 3194.2 
2579.11 -2400.52 3194.34 
2578.17 -2402.22 3194.4 
2576.87 -2404.37 3194.15 
2575.76 -2406.18 3193.69 
2575.4 -2406.88 3193.45 
2575.02 -2407.57 3193.06 
2574.36 -2408.74 3192.67 
2573.75 -2409.93 3192.54 
2573.59 -2410.36 3191.93 
2573.35 -2411.04 3190.95 
2572.64 -2412.46 3190.79 
2572.16 -2413.36 3191.14 
2571.51 -2414.69 3190.69 
2569.98 -2417.52 3190.6 
2570.91 -2415.77 3190.86 
2569.28 -2418.88 3190.55 
2568.74 -2419.9 3189.93 
2568.2 -2421.62 3188.73 
2568.49 -2420.73 3189.28 
2567.56 -2423.11 3189.19 
2566.99 -2424.51 3189.76 
2566.6 -2425.34 3190.26 
2566.33 -2425.93 3190.4 
2566.01 -2426.61 3190.19 
2565.63 -2427.51 3189.58 
2564.82 -2429.02 3189.06 
2566.98 -2424.35 3190.35 
2561.99 -2434.69 3187.48 
2561.41 -2435.91 3187.56 
2563.43 -2431.65 3188.09 
2564.18 -2430.21 3189.3 
2562.75 -2433.01 3188.19 
2560.84 -2436.98 3187.85 
2560.31 -2437.98 3186.91 
2559.44 -2439.54 3186.65 
2558.62 -2441.19 3186.02 
2557.54 -2443.24 3185.71 
2557.4 -2443.73 3184.62 
2556.75 -2445.23 3183.25 
2555.96 -2446.69 3183.16 
2548.08 -2463.12 3173.6 
2547.27 -2465.23 3171.52 
2547.25 -2464.88 3174.27 
2546.85 -2465.87 3173.24 
2656.54 -2331.74 3218.79 
2655.87 -2330.86 3215.22 
2655.21 -2330.97 3214.21 
2654.73 -2330.95 3213.04 
2653.4 -2331.62 3211.73 
2653.16 -2331.62 3210.77 
2651.26 -2332.6 3208.93 
2645.17 -2335.33 3201.55 
2645.12 -2335.46 3202.23 
2649.14 -2333.72 3207.32 
2648.13 -2334.16 3205.92 
2646.76 -2334.82 3204.27 
2645.44 -2335.42 3203.18 
2640.83 -2339.9 3206.37 
2641.52 -2339.5 3206.94 
2642.27 -2339.04 3207.48 
2642.46 -2337.74 3204.53 
2642.5 -2337.41 3203.53 
2642.4 -2338.28 3205.88 
2643.53 -2336.98 3204.76 
2644.71 -2335.96 3203.83 
2645.08 -2335.96 3204.91 
2645.84 -2335.36 3204.24 
2645.13 -2336.13 3205.86 
2585.36 -2391.56 3199.2 
2584.2 -2393.17 3198.44 
2583.17 -2394.55 3197.32 
2582.2 -2395.9 3196.27 
2581.15 -2397.44 3195.84 
2580.66 -2398.13 3195.37 
2579.71 -2399.55 3194.58 
2578.86 -2400.95 3195.07 
2577.63 -2403.13 3194.93 
2576.47 -2404.99 3194.54 
2575.42 -2406.78 3194.56 
2574.87 -2407.83 3194.19 
2574.64 -2408.24 3193.44 
2573.98 -2409.44 3192.93 
2573.32 -2410.82 3192.48 
2573.06 -2411.48 3191.61 
2572.34 -2412.87 3191.77 
2571.7 -2414.22 3191.84 
2570.36 -2416.82 3191.3 
2569.44 -2418.49 3191.13 
2571.23 -2415.16 3191.78 
2568.84 -2419.7 3190.71 
2568.97 -2419.45 3191.31 
2568.47 -2420.53 3189.98 
2568.17 -2421.48 3189.36 
2566.15 -2426.4 3190.85 
2566.5 -2425.56 3190.83 
2565.72 -2427.25 3190.5 
2565.01 -2428.61 3189.84 
2567.61 -2422.72 3189.99 
2567.52 -2422.86 3190.49 
2561.92 -2434.88 3188.51 
2561.35 -2436.02 3188.57 
2563.52 -2431.42 3189.02 
2564.32 -2429.96 3190.22 
2562.75 -2433.08 3188.92 
2560.81 -2437.07 3188.62 
2560.07 -2438.37 3187.73 
2559.25 -2439.85 3187.45 
2558.55 -2441.29 3187.04 
2557.7 -2442.86 3186.67 
2553.06 -2452.47 3180.17 
2554.29 -2450.17 3181.46 
2553.19 -2451.93 3182.13 
2556.66 -2445.1 3184.85 
2556.9 -2444.5 3186.19 
2555.92 -2446.48 3184.74 
2554.92 -2448.62 3182.91 
2554.82 -2448.45 3184.47 
2552.53 -2453.55 3179.66 
2548.74 -2461.75 3175.38 
2547.78 -2463.62 3175.79 
2546.48 -2466.8 3172.15 
2546.87 -2465.47 3176.33 
2546.16 -2467.07 3175.1 
2545.76 -2468.12 3173.47 
2545.98 -2468.13 3171.33 
2545.36 -2469.65 3170.82 
2655.61 -2331.43 3216.3 
2655.01 -2331.4 3215.08 
2654.22 -2331.38 3213.29 
2654.07 -2331.71 3213.98 
2653.04 -2331.96 3212.18 
2651.52 -2332.61 3210.12 
2651.52 -2332.76 3210.91 
2649.75 -2333.53 3208.56 
2647.89 -2334.49 3206.98 
2647.15 -2334.74 3205.49 
2643.93 -2338.81 3210.95 
2643.1 -2338.6 3208.37 
2643.26 -2337.96 3207.02 
2643.38 -2337.47 3205.87 
2645.02 -2336.51 3206.91 
2646.38 -2335.26 3205.58 
2646.48 -2335.42 3206.72 
2646.43 -2335.75 3207.93 
2584.45 -2393.09 3199.76 
2583.14 -2395.21 3199.85 
2582.86 -2395.18 3198.11 
2581.62 -2397 3197.37 
2580.97 -2397.83 3196.56 
2580.05 -2399.1 3195.99 
2580.02 -2399.11 3195.24 
2579.29 -2400.25 3195.63 
2578.39 -2401.85 3195.65 
2577.36 -2403.62 3195.72 
2576.17 -2405.53 3194.94 
2575.23 -2407.19 3195.36 
2574.67 -2408.2 3194.73 
2574.14 -2409.13 3193.76 
2574.13 -2409.13 3194.48 
2573.49 -2410.4 3192.91 
2572.57 -2412.37 3192.31 
2571.95 -2413.75 3192.85 
2570.66 -2416.33 3191.96 
2569.76 -2417.97 3191.8 
2571.35 -2414.97 3192.74 
2568.56 -2420.31 3190.66 
2568.69 -2420.05 3191.37 
2568.17 -2421.31 3189.9 
2566.35 -2425.92 3191.39 
2565.87 -2426.97 3191.3 
2566.76 -2424.77 3191.3 
2567.39 -2423.25 3191.28 
2565.2 -2428.2 3190.79 
2567.98 -2421.73 3190.31 
2561.94 -2434.87 3189.3 
2561.31 -2436.14 3189.42 
2563.51 -2431.5 3189.83 
2564.41 -2429.82 3191 
2562.69 -2433.25 3189.68 
2559.95 -2438.59 3188.46 
2560.64 -2437.49 3189.5 
2558.95 -2440.43 3188.1 
2558.18 -2441.94 3187.97 
2557.26 -2443.69 3187.52 
2552.56 -2453.15 3181.73 
2553.93 -2450.24 3183.47 
2553.36 -2451.2 3184.16 
2552.8 -2452.3 3183.85 
2556.1 -2446.05 3185.96 
2556.48 -2445.31 3186.65 
2554.98 -2448.01 3185.63 
2553.92 -2449.85 3185 
2551.98 -2454.52 3180.75 
2551.34 -2456.05 3179.84 
2548.99 -2460.99 3179.16 
2548.43 -2462.24 3177.61 
2547.44 -2464.22 3178.21 
2546.72 -2465.71 3178.85 
2546.22 -2466.84 3177.13 
2545.57 -2468.28 3176.58 
2545.42 -2468.74 3174.99 
2545.05 -2469.57 3174.03 
2545.34 -2469.26 3172.68 
2545.05 -2470.6 3170.6 
2544.9 -2470.28 3172.76 
2544.5 -2472.11 3169.89 
2544.75 -2471.1 3171.61 
2654.93 -2332.67 3218.3 
2654.55 -2332.04 3215.92 
2653.63 -2332.24 3214.58 
2652.8 -2332.28 3212.87 
2651.35 -2333.02 3211.64 
2649.71 -2333.71 3209.48 
2649.64 -2333.98 3210.49 
2647.88 -2334.66 3207.84 
2644.81 -2337.37 3209.14 
2645.58 -2337.5 3211.28 
2644.96 -2336.86 3207.98 
2646.42 -2336.08 3209.15 
2647.85 -2334.91 3208.86 
2647.9 -2335.17 3210.02 
2581.87 -2396.89 3198.7 
2580.62 -2398.62 3198.05 
2580.23 -2398.96 3196.95 
2579.37 -2400.23 3196.57 
2578.58 -2401.56 3196.25 
2577.87 -2402.89 3196.7 
2576.81 -2404.56 3196.1 
2575.8 -2406.28 3195.67 
2574.96 -2407.81 3195.7 
2574.41 -2408.73 3195.09 
2573.58 -2410.24 3193.65 
2573.89 -2409.64 3194.92 
2572.83 -2411.81 3192.87 
2572.01 -2413.73 3193.62 
2570.78 -2416.18 3192.8 
2569.88 -2417.84 3192.48 
2569.14 -2419.18 3191.76 
2571.48 -2414.84 3193.77 
2568.32 -2420.87 3190.61 
2568.38 -2420.74 3191.17 
2566.74 -2424.84 3191.84 
2566 -2426.7 3191.85 
2566.45 -2425.64 3192.05 
2565.34 -2428.02 3191.72 
2567.45 -2423.21 3191.88 
2568.02 -2421.64 3190.91 
2561.89 -2435.07 3190.32 
2561.15 -2436.58 3190.21 
2563.62 -2431.5 3190.97 
2564.59 -2429.71 3192.19 
2562.75 -2433.28 3190.68 
2559.63 -2439.2 3189.36 
2559.01 -2440.33 3188.75 
2560.23 -2438.29 3190.45 
2558.11 -2442.06 3188.82 
2557.29 -2443.7 3188.41 
2556.62 -2445.03 3187.66 
2552.2 -2453.62 3183.18 
2553.38 -2450.9 3185.3 
2552.87 -2451.91 3185.07 
2552.3 -2453.17 3184.3 
2555.23 -2447.5 3186.75 
2555.83 -2446.43 3187.38 
2554.12 -2449.48 3185.89 
2551.64 -2454.84 3182.64 
2551.08 -2456.39 3181.42 
2550.21 -2458.12 3181.82 
2549.62 -2459.58 3180.54 
2548.63 -2461.59 3180.94 
2547.98 -2463.03 3179.68 
2547.08 -2464.79 3180.19 
2546.44 -2466.22 3180.52 
2546.03 -2467.17 3179.05 
2545.41 -2468.7 3177.9 
2545.03 -2469.58 3175.66 
2544.71 -2470.39 3174.42 
2544.47 -2471.19 3173.62 
2544.12 -2473.11 3170.95 
2544.25 -2471.98 3172.58 
2543.83 -2474.31 3169.52 
2653.74 -2333.07 3217.07 
2652.73 -2333.2 3215.36 
2652.32 -2332.9 3213.66 
2651.08 -2333.47 3212.58 
2649.64 -2334.27 3211.64 
2646.49 -2336.43 3210.41 
2648.09 -2335.34 3211.11 
2581.12 -2398.34 3199.98 
2579.92 -2399.89 3198.95 
2579.61 -2400.17 3197.95 
2578.77 -2401.47 3197.47 
2578.03 -2402.82 3197.9 
2577.14 -2404.13 3197.17 
2576.22 -2405.75 3196.67 
2575.23 -2407.43 3196.17 
2574.41 -2408.83 3195.67 
2573.89 -2409.74 3195.43 
2573.39 -2410.68 3194.28 
2572.77 -2412 3193.38 
2573.38 -2410.81 3195.08 
2572.58 -2412.55 3194.26 
2570.81 -2416.26 3193.61 
2569.96 -2417.8 3193.19 
2569.2 -2419.18 3192.56 
2568.72 -2420.08 3192.1 
2572.03 -2413.84 3194.79 
2571.37 -2415.3 3194.72 
2568.02 -2421.72 3191.67 
2567.03 -2424.34 3192.82 
2567.43 -2423.32 3192.46 
2565.52 -2427.8 3192.63 
2566.18 -2426.43 3192.77 
2566.7 -2425.34 3193.22 
2561.54 -2435.91 3191.08 
2562.08 -2434.88 3191.31 
2560.97 -2437.09 3191.11 
2563.7 -2431.59 3192.21 
2564.7 -2429.74 3193.45 
2562.83 -2433.5 3192.4 
2558.98 -2440.47 3190.28 
2558.51 -2441.33 3189.68 
2560.59 -2437.97 3192.18 
2559.5 -2439.69 3191.1 
2557.53 -2443.25 3189.68 
2556.76 -2444.78 3189.06 
2556.04 -2446.05 3188.07 
2551.65 -2454.54 3184.32 
2553.44 -2450.73 3186.23 
2552.91 -2451.71 3185.97 
2552.34 -2452.92 3185.37 
2551.71 -2454.31 3185.24 
2555.02 -2447.88 3187.87 
2554.31 -2449.13 3186.76 
2550.79 -2456.6 3183.18 
2549.89 -2458.4 3183.77 
2549.21 -2460.03 3182.77 
2548.15 -2462.22 3183.01 
2547.58 -2463.63 3181.46 
2546.76 -2465.26 3182.04 
2545.88 -2467.32 3180.86 
2546.27 -2466.27 3182.48 
2545.52 -2468.31 3179.93 
2545.15 -2469.27 3179.22 
2544.9 -2469.9 3177.04 
2544.58 -2470.6 3175.73 
2544.25 -2471.5 3174.79 
2543.95 -2472.41 3173.96 
2543.69 -2473.48 3173.22 
2543.44 -2474.83 3172.19 
2543.05 -2476.38 3170.75 
2651.26 -2333.88 3214.18 
2649.66 -2334.76 3213.07 
2647.9 -2336.02 3212.54 
2580.37 -2399.7 3200.75 
2578.92 -2401.52 3198.93 
2579.59 -2400.97 3200.79 
2578.01 -2403.17 3199.15 
2576.86 -2404.97 3198.26 
2575.71 -2406.89 3197.35 
2574.66 -2408.57 3196.47 
2574.01 -2409.71 3196.33 
2573.55 -2410.67 3196.12 
2572.84 -2412.13 3195.3 
2570.63 -2416.74 3194.38 
2569.6 -2418.57 3193.59 
2568.84 -2420.04 3193.11 
2568.31 -2421.06 3192.4 
2572.01 -2414.01 3195.68 
2571.26 -2415.8 3195.84 
2567.84 -2422.34 3192.72 
2567.53 -2423.42 3193.79 
2565.67 -2427.74 3193.72 
2567 -2424.91 3194.26 
2558.56 -2441.58 3191.83 
2557.97 -2442.46 3190.62 
2559.65 -2439.8 3192.81 
2556.91 -2444.56 3190.64 
2555.93 -2446.33 3189.42 
2555.09 -2447.79 3188.69 
2550.74 -2456.51 3184.37 
2553.29 -2450.94 3186.8 
2552.41 -2452.77 3186.49 
2551.74 -2454.13 3186 
2550.93 -2455.99 3185.17 
2554.15 -2449.39 3187.18 
2549.6 -2458.88 3184.8 
2548.8 -2460.53 3184.44 
2547.76 -2462.67 3184.44 
2547.19 -2463.99 3183.59 
2546.62 -2465.07 3183.89 
2545.89 -2466.9 3182.91 
2545.54 -2468.05 3181.59 
2546.24 -2465.86 3184 
2545.18 -2469.11 3180.79 
2544.88 -2469.88 3180.09 
2544.61 -2470.58 3178.36 
2544.27 -2471.48 3176.77 
2544.08 -2471.88 3175.83 
2543.78 -2472.73 3175.01 
2543.44 -2474 3174.57 
2542.95 -2475.62 3174.39 
2542.64 -2476.96 3173.09 
2542.51 -2478.11 3169.67 
2542.11 -2478.66 3171.86 
2650.07 -2334.94 3214.54 
2578.91 -2402.22 3201.22 
2577.25 -2404.76 3199.86 
2575.98 -2406.82 3198.77 
2574.93 -2408.36 3197.56 
2574.17 -2409.66 3197.3 
2573.66 -2410.7 3197.16 
2572.89 -2412.27 3196.37 
2570.29 -2417.59 3195.29 
2569.34 -2419.3 3194.17 
2568.2 -2421.54 3193.25 
2568.66 -2420.71 3194.13 
2571.98 -2414.38 3196.83 
2571.05 -2416.54 3197.22 
2567.94 -2422.7 3194.57 
2557.51 -2443.57 3191.81 
2556.5 -2445.6 3192.24 
2555.89 -2446.59 3190.73 
2554.96 -2448.13 3189.38 
2550.17 -2457.64 3185.52 
2553.43 -2450.74 3187.6 
2552.76 -2452.08 3187.07 
2552.18 -2453.36 3187.57 
2551.52 -2454.73 3186.94 
2550.76 -2456.37 3186.08 
2542.07 -2480.33 3166.26 
2541.58 -2481.73 3166.44 
2549.18 -2459.62 3185.74 
2548.36 -2461.32 3185.3 
2547.26 -2463.54 3185.36 
2546.93 -2464.3 3184.91 
2546.64 -2464.79 3185.01 
2545.88 -2466.58 3184.28 
2545.58 -2467.42 3183.46 
2545.27 -2468.44 3182.43 
2546.27 -2465.63 3184.89 
2544.92 -2469.55 3181.44 
2544.53 -2470.86 3179.95 
2544.64 -2470.38 3181.45 
2544.06 -2471.97 3178.38 
2543.68 -2472.87 3177.19 
2543.49 -2473.53 3176.49 
2543.25 -2474.29 3175.9 
2542.74 -2475.85 3175.84 
2542.25 -2477.56 3174.81 
2541.71 -2479.38 3173.68 
2542.04 -2479.72 3168.35 
2541.77 -2479.93 3170.54 
2541.43 -2480.46 3172.33 
2541.3 -2482.44 3167.13 
2574.99 -2408.62 3198.87 
2574.32 -2409.81 3198.56 
2573.71 -2411.01 3198.29 
2572.97 -2412.44 3197.53 
2569.98 -2418.53 3196.14 
2569.24 -2420.03 3195.65 
2568.43 -2421.9 3195.62 
2555.49 -2447.5 3191.77 
2554.94 -2448.28 3190.25 
2554.19 -2449.47 3188.61 
2549.84 -2458.32 3186.4 
2553.55 -2450.69 3188.61 
2552.76 -2452.16 3187.86 
2552.04 -2453.74 3188.41 
2551.33 -2455.23 3187.73 
2550.38 -2457.19 3187.06 
2541.62 -2480.95 3168.56 
2541.31 -2481.79 3169.02 
2548.78 -2460.37 3186.55 
2548.04 -2461.88 3186.18 
2547.25 -2463.49 3186.3 
2546.75 -2464.56 3185.93 
2545.5 -2467.43 3184.27 
2545.92 -2466.44 3184.8 
2545.1 -2468.85 3182.94 
2546.34 -2465.44 3185.8 
2544.1 -2472.04 3180.42 
2544.92 -2469.42 3183.12 
2544.4 -2471.11 3182.21 
2543.47 -2473.53 3178.72 
2543.09 -2474.61 3177.77 
2542.67 -2475.91 3176.9 
2542.17 -2477.53 3176.11 
2541.6 -2479.36 3175.32 
2541.25 -2480.7 3174.08 
2541.38 -2481.05 3170.88 
2541.07 -2481.58 3172.86 
2541.01 -2482.82 3169.41 
2541.03 -2483.42 3167.55 
2554.84 -2448.92 3192.12 
2554.43 -2449.29 3190.23 
2549.12 -2459.71 3187.4 
2553.79 -2450.52 3189.83 
2552.77 -2452.38 3188.89 
2551.98 -2454.16 3189.39 
2551.22 -2455.61 3188.73 
2550.59 -2456.88 3188.1 
2549.8 -2458.47 3188.24 
2541.04 -2482.02 3171.18 
2548.03 -2461.9 3187.13 
2547.28 -2463.41 3187.19 
2546.83 -2464.45 3186.95 
2545.63 -2467.09 3184.95 
2545.27 -2468.02 3184.36 
2546 -2466.22 3185.73 
2546.46 -2465.22 3186.8 
2543.84 -2472.73 3181.85 
2543.33 -2474.1 3180.1 
2544.82 -2469.66 3183.92 
2545.12 -2468.56 3184.62 
2544.23 -2471.64 3183.34 
2542.76 -2475.55 3178.78 
2542.31 -2476.93 3177.89 
2541.82 -2478.38 3176.84 
2541.37 -2479.94 3176.09 
2541.05 -2481.26 3174.83 
2540.68 -2482.54 3174.2 
2540.66 -2482.98 3172.55 
2540.67 -2483.3 3171.26 
2540.64 -2484.07 3169.38 
2540.6 -2485.3 3167.27 
2539.31 -2491.01 3167.39 
2539 -2493 3166.85 
2538.7 -2494.74 3166.53 
2538.38 -2496.51 3166.51 
2537.87 -2500.59 3165.33 
2538.04 -2498.64 3166.37 
2553.94 -2450.67 3191.64 
2548.8 -2460.41 3188.25 
2548.07 -2461.9 3187.96 
2552.87 -2452.61 3190.36 
2551.72 -2454.94 3190.42 
2551.02 -2456.3 3189.66 
2550.36 -2457.55 3189.44 
2549.35 -2459.53 3189.3 
2546.91 -2464.23 3187.6 
2547.58 -2462.99 3188.35 
2545.72 -2466.96 3186.09 
2545.4 -2467.77 3185.31 
2546.11 -2466.02 3186.72 
2546.55 -2465.04 3187.55 
2543.57 -2473.69 3183.44 
2543.15 -2474.81 3181.77 
2542.57 -2476.32 3180.39 
2544.79 -2469.83 3184.9 
2545.14 -2468.62 3185.44 
2544.1 -2472.13 3184.71 
2542.2 -2477.26 3179.29 
2541.71 -2478.59 3177.77 
2541.32 -2479.95 3177.16 
2541.02 -2481.15 3176.04 
2540.58 -2482.66 3175.43 
2540.23 -2484.28 3174.04 
2540.3 -2484.56 3172.66 
2540.3 -2485 3171.14 
2540.23 -2485.94 3169.34 
2539.88 -2487.86 3168.33 
2539.4 -2489.84 3168.63 
2538.9 -2491.86 3169.07 
2538.57 -2493.76 3168.79 
2538.29 -2495.51 3168.55 
2537.96 -2497.68 3168.46 
2537.5 -2502.65 3165.79 
2537.69 -2500.54 3167.17 
2537.47 -2502.18 3167.03 
2537.58 -2499.68 3169 
2548.3 -2461.51 3188.68 
2550.73 -2457.23 3191.35 
2549.98 -2458.51 3190.38 
2548.9 -2460.59 3189.99 
2547.16 -2463.92 3188.53 
2547.93 -2462.48 3189.45 
2545.79 -2466.88 3186.99 
2545.44 -2467.8 3186.2 
2546.24 -2465.81 3187.7 
2546.69 -2464.94 3188.53 
2543.26 -2474.74 3184.68 
2542.68 -2476.25 3182.76 
2542.15 -2477.54 3180.75 
2545.06 -2469.05 3186.13 
2544.61 -2470.55 3185.85 
2544.01 -2472.54 3185.8 
2541.79 -2478.48 3179.04 
2541.29 -2479.96 3177.99 
2540.96 -2481.18 3177.29 
2540.59 -2482.47 3176.69 
2540.22 -2484.07 3175.37 
2539.83 -2485.86 3174.69 
2539.72 -2486.29 3173.55 
2539.86 -2486.19 3172.44 
2539.99 -2486.37 3171.01 
2539.62 -2487.91 3170.52 
2539.32 -2489.34 3170.36 
2539 -2490.46 3170.58 
2538.64 -2492.14 3170.84 
2538.24 -2494.39 3170.46 
2537.93 -2496.4 3170.11 
2537.62 -2498.36 3170.31 
2537.25 -2503.92 3167.21 
2537.3 -2501.51 3169.04 
2537.16 -2503.09 3168.69 
2537.34 -2500.47 3170.07 
2549.68 -2459.44 3191.88 
2548.73 -2461.18 3190.93 
2547.3 -2463.86 3189.43 
2548.01 -2462.6 3190.61 
2545.92 -2466.74 3188.12 
2545.54 -2467.68 3187.28 
2545.25 -2468.49 3186.65 
2546.36 -2465.85 3188.77 
2546.78 -2465.17 3189.71 
2543.42 -2474.35 3185.91 
2542.69 -2476.37 3184.69 
2542.3 -2477.47 3182.91 
2541.79 -2478.78 3181.21 
2541.59 -2479.27 3179.54 
2544.91 -2469.68 3186.86 
2544.28 -2471.85 3186.97 
2540.83 -2481.59 3178.21 
2541.17 -2480.59 3179.03 
2540.48 -2483.12 3177.65 
2540.21 -2484.12 3176.37 
2539.69 -2486.17 3175.67 
2539.29 -2487.76 3175.1 
2539.39 -2487.47 3174.08 
2539.34 -2487.91 3173.01 
2539.1 -2488.56 3173.34 
2539.44 -2487.78 3171.99 
2539.06 -2489.35 3171.76 
2538.84 -2490.43 3171.61 
2538.6 -2491.21 3172.06 
2538.39 -2492.94 3171.62 
2538.09 -2494.66 3171.46 
2537.83 -2496.39 3170.92 
2537.57 -2498.26 3170.87 
2537.06 -2505.87 3167.04 
2536.99 -2504.12 3169.09 
2537.01 -2502.37 3170.03 
2537.33 -2499.86 3170.97 
2537.04 -2501.63 3170.65 
2548.57 -2462.06 3192.99 
2547.36 -2463.93 3190.3 
2547.97 -2463.28 3192.47 
2546.29 -2466.34 3189.59 
2545.87 -2467.28 3189.17 
2545.49 -2468.03 3188.23 
2545.16 -2468.85 3187.3 
2547.18 -2464.78 3191.49 
2546.53 -2465.99 3190.49 
2543.57 -2474.19 3187.21 
2542.8 -2476.19 3186.01 
2542.26 -2477.83 3184.8 
2541.86 -2478.84 3182.84 
2541.36 -2480.17 3180.53 
2544.82 -2470.01 3187.44 
2544.27 -2472.18 3188.1 
2540.55 -2482.75 3178.57 
2540.86 -2481.78 3179.47 
2540.17 -2484.42 3177.93 
2539.98 -2485.06 3176.75 
2539.3 -2487.65 3176.02 
2539.02 -2488.69 3173.92 
2539.02 -2488.69 3174.84 
2538.96 -2489.35 3172.53 
2538.85 -2489.6 3173.14 
2538.78 -2490.25 3172.58 
2538.65 -2490.6 3173.07 
2538.42 -2492.06 3172.52 
2538.16 -2493.77 3172.43 
2537.8 -2495.99 3171.62 
2537.58 -2497.58 3171.59 
2536.84 -2505.65 3168.76 
2536.81 -2507.82 3167.48 
2536.88 -2503.57 3170.24 
2536.81 -2504.85 3169.86 
2536.77 -2509.78 3165.97 
2536.82 -2513.54 3162.87 
2537.07 -2501.26 3171.52 
2537.37 -2499.12 3171.71 
2536.91 -2502.96 3170.83 
2545.63 -2468.12 3189.63 
2546.13 -2467.04 3190.58 
2545.2 -2469 3188.36 
2546.56 -2466.73 3192.34 
2542.83 -2476.4 3187.01 
2542.37 -2477.69 3186.08 
2541.85 -2479.28 3184.81 
2541.51 -2480.14 3182.64 
2540.99 -2481.6 3180.74 
2544.81 -2470.24 3188.22 
2544.78 -2470.95 3189.55 
2540.43 -2483.57 3179.85 
2539.95 -2485.44 3178.72 
2539.6 -2486.69 3177.02 
2539.07 -2488.64 3176.41 
2538.95 -2489.05 3175.46 
2538.81 -2489.56 3173.74 
2538.79 -2489.7 3174.41 
2538.62 -2490.68 3173.78 
2538.41 -2491.91 3173.06 
2538.2 -2493.3 3172.95 
2537.89 -2495.43 3172.33 
2537.61 -2497.07 3172.52 
2536.73 -2506.97 3168.85 
2536.69 -2508.97 3167.49 
2536.78 -2504.49 3170.8 
2536.71 -2505.86 3169.89 
2536.67 -2511.13 3166.39 
2536.58 -2513.23 3165.24 
2536.62 -2514.76 3163.87 
2537.12 -2500.63 3172.27 
2536.92 -2502.53 3171.6 
2537.44 -2498.3 3172.65 
2536.81 -2503.85 3171.43 
2536.64 -2516.27 3162.36 
2545.24 -2469.35 3189.67 
2545.65 -2468.66 3191.2 
2545.98 -2468.13 3192.07 
2542.52 -2477.67 3187.49 
2542.01 -2479.01 3186.33 
2541.53 -2480.58 3184.77 
2541.16 -2481.59 3182.76 
2540.63 -2483.33 3181.6 
2540.14 -2485 3180.5 
2539.68 -2486.59 3179.12 
2539.38 -2487.59 3177.52 
2538.89 -2489.52 3176.35 
2538.74 -2490.12 3175.15 
2538.63 -2490.76 3174.39 
2538.15 -2493.48 3173.61 
2537.94 -2494.89 3173.13 
2537.75 -2496.09 3173.46 
2536.63 -2508.08 3168.99 
2536.58 -2510.19 3167.91 
2536.73 -2505.17 3171.23 
2536.63 -2506.91 3170.06 
2536.5 -2512.61 3166.9 
2536.49 -2514.38 3165.83 
2536.48 -2515.45 3164.78 
2537.24 -2499.91 3172.79 
2536.94 -2502.17 3172.28 
2536.8 -2503.76 3172.08 
2537.56 -2497.45 3173.76 
2536.57 -2516.79 3163.59 
2536.58 -2518.64 3163.49 
2536.61 -2520.58 3163.52 
2536.62 -2522.68 3163.24 
2541.62 -2480.83 3186.58 
2541.04 -2482.55 3184.43 
2540.42 -2484.53 3182.79 
2539.98 -2485.95 3181.29 
2539.53 -2487.69 3179.6 
2539.18 -2488.43 3177.63 
2538.77 -2490.33 3176.41 
2538.59 -2490.98 3175.22 
2538.43 -2491.67 3174.29 
2537.95 -2494.94 3174.09 
2538.26 -2492.61 3174.45 
2536.59 -2509 3169.31 
2536.52 -2511.31 3168.42 
2536.69 -2504.8 3171.97 
2536.67 -2506.5 3170.93 
2536.6 -2508.47 3170.55 
2536.44 -2513.48 3167.54 
2536.39 -2515.05 3166.66 
2536.41 -2516.15 3165.8 
2537.32 -2499.55 3173.6 
2537.02 -2501.67 3173.04 
2536.85 -2503.45 3172.89 
2537.85 -2495.77 3174.55 
2537.54 -2497.74 3174.44 
2536.47 -2517.7 3165.31 
2536.39 -2520.17 3165.67 
2536.38 -2521.87 3165.32 
2536.61 -2524.77 3163.68 
2536.44 -2523.85 3165.23 
2537.14 -2531.08 3158.35 
2540.23 -2485.94 3184.06 
2539.86 -2486.9 3182.24 
2539.6 -2488.17 3181.39 
2539.19 -2489.44 3179.48 
2539 -2489.66 3177.97 
2538.58 -2491.24 3176.41 
2538.4 -2491.83 3175.3 
2538.15 -2493.46 3174.97 
2536.53 -2510.71 3169.46 
2536.42 -2512.99 3168.61 
2536.74 -2504.48 3172.81 
2536.63 -2506.25 3171.9 
2536.58 -2507.93 3171.63 
2536.53 -2510.17 3170.58 
2536.33 -2515.02 3167.5 
2536.35 -2516.58 3166.95 
2536.36 -2518.25 3166.54 
2537.41 -2499.2 3174.8 
2537.17 -2501.23 3173.97 
2536.93 -2503.11 3173.78 
2538.01 -2494.84 3175.61 
2537.7 -2497.04 3175.16 
2536.25 -2520.52 3166.99 
2536.29 -2522.29 3166.49 
2536.53 -2526.1 3164.31 
2536.66 -2526.82 3163 
2536.87 -2527.36 3161.17 
2536.39 -2524.23 3166.04 
2536.92 -2529.3 3160.37 
2536.88 -2530.85 3160.55 
2536.95 -2531.85 3159.99 
2537.11 -2532.98 3159.46 
2537.37 -2534.13 3158.04 
2538.87 -2491.52 3179.43 
2538.79 -2490.79 3177.74 
2538.28 -2492.94 3176.02 
2538.48 -2492.51 3177.27 
2536.45 -2512.72 3169.65 
2536.33 -2514.87 3168.3 
2536.88 -2504.23 3173.88 
2536.74 -2505.93 3173.14 
2536.62 -2507.42 3172.82 
2536.56 -2509.22 3172.1 
2536.5 -2511.42 3171.18 
2536.29 -2516.87 3168 
2536.34 -2518.66 3167.35 
2537.57 -2498.72 3175.98 
2537.29 -2500.8 3175.28 
2537.07 -2502.63 3174.79 
2538.15 -2494.45 3176.86 
2537.84 -2496.56 3176.39 
2536.26 -2520.78 3167.63 
2536.48 -2526.16 3165.07 
2536.57 -2528.17 3163.7 
2536.64 -2528.33 3162.93 
2536.75 -2529.38 3161.85 
2536.35 -2524.28 3166.69 
2536.73 -2530.72 3162 
2536.82 -2532 3161.43 
2536.87 -2533.02 3161.24 
2537.14 -2534.29 3160.1 
2536.94 -2534.14 3161.25 
2537.33 -2535.49 3159.54 
2537.62 -2537.31 3159.09 
2538.48 -2493.67 3178.84 
2536.47 -2513.49 3170.3 
2536.33 -2515.26 3169.21 
2536.28 -2517.29 3168.93 
2537.01 -2503.86 3175.28 
2536.85 -2505.58 3174.62 
2536.72 -2507.14 3174.32 
2536.63 -2508.7 3173.87 
2536.56 -2510.3 3172.82 
2536.55 -2512.57 3172.4 
2536.3 -2519.02 3167.96 
2537.76 -2498.34 3177.83 
2537.51 -2500.33 3177.28 
2537.26 -2502.29 3176.56 
2538.14 -2495.74 3178.24 
2536.27 -2522.64 3167.52 
2536.47 -2526.26 3165.93 
2536.55 -2528.3 3164.39 
2536.63 -2530.49 3163.4 
2536.68 -2530.19 3162.75 
2536.4 -2524.8 3167.43 
2536.74 -2531.67 3162.32 
2536.82 -2532.91 3162.27 
2536.85 -2533.94 3162.25 
2537.1 -2535.33 3161.32 
2536.96 -2534.94 3162.18 
2537.3 -2537.04 3161.18 
2537.69 -2539.32 3160.31 
2536.44 -2514.5 3171.2 
2536.36 -2516.39 3170.24 
2536.29 -2518.27 3169.7 
2536.26 -2519.75 3168.73 
2537.23 -2503.78 3177.96 
2537.04 -2505.64 3177.05 
2536.87 -2507.14 3176.18 
