2580.08 -2713.31 2910.65
2580.04 -2713.2 2913.09
2580.01 -2713.14 2912.23
2580.06 -2713.32 2911.27
2580.18 -2713.72 2910.99
2580.1 -2713.31 2913.77
2580.18 -2713.73 2913.05
2580.12 -2713.53 2912.54
2580.15 -2713.69 2911.88
2580.29 -2714.04 2910.55
2580.56 -2714.03 2917.36
2580.98 -2715.09 2919.01
2580.26 -2714.18 2912.75
2580.89 -2715.08 2918.29
2580.81 -2715.07 2917.64
2580.51 -2714.28 2916.63
2580.33 -2713.77 2915.66
2580.28 -2713.91 2914.82
2580.26 -2714.08 2913.88
2581.2 -2715.64 2919.61
2580.29 -2714.34 2912.15
2580.29 -2714.32 2911.65
2580.47 -2714.52 2910.18
2581.32 -2715.85 2920.15
2581.43 -2716.02 2920.76
2581.56 -2716.25 2921.34
2580.75 -2715.25 2916.99
2580.96 -2715.58 2917.82
2580.52 -2714.76 2916.02
2580.41 -2714.48 2915.38
2581.33 -2716.15 2919.74
2581.18 -2715.96 2918.79
2580.39 -2714.83 2912.81
2580.38 -2714.82 2913.68
2580.35 -2714.51 2911.14
2580.73 -2715.04 2909.48
2581.12 -2715.66 2908.76
2581.1 -2715.94 2918.17
2580.57 -2715.27 2915.66
2580.51 -2715.2 2915.16
2580.4 -2714.83 2914.56
2581.32 -2716.35 2919.27
2581.53 -2716.63 2920.1
2580.41 -2714.85 2911.9
2580.59 -2714.99 2910.01
2580.47 -2714.83 2910.64
2581.65 -2716.78 2920.75
2581.83 -2717.04 2921.37
2582.16 -2717.44 2921.99
2580.92 -2715.95 2917.04
2581.12 -2716.5 2917.7
2581.32 -2716.76 2918.55
2581.47 -2717.08 2919.13
2581.58 -2717.03 2919.72
2581.74 -2717.21 2920.22
2580.9 -2715.74 2909.32
2580.66 -2715.51 2909.75
2581.35 -2716.24 2908.41
2581.88 -2717.42 2920.75
2582.28 -2717.97 2921.4
2582.58 -2718.25 2922.12
2580.76 -2715.99 2916.17
2580.92 -2716.63 2916.73
2581.2 -2717.17 2917.65
2580.99 -2717.32 2916.79
2580.47 -2715.74 2914.44
2580.56 -2715.86 2915.02
2580.66 -2716.13 2915.56
2580.41 -2715.73 2913.83
2581.4 -2717.39 2918.49
2581.72 -2717.59 2919.54
2581.59 -2717.65 2918.95
2581.9 -2717.78 2920.05
2580.39 -2715.43 2913.06
2580.44 -2715.08 2911.17
2580.53 -2715.36 2910.54
2581.08 -2716.23 2909.02
2582.13 -2718.1 2920.55
2582.65 -2718.69 2921.55
2582.37 -2718.49 2920.8
2582.89 -2718.83 2922.27
2580.77 -2716.78 2915.9
2580.88 -2717.5 2916.17
2581.21 -2717.97 2917.26
2581.06 -2718.03 2916.7
2580.93 -2718.06 2916.16
2581.43 -2718.27 2917.93
2580.47 -2716.25 2914.03
2580.54 -2716.3 2914.63
2580.62 -2716.49 2915.18
2580.71 -2717.02 2915.46
2580.41 -2716.27 2913.42
2580.4 -2716.01 2912.96
2580.41 -2716.55 2912.94
2581.48 -2717.98 2918.35
2581.9 -2718.28 2919.36
2582.06 -2718.41 2919.86
2580.4 -2715.57 2912.56
2580.43 -2715.39 2911.59
2580.7 -2716.07 2909.76
2582.62 -2718.98 2920.93
2582.88 -2719.13 2921.71
2582.39 -2718.88 2920.27
2583.13 -2719.57 2921.91
2583.5 -2720.07 2922.33
2580.78 -2717.54 2915.61
2580.8 -2718.04 2915.45
2581.07 -2718.51 2916.53
2580.88 -2718.65 2915.68
2580.67 -2718.76 2914.9
2581.28 -2718.85 2917.12
2581.42 -2718.68 2917.64
2580.52 -2716.84 2914.14
2580.63 -2717.15 2914.86
2580.62 -2717.84 2914.75
2582.14 -2719.02 2919.36
2581.85 -2718.65 2918.82
2580.42 -2716.08 2912.24
2580.4 -2716.74 2912.44
2580.44 -2716.01 2911.53
2580.48 -2715.73 2911.1
2580.9 -2716.56 2909.49
2581.65 -2716.68 2908.26
2582.61 -2719.33 2920.35
2582.84 -2719.4 2921.1
2583.15 -2719.9 2921.31
2583.44 -2720.41 2921.46
2580.43 -2719.07 2914.09
2580.73 -2719.3 2915.08
2581.03 -2719.26 2916.07
2580.23 -2719.7 2913.54
2580.28 -2718.2 2913.03
2580.37 -2718.24 2913.67
2580.27 -2717.74 2912.58
2580.01 -2719.17 2911.89
2582.22 -2719.45 2919.11
2581.68 -2718.74 2918.22
2581.34 -2719.71 2916.66
2580.61 -2715.93 2910.4
2587.19 -2726.85 2912.17
2587.14 -2726.76 2913.29
2587.06 -2726.63 2913.97
2587 -2726.51 2914.62
2582.62 -2719.77 2919.86
2583.11 -2720.32 2920.34
2583.71 -2720.88 2921.5
2584 -2721.12 2921.89
2583.43 -2720.88 2920.5
2584.27 -2721.31 2922.27
2580.51 -2719.62 2914.36
2580.1 -2719.22 2912.62
2580.19 -2719.17 2913.19
2581.9 -2719.33 2918.19
2581.64 -2719.14 2917.75
2581.11 -2720.52 2915.44
2580.84 -2720.06 2915.05
2580.37 -2716.76 2911.79
2580.21 -2717.64 2911.76
2580.54 -2716.33 2911.02
2581.27 -2716.73 2908.92
2580.73 -2716.7 2910.02
2581.81 -2717.24 2908.2
2586.71 -2726.2 2915.05
2582.49 -2720 2919.16
2583.24 -2720.8 2919.9
2583.67 -2721.35 2920.39
2583.86 -2721.33 2921.02
2583.44 -2721.31 2919.77
2580.41 -2720.01 2913.97
2580.08 -2719.86 2913.09
2580.13 -2720.41 2913.05
2579.96 -2719.74 2912.18
2579.89 -2719.58 2911.58
2579.82 -2720.16 2911.75
2581.85 -2719.8 2917.55
2580.94 -2720.81 2914.73
2580.65 -2720.39 2914.36
2580.02 -2718.91 2911.34
2586.75 -2726.05 2910.13
2586.97 -2726.47 2911.07
2586.85 -2726.56 2912.73
2586.57 -2725.99 2915.61
2582.28 -2720.3 2917.96
2582.64 -2720.52 2918.8
2583.15 -2720.99 2919.35
2583.3 -2721.56 2919.01
2584.65 -2722.1 2921.82
2580.32 -2720.45 2913.55
2579.98 -2720.55 2912.59
2581.63 -2720.28 2916.8
2582.01 -2720.56 2917.19
2581.29 -2720.97 2915.58
2581.47 -2720.67 2916.26
2580.32 -2717.57 2911.26
2580.53 -2716.68 2910.63
2581.53 -2717.16 2908.69
2581.14 -2717.03 2909.34
2582.03 -2717.67 2908.07
2583.23 -2719.91 2907.51
2583.49 -2720.59 2907.6
2586.34 -2725.5 2909.55
2586.9 -2726.51 2911.74
2586.66 -2726.39 2913.18
2586.59 -2726.28 2913.79
2586.75 -2726.4 2912.21
2586.47 -2726.11 2914.39
2586.26 -2725.88 2914.82
2586.54 -2725.75 2916.55
2586.6 -2725.65 2917.17
2585.95 -2724.44 2919.47
2582.68 -2720.84 2918.39
2582.76 -2721.22 2918.07
2583.03 -2721.49 2918.4
2584.42 -2722.13 2920.9
2584.89 -2722.66 2921.18
2585.16 -2723.26 2920.46
2580.11 -2721.02 2912.78
2579.76 -2720.74 2911.89
2581.81 -2720.98 2916.57
2581.27 -2721.31 2915.21
2581.06 -2721.4 2914.66
2581.49 -2721.42 2915.72
2580.68 -2721.04 2914.11
2580.31 -2717.98 2910.8
2581.35 -2717.49 2909.1
2580.49 -2717.19 2910.24
2580.93 -2717.28 2909.76
2580.3 -2718.43 2910.5
2582.89 -2719 2907.48
2585.89 -2724.77 2908.94
2585.64 -2724.3 2908.64
2586.55 -2726.04 2910.71
2586.06 -2725.61 2915.54
2586.08 -2725.49 2916.16
2586.08 -2725.38 2916.67
2586.13 -2725.3 2917.21
2586.17 -2725.16 2917.76
2585.63 -2724.03 2919.67
2582.45 -2721.21 2917.38
2582.23 -2721.4 2916.9
2582.57 -2721.73 2917.19
2583.86 -2721.9 2919.62
2583.35 -2721.95 2918.41
2584.21 -2722.21 2919.94
2584.66 -2722.68 2920.25
2583.06 -2722.03 2917.65
2584.92 -2723.2 2919.79
2580.32 -2720.96 2913.4
2580.8 -2721.57 2914.06
2580.09 -2719.19 2910.91
2583.97 -2721.43 2907.62
2585.31 -2723.71 2908.4
2582.52 -2718.36 2907.73
2581.64 -2717.7 2908.56
2585.83 -2725.01 2909.4
2586.22 -2725.55 2910.06
2586.5 -2726.12 2911.51
2586.21 -2726.14 2913.31
2586.13 -2725.98 2913.91
2586.33 -2726.15 2912.33
2585.74 -2725.51 2915.08
2585.84 -2725.75 2914.27
2585.78 -2724.56 2918.5
2585.42 -2723.95 2919.22
2585.5 -2724.19 2918.75
2585.09 -2723.56 2919.37
2582.04 -2722.11 2916.06
2582.45 -2722.55 2916.11
2583.83 -2722.2 2919.11
2584.49 -2722.71 2919.68
2582.82 -2722.39 2916.83
2579.95 -2721.13 2912.18
2581.48 -2721.91 2915.25
2580.51 -2721.46 2913.51
2581.09 -2717.83 2909.52
2580.56 -2717.77 2910.03
2584.96 -2723.19 2908.18
2581.33 -2718.03 2908.9
2585.52 -2724.56 2909.24
2585.85 -2725.22 2909.94
2586.06 -2725.59 2910.63
2585.5 -2725.28 2915.5
2585.49 -2725.16 2916.04
2585.46 -2725.47 2914.54
2585.6 -2725.03 2916.73
2585.67 -2724.86 2917.32
2585.74 -2724.72 2917.88
2585.22 -2723.94 2908.86
2581.9 -2722.43 2915.37
2583.8 -2722.51 2918.46
2583.28 -2722.53 2917.31
2582.3 -2722.81 2915.57
2584.71 -2723.23 2919.19
2579.82 -2721.19 2911.68
2581.26 -2721.99 2914.68
2580.31 -2721.49 2912.99
2579.88 -2720.45 2911.32
2580.05 -2719.67 2910.75
2580.41 -2718.95 2910.05
2583.54 -2721.18 2907.82
2584.6 -2722.76 2908.05
2582.09 -2718.24 2908.29
2581.69 -2718.23 2908.6
2581.05 -2718.31 2909.21
2583 -2720.4 2907.92
2586.06 -2725.78 2911.26
2585.87 -2725.82 2912.01
2585.76 -2725.91 2912.75
2585.73 -2725.86 2913.47
2585.12 -2725.19 2914.98
2584.84 -2725.19 2914.35
2585.09 -2724.98 2915.68
2585.01 -2725.41 2913.79
2585.24 -2724.3 2917.77
2584.9 -2723.58 2918.73
2584.88 -2723.84 2918.04
2581.61 -2722.38 2914.95
2583.96 -2722.94 2917.9
2582.76 -2723 2916.06
2584.31 -2722.88 2919.02
2580.13 -2721.59 2912.35
2581.09 -2722.05 2914.17
2580.79 -2722 2913.5
2580.21 -2719.69 2910.25
2584.95 -2723.52 2908.71
2582.67 -2719.14 2907.93
2582.9 -2719.73 2907.84
2585.3 -2724.74 2909.82
2585.5 -2725.47 2910.65
2585.31 -2725.06 2910.26
2585.15 -2725.64 2912.55
2585.36 -2725.61 2912.02
2585.3 -2725.72 2913.09
2583.98 -2724.56 2914.88
2583.8 -2724.64 2914.34
2584.94 -2724.68 2916.12
2584.09 -2724.89 2913.97
2584.99 -2724.52 2916.62
2584.8 -2724.13 2917.19
2584.38 -2723.54 2917.64
2581.41 -2722.42 2914.47
2581.87 -2722.83 2914.88
2580.02 -2720.18 2910.71
2584.1 -2721.91 2907.77
2584.56 -2723.16 2908.57
2581.88 -2718.79 2908.57
2581.42 -2718.78 2908.95
2580.59 -2719.37 2909.77
2583.06 -2720.96 2908.1
2584.97 -2724.33 2909.42
2584.89 -2724.76 2910.23
2585.39 -2725.5 2911.38
2584.74 -2723.88 2909.18
2584.18 -2725.05 2913.46
2584.64 -2725.41 2912.89
2584.84 -2725.46 2912.19
2583.36 -2724.25 2914.65
2582.94 -2724.12 2914.28
2582.87 -2724.38 2913.62
2583.49 -2724.08 2915.29
2582.75 -2724.58 2913.06
2583.51 -2723.86 2915.88
2583.12 -2723.41 2916.07
2582.43 -2723.24 2915.28
2581.62 -2722.9 2914.34
2579.95 -2720.99 2911.07
2579.98 -2721.66 2911.78
2580.53 -2721.95 2913.01
2583.73 -2721.71 2908.06
2582.41 -2719.49 2908.19
2581.18 -2719.55 2909.24
2582.59 -2720.08 2908.26
2585.02 -2725.33 2911.01
2584.85 -2725.33 2911.59
2583.73 -2725.06 2912.33
2583.11 -2724.76 2912.66
2582.42 -2724 2913.77
2582.43 -2724.22 2913.29
2582.94 -2723.83 2915.01
2582.28 -2724.36 2912.81
2581.24 -2722.57 2913.85
2581.99 -2723.28 2914.57
2580.07 -2720.69 2910.49
2580.34 -2720.21 2910.06
2583.28 -2721.41 2908.21
2584.11 -2722.6 2908.34
2580.75 -2720.17 2909.63
2582.64 -2720.59 2908.33
2584.44 -2724.38 2909.99
2584.65 -2724.93 2910.74
2583.37 -2724.86 2911.75
2582.61 -2724.62 2912.03
2582.28 -2723.7 2914.24
2582.52 -2723.62 2914.82
2584.42 -2723.55 2908.9
2580.23 -2722.03 2912.12
2579.97 -2721.51 2911.13
2580.8 -2722.47 2913.03
2580.45 -2722.21 2912.58
2583.92 -2723.03 2908.83
2581.74 -2719.29 2908.73
2582.13 -2719.77 2908.53
2584.09 -2724.55 2910.47
2583.87 -2724.86 2911.32
2584.22 -2724 2909.58
2582.04 -2723.9 2913.42
2581.86 -2723.99 2912.96
2581.85 -2723.54 2913.95
2581.53 -2723.16 2913.83
2580.05 -2722.1 2911.49
2580.52 -2720.75 2909.9
2580.14 -2721.21 2910.44
2583.69 -2722.11 2908.38
2582 -2720.58 2908.87
2582.32 -2724.46 2911.65
2582.76 -2724.51 2911.3
2583.27 -2724.6 2911.09
2583.56 -2724.45 2910.67
2583.85 -2724.13 2910.06
2582.09 -2724.27 2912.14
2583.8 -2723.67 2909.49
2581.14 -2722.81 2913.37
2580.28 -2722.44 2911.79
2583.41 -2722.37 2908.78
2581.58 -2720.25 2909.01
2581.12 -2720.4 2909.31
2582.66 -2721.19 2908.55
2581.2 -2721.29 2909.45
2582.85 -2724.22 2910.82
2583.28 -2723.89 2910.13
2581.6 -2723.68 2913.29
2583.46 -2723.19 2909.3
2582.87 -2721.67 2908.6
2582.78 -2723.86 2910.39
2581.89 -2724.2 2911.57
2581.73 -2723.97 2912.35
2581.45 -2723.72 2912.8
2582.88 -2723.58 2909.91
2582.9 -2722.26 2908.92
2583.02 -2722.76 2909.21
2580.61 -2721.28 2909.9
2582.19 -2721.37 2908.87
2582.28 -2724.15 2911.2
2580.59 -2722.75 2912.53
2580.23 -2721.72 2910.56
2582.29 -2721.86 2908.97
2582.39 -2722.33 2909.21
2582.69 -2722.99 2909.51
2581.55 -2721.64 2909.34
2581.18 -2721.81 2909.73
2582.27 -2723.58 2910.28
2581.47 -2723.92 2911.44
2580.89 -2723.06 2912.92
2581.77 -2722.22 2909.46
2582.11 -2723.82 2910.79
2581.32 -2723.77 2911.94
2581.16 -2723.36 2913.25
2581.16 -2723.62 2912.4
2582.36 -2723.23 2909.89
2580.19 -2722.03 2911
2582.06 -2722.61 2909.58
2581.79 -2723.49 2910.51
2581.09 -2722.24 2910.02
2581.59 -2722.56 2909.84
2580.53 -2721.72 2910.15
2581.59 -2723.71 2910.99
2581.83 -2723.08 2910.09
2581.06 -2723.49 2911.55
2580.68 -2723.3 2912.42
2580.44 -2722.88 2912.02
2581.36 -2722.86 2910.2
2581.35 -2723.25 2910.75
2580.35 -2722.55 2911.23
2580.69 -2722.3 2910.33
2580.95 -2723.18 2911.15
2580.74 -2723.13 2911.69
2580.95 -2722.93 2910.67
