2554.97 -2660.08 1480.16 
2554.9 -2659.97 1479.5 
2554.81 -2659.74 1478.78 
2554.83 -2659.76 1478.02 
2556.09 -2663.13 1481.25 
2555.82 -2662.56 1481.11 
2556.72 -2664.69 1481.04 
2555.62 -2662.12 1480.59 
2555.38 -2661.48 1480.24 
2555.44 -2661.73 1479.46 
2555.36 -2661.52 1478.7 
2554.83 -2659.52 1477.1 
2555.37 -2661.48 1478.05 
2556.21 -2663.7 1480.48 
2556.87 -2665.23 1480.47 
2555.93 -2663.09 1480.26 
2557.55 -2666.58 1481.41 
2555.69 -2662.47 1479.81 
2555.69 -2662.49 1478.89 
2555.84 -2663.04 1479.3 
2555.73 -2662.56 1478.32 
2555.35 -2661.31 1477.5 
2555.89 -2662.97 1477.71 
2556.3 -2664.1 1479.78 
2556.89 -2665.4 1479.99 
2557.63 -2666.93 1480.95 
2556.04 -2663.58 1479.67 
2558.27 -2668.21 1482.26 
2558.31 -2668.58 1481.55 
2556.03 -2663.56 1478.66 
2556.16 -2663.88 1479.1 
2556.1 -2663.65 1478.04 
2555.68 -2661.95 1476.45 
2556.36 -2664.15 1477.21 
2556.14 -2663.3 1476.32 
2558.76 -2669.53 1482.17 
2556.98 -2665.7 1479.54 
2556.44 -2664.5 1479.17 
2557.73 -2667.27 1480.51 
2558.42 -2668.98 1481.07 
2558.84 -2669.94 1481.55 
2556.31 -2664.2 1478.55 
2556.36 -2664.25 1478 
2556.62 -2664.95 1478.68 
2556.28 -2663.24 1473.91 
2556.62 -2664.8 1477.45 
2556.66 -2664.68 1476.02 
2556.47 -2664.09 1475.32 
2559.07 -2670.19 1482.56 
2559.34 -2670.56 1483.15 
2559.11 -2670.55 1481.85 
2557.14 -2666.13 1479.2 
2558.52 -2669.28 1480.55 
2558.95 -2670.34 1480.97 
2559.19 -2670.91 1481.23 
2557.23 -2666.33 1478.7 
2556.48 -2663.64 1472.73 
2556.83 -2665.18 1476.83 
2556.91 -2665.52 1477.86 
2556.88 -2664.99 1474.76 
2556.7 -2664.36 1473.47 
2559.41 -2671.08 1482.15 
2559.76 -2671.68 1482.42 
2559.42 -2671.3 1481.54 
2557.91 -2667.85 1479.75 
2558.6 -2669.5 1480.07 
2559.04 -2670.61 1480.42 
2559.26 -2671.12 1480.75 
2559.54 -2671.65 1481.03 
2557.67 -2667.28 1478.43 
2558.08 -2668.21 1479.28 
2557.37 -2666.53 1477.62 
2557.09 -2665.66 1475.96 
2557.13 -2665.43 1473.34 
2556.93 -2664.86 1472.47 
2559.85 -2672.11 1481.7 
2560.46 -2673.04 1482.32 
2560.53 -2673.46 1481.63 
2560.12 -2672.82 1481.09 
2558.72 -2669.78 1479.57 
2559.12 -2670.84 1479.92 
2559.8 -2672.3 1480.52 
2560.45 -2673.65 1480.63 
2558.3 -2668.66 1478.35 
2558.75 -2669.82 1479 
2557.85 -2667.58 1477.45 
2557.53 -2666.61 1475.93 
2557.4 -2666.04 1473.98 
2557.17 -2665.43 1471.55 
2560.83 -2674.21 1481.12 
2561.28 -2674.77 1481.96 
2561.41 -2675.44 1481.17 
2561.2 -2675.22 1480.55 
2559.44 -2671.55 1479.89 
2560.64 -2674.15 1480.08 
2561.71 -2676.39 1480.13 
2558.72 -2669.59 1478 
2559.18 -2670.77 1478.67 
2559.47 -2671.5 1479.15 
2558.27 -2668.34 1477.1 
2558.1 -2667.67 1475.85 
2564.99 -2681.88 1483.29 
2565.43 -2682.78 1483.31 
2564.29 -2680.23 1483.75 
2564.4 -2681.15 1482.41 
2561.83 -2676.47 1480.69 
2562.92 -2677.9 1482.62 
2563.55 -2678.9 1483.25 
2561.87 -2676.09 1481.8 
2562.07 -2676.73 1481.34 
2562.4 -2677.54 1481.02 
2562.27 -2677.41 1480.46 
2559.75 -2672.28 1479.51 
2560.17 -2673.22 1479.83 
2561.18 -2675.28 1479.64 
2562.79 -2678.55 1480.36 
2562.5 -2678 1479.99 
2558.99 -2670.06 1477.58 
2559.7 -2671.8 1478.38 
2559.98 -2672.58 1478.87 
2560.31 -2673.45 1479.28 
2558.63 -2668.9 1476.45 
2566.41 -2684.74 1483.1 
2565.88 -2683.77 1483.11 
2564.75 -2682.29 1481.65 
2565.41 -2683.33 1482.09 
2563.75 -2679.96 1482.14 
2564.08 -2681.01 1481.4 
2562.96 -2678.78 1481 
2562.74 -2678.01 1481.68 
2563.14 -2678.95 1481.51 
2563.65 -2680.23 1481.17 
2563.3 -2679.63 1480.66 
2560.76 -2674.39 1479.5 
2561.81 -2676.54 1479.31 
2562.16 -2677.28 1479.59 
2563.13 -2679.41 1479.81 
2563.49 -2680.22 1480.05 
2559.82 -2671.9 1477.82 
2559.37 -2670.63 1476.82 
2560.46 -2673.59 1478.52 
2560.63 -2674.04 1478.84 
2561.09 -2675 1478.86 
2561.41 -2675.69 1479.09 
2567.86 -2686.93 1483.76 
2567.08 -2685.93 1482.98 
2566.17 -2684.84 1481.89 
2567.26 -2686.66 1482.19 
2565.39 -2683.56 1481.5 
2564.82 -2682.64 1481.19 
2564.3 -2681.61 1481.07 
2563.88 -2680.91 1480.7 
2564.05 -2681.31 1480.41 
2562.4 -2677.77 1479.14 
2562.78 -2678.64 1479.51 
2563.67 -2680.69 1479.64 
2563.93 -2681.24 1479.76 
2560.46 -2673.41 1477.96 
2560.26 -2672.51 1476.63 
2561.33 -2675.34 1478.33 
2561.46 -2675.45 1477.84 
2561.88 -2676.55 1478.64 
2562.09 -2677.05 1478.89 
2568.76 -2688.28 1484.15 
2568.73 -2689.17 1482.56 
2568.05 -2688.02 1482.4 
2567.35 -2687.04 1481.73 
2566.34 -2685.38 1481.3 
2568.21 -2688.68 1481.7 
2565.47 -2683.85 1481.05 
2564.88 -2682.93 1480.76 
2564.4 -2682.04 1480.46 
2562.97 -2679.02 1479.1 
2563.4 -2680.03 1479.41 
2564.25 -2681.84 1479.76 
2561.1 -2674.36 1476.96 
2562.6 -2677.84 1477.82 
2562.1 -2676.41 1476.94 
2562.85 -2678.65 1478.53 
2569.52 -2689.87 1483.69 
2570.5 -2691.51 1483.63 
2572.26 -2693.99 1484.66 
2568.95 -2689.92 1481.86 
2569.62 -2690.8 1482.27 
2567.47 -2687.41 1481.38 
2566.5 -2685.74 1480.97 
2565.63 -2684.23 1480.7 
2564.08 -2681.55 1479.1 
2564.72 -2682.78 1480.05 
2563.43 -2679.82 1478.06 
2563.43 -2679.62 1477.48 
2562.91 -2678.03 1476.59 
2563.14 -2677.96 1475.22 
2563.61 -2680.37 1478.55 
2571.25 -2692.94 1483.29 
2572.67 -2695.2 1483.83 
2572.27 -2694.96 1482.96 
2570.06 -2691.65 1482.03 
2568.26 -2689.08 1480.99 
2568.94 -2690.15 1481.32 
2567.51 -2687.7 1480.78 
2569.81 -2691.51 1481.38 
2565.44 -2684.02 1480.12 
2566.47 -2685.79 1480.35 
2563.91 -2681.12 1478.83 
2564.44 -2682.27 1479.33 
2564.83 -2683.01 1479.6 
2563.77 -2680.53 1477.96 
2563.74 -2680.3 1477.37 
2563.61 -2679.39 1476.1 
2563.85 -2679.41 1474.9 
2564.14 -2681.45 1478.35 
2571.92 -2694.62 1482.42 
2571.07 -2693.04 1482.49 
2573.31 -2696.09 1484.2 
2573.54 -2697.08 1483.21 
2573.08 -2696.61 1482.57 
2570.93 -2693.11 1481.87 
2568.22 -2689.12 1480.43 
2568.86 -2690.19 1480.8 
2570.79 -2693.06 1481.39 
2567.4 -2687.58 1480.24 
2564.68 -2682.67 1479.11 
2565.55 -2684.22 1479.4 
2564.34 -2681.92 1478.75 
2566.47 -2685.84 1479.83 
2564.12 -2681.05 1477.54 
2564.01 -2680.25 1476.02 
2564.29 -2680.36 1474.93 
2564.58 -2682.23 1478.34 
2571.74 -2694.5 1481.96 
2572.64 -2696.18 1481.91 
2574 -2696.9 1484.78 
2574.15 -2698.03 1483.46 
2574.21 -2698.5 1482.68 
2574.79 -2699.29 1482.96 
2573.61 -2697.64 1482.35 
2571.91 -2695.01 1481.48 
2569.98 -2691.94 1480.73 
2569.63 -2691.4 1480.55 
2571.61 -2694.52 1481.22 
2564.97 -2683.18 1478.95 
2567.37 -2687.53 1479.58 
2564.33 -2681.02 1476.48 
2564.68 -2682 1477.41 
2564.69 -2681.19 1475.32 
2565.04 -2683.11 1478.3 
2573.07 -2696.94 1481.8 
2574.7 -2698.59 1484.07 
2575.4 -2700.02 1483.47 
2574.76 -2699.51 1482.27 
2575.55 -2700.67 1482.56 
2575.95 -2701.18 1482.96 
2575.55 -2699.21 1485.31 
2574.2 -2698.75 1481.96 
2572.69 -2696.44 1481.41 
2570.7 -2693.14 1480.49 
2571.33 -2694.13 1480.74 
2572.01 -2695.36 1480.96 
2569.11 -2690.64 1480.29 
2568.28 -2689.23 1479.79 
2565.79 -2684.56 1479.03 
2566.52 -2685.85 1479.28 
2564.81 -2681.87 1476.56 
2565.23 -2683.1 1477.49 
2565.11 -2681.89 1475.41 
2565.66 -2684.25 1478.58 
2565.58 -2683.94 1478.04 
2566.1 -2684.98 1478.58 
2573.79 -2698.19 1481.61 
2576.21 -2700.66 1484.69 
2576.49 -2701.77 1483.59 
2575.33 -2700.56 1481.84 
2575.69 -2701.09 1482.14 
2576.7 -2702.71 1482.52 
2577.05 -2703.1 1482.97 
2575 -2700.1 1481.5 
2577.31 -2702.25 1485.11 
2573.23 -2697.34 1481.29 
2571.13 -2693.91 1480.23 
2571.78 -2695.05 1480.43 
2572.46 -2696.2 1480.86 
2570.43 -2692.75 1480.11 
2570.04 -2692.13 1479.95 
2569.16 -2690.7 1479.76 
2566.85 -2686.45 1479.18 
2567.85 -2688.39 1479.34 
2568.85 -2690.15 1479.42 
2565.24 -2682.57 1476.41 
2565.85 -2684.18 1477.5 
2566.13 -2684.83 1478.03 
2565.64 -2682.74 1475.22 
2566.58 -2685.73 1478.46 
2581.92 -2708.65 1486.64 
2580.9 -2707.16 1486.68 
2580.33 -2706.3 1486.68 
2574.46 -2699.31 1481.18 
2577.68 -2703.7 1483.79 
2576.04 -2701.9 1481.49 
2576.38 -2702.44 1481.73 
2577.9 -2704.52 1482.97 
2577.59 -2704.24 1482.44 
2577.18 -2703.8 1481.8 
2578.23 -2704.74 1483.59 
2575.63 -2701.26 1481.19 
2578.2 -2703.88 1484.89 
2579.11 -2704.95 1485.68 
2573.55 -2697.92 1481.01 
2571.54 -2694.61 1479.86 
2572.21 -2695.8 1480.29 
2572.88 -2696.87 1480.72 
2571.06 -2693.77 1479.68 
2570.56 -2692.94 1479.44 
2570.23 -2692.4 1479.16 
2567.46 -2687.58 1479.01 
2568.61 -2689.71 1479.23 
2569.99 -2691.98 1478.94 
2569.66 -2691.4 1478.82 
2565.63 -2683.12 1476.09 
2566.35 -2684.87 1477.37 
2566.73 -2685.78 1477.96 
2566.99 -2686.42 1478.27 
2567.45 -2687.39 1478.48 
2567.86 -2688.25 1478.79 
2583.25 -2710.48 1486.07 
2582.47 -2709.34 1486.55 
2581.43 -2707.99 1486.55 
2581.6 -2709.05 1485.05 
2581.3 -2708.52 1485.28 
2586.01 -2714.21 1485.43 
2580.59 -2707.59 1485.19 
2580.23 -2706.94 1485.36 
2579.82 -2706.19 1485.54 
2574.7 -2699.73 1480.83 
2578.84 -2705.47 1484.08 
2576.65 -2703.17 1480.93 
2578.15 -2705.24 1482.3 
2578.58 -2705.84 1482.6 
2577.79 -2704.8 1481.85 
2578.95 -2706.07 1483.38 
2574.07 -2698.76 1480.64 
2572.22 -2695.76 1479.78 
2573.46 -2697.82 1480.45 
2571.8 -2695 1479.32 
2571.34 -2694.13 1478.67 
2568.38 -2689.25 1479.06 
2569.43 -2690.96 1478.66 
2570.93 -2693.42 1478.42 
2570.66 -2692.95 1478.22 
2566.44 -2684.38 1476.1 
2566.9 -2685.29 1476.39 
2567.1 -2686.28 1477.56 
2567.48 -2687.21 1477.93 
2567.93 -2688.12 1478.15 
2568.48 -2689.29 1478.52 
2568.95 -2690.14 1478.6 
2583.92 -2711.85 1484.81 
2585.2 -2713 1485.72 
2582.77 -2710.56 1484.75 
2582 -2709.6 1484.91 
2580.93 -2708.1 1485.14 
2581.49 -2709.62 1483.68 
2580.92 -2708.84 1483.83 
2588.29 -2717.4 1485.39 
2587.01 -2716.01 1484.63 
2585.63 -2714.75 1483.47 
2585.27 -2713.85 1484.28 
2579.98 -2707.44 1483.86 
2580.42 -2708.15 1483.78 
2579.54 -2706.63 1484.05 
2592.25 -2722.67 1484.17 
2575.15 -2700.54 1480.57 
2577.46 -2704.43 1481.32 
2577.23 -2704.17 1480.86 
2578.69 -2706.28 1482.01 
2579.43 -2707.04 1482.96 
2576.24 -2702.53 1480.55 
2576.98 -2703.85 1480.44 
2574.66 -2699.73 1480.25 
2573.55 -2697.95 1479.87 
2573.03 -2697.08 1479.67 
2574.13 -2698.88 1480.05 
2572.71 -2696.4 1478.86 
2572.01 -2695.15 1478.18 
2570.18 -2692.12 1478.21 
2571.82 -2694.73 1477.67 
2571.36 -2693.91 1477.42 
2567.41 -2686.16 1476.39 
2568.03 -2687.97 1477.55 
2567.87 -2687.16 1476.66 
2568.57 -2689.08 1477.77 
2569.11 -2690.14 1477.92 
2569.68 -2691.16 1477.98 
2584.61 -2712.86 1484.44 
2582.42 -2710.67 1483.64 
2583.66 -2712.27 1483.32 
2582.55 -2711.02 1483.15 
2581.6 -2710 1483.04 
2581.03 -2709.21 1483.3 
2580.56 -2708.55 1483.34 
2589.8 -2719.29 1485.17 
2588.85 -2718.18 1485.25 
2587.6 -2717.02 1484.33 
2588.03 -2717.77 1484.02 
2586.43 -2716.09 1483 
2587.24 -2717.19 1483.08 
2584.98 -2714.33 1482.55 
2584.45 -2713.41 1483.04 
2580.03 -2707.87 1483.15 
2593.45 -2724.54 1483.19 
2594.82 -2726.15 1483.34 
2592.06 -2723.12 1482.66 
2591.31 -2721.78 1483.6 
2595.63 -2727.41 1482.52 
2596.84 -2728.7 1482.95 
2575.73 -2701.63 1480.29 
2577.98 -2705.33 1481.08 
2578.2 -2705.64 1481.44 
2579.26 -2707.21 1481.87 
2579.91 -2707.95 1482.45 
2576.66 -2703.35 1480.17 
2577.7 -2704.94 1480.69 
2575.17 -2700.66 1479.97 
2574.16 -2698.9 1479.32 
2574.63 -2699.72 1479.62 
2573.92 -2698.46 1478.94 
2573.02 -2696.8 1478.41 
2572.91 -2696.48 1477.76 
2570.86 -2693.04 1477.35 
2572.44 -2695.58 1476.88 
2571.74 -2694.33 1476.56 
2568.23 -2687.15 1475.51 
2569.25 -2689.91 1476.99 
2568.51 -2688.32 1476.68 
2569.11 -2689.32 1476.38 
2569.74 -2690.87 1477.12 
2570.38 -2692.12 1477.27 
2583.9 -2712.9 1482.6 
2582.84 -2711.59 1482.55 
2582.04 -2710.7 1482.48 
2581.05 -2709.43 1482.73 
2589.31 -2719.26 1483.88 
2590.31 -2720.67 1483.5 
2588.56 -2718.38 1484.04 
2588.17 -2718.42 1482.94 
2586.08 -2715.83 1482.55 
2587.45 -2717.7 1482.56 
2584.61 -2714.03 1482.11 
2594.09 -2725.73 1482.07 
2592.76 -2724.29 1481.84 
2593.99 -2725.89 1481.28 
2591.35 -2722.75 1481.67 
2590.47 -2721.72 1481.68 
2589.95 -2720.87 1482.22 
2596.16 -2728.42 1481.39 
2594.94 -2727.05 1481.23 
2597.58 -2729.86 1481.91 
2599.06 -2731.42 1481.82 
2576.21 -2702.58 1480.05 
2578.75 -2706.56 1480.9 
2579.73 -2707.93 1481.57 
2580.42 -2708.67 1482.54 
2576.89 -2703.75 1479.88 
2577.38 -2704.51 1480.33 
2578.41 -2706.04 1480.56 
2575.7 -2701.65 1479.71 
2574.87 -2700.13 1479 
2575.29 -2700.92 1479.36 
2573.93 -2698.32 1478.05 
2574.82 -2699.99 1478.28 
2573.73 -2697.83 1477.51 
2571.32 -2693.5 1476.19 
2572.56 -2695.57 1476.02 
2573.53 -2697.36 1476.85 
2572 -2694.47 1475.54 
2568.71 -2687.96 1475.4 
2569.48 -2689.64 1475.6 
2570.13 -2691.06 1475.99 
2570.82 -2692.46 1475.93 
2583.59 -2712.71 1482.09 
2581.61 -2710.24 1482.37 
2582.99 -2712.07 1481.77 
2580.83 -2709.29 1482.28 
2588.8 -2719.34 1482.44 
2586.97 -2717.23 1482.17 
2585.72 -2715.53 1482.12 
2588.22 -2718.81 1482.15 
2584.33 -2713.81 1481.74 
2592.45 -2724.11 1481.35 
2593.39 -2725.41 1480.68 
2590.91 -2722.47 1481.09 
2590.06 -2721.43 1481.12 
2589.31 -2720.25 1481.86 
2596.87 -2729.44 1480.77 
2595.81 -2728.2 1480.83 
2594.33 -2726.55 1480.59 
2598.26 -2730.91 1480.71 
2600.13 -2732.7 1481.79 
2599.6 -2732.53 1480.21 
2576.53 -2703.15 1479.71 
2579.32 -2707.43 1480.64 
2579.59 -2707.8 1480.9 
2580.36 -2708.75 1481.69 
2580.22 -2708.65 1481.12 
2577.89 -2705.28 1480.22 
2578.94 -2706.86 1480.32 
2576.26 -2702.7 1479.5 
2575.99 -2702.2 1479.19 
2575.77 -2701.78 1478.87 
2575.67 -2701.5 1478.23 
2574.56 -2699.3 1477.39 
2571.71 -2693.58 1474.45 
2573.61 -2697.28 1476.04 
2572.66 -2695.47 1475.21 
2574.52 -2699.11 1476.9 
2572.26 -2694.24 1473.71 
2569.73 -2689.84 1474.95 
2570.71 -2691.64 1474.53 
2571.29 -2692.59 1473.94 
2582.4 -2711.4 1481.59 
2581.24 -2709.87 1482 
2583.9 -2713.36 1481.44 
2587.84 -2718.44 1481.86 
2585.28 -2715.11 1481.65 
2588.96 -2719.95 1481.54 
2592.05 -2723.75 1481.09 
2592.92 -2724.89 1480.64 
2590.22 -2721.86 1480.45 
2589.78 -2721.21 1480.76 
2596.67 -2729.38 1480.16 
2598.14 -2730.97 1479.99 
2595.21 -2727.62 1480.5 
2593.65 -2725.81 1480.34 
2601.17 -2733.93 1481.72 
2599.55 -2732.7 1479.21 
2600.82 -2733.9 1480.22 
2579.83 -2708.17 1480.28 
2580.11 -2708.54 1480.57 
2580.81 -2709.42 1481.34 
2578.37 -2705.97 1479.95 
2577.61 -2704.85 1479.58 
2579.45 -2707.62 1479.98 
2576.77 -2703.53 1479.14 
2576.52 -2703.12 1478.94 
2576.5 -2702.97 1478.36 
2576.83 -2703.55 1478.63 
2575.56 -2701.18 1477.7 
2576.17 -2702.3 1478.01 
2571.79 -2693 1472.7 
2573.45 -2696.66 1475.03 
2574.42 -2698.74 1476.21 
2572.75 -2695.03 1473.61 
2575.29 -2700.48 1476.93 
2581.92 -2710.85 1481.45 
2583.38 -2712.77 1481.15 
2584.86 -2714.69 1481.22 
2586.48 -2716.77 1481.6 
2589.13 -2720.35 1481.03 
2602.32 -2735.26 1481.7 
2591.4 -2723.13 1480.79 
2592 -2723.87 1480.53 
2590.5 -2722.28 1480.26 
2589.63 -2721.19 1480.28 
2597.03 -2729.84 1479.69 
2595.95 -2728.62 1480.04 
2594.65 -2727.06 1480.15 
2592.59 -2724.58 1480.31 
2601.32 -2734.62 1479.55 
2599.98 -2733.31 1478.6 
2580.69 -2709.37 1480.28 
2580.42 -2708.99 1479.96 
2581.01 -2709.83 1480.6 
2581.53 -2710.42 1481.18 
2581.8 -2710.84 1480.83 
2578.94 -2706.78 1479.67 
2577.29 -2704.33 1479.05 
2578.2 -2705.67 1479.44 
2580.12 -2708.56 1479.66 
2576.86 -2703.47 1478.04 
2577.16 -2704.02 1478.41 
2577.59 -2704.72 1478.85 
2576.49 -2702.74 1477.66 
2576.33 -2702.25 1477.05 
2576.75 -2703.09 1477.36 
2574.06 -2697.59 1474.87 
2573.4 -2695.99 1473.31 
2574.7 -2699.09 1475.91 
2575.69 -2701 1476.66 
2582.77 -2712.05 1480.93 
2584.31 -2714.08 1480.86 
2585.86 -2716 1481.37 
2587.94 -2718.78 1481.29 
2587.26 -2717.93 1481.04 
2588.7 -2719.87 1480.9 
2603.89 -2737.05 1481.41 
2602.85 -2736.2 1480.17 
2591 -2722.89 1480.17 
2590 -2721.72 1479.91 
2589.17 -2720.65 1480.38 
2598.53 -2731.62 1478.86 
2597.49 -2730.42 1479.16 
2594.36 -2726.74 1479.84 
2591.83 -2723.8 1479.95 
2592.82 -2724.91 1479.89 
2601.74 -2735.18 1479.04 
2603.21 -2736.76 1479.36 
2601.02 -2734.49 1478.35 
2599.37 -2732.68 1478.23 
2581.21 -2710.18 1479.67 
2581.54 -2710.64 1479.82 
2581.98 -2711.21 1480.06 
2583.51 -2713.08 1480.62 
2582.78 -2712.17 1480.42 
2583.11 -2712.66 1480.11 
2579.37 -2707.4 1479.29 
2578.44 -2705.97 1479.12 
2580.35 -2708.88 1479.18 
2580.84 -2709.62 1479.22 
2577.6 -2704.61 1478.34 
2578.1 -2705.39 1478.62 
2578.88 -2706.58 1478.72 
2577.14 -2703.67 1477.29 
2576.67 -2702.78 1476.93 
2577.45 -2704.25 1477.78 
2574.46 -2697.94 1474.26 
2574.03 -2696.85 1473.05 
2575.69 -2700.72 1476.1 
2574.9 -2699.11 1475.24 
2585.07 -2715.09 1480.79 
2586.58 -2717.06 1480.99 
2588.09 -2719.12 1480.74 
2604.9 -2738.25 1480.77 
2604.34 -2737.8 1479.76 
2589.63 -2721.3 1479.79 
2588.77 -2720.13 1480.31 
2596.45 -2729.28 1479.29 
2598.04 -2731.09 1478.58 
2595.03 -2727.6 1479.58 
2593.57 -2725.82 1479.61 
2591.16 -2723.13 1479.69 
2591.92 -2723.95 1479.45 
2603.03 -2736.68 1478.7 
2604.23 -2737.82 1478.92 
2602.69 -2736.35 1478.36 
2582.18 -2711.54 1479.51 
2581.85 -2711.04 1479.22 
2584.31 -2714.25 1480.04 
2579.68 -2707.86 1478.97 
2580.75 -2709.48 1478.73 
2581.3 -2710.24 1478.76 
2578.07 -2705.23 1478.05 
2578.81 -2706.38 1478.16 
2579.48 -2707.48 1478.45 
2580.14 -2708.54 1478.68 
2578 -2704.96 1477.49 
2578.72 -2706.08 1477.58 
2575.27 -2698.95 1473.87 
2575.02 -2698.28 1473.13 
2576.34 -2701.71 1476 
2576 -2700.4 1474.54 
2577.11 -2703.18 1476.44 
2586.11 -2716.47 1480.89 
2587.59 -2718.51 1480.46 
2606.12 -2739.72 1480.53 
2605.73 -2739.58 1479.59 
2605.28 -2739.18 1479.12 
2589.19 -2720.78 1479.87 
2588.21 -2719.35 1480.16 
2598.4 -2731.55 1478.06 
2594.73 -2727.28 1479.3 
2593.16 -2725.36 1479.37 
2590.4 -2722.22 1479.46 
2590.78 -2722.68 1479.39 
2604.02 -2737.73 1478.34 
2604.95 -2738.96 1478.14 
2601.12 -2734.68 1477.72 
2603.86 -2737.68 1477.85 
2599.88 -2733.31 1477.5 
2582.83 -2712.37 1479.27 
2582.47 -2711.89 1478.97 
2583.36 -2713.06 1479.61 
2584.75 -2714.86 1479.84 
2582.15 -2711.44 1478.66 
2585.37 -2715.55 1480.51 
2585.83 -2716.18 1480.47 
2581.08 -2709.91 1478.37 
2581.58 -2710.57 1478.41 
2579.44 -2707.31 1477.92 
2579.99 -2708.25 1478.24 
2580.55 -2709.13 1478.34 
2579.22 -2706.77 1477.26 
2577.95 -2704.5 1476.44 
2578.69 -2705.66 1476.55 
2579.6 -2707.31 1477.13 
2579.9 -2708 1477.76 
2576.07 -2699.75 1472.99 
2576.98 -2702.38 1475.4 
2577.14 -2702.12 1474.34 
2576.88 -2701.32 1473.59 
2577.79 -2703.66 1475.38 
2586.76 -2717.42 1480.37 
2606.73 -2740.3 1480.96 
2606.8 -2740.78 1479.59 
2606.26 -2740.35 1478.97 
2606.05 -2740.19 1478.35 
2587.4 -2718.29 1479.94 
2597.37 -2730.38 1478.44 
2595.89 -2728.67 1478.89 
2598.97 -2732.25 1477.39 
2594.18 -2726.62 1479.01 
2589.93 -2721.67 1479.1 
2591.49 -2723.46 1478.96 
2602.67 -2736.44 1477.65 
2604.7 -2738.67 1477.43 
2583.29 -2712.91 1479.02 
2583.75 -2713.56 1479.31 
2584.34 -2714.38 1479.51 
2586.23 -2716.71 1480.26 
2580.41 -2708.84 1477.94 
2580.84 -2709.51 1478.08 
2580.26 -2708.52 1477.57 
2578.65 -2704.76 1474.87 
2579.22 -2706.33 1476.26 
2579.97 -2707.83 1477.01 
2580.58 -2708.91 1477.31 
2578.06 -2703.47 1474.1 
2577.88 -2703.02 1473.72 
2577.26 -2701.77 1473.16 
2607.85 -2741.81 1479.72 
2607.22 -2741.38 1478.84 
2608.4 -2742.62 1478.88 
2606.77 -2740.98 1478.63 
2586.94 -2717.67 1479.73 
2597.98 -2731.09 1477.87 
2596.53 -2729.4 1478.46 
2595.07 -2727.7 1478.84 
2593.92 -2726.26 1478.71 
2592.79 -2724.94 1478.7 
2589.39 -2721 1479.13 
2590.51 -2722.33 1478.88 
2605.77 -2740.1 1477.57 
2606.58 -2740.95 1477.92 
2601.15 -2734.74 1477.11 
2603.58 -2737.39 1477.13 
2604.43 -2738.3 1477.06 
2605.55 -2739.81 1477.11 
2600.03 -2733.42 1476.83 
2584.74 -2714.82 1479.16 
2585.3 -2715.55 1479.6 
2586.45 -2716.98 1479.77 
2582.53 -2711.87 1478.24 
2582.06 -2711.19 1477.93 
2581.5 -2710.34 1477.73 
2581.2 -2709.92 1477.74 
2579.38 -2706.34 1475.76 
2579.31 -2705.42 1474.39 
2579.25 -2705.1 1473.76 
2578.68 -2704.29 1473.65 
2581.23 -2709.76 1477.09 
2577.94 -2702.92 1473.08 
2578.52 -2703.85 1473.07 
2609.54 -2743.69 1479.44 
2608.25 -2742.59 1478.28 
2609.5 -2743.87 1478.7 
2610.48 -2744.68 1479.46 
2607.47 -2741.79 1478.03 
2588.7 -2720.09 1479.38 
2587.68 -2718.65 1479.39 
2599.05 -2732.27 1476.6 
2589.87 -2721.55 1478.57 
2591.33 -2723.21 1478.47 
2606.34 -2740.8 1477.28 
2607.77 -2742.24 1477.33 
2602.47 -2736.22 1476.97 
2605.69 -2739.93 1476.61 
2586.1 -2716.5 1479.67 
2583.39 -2712.93 1478.36 
2584.56 -2714.47 1478.5 
2585.85 -2716.1 1478.96 
2581.86 -2710.81 1477.6 
2581.61 -2710.27 1477.06 
2579.58 -2706.22 1474.96 
2580.19 -2707.94 1476.4 
2579.89 -2705.85 1473.51 
2580.04 -2706.24 1473.87 
2579.11 -2704.72 1473.14 
2580.95 -2709.17 1476.64 
2578.46 -2703.54 1472.37 
2578.96 -2704.33 1472.57 
2608.82 -2743.31 1477.75 
2609.83 -2744.3 1478.31 
2610.93 -2745.26 1479.1 
2609.02 -2743.59 1477.35 
2588.34 -2719.57 1479.18 
2597.81 -2730.87 1477.44 
2596.81 -2729.71 1477.82 
2595.19 -2727.78 1478.29 
2598.32 -2731.43 1476.8 
2593.88 -2726.1 1478.15 
2592.86 -2724.88 1478.03 
2590.31 -2722.06 1478.28 
2607.3 -2741.78 1476.81 
2609.24 -2743.84 1476.96 
2608.9 -2743.49 1476.73 
2603.25 -2736.95 1476.53 
2601.05 -2734.53 1476.5 
2604.31 -2738.13 1476.23 
2605.46 -2739.62 1476.29 
2606.39 -2740.71 1476.39 
2607 -2741.46 1476.56 
2600.01 -2733.29 1476.04 
2586.57 -2717.1 1479.25 
2587.01 -2717.66 1478.85 
2584.09 -2713.77 1478.15 
2584.93 -2714.89 1478.31 
2586.65 -2717.07 1478.53 
2583.19 -2712.55 1477.92 
2582.25 -2711.2 1477.17 
2580.08 -2707.37 1475.63 
2580.2 -2706.76 1474.33 
2580.64 -2706.75 1473.24 
2580.82 -2707.21 1473.66 
2579.6 -2705.17 1472.7 
2581.61 -2709.92 1476.3 
2582.02 -2710.62 1476.54 
2582.65 -2711.57 1476.99 
2609.92 -2744.48 1477.82 
2611.32 -2745.77 1478.65 
2610.01 -2744.64 1477.31 
2595.92 -2728.61 1477.89 
2597.49 -2730.45 1477.16 
2594.59 -2726.98 1478.03 
2599.41 -2732.51 1475.81 
2598.57 -2731.65 1476.31 
2592.44 -2724.33 1477.7 
2589.6 -2721.15 1478.1 
2589.1 -2720.54 1478.53 
2590.89 -2722.59 1477.98 
2608.54 -2743.09 1476.3 
2609.81 -2744.47 1476.78 
2609.55 -2744.18 1476.27 
2602.26 -2735.85 1476.36 
2603.88 -2737.61 1476.07 
2605.04 -2739.06 1475.78 
2606.07 -2740.25 1475.99 
2607.28 -2741.71 1476.14 
2587.71 -2718.57 1478.52 
2585.67 -2715.78 1478.26 
2585.21 -2715.12 1477.92 
2586.26 -2716.52 1478.42 
2587.09 -2717.57 1478.05 
2580.51 -2707.86 1475.43 
2580.89 -2707.62 1474.14 
2581.53 -2709.57 1475.89 
2581.87 -2708.53 1473.61 
2582.26 -2710.49 1475.84 
2583.08 -2712 1476.81 
2584.03 -2713.32 1477.07 
2584.41 -2713.99 1477.51 
2611.05 -2745.57 1478.07 
2610.56 -2745.22 1476.78 
2610.94 -2745.52 1477.48 
2596.59 -2729.33 1477.36 
2595.13 -2727.64 1477.81 
2597.98 -2730.97 1476.49 
2598.86 -2731.87 1475.79 
2593.5 -2725.48 1477.48 
2591.99 -2723.74 1477.4 
2590.68 -2722.29 1477.58 
2590.06 -2721.6 1477.61 
2609.34 -2743.91 1475.6 
2610.11 -2744.83 1476.42 
2609.89 -2744.61 1475.55 
2603.02 -2736.57 1475.9 
2600.94 -2734.28 1475.82 
2604.93 -2738.84 1475.23 
2605.84 -2739.94 1475.64 
2607.06 -2741.37 1475.83 
2608.97 -2743.49 1475.47 
2608.45 -2742.93 1475.59 
2599.82 -2733.06 1475.25 
2585.74 -2715.64 1477.67 
2586.24 -2716.31 1477.84 
2586.57 -2716.79 1477.96 
2588.22 -2719.19 1478.08 
2588.84 -2720.12 1478.14 
2587.45 -2717.98 1477.72 
2580.98 -2708.44 1475.22 
2582.76 -2710.58 1474.97 
2581.42 -2708.91 1475.01 
2582.26 -2709.71 1474.67 
2582.83 -2709.72 1473.43 
2583.07 -2710.32 1473.89 
2583.4 -2711.74 1475.55 
2583.39 -2712.17 1476.38 
2584.5 -2713.55 1476.37 
2585.34 -2714.48 1476.08 
2585.61 -2715.04 1476.64 
2612.4 -2746.86 1478.48 
2611.3 -2745.89 1476.72 
2612.09 -2746.63 1477.66 
2596.83 -2729.55 1476.92 
2595.65 -2728.13 1477.41 
2599.28 -2732.22 1475.21 
2594.23 -2726.28 1477.34 
2595.11 -2727.45 1477.31 
2593.04 -2724.85 1477.04 
2591.57 -2723.21 1477.18 
2589.48 -2720.85 1477.67 
2590.99 -2722.44 1477 
2610.63 -2745.28 1476.07 
2610.34 -2745.02 1474.97 
2603.93 -2737.57 1475.21 
2602.68 -2736.16 1475.78 
2603.28 -2736.7 1475.38 
2602.07 -2735.38 1475.6 
2604.85 -2738.56 1474.64 
2608.69 -2743.07 1474.91 
2609.52 -2744.02 1474.8 
2600.92 -2734.2 1475.29 
2586.58 -2716.52 1477.21 
2586.86 -2717.04 1477.48 
2588.54 -2719.54 1477.66 
2587.78 -2718.37 1477.47 
2583.99 -2711.91 1474.62 
2583.98 -2711.51 1473.8 
2584.55 -2713.14 1475.48 
2584.9 -2713.18 1474.65 
2586.41 -2715.78 1476 
2585.66 -2714.27 1474.78 
2586.42 -2716.13 1476.77 
2612.04 -2746.56 1476.43 
2612.72 -2747.26 1477.22 
2597.17 -2729.81 1476.23 
2596.13 -2728.59 1476.94 
2598.38 -2731.21 1475.51 
2598.98 -2731.82 1475.09 
2594.66 -2726.71 1476.98 
2593.8 -2725.66 1476.82 
2592.39 -2723.99 1476.56 
2589.92 -2721.19 1476.95 
2590.65 -2721.91 1476.68 
2591.98 -2723.24 1475.83 
2589.28 -2720.44 1477.24 
2611.43 -2745.97 1475.77 
2611.56 -2745.98 1474.4 
2611.29 -2745.8 1473.78 
2611.66 -2746.15 1475.08 
2604.1 -2737.62 1474.43 
2603.12 -2736.39 1475.01 
2603.61 -2736.83 1474.5 
2606.92 -2741.03 1475.09 
2605.55 -2739.5 1474.89 
2605.19 -2738.68 1473.6 
2604.9 -2738.11 1472.84 
2608.22 -2742.45 1474.68 
2609.3 -2743.38 1473.37 
2609.88 -2744.15 1473.69 
2610.23 -2744.64 1473.98 
2599.89 -2733.09 1474.74 
2599.53 -2732.41 1474.54 
2601.87 -2734.89 1474.89 
2586.96 -2716.83 1476.53 
2587.52 -2717.87 1477.1 
2588.72 -2719.64 1477.16 
2584.61 -2712.35 1473.76 
2587.33 -2717.03 1475.71 
2586.81 -2715.62 1474.23 
2585.49 -2713.66 1473.85 
2598.07 -2730.67 1475.19 
2597.01 -2729.42 1475.79 
2598.69 -2731.37 1474.81 
2595.48 -2727.28 1475.93 
2595.01 -2726.69 1475.86 
2594.37 -2725.9 1475.74 
2593.33 -2724.61 1475.36 
2590.22 -2721.32 1476.36 
2589.49 -2720.53 1476.74 
2591.34 -2722.34 1475.57 
2592.55 -2723.32 1474.1 
2611.93 -2746.07 1473.15 
2611.08 -2745.32 1472.64 
2604.06 -2737.37 1473.1 
2604.45 -2737.69 1472.2 
2602.72 -2735.92 1475.01 
2602.39 -2735.46 1474.86 
2602.86 -2735.7 1474.01 
2607.81 -2741.68 1473.8 
2607.14 -2741.03 1474.23 
2606.08 -2739.72 1473.78 
2608.28 -2742.07 1473.2 
2610.18 -2744.2 1471.89 
2610.77 -2744.94 1472.35 
2601.05 -2734.06 1474.46 
2600.21 -2732.87 1473.95 
2599.91 -2732.42 1473.52 
2601.85 -2734.51 1474.02 
2599.57 -2731.97 1473.26 
2598.75 -2731.09 1473.79 
2599.14 -2731.48 1473.41 
2587.94 -2718.33 1476.74 
2588.96 -2719.75 1476.57 
2588.48 -2718.86 1476.13 
2588.56 -2718.53 1475.16 
2587.9 -2717.19 1474.18 
2586.8 -2715.28 1473.33 
2588.1 -2716.94 1472.97 
2597.66 -2729.68 1474.17 
2596.7 -2728.49 1474.64 
2596.04 -2727.82 1475.42 
2598.41 -2730.56 1473.65 
2595.85 -2727.19 1474.3 
2595.3 -2726.6 1474.7 
2594.66 -2725.72 1474.26 
2593.55 -2724.41 1473.87 
2589.77 -2720.66 1476.16 
2590.84 -2721.64 1475.33 
2591.9 -2722.6 1474.06 
2593.2 -2723.79 1472.92 
2592.64 -2723.12 1472.94 
2606.99 -2740.48 1472.95 
2600.84 -2733.5 1473.99 
2589.37 -2719.95 1475.82 
2589.99 -2720.25 1474.69 
2589.23 -2718.78 1473.76 
2589.04 -2718.12 1472.86 
2590.44 -2721.08 1475.11 
2591.4 -2721.86 1473.88 
2592.1 -2722.53 1473 
2590.28 -2719.9 1473.1 
2590.94 -2721.11 1473.65 
2591.6 -2721.76 1472.9 
