2676.6 -2696.69 95.136 
2674.92 -2694.85 95.6159 
2674.16 -2694.04 95.6179 
2681.59 -2703.29 101.671 
2680.85 -2702.31 100.055 
2673.21 -2693.01 95.0459 
2672.42 -2692.26 94.5917 
2671.97 -2691.76 94.35 
2672.08 -2691.73 93.7695 
2671.72 -2691.17 93.3921 
2696.71 -2722.82 122.331 
2695.93 -2721.98 121.65 
2695.06 -2721.14 120.164 
2694.41 -2720.17 120.742 
2693.42 -2719.06 119.906 
2692.75 -2718.34 119.197 
2734.78 -2766.99 159.007 
2734.5 -2766.77 158.435 
2734.06 -2766.5 156.897 
2733.24 -2765.47 156.547 
2733.53 -2765.76 155.885 
2733.86 -2766.22 155.959 
2732.84 -2764.97 156.757 
2732.49 -2764.42 155.947 
2732.8 -2764.7 154.788 
2731.78 -2763.28 152.703 
2732.53 -2764.2 152.822 
2732.91 -2764.73 153.453 
2731.24 -2762.76 151.771 
2723.83 -2754.2 145.01 
2721.44 -2751.29 143.071 
2711.63 -2740.21 133.314 
2671.61 -2689.96 90.0116 
2671.56 -2690.68 92.4397 
2672.07 -2690.92 91.5004 
2693.03 -2718.84 118.153 
2692.7 -2718.48 117.512 
2692.47 -2718.23 116.927 
2692.34 -2718.05 116.46 
2689.93 -2714.33 111.926 
2690.58 -2715.07 111.908 
2691.04 -2715.87 112.979 
2692.03 -2717.58 115.29 
2691.79 -2717.17 114.552 
2691.74 -2716.98 113.908 
2689.1 -2713.41 111.473 
2687.77 -2711.85 110.777 
2686.47 -2710.16 109.331 
2687.33 -2711.09 109.648 
2686 -2709.32 107.678 
2686.01 -2709.01 105.279 
2685.72 -2708.56 104.136 
2685.5 -2708.16 103.278 
2685.07 -2707.5 102.507 
2679.96 -2701.3 99.1679 
2679.41 -2700.59 98.2744 
2678.91 -2699.66 97.0094 
2678.19 -2698.89 96.9975 
2674.63 -2694.32 94.4699 
2673.36 -2693.11 94.4567 
2675.01 -2694.35 92.615 
2672.69 -2692.46 93.9936 
2672.16 -2691.55 92.9621 
2672.63 -2692.26 93.3712 
2698.49 -2724.87 122.261 
2697.72 -2724.02 121.21 
2696.45 -2722.6 121.187 
2695.52 -2721.75 119.654 
2694.48 -2720.6 118.663 
2693.9 -2719.87 118.77 
2735.29 -2767.53 158.468 
2734.68 -2767.05 157.11 
2735.02 -2767.36 157.332 
2734.23 -2766.61 156.009 
2734.59 -2766.95 156.33 
2733.16 -2765.2 155.156 
2733.74 -2765.89 154.705 
2733.45 -2765.43 153.99 
2733.99 -2766.27 154.933 
2731.56 -2763.2 151.365 
2732.29 -2763.94 152.272 
2732.76 -2764.53 152.05 
2733.14 -2764.98 152.658 
2726.74 -2757.25 145.546 
2725.46 -2755.94 145.057 
2730.68 -2762.18 150.896 
2730.5 -2762.06 150.402 
2730.28 -2761.77 149.933 
2724.14 -2754.58 144.535 
2723.41 -2753.77 144.101 
2723.22 -2753.51 144.522 
2721.85 -2751.8 144.016 
2722.7 -2752.92 144.298 
2722.29 -2752.47 143.148 
2722.45 -2752.66 143.649 
2721.39 -2751.24 142.03 
2721.97 -2752 142.348 
2722.47 -2752.73 142.682 
2712.41 -2741.06 133.76 
2712.29 -2740.9 133.016 
2711.54 -2740.04 132.48 
2712.12 -2740.64 132.113 
2673 -2691.62 90.2726 
2672.83 -2691.86 91.5674 
2693.48 -2719.46 117.991 
2693.11 -2719.1 117.334 
2692.86 -2718.84 116.729 
2692.82 -2718.73 116.226 
2690.26 -2714.54 111.242 
2691.34 -2716.06 112.122 
2692.07 -2717.26 113.449 
2692.76 -2718.52 115.365 
2692.69 -2718.37 114.882 
2689.23 -2713.44 110.967 
2688.56 -2712.56 110.198 
2686.93 -2710.41 108.471 
2688.51 -2712.03 108.669 
2687.76 -2711.2 108.357 
2686.81 -2710.05 107.194 
2687.1 -2709.98 105.23 
2687.04 -2709.63 103.353 
2686.44 -2709.02 103.048 
2686.21 -2708.58 102.092 
2685.56 -2707.88 101.616 
2685.09 -2706.96 100.514 
2680.58 -2701.64 97.8106 
2673.75 -2693.35 93.6028 
2673.53 -2692.98 92.8458 
2674.53 -2693.59 91.2709 
2673.01 -2692.29 92.2293 
2673.57 -2692.85 92.1364 
2700.13 -2726.8 121.84 
2699.11 -2725.61 120.357 
2698.49 -2724.99 119.074 
2697.3 -2723.68 119.452 
2696.57 -2722.86 120.153 
2695.93 -2722.26 118.848 
2694.99 -2721.23 118.55 
2693.97 -2720.05 117.882 
2735.74 -2767.98 157.547 
2735.38 -2767.72 156.815 
2734.97 -2767.32 156.479 
2734.54 -2766.87 155.338 
2734.92 -2767.25 155.515 
2734 -2766.12 153.096 
2733.63 -2765.59 152.836 
2734.35 -2766.51 153.125 
2731.9 -2763.59 151.236 
2731.21 -2762.92 150.29 
2733.13 -2764.96 151.878 
2732.39 -2764.2 150.908 
2729.8 -2761.02 149.148 
2726.62 -2757.16 144.806 
2727.69 -2758.31 146.171 
2724.79 -2755.26 144.239 
2730.76 -2762.38 149.635 
2723.72 -2754.18 143.9 
2723.17 -2753.54 143.394 
2722.9 -2753.18 143.776 
2722.73 -2753.03 143.229 
2722.54 -2752.8 142.093 
2722.36 -2752.48 141.703 
2722.93 -2753.29 142.807 
2713.57 -2742.12 133.817 
2712.85 -2741.46 133.029 
2712.72 -2741.23 132.357 
2711.69 -2740.05 130.99 
2712.4 -2740.83 131.026 
2712.17 -2740.48 129.787 
2673.82 -2692.81 90.9618 
2693.59 -2719.66 117.245 
2693.36 -2719.41 116.672 
2693.28 -2719.28 116.183 
2691.05 -2715.27 110.303 
2689.89 -2714.01 110.538 
2691.96 -2716.69 111.667 
2692.4 -2717.57 113.112 
2693.28 -2718.96 114.47 
2693.38 -2719.26 115.396 
2689.35 -2712.97 108.967 
2688.04 -2711.17 107.147 
2701.26 -2728.14 122.096 
2701.59 -2728.64 121.112 
2700.28 -2727 120.174 
2699.66 -2726.35 118.986 
2697.02 -2723.46 118.395 
2698.37 -2724.89 118.064 
2695.67 -2721.97 118.162 
2694.55 -2720.72 117.78 
2745.17 -2776.46 159.49 
2743.68 -2775.27 158.571 
2736.87 -2768.93 157.848 
2735.9 -2768.14 156.415 
2739.82 -2771.53 158.043 
2735.3 -2767.63 155.917 
2734.73 -2766.91 153.467 
2734.85 -2767.1 154.324 
2735.34 -2767.59 154.831 
2735.32 -2767.48 153.734 
2733.48 -2765.34 151.776 
2733.82 -2765.7 151.494 
2734.29 -2766.23 151.585 
2731.55 -2763.35 149.97 
2730.27 -2761.6 149.12 
2729.89 -2760.93 148.288 
2729.17 -2760.02 147.622 
2727.54 -2758.16 144.92 
2726.46 -2757.01 143.9 
2725.26 -2755.74 143.914 
2724.09 -2754.58 143.506 
2731.34 -2763.14 149.451 
2721.68 -2751.5 141.201 
2722.84 -2753.21 141.827 
2720.96 -2750.33 140.624 
2723.32 -2753.72 142.526 
2705.71 -2734.02 131.595 
2705.42 -2733.64 131.031 
2705.34 -2733.5 130.355 
2705.47 -2733.57 129.599 
2705.12 -2733.19 129.594 
2713.81 -2742.32 133.231 
2713.58 -2742.05 132.361 
2712.89 -2741.3 131.076 
2711.72 -2739.83 128.845 
2712.8 -2740.95 128.951 
2712.36 -2740.39 128.203 
2706.63 -2734.95 130.835 
2706.1 -2734.45 131.115 
2706.84 -2735.1 130.148 
2694.15 -2720.25 117.1 
2693.87 -2719.95 116.477 
2694.02 -2720.1 115.962 
2692.02 -2716.3 109.616 
2691.7 -2715.57 107.825 
2690.87 -2714.62 108.567 
2690.09 -2713.92 109.383 
2692.54 -2717.19 111.268 
2692.73 -2717.81 112.678 
2694.11 -2719.94 114.714 
2689.93 -2713.22 107.482 
2702.35 -2729.34 122.987 
2702.79 -2730.02 121.524 
2703.24 -2730.57 120.718 
2702.38 -2729.57 120.328 
2701.09 -2728.05 120.27 
2700.66 -2727.42 119.202 
2699.49 -2726.17 117.903 
2696.62 -2723.02 117.69 
2697.75 -2724.25 117.46 
2695.21 -2721.48 117.59 
2742.44 -2774.27 158.477 
2742.83 -2774.59 158.136 
2741.89 -2773.75 157.999 
2745.1 -2776.41 157.957 
2743.62 -2775.18 157.608 
2736.91 -2768.99 157.093 
2738.06 -2769.91 156.861 
2739.39 -2771.12 156.957 
2736.84 -2768.89 156.223 
2735.72 -2767.97 155.357 
2740.07 -2771.75 157.163 
2735 -2767.09 152.753 
2735.87 -2767.97 153.956 
2735.57 -2767.65 152.781 
2735.21 -2767.23 152.088 
2732.9 -2764.75 150.491 
2733.57 -2765.37 150.107 
2731.98 -2763.88 149.683 
2730.86 -2762.4 148.961 
2730.42 -2761.69 148.316 
2729.76 -2760.7 147.58 
2729.41 -2760.22 146.963 
2729.18 -2759.91 146.308 
2727.86 -2758.51 144.247 
2726.7 -2757.23 143.343 
2724.96 -2755.44 143.213 
2723.85 -2754.29 142.825 
2731.47 -2763.21 148.85 
2722.57 -2752.57 140.842 
2722.92 -2753.16 141.262 
2721.82 -2751.47 140.394 
2723.64 -2754.03 142.259 
2705.8 -2734.05 130.443 
2705.83 -2734 129.523 
2705.78 -2733.72 128.315 
2705.37 -2733.17 127.989 
2705.7 -2733.31 126.621 
2706.15 -2733.57 124.446 
2706.21 -2733.84 126.207 
2703.97 -2731.16 123.611 
2703.5 -2730.76 122.478 
2713.36 -2741.43 128.7 
2713.08 -2741.01 127.391 
2712.4 -2740.28 127.111 
2706.24 -2734.5 129.964 
2706.9 -2734.97 128.87 
2694.8 -2721 116.998 
2694.56 -2720.69 116.461 
2695.05 -2721.25 116.16 
2692.67 -2717.04 109.851 
2692.13 -2716.16 108.217 
2692.07 -2715.83 106.908 
2693.21 -2718.33 112.63 
2693.26 -2717.74 110.523 
2693.17 -2717.9 111.485 
2693.81 -2719.4 113.905 
2694.81 -2720.65 114.409 
2695.03 -2721.1 115.236 
2703.9 -2731.36 121.126 
2703.54 -2730.97 120.047 
2704.17 -2731.74 120.464 
2702.66 -2729.83 119.676 
2701.36 -2728.32 119.727 
2701.34 -2728.18 118.868 
2700.71 -2727.42 118.363 
2699.95 -2726.64 117.214 
2698.67 -2725.26 116.917 
2696.07 -2722.41 117.145 
2697.05 -2723.42 116.801 
2742.3 -2774.11 157.569 
2742.85 -2774.54 157.127 
2741.83 -2773.62 157.059 
2740.93 -2772.65 156.883 
2744.87 -2776.2 157.093 
2743.71 -2775.21 156.756 
2739.14 -2770.79 156.026 
2737.39 -2769.28 155.667 
2739.77 -2771.43 156.305 
2736.23 -2768.33 154.72 
2734.83 -2766.72 151.119 
2736.4 -2768.38 153.261 
2735.9 -2767.93 152.416 
2735.59 -2767.54 151.495 
2732.28 -2764.15 149.251 
2732.72 -2764.54 149.236 
2731.81 -2763.67 149.135 
2729.69 -2760.45 146.569 
2729.59 -2760.21 145.861 
2728.41 -2758.99 143.971 
2727.71 -2758.27 143.013 
2726.77 -2757.24 142.701 
2725.45 -2755.89 142.914 
2724.27 -2754.72 142.494 
2729.33 -2759.85 144.893 
2723.37 -2753.68 141.41 
2721.92 -2751.41 139.863 
2724.04 -2754.41 141.952 
2723.88 -2754.18 141.534 
2706.48 -2734.53 128.468 
2706.23 -2734.15 127.712 
2707.13 -2734.75 125.444 
2707.68 -2735.37 124.935 
2706.84 -2734.43 124.039 
2705.45 -2732.78 123.606 
2706.91 -2734.59 126.114 
2706.84 -2734.64 126.93 
2704.66 -2732.01 122.265 
2713.78 -2741.67 127.462 
2711.53 -2739.46 126.947 
2713.35 -2741.18 126.464 
2712.36 -2740.21 125.999 
2710.55 -2738.44 126.808 
2709.25 -2737.08 127.249 
2695.53 -2721.8 116.706 
2696.1 -2722.35 115.912 
2696.4 -2722.71 116.32 
2693.27 -2717.51 109.119 
2692.43 -2716.43 107.901 
2692.48 -2716.22 106.64 
2693.75 -2718.78 112.275 
2694.45 -2720.03 113.707 
2694.09 -2718.68 110.983 
2694.4 -2718.71 109.794 
2695.97 -2721.86 114.069 
2696.38 -2722.35 114.358 
2696.24 -2722.4 115.383 
2696.42 -2722.49 114.854 
2705.06 -2732.6 121.107 
2704.08 -2731.7 119.862 
2703.58 -2731 119.483 
2704.65 -2732.22 119.884 
2705.19 -2732.76 120.648 
2702.83 -2729.94 119.064 
2701.84 -2728.78 119.272 
2702.13 -2728.95 118.574 
2701.18 -2727.94 118.002 
2701.83 -2728.59 118.085 
2700.63 -2727.27 116.717 
2699.41 -2725.98 116.101 
2698.13 -2724.58 116.578 
2759.7 -2789.18 166.534 
2742.44 -2774.11 156.612 
2743.07 -2774.61 156.184 
2741.65 -2773.3 156.048 
2740.73 -2772.36 156.002 
2744.83 -2776.09 156.264 
2743.81 -2775.18 155.889 
2739.04 -2770.62 155.02 
2739.63 -2771.23 155.381 
2738.25 -2769.9 155.021 
2737.28 -2769.09 154.17 
2733.86 -2765.57 149.242 
2732.94 -2764.68 148.761 
2737.59 -2769.26 152.986 
2736.63 -2768.53 152.254 
2736.14 -2768.06 151.697 
2735.98 -2767.8 150.965 
2735.28 -2767.05 150.319 
2732.42 -2764.2 148.763 
2731.57 -2763.19 148.265 
2731 -2762.31 147.762 
2730.39 -2761.34 146.97 
2730.17 -2760.96 146.464 
2730.02 -2760.67 145.959 
2730.55 -2761.03 144.92 
2729.15 -2759.7 143.839 
2728.51 -2759.04 142.807 
2728.21 -2758.71 142.325 
2727.57 -2758.04 142 
2726.17 -2756.55 142.32 
2724.99 -2755.39 142.274 
2730.46 -2760.87 143.805 
2731.94 -2763.65 148.49 
2723.17 -2753.25 140.579 
2722.88 -2752.71 140.02 
2724.72 -2755.04 141.715 
2724.61 -2754.82 141.262 
2707.7 -2735.41 126.169 
2708.33 -2736.13 125.871 
2707.82 -2735.6 123.167 
2706.95 -2734.59 122.845 
2708.64 -2736.52 124.017 
2705.96 -2733.5 122.169 
2714.44 -2742.23 127.216 
2711.33 -2739.24 125.69 
2714.2 -2741.96 126.18 
2712.99 -2740.77 124.944 
2711.89 -2739.77 123.678 
2709.39 -2737.25 125.961 
2710.3 -2738.23 124.933 
2697.59 -2723.91 116.186 
2697.4 -2723.64 115.803 
2692.86 -2716.79 107.511 
2694.6 -2719.95 112.961 
2694.88 -2719.55 111.065 
2695.82 -2721.56 113.66 
2695.33 -2719.62 109.766 
2696.79 -2722.5 113.292 
2697.33 -2723.09 113.579 
2697.59 -2723.58 114.421 
2697.62 -2723.79 115.155 
2706.59 -2734.32 121.27 
2703.66 -2731.1 118.986 
2705.56 -2733.16 120.381 
2704.62 -2732.21 119.38 
2706.83 -2734.63 120.952 
2703.02 -2730.12 118.468 
2702.54 -2729.3 117.669 
2701.66 -2728.3 117.032 
2702.42 -2728.99 116.877 
2701.19 -2727.69 115.476 
2700.02 -2726.53 115.276 
2698.92 -2725.35 115.614 
2760.29 -2789.75 166.056 
2759.27 -2788.81 165.415 
2758.64 -2788.25 163.369 
2742.47 -2774.02 155.747 
2743.05 -2774.46 155.285 
2741.5 -2772.98 154.852 
2740.39 -2771.87 154.738 
2745.12 -2776.12 154.856 
2744.04 -2775.15 154.381 
2739.65 -2771.08 153.876 
2738.72 -2770.16 153.575 
2733.16 -2764.78 148.256 
2732.66 -2764.34 148.3 
2738 -2769.53 152.18 
2736.77 -2768.55 151.41 
2736.51 -2768.17 150.521 
2735.66 -2767.32 150.002 
2734.47 -2765.98 148.64 
2733.63 -2765.09 147.822 
2731.37 -2762.62 147.374 
2730.92 -2761.73 146.46 
2730.84 -2761.5 145.882 
2731.01 -2761.52 145.088 
2729.8 -2760.26 142.838 
2728.95 -2759.48 142.239 
2728.58 -2759.08 141.732 
2727.52 -2757.91 141.492 
2725.99 -2756.33 141.786 
2731.57 -2761.84 141.987 
2730.57 -2760.88 141.828 
2723.72 -2753.89 140.856 
2723.35 -2753.11 139.613 
2723.65 -2752.94 138.135 
2725.31 -2755.48 141.097 
2724.45 -2754.56 140.648 
2707.87 -2735.76 122.034 
2709.41 -2737.33 123.964 
2708.76 -2736.69 122.383 
2715.4 -2743.07 127.078 
2710.74 -2738.66 123.664 
2715.27 -2742.91 126.097 
2714.26 -2741.97 124.713 
2713.34 -2741.13 123.083 
2711.46 -2739.32 122.469 
2712.98 -2740.8 122.167 
2709.64 -2737.59 122.732 
2698.53 -2724.83 115.269 
2695.21 -2720.17 111.808 
2695.98 -2721.47 112.996 
2695.98 -2720.53 110.722 
2696.7 -2722.18 112.611 
2697.24 -2722.76 112.545 
2698.05 -2723.92 113.672 
2697.82 -2723.37 112.679 
2698.44 -2724.6 114.54 
2704.15 -2731.73 118.898 
2703.86 -2731.31 118.486 
2705.65 -2733.28 119.74 
2704.74 -2732.32 118.899 
2708 -2735.91 121.552 
2703.3 -2730.44 117.907 
2703 -2729.74 116.521 
2702.38 -2728.86 115.533 
2702.96 -2729.48 115.555 
2701.73 -2728.14 114.377 
2700.6 -2726.99 113.987 
2699.78 -2726.14 114.283 
2760.83 -2790.24 166.177 
2760.8 -2790.36 164.915 
2760.36 -2789.95 164.734 
2759.99 -2789.61 164.213 
2759.76 -2789.38 163.684 
2759.7 -2789.32 163.06 
2759.68 -2789.29 162.545 
2758.62 -2788.17 162.461 
2742.07 -2773.43 154.33 
2742.91 -2774.03 153.725 
2740.65 -2771.95 153.538 
2739.33 -2770.61 152.577 
2733.14 -2764.7 147.629 
2738.25 -2769.67 151.437 
2737.64 -2769.12 150.747 
2737.79 -2769.07 149.911 
2736.32 -2767.83 149.701 
2735.12 -2766.52 148.625 
2734.18 -2765.48 147.314 
2733.78 -2764.99 146.466 
2732.09 -2763.58 147.693 
2731.7 -2762.79 146.619 
2731.96 -2762.67 145.249 
2732.05 -2762.63 144.675 
2733.48 -2763.78 142.545 
2733.49 -2763.92 143.392 
2729.81 -2760.16 141.533 
2728.43 -2758.85 141.22 
2729.69 -2760.01 141.042 
2727.07 -2757.37 141.138 
2732.8 -2763 141.286 
2730.97 -2761.22 140.913 
2732.18 -2762.35 140.314 
2732.47 -2764.07 147.639 
2724.1 -2754.16 140.373 
2723.96 -2753.84 139.777 
2724.19 -2753.64 138.369 
2725.76 -2755.87 140.716 
2725.12 -2755.08 140.042 
2708.87 -2736.81 121.805 
2709.94 -2737.89 122.213 
2716.49 -2744.05 126.281 
2715.36 -2742.99 125.027 
2714.47 -2742.19 123.162 
2714.21 -2742.02 121.884 
2712.39 -2740.18 121.55 
2710.73 -2738.6 121.795 
2713.88 -2741.66 121.159 
2699.53 -2725.71 113.637 
2696.24 -2721.28 111.786 
2696.62 -2721.46 111.089 
2697.11 -2722.05 111.14 
2697.79 -2723.12 111.549 
2699.07 -2725.07 113.252 
2698.79 -2724.57 112.382 
2698.83 -2724.3 111.11 
2704.4 -2731.93 118.381 
2704.1 -2731.56 117.99 
2707.19 -2734.99 120.373 
2705.63 -2733.23 119.007 
2704.95 -2732.43 118.287 
2703.59 -2730.73 117.425 
2703.76 -2730.75 116.78 
2703.52 -2730.13 115.456 
2702.99 -2729.35 114.478 
2701.95 -2728.25 113.55 
2700.71 -2727 112.963 
2700.19 -2726.41 113.164 
2761.49 -2790.8 166.751 
2758.28 -2787.73 161.714 
2761.34 -2790.7 166.076 
2761.17 -2790.68 165.055 
2761.18 -2790.79 163.629 
2761.59 -2791.12 163.756 
2760.71 -2790.39 163.483 
2760.49 -2790.22 162.969 
2760.48 -2790.16 162.465 
2759.83 -2789.4 162.035 
2759.3 -2788.83 161.776 
2750.88 -2780.68 154.094 
2750.25 -2780.09 152.846 
2745.6 -2776.02 152.27 
2744.52 -2775.09 152.068 
2739.12 -2770.1 149.96 
2738.89 -2769.7 148.618 
2737.68 -2768.78 149.101 
2736.58 -2767.68 148.361 
2735.63 -2766.66 147.408 
2734.71 -2765.76 146.664 
2734.41 -2765.29 145.395 
2734.17 -2764.88 144.646 
2732.26 -2763.38 146.474 
2732.84 -2763.55 144.932 
2733.33 -2763.92 144.12 
2733.56 -2763.77 140.974 
2734.21 -2764.56 142.946 
2734.05 -2764.6 143.861 
2728.3 -2758.62 140.717 
2729.52 -2759.77 140.573 
2730.79 -2760.92 140.257 
2731.9 -2762 139.784 
2732.93 -2763 139.563 
2732.84 -2764.09 146.385 
2724.66 -2754.5 139.44 
2724.78 -2754.17 138.049 
2726.58 -2756.63 140.19 
2725.99 -2755.77 139.375 
2717.48 -2745 126.048 
2716.25 -2743.91 125.098 
2715.55 -2743.25 123.764 
2715.39 -2743.22 122.26 
2715.38 -2743.22 120.928 
2715.62 -2743.5 121.518 
2713.65 -2741.4 120.486 
2712.42 -2740.12 120.785 
2711.2 -2738.98 121.022 
2709.58 -2737.46 121.117 
2715.25 -2743.01 120.314 
2699.98 -2726.04 112.562 
2697.67 -2722.51 110.061 
2699.82 -2725.77 112.03 
2699.65 -2725.41 111.29 
2698.83 -2723.8 109.402 
2699.82 -2725.32 110.166 
2704.65 -2732.07 117.836 
2704.36 -2731.71 117.451 
2708.44 -2736.35 120.782 
2706.92 -2734.61 119.713 
2705.13 -2732.49 117.763 
2704.17 -2731.17 116.463 
2704.32 -2731.15 115.772 
2703.79 -2730.28 114.421 
2703.37 -2729.58 113.59 
2702.53 -2728.68 112.695 
2701.29 -2727.49 112.59 
2700.5 -2726.63 112.271 
2701.09 -2727.2 112.008 
2762.1 -2791.25 166.106 
2759.27 -2788.7 161.183 
2758.62 -2787.84 160.155 
2762.09 -2791.4 164.818 
2761.69 -2791.14 164.547 
2761.66 -2791.24 163.122 
2761.14 -2790.86 162.985 
2762.05 -2791.54 163.357 
2760.98 -2790.67 162.216 
2760.57 -2790.13 161.597 
2760.35 -2789.82 161.26 
2744.18 -2774.7 151.143 
2750.8 -2780.47 151.8 
2745.36 -2775.74 150.636 
2733.18 -2764.29 145.902 
2733.57 -2764.29 144.648 
2737.77 -2768.47 147.398 
2736.03 -2766.71 146.221 
2735.13 -2765.86 145.215 
2734.94 -2765.5 144.234 
2734.71 -2765.13 143.517 
2734.47 -2764.72 141.799 
2733.65 -2763.78 140.065 
2728.01 -2758.18 140.178 
2729.36 -2759.52 140.147 
2730.59 -2760.6 139.71 
2731.71 -2761.7 139.233 
2732.67 -2762.63 138.757 
2733.24 -2763.22 138.958 
2727.52 -2757.48 139.674 
2718.26 -2745.7 126.504 
2718.6 -2746.08 125.354 
2717.62 -2745.28 124.523 
2716.49 -2744.33 123.617 
2716.51 -2744.42 122.391 
2716.76 -2744.7 121.826 
2716.82 -2744.73 121.23 
2716.68 -2744.56 120.649 
2713.4 -2741.09 119.858 
2715.07 -2742.78 119.741 
2711.91 -2739.56 120.076 
2710.51 -2738.25 120.433 
2709.09 -2736.93 120.497 
2716.57 -2744.4 120.169 
2700.45 -2726.42 111.681 
2700.32 -2726.13 111.052 
2699.38 -2724.17 108.442 
2700.5 -2726.05 110.082 
2699.98 -2725.05 108.766 
2704.78 -2732.05 117.259 
2708.33 -2736.15 120.029 
2705.84 -2733.23 118.16 
2706.7 -2734.28 119.235 
2707.99 -2735.72 119.542 
2704.58 -2731.26 115.107 
2704.93 -2732.03 116.641 
2704.13 -2730.48 113.603 
2703.54 -2729.58 112.272 
2701.98 -2727.98 111.854 
2700.97 -2726.96 111.435 
2701.49 -2727.39 111.16 
2763.51 -2792.33 166.341 
2762.72 -2791.87 165.072 
2759.81 -2789.15 160.673 
2759.91 -2789.1 160 
2763.5 -2792.61 163.843 
2762.45 -2791.85 163.694 
2762.14 -2791.64 162.801 
2761.69 -2791.28 162.609 
2762.61 -2792.03 163.11 
2761.48 -2791.08 161.97 
2760.92 -2790.46 161.388 
2761.39 -2790.94 161.456 
2744.67 -2775.08 149.912 
2748.36 -2778.28 149.831 
2746.64 -2776.73 148.803 
2745.16 -2775.51 148.756 
2736.42 -2766.89 145.263 
2735.71 -2766.18 144.156 
2734.97 -2765.02 140.761 
2733.89 -2763.87 139.232 
2732.93 -2762.6 137.464 
2733.43 -2763.1 137.387 
2733.8 -2763.47 137.425 
2719.37 -2746.86 125.559 
2719.63 -2747.27 123.79 
2718.79 -2746.46 123.536 
2717.73 -2745.57 122.848 
2717.99 -2745.87 122.181 
2718.17 -2746.07 121.626 
2718.13 -2746.04 121.088 
2718.12 -2745.98 120.544 
2714.12 -2741.76 119.087 
2712.66 -2740.24 119.411 
2715.35 -2743.04 119.349 
2711.65 -2739.18 119.387 
2710.53 -2738.19 119.809 
2709.15 -2736.92 119.919 
2700.86 -2726.68 110.804 
2699.71 -2724.17 107.227 
2700.54 -2725.54 108.475 
2701.01 -2726.47 109.774 
2707.2 -2734.81 119.07 
2708.76 -2736.45 119.446 
2704.9 -2731.44 114.602 
2704.63 -2730.77 113.043 
2704.01 -2729.83 111.273 
2702.51 -2728.32 111.004 
2701.32 -2727.07 110.507 
2702.04 -2727.58 109.988 
2765.02 -2793.45 166.789 
2763.96 -2792.77 165.201 
2760.91 -2790.29 160.675 
2760.97 -2790.24 160.152 
2760.24 -2789.1 158.789 
2760.46 -2788.98 157.557 
2764.6 -2793.42 164.284 
2763.51 -2792.7 163.262 
2764.6 -2793.5 163.645 
2762.94 -2792.27 162.553 
2761.87 -2791.38 162.152 
2763.96 -2793.08 162.797 
2761.86 -2791.27 161.178 
2762.23 -2791.58 161.317 
2744.24 -2774.65 148.415 
2749.72 -2779.45 149.897 
2746.96 -2776.93 148.371 
2745.37 -2775.65 148.293 
2744.43 -2774.73 147.717 
2743.65 -2773.74 146.517 
2733.54 -2762.91 136.014 
2720.76 -2748.33 125.316 
2720.39 -2748.09 123.44 
2719.3 -2747.08 122.229 
2720.16 -2747.96 122.161 
2719.42 -2747.24 121.701 
2719.51 -2747.34 120.819 
2715 -2742.62 118.674 
2713.68 -2741.22 118.714 
2712.29 -2739.74 118.734 
2716.45 -2744.16 119.244 
2718.15 -2745.9 119.605 
2711.41 -2738.84 118.866 
2710.08 -2737.71 119.27 
2719.59 -2747.39 120.048 
2701.43 -2726.32 107.94 
2701.77 -2727.07 109.162 
2705.99 -2733.27 117.391 
2707.01 -2734.49 118.586 
2708.2 -2735.73 118.875 
2709.47 -2737.05 118.972 
2705.45 -2732.41 116.042 
2705.25 -2731.72 114.155 
2705.12 -2731.07 112.414 
2705.39 -2730.83 110.204 
2703.41 -2728.95 109.898 
2764.93 -2793.51 165.579 
2766.27 -2794.47 166.776 
2761.52 -2790.9 160.736 
2761.71 -2790.91 160.167 
2761.09 -2790.02 159.096 
2761.19 -2789.69 157.823 
2761.62 -2789.91 157.208 
2765.5 -2794.12 164.449 
2765.38 -2794.07 163.882 
2764.86 -2793.72 163.198 
2762.6 -2791.92 161.836 
2763.22 -2792.44 162.13 
2764.64 -2793.6 162.497 
2765.3 -2794.08 162.82 
2762.83 -2792.09 161.4 
2762.52 -2791.78 160.881 
2763.44 -2792.55 161.078 
2749.02 -2778.62 148.969 
2744.72 -2774.91 147.239 
2721.88 -2749.46 127.034 
2722.32 -2749.94 126.016 
2721.61 -2749.41 123.714 
2721.32 -2749.21 122.685 
2721.26 -2749.19 122.105 
2720.21 -2748.02 121.595 
2720.35 -2748.2 121.149 
2720.6 -2748.5 120.56 
2715.89 -2743.49 118.614 
2714.75 -2742.28 118.033 
2713.38 -2740.81 118.167 
2712.08 -2739.42 118.284 
2717.82 -2745.49 119.112 
2710.9 -2738.27 118.418 
2707.15 -2734.49 118.101 
2706.52 -2733.66 117.14 
2708.58 -2735.96 118.402 
2710.16 -2737.48 117.959 
2705.9 -2732.78 115.742 
2705.76 -2732.1 113.741 
2705.79 -2731.65 112 
2706.16 -2731.64 110.527 
2769.2 -2796.88 168.122 
2766.04 -2794.48 165.455 
2767.72 -2795.71 166.782 
2762.25 -2791.38 160.248 
2761.65 -2790.49 158.936 
2762.31 -2791.06 159.002 
2762.13 -2790.49 157.596 
2766.46 -2795.11 163.797 
2766.8 -2795.37 164.154 
2765.84 -2794.58 163.185 
2763.91 -2793 161.658 
2764.3 -2793.34 162.049 
2765.41 -2794.19 162.277 
2766.58 -2795.29 162.862 
2764.63 -2793.54 161.447 
2763.74 -2792.7 160.687 
2750.21 -2779.64 148.955 
2733.91 -2763.04 133.834 
2723.78 -2751.52 125.334 
2722.5 -2750.29 124.474 
2722.59 -2750.63 122.756 
2722.43 -2750.55 122.077 
2721.5 -2749.48 121.736 
2721.85 -2749.88 121.055 
2715.45 -2742.9 117.736 
2716.71 -2744.26 118.514 
2714.36 -2741.8 117.625 
2713 -2740.27 117.649 
2711.69 -2738.94 117.924 
2719.46 -2747.15 119.248 
2718.34 -2745.91 118.709 
2720.89 -2748.76 119.963 
2722.21 -2750.18 120.308 
2707.96 -2735.09 117.709 
2707.44 -2734.47 117.154 
2707.06 -2733.91 116.455 
2709.18 -2736.39 117.538 
2710.96 -2738 117.08 
2706.88 -2733.34 114.873 
2706.86 -2732.83 113.101 
2770.13 -2797.59 168.846 
2770.5 -2797.85 169.715 
2769.14 -2796.94 166.775 
2770.42 -2797.94 166.843 
2767.18 -2795.51 165.196 
2768.17 -2796.28 165.678 
2763.02 -2791.96 159.99 
2762.92 -2791.47 158.621 
2763.3 -2791.49 157.515 
2764.08 -2791.99 156.839 
2767.63 -2796.16 163.547 
2767.9 -2796.28 164.364 
2767.18 -2795.79 163.106 
2766.74 -2795.45 162.401 
2766.38 -2795.12 162.195 
2767.75 -2796.36 162.825 
2765.67 -2794.4 161.831 
2763.99 -2792.79 160.26 
2765.19 -2793.78 160.535 
2765.71 -2794.27 161.007 
2734.15 -2763.18 132.512 
2734.7 -2763.78 132.607 
2735.19 -2764.26 132.917 
2724.8 -2752.59 125.075 
2725.59 -2753.43 124.506 
2726.39 -2754.21 123.798 
2723.92 -2751.86 123.758 
2723.31 -2751.24 123.802 
2723.22 -2751.28 122.499 
2723.14 -2751.26 121.915 
2722.61 -2750.71 121.631 
2723.04 -2751.11 120.928 
2714.75 -2742.14 117.199 
2713.67 -2740.9 117.206 
2712.39 -2739.52 117.364 
2720.01 -2747.65 118.987 
2723.49 -2751.45 120.279 
2708.55 -2735.27 116.333 
2708.23 -2734.65 115.529 
2707.93 -2734.15 114.774 
2709.81 -2736.45 115.839 
2712.41 -2739.36 116.731 
2711.38 -2737.95 115.675 
2771.01 -2798.38 168.238 
2771.16 -2798.37 169.612 
2769.67 -2797.53 165.076 
2768.8 -2796.86 165.148 
2771.31 -2798.77 165.98 
2764.44 -2793.02 159.845 
2763.87 -2792.28 158.627 
2764.75 -2792.63 157.384 
2763.82 -2791.6 155.981 
2764.79 -2792.47 156.263 
2765.92 -2793.44 156.82 
2768.19 -2796.6 163.829 
2768.62 -2796.9 164.029 
2766.94 -2795.64 161.961 
2767.74 -2796.36 162.192 
2766.87 -2795.42 161.332 
2765.76 -2794.11 160.164 
2766.6 -2795.05 160.887 
2735.84 -2764.72 132.847 
2734.43 -2763.37 131.839 
2734.1 -2762.76 130.93 
2735.58 -2764.44 131.993 
2728.57 -2756.23 123.151 
2727.38 -2755.11 123.189 
2724.5 -2752.43 123.544 
2725.2 -2753.13 123.183 
2725.41 -2753.35 122.437 
2723.89 -2751.9 122.416 
2723.42 -2751.55 121.561 
2724.07 -2752.11 121.874 
2723.65 -2751.8 121.167 
2724.2 -2752.2 120.423 
2716.86 -2744.15 117.563 
2715.94 -2743.13 116.902 
2721.94 -2749.71 119.542 
2721.55 -2749.16 119.093 
2719.33 -2746.71 118.031 
2717.78 -2744.95 117.397 
2723.55 -2751.33 119.651 
2724.57 -2752.46 120.031 
2711.06 -2737.14 114.096 
2714.06 -2741.12 116.588 
2712.93 -2739.64 115.894 
2712.39 -2738.77 114.941 
2771.8 -2799.02 167.801 
2771.84 -2798.91 169.256 
2769.8 -2797.74 164.312 
2773.05 -2800.02 166.165 
2772.26 -2799.54 165.212 
2770.41 -2798.21 164.15 
2765.34 -2793.4 158.761 
2766.45 -2794.01 157.611 
2765.18 -2792.63 155.343 
2766.19 -2793.51 155.854 
2767.18 -2794.46 157.043 
2767.04 -2794.25 156.432 
2762.73 -2790.59 153.445 
2761.19 -2789.3 152.231 
2762 -2789.98 152.096 
2761.63 -2789.69 152.348 
2768.96 -2797.22 163.607 
2768.39 -2796.88 162.876 
2768.39 -2796.85 162.101 
2768.94 -2797.31 162.674 
2767.88 -2796.4 161.585 
2766.18 -2794.29 159.544 
2767.02 -2795.33 160.466 
2767.63 -2796.06 160.963 
2734.64 -2763.28 130.619 
2729.7 -2757.25 122.825 
2727.27 -2755.01 121.863 
2728.61 -2756.19 121.421 
2725.96 -2753.84 122.018 
2724.42 -2752.46 121.493 
2724.56 -2752.56 120.963 
2724.88 -2752.78 120.544 
2725.34 -2753.13 120.015 
2717.27 -2744.25 116.714 
2716.02 -2743 116.318 
2715.11 -2742.34 116.767 
2721.18 -2748.62 118.575 
2722.81 -2750.33 118.88 
2723.27 -2750.94 119.313 
2720.86 -2748.08 117.963 
2719.13 -2746.21 117.328 
2724.59 -2752.25 119.14 
2725.82 -2753.44 119.386 
2713.43 -2739.7 114.889 
2772.92 -2799.81 167.641 
2773.4 -2799.92 169.128 
2774.38 -2800.98 166.473 
2773.89 -2800.73 164.994 
2774.94 -2801.52 165.378 
2772.3 -2799.59 164.544 
2770.43 -2798.29 163.537 
2766.79 -2794.43 158.176 
2767.38 -2794.75 157.512 
2764.94 -2792.31 153.737 
2767.09 -2794.18 155.24 
2767.73 -2794.78 156.401 
2767.81 -2794.97 156.922 
2763.52 -2791.12 152.379 
2762.66 -2790.5 152.42 
2761.01 -2789.03 151.226 
2761.51 -2789.52 151.38 
2761.87 -2789.75 150.993 
2762.39 -2790.19 151.449 
2769.83 -2797.94 162.949 
2768.94 -2797.3 162.028 
2769.62 -2797.82 162.45 
2768.48 -2796.84 161.498 
2767.17 -2795.27 159.866 
2766.91 -2794.68 158.684 
2768 -2796.2 160.334 
2743.59 -2772.65 136.724 
2743.11 -2772.21 136.315 
2730.35 -2757.79 121.89 
2726.88 -2754.63 121.148 
2725.5 -2753.42 121.329 
2729.59 -2756.97 120.524 
2727.71 -2755.3 120.703 
2725.77 -2753.62 120.738 
2726.25 -2753.96 120.219 
2726.95 -2754.48 119.652 
2719.2 -2745.76 116.014 
2717.66 -2744.18 115.519 
2716.64 -2743.12 115.201 
2715.33 -2742.31 116.153 
2722.5 -2749.77 118.259 
2724.11 -2751.42 118.308 
2724.55 -2752.03 118.666 
2722.14 -2748.86 116.897 
2720.7 -2747.42 116.549 
2725.74 -2753.25 118.88 
2726.12 -2753.37 118.138 
2727.07 -2754.42 118.689 
2728.02 -2755.31 118.924 
2714.59 -2741.31 115.703 
2774.28 -2800.7 167.98 
2775.81 -2802.02 166.536 
2775.98 -2802.25 165.788 
2774.31 -2801.11 164.44 
2775.65 -2802.13 164.852 
2776.64 -2802.82 165.45 
2772.84 -2800.01 164.113 
2771.23 -2798.86 163.568 
2767.55 -2795.04 158.034 
2767.96 -2795.2 157.395 
2765.07 -2792.32 152.762 
2767.45 -2794.33 154.215 
2768.27 -2795.05 155.676 
2768.32 -2795.19 156.262 
2768.39 -2795.37 156.784 
2768.04 -2794.79 154.569 
2763.85 -2791.27 151.668 
2762.72 -2790.37 151.053 
2761.19 -2789.08 150.305 
2760.57 -2788.44 150.036 
2761.56 -2789.33 149.923 
2762.12 -2789.82 150.382 
2769.44 -2797.71 161.893 
2771.18 -2798.86 162.789 
2770.38 -2798.34 162.326 
2768.94 -2797.19 161.305 
2767.71 -2795.69 159.597 
2767.92 -2795.65 158.985 
2768.43 -2796.48 160.091 
2768.6 -2796.75 160.588 
2744.66 -2773.59 137.307 
2728.21 -2755.66 120.069 
2729.15 -2756.31 119.103 
2720.35 -2746.41 114.768 
2718.56 -2744.45 114.133 
2716.19 -2742.51 114.689 
2715.27 -2741.66 114.871 
2723.23 -2749.92 116.977 
2724.05 -2750.94 117.348 
2725.72 -2752.63 117.204 
2725.06 -2751.69 116.724 
2726.29 -2753.26 117.35 
2723.11 -2749.27 115.527 
2721.86 -2748.03 115.411 
2727.59 -2754.65 117.646 
2727.84 -2754.47 116.175 
2728.92 -2755.79 117.595 
2777.32 -2802.7 170.041 
2776.38 -2801.96 170.189 
2775.77 -2801.76 168.007 
2776.33 -2801.96 169.418 
2776.9 -2802.7 167.777 
2777.09 -2803.03 166.275 
2774.62 -2801.37 164.023 
2777.56 -2803.44 165.738 
2768.15 -2795.46 157.833 
2768.35 -2795.94 158.743 
2768.55 -2795.59 157.218 
2767.32 -2793.97 152.573 
2765.44 -2792.48 151.945 
2768.24 -2794.54 152.448 
2768.83 -2795.42 155.557 
2768.62 -2795.2 154.817 
2768.88 -2795.56 156.154 
2768.95 -2795.72 156.643 
2768.34 -2794.79 153.36 
2763.02 -2790.37 149.729 
2762.51 -2789.91 149.309 
2760.12 -2787.88 148.991 
2769.5 -2797.67 161.374 
2770.16 -2798.18 161.793 
2771.76 -2799.26 162.604 
2772.79 -2800.03 163.198 
2771.48 -2799.05 162.19 
2769.24 -2797.35 160.809 
2723.94 -2750.22 115.899 
2726.89 -2753.37 115.78 
2725.94 -2752.4 115.847 
2777.41 -2802.85 169.276 
2777.53 -2803.16 167.731 
2777.84 -2803.58 166.326 
2776.03 -2802.42 164.232 
2776.85 -2803.04 164.764 
2778.42 -2804.02 165.378 
2768.74 -2795.83 157.631 
2768.79 -2796.33 158.739 
2768.95 -2795.23 153.774 
2769.37 -2795.86 156.136 
2774.29 -2801.13 163.353 
2773 -2800.14 162.544 
2769.82 -2797.81 160.932 
2769.25 -2797.03 159.783 
2778.08 -2803.37 169.241 
2778.76 -2803.75 169.105 
2778.15 -2803.6 167.636 
2778.67 -2804.12 166.249 
2775.76 -2802.23 163.794 
2776.65 -2802.93 164.275 
2777.4 -2803.4 164.691 
2778.07 -2803.81 165.006 
2779.6 -2804.78 165.158 
2769.29 -2796.13 157.555 
2769.25 -2796.69 158.788 
2769.68 -2796.23 156.94 
2770.09 -2796.43 156.696 
2771.38 -2798.94 161.655 
2770.35 -2798.21 161.129 
2774.69 -2801.42 162.81 
2769.73 -2797.57 160.37 
2779.39 -2804.13 168.978 
2778.72 -2803.96 167.494 
2779.8 -2804.78 165.909 
2777.97 -2803.78 164.415 
2778.75 -2804.28 164.592 
2780.67 -2805.57 164.187 
2781.24 -2805.88 164.576 
2769.83 -2796.43 157.509 
2769.85 -2797.42 159.69 
2772.94 -2800.06 162.002 
2771.45 -2798.89 161.121 
2776.06 -2802.44 163.34 
2777.14 -2803.23 163.863 
2770.33 -2798.03 160.528 
2779.23 -2804.21 167.775 
2780.74 -2804.88 168.612 
2780.25 -2804.99 166.187 
2781.46 -2805.92 165.239 
2778.56 -2804.16 163.955 
2779.69 -2804.92 164.134 
2782.48 -2806.75 164.241 
2782.09 -2806.52 163.737 
2781.68 -2806.24 163.594 
2782.73 -2806.82 164.696 
2783.36 -2807.21 164.439 
2770.14 -2797.23 158.759 
2770.25 -2796.86 157.769 
2770.4 -2797.81 159.846 
2763.67 -2790.49 146.103 
2763.31 -2790.17 145.521 
2774.53 -2801.22 162.329 
2773.1 -2800.04 161.461 
2776.24 -2802.5 162.829 
2777.86 -2803.66 163.243 
2771.45 -2798.72 160.607 
2787.34 -2809.1 169.606 
2780.3 -2804.78 167.709 
2782.05 -2805.71 168.038 
2781.32 -2805.5 166.88 
2782.05 -2806.27 165.458 
2783.56 -2807.21 165.199 
2780.61 -2805.54 163.574 
2783.7 -2807.43 164.133 
2783.24 -2807.19 163.509 
2782.85 -2806.97 163.244 
2782.02 -2806.45 163.203 
2784.71 -2807.89 164.977 
2785.47 -2808.32 164.721 
2771.26 -2798.22 159.633 
2771.19 -2797.4 157.718 
2771.17 -2797.77 158.677 
2764.29 -2790.94 145.761 
2764.42 -2791.06 144.396 
2775.91 -2802.2 162.45 
2775.36 -2801.74 162.067 
2774.41 -2801 161.758 
2777.49 -2803.33 162.792 
2779.07 -2804.43 163.236 
2779.74 -2804.84 162.928 
2773.06 -2799.83 160.859 
2788.3 -2809.7 168.799 
2787.42 -2809.22 167.796 
2786.55 -2808.73 167.302 
2784.07 -2807.01 167.906 
2784.59 -2807.32 168.108 
2782.65 -2806.35 166.623 
2783.43 -2806.66 167.455 
2783.85 -2807.23 166.04 
2785.25 -2808.08 165.921 
2785.4 -2808.33 164.121 
2784.04 -2807.63 163.291 
2784.95 -2808.11 163.353 
2785.95 -2808.65 163.704 
2783.14 -2807.08 162.678 
2784.17 -2807.68 162.754 
2786.22 -2808.6 166.113 
2787.57 -2809.42 165.908 
2787.17 -2809.28 164.686 
2772.55 -2798.62 158.871 
2773.06 -2799.51 160.104 
2773.49 -2799.33 159.047 
2764.95 -2791.48 144.513 
2777.09 -2802.97 162.444 
2776.36 -2802.39 162.007 
2779.23 -2804.4 162.595 
2778.79 -2804.06 162.348 
2780.84 -2805.6 162.653 
2781.74 -2806.2 162.631 
2774.69 -2801.02 161.267 
2790.9 -2811.09 169.582 
2789.6 -2810.46 168.454 
2788.88 -2810.16 166.682 
2785.63 -2808.16 167.057 
2784.71 -2807.63 166.777 
2785.92 -2808.65 162.809 
2787.09 -2809.32 163.384 
2787.93 -2809.8 164.004 
2785.96 -2808.64 162.044 
2788.99 -2810.38 164.82 
2774.68 -2800.73 160.46 
2774.85 -2800.35 159.3 
2778.21 -2803.6 162.155 
2780.41 -2805.22 162.404 
2779.59 -2804.56 162.174 
2782.82 -2806.83 162.294 
2782.02 -2806.25 162.04 
2776.59 -2802.3 161.431 
2778.17 -2803.33 161.601 
2776.43 -2802.03 160.997 
2791.77 -2811.63 167.866 
2790.3 -2810.92 166.765 
2790.47 -2811.18 164.982 
2783.86 -2807.46 162.058 
2784.71 -2807.91 162.03 
2788.42 -2810.11 162.95 
2787.69 -2809.68 162.637 
2789.3 -2810.61 163.337 
2789.79 -2810.87 163.953 
2787.96 -2809.82 162.15 
2786.25 -2808.76 161.638 
2788.1 -2809.84 161.574 
2790.99 -2811.56 164.006 
2776.65 -2801.65 159.807 
2777.94 -2802.62 160.179 
2779.37 -2804.18 161.537 
2781.44 -2805.84 161.95 
2780.82 -2805.35 161.8 
2783.18 -2806.89 161.485 
2782.76 -2806.56 161.331 
2784.08 -2807.48 161.588 
2779.01 -2803.76 161.184 
2793.26 -2812.58 166.375 
2791.79 -2811.82 165.769 
2792.54 -2812.36 164.439 
2785.43 -2808.2 161.227 
2786.75 -2808.99 161.041 
2789.94 -2810.95 162.361 
2790.54 -2811.32 162.746 
2791.17 -2811.69 163.209 
2790.03 -2810.97 161.77 
2788.38 -2809.92 160.958 
2790.19 -2811.02 161.137 
2792.48 -2812.38 163.624 
2778.69 -2803.06 160.048 
2779.88 -2804.4 161.124 
2780.93 -2805.16 161 
2782.32 -2806.19 161.095 
2784.4 -2807.43 160.491 
2784.46 -2807.58 160.965 
2783.68 -2806.94 160.419 
2785.84 -2808.31 160.498 
2779.31 -2803.45 160.062 
2806.05 -2819.92 174.467 
2806.34 -2820.18 173.116 
2806.32 -2820.19 172.196 
2794.62 -2813.26 167.119 
2794.39 -2813.27 165.243 
2793.99 -2813.13 164.364 
2787.36 -2809.23 160.33 
2788.95 -2810.18 160.36 
2792.04 -2812.17 162.209 
2791.43 -2811.81 161.827 
2792.94 -2812.65 163.203 
2791.41 -2811.77 161.297 
2790.37 -2811.06 160.566 
2791.32 -2811.67 160.732 
2794.17 -2813.28 163.878 
2782.59 -2806.1 160.223 
2780.16 -2804.08 160.007 
2781.19 -2804.93 159.992 
2782.81 -2805.92 159.349 
2783.93 -2806.89 159.723 
2786.11 -2808.32 159.724 
2785.35 -2807.68 159.139 
2786.31 -2808.19 158.717 
2787.76 -2809.31 159.514 
2806.69 -2820.3 174.774 
2807.23 -2820.69 173.387 
2807.15 -2820.65 172.572 
2806.91 -2820.48 171.792 
2796.23 -2814.24 167.014 
2795.88 -2814.17 165.797 
2795.43 -2813.98 164.525 
2795.88 -2814.23 165.077 
2789.32 -2810.31 159.735 
2790.57 -2811.1 159.987 
2793.14 -2812.78 162.391 
2792.31 -2812.31 161.724 
2794.63 -2813.57 163.469 
2792.08 -2812.14 161.163 
2791.27 -2811.57 160.149 
2791.87 -2811.97 160.494 
2795.36 -2813.96 164.028 
2780.48 -2803.87 158.913 
2781.91 -2804.78 158.153 
2782.04 -2805.13 158.827 
2784.22 -2806.72 158.614 
2783.61 -2806 157.891 
2785.17 -2807.25 158.066 
2787.84 -2809.12 158.56 
2786.06 -2807.56 157.053 
2787.2 -2808.2 156.45 
2789.65 -2810.38 159.121 
2807.8 -2821.01 172.92 
2807.59 -2820.86 172.189 
2807.78 -2820.87 171.351 
2807.14 -2820.5 171.01 
2805.42 -2819.15 167.695 
2797.69 -2815.23 165.956 
2797.42 -2815.14 165.446 
2799.04 -2815.86 166.916 
2801.5 -2817.11 167.912 
2797 -2814.94 164.524 
2797.26 -2815.07 164.963 
2790.77 -2811.13 159.41 
2791.44 -2811.57 159.572 
2793.91 -2813.15 162.246 
2794.72 -2813.6 162.963 
2793.07 -2812.7 161.637 
2795.79 -2814.23 163.456 
2796.18 -2814.45 163.934 
2792.59 -2812.42 161.063 
2791.84 -2811.89 159.861 
2792.32 -2812.23 160.317 
2784.4 -2806.42 157.118 
2788.58 -2809.19 156.997 
2789.72 -2810.23 158.318 
2788.37 -2808.6 155.062 
2790.89 -2811.12 158.747 
2808.71 -2821.41 173.161 
2808.53 -2821.33 172.464 
2808.46 -2821.26 171.718 
2808.32 -2821 169.903 
2809.05 -2821.41 170.247 
2803.67 -2818.26 166.711 
2805.21 -2819 166.623 
2806.68 -2819.75 166.467 
2802.33 -2817.57 167.329 
2799.4 -2816.15 166.017 
2798.58 -2815.79 165.194 
2800.99 -2816.96 166.562 
2797.74 -2815.37 164.144 
2798.9 -2816 164.324 
2791.6 -2811.55 158.997 
2792.02 -2811.89 159.275 
2795.3 -2813.9 162.618 
2794.81 -2813.59 162.085 
2794.17 -2813.2 161.444 
2797.56 -2815.24 163.684 
2793.67 -2812.91 160.9 
2792.47 -2812.2 159.602 
2793.66 -2812.85 160.31 
2790.12 -2810.18 157.154 
2789.44 -2809.32 155.351 
2790.99 -2811.01 157.9 
2791.67 -2811.5 158.269 
2940.38 -2830.68 156.763 
2938.14 -2831.4 157.176 
2942.82 -2829.88 155.864 
2924.42 -2835.36 159.345 
2926.7 -2834.79 158.25 
2809.28 -2821.33 168.537 
2809.95 -2821.71 168.862 
2805.59 -2819.25 165.424 
2804.31 -2818.66 165.085 
2802.74 -2817.9 165.819 
2806.77 -2819.84 165.377 
2801.72 -2817.4 165.957 
2799.98 -2816.5 165.254 
2799.24 -2816.19 163.785 
2800.13 -2816.6 164.499 
2800.44 -2816.79 163.87 
2792.16 -2811.81 158.647 
2792.52 -2812.08 158.894 
2795.85 -2814.15 162.266 
2796.69 -2814.68 162.842 
2795.46 -2813.85 161.782 
2795.17 -2813.65 161.229 
2799.37 -2816.25 163.285 
2798.64 -2815.76 162.365 
2799.21 -2816.12 162.757 
2793.03 -2812.34 159.063 
2794.12 -2812.95 159.879 
2795.48 -2813.68 160.742 
2790.82 -2810.41 156.414 
2791.54 -2811.2 157.422 
2792.24 -2811.7 157.963 
2936.36 -2832.03 156.319 
2941.35 -2830.53 154.46 
2939.46 -2831.13 155.016 
2937.81 -2831.74 154.548 
2949.15 -2827.72 155.629 
2946.93 -2828.55 154.869 
2944.79 -2829.34 154.386 
2943.26 -2829.95 153.603 
2956.13 -2825.21 156.79 
2952.99 -2826.49 155.305 
2928.9 -2834.19 157.337 
2925.8 -2835.13 156.967 
2923.92 -2835.6 157.473 
2927.86 -2834.59 156.025 
2810.49 -2821.93 167.323 
2810.08 -2821.73 165.622 
2808.83 -2820.99 165.717 
2804.73 -2818.99 163.944 
2802.8 -2817.99 164.415 
2806.4 -2819.72 164.08 
2801.38 -2817.25 164.719 
2807.5 -2820.33 163.942 
2808.59 -2820.94 164.295 
2800.87 -2817.03 163.214 
2801.65 -2817.4 164.066 
2801.92 -2817.55 163.389 
2792.68 -2812 158.262 
2793.14 -2812.24 158.38 
2797.03 -2814.85 162.45 
2796.41 -2814.36 161.901 
2796.01 -2814.03 161.371 
2801.02 -2817.11 162.653 
2798.92 -2815.85 161.829 
2800.57 -2816.85 162.152 
2800.45 -2816.74 161.648 
2794.54 -2813.02 159.39 
2795.75 -2813.69 160.217 
2796.25 -2814.04 160.887 
2791.49 -2810.68 155.793 
2792.22 -2811.47 157.14 
2792.81 -2811.9 157.623 
3050.71 -2782.79 149.38 
3052.6 -2781.76 149.491 
3053.55 -2781.27 148.549 
3048.63 -2783.91 149.85 
3056.82 -2779.28 146.38 
2921.13 -2836.18 157.871 
2932.06 -2833.24 157.044 
2935.12 -2832.51 154.937 
2932.84 -2833.15 155.172 
2939.7 -2831.22 153.328 
2941.75 -2830.54 152.951 
2938.06 -2831.8 152.651 
2936.66 -2832.13 153.944 
2951.39 -2827.12 154.411 
2949 -2827.93 153.975 
2946.92 -2828.69 153.214 
2945.15 -2829.33 152.926 
2944.23 -2829.7 152.309 
2958.5 -2824.52 155.889 
2957.43 -2825.05 154.781 
2955.19 -2825.77 155.155 
2953.66 -2826.45 153.973 
2930.49 -2833.8 155.975 
2929.22 -2834.26 154.735 
2922.79 -2835.92 156.218 
2926.48 -2835.05 154.891 
2924.95 -2835.43 155.616 
2927.66 -2834.76 153.823 
2981.79 -2815.23 155.344 
2975.71 -2817.73 156.904 
2985.67 -2813.63 154.516 
2983.39 -2814.66 154.033 
2811.45 -2822.47 167.787 
2812.2 -2822.87 166.572 
2810.87 -2822.21 166.126 
2809.76 -2821.59 164.172 
2811.3 -2822.47 164.629 
2804.94 -2819.12 163.356 
2803.09 -2818.17 163.754 
2806.65 -2819.88 163.502 
2808.06 -2820.65 163.363 
2802.2 -2817.73 162.807 
2803.26 -2818.27 163.194 
2793.32 -2812.13 157.475 
2794.87 -2813.05 158.871 
2794.49 -2812.75 158.13 
2797.42 -2815.01 162.055 
2796.86 -2814.52 161.572 
2801.71 -2817.48 162.043 
2799.27 -2815.96 161.318 
2800.59 -2816.76 161.092 
2801.66 -2817.41 161.476 
2795.96 -2813.67 159.57 
2796.33 -2814.01 160.357 
2796.86 -2814.39 161.044 
2792.2 -2810.93 155.354 
2792.8 -2811.69 156.831 
3051.53 -2782.53 147.709 
3051.16 -2782.93 146.344 
3049.77 -2783.49 147.744 
3052.33 -2782.2 146.88 
3054.38 -2780.8 146.305 
3052.72 -2781.98 146.297 
3047.27 -2784.75 148.144 
3058.43 -2778.38 145.29 
3056.94 -2779.34 143.717 
3054.81 -2780.61 144.398 
2899.53 -2840.37 158.366 
2921.01 -2836.32 155.696 
2918.96 -2836.73 154.828 
2933.97 -2832.93 153.545 
2931.44 -2833.64 153.836 
2939.92 -2831.21 152.338 
2942.25 -2830.4 152.173 
2939.06 -2831.51 151.016 
2937.4 -2832.03 151.528 
2936.01 -2832.38 152.695 
2950.75 -2827.42 153.283 
2952.91 -2826.8 152.757 
2948.8 -2828.09 152.455 
2946.85 -2828.78 151.912 
2946.02 -2829.1 151.225 
2943.75 -2829.9 150.98 
2963.68 -2822.46 157.25 
2960.98 -2823.4 157.342 
2960.43 -2823.93 155.374 
2965.77 -2821.63 157.642 
2967.46 -2821.16 156.723 
2960.07 -2824.2 154.208 
2958.4 -2824.86 153.691 
2955.97 -2825.65 153.888 
2955.08 -2826.08 152.76 
2929.68 -2834.22 152.905 
2923.62 -2835.81 154.607 
2922.33 -2836.11 153.91 
2926.16 -2835.2 153.047 
2924.93 -2835.5 153.691 
2927.79 -2834.77 152.198 
2976.89 -2817.48 155.283 
2979.14 -2816.46 155.213 
2980.79 -2815.88 153.875 
2972.94 -2819.1 155.863 
2974.49 -2818.62 154.782 
2970.95 -2819.76 156.68 
2989.67 -2811.99 153.766 
2987.49 -2812.98 153.129 
2985.05 -2814.05 152.664 
2982.35 -2815.25 152.887 
2814.52 -2823.96 165.622 
2813.07 -2823.31 165.352 
2811.53 -2822.56 166.179 
2812.18 -2822.94 165.036 
2811.04 -2822.28 163.907 
2809.28 -2821.33 163.472 
2812.12 -2822.89 164.336 
2806.69 -2819.9 162.983 
2807.84 -2820.49 162.777 
2795.08 -2812.71 156.933 
2793.4 -2811.74 156.021 
2796.13 -2813.28 157.719 
2796.4 -2813.64 158.602 
2797.79 -2815.14 161.614 
2802.55 -2817.9 161.954 
2803.6 -2818.44 162.383 
2801.65 -2817.25 160.508 
2802.47 -2817.83 161.438 
2802.39 -2817.72 160.837 
2796.48 -2813.94 159.593 
2797.05 -2814.41 160.483 
2792.96 -2811.2 155.023 
3051.64 -2782.82 145.1 
3050.35 -2783.38 145.807 
3048.07 -2784.5 146.081 
3052.68 -2782.09 144.49 
3044.09 -2786.37 150.009 
3044.89 -2786.02 148.466 
3045.81 -2785.62 146.422 
3058.53 -2778.48 142.681 
3059.75 -2777.58 141.523 
3056.76 -2779.57 141.09 
3054.87 -2780.65 142.175 
3053.08 -2781.79 142.917 
3011.24 -2802.74 153.567 
3014.64 -2801.21 152.551 
3013.12 -2801.96 152.106 
2904.61 -2839.55 158.571 
2886.95 -2841.68 161.548 
2901.64 -2840.07 157.909 
2900.13 -2840.26 157.391 
2920.71 -2836.41 153.371 
2917.81 -2836.99 152.498 
2906.16 -2839.3 157.642 
2934.15 -2832.92 151.984 
2932.03 -2833.52 152.175 
2941.05 -2830.83 151.329 
2937.61 -2831.98 150.128 
2935.92 -2832.46 151.027 
2939.88 -2831.23 149.934 
2951.29 -2827.35 152.011 
2954.26 -2826.41 151.627 
2949.01 -2828.06 151.534 
2948.4 -2828.28 150.495 
2946.39 -2828.97 150.251 
2944.34 -2829.7 149.63 
2942.17 -2830.46 149.986 
2964.62 -2822.48 155.285 
2962.46 -2823.23 155.321 
2962.37 -2823.49 153.911 
2966.18 -2821.92 155.243 
2969.32 -2820.64 155.507 
2967.74 -2821.53 154.204 
2962.24 -2823.68 152.828 
2960.37 -2824.25 152.883 
2957.46 -2825.26 152.942 
2959.67 -2824.57 152.104 
2956.42 -2825.66 152.102 
2930.06 -2834.1 151.639 
2923.33 -2835.89 152.585 
2921.69 -2836.23 151.544 
2926.48 -2835.13 151.366 
2924.64 -2835.59 151.873 
2928.53 -2834.53 150.751 
2993.93 -2810.18 154.303 
2977.38 -2817.46 153.907 
2975.32 -2818.47 153.491 
2978.57 -2817.01 153.076 
2979.92 -2816.42 152.229 
2971.24 -2820.06 154.449 
2972.63 -2819.65 153.415 
2973.8 -2819.32 152.355 
2989.79 -2812.08 152.009 
2992.21 -2811.03 152.552 
2987.28 -2813.16 151.708 
2983.45 -2814.81 151.834 
2985.27 -2814.05 151.384 
2981.48 -2815.7 151.382 
2818 -2825.61 166.47 
2818.26 -2825.74 165.505 
2816.33 -2824.84 165.079 
2814.73 -2824.07 164.751 
2813.22 -2823.4 164.638 
2810.55 -2821.98 163.297 
2812 -2822.77 163.805 
2808.83 -2821.05 162.895 
2805.23 -2819.23 162.413 
2806.7 -2819.9 162.365 
2807.9 -2820.48 162.257 
2797.87 -2814.88 160.517 
2799.06 -2815.68 160.607 
2805.22 -2819.16 161.895 
2801.71 -2817.18 159.952 
2800.83 -2816.72 160.161 
2802.39 -2817.62 160.187 
2803.44 -2818.27 161.392 
2803.32 -2818.13 160.742 
2796.94 -2814.13 159.358 
2797.62 -2814.51 159.447 
3051.07 -2783.13 144.164 
3048.92 -2784.23 144.189 
3046.72 -2785.32 144.333 
3051.58 -2782.8 143.116 
3042.7 -2787.24 148.632 
3043.22 -2787.05 147.811 
3041.03 -2787.96 150.192 
3043.49 -2786.94 146.805 
3044.52 -2786.4 144.9 
3058.45 -2778.67 140.151 
3059.01 -2778.28 138.878 
3060.61 -2777.13 137.859 
3056.77 -2779.68 138.915 
3054.52 -2780.89 140.171 
3052.22 -2782.28 141.105 
3021.03 -2798.02 152.625 
3018.88 -2799.08 152.644 
3016.78 -2800.22 151.713 
3024.34 -2796.3 153.828 
3023.21 -2796.93 152.954 
3009.3 -2803.74 152.539 
3011.3 -2802.86 151.606 
3007.16 -2804.64 153.399 
3014.83 -2801.28 150.567 
3013.38 -2801.94 150.39 
3000.8 -2807.29 154.696 
2998.36 -2808.28 155.195 
2884.91 -2841.87 161.502 
2904.6 -2839.6 156.885 
2885.62 -2841.85 160.241 
2903.34 -2839.8 156.629 
2902.06 -2839.98 156.57 
2900.35 -2840.18 156.388 
2919.61 -2836.67 151.498 
2915.26 -2837.47 152.728 
2915.94 -2837.43 150.538 
2917.93 -2837.04 149.974 
2906.27 -2839.3 156.057 
2934.1 -2832.97 150.773 
2932.02 -2833.55 150.851 
2938.74 -2831.62 149.131 
2936.96 -2832.17 148.838 
2935.84 -2832.51 149.888 
2940.67 -2830.98 148.972 
2952.89 -2826.88 150.985 
2950.71 -2827.54 150.758 
2956.63 -2825.64 151.296 
2954.96 -2826.17 150.484 
2948.51 -2828.24 149.402 
2950.56 -2827.58 149.535 
2946.53 -2828.9 149.121 
2944.37 -2829.67 148.423 
2942.63 -2830.29 148.649 
2964.6 -2822.78 153.67 
2966.76 -2822.08 153.356 
2964.22 -2823.08 152.664 
2969.43 -2820.97 153.519 
2968.53 -2821.48 152.821 
2961.78 -2823.96 151.489 
2963.81 -2823.34 151.669 
2958.62 -2824.97 151.683 
2960.9 -2824.31 150.612 
2930.86 -2833.88 150.019 
2923.5 -2835.84 150.694 
2920.07 -2836.59 149.686 
2922.06 -2836.14 149.421 
2925.39 -2835.41 150.187 
2927.14 -2834.92 149.621 
2929 -2834.39 149.176 
2996.37 -2809.21 154.208 
2994.91 -2809.99 152.307 
2976.21 -2818.17 152.438 
2974.7 -2818.98 151.217 
2977.2 -2817.8 151.587 
2979.14 -2816.88 150.867 
2970.64 -2820.64 152.535 
2971.99 -2820.2 151.673 
2973.15 -2819.79 150.904 
2991.45 -2811.43 151.249 
2989.07 -2812.41 150.686 
2993.96 -2810.48 150.854 
2987.28 -2813.17 150.926 
2983.31 -2814.89 150.546 
2985.33 -2814.01 150.524 
2980.88 -2816.06 150.005 
2815.05 -2824.2 164.012 
2809.82 -2821.55 162.761 
2811.79 -2822.62 163.306 
2812.9 -2823.23 163.768 
2814.44 -2823.9 163.647 
2806.76 -2819.86 161.711 
2808.31 -2820.69 162.01 
2797.64 -2814.08 157.774 
2799.23 -2815.6 159.835 
2798.59 -2815.01 159.002 
2804.99 -2819 161.423 
2802.58 -2817.56 159.466 
2801.85 -2817.13 159.38 
2803.41 -2818.05 159.899 
2805.04 -2818.93 160.875 
2804.92 -2818.77 160.27 
3038.97 -2788.82 152.307 
3050.01 -2783.65 142.748 
3047.69 -2784.87 142.818 
3045.16 -2786.1 143.417 
3051.02 -2783.04 141.524 
3040.44 -2788.57 148.362 
3041.39 -2788.19 147.068 
3039.03 -2789.13 150.135 
3042.92 -2787.34 145.994 
3041.51 -2788.2 146.268 
3043.55 -2786.92 144.974 
3058.93 -2778.2 137.254 
3056.94 -2779.51 137.306 
3054.88 -2780.78 138.122 
3052.68 -2781.92 138.83 
3051.56 -2782.72 139.404 
3005.18 -2805.44 154.522 
3025.3 -2795.83 154.534 
3028.27 -2794.33 154.75 
3023.02 -2797.19 151.037 
3018.88 -2799.21 150.863 
3020.76 -2798.34 150.17 
3016.87 -2800.27 150.203 
3025.29 -2796.03 151.819 
3026.33 -2795.54 152.521 
3007.37 -2804.66 151.476 
3009.49 -2803.72 150.87 
3011.6 -2802.79 149.907 
3005.28 -2805.57 152.163 
3014.8 -2801.34 149.323 
3013.4 -2802.01 148.606 
3003.12 -2806.39 153.489 
