2550.81 -2459.06 2491.99 
2550.9 -2458.92 2492.85 
2550.53 -2459.72 2490.73 
2550.27 -2460.12 2492.33 
2550.18 -2460.43 2490.56 
2550.8 -2459.4 2495.39 
2550.72 -2459.35 2494 
2550.33 -2459.99 2493.29 
2549.89 -2460.87 2492.1 
2549.89 -2460.87 2493.11 
2549.79 -2461.31 2490.78 
2549.74 -2461.56 2490.12 
2549.52 -2461.72 2492.12 
2550.25 -2460.17 2494.26 
2550.27 -2460.41 2495.31 
2549.85 -2461.04 2493.89 
2549.48 -2461.86 2493.02 
2549.42 -2462.1 2493.64 
2549.19 -2462.67 2491.93 
2548.96 -2463.24 2492.85 
2549.73 -2461.44 2494.75 
2549.23 -2462.64 2494.68 
2548.81 -2463.58 2493.52 
2548.72 -2463.88 2494.66 
2548.29 -2464.92 2492.87 
2548.58 -2464.31 2491.98 
2548.09 -2465.33 2493.76 
2549.15 -2463.17 2496.05 
2548.54 -2464.54 2496.14 
2547.99 -2465.62 2494.77 
2547.88 -2466.03 2495.92 
2547.43 -2467.09 2493.6 
2547.3 -2467.28 2494.84 
2547.66 -2466.81 2498.5 
2547.69 -2466.6 2497.17 
2547.21 -2467.58 2496.26 
2547 -2468.11 2497.5 
2546.77 -2468.81 2493.54 
2546.72 -2468.82 2494.98 
2546.6 -2469.07 2496.39 
2547 -2468.44 2499.62 
2546.86 -2468.57 2498.61 
2546.33 -2469.71 2497.6 
2546.03 -2470.51 2498.69 
2546.03 -2470.64 2495.29 
2546 -2470.59 2496.46 
2545.74 -2471.16 2497.41 
2546.34 -2470.16 2500.7 
2546.1 -2470.53 2499.76 
2545.4 -2472.02 2498.24 
2545.11 -2472.76 2499.33 
2545.25 -2472.59 2500.19 
2545.2 -2472.65 2496.45 
2545.32 -2472.52 2495.11 
2545.22 -2472.47 2497.28 
2544.81 -2473.4 2498.34 
2545.44 -2472.29 2501.17 
2544.43 -2474.42 2499.54 
2544.44 -2474.48 2500.55 
2544.74 -2473.95 2501.58 
2544.52 -2474.33 2496.28 
2544.41 -2474.42 2498.01 
2544.12 -2475.21 2497.51 
2544.37 -2474.99 2495.53 
2543.98 -2475.46 2499.26 
2547.15 -2469.16 2515.2 
2547.24 -2468.91 2514.54 
2547.2 -2468.91 2513.85 
2546.65 -2470.12 2512.66 
2546.25 -2471.08 2511.17 
2545.3 -2473.12 2503.27 
2543.62 -2476.26 2500.32 
2543.75 -2476.01 2501.14 
2544.06 -2475.44 2501.79 
2544.52 -2474.8 2503.38 
2543.59 -2476.7 2496.61 
2543.55 -2476.45 2499.01 
2543.27 -2477.26 2498.17 
2543.5 -2477.24 2495.13 
2543.13 -2477.42 2500.66 
2547.52 -2468.53 2516.61 
2546.07 -2471.59 2508.79 
2546.75 -2470.08 2515.56 
2546.49 -2470.46 2514.02 
2546.17 -2471.35 2514.5 
2546.38 -2470.71 2513.29 
2545.87 -2471.84 2511.64 
2545.68 -2472.36 2509.44 
2544.49 -2475.22 2505.25 
2543.09 -2477.54 2501.51 
2543.47 -2476.7 2502.03 
2542.89 -2477.92 2502.39 
2543.77 -2476.24 2503.32 
2542.73 -2478.83 2497.62 
2542.79 -2478.86 2495.94 
2542.87 -2478.06 2500.22 
2542.54 -2478.97 2499.59 
2542.65 -2479.45 2494.82 
2542.32 -2479.16 2501.53 
2542.38 -2478.96 2502.02 
2546.93 -2469.99 2516.73 
2545.31 -2473.43 2507.59 
2544.33 -2475.63 2506.7 
2544.45 -2475.42 2507.3 
2544.52 -2475.16 2508.3 
2546.02 -2471.91 2515.28 
2545.71 -2472.32 2513.31 
2545.31 -2473.35 2513.83 
2545.62 -2472.47 2512.2 
2545.14 -2473.48 2510.58 
2544.96 -2474.03 2509.12 
2543.95 -2476.38 2506.62 
2543.73 -2476.63 2504.99 
2542.18 -2479.28 2503.11 
2543.1 -2477.6 2503.55 
2542.28 -2479.19 2504.17 
2542.07 -2480.43 2498.89 
2541.95 -2480.98 2496.97 
2541.91 -2481.16 2495.83 
2542.12 -2479.78 2501.1 
2541.88 -2480.52 2500.79 
2541.96 -2481.11 2495.24 
2542.41 -2480.31 2494.02 
2541.65 -2480.41 2503.12 
2541.56 -2480.86 2502.59 
2541.67 -2480.39 2503.91 
2545.86 -2472.44 2516.24 
2543.6 -2477.09 2508.33 
2543.98 -2476.32 2509.21 
2544.4 -2475.26 2510.48 
2545.09 -2474.05 2514.72 
2544.9 -2474.06 2512.64 
2544.75 -2474.35 2511.69 
2544.53 -2475.17 2513.68 
2543.22 -2477.74 2506.19 
2543.18 -2477.91 2507.74 
2542.58 -2478.77 2505.33 
2541.81 -2480.09 2504.79 
2542.06 -2479.9 2506.17 
2541.56 -2481.74 2498.55 
2541.41 -2481.66 2500.51 
2541.31 -2482.48 2497.71 
2541.36 -2482.6 2496.22 
2541.36 -2481.41 2502.2 
2542.23 -2480.97 2493.48 
2541.6 -2482.18 2495.16 
2541.32 -2481.3 2503.72 
2541.35 -2481.18 2504.42 
2541.18 -2481.62 2503.25 
2541.48 -2480.92 2505.28 
2545.83 -2473.02 2517.93 
2545.09 -2474.37 2516.45 
2543.34 -2477.52 2510.28 
2542.73 -2478.75 2509.26 
2543.94 -2476.28 2511.37 
2544.41 -2475.67 2515.11 
2544.16 -2475.85 2512.46 
2543.9 -2476.61 2513.89 
2542.47 -2479.24 2507.57 
2541.67 -2480.71 2506.53 
2542.11 -2480.08 2508.28 
2541.05 -2482.67 2500.19 
2541 -2482.24 2501.91 
2540.89 -2483.26 2499.21 
2541.14 -2483.23 2496.05 
2540.89 -2483.53 2497.86 
2540.98 -2482.1 2502.78 
2541.53 -2482.59 2494.56 
2541.09 -2483.55 2495.33 
2541.07 -2481.78 2504.41 
2541.18 -2481.6 2505.37 
2540.92 -2482.14 2503.8 
2541.33 -2481.44 2506.78 
2545.25 -2474.64 2518.45 
2544.56 -2475.71 2516.81 
2543.08 -2478.14 2511.44 
2542.29 -2479.78 2510.19 
2543.99 -2476.78 2516.05 
2543.54 -2477.53 2515.14 
2543.43 -2477.46 2512.9 
2542.88 -2478.75 2514.03 
2541.7 -2480.92 2508.68 
2540.76 -2483.16 2501.34 
2540.74 -2482.86 2502.47 
2540.64 -2483.66 2500.52 
2540.78 -2484.1 2496.92 
2540.58 -2484.05 2499.1 
2540.78 -2482.58 2503.34 
2541.03 -2484.14 2494.52 
2541.75 -2482.64 2493.22 
2540.85 -2484.31 2495.59 
2540.82 -2482.45 2504.53 
2540.94 -2482.21 2505.4 
2541.1 -2482.1 2507.14 
2540.64 -2483.04 2503.89 
2541.27 -2481.96 2509.08 
2544.72 -2475.8 2518.42 
2544.02 -2477.08 2517.75 
2542.41 -2479.66 2512.56 
2541.74 -2481.06 2510.97 
2543.07 -2478.69 2516.51 
2542.56 -2479.67 2515.51 
2542.16 -2480.43 2514.36 
2540.53 -2483.53 2502.19 
2540.61 -2483.2 2503.18 
2540.43 -2483.95 2501.48 
2540.59 -2484.92 2496.77 
2540.55 -2484.5 2498.19 
2540.38 -2484.35 2500.03 
2540.76 -2485 2494.75 
2541.03 -2484.91 2493.33 
2540.73 -2485.07 2495.4 
2540.67 -2482.95 2504.87 
2540.72 -2483.04 2506.12 
2540.87 -2482.75 2507.32 
2540.82 -2483.06 2509.64 
2540.49 -2483.51 2504.69 
2540.46 -2483.64 2503.74 
2541.11 -2482.48 2511.21 
2544.49 -2476.67 2519.66 
2543.68 -2478.23 2519.36 
2542.9 -2479.43 2518.16 
2541.66 -2481.4 2512.99 
2542.38 -2480.39 2517.29 
2541.95 -2481.13 2516.16 
2541.53 -2481.95 2514.91 
2540.4 -2483.86 2502.89 
2540.24 -2484.38 2501.9 
2540.38 -2485.04 2498.49 
2540.23 -2484.86 2500.66 
2540.77 -2485.84 2493.36 
2540.58 -2485.9 2494.6 
2540.42 -2486.05 2495.41 
2540.46 -2483.73 2506.08 
2540.47 -2483.86 2508.34 
2540.52 -2483.66 2509.2 
2540.52 -2483.93 2511.38 
2540.78 -2483.37 2512 
2540.17 -2484.59 2506.19 
2540.26 -2484.16 2504.69 
2540.29 -2484.16 2503.75 
2541.1 -2482.76 2513.35 
2543.31 -2479.45 2521.05 
2542.68 -2480.34 2519.82 
2542.14 -2481.23 2518.85 
2541.76 -2481.91 2517.91 
2541.41 -2482.6 2516.9 
2541.04 -2483.16 2515.2 
2540.21 -2484.44 2502.93 
2540.07 -2485 2502.27 
2540.23 -2485.62 2498.24 
2540.14 -2485.5 2499.96 
2540.3 -2485.93 2496.56 
2540.02 -2485.53 2501.62 
2540.33 -2487.14 2494.35 
2540.2 -2487.28 2495.28 
2540.2 -2484.55 2507.97 
2540.16 -2484.82 2510.09 
2540.29 -2484.44 2510.74 
2540.38 -2484.44 2512.8 
2540.68 -2483.81 2513.66 
2539.98 -2485.34 2506.42 
2540.03 -2485.27 2508.89 
2540.08 -2484.75 2504.61 
2540.1 -2484.82 2503.43 
2539.91 -2488.94 2494.81 
2543.34 -2479.89 2522.46 
2543.22 -2480.57 2523.78 
2542.45 -2481.18 2521.13 
2541.95 -2481.95 2520.07 
2541.59 -2482.59 2519.32 
2541.3 -2483.12 2518.54 
2540.96 -2483.77 2517.51 
2540.73 -2484.15 2516.1 
2539.97 -2485.37 2503.05 
2540.03 -2486.06 2500.03 
2540.07 -2486.32 2498.21 
2540.12 -2487.09 2496.3 
2539.91 -2485.89 2502.9 
2539.91 -2486.09 2501.66 
2539.97 -2485.61 2511.27 
2540.15 -2485.08 2512.15 
2540.5 -2484.62 2515.09 
2540.25 -2485.2 2514.46 
2539.88 -2485.95 2508.65 
2539.82 -2486.09 2510.74 
2539.98 -2485.3 2504.58 
2539.79 -2489.05 2496.03 
2542.41 -2481.59 2522.15 
2542.41 -2482.01 2523.09 
2542.56 -2482.29 2524.49 
2541.87 -2482.4 2521.2 
2541.51 -2482.98 2520.31 
2541.22 -2483.51 2519.74 
2542.26 -2483.02 2524.39 
2540.97 -2483.93 2518.8 
2540.67 -2484.65 2518.29 
2540.49 -2485.03 2517.29 
2539.8 -2486.11 2504.67 
2539.89 -2486.63 2499.95 
2539.99 -2487.22 2497.66 
2539.73 -2486.75 2503.65 
2539.77 -2486.65 2501.93 
2539.86 -2486.18 2512.78 
2540.03 -2485.72 2513.62 
2540.28 -2485.53 2516.82 
2540.09 -2485.9 2516.11 
2539.76 -2486.4 2508.14 
2539.66 -2486.71 2510.34 
2539.75 -2486.36 2506.39 
2539.69 -2486.71 2512.32 
2539.78 -2488.35 2498.07 
2539.56 -2490.03 2496.88 
2538.44 -2495.64 2497.61 
2541.79 -2482.72 2521.7 
2541.82 -2482.96 2522.48 
2541.39 -2483.33 2520.81 
2540.94 -2484.16 2519.64 
2541.09 -2483.89 2520.37 
2542 -2483.68 2524.32 
2541.56 -2483.62 2522.5 
2540.69 -2484.79 2519.35 
2540.43 -2485.33 2518.61 
2539.46 -2487.6 2505.75 
2539.54 -2487.08 2507 
2539.81 -2487.39 2499.84 
2539.54 -2487.76 2503.72 
2539.33 -2488.46 2505.28 
2539.63 -2487.68 2501.83 
2539.81 -2486.54 2514.32 
2539.95 -2486.19 2515.24 
2540.09 -2486.07 2517.99 
2539.96 -2486.55 2517.25 
2539.55 -2487.12 2508.68 
2539.41 -2487.89 2510.57 
2539.51 -2487.53 2512.41 
2539.68 -2487.16 2514.89 
2539.61 -2488.81 2500.04 
2539.48 -2490.1 2498.81 
2539.26 -2491.45 2497.82 
2538.98 -2492.86 2498.68 
2538.69 -2494.24 2499.25 
2538.15 -2496.37 2499.44 
2538 -2497.44 2497.38 
2537.81 -2498.39 2496.77 
2541.34 -2483.58 2521.36 
2540.85 -2484.56 2520.2 
2541.03 -2484.23 2520.84 
2541.76 -2484.37 2524.31 
2541.35 -2484.31 2522.74 
2541.56 -2485.3 2524.89 
2541.24 -2484.05 2521.64 
2540.53 -2485.32 2519.78 
2540.23 -2485.93 2519.1 
2539.27 -2488.53 2507.69 
2539.12 -2489.29 2506.99 
2539.35 -2488.13 2508.73 
2539.11 -2489.71 2505.13 
2539.32 -2488.92 2503.71 
2539.37 -2489.44 2502.22 
2539.82 -2486.97 2516.53 
2539.94 -2486.71 2518.48 
2539.83 -2487.25 2517.85 
2539.33 -2488.55 2512.48 
2539.2 -2488.98 2509.99 
2539.51 -2487.97 2514.48 
2539.68 -2487.62 2516.99 
2539.49 -2488.27 2516.57 
2539.2 -2491.06 2501.07 
2539.18 -2491.73 2499.99 
2538.85 -2493.16 2501 
2538.56 -2494.41 2501.33 
2538.13 -2496.17 2501.56 
2537.75 -2498.02 2499.15 
2537.76 -2497.73 2501.17 
2537.67 -2498.71 2498.6 
2537.71 -2499.31 2496.16 
2540.75 -2485.03 2520.69 
2540.98 -2484.68 2521.2 
2541.13 -2485.08 2522.92 
2541.09 -2484.72 2521.94 
2541.38 -2486.16 2525.36 
2540.94 -2485.93 2523.26 
2540.25 -2486.09 2519.94 
2540.46 -2485.76 2520.57 
2540.03 -2486.64 2519.33 
2539.02 -2489.91 2508.88 
2538.76 -2491.52 2507.86 
2538.88 -2490.91 2506.59 
2538.83 -2491.6 2505.21 
2539.01 -2491.23 2503.33 
2539.82 -2487.28 2518.74 
2539.37 -2488.66 2515.09 
2539.17 -2489.49 2513.81 
2539.17 -2489.29 2511.73 
2538.93 -2490.44 2510.51 
2539.59 -2488.09 2517.78 
2539.35 -2489.4 2517.66 
2539.17 -2489.84 2516.26 
2538.92 -2492.45 2502.19 
2538.58 -2493.81 2503.27 
2538.36 -2494.9 2503.42 
2537.88 -2496.86 2503.36 
2537.55 -2498.54 2501.19 
2537.59 -2497.94 2503.61 
2537.58 -2499.61 2497.67 
2537.47 -2499.33 2500.06 
2540.57 -2485.84 2521.4 
2540.72 -2485.86 2522.2 
2540.97 -2486.74 2524.39 
2541.22 -2487.28 2526.18 
2540.64 -2486.57 2522.77 
2540.29 -2486.44 2520.92 
2540.12 -2486.67 2520.06 
2538.66 -2492.03 2509.06 
2538.44 -2493.47 2507.87 
2538.59 -2492.93 2506.62 
2538.7 -2492.85 2504.43 
2539.66 -2488 2518.74 
2538.99 -2490.81 2514.91 
2538.97 -2490.54 2512.52 
2538.61 -2492.46 2511.04 
2539.44 -2489.08 2518.85 
2539.13 -2490.6 2517.82 
2539.24 -2490.17 2518.91 
2538.92 -2491.68 2516.95 
2538.46 -2493.87 2505.49 
2538.27 -2494.87 2505.26 
2537.95 -2496.1 2505.1 
2537.59 -2497.5 2505.22 
2537.37 -2499.19 2502.42 
2537.41 -2498.5 2503.95 
2537.39 -2498.26 2505.55 
2537.4 -2500.08 2499.22 
2537.46 -2500.67 2496.92 
2537.34 -2500.03 2501.29 
2540.41 -2486.6 2521.83 
2540.75 -2487.24 2524.03 
2540.98 -2488 2525.9 
2540.38 -2487.23 2522.33 
2540.22 -2486.95 2521.17 
2540 -2487.26 2520.06 
2539.82 -2487.66 2519.5 
2538.39 -2493.78 2509.21 
2538.18 -2494.77 2508.13 
2538.32 -2494.41 2506.8 
2539.68 -2488.3 2519.8 
2539.48 -2489.14 2519.73 
2538.68 -2493.07 2515.39 
2538.71 -2492.3 2513.32 
2538.33 -2494.2 2510.97 
2538.43 -2494.11 2513.12 
2539.23 -2490.38 2519.8 
2538.98 -2491.62 2518.89 
2538.82 -2492.46 2518.4 
2538.91 -2492.24 2519.44 
2538.67 -2493.42 2517.17 
2537.94 -2496.02 2506.33 
2537.55 -2497.52 2506.66 
2537.26 -2499 2504.88 
2537.25 -2499.67 2503.73 
2537.27 -2498.74 2506.38 
2537.38 -2498.26 2507 
2537.2 -2501.3 2500.14 
2537.3 -2501.75 2498.43 
2537.19 -2500.94 2501.8 
2540.56 -2487.81 2523.84 
2540.51 -2488.57 2524.33 
2540.05 -2487.74 2521.21 
2540.13 -2488.28 2522.4 
2539.85 -2488.01 2520.38 
2538.18 -2494.93 2509.44 
2537.83 -2496.35 2508.25 
2537.91 -2496.05 2507.36 
2539.64 -2488.96 2520.62 
2539.35 -2490.03 2520.36 
2538.39 -2494.77 2515.16 
2538.19 -2495.49 2512.75 
2538.12 -2495.39 2510.77 
2539.01 -2492.11 2520.11 
2538.62 -2493.61 2518.98 
2538.51 -2494.27 2518.35 
2538.54 -2494.32 2519.52 
2538.67 -2493.9 2520.04 
2538.45 -2494.65 2517.4 
2537.48 -2497.78 2507.95 
2537.16 -2499.48 2505.8 
2537.21 -2500.43 2503.63 
2537.09 -2500.09 2505.49 
2537.29 -2498.54 2508 
2537.19 -2499.14 2507.42 
2537.02 -2502.8 2500.67 
2537.12 -2501.84 2502.33 
2540.37 -2489.45 2524.42 
2539.96 -2489.2 2522.54 
2539.86 -2488.67 2521.45 
2540.17 -2490.85 2524.74 
2537.77 -2496.73 2509.45 
2539.61 -2489.89 2521.51 
2539.4 -2490.39 2521.03 
2539.05 -2492.34 2520.75 
2538.33 -2495.36 2515.81 
2538.12 -2496.02 2513.99 
2537.89 -2496.77 2511.73 
2538.69 -2494.14 2520.62 
2538.37 -2495.09 2518.83 
2538.29 -2495.53 2518.15 
2538.38 -2495.31 2520.14 
2538.29 -2495.57 2519.55 
2538.19 -2495.87 2517.32 
2537.46 -2498.11 2509.43 
2537.1 -2499.76 2507.05 
2537.12 -2500.6 2504.5 
2537.06 -2500.37 2506.81 
2537.33 -2498.84 2509.63 
2537.19 -2499.43 2509.02 
2537.07 -2500.11 2508.52 
2536.88 -2503.75 2501.85 
2537.05 -2502.68 2503.22 
2539.83 -2490.08 2522.67 
2539.75 -2492.75 2524.2 
2539.55 -2491.85 2522.85 
2537.55 -2498.16 2511.18 
2539.41 -2491.57 2522.02 
2539.16 -2492.45 2521.49 
2538.12 -2496.28 2515.6 
2537.89 -2496.93 2513.38 
2537.57 -2498.21 2512.6 
2538.19 -2496.01 2518.8 
2538.05 -2496.4 2518.01 
2538.11 -2496.37 2519.64 
2538.03 -2496.5 2519.13 
2537.95 -2496.78 2516.75 
2537.35 -2499.23 2511.01 
2537.02 -2501.12 2508.53 
2537.07 -2500.91 2506.59 
2537.05 -2501.7 2505.62 
2537.11 -2501.64 2504.03 
2537 -2501.81 2507.65 
2537.16 -2500.1 2510.58 
2537.08 -2500.79 2509.91 
2536.98 -2503.33 2504.8 
2539.36 -2494.27 2523.65 
2539.06 -2493.97 2522.31 
2538.87 -2493.85 2521.47 
2537.38 -2499.06 2511.98 
2538.49 -2495.41 2520.95 
2537.77 -2497.53 2514.01 
2537.33 -2499.19 2513.19 
2537.47 -2498.58 2514.03 
2538.18 -2496.67 2520.65 
2537.89 -2497 2518.38 
2537.8 -2497.38 2517.73 
2537.82 -2497.55 2519.39 
2537.88 -2497.58 2519.94 
2537.92 -2497.68 2520.5 
2537.77 -2497.55 2518.73 
2537.56 -2498.27 2516.65 
2537.68 -2497.91 2515.5 
2537.17 -2500.35 2511.21 
2537.22 -2499.78 2511.7 
2536.93 -2501.94 2509.89 
2536.91 -2502.48 2508.65 
2536.94 -2502.91 2506.47 
2536.88 -2503.3 2507.41 
2537.01 -2501.32 2510.73 
2536.8 -2504.9 2505.34 
2538.8 -2495.62 2522.53 
2538.61 -2495.55 2521.74 
2537.22 -2499.94 2512.72 
2538.26 -2496.78 2521.28 
2537.13 -2499.83 2514.65 
2537.09 -2500.14 2513.65 
2537.15 -2499.7 2515.49 
2537.99 -2497.74 2521.09 
2537.47 -2498.53 2518.02 
2537.36 -2498.91 2517.33 
2537.44 -2498.97 2519.43 
2537.41 -2498.86 2518.66 
2537.48 -2499.03 2519.97 
2536.85 -2500.64 2517.23 
2537.01 -2500.08 2516.38 
2536.99 -2501.29 2511.3 
2537.04 -2500.81 2511.84 
2536.91 -2502.27 2510.61 
2536.82 -2502.87 2509.65 
2536.81 -2503.55 2508.3 
2536.75 -2504.93 2506.34 
2536.72 -2504.94 2507.17 
2538.69 -2497.24 2523.25 
2538.39 -2496.83 2521.86 
2536.92 -2501.25 2512.89 
2538.08 -2497.98 2521.63 
2536.64 -2501.53 2516.07 
2536.66 -2501.6 2515.37 
2536.77 -2501.47 2514.18 
2536.56 -2501.77 2516.71 
2537.63 -2499.26 2521.06 
2536.86 -2500.6 2517.93 
2536.88 -2500.67 2518.55 
2536.87 -2501.12 2519.73 
2536.87 -2500.92 2519.2 
2536.96 -2501.25 2520.53 
2536.46 -2502.11 2517.9 
2536.38 -2502.32 2517.43 
2536.89 -2502.25 2511.18 
2536.9 -2501.97 2511.64 
2536.82 -2503.06 2510.34 
2536.8 -2503.5 2509.17 
2536.68 -2504.66 2508.37 
2536.55 -2506.42 2506.69 
2536.51 -2505.6 2507.99 
2536.56 -2505.84 2507.35 
2538.36 -2498.28 2522.9 
2536.83 -2502.15 2512.24 
2536.75 -2502.06 2513.33 
2537.76 -2499.44 2521.79 
2536.17 -2503.14 2517.28 
2536.25 -2502.92 2516.66 
2536.4 -2502.6 2515.72 
2536.45 -2502.65 2514.7 
2536.42 -2502.38 2518.33 
2536.31 -2503.1 2519.47 
2536.5 -2503.05 2520.56 
2536.1 -2503.45 2517.98 
2536.04 -2503.82 2518.38 
2536.73 -2503.41 2510.92 
2536.59 -2503.6 2511.55 
2536.68 -2504.07 2509.7 
2536.5 -2505.23 2509.14 
2536.44 -2506.87 2507.25 
2536.33 -2506.18 2509.07 
2536.42 -2506.27 2508.17 
2538.1 -2499.6 2523.12 
2538.16 -2500.89 2524.51 
2536.64 -2503.15 2512.4 
2536.39 -2503.31 2513.91 
2537.21 -2501.58 2521.83 
2535.94 -2504.14 2516.96 
2535.87 -2504.39 2517.57 
2536.06 -2503.87 2516.33 
2536.14 -2503.88 2515.36 
2536.61 -2503.22 2521.22 
2536.05 -2504.09 2519.3 
2536.07 -2504.32 2519.87 
2536.26 -2504.02 2520.55 
2536.28 -2504.28 2521 
2535.87 -2504.51 2518.35 
2535.74 -2504.96 2517.88 
2536.5 -2504.72 2510.25 
2536.36 -2504.73 2511.43 
2536.28 -2505.84 2509.71 
2536.36 -2508.11 2507.07 
2536.26 -2507.08 2508.42 
2536.01 -2506.7 2510.37 
2536.21 -2506.9 2509.22 
2537.49 -2501.76 2523.06 
2537.79 -2502.6 2524.81 
2536.22 -2504.23 2513.29 
2535.95 -2504.64 2514.83 
2536.76 -2503.28 2521.84 
2535.75 -2504.97 2516.63 
2535.67 -2505.13 2517.16 
2535.91 -2504.61 2516.03 
2535.86 -2504.84 2519.16 
2535.98 -2504.95 2520.29 
2535.81 -2505.47 2519.91 
2535.97 -2505.35 2520.7 
2536.16 -2505.15 2521.27 
2535.7 -2505.3 2518.48 
2535.56 -2505.9 2517.92 
2535.52 -2506.05 2517.38 
2536.22 -2505.55 2511.17 
2536.04 -2505.28 2512.91 
2535.99 -2506.23 2511.73 
2536.26 -2509.17 2507.69 
2536.18 -2508.17 2508.25 
2536.09 -2507.42 2510.08 
2536.05 -2507.95 2509.6 
2535.72 -2507.07 2512.75 
2535.87 -2507.24 2511.37 
2537.22 -2503.16 2523.44 
2537.06 -2504.11 2523.62 
2537.49 -2504.11 2525.07 
2535.76 -2505.83 2514.48 
2535.7 -2505.62 2515.68 
2536.5 -2504.33 2521.82 
2535.64 -2505.76 2516.3 
2535.55 -2506.17 2516.78 
2535.61 -2505.98 2519.16 
2535.78 -2506.17 2520.56 
2535.63 -2506.67 2520.17 
2535.82 -2506.43 2521.02 
2536.04 -2506 2521.59 
2536.34 -2505.38 2522.24 
2535.5 -2506.35 2518.27 
2535.46 -2506.68 2518.9 
2535.4 -2506.96 2517.9 
2535.38 -2507.19 2517.44 
2535.84 -2506.17 2513.34 
2535.66 -2507.05 2513.79 
2536.12 -2508.94 2508.94 
2536.12 -2510.92 2508.33 
2535.66 -2508.07 2512.23 
2535.75 -2508.4 2511.28 
2535.87 -2508.87 2510.39 
2535.52 -2508.13 2513.52 
2535.44 -2508.21 2514.49 
2536.87 -2505.17 2523.8 
2537.24 -2505.68 2525.42 
2535.61 -2506.65 2515.02 
2535.46 -2507.03 2516.08 
2535.27 -2507.9 2517.29 
2535.47 -2507.04 2519.67 
2535.58 -2507.39 2520.65 
2535.37 -2507.89 2520.05 
2535.76 -2507.22 2521.45 
2535.57 -2508.08 2521.21 
2536.09 -2506.7 2522.32 
2536.64 -2506.19 2523.74 
2535.31 -2507.57 2518.45 
2535.29 -2507.86 2519.09 
2535.14 -2508.42 2518.14 
2535 -2509.22 2517.89 
2535.41 -2507.84 2515.46 
2535.97 -2510.13 2509.74 
2536.06 -2510.93 2508.93 
2535.93 -2513.06 2508.81 
2535.4 -2509.96 2512.84 
2535.28 -2509.9 2513.75 
2535.57 -2509.96 2511.85 
2535.76 -2510.71 2510.69 
2535.12 -2510.41 2514.82 
2535.15 -2509.73 2515.58 
2535.77 -2514.97 2509.02 
2536.96 -2506.88 2525.2 
2536.79 -2509.13 2525.81 
2535.21 -2508.42 2516.95 
2535.11 -2509.42 2516.45 
2534.88 -2510.12 2517.48 
2535.17 -2508.86 2519.4 
2535.26 -2508.8 2520.3 
2535.07 -2510.01 2519.95 
2535.84 -2507.93 2522.17 
2535.55 -2508.84 2521.57 
2535.35 -2509.67 2521.09 
2536.39 -2507.54 2523.8 
2535.1 -2508.97 2518.68 
2534.97 -2509.66 2518.54 
2534.95 -2510.28 2519.16 
2534.78 -2510.63 2518.1 
2534.69 -2511.21 2517.73 
2535.88 -2512.65 2509.54 
2535.08 -2511.56 2514.13 
2535.22 -2511.51 2513.18 
2534.94 -2511.74 2514.94 
2535.4 -2511.62 2512.06 
2535.66 -2512.26 2510.65 
2534.82 -2511.3 2515.96 
2534.8 -2511.98 2515.66 
2535.7 -2517.43 2508.94 
2535.68 -2514.52 2509.66 
2535.6 -2516.37 2509.53 
2535.61 -2519.97 2508.73 
2536.64 -2514.07 2537.6 
2536.7 -2508.23 2525.1 
2536.73 -2510.62 2526.34 
2536.54 -2509.81 2525.28 
2534.87 -2510.52 2517.05 
2534.7 -2511.48 2517.24 
2534.89 -2511.08 2519.69 
2535.09 -2510.76 2520.46 
2535.16 -2511.09 2521.01 
2534.88 -2511.74 2520.05 
2535.69 -2509.38 2522.29 
2536.27 -2508.89 2524 
2535.43 -2510.38 2521.8 
2535.22 -2511.38 2521.48 
2534.79 -2511.04 2518.79 
2534.68 -2511.46 2518.4 
2534.75 -2511.7 2519.43 
2534.6 -2511.87 2518.09 
2534.61 -2512.12 2517.59 
2534.86 -2512.65 2514.53 
2534.74 -2512.58 2515.09 
2534.99 -2512.65 2513.66 
2534.65 -2512.58 2515.6 
2535.31 -2513.19 2511.94 
2535.56 -2514.17 2510.44 
2534.73 -2511.95 2516.32 
2534.61 -2512.56 2516.22 
2534.74 -2511.64 2516.73 
2535.48 -2519.05 2509.68 
2535.45 -2515.83 2510.55 
2535.32 -2517.46 2510.85 
2535.38 -2520.4 2509.98 
2535.52 -2521.3 2509.09 
2535.54 -2522.18 2508.52 
2535.63 -2526.49 2503.91 
2535.54 -2526.48 2504.77 
2535.54 -2524.54 2507.15 
2535.55 -2526.05 2506 
2536.64 -2513.88 2537.11 
2536.25 -2516.41 2537.59 
2536.16 -2517.48 2538.08 
2536.29 -2515.97 2537.1 
2536.48 -2512.44 2526.22 
2536.43 -2511.43 2525.53 
2536.04 -2510.52 2523.85 
2534.74 -2512.34 2519.65 
2534.91 -2512.15 2520.51 
2534.77 -2512.67 2520.16 
2535.56 -2511.24 2522.68 
2535.29 -2511.87 2521.97 
2535 -2512.5 2521.14 
2534.65 -2512.1 2518.92 
2534.6 -2512.36 2518.42 
2534.63 -2512.7 2519.2 
2534.53 -2512.72 2517.88 
2534.8 -2513.62 2514.35 
2534.7 -2513.49 2514.96 
2534.55 -2513.33 2515.62 
2534.95 -2513.81 2513.53 
2534.52 -2513.2 2516.12 
2535.15 -2514.7 2512.15 
2534.6 -2512.47 2516.82 
2534.49 -2513.1 2516.7 
2535.16 -2518.74 2511.23 
2535.09 -2515.56 2512.25 
2535 -2516.72 2512.67 
2535.37 -2521.22 2510.18 
2535.12 -2519.77 2511.47 
2535.44 -2522.28 2509.24 
2535.52 -2523.08 2508.72 
2535.53 -2523.52 2508.16 
2535.6 -2527.5 2503.97 
2535.51 -2527.74 2504.68 
2535.48 -2527.21 2505.56 
2535.49 -2524.64 2508.23 
2535.52 -2526 2506.85 
2536.6 -2516.12 2539.51 
2536.61 -2513.83 2536.3 
2536.33 -2515.56 2536.64 
2535.87 -2518.83 2537.55 
2535.94 -2518.23 2537.31 
2535.83 -2519.41 2537.81 
2536 -2517.63 2536.95 
2536.16 -2515.06 2526.08 
2536.2 -2513.59 2525.62 
2535.9 -2516.65 2525.74 
2535.92 -2517.59 2526.19 
2535.87 -2512.07 2523.99 
2534.6 -2513.33 2519.51 
2534.76 -2513.13 2520.54 
2534.78 -2513.85 2520.82 
2534.65 -2513.57 2520.21 
2535.34 -2512.74 2522.51 
2535.1 -2513.14 2521.77 
2534.55 -2512.86 2518.65 
2534.45 -2513.26 2517.75 
2534.45 -2513.17 2517.24 
2534.7 -2514.27 2514.81 
2534.79 -2514.48 2513.89 
2534.58 -2514.08 2515.48 
2534.45 -2514.03 2516.17 
2534.41 -2513.83 2517.06 
2534.93 -2517.86 2512.8 
2534.87 -2514.95 2513.63 
2534.84 -2515.98 2513.84 
2535.09 -2520.55 2511.78 
2535.35 -2522.02 2510.15 
2534.9 -2518.56 2512.99 
2535.42 -2523.18 2509.59 
2535.52 -2523.71 2509.04 
2535.54 -2528.76 2504.33 
2535.5 -2528.9 2505.24 
2535.49 -2528.44 2505.98 
2535.59 -2529.72 2504.27 
2535.46 -2527.23 2506.63 
2535.45 -2524.68 2509.28 
2535.49 -2525.83 2508.05 
2535.47 -2525.52 2509.05 
2536.21 -2518.34 2538.94 
2536.4 -2518.05 2539.63 
2535.79 -2520.08 2538.07 
2536.59 -2514.08 2535.81 
2536.21 -2516.2 2536.36 
2536.28 -2515.77 2535.95 
2535.68 -2520.32 2537.55 
2535.68 -2520.84 2537.96 
2535.71 -2519.54 2537.14 
2535.67 -2521.38 2538.3 
2535.82 -2518.56 2536.74 
2536.16 -2517.96 2527.53 
2535.95 -2518.51 2526.79 
2535.86 -2515.16 2525.08 
2535.71 -2516.53 2524.98 
2535.74 -2513.7 2524.15 
2535.72 -2517.83 2525.48 
2535.79 -2518.99 2526.22 
2534.51 -2514.26 2519.54 
2534.63 -2514.2 2520.26 
2534.67 -2515.02 2520.55 
2534.81 -2515.03 2521.23 
2535.01 -2514.26 2521.83 
2535.35 -2514.51 2523.13 
2534.51 -2513.58 2519.02 
2534.46 -2513.56 2518.47 
2534.38 -2513.99 2517.88 
2534.51 -2514.59 2515.7 
2534.43 -2514.39 2516.7 
2534.46 -2514.71 2516.22 
2534.73 -2516.8 2514.33 
2534.67 -2515.31 2514.87 
2534.94 -2519.87 2512.92 
2535.16 -2521.63 2511.37 
2535.32 -2522.97 2510.5 
2534.74 -2517.92 2514.35 
2535.44 -2523.88 2510.02 
2535.5 -2529.95 2505.38 
2535.47 -2529.49 2506.06 
2535.47 -2528.69 2506.59 
2535.63 -2530.64 2504.21 
2535.57 -2530.48 2504.7 
2535.44 -2526.75 2508.03 
2535.72 -2531.57 2504.11 
2535.38 -2524.65 2510.38 
2535.44 -2525.25 2510 
2535.46 -2526.06 2509.69 
2536.2 -2519.58 2539.62 
2535.67 -2521.83 2538.59 
2536.51 -2519.54 2540.82 
2536.47 -2514.89 2535.24 
2536.22 -2516.21 2535.59 
2535.93 -2517.93 2536.14 
2535.54 -2521.42 2537.2 
2535.53 -2522 2537.73 
2535.55 -2520.64 2536.63 
2535.54 -2522.67 2538.48 
2535.62 -2519.86 2536.52 
2535.86 -2519.75 2527.35 
2535.96 -2519.71 2528.05 
2535.72 -2519.98 2526.52 
2536.05 -2519.52 2528.66 
2536.02 -2520.01 2529.06 
2535.52 -2515.89 2524.08 
2535.42 -2517.12 2524.09 
2535.55 -2518.03 2524.87 
2535.62 -2519.03 2525.48 
2535.58 -2519.97 2525.53 
2534.48 -2514.8 2519.56 
2534.55 -2515.23 2520.05 
2534.78 -2516.43 2521.45 
2534.67 -2516.35 2520.92 
2535.15 -2515.64 2522.72 
2535.06 -2517.03 2522.7 
2534.44 -2514.41 2518.83 
2534.42 -2515.12 2519.04 
2534.36 -2514.63 2517.55 
2534.39 -2514.95 2518.04 
2534.59 -2515.39 2515.48 
2534.51 -2515.47 2516.11 
2534.42 -2515.18 2517.13 
2534.6 -2516.4 2515.31 
2534.95 -2521.05 2513.06 
2534.79 -2519 2514.05 
2535.17 -2522.46 2511.64 
2535.33 -2523.86 2510.98 
2534.62 -2517.5 2515.5 
2535.48 -2530.25 2506.05 
2535.45 -2529.68 2506.8 
2535.47 -2528.36 2507.5 
2535.43 -2526.84 2508.92 
2535.9 -2533.18 2504.29 
2535.32 -2524.55 2511.47 
2535.42 -2525.16 2510.92 
2535.46 -2525.93 2510.41 
2535.47 -2526.69 2510.23 
2536.09 -2535.25 2504.04 
2536.16 -2536.4 2504.26 
2536.39 -2538.65 2503.44 
2536.59 -2539.97 2502.81 
2535.8 -2521.31 2538.84 
2535.66 -2522.27 2538.84 
2536.03 -2521.36 2539.76 
2535.53 -2523.09 2538.79 
2536.36 -2521.04 2540.92 
2536.17 -2516.8 2535.06 
2536.38 -2515.79 2534.55 
2535.89 -2518.23 2535.65 
2535.7 -2519.27 2536.23 
2535.39 -2522.22 2536.72 
2535.33 -2522.74 2536.99 
2535.31 -2523.25 2537.56 
2535.43 -2521.56 2536.25 
2535.37 -2523.68 2538.17 
2535.5 -2520.9 2536.07 
2536.18 -2519.5 2530.19 
2535.71 -2521.06 2527.34 
2535.64 -2520.99 2526.62 
2535.81 -2520.96 2528.04 
2535.51 -2520.8 2525.53 
2535.87 -2521.15 2529.18 
2535.74 -2521.67 2528.33 
2535.31 -2518.27 2523.9 
2535.36 -2519.34 2524.35 
2535.36 -2520.46 2524.46 
2534.42 -2515.77 2518.86 
2535 -2517.97 2522.48 
2534.9 -2518.16 2522.01 
2534.52 -2516.48 2520.04 
2534.4 -2515.58 2517.9 
2534.42 -2515.61 2516.72 
2534.5 -2516.37 2516.12 
2534.42 -2516.02 2517.22 
2534.85 -2520.44 2514.02 
2535.04 -2522.14 2512.88 
2534.65 -2518.22 2515.49 
2535.22 -2523.53 2511.75 
2534.49 -2516.93 2516.68 
2535.55 -2530.98 2506.16 
2535.47 -2530.51 2507.18 
2535.7 -2531.91 2505.3 
2535.5 -2529.32 2507.83 
2535.48 -2528.13 2508.63 
2535.85 -2533.36 2504.89 
2535.16 -2523.51 2512.76 
2535.35 -2524.81 2511.9 
2535.44 -2525.8 2511.32 
2535.47 -2526.55 2510.89 
2535.52 -2527.1 2511.22 
2535.52 -2527.9 2509.98 
2535.93 -2534.43 2505.54 
2536.12 -2536.57 2505.23 
2536.38 -2538.88 2504.34 
2536.58 -2541.06 2503.75 
2536.71 -2542.24 2503.24 
2536.88 -2542.64 2502.29 
2537.09 -2544.4 2501.95 
2535.73 -2522.52 2539.32 
2535.97 -2522.38 2540.17 
2535.43 -2524.03 2538.62 
2536.47 -2521.89 2541.67 
2536.03 -2517.98 2534.55 
2535.8 -2518.84 2535.36 
2535.61 -2520.01 2535.91 
2535.23 -2523.24 2536.54 
2535.28 -2522.81 2536.19 
2535.21 -2523.88 2537.13 
2535.26 -2524.31 2537.67 
2535.37 -2522.28 2535.68 
2535.44 -2521.39 2535.37 
2536.17 -2518.95 2531.94 
2536.19 -2519.67 2530.83 
2535.93 -2521.16 2530.5 
2535.88 -2521.41 2529.9 
2536.15 -2518.2 2533.28 
2535.53 -2522.01 2526.8 
2535.6 -2522.08 2527.5 
2535.49 -2521.78 2526.04 
2535.39 -2521.28 2525 
2535.71 -2522.4 2529.22 
2535.6 -2522.68 2528.58 
2535.22 -2519.12 2523.59 
2535.2 -2520.2 2523.62 
2535.26 -2521.06 2524.12 
2534.43 -2516.65 2518.93 
2534.76 -2517.99 2521.34 
2535.05 -2519.49 2522.86 
2534.43 -2516.4 2517.71 
2534.46 -2517.18 2517.35 
2534.75 -2519.79 2515.12 
2534.93 -2521.48 2514 
2534.57 -2517.89 2516.46 
2535.61 -2531.94 2506.96 
2535.7 -2532.68 2506.25 
2535.49 -2530.41 2508.13 
2535.6 -2531.72 2507.7 
2535.51 -2529.7 2508.71 
2535.01 -2522.82 2514.32 
2535.23 -2524.32 2512.93 
2535.39 -2525.39 2512.23 
2535.46 -2526.44 2511.6 
2535.51 -2526.88 2512.06 
2535.61 -2528.13 2511.18 
2535.6 -2527.77 2511.84 
2535.55 -2528.89 2509.8 
2535.88 -2534.53 2506.43 
2536.18 -2536.93 2505.73 
2536.36 -2538.73 2505.11 
2536.56 -2541.22 2504.31 
2536.68 -2542.84 2503.92 
2536.75 -2543.6 2503.81 
2537.15 -2545.58 2502.61 
2537.51 -2547.22 2501.11 
2535.74 -2523.43 2539.67 
2535.97 -2523.21 2540.47 
2535.34 -2524.86 2538.32 
2536.45 -2522.94 2542 
2535.72 -2519.76 2534.84 
2535.91 -2519.52 2533.4 
2535.59 -2520.4 2535.39 
2535.21 -2523.18 2535.76 
2535.17 -2524.45 2536.99 
2535.16 -2524.03 2536.55 
2535.18 -2524.93 2537.3 
2535.34 -2522.8 2535.18 
2535.27 -2525.45 2538.03 
2535.55 -2520.89 2534.75 
2535.46 -2522.2 2534.7 
2535.93 -2520.81 2532.1 
2535.88 -2521.35 2531.58 
2535.75 -2522.4 2530.71 
2535.73 -2522.44 2530 
2535.73 -2522.39 2531.31 
2535.42 -2522.94 2526.6 
2535.46 -2523.19 2527.53 
2535.36 -2522.39 2525.58 
2535.29 -2521.96 2524.64 
2535.62 -2523.06 2529.64 
2535.51 -2523.47 2528.84 
2535.07 -2520.87 2523.03 
2535.14 -2521.85 2523.63 
2534.45 -2517.27 2519 
2534.51 -2517.74 2519.6 
2534.56 -2517.77 2520.12 
2534.77 -2519.14 2521.27 
2534.91 -2519.67 2522.21 
2534.47 -2517.39 2518.09 
2534.5 -2518.02 2518.73 
2534.53 -2517.92 2517.02 
2534.65 -2518.8 2516.26 
2534.85 -2521 2515.38 
2535.75 -2533.4 2507.34 
2535.61 -2531.44 2508.39 
2535.72 -2533.09 2507.91 
2535.57 -2530.83 2508.91 
2534.97 -2523.02 2515.95 
2535.13 -2524.06 2514.74 
2535.29 -2525.05 2513.18 
2535.44 -2525.98 2512.55 
2535.57 -2527.08 2513.11 
2535.64 -2527.85 2512.56 
2535.7 -2529.18 2511.54 
2535.62 -2529.99 2510.09 
2535.72 -2528.81 2512.25 
2535.96 -2535.31 2506.87 
2536.18 -2537.2 2506.45 
2536.37 -2538.88 2505.84 
2536.51 -2540.73 2504.78 
2536.67 -2543.28 2504.56 
2536.63 -2542.7 2505.16 
2536.77 -2544.11 2504.46 
2536.93 -2544.76 2503.64 
2536.92 -2545.3 2504.2 
2537.27 -2546.79 2502.86 
2537.6 -2549.01 2502.4 
2535.68 -2524.49 2539.62 
2535.46 -2525.13 2538.87 
2536.02 -2524.06 2540.9 
2536.5 -2523.79 2542.43 
2535.77 -2520.82 2533.45 
2535.13 -2524.84 2536.63 
2535.15 -2523.86 2535.97 
2535.15 -2525.44 2536.85 
2535.18 -2525.86 2537.47 
2535.36 -2523.23 2534.81 
2535.28 -2526.16 2538.28 
2535.65 -2521.79 2533.54 
2535.52 -2522.74 2533.82 
2535.69 -2522.14 2532.07 
2535.65 -2523.13 2531.12 
2535.65 -2523.06 2530.46 
2535.66 -2523.16 2531.72 
2535.33 -2523.57 2526.3 
2535.42 -2523.79 2527.64 
2535.25 -2523.06 2525.14 
2535.56 -2523.77 2529.97 
2535.5 -2524.35 2529.15 
2534.98 -2520.74 2522.36 
2535.15 -2522.98 2524.14 
2535.02 -2521.78 2522.62 
2534.54 -2518.31 2519.39 
2534.74 -2519.66 2520.57 
2534.91 -2520.34 2521.73 
2534.52 -2518.1 2517.55 
2534.53 -2518.42 2518.22 
2534.68 -2519.59 2519.84 
2534.63 -2519.47 2519.17 
2534.66 -2519.15 2516.93 
2534.85 -2521.42 2516.57 
2535.88 -2534.73 2507.74 
2535.68 -2532.65 2508.3 
2535.84 -2534.32 2508.39 
2535.65 -2531.79 2508.95 
2535.03 -2524.4 2517.14 
2534.98 -2524.2 2518.39 
2534.93 -2523.32 2517.83 
2535.16 -2524.69 2515.56 
2535.33 -2525.48 2514.08 
2535.49 -2526.2 2513.45 
2535.67 -2527.53 2513.94 
2535.77 -2528.54 2513.64 
2535.8 -2528.93 2513.22 
2535.81 -2530.34 2511.96 
2535.72 -2530.95 2510.43 
2536.03 -2536.07 2507.5 
2536.3 -2538.14 2506.88 
2536.42 -2539.34 2506.19 
2536.51 -2540.83 2505.48 
2536.71 -2543.9 2505.44 
2536.8 -2544.64 2505.11 
2536.66 -2543.18 2505.78 
2536.96 -2545.83 2504.67 
2537.27 -2547.43 2503.71 
2537.87 -2551.04 2501.92 
2538.08 -2552.17 2500.42 
2537.64 -2549.78 2503.24 
2535.83 -2525.21 2540.53 
2535.62 -2525.39 2539.69 
2535.47 -2525.9 2539.15 
2536.14 -2524.69 2541.54 
2535.12 -2524.61 2536.07 
2535.17 -2524.27 2535.57 
2535.24 -2524 2534.9 
2535.16 -2526.2 2536.81 
2535.19 -2526.44 2537.4 
2535.38 -2523.69 2533.9 
2535.35 -2524.29 2533.6 
2535.64 -2522.95 2532.45 
2535.56 -2523.93 2532.57 
2535.57 -2523.89 2531.94 
2535.54 -2523.82 2531.38 
2535.55 -2523.71 2530.71 
2535.33 -2524.18 2526.88 
2535.41 -2524.31 2528.14 
2535.26 -2524.16 2525.95 
2535.47 -2524.57 2530.03 
2535.44 -2525.13 2529.07 
2535.17 -2523.93 2524.67 
2535.02 -2522.66 2522.68 
2534.9 -2520.87 2521.49 
2534.84 -2520.95 2520.54 
2534.91 -2522.04 2521.43 
2534.68 -2519.68 2517.74 
2534.7 -2520.08 2518.73 
2534.81 -2521.25 2519.89 
2534.86 -2521.64 2518.13 
2535.77 -2533.62 2508.69 
2535.93 -2534.75 2509.12 
2536.1 -2536.41 2507.91 
2535.76 -2532.7 2509.59 
2535.14 -2525.36 2517.49 
2535.04 -2524.94 2518.66 
2534.94 -2524.15 2519.35 
2535.01 -2524.88 2519.82 
2534.89 -2523.13 2519.25 
2535.31 -2525.59 2515.42 
2535.53 -2526.69 2514.49 
2535.79 -2528.35 2515.14 
2535.86 -2528.95 2514.76 
2535.84 -2531.69 2511.13 
2536.36 -2538.44 2507.53 
2536.52 -2539.86 2506.91 
2536.55 -2541.29 2506.06 
2536.81 -2544.52 2506.11 
2536.92 -2545.43 2505.56 
2537.1 -2546.69 2505.01 
2536.72 -2543.65 2506.52 
2537.35 -2548.23 2504.19 
2538.01 -2552.48 2502.31 
2538.32 -2554.05 2500.66 
2537.72 -2550.8 2503.46 
2536.51 -2525.5 2542.65 
2535.47 -2526.8 2539.03 
2536.67 -2526.22 2543.11 
2535.19 -2525.16 2535.45 
2535.16 -2525.36 2535.94 
2535.14 -2525.74 2536.27 
2535.19 -2524.71 2535.02 
2535.3 -2524.84 2533.9 
2535.21 -2526.98 2537.32 
2535.26 -2526.95 2537.94 
2535.47 -2524.64 2532.58 
2535.45 -2524.69 2531.88 
2535.47 -2524.49 2530.81 
2535.36 -2524.77 2527.68 
2535.26 -2524.87 2526.52 
2535.4 -2525.23 2530.13 
2535.41 -2525.68 2529.17 
2535.06 -2523.74 2523.19 
2535.21 -2524.81 2525.24 
2534.88 -2522.7 2520.66 
2534.98 -2523.52 2522.06 
2534.86 -2521.98 2519.54 
2534.9 -2523.33 2520.56 
2535.9 -2534.13 2509.92 
2536.05 -2535.58 2509.33 
2536.2 -2536.98 2508.3 
2535.88 -2533.3 2510.54 
2535.29 -2525.98 2516.73 
2535.16 -2526.07 2518.68 
2535.11 -2525.87 2519.53 
2535.13 -2525.88 2520.39 
2534.93 -2524.02 2520.3 
2535 -2524.75 2520.51 
2535.11 -2525.84 2521.29 
2535.6 -2527.1 2515.52 
2535.89 -2528.85 2516.28 
2535.99 -2532.38 2512.18 
2536.45 -2538.67 2508.23 
2536.57 -2539.85 2507.89 
2536.59 -2541.17 2507.11 
2536.59 -2541.71 2506.56 
2537.09 -2546.46 2505.91 
2536.93 -2545.3 2506.49 
2537.25 -2547.77 2505.3 
2537.46 -2549.12 2504.41 
2536.85 -2544.59 2506.99 
2536.72 -2543.1 2506.92 
2538.03 -2552.98 2503.42 
2538.33 -2554.72 2501.9 
2538.48 -2555.35 2499.83 
2537.76 -2551.4 2504.01 
2535.78 -2525.76 2540.34 
2536.11 -2525.85 2541.41 
2535.69 -2526.49 2539.88 
2535.6 -2527.24 2539.42 
2535.49 -2527.44 2538.94 
2536.42 -2526.9 2542.28 
2536.62 -2527.56 2542.86 
2535.23 -2525.8 2535.35 
2535.29 -2525.48 2534.21 
2535.27 -2526.19 2534.14 
2535.17 -2526.33 2536.09 
2535.4 -2525.39 2532.76 
2535.2 -2527.08 2536.5 
2535.34 -2527.53 2538.11 
2535.45 -2525.26 2531.18 
2535.36 -2525.97 2532.36 
2535.35 -2525.41 2527.91 
2535.3 -2525.58 2526.73 
2535.41 -2525.89 2530.5 
2535.38 -2526.3 2529.51 
2535.13 -2524.74 2523.84 
2535.24 -2525.7 2525.68 
2534.99 -2524.19 2521.85 
2535 -2524.67 2521.46 
2536.08 -2535.44 2509.97 
2536.05 -2534.19 2511 
2536.26 -2537.14 2509.13 
2535.43 -2526.67 2516.82 
2535.32 -2526.64 2518.65 
2535.38 -2527.22 2520.43 
2535.33 -2526.99 2521.45 
2535.27 -2526.73 2522.23 
2535.31 -2526.95 2523.24 
2535.26 -2526.43 2523.68 
2535.78 -2528.27 2516.43 
2536.02 -2529.67 2518.21 
2536.57 -2538.97 2509.11 
2536.67 -2540.21 2508.67 
2536.67 -2541.63 2507.62 
2537.24 -2547.43 2506.08 
2537.43 -2549.12 2505.26 
2537.08 -2546.17 2506.66 
2537.59 -2550.17 2504.55 
2536.81 -2543.72 2507.27 
2536.97 -2545.2 2507.29 
2538.06 -2553.41 2503.96 
2538.42 -2555.36 2502.83 
2538.67 -2556.53 2500.96 
2537.83 -2551.98 2504.7 
2535.94 -2526.69 2540.71 
2535.79 -2527.58 2540.06 
2535.61 -2528.13 2539.22 
2535.42 -2527.98 2538.36 
2536.09 -2527.77 2541.08 
2536.39 -2528.3 2541.93 
2535.29 -2526.67 2533.91 
2535.37 -2526.77 2532.47 
2535.24 -2527.5 2536.96 
2535.44 -2526.12 2531.45 
2535.37 -2526.22 2528.24 
2535.36 -2526.57 2527.37 
2535.41 -2526.69 2530.83 
2535.41 -2526.87 2529.53 
2535.15 -2525.26 2523.63 
2535.17 -2525.73 2523.34 
2536.23 -2535.73 2510.86 
2536.39 -2537.35 2510.07 
2535.68 -2528.23 2518.2 
2535.6 -2528.24 2520.08 
2535.63 -2528.74 2521.77 
2535.55 -2528.4 2522.85 
2535.53 -2528.28 2523.75 
2535.47 -2527.91 2524.99 
2535.32 -2526.62 2525.18 
2535.95 -2529.75 2519.41 
2536.7 -2539.2 2510.14 
2536.78 -2540.59 2509.26 
2536.77 -2542.08 2508.22 
2537.39 -2548.26 2506.37 
2537.55 -2549.85 2505.58 
2537.76 -2551.49 2505.21 
2537.24 -2546.98 2507 
2536.9 -2544.08 2507.7 
2537.09 -2545.67 2507.65 
2538.21 -2554.39 2504.25 
2538.6 -2556.62 2503.72 
2538.8 -2557.68 2502.9 
2538.92 -2558.18 2501.47 
2538.15 -2553.78 2505.04 
2535.91 -2528.42 2540.32 
2535.79 -2528.54 2539.79 
2536.68 -2529.21 2542.54 
2535.24 -2526.71 2534.75 
2535.44 -2527.01 2531.89 
2535.22 -2527.02 2535.24 
2535.23 -2527.47 2535.51 
2535.24 -2527.81 2536.38 
2535.33 -2528.05 2537.56 
2535.39 -2527.18 2526.89 
2535.44 -2527.36 2529.11 
2535.44 -2527.39 2530.73 
2536.54 -2537.55 2510.99 
2535.84 -2529.81 2521.42 
2535.72 -2529.75 2523.13 
2535.73 -2529.9 2523.93 
2535.69 -2529.85 2525.25 
2535.48 -2527.99 2526.58 
2535.62 -2529.29 2526.69 
2536.11 -2530.84 2520.07 
2537.12 -2542.57 2510.13 
2536.94 -2542.52 2509.07 
2537.57 -2549.24 2506.67 
2537.75 -2550.83 2506.09 
2537.95 -2552.31 2505.78 
2537.44 -2547.94 2507.36 
2537.03 -2544.44 2508.32 
2537.24 -2546.09 2508.14 
2538.54 -2556.2 2504.79 
2538.88 -2558.24 2504.17 
2539.07 -2559.32 2503.68 
2539.25 -2560.4 2502.94 
2539.25 -2560.12 2501.42 
2538.36 -2554.75 2505.64 
2535.62 -2528.7 2538.93 
2535.46 -2528.62 2538.17 
2536.57 -2529.77 2541.95 
2536.05 -2528.89 2540.53 
2535.43 -2527.75 2532.23 
2535.31 -2527.53 2533.86 
2535.31 -2527.87 2534.28 
2535.28 -2528.03 2535.28 
2535.35 -2528.5 2537.26 
2535.47 -2527.97 2528.71 
2535.46 -2528.06 2530.4 
2535.86 -2530.94 2523.03 
2535.97 -2531.39 2522.39 
2535.86 -2531.42 2524.32 
2535.77 -2531.17 2525.42 
2535.72 -2530.36 2527.01 
2535.53 -2528.59 2528.55 
2535.61 -2529.3 2528.89 
2536.19 -2531.88 2521.33 
2537.32 -2543.2 2510.75 
2537.18 -2544.48 2509.13 
2537.89 -2551.34 2506.74 
2538.13 -2553.11 2506.2 
2537.52 -2547.95 2507.87 
2537.8 -2550.33 2507.29 
2537.37 -2546.22 2508.78 
2538.75 -2557.2 2505.25 
2538.98 -2558.75 2504.56 
2539.25 -2560.58 2503.91 
2539.46 -2561.93 2503.35 
2539.6 -2562.69 2502.54 
2539.51 -2561.79 2501.31 
2538.54 -2555.53 2506.26 
2536.55 -2530.39 2541.57 
2536.74 -2531.09 2541.82 
2535.77 -2529.28 2539.25 
2535.9 -2529.35 2539.77 
2535.59 -2529.16 2538.53 
2535.43 -2528.44 2531.99 
2535.41 -2528.49 2533.71 
2535.35 -2528.56 2535.08 
2535.33 -2528.54 2536.22 
2535.34 -2528.6 2535.59 
2535.42 -2528.85 2537.64 
2535.49 -2528.57 2530.22 
2536 -2532.4 2524.14 
2536.18 -2533.1 2523.13 
2535.88 -2532.09 2525.17 
2535.88 -2531.45 2526.76 
2536 -2532.6 2526.07 
2535.72 -2530.16 2528.99 
2535.48 -2528.76 2531 
2535.56 -2529.28 2530.89 
2537.37 -2544.7 2509.87 
2538.16 -2552.71 2506.98 
2538.28 -2553.8 2506.46 
2537.66 -2548 2508.71 
2537.83 -2549.76 2507.9 
2538.19 -2551.76 2508.16 
2537.58 -2546.27 2509.82 
2538.94 -2558.03 2505.62 
2539.17 -2559.79 2504.82 
2539.35 -2561.07 2504.41 
2539.61 -2562.92 2503.98 
2539.85 -2564.56 2503.42 
2539.87 -2564.82 2502.49 
2539.76 -2563.2 2500.75 
2538.72 -2556.27 2506.71 
2536.1 -2529.95 2540.23 
2535.74 -2529.78 2538.71 
2535.93 -2530.15 2539.45 
2535.5 -2529.03 2533.2 
2535.45 -2529.11 2534.75 
2535.38 -2528.79 2536.71 
2535.46 -2529.24 2535.25 
2535.55 -2529.39 2537.92 
2536.09 -2533.21 2525.07 
2536.23 -2533.65 2523.95 
2536.03 -2532.43 2527 
2535.85 -2531.04 2528.78 
2536.24 -2533.77 2525.61 
2536.26 -2533.64 2526.6 
2535.7 -2530.17 2530.54 
2535.6 -2529.64 2532.63 
2536.64 -2535.53 2523.5 
2538.54 -2553.96 2507.91 
2538.62 -2555.21 2507.06 
2538.16 -2550.15 2509.33 
2538.57 -2552.6 2509.37 
2539.14 -2558.66 2506.32 
2539.36 -2560.6 2505.62 
2539.59 -2562.23 2505.37 
2539.68 -2563.22 2504.59 
2539.94 -2565.11 2504.18 
2540.14 -2566.68 2503.54 
2540.18 -2567.11 2502.57 
2540.2 -2566.94 2501.71 
2539.98 -2565 2500.84 
2540.19 -2566.21 2499.22 
2539.14 -2557.91 2507.29 
2536.7 -2531.59 2541.09 
2535.7 -2529.84 2538.13 
2535.92 -2530.5 2538.7 
2536.13 -2530.71 2539.69 
2536.15 -2531.12 2539.37 
2535.6 -2529.88 2533.9 
2535.5 -2529.49 2535.94 
2535.58 -2529.87 2534.87 
2536.37 -2534.5 2524.56 
2536.03 -2532.26 2528.3 
2535.82 -2530.77 2530.03 
2536.56 -2535.42 2525.75 
2536.67 -2535.95 2525.02 
2536.39 -2534.19 2527.63 
2536.61 -2535.6 2526.62 
2535.71 -2530.2 2531.78 
2538.99 -2556.36 2508.16 
2539.42 -2560.36 2506.42 
2539.73 -2562.37 2506.45 
2539.83 -2563.52 2505.7 
2539.98 -2565.13 2504.77 
2540.25 -2567.18 2504.16 
2540.45 -2568.97 2503.36 
2540.36 -2568.62 2502.76 
2540.52 -2569.79 2502.15 
2540.48 -2569.28 2501.59 
2540.38 -2568.1 2500.28 
2539.58 -2560.22 2507.5 
2536.74 -2532.18 2540.67 
2535.81 -2530.39 2537.81 
2536.15 -2531.42 2538.94 
2536.73 -2532.59 2540.18 
2535.69 -2530.22 2533.15 
2535.6 -2529.89 2536.52 
2535.7 -2530.22 2537.21 
2536.12 -2532.54 2529.05 
2535.92 -2531.33 2530.06 
2535.82 -2530.76 2531.32 
2536.38 -2533.75 2528.64 
2536.61 -2535.26 2528.05 
2536.8 -2536.36 2527.7 
2539.91 -2562.7 2507.05 
2540.08 -2564.76 2506.21 
2540.16 -2566.09 2505.43 
2540.38 -2567.84 2504.55 
2540.56 -2569.54 2503.8 
2540.62 -2570.66 2502.73 
2540.71 -2571.19 2503.34 
2540.74 -2571.56 2500.96 
2540.8 -2572.2 2501.88 
2540.65 -2570.43 2499.51 
2536.02 -2531.32 2537.64 
2536.17 -2531.68 2538.28 
2536.61 -2532.65 2539.4 
2535.7 -2530.33 2535.92 
2535.87 -2530.99 2536.59 
2535.75 -2530.46 2534.62 
2536.07 -2531.67 2537.09 
2536.07 -2532.14 2530.07 
2536.35 -2533.32 2529.66 
2535.93 -2531.29 2531.16 
2536.7 -2534.9 2529.6 
2540.35 -2565.52 2507.12 
2540.5 -2567.54 2506.01 
2540.49 -2568.31 2504.92 
2540.7 -2570.3 2504.29 
2540.81 -2571.59 2503.83 
2540.86 -2572.81 2502.6 
2540.95 -2573.45 2503.11 
2540.92 -2573.23 2500.08 
2540.99 -2574.21 2501.3 
2541.08 -2574.67 2502.04 
2540.89 -2572.44 2498.67 
2536.25 -2532.07 2537.65 
2536.58 -2532.79 2538.68 
2535.95 -2531.24 2532.57 
2535.92 -2531.23 2535.85 
2536.15 -2532 2536.6 
2535.93 -2531.2 2534.61 
2536.37 -2532.54 2537.3 
2536.06 -2531.85 2531.03 
2536.26 -2532.71 2530.38 
2540.96 -2569.67 2506.6 
2540.77 -2570.12 2505.07 
2540.98 -2571.96 2504.49 
2540.95 -2572.56 2503.82 
2541.14 -2574.96 2502.65 
2541.16 -2574.74 2503.53 
2541.28 -2575.94 2503.23 
2541.22 -2575.72 2500.62 
2541.16 -2575.11 2499.55 
2541.3 -2576.67 2501.43 
2541.34 -2577.01 2502.04 
2536.78 -2533.53 2538.47 
2536.08 -2531.8 2532.87 
2536.17 -2532.13 2536.08 
2536.09 -2531.91 2534.58 
2536.64 -2533.49 2537.07 
2536.27 -2532.5 2531.05 
2536.19 -2532.19 2531.63 
2536.71 -2533.95 2531.65 
2541.12 -2571.83 2505.56 
2541.23 -2573.1 2505.15 
2541.2 -2574.12 2504.39 
2541.38 -2577.13 2502.71 
2541.52 -2576.67 2504.63 
2541.5 -2577.41 2503.75 
2541.6 -2578.54 2503.28 
2541.46 -2577.74 2500.59 
2541.39 -2577.11 2499.7 
2541.57 -2578.54 2501.39 
2541.6 -2578.91 2502.36 
2536.41 -2532.79 2532.98 
2536.7 -2533.76 2536.31 
2536.5 -2533.12 2534.99 
2536.66 -2533.69 2532.39 
2541.45 -2575.09 2505.4 
2541.73 -2578.86 2504.34 
2541.81 -2579.72 2504.12 
2541.76 -2579.94 2502.94 
2541.64 -2579.33 2500.97 
2541.72 -2579.83 2501.7 
