2693.75 -2841.03 1734.77 
2692.4 -2842.48 1732.83 
2692.44 -2841.88 1733.1 
2692.93 -2842.52 1733.28 
2692.03 -2834.22 1724.49 
2691.57 -2834.84 1725.56 
2691.11 -2835.5 1726.48 
2692.38 -2833.63 1722.87 
2695.03 -2835.52 1714.72 
2693.09 -2834.32 1716.84 
2696.37 -2835.87 1714.29 
2711.16 -2845.25 1719.63 
2711.46 -2845.34 1720.3 
2711.87 -2845.98 1718.91 
2712.52 -2846.72 1717.12 
2712.55 -2846.76 1715.08 
2713.75 -2846.38 1709.96 
2713.7 -2846.97 1711.93 
2713.54 -2847.02 1712.61 
2712.79 -2846.83 1713.85 
2714.53 -2846.35 1708.64 
2690.56 -2835.89 1728.99 
2690.63 -2836.3 1729.52 
2691.15 -2837.09 1731.53 
2690.76 -2835.76 1727.16 
2782.22 -2864.77 1795.88 
2779.83 -2864.9 1794.43 
2781.8 -2864.84 1795.1 
2778.63 -2864.99 1792.65 
2780.03 -2864.93 1793.75 
2777.01 -2865 1791.6 
2769.22 -2865.05 1780.73 
2770.48 -2865 1781.49 
2768.23 -2865.03 1780.08 
2767.76 -2865.03 1777.73 
2768.56 -2865.08 1778.15 
2767.96 -2865.05 1772.19 
2766.52 -2864.96 1770.55 
2768.98 -2865.14 1776.01 
2769.16 -2865.16 1774 
2755.16 -2863.61 1761.57 
2756.34 -2863.8 1761.71 
2758.06 -2863.99 1762.59 
2763.41 -2864.75 1766.01 
2761.14 -2864.38 1763.87 
2763.09 -2864.67 1764.47 
2759.61 -2864.15 1762.47 
2766.94 -2865.09 1768.82 
2766.2 -2865.09 1767.41 
2765.13 -2864.98 1766.45 
2753.02 -2863.26 1759.33 
2754 -2863.45 1760.19 
2752.08 -2863.05 1758.56 
2750.93 -2862.76 1757.52 
2749.35 -2862.3 1755.89 
2747.98 -2861.93 1754.18 
2746.44 -2861.54 1752.75 
2745.74 -2861.36 1750.76 
2745.57 -2861.29 1748.6 
2745.1 -2861.15 1746.55 
2743.88 -2860.82 1745.74 
2741.77 -2860.12 1741.66 
2740.45 -2859.75 1741.16 
2743.1 -2860.51 1743.3 
2739.3 -2859.42 1739.75 
2738.36 -2859.13 1739.04 
2737.15 -2858.69 1738.39 
2703.24 -2845.77 1735.01 
2711.78 -2846.79 1731.74 
2712.55 -2846.9 1731.13 
2722.07 -2852.71 1730.7 
2721.62 -2852.17 1732.05 
2720.91 -2851.55 1731.89 
2721.32 -2851.97 1731.6 
2718.52 -2849.51 1731.62 
2720.27 -2850.96 1731.63 
2718.94 -2849.61 1730.92 
2717.48 -2849.13 1732.08 
2717.65 -2848.81 1730.93 
2722.06 -2853.04 1728.6 
2716.79 -2848.74 1731.72 
2723.92 -2854.04 1727.91 
2723.41 -2853.79 1727.59 
2722.8 -2853.51 1727.74 
2736.16 -2858.24 1736.8 
2734.94 -2857.65 1735.52 
2737.16 -2858.64 1737.54 
2733.57 -2856.86 1732.43 
2734.84 -2857.41 1733.64 
2733.26 -2856.61 1730.74 
2732.34 -2856.17 1729.12 
2728.1 -2855.15 1730.13 
2729.11 -2855.32 1729.42 
2730.57 -2855.6 1728.93 
2731.3 -2855.79 1728.37 
2727.05 -2854.89 1729.18 
2725.84 -2854.6 1728.96 
2725.5 -2854.51 1728.51 
2716.38 -2848.7 1732.04 
2715.55 -2848.34 1731.79 
2713.17 -2846.95 1730.31 
2714.82 -2847.76 1730.74 
2705.71 -2846.28 1734.17 
2706.58 -2846.42 1733.64 
2707.72 -2846.38 1733.59 
2704.73 -2846.29 1734.17 
2703.69 -2846.07 1734.34 
2703.01 -2845.97 1734.52 
2709.48 -2846.36 1733.39 
2700.83 -2845.14 1735.35 
2701.42 -2845.35 1735.23 
2698.72 -2845.29 1734.44 
2699.53 -2845.37 1734.62 
2697.54 -2845.55 1733.6 
2701.86 -2845.57 1735.03 
2702.27 -2845.79 1734.83 
2700.09 -2845.91 1734.14 
2694.82 -2845.39 1732.62 
2695.28 -2845.58 1732.7 
2696.17 -2844.98 1733.67 
2696.88 -2845.3 1733.6 
2694.14 -2845.2 1732.42 
2693.12 -2845.37 1731.78 
2692.69 -2844.65 1732.05 
2692.66 -2843.63 1732.54 
2692.37 -2844.26 1732.04 
2692 -2839.42 1733.22 
2692.15 -2839.9 1733.37 
2691.51 -2837.47 1732.31 
2691.74 -2837.79 1732.77 
2691.85 -2838.22 1733.02 
2691.71 -2839.05 1732.79 
2691.64 -2840.49 1732.54 
2692.44 -2840.11 1733.77 
2692.03 -2842.14 1732.64 
2692.06 -2840.44 1733.16 
2691.88 -2842.81 1732.23 
2692.23 -2843.21 1732.35 
2692.28 -2834.05 1723.75 
2691.92 -2834.59 1724.84 
2694.12 -2834.88 1715.34 
2693.45 -2834.51 1715.95 
2692.98 -2833.92 1717.31 
2692.62 -2833.51 1719.81 
2692.58 -2833.51 1721.07 
2696.76 -2836.17 1714.39 
2695.67 -2835.98 1714.56 
2705.79 -2842.24 1720.36 
2712.1 -2845.95 1719.89 
2712.26 -2845.92 1720.53 
2712.51 -2845.74 1722.09 
2712.83 -2846.98 1716.81 
2712.67 -2846.78 1718.06 
2712.6 -2846.61 1718.82 
2713.38 -2847.04 1713.2 
2714.02 -2846.7 1710.57 
2712.94 -2846.97 1714.46 
2714.37 -2846.64 1709.82 
2690.6 -2836.41 1728.97 
2690.73 -2836.75 1730.09 
2690.84 -2836.87 1730.82 
2691.32 -2837.68 1731.79 
2691.06 -2836.01 1726.57 
2690.65 -2836.2 1727.61 
2787.69 -2864.12 1800.5 
2786.54 -2864.39 1798.94 
2785.45 -2864.52 1797.92 
2784.21 -2864.64 1796.85 
2783.92 -2864.7 1796.04 
2781.89 -2864.88 1794.38 
2783.69 -2864.75 1795.4 
2778.78 -2864.99 1792.07 
2780.29 -2864.93 1793.15 
2770.63 -2865.06 1779.65 
2769.81 -2865.12 1778.35 
2771.65 -2865.06 1779.46 
2769.68 -2865.17 1776.61 
2770.3 -2865.3 1772.26 
2768.94 -2865.23 1770.34 
2770.56 -2865.29 1774.67 
2755.16 -2863.65 1760.22 
2756.66 -2863.85 1760.69 
2758.18 -2864 1760.8 
2765.05 -2864.94 1765.18 
2761.59 -2864.4 1762.43 
2763.55 -2864.67 1763.3 
2759.99 -2864.18 1760.9 
2768.18 -2865.23 1768.53 
2767.54 -2865.21 1767.15 
2766.27 -2865.1 1766.22 
2753.09 -2863.26 1758.28 
2754.09 -2863.46 1759.09 
2751.87 -2862.98 1757.22 
2750.63 -2862.6 1755.55 
2749.39 -2862.24 1753.71 
2748.14 -2861.92 1751.81 
2747.39 -2861.71 1749.38 
2746.71 -2861.54 1747.08 
2745.92 -2861.27 1744.79 
2744.43 -2860.95 1744.68 
2742.89 -2860.39 1741.13 
2740.22 -2859.67 1739.66 
2741.36 -2859.97 1739.61 
2744.41 -2860.81 1742.75 
2739.25 -2859.4 1738.69 
2738.26 -2859.06 1738.25 
2702.43 -2846.06 1734.36 
2711.99 -2846.59 1731.02 
2712.59 -2846.57 1729.99 
2710.34 -2846.44 1732.71 
2711.07 -2846.49 1731.89 
2721.76 -2852.58 1729.97 
2721.28 -2851.98 1731.1 
2720.79 -2851.47 1731.37 
2719.82 -2850.46 1731 
2719.26 -2849.77 1730.21 
2721.93 -2852.87 1729.07 
2722.25 -2853.17 1727.79 
2716.07 -2848.07 1730.33 
2723.67 -2853.82 1727.15 
2724.64 -2854.28 1727.82 
2725.12 -2854.41 1727.95 
2724.26 -2854.09 1727.43 
2737.28 -2858.6 1736.7 
2736.27 -2858.08 1735.29 
2738.37 -2859.02 1737.55 
2735.33 -2857.38 1731.5 
2736.43 -2857.91 1733.36 
2734.58 -2856.93 1729.09 
2733.17 -2856.38 1727.67 
2729.45 -2855.31 1728.45 
2727.48 -2854.95 1728.71 
2730.59 -2855.56 1727.74 
2731.26 -2855.75 1727.28 
2714.42 -2847.23 1729.43 
2712.51 -2846.07 1728.5 
2705.96 -2846.41 1733.7 
2705.42 -2846.4 1733.75 
2708.98 -2846.36 1733.39 
2704.11 -2846.31 1733.85 
2704.52 -2846.54 1733.32 
2702.98 -2846.3 1733.81 
2701.66 -2846.56 1733.36 
2697.88 -2845.98 1733.26 
2696.61 -2845.84 1732.92 
2700.57 -2846.16 1733.94 
2701.06 -2846.41 1733.6 
2698.79 -2846.48 1733 
2694.55 -2845.8 1732.1 
2695.14 -2845.99 1732.24 
2695.94 -2845.51 1733.02 
2693.68 -2845.64 1731.8 
2692.9 -2845.75 1731.35 
2692.4 -2844.83 1731.67 
2692.56 -2845.36 1731.39 
2691.47 -2841.29 1732.17 
2691.4 -2838.08 1732.1 
2691.22 -2840.96 1731.85 
2691.16 -2841.81 1731.6 
2691.65 -2841.88 1732.33 
2691.6 -2843.16 1731.88 
2692.42 -2834.07 1723.18 
2692.21 -2834.64 1724.16 
2693.23 -2834.74 1716.48 
2694.57 -2835.71 1715.22 
2692.88 -2833.9 1717.81 
2692.72 -2833.92 1718.78 
2692.57 -2833.75 1721.85 
2706.64 -2842.81 1721.41 
2713.15 -2846.15 1722.36 
2713.2 -2846.55 1720.79 
2713.54 -2846.34 1722.76 
2712.92 -2847.04 1715.42 
2712.95 -2847.06 1716.02 
2713.03 -2847 1718.4 
2713.44 -2847.15 1713.75 
2714.25 -2847.08 1711.65 
2714.18 -2847.24 1712.49 
2714.02 -2847.3 1713.07 
2716.04 -2846.95 1708.9 
2714.39 -2846.99 1711.13 
2690.53 -2836.16 1728.45 
2690.66 -2836.88 1729.35 
2691.03 -2837.58 1731.08 
2691.64 -2835.45 1725.46 
2690.82 -2836.25 1727.05 
2788.6 -2864.25 1799.05 
2790.18 -2863.97 1800.37 
2787.21 -2864.44 1798.15 
2785.83 -2864.58 1797.1 
2785.77 -2864.63 1796.35 
2782.17 -2864.86 1793.83 
2784.02 -2864.75 1794.97 
2780.46 -2864.91 1792.49 
2778.84 -2864.96 1791.36 
2771.17 -2865.17 1777.62 
2770.99 -2865.26 1776.04 
2773.11 -2864.98 1780.14 
2773.31 -2865.12 1778.4 
2772.77 -2865.22 1777.17 
2772.01 -2865.44 1773.02 
2772.02 -2865.47 1771.17 
2770.18 -2865.37 1769.95 
2772.55 -2865.46 1774.11 
2755.77 -2863.72 1759.57 
2754.77 -2863.58 1758.71 
2756.93 -2863.85 1759.39 
2758.29 -2863.99 1759.02 
2766.27 -2865.08 1765.07 
2765.45 -2864.94 1764.01 
2762.16 -2864.43 1761.21 
2764.14 -2864.68 1762.32 
2760.14 -2864.16 1759.34 
2769.38 -2865.34 1768.34 
2768.51 -2865.28 1766.78 
2767.2 -2865.19 1766.02 
2753.87 -2863.41 1757.77 
2752.8 -2863.17 1756.84 
2751.61 -2862.8 1754.93 
2750.48 -2862.46 1752.58 
2749.46 -2862.15 1750.36 
2748.52 -2861.92 1748 
2747.67 -2861.66 1745.79 
2746.04 -2861.11 1742.12 
2747.47 -2861.5 1743.35 
2744.52 -2860.68 1740.41 
2742.92 -2860.3 1739.15 
2740.08 -2859.62 1738.61 
2741.36 -2859.91 1738.26 
2739.5 -2859.4 1737.77 
2701.1 -2846.67 1733.12 
2711.43 -2846.43 1731.27 
2712.17 -2846.43 1730.25 
2711.97 -2845.83 1728.67 
2710.58 -2846.35 1732.15 
2709.63 -2846.37 1732.89 
2721.45 -2852.35 1729.65 
2721.55 -2852.61 1728.64 
2719.65 -2850.21 1730.3 
2719.17 -2849.55 1729.41 
2720.31 -2850.98 1730.74 
2721.75 -2852.85 1727.76 
2722.78 -2853.42 1727.1 
2722.34 -2853.19 1727.2 
2738.61 -2858.99 1736.67 
2737.66 -2858.55 1735.38 
2737.15 -2857.92 1731.46 
2736.4 -2857.53 1729.48 
2737.91 -2858.38 1733.31 
2735.71 -2857.12 1727.38 
2735.62 -2856.93 1725.88 
2733.29 -2856.32 1726.53 
2729.52 -2855.26 1727.7 
2727.64 -2854.92 1728.13 
2726.28 -2854.67 1728.33 
2730.48 -2855.42 1726.76 
2731.22 -2855.62 1726.28 
2705.55 -2846.53 1733.2 
2706.17 -2846.56 1733 
2706.94 -2846.42 1733.03 
2707.46 -2846.38 1733.1 
2708.13 -2846.37 1733 
2703.54 -2846.5 1733.28 
2703.89 -2846.75 1732.69 
2701.89 -2846.79 1732.95 
2699.95 -2847.28 1731.94 
2709.06 -2846.37 1732.83 
2697.3 -2846.24 1732.76 
2695.75 -2846.06 1732.37 
2699.25 -2846.78 1732.62 
2700.03 -2846.98 1732.46 
2697.88 -2846.63 1732.55 
2698.49 -2846.92 1732.29 
2694.17 -2846.23 1731.52 
2694.92 -2846.32 1731.81 
2693.35 -2846.09 1731.27 
2692.93 -2846.2 1730.99 
2691.97 -2843.82 1731.92 
2691.9 -2844.3 1731.64 
2691.22 -2842.53 1731.55 
2691.12 -2838.75 1731.7 
2691.31 -2839.1 1732.11 
2690.84 -2841.78 1731.08 
2691.42 -2843.85 1731.48 
2692.42 -2834.65 1723.52 
2692.54 -2834.09 1722.52 
2694.16 -2835.34 1715.54 
2693.75 -2834.97 1715.76 
2693.13 -2835.08 1716.93 
2694.92 -2836 1714.97 
2693.04 -2834.74 1717.3 
2696.27 -2836.38 1714.64 
2706.93 -2843 1721.83 
2706.21 -2842.67 1721.19 
2713.01 -2846.8 1719.38 
2713.46 -2847.09 1719.49 
2713.7 -2846.86 1720.96 
2714.24 -2846.74 1722.7 
2713.02 -2847.07 1717.66 
2713.23 -2847.2 1715.01 
2713.49 -2847.27 1714.29 
2714.02 -2847.41 1713.63 
2714.92 -2846.95 1710.24 
2716.48 -2847.23 1709.53 
2717.23 -2847.65 1710.45 
2690.74 -2837.32 1729.74 
2690.81 -2837.4 1730.39 
2690.96 -2838.61 1731.03 
2692.02 -2835.24 1724.73 
2690.58 -2836.53 1728.05 
2794.1 -2863.24 1803.75 
2792.39 -2863.61 1801.93 
2790.63 -2864.1 1799.1 
2788.98 -2864.31 1798.27 
2792.43 -2863.83 1800.25 
2787.48 -2864.46 1797.53 
2787.72 -2864.48 1796.96 
2786.06 -2864.63 1795.86 
2782.33 -2864.83 1793.28 
2784.29 -2864.73 1794.5 
2780.64 -2864.87 1791.86 
2772.52 -2865.34 1775.75 
2774.64 -2865.06 1778.76 
2774.82 -2865.29 1776.51 
2774.28 -2865.41 1775.31 
2773.18 -2865.55 1771.99 
2773.41 -2865.55 1770.62 
2771.64 -2865.46 1769.56 
2773.83 -2865.5 1774.05 
2774.2 -2865.6 1772.56 
2755.6 -2863.68 1758.37 
2754.72 -2863.52 1757.29 
2756.9 -2863.8 1758.11 
2758.76 -2863.96 1757.46 
2766.58 -2865.08 1764.2 
2767.64 -2865.22 1765.44 
2765.71 -2864.9 1762.75 
2763.37 -2864.51 1760.72 
2761.92 -2864.32 1759.48 
2764.62 -2864.63 1760.87 
2760.63 -2864.15 1757.75 
2770.38 -2865.4 1767.95 
2769.13 -2865.34 1766.23 
2753.84 -2863.3 1756.2 
2752.7 -2863.04 1755.09 
2752.01 -2862.79 1753.03 
2751.09 -2862.52 1750.81 
2750.52 -2862.33 1748.54 
2749.77 -2862.12 1746.36 
2749.2 -2861.89 1744.37 
2748.12 -2861.51 1741.03 
2746.59 -2861.11 1739.8 
2749.37 -2861.83 1742.24 
2745.1 -2860.7 1738.13 
2743.23 -2860.22 1737.56 
2740.57 -2859.66 1737.46 
2742.21 -2859.96 1736.75 
2739.8 -2859.34 1736.53 
2711.64 -2846.28 1730.44 
2709.82 -2846.34 1732.28 
2710.86 -2846.25 1731.44 
2710.33 -2846.27 1731.69 
2720.94 -2851.67 1730.52 
2721.49 -2852.59 1728.1 
2721.74 -2852.84 1727.2 
2723.95 -2853.86 1726.72 
2723.26 -2853.56 1726.64 
2721.96 -2852.91 1726.75 
2724.61 -2854.13 1727.05 
2726.04 -2854.56 1727.79 
2725.39 -2854.41 1727.43 
2739.06 -2858.94 1735.18 
2738.73 -2858.38 1731.42 
2738.08 -2858.03 1729.72 
2739.48 -2858.84 1733.24 
2733.04 -2856.03 1725.29 
2729.55 -2855.2 1727.04 
2727.69 -2854.88 1727.6 
2730.42 -2855.27 1725.9 
2731.35 -2855.49 1725.21 
2704.77 -2846.65 1732.85 
2707.72 -2846.38 1732.66 
2702.23 -2846.94 1732.6 
2700.45 -2847.42 1731.7 
2696.38 -2846.33 1732.32 
2697.09 -2846.67 1732.22 
2695.52 -2846.4 1731.95 
2698.84 -2847.27 1731.86 
2699.24 -2847.48 1731.57 
2697.53 -2847.04 1731.86 
2693.73 -2846.45 1731.13 
2694.74 -2846.68 1731.39 
2692.38 -2845.81 1730.9 
2691.95 -2844.91 1731.22 
2690.82 -2842.37 1730.93 
2690.7 -2842.85 1730.66 
2690.86 -2839.7 1731.24 
2690.98 -2840.72 1731.35 
2690.5 -2842.24 1730.43 
2690.98 -2842.95 1731.11 
2692.34 -2835.13 1724 
2692.54 -2834.65 1723.03 
2694.68 -2836.35 1715.28 
2695.53 -2836.4 1714.87 
2692.88 -2834.43 1718.02 
2692.71 -2834.11 1720.05 
2692.74 -2834.36 1719.02 
2692.67 -2834.11 1721.05 
2698.92 -2837.53 1715.38 
2697.05 -2836.62 1714.62 
2707.24 -2843.16 1722.21 
2700.51 -2838.75 1717.07 
2704.62 -2841.85 1720.21 
2705.21 -2842.18 1720.54 
2705.8 -2842.5 1720.9 
2704.28 -2841.43 1719.86 
2713.38 -2847.17 1718.87 
2714.73 -2846.99 1722.7 
2714.29 -2847.18 1721.06 
2713.33 -2847.35 1716.65 
2713.41 -2847.35 1717.99 
2714.64 -2847.43 1712.63 
2714.1 -2847.53 1714.15 
2713.79 -2847.48 1714.8 
2715 -2847.37 1711.94 
2715.78 -2847.33 1710.81 
2715.55 -2847.58 1712.25 
2716.29 -2847.7 1711.9 
2717.13 -2847.96 1712.14 
2690.62 -2836.98 1728.79 
2690.65 -2837.53 1729.14 
2690.67 -2837.95 1729.44 
2690.79 -2837.95 1730.06 
2690.66 -2840.1 1730.46 
2691.73 -2835.99 1725.31 
2691.21 -2836.37 1726.25 
2795.84 -2863.16 1803.38 
2794.33 -2863.52 1801.62 
2792.7 -2863.91 1799.19 
2791.08 -2864.13 1798.25 
2789.53 -2864.32 1797.67 
2794.51 -2863.62 1800.56 
2789.68 -2864.32 1797.03 
2788.02 -2864.46 1796.38 
2786.27 -2864.62 1795.37 
2782.62 -2864.78 1792.86 
2782.33 -2864.74 1792.12 
2776.32 -2864.98 1779.22 
2776.03 -2865.21 1777.2 
2776.53 -2865.43 1775.12 
2775.66 -2865.49 1774.4 
2775.28 -2865.59 1773.27 
2774.81 -2865.64 1771.49 
2774.44 -2865.6 1770.08 
2772.58 -2865.5 1769.05 
2775.63 -2865.67 1771.98 
2755.66 -2863.61 1756.81 
2754.82 -2863.35 1755.05 
2757.13 -2863.75 1756.69 
2758.17 -2863.76 1755.04 
2759.85 -2863.97 1755.72 
2768.16 -2865.24 1764.93 
2767.15 -2865.08 1763.64 
2766.23 -2864.86 1761.85 
2763.03 -2864.38 1758.86 
2764.62 -2864.53 1759.55 
2761.75 -2864.18 1756.63 
2771.19 -2865.43 1767.42 
2769.74 -2865.37 1765.77 
2753.36 -2863.06 1753.88 
2752.38 -2862.79 1751.59 
2752.16 -2862.64 1748.7 
2751.57 -2862.44 1746.17 
2750.95 -2862.21 1743.8 
2749.79 -2861.87 1739.82 
2748.55 -2861.58 1738.87 
2747.22 -2861.23 1737.98 
2750.88 -2862.11 1741.47 
2746.74 -2861.06 1736.73 
2744.66 -2860.47 1736.25 
2741.38 -2859.69 1736.05 
2743.54 -2860.13 1735.14 
2740.33 -2859.24 1734.73 
2711.49 -2846.09 1729.98 
2711.49 -2845.72 1728.98 
2711.02 -2846.16 1730.83 
2709.82 -2846.26 1731.57 
2709.04 -2846.37 1732.25 
2721.17 -2852.14 1729.26 
2720.56 -2851.25 1730.38 
2719.28 -2849.65 1728.47 
2719.83 -2850.45 1729.59 
2720.24 -2850.91 1729.91 
2721.33 -2852.43 1727.4 
2722.83 -2853.35 1726.49 
2723.85 -2853.69 1726.22 
2726.64 -2854.62 1727.3 
2725.25 -2854.31 1726.95 
2724.47 -2853.9 1726.28 
2740.81 -2859.07 1732.14 
2739.91 -2858.56 1730.07 
2729.66 -2855.12 1726.44 
2728.46 -2854.95 1726.97 
2729.71 -2855 1725.72 
2730.32 -2855.09 1724.95 
2704.56 -2846.78 1732.41 
2705.33 -2846.71 1732.45 
2705.94 -2846.71 1732.29 
2706.87 -2846.51 1732.48 
2708.44 -2846.36 1732.59 
2703.42 -2847 1732.03 
2701.99 -2847.23 1731.88 
2700.34 -2847.7 1731.09 
2699.49 -2847.73 1731.11 
2696.27 -2846.85 1731.74 
2695.31 -2846.74 1731.54 
2698.01 -2847.23 1731.72 
2698.57 -2847.54 1731.42 
2696.52 -2847.16 1731.43 
2697.11 -2847.32 1731.35 
2694.23 -2846.79 1731.04 
2691.98 -2845.47 1730.82 
2690.88 -2843.43 1730.86 
2690.62 -2841.09 1730.37 
2690.32 -2842.77 1730.05 
2690.43 -2843.52 1730.17 
2691.14 -2844.08 1731.02 
2691.51 -2844.49 1731.13 
2692.52 -2835.25 1723.4 
2692.61 -2834.53 1722.21 
2694.2 -2836.04 1715.68 
2693.89 -2835.74 1716.03 
2693.37 -2835.3 1716.44 
2693.11 -2835.64 1717.14 
2694.35 -2836.6 1715.63 
2695.14 -2836.75 1715.23 
2692.81 -2834.66 1718.54 
2692.64 -2834.36 1721.71 
2696.52 -2836.86 1714.9 
2706.43 -2842.99 1721.83 
2713.91 -2847.4 1719.37 
2713.84 -2847.47 1718.79 
2715.55 -2847.42 1722.38 
2716.73 -2848.1 1721.89 
2717.65 -2848.53 1721.9 
2713.46 -2847.4 1715.89 
2713.58 -2847.5 1717.31 
2714.6 -2847.58 1713.26 
2715.13 -2847.61 1712.82 
2714.45 -2847.62 1713.8 
2714.25 -2847.69 1714.68 
2715.73 -2847.81 1713.04 
2717.46 -2848.26 1713.21 
2718.58 -2848.63 1713.68 
2718.96 -2848.87 1714.81 
2716.24 -2848 1713.27 
2690.77 -2838.45 1730.12 
2690.41 -2840.28 1729.62 
2690.32 -2841.16 1729.64 
2690.97 -2836.64 1726.73 
2692.05 -2835.99 1724.67 
2691.74 -2836.57 1725.19 
2690.72 -2836.79 1727.37 
2797.5 -2862.93 1804.19 
2796.17 -2863.32 1801.83 
2793.25 -2863.9 1798.61 
2794.58 -2863.68 1799.8 
2791.91 -2864.09 1797.56 
2796.35 -2863.42 1800.85 
2789.96 -2864.29 1796.41 
2791.56 -2864.14 1796.93 
2788.27 -2864.43 1795.75 
2786.4 -2864.6 1794.85 
2784.47 -2864.67 1793.51 
2784.24 -2864.62 1792.84 
2778.62 -2864.82 1780.12 
2777.97 -2865.11 1777.77 
2780.38 -2864.64 1780.88 
2777.47 -2865.35 1775.87 
2777.29 -2865.54 1773.97 
2776.55 -2865.59 1773.27 
2776.58 -2865.68 1772.21 
2776.14 -2865.7 1771.1 
2775.38 -2865.67 1770.69 
2775.27 -2865.64 1769.62 
2773.47 -2865.53 1768.59 
2756.4 -2863.55 1754.95 
2755.39 -2863.3 1752.82 
2754.11 -2863.1 1752.5 
2759.89 -2863.8 1753.29 
2758.4 -2863.63 1752.63 
2756.84 -2863.49 1752.82 
2761.51 -2863.98 1754.24 
2768.73 -2865.22 1764.42 
2767.61 -2865.04 1762.84 
2766.09 -2864.7 1760.37 
2763.67 -2864.33 1757.4 
2765.35 -2864.45 1758.16 
2763.13 -2864.12 1755.05 
2771.98 -2865.44 1767.08 
2770.46 -2865.34 1765.36 
2753.16 -2862.86 1750.28 
2753.65 -2862.83 1748.26 
2752.96 -2862.68 1746.15 
2752.41 -2862.47 1743.57 
2752.12 -2862.32 1741.06 
2751.21 -2862.13 1738.89 
2749.82 -2861.85 1737.91 
2748.67 -2861.56 1737.22 
2748.25 -2861.39 1736.17 
2746.17 -2860.77 1735.12 
2742.21 -2859.7 1734.17 
2744.6 -2860.19 1733.39 
2709.33 -2846.28 1731.73 
2710.25 -2846.09 1731.04 
2710.46 -2845.98 1730.46 
2720.94 -2851.92 1728.81 
2721.08 -2852.16 1727.98 
2719.26 -2849.6 1727.85 
2721.5 -2852.56 1726.57 
2722.42 -2853.08 1726.21 
2723.17 -2853.4 1726.11 
2721.81 -2852.68 1726.1 
2725.74 -2854.33 1726.64 
2726.7 -2854.54 1726.81 
2725.25 -2854.11 1726.22 
2742.74 -2859.58 1732.19 
2728.58 -2854.87 1726.38 
2729.43 -2854.72 1724.66 
2728.63 -2854.7 1725.62 
2704.09 -2846.95 1731.98 
2705.34 -2846.85 1731.94 
2707.46 -2846.43 1732.14 
2706.73 -2846.6 1731.92 
2699.35 -2847.95 1730.68 
2702.48 -2847.23 1731.66 
2701.12 -2847.53 1731.37 
2699.93 -2847.91 1730.69 
2698.98 -2848.19 1730.19 
2698.68 -2847.83 1730.89 
2708.32 -2846.37 1732.07 
2695.73 -2847.12 1731.24 
2697.75 -2847.6 1731.14 
2696.59 -2847.48 1731.01 
2693.25 -2846.61 1730.73 
2695 -2847.03 1731.06 
2692.12 -2846.04 1730.49 
2692.54 -2846.38 1730.49 
2690.25 -2841.85 1729.82 
2691.01 -2844.52 1730.55 
2692.61 -2834.92 1722.59 
2693.9 -2836.27 1716.16 
2692.99 -2835.65 1717.7 
2693.05 -2836.14 1717.4 
2694.75 -2836.96 1715.5 
2694.39 -2837.5 1715.9 
2692.96 -2835.15 1717.83 
2692.76 -2834.75 1720.22 
2692.72 -2834.79 1721.18 
2697.72 -2836.94 1714.77 
2698.29 -2837.39 1715.28 
2695.99 -2836.79 1714.98 
2694.8 -2837.86 1715.93 
2695.18 -2837.32 1715.5 
2707.37 -2843.38 1722.79 
2699.21 -2838.31 1716.29 
2706.59 -2843.23 1722.37 
2705.94 -2842.9 1721.7 
2715.98 -2847.93 1721.21 
2715.07 -2847.64 1720.76 
2714.43 -2847.65 1719.48 
2716.85 -2848.34 1721.18 
2717.71 -2848.69 1721.29 
2713.71 -2847.56 1716.31 
2713.8 -2847.56 1715.56 
2713.94 -2847.64 1718.03 
2715.12 -2847.76 1713.46 
2715.66 -2847.96 1713.71 
2716.22 -2848.15 1713.97 
2717.43 -2848.44 1714.11 
2717.58 -2848.59 1714.88 
2718.84 -2848.97 1715.63 
2718.68 -2849.03 1716.38 
2690.56 -2837.77 1728.7 
2690.62 -2838.47 1729.39 
2692.37 -2835.75 1723.92 
2692.07 -2836.56 1724.48 
2691.25 -2837.07 1726.1 
2690.58 -2837.11 1727.98 
2798.41 -2862.67 1805.83 
2799.06 -2862.83 1803.34 
2797.77 -2863.12 1802.1 
2794.39 -2863.78 1798.65 
2795.56 -2863.58 1799.81 
2793.52 -2863.92 1797.63 
2798.48 -2863.12 1801.35 
2797.32 -2863.36 1800.31 
2792.31 -2864.07 1796.66 
2790.37 -2864.24 1795.93 
2788.56 -2864.38 1795.18 
2786.12 -2864.52 1793.77 
2784.17 -2864.55 1792.17 
2782.54 -2864.51 1781.27 
2779.7 -2865.01 1778.3 
2779.03 -2865.26 1776.31 
2781.13 -2864.85 1779.13 
2778.32 -2865.48 1774.67 
2778.32 -2865.55 1773.63 
2777.33 -2865.63 1772.79 
2777.11 -2865.7 1771.53 
2776.08 -2865.7 1770.2 
2776.99 -2865.71 1770.63 
2776.15 -2865.67 1769.49 
2774.51 -2865.55 1768.3 
2754.5 -2863.07 1750.4 
2755.98 -2863.28 1750.56 
2759.39 -2863.58 1750.6 
2757.48 -2863.4 1750.39 
2769.4 -2865.19 1763.94 
2767.47 -2864.86 1761.2 
2768.64 -2865.01 1762.42 
2766.84 -2864.58 1759.05 
2765.01 -2864.24 1755.92 
2766.9 -2864.36 1757.08 
2772.7 -2865.41 1766.72 
2771.32 -2865.28 1764.94 
2755.14 -2863.04 1748.47 
2754.35 -2862.9 1746.36 
2753.75 -2862.74 1744.01 
2753.65 -2862.6 1741.61 
2752.92 -2862.43 1739.26 
2752.17 -2862.29 1737.78 
2750.81 -2862.03 1737.3 
2749.58 -2861.75 1736.74 
2749.19 -2861.57 1735.75 
2747.88 -2861.19 1735.09 
2746.7 -2860.74 1733.58 
2710.96 -2845.86 1729.82 
2710.9 -2845.41 1728.59 
2709.3 -2846.15 1730.98 
2708.6 -2846.3 1731.62 
2720.95 -2852.01 1727.33 
2719.89 -2850.55 1728.82 
2720.42 -2851.31 1728.39 
2721.07 -2852.13 1726.76 
2723.6 -2853.47 1725.76 
2722.34 -2852.87 1725.67 
2724.13 -2853.63 1725.64 
2726.98 -2854.43 1726.06 
2725.72 -2854.17 1725.98 
2724.84 -2853.89 1725.8 
2728.73 -2854.29 1723.6 
2728.5 -2854.34 1724.14 
2728.27 -2854.45 1724.92 
2702.99 -2847.21 1731.52 
2704.25 -2847.12 1731.37 
2705.86 -2846.74 1731.71 
2698.42 -2848.04 1730.4 
2698.56 -2848.31 1729.89 
2697.29 -2847.74 1730.84 
2695.76 -2847.43 1730.83 
2693.75 -2846.93 1730.65 
2694.56 -2847.12 1730.81 
2691.56 -2845.33 1730.58 
2690.64 -2843.98 1730.34 
2690.1 -2842.39 1729.64 
2690.22 -2843.33 1729.72 
2692.59 -2835.55 1723 
2692.67 -2834.96 1721.94 
2693.92 -2837.48 1716.22 
2693.58 -2837.43 1716.59 
2693.26 -2836.68 1717.11 
2692.98 -2836.83 1717.66 
2694.14 -2838.22 1716.26 
2692.86 -2835.17 1718.41 
2692.8 -2835 1718.96 
2698.83 -2838.01 1715.89 
2697.14 -2837.07 1714.91 
2696.34 -2837.36 1715.28 
2700.05 -2838.94 1717.31 
2701.17 -2839.42 1717.9 
2704.72 -2842.24 1720.79 
2704.03 -2841.69 1720.24 
2714.41 -2847.74 1718.91 
2715.78 -2848.07 1720.38 
2717.03 -2848.58 1720.56 
2718.74 -2849.02 1722.24 
2718.48 -2848.94 1721.74 
2717.86 -2848.85 1720.76 
2713.95 -2847.73 1716.84 
2715.33 -2847.96 1714.11 
2714.91 -2847.99 1714.92 
2714.57 -2847.93 1715.46 
2714.31 -2847.86 1716.06 
2715.82 -2848.13 1714.39 
2716.4 -2848.31 1714.62 
2717.56 -2848.68 1715.61 
2716.55 -2848.43 1715.22 
2719.12 -2849.32 1717.98 
2718.55 -2849.08 1717.1 
2717.35 -2848.68 1716.17 
2690.44 -2838.79 1728.62 
2690.33 -2840.18 1728.9 
2690.13 -2841.39 1728.69 
2690.1 -2841.94 1729.24 
2691.75 -2837.08 1725.04 
2692.38 -2836.34 1723.72 
2690.74 -2837.37 1727.37 
2690.53 -2837.62 1728.15 
2690.52 -2838.12 1727.82 
2799.84 -2862.54 1805.01 
2800.23 -2862.79 1802.14 
2795.58 -2863.63 1798.72 
2796.56 -2863.49 1799.46 
2794.57 -2863.77 1797.76 
2799.34 -2863.05 1800.65 
2798.37 -2863.24 1799.71 
2792.27 -2864.07 1796.15 
2793.91 -2863.87 1796.91 
2790.55 -2864.19 1795.39 
2788.62 -2864.33 1794.68 
2786.16 -2864.43 1793.09 
2787.99 -2864.34 1794.14 
2784.51 -2864.4 1781.2 
2782.67 -2864.72 1779.37 
2780.54 -2865.1 1776.97 
2779.46 -2865.38 1774.92 
2778.37 -2865.6 1772.77 
2779.42 -2865.49 1773.74 
2777.81 -2865.66 1771.96 
2777.97 -2865.69 1770.98 
2777.06 -2865.69 1769.91 
2777.98 -2865.69 1770.26 
2777.06 -2865.65 1769.22 
2775.97 -2865.63 1768.78 
2774.99 -2865.52 1767.62 
2756.68 -2863.21 1748.52 
2770.38 -2865.13 1763.42 
2768.27 -2864.72 1760.11 
2769.5 -2864.82 1761.21 
2768.73 -2864.49 1758.27 
2773.28 -2865.34 1766.06 
2772.28 -2865.18 1764.24 
2755.9 -2863.1 1746.59 
2754.94 -2862.92 1744.43 
2754.78 -2862.79 1742.16 
2754.53 -2862.7 1739.76 
2753.71 -2862.54 1738.16 
2751.83 -2862.17 1736.75 
2753.27 -2862.42 1737.09 
2750.43 -2861.89 1736.38 
2749.99 -2861.73 1735.55 
2748.37 -2861.22 1734.27 
2709.74 -2846.03 1730.76 
2710.08 -2845.86 1730.1 
2710.39 -2845.7 1729.57 
2710.27 -2845.22 1728.4 
2720.69 -2851.7 1727.78 
2719.55 -2850.01 1727.12 
2719.67 -2850.05 1725.73 
2719.54 -2849.79 1725.21 
2719.39 -2849.54 1724.51 
2721.31 -2852.28 1726 
2721.72 -2852.39 1725.34 
2720.89 -2851.91 1726.27 
2722.96 -2853.16 1725.51 
2722.15 -2852.63 1725.18 
2727.1 -2854.21 1725.21 
2727.89 -2854.11 1724.1 
2727.88 -2853.85 1723.13 
2701.09 -2847.76 1730.79 
2703.16 -2847.39 1730.85 
2705.21 -2846.88 1731.38 
2707.91 -2846.37 1731.77 
2699.69 -2848.14 1730.16 
2697.88 -2847.99 1730.44 
2696.25 -2847.73 1730.6 
2696.85 -2847.89 1730.54 
2695.59 -2847.72 1730.36 
2692.86 -2846.77 1730.36 
2691.58 -2845.82 1730.22 
2690.36 -2843.95 1729.9 
2691.17 -2845.03 1730.38 
2690.76 -2844.67 1730.13 
2692.53 -2836.02 1723.19 
2692.66 -2835.47 1722.37 
2693.71 -2838.26 1716.54 
2693.46 -2836.01 1716.77 
2692.99 -2837.79 1717.72 
2693.16 -2837.68 1717.26 
2692.87 -2837.74 1718.22 
2692.87 -2836.9 1718.21 
2692.86 -2835.76 1718.3 
2692.8 -2835.73 1718.87 
2692.8 -2835.42 1720.32 
2692.77 -2835.85 1719.46 
2692.77 -2835.29 1721.14 
2697.69 -2837.37 1715.25 
2698.33 -2837.77 1715.69 
2695.79 -2837.48 1715.49 
2694.67 -2838.48 1716.35 
2694.34 -2838.83 1716.61 
2707.54 -2843.47 1723.57 
2704.24 -2842.02 1720.58 
2705.24 -2842.61 1721.19 
2706.72 -2843.44 1722.92 
2714.43 -2847.89 1718.04 
2717.34 -2848.74 1720.16 
2715.99 -2848.31 1719.58 
2715.11 -2848.05 1718.88 
2718.11 -2849 1720.3 
2718.6 -2849.09 1720.85 
2718.96 -2849.25 1721.55 
2714.29 -2847.87 1717.55 
2715.48 -2848.12 1714.82 
2715.38 -2848.19 1715.74 
2715.96 -2848.27 1715.02 
2719.24 -2849.38 1719.44 
2718.85 -2849.25 1718.41 
2718.26 -2849.03 1717.66 
2717.13 -2848.66 1716.63 
2716.19 -2848.4 1715.98 
2690.48 -2838.36 1728.31 
2690.28 -2840.27 1728.39 
2689.99 -2842.11 1728.5 
2690.01 -2842.47 1729.07 
2690.99 -2837.69 1726.58 
2691.28 -2837.72 1725.96 
2692.03 -2838.21 1724.2 
2692.25 -2838.18 1723.69 
2692.45 -2838.08 1723.17 
2691.54 -2837.85 1725.36 
2690.74 -2838.02 1727.28 
2804.63 -2861.61 1805.79 
2802.79 -2862.04 1804.88 
2801.23 -2862.43 1803.99 
2802.3 -2862.36 1802.66 
2801.4 -2862.67 1801.21 
2797.7 -2863.38 1798.87 
2796.74 -2863.51 1798.38 
2795.91 -2863.61 1797.77 
2800.6 -2862.88 1799.93 
2799.73 -2863.03 1799.18 
2792.89 -2863.96 1795.89 
2794.54 -2863.76 1796.79 
2791.06 -2864.11 1795.1 
2789.99 -2864.14 1794.44 
2788.18 -2864.25 1793.56 
2786.09 -2864.27 1781.4 
2784.13 -2864.6 1779.51 
2781.97 -2864.93 1777.52 
2780.64 -2865.24 1775.29 
2779.23 -2865.56 1772.74 
2778.69 -2865.63 1771.69 
2780.61 -2865.36 1773.84 
2778.91 -2865.65 1770.64 
2777.95 -2865.66 1769.62 
2778.85 -2865.64 1769.91 
2777.87 -2865.62 1768.94 
2776.7 -2865.61 1768.36 
2775.46 -2865.45 1766.97 
2757.39 -2863.24 1746.74 
2771.21 -2864.89 1762 
2770.58 -2864.61 1759.56 
2774.44 -2865.23 1765.27 
2773.23 -2864.96 1762.84 
2756.74 -2863.11 1744.69 
2756.04 -2862.95 1742.61 
2755.85 -2862.9 1740.37 
2755.23 -2862.76 1738.43 
2754.44 -2862.6 1737.41 
2751.47 -2862.05 1736.02 
2753.17 -2862.35 1736.29 
2754.59 -2862.57 1736.58 
2751.19 -2861.88 1735.07 
2749.53 -2861.45 1734.37 
2708.51 -2846.22 1731.08 
2708.85 -2846.04 1730.52 
2709.39 -2845.93 1730.37 
2708.04 -2846.29 1731.28 
2720.61 -2851.62 1726.8 
2719.93 -2850.62 1727.5 
2720 -2850.69 1726.86 
2720 -2850.63 1726.24 
2721.31 -2852.05 1725.11 
2721.04 -2851.93 1725.52 
2723.27 -2853.14 1725.08 
2722.69 -2852.81 1724.84 
2723.94 -2853.25 1724.75 
2722.01 -2852.39 1724.7 
2724.66 -2853.56 1724.96 
2725.77 -2853.87 1724.95 
2727.16 -2853.83 1723.88 
2727.11 -2853.57 1723.04 
2726.48 -2853.13 1722.24 
2700.14 -2848.11 1729.91 
2707.02 -2846.5 1731.49 
2699.2 -2848.34 1729.62 
2697.82 -2848.22 1729.9 
2698.11 -2848.42 1729.49 
2695.12 -2847.39 1730.6 
2694.24 -2847.29 1730.45 
2693.32 -2847.11 1730.23 
2692.11 -2846.41 1730.07 
2690.05 -2843.06 1729.32 
2690.89 -2845.19 1729.92 
2692.6 -2837.55 1722.62 
2692.72 -2835.53 1721.85 
2693.4 -2838.36 1716.93 
2693.04 -2838.29 1717.61 
2692.79 -2837.04 1718.73 
2692.78 -2837.15 1719.73 
2697.52 -2837.89 1715.72 
2695.27 -2838.07 1715.98 
2696.29 -2837.85 1715.63 
2707.04 -2843.47 1723.36 
2708.42 -2843.89 1724.68 
2702.92 -2840.52 1719.05 
2698.57 -2838.53 1716.49 
2705.99 -2843.21 1722.34 
2705.45 -2842.95 1721.85 
2714.78 -2848 1718.41 
2717.07 -2848.68 1719.67 
2718.58 -2849.19 1719.93 
2714.93 -2848.09 1716.19 
2718.75 -2849.23 1718.96 
2717.98 -2848.97 1718.26 
2716.59 -2848.56 1717.28 
2690.11 -2841.34 1728.16 
2691.17 -2838.75 1725.96 
2690.97 -2838.42 1726.53 
2691.94 -2838.78 1724.3 
2692.29 -2838.7 1723.6 
2691.49 -2838.87 1725.18 
2690.5 -2838.61 1727.63 
2690.69 -2838.62 1727.16 
2690.42 -2839.82 1727.44 
2690.32 -2840.37 1727.64 
2807.04 -2861.14 1805.78 
2806.04 -2861.57 1803.73 
2804.16 -2861.98 1803.22 
2803.44 -2862.26 1801.67 
2802.67 -2862.49 1800.53 
2798.83 -2863.2 1798.41 
2798.1 -2863.33 1797.94 
2796.81 -2863.52 1797.41 
2801.89 -2862.69 1799.35 
2800.67 -2862.89 1798.69 
2793.64 -2863.83 1795.72 
2795.5 -2863.63 1796.71 
2792.13 -2863.96 1794.91 
2790.4 -2864.03 1793.97 
2788.63 -2863.98 1792.31 
2787.71 -2864.14 1781.77 
2785.68 -2864.41 1779.93 
2783.34 -2864.79 1777.83 
2781.84 -2865.09 1775.65 
2779.48 -2865.59 1771.71 
2780.3 -2865.47 1772.86 
2782.04 -2865.17 1774.09 
2779.8 -2865.56 1770.68 
2778.61 -2865.61 1769.21 
2779.32 -2865.59 1769.42 
2780.05 -2865.52 1770.04 
2778.62 -2865.55 1768.51 
2777.85 -2865.55 1768.21 
2776.46 -2865.48 1767.25 
2758.34 -2863.23 1744.64 
2772.55 -2864.68 1760.49 
2776.05 -2865.25 1765.62 
2775.06 -2864.96 1763.34 
2774.55 -2864.72 1761.24 
2757.33 -2863.1 1742.72 
2756.89 -2863.04 1740.58 
2756.41 -2862.93 1738.89 
2755.74 -2862.77 1737.33 
2756.85 -2862.92 1737.76 
2752.53 -2862.18 1735.55 
2754.03 -2862.43 1735.71 
2755.36 -2862.59 1735.71 
2755.87 -2862.7 1736.11 
2753.25 -2862.17 1734.7 
2751.68 -2861.71 1733.69 
2750.11 -2861.36 1733.16 
2708.28 -2846.15 1730.6 
2709.81 -2845.67 1729.69 
2710.05 -2845.46 1729.16 
2709.8 -2844.96 1727.84 
2709.54 -2844.58 1726.87 
2720.27 -2851 1725.95 
2719.94 -2850.27 1724.92 
2719.78 -2849.99 1724.13 
2720.98 -2851.43 1724.09 
2721.39 -2851.67 1723.84 
2720.81 -2851.38 1724.57 
2720.49 -2851.18 1725.29 
2723.19 -2852.91 1724.5 
2723.59 -2852.73 1723.67 
2721.84 -2851.82 1723.5 
2722.59 -2852.43 1723.97 
2722.24 -2851.84 1723.04 
2724.62 -2853.18 1724.01 
2724.22 -2852.88 1723.52 
2725.17 -2853.27 1723.82 
2725.76 -2853.55 1724.12 
2726.17 -2853.32 1723.15 
2725.74 -2852.91 1722.41 
2725.47 -2852.56 1721.59 
2725.03 -2852.53 1721.95 
2701.47 -2847.76 1730.39 
2702.4 -2847.6 1730.32 
2703.95 -2847.21 1730.64 
2704.67 -2847 1730.85 
2705.68 -2846.73 1731.2 
2706.25 -2846.62 1731.33 
2697.22 -2848.28 1729.71 
2696.37 -2848.15 1729.92 
2707.52 -2846.39 1731.27 
2695.62 -2848.03 1729.92 
2691.54 -2846.12 1729.79 
2690.29 -2844.32 1729.57 
2690.1 -2843.65 1729.31 
2692.69 -2838 1722.26 
2692.66 -2836.85 1722.19 
2692.68 -2837.82 1721.74 
2692.84 -2838.17 1718.49 
2693.01 -2838.68 1718.02 
2692.8 -2837.85 1718.91 
2693.77 -2838.87 1716.81 
2693.28 -2838.69 1717.3 
2692.79 -2837.74 1719.72 
2692.75 -2837.5 1720.89 
2692.75 -2838.14 1720.78 
2692.77 -2835.8 1721.2 
2692.78 -2836.83 1720.12 
2697.02 -2837.64 1715.44 
2698.11 -2838.23 1716.13 
2697 -2838.08 1715.84 
2695.74 -2838.5 1716.19 
2694.75 -2839.21 1716.82 
2694.16 -2839.17 1716.95 
2707.93 -2843.83 1724.39 
2700.99 -2839.72 1718.29 
2701.75 -2840.09 1718.71 
2704.48 -2842.48 1721.16 
2703.58 -2841.41 1720 
2707.06 -2843.65 1723.87 
2714.98 -2848.12 1717.59 
2717.41 -2848.83 1719.31 
2716.16 -2848.45 1718.44 
2718.39 -2849.13 1719.4 
2715.32 -2848.2 1718.06 
2714.74 -2848.07 1716.74 
2715.68 -2848.31 1716.5 
2715.23 -2848.2 1716.82 
2717.78 -2848.93 1718.82 
2722.46 -2851.07 1720.55 
2690.01 -2841.84 1728.06 
2689.9 -2842.6 1728.34 
2689.94 -2843.07 1728.64 
2690.83 -2840.13 1726.11 
2690.65 -2840.08 1726.59 
2691.65 -2839.45 1724.71 
2692.1 -2839.17 1723.98 
2692.66 -2838.43 1722.73 
2691.06 -2840.29 1725.56 
2690.21 -2841.09 1727.44 
2809.41 -2860.73 1805.04 
2807.92 -2861.17 1803.9 
2805.33 -2861.91 1801.96 
2807.31 -2861.43 1802.58 
2804.63 -2862.15 1800.75 
2804.03 -2862.29 1800.06 
2800.54 -2862.91 1798.17 
2799.5 -2863.07 1797.68 
2798.32 -2863.3 1797.28 
2803.79 -2862.37 1799.33 
2802.29 -2862.65 1798.68 
2795.85 -2863.55 1796.29 
2794.18 -2863.68 1795.33 
2797.74 -2863.37 1796.89 
2792.45 -2863.78 1794.27 
2787.27 -2864.24 1780.33 
2784.89 -2864.6 1778.48 
2783.27 -2864.88 1776.31 
2780.29 -2865.5 1771.96 
2780.72 -2865.44 1770.94 
2781.52 -2865.32 1772.88 
2783.5 -2864.96 1774.34 
2779.35 -2865.52 1768.76 
2780.39 -2865.44 1769.33 
2781.14 -2865.38 1770.07 
2779.41 -2865.44 1768.05 
2778.81 -2865.47 1767.81 
2777.75 -2865.45 1767.3 
2777.39 -2865.24 1765.9 
2776.91 -2864.93 1763.56 
2776.34 -2864.7 1761.81 
2758.28 -2863.15 1740.49 
2757.55 -2863.05 1738.8 
2756.73 -2862.84 1736.53 
2757.74 -2862.97 1736.85 
2758.42 -2863.06 1737.57 
2755.05 -2862.41 1734.69 
2757.08 -2862.75 1735.24 
2708.59 -2845.98 1730.05 
2707.76 -2846.28 1730.78 
2709.77 -2845.26 1728.7 
2719.81 -2849.9 1723.5 
2721.17 -2851.08 1722.81 
2720.75 -2850.8 1723.02 
2720.35 -2850.62 1724.05 
2722.6 -2852.13 1723.3 
2723.14 -2852.31 1723.14 
2722.17 -2851.48 1722.24 
2723.61 -2852.2 1722.38 
2724.21 -2852.34 1722.21 
2721.65 -2851.25 1722.41 
2721.86 -2851.18 1721.93 
2724.8 -2852.66 1722.55 
2724.48 -2852.25 1721.69 
2724.1 -2852.01 1721.4 
2699.64 -2848.33 1729.26 
2700.31 -2848.18 1729.24 
2701.05 -2847.92 1729.75 
2706.81 -2846.49 1731.03 
2698.81 -2848.45 1729.32 
2697.09 -2848.4 1729.24 
2697.65 -2848.45 1729.24 
2694.99 -2847.73 1730.05 
2692.59 -2846.87 1729.94 
2691.17 -2845.7 1729.88 
2690.52 -2844.88 1729.7 
2692.71 -2836.41 1721.91 
2692.76 -2836.42 1721.14 
2692.9 -2838.68 1718.57 
2692.81 -2838.46 1719.59 
2692.73 -2837.12 1721.43 
2697.49 -2838.42 1716.23 
2696.72 -2838.45 1716.14 
2693.67 -2839.22 1717.18 
2708.53 -2844.27 1725.87 
2708.99 -2844.44 1726.45 
2699.75 -2839.3 1717.68 
2698.25 -2838.81 1716.78 
2704.78 -2842.8 1721.6 
2706.23 -2843.48 1723.03 
2706.54 -2843.58 1723.47 
2707.34 -2843.89 1724.43 
2715.59 -2848.32 1717.22 
2722.95 -2851.36 1720.78 
2690.48 -2841.19 1726.53 
2692.54 -2839.02 1723.2 
2690.07 -2841.6 1727.44 
2809.61 -2860.95 1802.78 
2806.61 -2861.68 1801.53 
2808.69 -2861.25 1801.64 
2805.85 -2861.91 1800.6 
2805.65 -2861.98 1799.95 
2801.34 -2862.79 1797.73 
2802.68 -2862.59 1798.3 
2800.35 -2862.91 1797.24 
2804.56 -2862.23 1798.97 
2796.42 -2863.44 1795.86 
2798.22 -2863.25 1796.55 
2794.63 -2863.55 1794.87 
2799.81 -2862.97 1796.82 
2793.54 -2863.38 1793.35 
2789.23 -2864.03 1781.27 
2786.16 -2864.45 1778.76 
2787.92 -2864.22 1779.73 
2784.48 -2864.71 1777.09 
2781.19 -2865.39 1771.77 
2781.81 -2865.3 1770.78 
2782.64 -2865.15 1772.68 
2784.46 -2864.83 1773.97 
2784.86 -2864.7 1776.09 
2780.54 -2865.35 1768.54 
2781.55 -2865.26 1769.2 
2782.4 -2865.16 1769.77 
2780.78 -2865.23 1767.57 
2779.77 -2865.32 1767.23 
2778.83 -2865.31 1766.74 
2778.2 -2865.02 1764.67 
2778.28 -2864.67 1762.33 
2759.33 -2863.15 1738.85 
2757.93 -2862.9 1735.83 
2759.09 -2863.04 1736.5 
2707.99 -2846.09 1730.07 
2709.2 -2845.63 1729.51 
2707.26 -2846.36 1730.65 
2720.02 -2850.05 1722.97 
2720.93 -2850.78 1722.44 
2720.22 -2850.34 1723.59 
2722.6 -2851.57 1721.95 
2723.83 -2852.05 1721.84 
2721.39 -2850.94 1722.05 
2721.62 -2850.9 1721.59 
2723.34 -2851.77 1721.56 
2702.84 -2847.55 1729.97 
2705.2 -2846.87 1730.62 
2706.11 -2846.59 1730.8 
2696.48 -2848.27 1729.44 
2695.97 -2848.19 1729.49 
2694.17 -2847.6 1730.01 
2694.6 -2847.9 1729.67 
2695.24 -2848.06 1729.58 
2693.65 -2847.5 1729.92 
2692.96 -2847.22 1729.75 
2692.82 -2838.37 1721.93 
2692.83 -2838.47 1721.21 
2693.28 -2839.14 1717.76 
2692.85 -2838.94 1719.8 
2692.85 -2838.87 1720.73 
2697.69 -2838.95 1716.85 
2696.25 -2838.69 1716.33 
2696.79 -2839.05 1716.82 
2695.42 -2839.41 1717.03 
2694.87 -2839.58 1717.18 
2703.94 -2842.36 1720.88 
2705.48 -2843.23 1722.42 
2721.14 -2850.56 1721.46 
2722.18 -2851.1 1721.21 
2720.65 -2850.31 1721.69 
2722.66 -2851.41 1721.36 
2689.95 -2842.49 1727.8 
2689.93 -2842.99 1727.92 
2689.94 -2843.6 1728.72 
2690.62 -2841.46 1726.08 
2690.23 -2841.71 1726.95 
2691.67 -2839.99 1724.55 
2691.99 -2839.7 1724.13 
2692.31 -2839.56 1723.59 
2811.67 -2860.49 1802.78 
2811.02 -2860.76 1801.54 
2807.71 -2861.49 1800.96 
2809.66 -2861.1 1800.91 
2807.75 -2861.51 1800.26 
2806.37 -2861.83 1799.6 
2803.29 -2862.47 1798.07 
2802.35 -2862.61 1797.49 
2804.94 -2862.15 1798.59 
2801.77 -2862.67 1796.97 
2806.76 -2861.75 1799.02 
2796.7 -2863.28 1795.22 
2798.74 -2863.09 1796.14 
2800.83 -2862.73 1796.34 
2795.28 -2863.07 1793.35 
2791.05 -2863.77 1782.18 
2789.93 -2863.96 1780.8 
2786.37 -2864.45 1778.02 
2788.46 -2864.16 1779.26 
2782.33 -2865.22 1771.51 
2783.17 -2865.06 1770.4 
2783.8 -2864.97 1772.45 
2785.53 -2864.65 1774.33 
2785.83 -2864.55 1776.49 
2781.8 -2865.15 1768.19 
2782.8 -2865.03 1768.79 
2783.69 -2864.93 1769.37 
2782.16 -2865 1766.9 
2781.59 -2865.01 1766.39 
2780.63 -2865.08 1766.23 
2779.43 -2865.1 1765.74 
2779.29 -2864.8 1763.63 
2780.31 -2864.49 1762.33 
2708.59 -2845.77 1729.46 
2709.03 -2844.86 1727.56 
2709.26 -2845.38 1728.91 
2707.5 -2846.21 1730.12 
2719.98 -2849.96 1722.36 
2720.39 -2850.29 1722.42 
2699.25 -2848.47 1728.95 
2701.56 -2847.88 1729.3 
2700.5 -2848.16 1728.73 
2703.35 -2847.46 1729.86 
2696.22 -2848.36 1728.88 
2692.13 -2846.69 1729.62 
2690.08 -2844.16 1729.08 
2692.88 -2838.7 1722.34 
2693.07 -2839.2 1718.32 
2692.89 -2838.88 1719.15 
2696.11 -2839.2 1716.87 
2698.36 -2839.45 1717.6 
2697.44 -2839.46 1717.41 
2696.58 -2839.39 1717.16 
2697 -2840.05 1717.99 
2697.37 -2840.35 1718.42 
2695.57 -2839.81 1717.49 
2694.33 -2839.6 1717.23 
2708.07 -2844.39 1726.05 
2700.09 -2839.83 1718.3 
2701.28 -2840.27 1718.89 
2702.52 -2840.8 1719.42 
2705 -2843.16 1722.16 
2703.52 -2841.84 1720.41 
2706.64 -2843.86 1724.07 
2705.67 -2843.54 1722.96 
2689.86 -2843.51 1728.12 
2690.4 -2841.91 1726.49 
2691.17 -2840.88 1725.12 
2692.56 -2839.56 1723.13 
2692.77 -2839.17 1722.68 
2690.05 -2842.18 1727.28 
2812.89 -2860.25 1801.99 
2811.73 -2860.64 1800.78 
2809.78 -2861.09 1800.36 
2808.4 -2861.39 1799.55 
2810.25 -2860.99 1799.81 
2804.69 -2862.2 1798.08 
2803.86 -2862.34 1797.53 
2806.56 -2861.79 1798.32 
2803.09 -2862.4 1796.83 
2808.44 -2861.36 1798.74 
2797.2 -2862.89 1793.92 
2798.81 -2862.98 1795.53 
2800.84 -2862.59 1795.58 
2802.77 -2862.36 1796.11 
2792.03 -2863.62 1782.27 
2790.75 -2863.82 1780.56 
2787.42 -2864.31 1777.87 
2789.44 -2864 1779.09 
2783.78 -2864.97 1771.12 
2784.58 -2864.8 1770 
2784.92 -2864.78 1772.43 
2786.42 -2864.48 1774.13 
2786.67 -2864.43 1776.09 
2783.01 -2864.91 1767.41 
2783.91 -2864.8 1767.98 
2784.88 -2864.68 1768.76 
2783.29 -2864.64 1765.28 
2782.1 -2864.7 1764.7 
2784.24 -2864.57 1765.88 
2780.73 -2864.76 1764.2 
2782.13 -2864.38 1762.86 
2707.61 -2846.06 1729.61 
2708.01 -2845.88 1729.33 
2706.63 -2846.45 1730.37 
2698.22 -2848.51 1728.93 
2699.73 -2848.36 1728.72 
2701.9 -2847.83 1728.88 
2705.03 -2846.87 1730.13 
2696.76 -2848.44 1728.77 
2695.44 -2848.22 1729.01 
2694.84 -2848.07 1729.23 
2692.45 -2847.05 1729.43 
2691.69 -2846.45 1729.43 
2691.16 -2845.98 1729.4 
2692.92 -2839.46 1720.59 
2692.96 -2839.25 1721.24 
2692.88 -2839.42 1720.02 
2692.95 -2838.88 1721.59 
2696.03 -2839.58 1717.28 
2696.38 -2839.85 1717.62 
2698.07 -2840.17 1718.37 
2697.6 -2841 1719.21 
2697.11 -2840.75 1718.79 
2695.08 -2839.92 1717.61 
2693.89 -2839.6 1717.5 
2704.26 -2843.09 1721.76 
2702.99 -2841.88 1720.38 
2707.01 -2844.12 1724.79 
2705.92 -2843.75 1723.44 
2690.65 -2841.93 1725.91 
2692.08 -2840.16 1723.9 
2813.36 -2860.2 1800.98 
2812.13 -2860.57 1800.13 
2810.32 -2860.97 1799.2 
2812.23 -2860.53 1799.5 
2806.1 -2861.86 1797.7 
2805.22 -2862.02 1797.21 
2808.25 -2861.38 1797.95 
2804.59 -2862.09 1796.68 
2810.24 -2860.96 1798.46 
2799.29 -2862.6 1794.26 
2801.01 -2862.21 1793.9 
2802.73 -2862.1 1794.81 
2804.54 -2861.95 1795.72 
2791.62 -2863.66 1780.42 
2788.25 -2864.17 1777.65 
2790.31 -2863.81 1778.93 
2785.17 -2864.73 1771.01 
2785.97 -2864.55 1769.83 
2786.32 -2864.39 1768.19 
2786.1 -2864.56 1772.38 
2787.4 -2864.25 1774.26 
2787.59 -2864.24 1775.96 
2784.99 -2864.49 1766.35 
2785.6 -2864.45 1767.04 
2785.13 -2864.23 1764.18 
2783.83 -2864.31 1763.59 
2786.02 -2864.16 1764.56 
2708.77 -2845.35 1728.7 
2708.34 -2845.58 1728.94 
2707.44 -2845.93 1729.08 
2706.99 -2846.28 1729.92 
2706 -2846.58 1730.05 
2700.9 -2848.04 1728.31 
2703.28 -2847.41 1729.31 
2695.68 -2848.36 1728.5 
2697.32 -2848.51 1728.69 
2693.91 -2847.8 1729.56 
2694.32 -2847.93 1729.14 
2690.25 -2844.69 1729.22 
2690.77 -2845.5 1729.47 
2696.66 -2840.95 1718.9 
2700.03 -2840.32 1718.76 
2698.31 -2840.5 1718.8 
2697.13 -2841.3 1719.42 
2697.62 -2841.53 1719.82 
2695.93 -2840.13 1717.93 
2708.28 -2844.84 1727.1 
2702.21 -2841.14 1719.76 
2703.95 -2842.86 1721.43 
2705.17 -2843.54 1722.71 
2703.46 -2842.49 1720.95 
2707.83 -2844.69 1726.49 
2689.99 -2842.81 1727.41 
2689.96 -2843.37 1727.54 
2689.96 -2844.01 1728.33 
2690.21 -2842.45 1726.81 
2691.83 -2840.6 1724.15 
2690.9 -2841.88 1725.35 
2692.42 -2840.08 1723.35 
2692.96 -2839.27 1722.19 
2692.85 -2839.77 1722.49 
2813.96 -2860.06 1800.42 
2813.98 -2860.07 1799.84 
2812.25 -2860.51 1798.9 
2814.14 -2860 1799.21 
2807.77 -2861.43 1797.25 
2806.75 -2861.6 1796.65 
2810.09 -2860.94 1797.69 
2806.11 -2861.65 1795.97 
2812.16 -2860.49 1798.3 
2804.24 -2861.62 1793.94 
2806.06 -2861.25 1794.04 
2789.1 -2863.99 1777.41 
2787.05 -2864.33 1770.56 
2787.64 -2864.14 1768.76 
2788.34 -2863.96 1767.11 
2787.41 -2864.08 1766.19 
2787.4 -2864.26 1772.6 
2788.49 -2863.97 1774.14 
2788.53 -2864.03 1775.76 
2786.77 -2864.11 1765.17 
2786.36 -2863.98 1763.19 
2787.54 -2863.88 1763.68 
2707.77 -2845.64 1728.67 
2698.94 -2848.5 1728.53 
2700.13 -2848.25 1728.2 
2699.62 -2848.34 1728.14 
2704.97 -2846.84 1729.57 
2693.36 -2847.61 1729.44 
2693.06 -2839.6 1718.65 
2693.01 -2839.5 1721.68 
2696.56 -2841.3 1719.38 
2698.12 -2840.98 1719.32 
2698.74 -2840.68 1719.1 
2695.34 -2840.16 1718.02 
2694.46 -2839.94 1717.71 
2704.4 -2843.49 1722.3 
2702.86 -2842.27 1720.69 
2706.96 -2844.45 1725.4 
2706.44 -2844.27 1724.69 
2706 -2844.03 1723.97 
2690.06 -2843.18 1727.06 
2690.4 -2842.55 1726.32 
2690.67 -2842.48 1725.72 
2691.35 -2841.32 1724.74 
2692.13 -2840.75 1723.67 
2692.76 -2840.39 1722.71 
2814.2 -2859.96 1798.57 
2816.2 -2859.43 1798.74 
2808.99 -2861.1 1796.85 
2808.44 -2861.12 1796.2 
2810.9 -2860.71 1797.28 
2812.45 -2860.37 1797.74 
2807.47 -2861.2 1795.36 
2814.24 -2859.91 1797.92 
2788.66 -2863.91 1770.94 
2789.19 -2863.77 1768.98 
2789.42 -2863.73 1767.45 
2788.96 -2863.78 1765.54 
2790.08 -2863.57 1765.8 
2788.41 -2863.81 1764.38 
2788.83 -2863.88 1772.74 
2706.89 -2846.09 1729.18 
2707.98 -2845.37 1728.2 
2707.03 -2845.83 1728.49 
2706.46 -2846.31 1729.6 
2703.44 -2847.25 1728.83 
2695.06 -2848.23 1728.55 
2696.17 -2848.45 1728.29 
2694.58 -2848.07 1728.7 
2692.85 -2847.41 1729.23 
2692.02 -2846.86 1729.12 
2691.32 -2846.36 1728.98 
2690.41 -2845.17 1729.07 
2690.1 -2844.57 1728.68 
2692.98 -2839.8 1719.67 
2693.66 -2839.71 1717.93 
2696.9 -2841.57 1719.82 
2698.28 -2841.4 1719.85 
2700.63 -2841.06 1719.59 
2701.62 -2841.31 1719.87 
2699.02 -2840.94 1719.46 
2698.06 -2841.85 1720.25 
2697.53 -2841.84 1720.23 
2696.1 -2840.75 1718.74 
2703.69 -2843.29 1721.79 
2702.03 -2842.05 1720.43 
2702.39 -2842.45 1720.78 
2703.31 -2842.96 1721.35 
2707.78 -2844.93 1726.97 
2705.4 -2843.84 1723.29 
2690 -2843.88 1727.66 
2690.32 -2843.05 1726.41 
2692.48 -2840.72 1723.11 
2816.37 -2859.36 1798.02 
2810.79 -2860.64 1796.53 
2809.64 -2860.74 1795.54 
2812.89 -2860.2 1797.06 
2814.85 -2859.7 1797.14 
2816.38 -2859.32 1797.34 
2789.82 -2863.59 1764.27 
2707.31 -2845.27 1727.39 
2705.99 -2846.43 1729.36 
2701.9 -2847.69 1728.33 
2701.49 -2847.72 1727.87 
2704.49 -2846.9 1728.95 
2698.24 -2848.54 1728.3 
2698.93 -2848.45 1727.93 
2700.55 -2848.03 1727.82 
2699.84 -2848.2 1727.65 
2696.81 -2848.52 1728.26 
2695.3 -2848.33 1728.11 
2693.76 -2847.8 1728.95 
2690.65 -2845.67 1728.96 
2692.99 -2840.11 1720.58 
2693 -2839.91 1721.27 
2700.78 -2841.51 1720 
2698.02 -2842.33 1720.58 
2697.53 -2842.38 1720.72 
2697.14 -2842.12 1720.53 
2694.75 -2840.17 1718.09 
2695.56 -2840.46 1718.39 
2696.16 -2841.44 1719.72 
2694.04 -2840.03 1718.02 
2703.75 -2843.65 1722.21 
2704.75 -2843.77 1722.87 
2707.07 -2844.89 1726.36 
2706.4 -2844.71 1725.53 
2705.9 -2844.37 1724.54 
2690.69 -2843.08 1725.68 
2691.53 -2841.74 1724.39 
2691.18 -2842.38 1724.92 
2690.89 -2842.78 1725.32 
2692.04 -2841.34 1723.71 
2811.86 -2860.26 1795.76 
2813.31 -2860 1796.37 
2815.25 -2859.52 1796.51 
2817.58 -2858.9 1796.5 
2792.49 -2862.83 1751.9 
2790.33 -2863.01 1747.8 
2789.81 -2863.04 1745.66 
2789.63 -2863.01 1744.01 
2789.79 -2862.91 1742.39 
2706.09 -2846.23 1728.9 
2706.46 -2845.99 1728.59 
2706.6 -2845.66 1727.73 
2705.41 -2846.57 1729.07 
2701.05 -2847.79 1727.56 
2692.4 -2847.26 1728.93 
2691.76 -2846.72 1728.69 
2690.24 -2845.07 1728.57 
2693.01 -2840.13 1721.83 
2693.48 -2839.87 1718.38 
2696.7 -2841.95 1720.32 
2698.63 -2841.75 1720.14 
2700.22 -2841.74 1720.16 
2701.27 -2842.39 1720.65 
2699.16 -2841.82 1720.19 
2697.85 -2842.77 1720.92 
2697.14 -2842.63 1720.99 
2695.89 -2841.11 1719.43 
2704.27 -2843.8 1722.69 
2702.63 -2842.91 1721.21 
2701.7 -2842.78 1720.99 
2702.12 -2842.96 1721.2 
2703.09 -2843.49 1721.84 
2705.95 -2844.59 1724.99 
2705.52 -2844.16 1723.91 
2690.07 -2843.73 1727.14 
2690.02 -2844.45 1728 
2692.54 -2841.22 1723.07 
2692.85 -2840.92 1722.62 
2814.36 -2859.53 1795.22 
2815.94 -2859.17 1795.48 
2817.29 -2858.87 1795.61 
2793.64 -2862.86 1756.65 
2793.56 -2862.81 1754.23 
2794.51 -2862.64 1752.35 
2793.86 -2862.62 1750.07 
2792.68 -2862.75 1747.98 
2791.83 -2862.85 1745.97 
2791.49 -2862.86 1744.09 
2791.74 -2862.79 1742.71 
2790.07 -2862.76 1740.56 
2791.93 -2862.69 1741.29 
2705.94 -2846.15 1728.43 
2706.45 -2845.27 1726.76 
2706.11 -2845.8 1727.62 
2703.13 -2847.21 1728.19 
2699.17 -2848.32 1727.4 
2700.24 -2848 1727.35 
2693.18 -2847.6 1728.85 
2694.04 -2847.92 1728.51 
2690.93 -2846.1 1728.75 
2696.12 -2841.78 1720.25 
2698.57 -2842.21 1720.46 
2699.98 -2842.24 1720.51 
2700.64 -2842.52 1720.73 
2700.95 -2843.03 1721.14 
2699.18 -2842.41 1720.6 
2697.46 -2843.18 1721.3 
2695.47 -2840.75 1718.89 
2694.03 -2840.31 1718.49 
2694.92 -2840.75 1719.04 
2694.25 -2840.7 1719.14 
2693.74 -2840.52 1719.31 
2701.36 -2843.23 1721.36 
2705.94 -2845.14 1726.1 
2705.42 -2844.6 1724.65 
2690.48 -2843.43 1726.06 
2690.29 -2843.57 1726.52 
2691.32 -2842.9 1724.77 
2691.75 -2842.24 1724.14 
2692.34 -2841.71 1723.36 
2692.93 -2840.5 1722.23 
2795.84 -2862.55 1756.23 
2795.01 -2862.66 1754.97 
2796.04 -2862.49 1753.25 
2796.23 -2862.43 1751.19 
2796.14 -2862.41 1749.23 
2795.05 -2862.52 1747.61 
2794.21 -2862.61 1745.79 
2793.4 -2862.69 1744.4 
2793.74 -2862.62 1743.06 
2793.92 -2862.57 1741.88 
2791.92 -2862.58 1739.87 
2794 -2862.49 1740.64 
2704.72 -2846.67 1728.48 
2705.32 -2846.36 1728.28 
2705.22 -2846.08 1727.43 
2705.83 -2845.43 1726.61 
2697.49 -2848.58 1728.1 
2698.17 -2848.51 1727.79 
2699.59 -2848.13 1727.12 
2695.73 -2848.42 1727.82 
2694.83 -2848.18 1727.91 
2692.1 -2847.08 1728.45 
2691.26 -2846.42 1728.48 
2690.39 -2845.55 1728.52 
2693.22 -2840.24 1719.63 
2693.14 -2840.42 1721.14 
2696.53 -2842.35 1720.81 
2698.56 -2842.71 1720.81 
2699.32 -2843.36 1721.26 
2700.06 -2843.25 1721.25 
2699.47 -2843.8 1721.6 
