2662.08 -2797.88 1253.41 
2660.39 -2796 1252.06 
2659.02 -2794.51 1251.08 
2658.08 -2793.45 1250.3 
2657.64 -2792.78 1250.71 
2657.24 -2792.55 1249.7 
2656.15 -2791.77 1247.76 
2656.24 -2792.28 1246.34 
2657.09 -2793.37 1246.04 
2657.71 -2793.87 1246.87 
2656.87 -2793.27 1245.28 
2656.77 -2793.25 1244.63 
2651.78 -2788.03 1239.88 
2655.42 -2791.89 1242.47 
2654.64 -2791.07 1241.76 
2657.23 -2793.78 1244.56 
2648.6 -2784.52 1237.68 
2648.12 -2783.92 1236.75 
2646.26 -2782.13 1234.89 
2645.98 -2781.42 1232.83 
2648.62 -2784.45 1237.14 
2679.86 -2813.91 1267.66 
2679 -2813.45 1266.17 
2676.18 -2811.33 1264.2 
2677.93 -2812.86 1264.39 
2675.49 -2811.06 1262.41 
2674.66 -2810.31 1262.46 
2675.12 -2810.97 1261.26 
2674.92 -2810.91 1260.32 
2674.4 -2810.53 1259.43 
2673.6 -2809.74 1259.27 
2672.65 -2808.86 1258.55 
2670.54 -2806.45 1258.74 
2671.39 -2807.51 1258.23 
2669.62 -2805.32 1258.74 
2668.43 -2804.06 1257.84 
2667.31 -2802.78 1257.52 
2666.47 -2801.91 1256.89 
2665.56 -2801.06 1255.99 
2662.84 -2798.73 1253.58 
2665.15 -2800.82 1255.23 
2663.81 -2799.67 1254.01 
2661.49 -2797.39 1252.07 
2662.33 -2798.4 1252.34 
2660.78 -2796.82 1250.57 
2659.68 -2795.56 1249.92 
2658.67 -2794.43 1249.28 
2657.81 -2793.46 1248.77 
2656.91 -2792.62 1248 
2657.37 -2793.38 1247.24 
2658.38 -2794.67 1246.84 
2658.41 -2794.45 1247.79 
2658.85 -2795.03 1247.75 
2658.15 -2794.52 1246.33 
2658.09 -2794.58 1245.78 
2658.5 -2795.08 1245.65 
2651.2 -2787.39 1239.2 
2653.51 -2789.88 1240.95 
2652.59 -2788.87 1240.2 
2649.97 -2786.06 1238.43 
2655.95 -2792.43 1242.59 
2655 -2791.45 1241.83 
2649.25 -2785.22 1237.93 
2647.37 -2783.21 1236.19 
2648.38 -2784.05 1236.32 
2648.91 -2784.63 1236.71 
2647.37 -2783.1 1235.56 
2681 -2815.15 1266.23 
2679.54 -2814.3 1264.27 
2676.84 -2812.29 1262.25 
2678.66 -2813.83 1262.41 
2675.81 -2811.68 1260.89 
2675.45 -2811.51 1260.02 
2674.99 -2811.21 1259.14 
2674.37 -2810.69 1258.52 
2673.6 -2809.93 1258.43 
2672.65 -2809 1257.78 
2670.42 -2806.47 1258 
2671.22 -2807.44 1257.51 
2669.59 -2805.47 1258.08 
2668.49 -2804.34 1257.23 
2667.23 -2802.83 1256.82 
2666.32 -2801.92 1256.11 
2663.34 -2799.44 1252.9 
2666.12 -2801.9 1255.42 
2664.78 -2800.7 1254.24 
2661.98 -2798.39 1250.79 
2662.93 -2799.48 1251.2 
2663.59 -2800.09 1251.83 
2661.82 -2798.43 1249.82 
2660.55 -2796.84 1249.35 
2659.36 -2795.44 1248.69 
2659.36 -2795.65 1247.73 
2658.99 -2795.33 1247.27 
2659.86 -2796.14 1248.38 
2659.03 -2795.5 1246.78 
2659 -2795.58 1246.23 
2659.47 -2796.02 1246.45 
2651.56 -2787.75 1239.3 
2654.11 -2790.49 1241.07 
2653.03 -2789.32 1240.28 
2650.6 -2786.7 1238.38 
2656.82 -2793.38 1243.43 
2658.11 -2794.7 1244.86 
2655.54 -2791.99 1241.92 
2648.95 -2784.5 1236.02 
2649.45 -2785.08 1236.67 
2649.88 -2785.75 1237.44 
2651 -2787.1 1238.42 
2682.43 -2816.04 1267.68 
2683.44 -2817.23 1266.12 
2682.23 -2816.46 1264.64 
2680.87 -2815.45 1264.02 
2680.3 -2815.21 1262.52 
2677.79 -2813.34 1261.05 
2676.56 -2812.42 1260.46 
2679.54 -2814.83 1261.22 
2675.93 -2812.12 1259.54 
2675.47 -2811.77 1258.98 
2675.17 -2811.66 1258.08 
2674.6 -2811.09 1257.93 
2673.73 -2810.29 1257.5 
2672.44 -2808.96 1256.92 
2670.29 -2806.49 1257.34 
2671 -2807.4 1256.73 
2669.52 -2805.66 1257.21 
2668.46 -2804.61 1256.43 
2667.23 -2803 1256.33 
2664.21 -2800.5 1252.82 
2666.19 -2802.15 1254.88 
2665.22 -2801.31 1254 
2663.03 -2799.87 1250.47 
2664.63 -2801.64 1251.24 
2664.29 -2801.36 1250.79 
2664.77 -2801.51 1251.96 
2661.75 -2798.46 1249.29 
2660.79 -2797.28 1248.92 
2660.08 -2796.53 1248.03 
2659.68 -2796.05 1247.59 
2659.68 -2796.15 1247.07 
2659.91 -2796.45 1246.52 
2651.98 -2788.18 1239.42 
2654.64 -2791.03 1241.17 
2653.47 -2789.77 1240.37 
2656.64 -2793.19 1243 
2657.89 -2794.48 1244.16 
2658.85 -2795.45 1245.45 
2656.1 -2792.56 1242.13 
2659.45 -2796.05 1245.74 
2649.5 -2784.93 1236.09 
2650.21 -2785.88 1236.92 
2650.48 -2786.36 1237.53 
2651.4 -2787.51 1238.55 
2652.6 -2788.81 1239.62 
2683.89 -2817.19 1268.01 
2684.99 -2818.33 1267.32 
2684.95 -2818.5 1266.14 
2683.48 -2817.54 1264.63 
2682.93 -2817.27 1263.16 
2681.75 -2816.4 1262.79 
2680.98 -2815.95 1261.75 
2678.36 -2814.06 1260.03 
2676.89 -2812.94 1259.5 
2680.01 -2815.48 1260.38 
2676.23 -2812.65 1258.52 
2675.73 -2812.29 1258.05 
2674.86 -2811.81 1256.55 
2675.42 -2812.45 1256.45 
2674.29 -2811.25 1256.35 
2673.35 -2810.4 1255.64 
2672.12 -2808.97 1255.6 
2669.96 -2806.36 1256.64 
2670.88 -2807.75 1255.4 
2669.83 -2806.66 1255.33 
2669.2 -2805.6 1256.29 
2668.49 -2805.4 1254.58 
2667.99 -2804.7 1254.72 
2667.31 -2803.32 1255.76 
2665.21 -2801.69 1252.97 
2666.02 -2802.51 1253.51 
2665.81 -2803.06 1251.67 
2665.48 -2802.91 1250.92 
2665.8 -2802.81 1252.2 
2662 -2798.87 1248.95 
2662.9 -2799.91 1249.75 
2664.03 -2801.23 1250.1 
2660.98 -2797.61 1248.57 
2660.16 -2796.68 1247.39 
2660.34 -2796.93 1246.59 
2660.59 -2797.24 1247.19 
2654.39 -2790.7 1240.67 
2658.95 -2795.48 1244.9 
2659.84 -2796.4 1245.87 
2650.08 -2785.52 1236.26 
2650.9 -2786.69 1237.35 
2654.08 -2790.32 1240.31 
2687.58 -2820.14 1269.18 
2686.25 -2819.27 1268.07 
2686.31 -2819.52 1266.78 
2684.69 -2818.49 1264.86 
2683.99 -2818.14 1263.22 
2683.91 -2818.16 1262.29 
2682.73 -2817.29 1262.17 
2681.89 -2816.79 1261.57 
2681.07 -2816.31 1260.68 
2678.86 -2814.79 1258.93 
2677.34 -2813.58 1258.48 
2680.32 -2816.02 1259.26 
2676.72 -2813.55 1256.77 
2676.05 -2813.09 1256.39 
2674.53 -2811.86 1255.3 
2675.11 -2812.53 1255.33 
2675.77 -2813.23 1255.24 
2673.53 -2810.96 1254.63 
2672.21 -2809.42 1254.57 
2670.99 -2808.22 1254.54 
2669.14 -2805.99 1255.02 
2669.64 -2806.88 1254.18 
2668.96 -2806.28 1253.76 
2668.38 -2805.78 1253.38 
2667.73 -2804.94 1253.42 
2666.83 -2803.84 1253.04 
2667.09 -2803.56 1254.47 
2667.01 -2804.22 1252.74 
2666.78 -2804.3 1251.83 
2667.11 -2804.63 1252.25 
2666.52 -2804.07 1251.43 
2665.22 -2802.74 1250.37 
2661.3 -2798.02 1248.42 
2660.85 -2797.51 1248.07 
2661.06 -2797.82 1247.43 
2661.45 -2798.29 1247.62 
2655.65 -2791.99 1241.35 
2657.22 -2793.74 1242.92 
2659.38 -2795.82 1244.83 
2656.9 -2793.34 1242.49 
2660.22 -2796.75 1245.96 
2651.98 -2787.98 1238.33 
2652.86 -2788.92 1239.18 
2655.31 -2791.57 1240.82 
2688.94 -2821.18 1269.42 
2687.91 -2820.54 1267.97 
2687.27 -2820.32 1266.32 
2685.88 -2819.4 1265.01 
2685.33 -2819.15 1263.24 
2685.03 -2819.03 1262.24 
2683.62 -2818.05 1261.69 
2685.05 -2819.15 1261.5 
2682.59 -2817.44 1261.13 
2681.77 -2816.97 1260.5 
2681.11 -2816.75 1259.36 
2679.46 -2815.72 1257.53 
2677.98 -2814.59 1256.94 
2680.65 -2816.83 1257.63 
2677.72 -2814.74 1255.86 
2676.56 -2813.83 1255.56 
2674.39 -2811.88 1254.79 
2676.31 -2813.81 1254.99 
2673.22 -2810.84 1253.9 
2672.28 -2809.7 1254.01 
2669.77 -2807.25 1253.6 
2668.95 -2806.5 1253.2 
2667.71 -2805.15 1252.96 
2667.36 -2805.04 1252.06 
2667.7 -2805.39 1252.38 
2663.01 -2800.17 1249.29 
2662.17 -2799.18 1248.52 
2663.86 -2801.15 1249.62 
2664.7 -2802.17 1250 
2666.1 -2803.76 1250.71 
2661.83 -2798.74 1248.17 
2661.77 -2798.69 1247.44 
2661.1 -2797.9 1246.9 
2662.11 -2799.16 1247.78 
2662.55 -2799.74 1248.34 
2658.43 -2794.91 1243.92 
2658.04 -2794.46 1243.3 
2659.88 -2796.33 1245.13 
2651.13 -2786.53 1236.47 
2653.4 -2789.4 1239.27 
2654.61 -2790.71 1240.08 
2691.94 -2823.38 1270.08 
2690.35 -2822.24 1269.47 
2689.23 -2821.6 1267.69 
2688.28 -2821.15 1265.81 
2686.88 -2820.25 1264.12 
2686.93 -2820.44 1262.56 
2686.19 -2819.97 1261.73 
2684.6 -2818.9 1261.07 
2683.53 -2818.22 1260.79 
2686.2 -2820.16 1260.73 
2687.11 -2820.74 1261.14 
2682.57 -2817.76 1259.97 
2681.89 -2817.46 1259.22 
2681.32 -2817.46 1257.71 
2679.47 -2816.21 1256.26 
2680.84 -2817.43 1256.4 
2677.43 -2814.7 1255.25 
2679.02 -2816.06 1255.57 
2674.88 -2812.51 1254.59 
2674.2 -2811.85 1254.31 
2675.41 -2813.08 1254.53 
2675.95 -2813.58 1254.61 
2676.68 -2814.23 1254.7 
2671.98 -2809.51 1253.64 
2671.3 -2808.74 1253.94 
2668.29 -2805.95 1252.76 
2667.14 -2804.93 1251.47 
2667.93 -2805.75 1252.11 
2666.51 -2804.24 1250.91 
2662.82 -2800.06 1248.76 
2661.48 -2798.31 1246.83 
2663.19 -2800.5 1248.63 
2663.59 -2800.96 1248.93 
2659.59 -2795.89 1244.34 
2656.48 -2792.8 1241.62 
2657.2 -2793.51 1242.07 
2657.69 -2793.99 1242.5 
2655.79 -2791.98 1240.74 
2660.63 -2797.27 1245.98 
2651.84 -2787.38 1237.06 
2653.07 -2788.82 1238.32 
2693.07 -2824.23 1270.4 
2691.03 -2822.97 1267.57 
2692.47 -2823.99 1268.13 
2689.88 -2822.31 1265.53 
2688.48 -2821.48 1263.77 
2687.93 -2821.27 1261.84 
2689.03 -2822.01 1262.55 
2684.83 -2819.22 1260.45 
2683.67 -2818.57 1259.89 
2686.72 -2820.7 1260.09 
2688.32 -2821.79 1260.46 
2688.81 -2822.06 1261.11 
2682.42 -2818.22 1258.16 
2682.99 -2818.56 1258.38 
2681.88 -2818.09 1257.24 
2681.48 -2818.03 1256.34 
2680.52 -2817.33 1255.81 
2681.36 -2818.13 1255.68 
2677.8 -2815.16 1254.89 
2673.18 -2810.97 1253.29 
2670.92 -2808.53 1253.35 
2670.29 -2807.89 1253.26 
2669.15 -2806.84 1252.77 
2668.58 -2806.4 1252.3 
2664.51 -2802.04 1249.51 
2665.5 -2803.19 1250.03 
2663 -2800.32 1247.89 
2663.44 -2800.83 1248.17 
2662.42 -2799.53 1247.29 
2662.01 -2798.94 1246.82 
2664.2 -2801.74 1249.04 
2660.45 -2796.84 1245.22 
2656.99 -2793.21 1241.7 
2656.18 -2792.36 1240.95 
2658.73 -2794.97 1243.34 
2660.97 -2797.67 1246.22 
2652.18 -2787.35 1236.52 
2654.32 -2790.09 1239.18 
2655.28 -2791.19 1239.85 
2694.27 -2825.05 1270.72 
2693.46 -2824.67 1268.75 
2691.45 -2823.52 1265.39 
2692.63 -2824.3 1266.33 
2690.51 -2822.98 1263.54 
2689.52 -2822.5 1261.66 
2690.59 -2823.19 1262.22 
2685.44 -2819.83 1259.81 
2684.18 -2819.11 1259.26 
2687.38 -2821.39 1259.27 
2688.62 -2822.2 1259.71 
2689.81 -2823.05 1260 
2689.78 -2822.87 1260.73 
2690.49 -2823.24 1261.4 
2682.45 -2818.7 1256.69 
2683.58 -2819.17 1257.8 
2683.11 -2819.15 1256.9 
2681.95 -2818.47 1256.15 
2680.61 -2817.55 1255.35 
2679.19 -2816.41 1254.86 
2675.63 -2813.46 1253.9 
2675.07 -2812.92 1253.92 
2674.33 -2812.2 1253.68 
2676.22 -2813.95 1254.15 
2677.15 -2814.87 1254.03 
2672.06 -2809.75 1253.08 
2669.71 -2807.48 1252.49 
2667.63 -2805.62 1251.24 
2667.98 -2805.95 1251.56 
2667.1 -2805 1250.95 
2664.05 -2801.55 1248.29 
2664.57 -2802.22 1248.74 
2664.77 -2802.43 1249.19 
2666.38 -2804.21 1250.36 
2660.22 -2796.49 1244.64 
2660.75 -2797.19 1245.47 
2657.66 -2793.78 1241.83 
2658.59 -2794.69 1242.74 
2661.38 -2798.07 1246.29 
2652.78 -2787.74 1236.38 
2653.7 -2789.07 1237.9 
2655.7 -2791.54 1239.9 
2695.37 -2825.82 1270.81 
2694.54 -2825.33 1269.32 
2693.72 -2825 1267.29 
2691.99 -2824.06 1263.76 
2692.96 -2824.67 1264.85 
2691.41 -2823.71 1262.71 
2691.58 -2823.93 1261.73 
2685.85 -2820.44 1258.75 
2684.68 -2820.03 1257.64 
2689.16 -2822.8 1258.97 
2687.43 -2821.88 1257.88 
2690.2 -2823.53 1259.15 
2690.75 -2823.55 1260.77 
2690.76 -2823.71 1260.02 
2691.38 -2823.88 1261.21 
2682.5 -2818.95 1256.13 
2683.13 -2819.35 1256.36 
2684.01 -2819.94 1256.57 
2681.44 -2818.35 1255.09 
2682.04 -2818.77 1255.48 
2678.67 -2816.1 1254.3 
2680.16 -2817.29 1254.78 
2677.49 -2815.25 1253.74 
2673.17 -2811.1 1252.77 
2670.99 -2808.7 1252.87 
2668.57 -2806.54 1251.71 
2669.58 -2807.45 1251.99 
2665.3 -2803.04 1248.9 
2665.92 -2803.7 1249.34 
2663.64 -2801.03 1247.71 
2666.04 -2803.85 1249.84 
2659.85 -2795.91 1243.87 
2661.06 -2797.57 1245.72 
2657.54 -2793.5 1241.38 
2656.61 -2792.66 1240.98 
2658.16 -2794.15 1241.94 
2661.83 -2798.49 1246.26 
2662.88 -2800.03 1247.12 
2654.66 -2789.53 1237.57 
2654.91 -2790.3 1238.69 
2651.32 -2786.21 1228.08 
2696.47 -2826.56 1270.3 
2695.58 -2826.01 1269.38 
2694.86 -2825.67 1267.86 
2693.86 -2825.24 1265.25 
2693.08 -2824.86 1263.19 
2692.32 -2824.4 1262.39 
2692.8 -2824.8 1261.46 
2692.37 -2824.58 1260.83 
2685.65 -2820.92 1256.99 
2689.73 -2823.62 1257.55 
2688.72 -2822.94 1257.43 
2687.19 -2822.19 1256.43 
2691.1 -2824.14 1259.15 
2690.5 -2824.12 1257.71 
2691.81 -2824.31 1260.46 
2691.68 -2824.37 1259.84 
2683.19 -2819.59 1255.87 
2684.01 -2820.12 1256.03 
2682.62 -2819.28 1255.37 
2681.29 -2818.33 1254.56 
2681.96 -2818.84 1254.93 
2676.66 -2814.47 1253.71 
2673.58 -2811.54 1252.73 
2672.04 -2809.89 1252.53 
2668.09 -2806.12 1251.03 
2669.21 -2807.18 1251.52 
2664.5 -2802.02 1248.14 
2666.94 -2804.8 1249.92 
2660.65 -2796.83 1244.67 
2662.63 -2799.63 1246.79 
2655.63 -2790.89 1238.78 
2655.81 -2790.39 1237.67 
2651.62 -2786.55 1227.79 
2700.23 -2829.15 1271.73 
2699.08 -2828.39 1271.08 
2697.51 -2827.27 1269.91 
2696.78 -2826.78 1269.06 
2696.2 -2826.47 1268.32 
2695.78 -2826.29 1267.19 
2694.81 -2825.81 1265.63 
2694.21 -2825.55 1263.54 
2693.55 -2825.23 1262.32 
2694.65 -2825.97 1261.62 
2693.94 -2825.63 1260.71 
2693.22 -2825.28 1260 
2685.36 -2820.96 1256.21 
2688.76 -2823.36 1256.24 
2689.75 -2824.09 1256.23 
2688.45 -2823.28 1255.83 
2686.83 -2822.09 1255.87 
2692.05 -2824.85 1258.82 
2691.22 -2824.57 1257.89 
2690.58 -2824.63 1256.3 
2692.72 -2825.06 1259.46 
2683.27 -2819.83 1255.09 
2684.34 -2820.54 1255.14 
2679.99 -2817.28 1254.18 
2678.94 -2816.45 1253.76 
2682.48 -2819.29 1254.8 
2675.62 -2813.57 1253.29 
2674.84 -2812.76 1253.26 
2674.26 -2812.24 1252.88 
2672.68 -2810.62 1252.35 
2671.27 -2809.08 1252.32 
2670.75 -2808.54 1252.32 
2669.91 -2807.82 1251.65 
2667.92 -2805.87 1250.55 
2668.44 -2806.44 1250.77 
2665.81 -2803.46 1248.7 
2667.61 -2805.5 1249.95 
2668.36 -2806.3 1250.13 
2660.48 -2796.44 1244.1 
2661.55 -2798 1245.76 
2658.13 -2793.86 1241.15 
2657.45 -2793.2 1240.79 
2658.62 -2794.36 1241.69 
2659.35 -2795.18 1242.8 
2663.67 -2800.84 1247.2 
2662.3 -2798.9 1246.12 
2657.08 -2791.3 1237.62 
2656.29 -2791.39 1238.82 
2656.49 -2792.13 1239.96 
2703.32 -2831.07 1271.06 
2701.8 -2830.13 1270.25 
2700.33 -2829.23 1270.29 
2698.74 -2828.13 1269.53 
2698.24 -2827.71 1268.18 
2697.77 -2827.41 1267.58 
2697.33 -2827.19 1266.8 
2696.65 -2826.88 1265.57 
2695.64 -2826.38 1264.06 
2695.24 -2826.24 1262.67 
2696.03 -2826.92 1261.13 
2696.8 -2827.19 1262.64 
2695.42 -2826.72 1259.7 
2694.45 -2826.25 1258.93 
2685.44 -2821.17 1255.62 
2690.23 -2824.57 1255.75 
2689.47 -2824.03 1255.77 
2688.85 -2823.69 1255.46 
2687.34 -2822.56 1255.55 
2691.61 -2825.06 1257.01 
2692.37 -2825.51 1257.01 
2693.4 -2825.71 1258.37 
2690.97 -2825.01 1255.83 
2683.6 -2820.13 1254.68 
2685.06 -2821.06 1254.99 
2686.15 -2821.76 1255.25 
2680.73 -2817.94 1254.06 
2681.68 -2818.69 1254.38 
2678.4 -2816.08 1253.38 
2676.26 -2814.17 1253.26 
2677.26 -2815.15 1253.08 
2673.29 -2811.27 1252.31 
2669.45 -2807.44 1251.15 
2668.08 -2805.94 1249.84 
2668.76 -2806.66 1250.03 
2669.43 -2807.35 1250.47 
2667.16 -2804.9 1249.39 
2661.32 -2797.56 1245.18 
2661.06 -2797.16 1244.73 
2660.18 -2795.9 1243.37 
2657.24 -2792.9 1240.43 
2664.27 -2801.51 1247.38 
2665.34 -2802.71 1247.88 
2656.91 -2791.78 1238.73 
2657.4 -2792.29 1238.99 
2656.91 -2792.46 1239.98 
2713.56 -2837.04 1271.53 
2705.32 -2832.3 1269.97 
2707.24 -2833.53 1270.06 
2703.38 -2831.1 1268.93 
2702.24 -2830.37 1268.02 
2701.43 -2829.86 1268.72 
2699.93 -2828.85 1268.35 
2700.61 -2829.28 1267.28 
2699.36 -2828.4 1266.89 
2698.88 -2828.12 1266.27 
2698.31 -2827.81 1265.5 
2697.41 -2827.4 1264.11 
2697.92 -2827.92 1262.39 
2697.25 -2827.76 1260.67 
2698.65 -2828.2 1263.77 
2696.72 -2827.73 1258.83 
2695.8 -2827.34 1257.67 
2694.83 -2826.85 1257.25 
2689.79 -2824.39 1255.39 
2690.46 -2824.86 1255.25 
2687.99 -2823.13 1255.2 
2689.28 -2824.11 1255.14 
2693.44 -2826.18 1256.67 
2691.75 -2825.47 1255.83 
2691.09 -2825.25 1255.2 
2684.33 -2820.64 1254.55 
2686.99 -2822.47 1254.94 
2682.28 -2819.2 1254.34 
2679.44 -2816.91 1253.59 
2683.08 -2819.85 1254.14 
2675.39 -2813.41 1252.86 
2672.24 -2810.17 1252.04 
2674.9 -2812.9 1252.64 
2670.98 -2808.83 1251.83 
2669.16 -2807.01 1250.07 
2670.13 -2807.99 1250.75 
2670.82 -2808.7 1251.24 
2666.58 -2804.19 1248.85 
2668.58 -2806.3 1249.58 
2662.05 -2798.45 1245.72 
2660.59 -2796.21 1243.53 
2663.03 -2799.97 1246.63 
2658.65 -2794.11 1240.93 
2657.99 -2793.42 1240.37 
2659.28 -2794.82 1241.97 
2657.55 -2792.93 1239.99 
2665.01 -2802.27 1247.56 
2664.09 -2801.13 1246.94 
2666.23 -2803.7 1248.37 
2657.91 -2792.65 1239.04 
2658.41 -2793.03 1239.15 
2712.01 -2836.28 1270.21 
2710.82 -2835.61 1271.43 
2709.86 -2835.12 1270.6 
2713 -2836.85 1268.83 
2714.6 -2837.63 1269.27 
2706.39 -2833.07 1267.92 
2704.63 -2831.98 1267.61 
2708.68 -2834.42 1270.23 
2708.37 -2834.29 1268.12 
2703.19 -2831.07 1266.91 
2701.43 -2829.84 1266.65 
2700.16 -2828.94 1266.05 
2699.55 -2828.58 1265.37 
2699.06 -2828.34 1264.67 
2700.02 -2829.19 1263.23 
2699.27 -2828.91 1261.83 
2698.53 -2828.79 1259.8 
2700.39 -2829.32 1264.01 
2698.18 -2828.95 1257.55 
2696.72 -2828.19 1256.56 
2695.56 -2827.56 1256 
2694.52 -2826.94 1256.05 
2690.74 -2825.11 1254.86 
2688.66 -2823.72 1254.85 
2689.68 -2824.46 1254.78 
2692.88 -2826.13 1255.7 
2691.85 -2825.65 1255.33 
2691.56 -2825.57 1254.89 
2687.79 -2823.14 1254.61 
2677.95 -2815.77 1252.93 
2684.29 -2820.69 1254.04 
2675.84 -2813.88 1252.76 
2676.84 -2814.8 1252.75 
2673.73 -2811.75 1252.14 
2674.54 -2812.54 1252.37 
2672.73 -2810.72 1251.74 
2671.48 -2809.44 1251.33 
2672.33 -2810.33 1251.34 
2667.73 -2805.39 1249.27 
2669.05 -2806.66 1249.49 
2669.88 -2807.64 1250.2 
2670.66 -2808.49 1250.71 
2661.01 -2796.69 1243.96 
2661.23 -2797.03 1244.27 
2661.91 -2798.1 1245.39 
2659.87 -2795.28 1242.36 
2666.03 -2803.28 1247.88 
2658.88 -2793.34 1239.23 
2658.88 -2793.99 1240.44 
2710.94 -2835.81 1268.99 
2711.95 -2836.38 1267.91 
2709.83 -2835.17 1268.09 
2714.06 -2837.49 1267.11 
2712.91 -2836.92 1266.91 
2706.98 -2833.5 1266.17 
2705.19 -2832.43 1265.37 
2704.1 -2831.74 1265.34 
2708.85 -2834.6 1266.46 
2702.13 -2830.42 1265.61 
2703.06 -2831.1 1264.38 
2700.82 -2829.46 1265.26 
2700.57 -2829.35 1264.6 
2701.45 -2830.13 1262.9 
2701 -2830.03 1262.03 
2700.19 -2829.77 1260.79 
2699.58 -2829.74 1258.65 
2701.83 -2830.31 1263.39 
2699.23 -2829.88 1256.53 
2697.7 -2828.99 1255.78 
2696.3 -2828.17 1255.34 
2694.66 -2827.15 1255.42 
2695.41 -2827.66 1255.05 
2693.04 -2826.32 1255.24 
2689.14 -2824.13 1254.55 
2692.71 -2826.24 1254.81 
2685.96 -2821.82 1254.33 
2687.6 -2823.08 1254.14 
2688.52 -2823.74 1254.27 
2681.46 -2818.58 1253.78 
2680.35 -2817.69 1253.51 
2679.02 -2816.63 1253.02 
2675.28 -2813.28 1252.37 
2676.46 -2814.49 1252.5 
2673.25 -2811.22 1251.26 
2674.02 -2812.01 1251.64 
2670.26 -2807.99 1250.18 
2671.17 -2809.04 1250.85 
2661.76 -2797.72 1244.92 
2662.6 -2798.9 1245.62 
2660.73 -2795.92 1242.81 
2659.72 -2794.97 1241.75 
2664.59 -2801.5 1246.8 
2667.3 -2804.85 1248.91 
2665.89 -2802.91 1247.49 
2666.68 -2803.98 1248.25 
2668.79 -2806.27 1249.1 
2659.34 -2794.35 1240.73 
2711.24 -2836.06 1267.1 
2712.37 -2836.67 1266.01 
2710.53 -2835.61 1266.31 
2714.89 -2837.92 1265.89 
2713.75 -2837.39 1265.74 
2707.21 -2833.63 1264.34 
2705.71 -2832.78 1264.44 
2704.03 -2831.78 1263.6 
2704.77 -2832.23 1263.16 
2709.19 -2834.83 1265 
2702.06 -2830.42 1264.16 
2702.89 -2831.06 1263.15 
2702.31 -2830.73 1262.47 
2701.9 -2830.56 1261.99 
2701.44 -2830.51 1260.8 
2700.67 -2830.24 1259.81 
2700.06 -2830.28 1257.3 
2698.79 -2829.82 1255.24 
2699.65 -2830.37 1255.28 
2697.31 -2828.88 1255.05 
2696.09 -2828.15 1254.67 
2694.41 -2827.16 1254.71 
2695.19 -2827.67 1254.35 
2690.56 -2825.07 1254.39 
2691.14 -2825.45 1254.24 
2689.54 -2824.46 1254.18 
2691.69 -2825.81 1254.05 
2692.61 -2826.33 1254.09 
2688.98 -2824.12 1253.97 
2682.22 -2819.22 1253.79 
2682.95 -2819.8 1253.65 
2677.63 -2815.51 1252.57 
2674.86 -2812.77 1251.85 
2675.71 -2813.68 1252.2 
2670.12 -2807.68 1249.76 
2671.24 -2808.93 1250.26 
2671.78 -2809.6 1250.69 
2672.26 -2810.11 1250.79 
2673.57 -2811.36 1250.89 
2661.75 -2797.44 1244.48 
2662.4 -2798.46 1245.29 
2660.49 -2795.54 1242.26 
2661.3 -2796.52 1243.4 
2665.34 -2802.21 1247.03 
2668.47 -2805.86 1248.91 
2659.6 -2793.96 1239.7 
2711.52 -2836.2 1265.55 
2713.46 -2837.24 1264.68 
2712.42 -2836.7 1264.82 
2710.51 -2835.58 1264.08 
2714.48 -2837.73 1264.63 
2716.38 -2838.63 1264.91 
2708.67 -2834.45 1263.09 
2705.8 -2832.82 1263.25 
2707.28 -2833.63 1262.31 
2703.86 -2831.72 1262.64 
2705.75 -2832.76 1262.08 
2704.71 -2832.22 1261.9 
2703.17 -2831.3 1262.41 
2702.97 -2831.23 1261.73 
2702.27 -2830.89 1261.2 
2701.84 -2830.86 1259.93 
2700.87 -2830.56 1258.46 
2700.44 -2830.72 1256.06 
2699.26 -2830.23 1254.56 
2698.13 -2829.51 1254.64 
2700.38 -2830.91 1254.58 
2699.96 -2830.73 1254.08 
2696.69 -2828.55 1254.53 
2695.8 -2828.05 1254.14 
2694.22 -2827.13 1254.2 
2694.94 -2827.62 1253.78 
2689.84 -2824.7 1253.86 
2692.09 -2826.09 1253.78 
2693.64 -2826.89 1253.82 
2687.72 -2823.21 1253.65 
2681.11 -2818.33 1253.36 
2679.9 -2817.35 1253.11 
2684.1 -2820.61 1253.53 
2685.43 -2821.52 1253.86 
2686.76 -2822.51 1253.64 
2676.98 -2814.89 1252.21 
2678.06 -2815.88 1252.41 
2674.47 -2812.32 1251.33 
2675.3 -2813.2 1251.81 
2672.65 -2810.41 1250.54 
2673.24 -2811.01 1250.71 
2663.53 -2800.1 1246.18 
2661.18 -2796.01 1242.51 
2661.61 -2796.96 1243.81 
2667.37 -2804.39 1248.12 
2660.54 -2795.24 1241.56 
2711.74 -2836.23 1263.58 
2713.72 -2837.33 1262.97 
2712.74 -2836.79 1263.06 
2710.68 -2835.57 1262.31 
2714.75 -2837.79 1262.71 
2716.04 -2838.42 1263.52 
2709.32 -2834.78 1261.85 
2707.73 -2833.88 1261.18 
2703.94 -2831.82 1261.81 
2706.42 -2833.16 1260.92 
2705.19 -2832.5 1260.81 
2702.94 -2831.33 1260.71 
2703.96 -2831.89 1260.99 
2702.64 -2831.35 1259.46 
2701.42 -2830.95 1258.02 
2701.09 -2831.12 1255.74 
2699.3 -2830.36 1253.97 
2701.26 -2831.48 1254.26 
2700.87 -2831.32 1253.75 
2700.17 -2830.93 1253.56 
2695.72 -2828.09 1253.63 
2690.87 -2825.35 1253.78 
2690.27 -2825 1253.69 
2688.18 -2823.54 1253.32 
2688.98 -2824.19 1253.41 
2681.88 -2818.98 1253.47 
2684.6 -2820.97 1253.52 
2686.02 -2821.97 1253.68 
2679.39 -2816.96 1252.59 
2680.49 -2817.86 1252.97 
2675.17 -2812.87 1251.15 
2675.91 -2813.72 1251.58 
2662.3 -2797.85 1244.65 
2663.14 -2799.34 1245.61 
2661.64 -2796.29 1242.61 
2670.27 -2807.56 1249.29 
2671.35 -2808.75 1249.68 
2668.17 -2805.13 1248.2 
2669.06 -2806.07 1248.47 
2672.56 -2810.07 1250.1 
2661.52 -2795.65 1241.44 
2711.95 -2836.3 1261.7 
2713.1 -2836.9 1261.3 
2714.32 -2837.53 1260.93 
2711.12 -2835.82 1261.16 
2715.91 -2838.25 1261.24 
2709.73 -2835.06 1260.92 
2708.56 -2834.39 1260.25 
2707.27 -2833.73 1259.67 
2705.68 -2832.86 1259.78 
2703.86 -2831.9 1260 
2704 -2832.12 1258.79 
2702.72 -2831.6 1258.01 
2702.1 -2831.61 1256.08 
2702.28 -2832 1254.53 
2697.85 -2829.45 1253.87 
2702.29 -2832.16 1253.65 
2701.36 -2831.69 1253.28 
2700.51 -2831.21 1253.1 
2696.56 -2828.56 1253.76 
2694.81 -2827.6 1253.13 
2691.36 -2825.7 1253.52 
2693.52 -2826.9 1253.26 
2692.74 -2826.52 1253.19 
2691.87 -2826.03 1253.32 
2689.77 -2824.75 1253.28 
2682.35 -2819.39 1253.26 
2683.85 -2820.44 1253.12 
2678.57 -2816.26 1252.26 
2673.84 -2811.32 1250.3 
2674.72 -2812.23 1250.65 
2676.5 -2814.15 1251.47 
2677.48 -2815.21 1251.82 
2662.64 -2798.22 1244.73 
2663.04 -2798.95 1245.2 
2664.43 -2800.84 1246.13 
2662.35 -2796.42 1242.27 
2662.04 -2796.09 1241.89 
2662.68 -2796.93 1242.88 
2662.15 -2797.09 1243.56 
2662.51 -2797.51 1243.96 
2666.87 -2803.58 1247.47 
2669.91 -2806.81 1248.63 
2715.81 -2838.22 1259.64 
2712.4 -2836.54 1260.56 
2713.67 -2837.2 1259.99 
2710.51 -2835.57 1260.11 
2711.61 -2836.19 1259.89 
2709.49 -2835.07 1259.1 
2708.15 -2834.36 1258.51 
2705.26 -2832.73 1259.04 
2707.06 -2833.79 1258.27 
2704.68 -2832.66 1257.24 
2705.92 -2833.25 1257.69 
2703.45 -2832.27 1256.22 
2703.45 -2832.58 1254.55 
2703.49 -2832.77 1253.53 
2699.94 -2830.91 1252.99 
2699.09 -2830.35 1253.4 
2702.86 -2832.52 1252.96 
2703.85 -2833.04 1252.79 
2702 -2832.09 1252.85 
2701.14 -2831.61 1252.71 
2695.35 -2827.9 1252.96 
2696.16 -2828.35 1253.21 
2694.36 -2827.35 1252.96 
2690.32 -2825.1 1253.19 
2690.83 -2825.41 1253.25 
2681.61 -2818.76 1252.95 
2682.94 -2819.82 1253.02 
2688.41 -2823.73 1252.77 
2689.11 -2824.33 1252.9 
2679.01 -2816.61 1252.22 
2676.97 -2814.5 1251.42 
2676.32 -2813.74 1250.99 
2677.97 -2815.61 1251.73 
2662.92 -2797.9 1244.17 
2663.11 -2798.37 1244.48 
2664.15 -2800.28 1245.76 
2665.31 -2801.61 1246.27 
2666.62 -2803.15 1247.11 
2663 -2797.5 1243.53 
2668.35 -2804.96 1247.75 
2671.43 -2808.43 1249.08 
2672.54 -2809.69 1249.62 
2674.71 -2811.96 1250.19 
2720.34 -2840.58 1256.63 
2718.35 -2839.49 1256.93 
2716.69 -2838.66 1257.8 
2714.5 -2837.64 1258.66 
2712.9 -2836.83 1259.35 
2710.74 -2835.81 1258.82 
2711.98 -2836.43 1258.41 
2709.86 -2835.42 1257.43 
2708.84 -2834.88 1256.94 
2707.67 -2834.3 1256.65 
2706.69 -2833.87 1256.02 
2705.17 -2833.28 1255.15 
2704.92 -2833.51 1253.42 
2705.03 -2833.69 1252.63 
2699.36 -2830.58 1252.95 
2698.13 -2829.72 1253.26 
2696.87 -2828.82 1253.3 
2703.66 -2833 1252.22 
2704.57 -2833.52 1252.09 
2705.63 -2834.07 1252.09 
2702.78 -2832.54 1252.28 
2701.91 -2832.07 1252.26 
2695.84 -2828.18 1252.85 
2693.64 -2826.98 1252.7 
2692.12 -2826.22 1252.9 
2685.37 -2821.51 1253.3 
2686.26 -2822.15 1253.13 
2687.61 -2823.09 1252.74 
2675.96 -2813.32 1250.73 
2677.65 -2814.97 1251.2 
2679.03 -2816.45 1251.63 
2679.59 -2817.08 1252.13 
2663.51 -2798.02 1243.8 
2663.55 -2799.31 1245.22 
2663.7 -2799.05 1244.8 
2673.9 -2811.06 1249.82 
2669.94 -2806.47 1248.14 
2671.32 -2807.92 1248.67 
2672.23 -2809.22 1249.36 
2675.67 -2812.93 1250.46 
2721.36 -2841.13 1255.1 
2719.46 -2840.14 1255.04 
2717.6 -2839.13 1256.12 
2715.49 -2838.09 1257.21 
2713.39 -2837.12 1258 
2711.08 -2836.04 1257.27 
2712.38 -2836.69 1257.11 
2711.27 -2836.2 1256.11 
2710.02 -2835.62 1255.89 
2708.7 -2834.95 1255.44 
2706.89 -2834.28 1254.34 
2706.73 -2834.48 1252.92 
2707.15 -2834.8 1252.04 
2705.41 -2834.03 1251.59 
2706.57 -2834.59 1251.49 
2707.8 -2835.18 1251.31 
2691.52 -2825.89 1252.92 
2694.78 -2827.58 1252.38 
2682.45 -2819.37 1252.65 
2686.6 -2822.38 1252.82 
2689.79 -2824.81 1252.54 
2680.79 -2818.03 1252.43 
2677.35 -2814.56 1250.98 
2678.87 -2816.07 1251.26 
2680.21 -2817.54 1252.01 
2664.03 -2798.66 1244.12 
2664.63 -2798.53 1243.49 
2664.4 -2800.02 1245.29 
2664.64 -2799.34 1244.38 
2664.97 -2800.08 1244.89 
2666.81 -2802.94 1246.64 
2670.4 -2806.67 1247.96 
2669.35 -2804.85 1246.7 
2668.07 -2803.66 1246.39 
2672.26 -2808.83 1248.91 
2673.41 -2810.32 1249.44 
2674.74 -2811.62 1249.65 
2721.06 -2841.04 1253.6 
2718.55 -2839.66 1254.54 
2716.68 -2838.7 1255.77 
2714.38 -2837.61 1256.71 
2712.64 -2836.89 1256.03 
2711.85 -2836.59 1255 
2710.54 -2835.99 1254.46 
2708.6 -2835.21 1253.61 
2708.66 -2835.49 1251.94 
2709.51 -2836.02 1251.27 
2699.95 -2830.98 1252.37 
2700.72 -2831.44 1252.21 
2698.03 -2829.69 1252.74 
2707.61 -2835.13 1250.83 
2708.99 -2835.85 1250.7 
2710.01 -2836.36 1250.8 
2704.5 -2833.61 1251.31 
2703.64 -2833.14 1251.41 
2696.36 -2828.56 1252.71 
2690.51 -2825.27 1252.68 
2691.02 -2825.59 1252.7 
2683.76 -2820.26 1252.55 
2685.11 -2821.24 1252.95 
2686.97 -2822.61 1252.53 
2689.3 -2824.43 1252.37 
2681.63 -2818.67 1252.44 
2678.48 -2815.54 1250.99 
2679.81 -2817 1251.55 
2680.72 -2817.83 1251.81 
2679.6 -2816.55 1251.12 
2681.22 -2818.29 1252 
2682.16 -2819.05 1252.29 
2665.02 -2798.94 1243.61 
2666.07 -2801.06 1245.07 
2665.48 -2799.52 1243.85 
2666.86 -2802.31 1245.83 
2676.32 -2813.22 1250.21 
2670.52 -2806.04 1247.11 
2670.49 -2805.21 1246.09 
2669.26 -2804.04 1245.75 
2671.79 -2807.18 1247.42 
2671.99 -2808.15 1248.39 
2667.81 -2802.58 1245.36 
2673.52 -2810.03 1249.02 
2675.97 -2812.71 1249.91 
2723.11 -2842.06 1252.83 
2721.98 -2841.55 1252.12 
2719.94 -2840.45 1253.26 
2718.59 -2839.77 1253.12 
2717.64 -2839.23 1254.34 
2715.98 -2838.42 1255.13 
2714.17 -2837.6 1255.72 
2726.88 -2844.05 1251.38 
2713.19 -2837.26 1254.83 
2712.24 -2836.94 1253.85 
2710.51 -2836.25 1252.62 
2710.99 -2836.79 1251.12 
2711.47 -2837.16 1250.31 
2702.44 -2832.39 1251.53 
2699.15 -2830.5 1252.35 
2706.12 -2834.46 1250.62 
2708.71 -2835.77 1250.25 
2710.06 -2836.5 1250.2 
2710.98 -2836.95 1250.21 
2705.04 -2833.93 1250.85 
2703.99 -2833.36 1251.11 
2696.95 -2828.97 1252.46 
2698.43 -2829.99 1252.34 
2695.8 -2828.16 1252.19 
2692.32 -2826.3 1252.37 
2693.5 -2826.91 1252.09 
2687.88 -2823.21 1252.16 
2688.57 -2823.81 1252.26 
2679.14 -2816.01 1250.84 
2681.92 -2818.7 1251.82 
2680.76 -2817.56 1251.32 
2681.36 -2818.1 1251.5 
2680.33 -2817.1 1251.14 
2682.71 -2819.34 1252 
2683.41 -2819.88 1252.11 
2666.53 -2800.77 1244.37 
2677.78 -2814.48 1250.37 
2671.9 -2806.68 1246.68 
2669.96 -2804.42 1245.49 
2668.88 -2803.4 1245.32 
2672.52 -2807.76 1247.54 
2673.15 -2807.61 1246.81 
2672.75 -2808.95 1248.64 
2667.71 -2802 1244.76 
2674.58 -2811.05 1249.04 
2675.65 -2812.27 1249.64 
2676.47 -2812.82 1249.54 
2677.24 -2813.73 1249.95 
2667.89 -2801.33 1243.66 
2730.8 -2846.24 1253.71 
2725.74 -2843.46 1250.6 
2724.08 -2842.58 1251.35 
2726.77 -2844.03 1250.01 
2723.05 -2842.11 1250.9 
2720.71 -2840.92 1251.97 
2719.26 -2840.2 1252.02 
2717.65 -2839.4 1252.52 
2716.89 -2838.94 1253.67 
2714.96 -2838.05 1254.49 
2727.62 -2844.53 1249.9 
2728.55 -2845.03 1250.99 
2713.8 -2837.64 1253.64 
2711.72 -2836.98 1251.99 
2712.8 -2837.45 1251.93 
2712.41 -2837.54 1250.42 
2712.52 -2837.72 1249.47 
2713.29 -2838.02 1249.66 
2706.78 -2834.8 1250.21 
2708.15 -2835.49 1250.02 
2709.47 -2836.23 1249.76 
2710.76 -2836.89 1249.67 
2711.72 -2837.36 1249.47 
2705.75 -2834.3 1250.31 
2699.43 -2830.69 1251.92 
2691.65 -2825.94 1252.43 
2686.29 -2822.11 1252.46 
2690.44 -2825.14 1252.13 
2691.04 -2825.55 1252.11 
2682.49 -2819.01 1251.67 
2684.58 -2820.67 1252.16 
2684.95 -2821.02 1252.42 
2666.43 -2800.27 1243.88 
2678.77 -2815.29 1250.37 
2670.57 -2804.83 1245.34 
2669.63 -2803.89 1245.11 
2672.18 -2806.42 1246.05 
2673.24 -2807.28 1246.27 
2668.62 -2802.89 1244.92 
2673.05 -2808.24 1247.63 
2673.6 -2808.06 1246.96 
2673.38 -2808.81 1247.92 
2674.12 -2809.39 1247.82 
2667.38 -2801.15 1244.04 
2675.14 -2810.51 1248.07 
2675 -2811.18 1248.8 
2677.58 -2813.58 1249.44 
2677.08 -2812.43 1248.54 
2676.32 -2811.87 1248.57 
2678.4 -2814.7 1250.04 
2668.25 -2802.13 1244.33 
2669.07 -2802.97 1244.43 
2669.67 -2803.41 1244.33 
2670.2 -2803.79 1244.04 
2731.51 -2846.61 1252.31 
2730.08 -2845.87 1250.92 
2726.96 -2844.18 1248.69 
2725.51 -2843.4 1249.81 
2728.15 -2844.78 1248.54 
2724.86 -2843.12 1249.43 
2723.26 -2842.39 1249.58 
2721.54 -2841.42 1250.89 
2720 -2840.69 1250.99 
2718.19 -2839.75 1251.61 
2715.85 -2838.59 1253.11 
2716.7 -2839.1 1251.86 
2728.9 -2845.19 1249.21 
2714.35 -2838.09 1252 
2713.99 -2838.22 1250.32 
2714.64 -2838.66 1249.23 
2713.94 -2838.4 1248.71 
2714.49 -2838.66 1248.68 
2700.45 -2831.31 1251.71 
2701.71 -2831.96 1251.3 
2707.63 -2835.25 1249.82 
2708.83 -2835.89 1249.56 
2709.96 -2836.5 1249.28 
2711.05 -2837.04 1249.21 
2712.14 -2837.57 1248.89 
2713 -2837.97 1248.81 
2703.31 -2832.94 1250.89 
2696.32 -2828.55 1252.11 
2695.21 -2827.78 1251.8 
2689.06 -2824.15 1252.03 
2689.73 -2824.57 1251.87 
2684.18 -2820.15 1251.67 
2682.29 -2818.67 1251.33 
2683.36 -2819.42 1251.37 
2685.57 -2821.42 1252.24 
2679.66 -2815.97 1250.35 
2680.13 -2816.56 1250.64 
2673.94 -2807.83 1246.34 
2671.75 -2805.89 1245.7 
2669.35 -2803.44 1244.81 
2674.1 -2808.65 1247.11 
2674.5 -2808.42 1246.54 
2675.2 -2809.81 1247.34 
2675.87 -2811.24 1248.21 
2676.21 -2810.75 1247.32 
2678.95 -2815.07 1249.94 
2678.08 -2813.26 1248.65 
2678.54 -2812.8 1247.63 
2677.56 -2811.99 1247.52 
2676.75 -2811.36 1247.54 
2669.83 -2803.78 1244.66 
2670.38 -2804.17 1244.34 
2670.77 -2804.25 1243.76 
2730.63 -2846.11 1248.9 
2726.3 -2843.91 1248.13 
2727.51 -2844.58 1246.94 
2728.74 -2845.17 1246.95 
2730.1 -2845.84 1247.55 
2724.41 -2843.09 1248.23 
2721.54 -2841.58 1249.9 
2721.88 -2842 1248.23 
2722.69 -2842.47 1247.38 
2725.6 -2843.66 1247.62 
2719.29 -2840.41 1250.54 
2717.05 -2839.52 1250.06 
2715.58 -2838.83 1250.68 
2715.53 -2839.06 1249.14 
2715.82 -2839.39 1247.8 
2716.38 -2839.61 1248.04 
2714.72 -2838.88 1247.76 
2715.5 -2839.32 1247.28 
2710.61 -2836.84 1248.84 
2711.61 -2837.32 1248.67 
2713.96 -2838.46 1248.11 
2706.52 -2834.65 1249.75 
2708.46 -2835.68 1249.25 
2704.91 -2833.86 1250.27 
2697.01 -2828.97 1251.85 
2698.19 -2829.8 1251.82 
2692.57 -2826.37 1251.82 
2693.82 -2827.01 1251.52 
2687.16 -2822.59 1251.95 
2688.68 -2823.72 1251.71 
2691.58 -2825.86 1251.91 
2681.37 -2817.6 1250.72 
2685.45 -2821.15 1251.76 
2683.86 -2819.65 1251.21 
2684.85 -2820.59 1251.51 
2682.89 -2818.87 1251.02 
2686.74 -2822.24 1251.92 
2680.81 -2816.96 1250.45 
2671.47 -2805.44 1245.31 
2670.37 -2804.41 1244.8 
2671.14 -2805.01 1244.94 
2672.72 -2806.57 1245.72 
2673.71 -2807.2 1245.67 
2675.41 -2809.44 1246.73 
2676.4 -2810.55 1246.87 
2680.06 -2816 1249.99 
2678.98 -2814.24 1248.98 
2679.51 -2813.68 1247.82 
2678.5 -2812.42 1247.1 
2677.63 -2811.69 1246.99 
2679.91 -2813.35 1246.99 
2680.23 -2813.84 1247.35 
2671.16 -2804.8 1244.45 
2726.44 -2844.08 1246.68 
2727.1 -2844.45 1245.76 
2728.16 -2844.98 1245.36 
2730.06 -2845.9 1245.45 
2731.81 -2846.73 1245.82 
2723.73 -2842.99 1246.84 
2720.48 -2841.25 1248.92 
2719.37 -2841 1247.81 
2720.34 -2841.49 1247.2 
2721.53 -2842.08 1246.66 
2724.89 -2843.51 1246.41 
2718.53 -2840.36 1249.11 
2717.26 -2839.95 1248.37 
2717.67 -2840.35 1247.39 
2718.3 -2840.58 1247.6 
2716.26 -2839.8 1246.64 
2716.93 -2840.13 1246.8 
2712.57 -2837.79 1248.11 
2713.44 -2838.21 1247.97 
2710.06 -2836.52 1248.39 
2695.96 -2828.22 1251.64 
2699.63 -2830.76 1251.33 
2700.62 -2831.36 1251.05 
2688.16 -2823.23 1251.58 
2690.41 -2824.92 1251.43 
2692 -2826.05 1251.69 
2682.1 -2818.19 1250.83 
2687.6 -2822.75 1251.55 
2685.89 -2821.36 1251.47 
2683.78 -2819.23 1250.74 
2684.66 -2820.06 1250.99 
2685.31 -2820.76 1251.21 
2681.81 -2817.71 1250.48 
2674.41 -2807.99 1246.01 
2675.61 -2809.31 1246.29 
2672.23 -2806.03 1245.39 
2676.64 -2810.37 1246.29 
2681.27 -2816.97 1250.04 
2679.78 -2814.73 1248.82 
2680.32 -2814.39 1247.93 
2681.4 -2814.72 1247.36 
2680.78 -2815.55 1248.85 
2678.36 -2812.06 1246.65 
2677.63 -2811.43 1246.56 
2676.98 -2810.98 1246.73 
2671.67 -2805.17 1244.45 
2733.24 -2847.45 1245.07 
2734.58 -2848.11 1245.36 
2725.89 -2843.96 1245.75 
2726.65 -2844.29 1245.08 
2727.41 -2844.65 1244.66 
2729.09 -2845.49 1244.41 
2731.38 -2846.59 1244.04 
2722.66 -2842.64 1246.08 
2719.23 -2841.1 1246.81 
2720.84 -2841.81 1246.38 
2723.76 -2843.14 1245.75 
2717.68 -2840.49 1246.57 
2718.31 -2840.76 1246.55 
2712 -2837.51 1247.79 
2714.07 -2838.56 1247.33 
2714.61 -2838.89 1247.05 
2715.85 -2839.63 1246.19 
2703.38 -2832.93 1250.34 
2698.48 -2829.95 1251.38 
2697.94 -2829.49 1251.27 
2700.02 -2830.97 1251.07 
2701.89 -2832 1250.57 
2692.84 -2826.43 1251.35 
2695.25 -2827.73 1251.24 
2689.37 -2824.19 1251.53 
2691.12 -2825.45 1251.51 
2686.96 -2822.06 1251.3 
2688.42 -2823.11 1251 
2686.19 -2821.3 1251.06 
2682.85 -2818.4 1250.46 
2674.95 -2808.36 1245.78 
2682.63 -2818.03 1250.2 
2681.72 -2815.16 1247.63 
2683.11 -2815.76 1247.21 
2681.69 -2815.97 1248.63 
2734.36 -2848.08 1243.64 
2733.02 -2847.37 1243.52 
2738.42 -2850.15 1245.92 
2737.13 -2849.54 1244.82 
2735.6 -2848.68 1244.62 
2725 -2843.67 1245.19 
2726.16 -2844.14 1244.5 
2728.07 -2844.98 1244.09 
2726.9 -2844.43 1244.18 
2729.99 -2845.96 1243.56 
2731.9 -2846.84 1242.94 
2722.02 -2842.41 1245.74 
2720.08 -2841.52 1246.05 
2722.9 -2842.83 1245.4 
2716.83 -2840.14 1246.18 
2718.41 -2840.83 1245.99 
2719.16 -2841.15 1245.89 
2713.37 -2838.21 1247.19 
2715.03 -2839.12 1246.32 
2706.06 -2834.32 1249.31 
2707.81 -2835.26 1248.89 
2704.38 -2833.46 1249.87 
2696.45 -2828.48 1251.61 
2697.21 -2828.96 1251.32 
2702.65 -2832.42 1250.27 
2694.44 -2827.24 1251.08 
2693.92 -2826.9 1250.96 
2695.7 -2827.9 1251.09 
2692.31 -2826.14 1251.28 
2684.75 -2819.72 1250.52 
2689.52 -2824.04 1251.06 
2690.25 -2824.61 1251.06 
2689.92 -2824.08 1250.63 
2685.65 -2820.6 1250.72 
2687.27 -2822 1250.87 
2684.48 -2819.24 1250.19 
2676.07 -2809.46 1245.84 
2677.35 -2810.96 1246.2 
2676.98 -2810.4 1245.88 
2684.34 -2818.84 1249.86 
2683.15 -2816.47 1248.11 
2684.36 -2817.35 1248.23 
2682.73 -2817.09 1249.11 
2684.07 -2818.04 1249.19 
2684.82 -2818.5 1249.14 
2678.02 -2811.4 1245.92 
2733.89 -2847.86 1243.06 
2736.28 -2849.23 1243.27 
2735.7 -2848.96 1242.63 
2733.07 -2847.38 1242.58 
2739.53 -2850.82 1244.55 
2738.41 -2850.29 1244 
2738.03 -2850.15 1242.98 
2744.31 -2853.1 1249.15 
2723.92 -2843.28 1244.93 
2724.76 -2843.61 1244.37 
2726.09 -2844.1 1243.96 
2728.72 -2845.31 1243.49 
2730.81 -2846.31 1242.72 
2732.32 -2846.98 1241.96 
2721.42 -2842.17 1245.56 
2722.32 -2842.61 1245.11 
2717.58 -2840.47 1245.93 
2719.44 -2841.28 1245.42 
2720.55 -2841.78 1245.47 
2718.67 -2840.97 1245.41 
2714.46 -2838.76 1246.18 
2716.12 -2839.77 1245.59 
2709.43 -2836.1 1248.14 
2711.45 -2837.18 1247.4 
2712.9 -2837.95 1246.79 
2699.82 -2830.73 1250.65 
2700.73 -2831.31 1250.54 
2702.17 -2832.07 1250.07 
2703.69 -2832.95 1249.72 
2690.95 -2825.15 1251.04 
2691.65 -2825.7 1251.22 
2695.41 -2827.57 1250.71 
2690.79 -2824.61 1250.41 
2686.6 -2821.25 1250.59 
2688.97 -2823.11 1250.4 
2685.36 -2819.75 1250.07 
2685.52 -2819.18 1249.34 
2685.78 -2818.26 1248.05 
2744.24 -2853.03 1247.25 
2743.94 -2852.92 1245.51 
2742.11 -2851.97 1245.54 
2741.09 -2851.56 1244.31 
2734.65 -2848.33 1242.28 
2737.67 -2850 1242.41 
2736.8 -2849.55 1242.08 
2733.43 -2847.59 1241.87 
2739.46 -2850.93 1242.82 
2741.01 -2851.69 1242.87 
2739.16 -2850.79 1242.32 
2747.3 -2854.48 1246.91 
2746.22 -2853.96 1247.39 
2745.34 -2853.56 1248.27 
2722.84 -2842.86 1244.73 
2724.08 -2843.36 1244.15 
2729.17 -2845.51 1242.7 
2727.58 -2844.77 1243.44 
2726.68 -2844.33 1243.35 
2731.12 -2846.41 1241.83 
2732.14 -2846.84 1241.11 
2721.56 -2842.29 1245.01 
2715.64 -2839.45 1245.39 
2716.92 -2840.21 1245.53 
2717.89 -2840.63 1245.34 
2705.44 -2833.91 1249.1 
2698.65 -2829.86 1250.69 
2702.6 -2832.25 1249.77 
2704.14 -2833.13 1249.36 
2693.67 -2826.55 1250.54 
2696.05 -2827.94 1250.69 
2686.23 -2820.59 1250.2 
2691.41 -2825.13 1250.51 
2691.45 -2824.83 1250.09 
2687.41 -2821.63 1250.3 
2688.42 -2822.38 1250.13 
2689.6 -2823.39 1250.12 
2690.73 -2824.14 1249.91 
2686.2 -2819.71 1249.38 
2677.58 -2810.82 1245.7 
2686.77 -2819.14 1248.26 
2744.98 -2853.35 1246.3 
2744.94 -2853.4 1244.91 
2743.88 -2853 1243.47 
2742.73 -2852.45 1243.94 
2735.43 -2848.78 1241.61 
2738.74 -2850.6 1241.75 
2737.53 -2849.92 1241.48 
2733.69 -2847.73 1241.16 
2740.74 -2851.61 1242.16 
2742.48 -2852.46 1242.47 
2740.11 -2851.32 1241.78 
2747.26 -2854.39 1244.88 
2748.49 -2854.87 1243.86 
2746.09 -2853.9 1245.59 
2755.86 -2857.94 1242.83 
2753.89 -2857.09 1243.46 
2755.19 -2857.69 1242.74 
2722.34 -2842.64 1244.51 
2725.52 -2843.86 1243.42 
2730.47 -2846.05 1241.43 
2728.64 -2845.23 1242.37 
2732.92 -2847.18 1239.95 
2731.07 -2846.24 1240.41 
2720.96 -2842 1244.72 
2716.13 -2839.72 1244.92 
2719.16 -2841.17 1244.81 
2707.12 -2834.7 1248.41 
2709 -2835.8 1247.88 
2709.86 -2836.26 1247.58 
2714.08 -2838.45 1245.8 
2701.19 -2831.45 1250.08 
2700.18 -2830.75 1250.14 
2703.26 -2832.5 1249.32 
2704.51 -2833.27 1249.02 
2696.48 -2828.26 1250.99 
2692.98 -2826.21 1250.59 
2692.08 -2825.79 1250.78 
2694.78 -2827.05 1250.35 
2687.02 -2821.03 1249.99 
2692.02 -2825.42 1250.23 
2688.64 -2822.14 1249.68 
2689.42 -2822.87 1249.74 
2690.41 -2823.62 1249.61 
2691.59 -2824.46 1249.47 
2686.96 -2820.06 1249.05 
2687.98 -2820.01 1248.12 
2745.92 -2853.87 1244.02 
2744.5 -2853.28 1243.05 
2743.5 -2852.92 1242.07 
2736.12 -2849.1 1240.95 
2739.12 -2850.84 1241.25 
2740.56 -2851.55 1241.19 
2738.16 -2850.26 1241.04 
2734.84 -2848.32 1240.39 
2741.7 -2852.08 1241.55 
2742.31 -2852.39 1241.92 
2746.67 -2854.23 1243.11 
2750.19 -2855.53 1242.42 
2748.35 -2854.84 1242.04 
2746.81 -2854.34 1242.2 
2757.44 -2858.45 1242.14 
2756.65 -2858.23 1241.04 
2755.87 -2857.99 1240.75 
2754.14 -2857.25 1241.97 
2755.28 -2857.8 1240.6 
2753.19 -2856.81 1241.78 
2723.64 -2843.14 1243.68 
2729.26 -2845.43 1241.56 
2727.29 -2844.56 1242.53 
2726.3 -2844.08 1242.58 
2735.02 -2848.22 1238.95 
2733.37 -2847.21 1237.95 
2731.88 -2846.51 1238.9 
2730.54 -2845.77 1239.25 
2729.68 -2845.5 1240.53 
2716.93 -2840.17 1244.88 
2717.73 -2840.52 1244.8 
2721.01 -2842 1244.21 
2707.75 -2835.06 1248.12 
2706.3 -2834.13 1248.28 
2711 -2836.77 1246.82 
2711.7 -2837.21 1246.69 
2712.56 -2837.6 1246.25 
2714.43 -2838.61 1245.44 
2715.54 -2839.29 1244.76 
2697.52 -2828.93 1250.63 
2696.93 -2828.46 1250.84 
2701.57 -2831.58 1249.78 
2703.8 -2832.71 1248.92 
2705.07 -2833.49 1248.62 
2694.18 -2826.64 1250.21 
2695.67 -2827.53 1250.25 
2687.79 -2820.93 1249.2 
2688.77 -2821.38 1248.84 
2692.73 -2825.76 1250.03 
2693.31 -2825.96 1249.84 
2692.13 -2824.98 1249.51 
2693.05 -2825.49 1249.35 
2689.75 -2822.18 1248.77 
2690.82 -2823.2 1248.79 
2691.56 -2823.67 1248.56 
2692.06 -2823.97 1248.39 
2692.63 -2824.65 1248.62 
2689.12 -2820.83 1247.97 
2690 -2821.25 1247.56 
2745.17 -2853.64 1242.48 
2744.19 -2853.24 1241.92 
2743.17 -2852.81 1241.44 
2736.99 -2849.52 1240.39 
2739.49 -2851.02 1240.64 
2740.35 -2851.44 1240.72 
2742.32 -2852.37 1241.1 
2741.91 -2852.17 1240.69 
2738.57 -2850.46 1240.47 
2745.33 -2853.75 1241.81 
2749.54 -2855.24 1240.94 
2747.89 -2854.66 1241.03 
2746.28 -2854.14 1241.32 
2752.59 -2856.53 1241.16 
2751.53 -2856.09 1241.09 
2758.9 -2858.92 1241.1 
2758.21 -2858.81 1239.76 
2757.17 -2858.51 1239.09 
2756.36 -2858.24 1238.84 
2754.88 -2857.68 1240.08 
2755.86 -2858.08 1238.48 
2754.16 -2857.33 1240.16 
2722.47 -2842.66 1243.96 
2724.03 -2843.23 1243.24 
2725.63 -2843.79 1242.49 
2727.97 -2844.83 1241.87 
2726.81 -2844.24 1242.08 
2736.71 -2849.19 1239.11 
2735.54 -2848.33 1237.38 
2736.89 -2849.07 1237.42 
2734.03 -2847.5 1236.69 
2732.95 -2846.87 1236.33 
2732.07 -2846.49 1237.15 
2731.14 -2845.95 1237.61 
2729.76 -2845.19 1238.03 
2729.14 -2845.07 1239.64 
2728.49 -2844.96 1241.01 
2716.96 -2840.03 1244.25 
2718.75 -2840.96 1244.38 
2708.33 -2835.37 1247.84 
2707.09 -2834.5 1247.86 
2710.56 -2836.41 1246.68 
2714.03 -2838.25 1245.26 
2715.09 -2839.01 1244.99 
2716.3 -2839.64 1244.26 
2698.81 -2829.69 1250.1 
2705.68 -2833.71 1248.17 
2694.55 -2826.58 1249.75 
2696.36 -2827.92 1250.25 
2696.95 -2828.22 1250.36 
2697.6 -2828.71 1250.18 
2693.9 -2826.03 1249.42 
2695.11 -2826.74 1249.49 
2693.11 -2824.87 1248.46 
2693.94 -2825.26 1248.28 
2694.68 -2825.71 1248.28 
2690.26 -2821.87 1248.01 
2691.38 -2822.73 1247.77 
2692.08 -2823.35 1247.65 
2692.58 -2823.59 1247.42 
2692.97 -2824.04 1247.6 
2693.55 -2824.27 1247.37 
2691.17 -2822.13 1247.35 
2691.29 -2821.81 1246.8 
2744.21 -2853.29 1241.36 
2743.48 -2852.96 1241.06 
2741.24 -2851.78 1240.22 
2740.13 -2851.22 1240.02 
2742.83 -2852.65 1240.32 
2739.33 -2850.79 1239.83 
2737.92 -2849.91 1239.3 
2745.09 -2853.67 1241.25 
2749.98 -2855.37 1240.06 
2748.53 -2854.83 1240.22 
2746.53 -2854.21 1240.62 
2745.38 -2853.79 1240.85 
2752.84 -2856.65 1240.17 
2751.62 -2856.11 1240.2 
2759.45 -2859.16 1239.77 
2758.91 -2859.13 1238.2 
2759.7 -2859.36 1238.22 
2757.77 -2858.78 1237.83 
2759.39 -2859.34 1237.25 
2757.22 -2858.61 1237.42 
2755.24 -2857.86 1238.46 
2756.3 -2858.28 1237.38 
2754.48 -2857.5 1238.88 
2726.2 -2843.92 1241.77 
2724.41 -2843.28 1242.52 
2727.39 -2844.42 1241.4 
2737.78 -2849.61 1237.74 
2735.35 -2848.17 1236.48 
2737.83 -2849.53 1236.78 
2734.01 -2847.42 1235.7 
2733.01 -2846.81 1235.24 
2732.18 -2846.42 1235.85 
2731.44 -2846 1236.23 
2730.33 -2845.31 1236.46 
2728.55 -2844.47 1237.96 
2728.2 -2844.43 1239.01 
2728.13 -2844.59 1240.2 
2717.44 -2840.27 1244.19 
2720.59 -2841.72 1243.76 
2721.49 -2842.17 1243.59 
2722.45 -2842.6 1243.43 
2709.5 -2835.88 1247.12 
2711.48 -2836.81 1246.14 
2712.22 -2837.3 1246.01 
2715.75 -2839.31 1244.3 
2701.63 -2831.4 1249.31 
2700.36 -2830.55 1249.46 
2707.4 -2834.48 1247.37 
2696.1 -2827.45 1249.7 
2695.81 -2826.9 1249.12 
2695.96 -2826.47 1248.35 
2694.02 -2824.7 1247.48 
2694.71 -2825.11 1247.43 
2695.96 -2825.86 1247.41 
2692.16 -2823.06 1247.25 
2693.13 -2823.73 1247.07 
2692.69 -2823.28 1246.97 
2694.23 -2824.49 1247.02 
2693.7 -2824 1246.85 
2692.43 -2822.75 1246.59 
2741.81 -2852.03 1239.77 
2740.6 -2851.34 1239.37 
2743.89 -2853.15 1240.55 
2743.18 -2852.76 1239.9 
2738.86 -2850.29 1238.5 
2751.31 -2855.85 1239.12 
2749.32 -2855.05 1239.07 
2747.55 -2854.47 1239.85 
2745.87 -2853.95 1240.29 
2744.79 -2853.57 1240.61 
2753.84 -2857.15 1238.88 
2752.22 -2856.29 1239.34 
2761.01 -2859.52 1240.35 
2760.39 -2859.5 1238.86 
2760.87 -2859.91 1237.07 
2761.27 -2860.01 1237.41 
2759.11 -2859.29 1236.79 
2760.99 -2860.05 1236.45 
2757.41 -2858.71 1236.56 
2755.52 -2857.95 1237.34 
2756.45 -2858.31 1236.57 
2755.02 -2857.71 1237.43 
2726.57 -2843.95 1241.04 
2725.12 -2843.47 1241.86 
2723.02 -2842.73 1242.79 
2727.3 -2844.18 1240.49 
2738.82 -2850.03 1237.04 
2736.28 -2848.64 1235.64 
2735.15 -2848.06 1235.05 
2738.54 -2849.83 1236.29 
2733.93 -2847.32 1234.76 
2732.86 -2846.69 1234.4 
2732.28 -2846.38 1234.81 
2731.51 -2845.94 1235.23 
2727.14 -2843.65 1238.14 
2727.09 -2843.81 1239.23 
2718.93 -2840.94 1243.91 
2721.01 -2841.82 1243.13 
2722.44 -2842.43 1242.62 
2709.95 -2836 1246.69 
2709.11 -2835.54 1247.03 
2712.46 -2837.29 1245.56 
2714.26 -2838.27 1244.8 
2717.01 -2839.87 1243.75 
2704.11 -2832.57 1248.22 
2706 -2833.56 1247.48 
2696.91 -2827.92 1249.71 
2697.94 -2828.64 1249.53 
2698.97 -2829.51 1249.56 
2697.48 -2828.24 1249.59 
2696.82 -2827.17 1248.67 
2697.3 -2827.88 1249.25 
2696.3 -2825.82 1246.97 
2697.34 -2827.12 1248.04 
2692.98 -2823.12 1246.41 
2742.06 -2852.11 1239.28 
2739.84 -2850.76 1238.33 
2745.14 -2853.67 1240.07 
2744.43 -2853.31 1239.81 
2743.5 -2852.83 1239.52 
2751.51 -2855.81 1237.76 
2748.09 -2854.6 1239.06 
2748.89 -2854.79 1237.92 
2746.31 -2854.05 1239.63 
2753.72 -2857.05 1238 
2752.31 -2856.22 1237.96 
2762.9 -2860.14 1240.47 
2761.64 -2859.89 1239.14 
2761.73 -2860.1 1238.02 
2762.88 -2860.78 1236.41 
2763.18 -2860.8 1237.32 
2761.49 -2860.25 1236.06 
2759.1 -2859.3 1235.87 
2757.5 -2858.71 1235.87 
2761.06 -2860.06 1235.81 
2755.66 -2857.97 1236.45 
2756.48 -2858.3 1235.88 
2755.23 -2857.75 1236.3 
2725.78 -2843.57 1240.99 
2726.56 -2843.7 1240.11 
2723.94 -2842.97 1242.03 
2739.39 -2850.24 1236.29 
2739.76 -2850.47 1237.04 
2738.7 -2849.86 1235.44 
2737.85 -2849.42 1235 
2737.25 -2849.12 1234.41 
2736.45 -2848.72 1234.77 
2735.71 -2848.35 1233.9 
2734.55 -2847.7 1233.71 
2739.32 -2850.18 1235.67 
2733.54 -2847.09 1233.99 
2732.55 -2846.51 1233.82 
2733.18 -2846.89 1233.44 
2731.95 -2846.12 1234.06 
2731.38 -2845.74 1234.42 
2726.3 -2843.15 1238.35 
2726.06 -2843.2 1239.21 
2720.66 -2841.54 1242.83 
2722.63 -2842.37 1242.11 
2724.37 -2843.01 1241.44 
2710.87 -2836.3 1246.05 
2713.71 -2837.8 1244.73 
2715.25 -2838.96 1244.42 
2716.62 -2839.58 1243.62 
2718.67 -2840.66 1243.38 
2702.5 -2831.53 1248.49 
2701.13 -2830.67 1248.73 
2704.78 -2832.78 1247.75 
2706.81 -2833.81 1246.98 
2707.81 -2834.45 1246.88 
2709.32 -2835.41 1246.49 
2698.72 -2828.99 1249.12 
2697.92 -2828.27 1249.04 
2697.87 -2827.56 1248.12 
2694.92 -2824.76 1246.73 
2697.63 -2826.72 1247.07 
2694.29 -2824.14 1246.4 
2742.66 -2852.35 1238.96 
2740.96 -2851.3 1238.17 
2745.55 -2853.76 1239.42 
2744.93 -2853.43 1239.13 
2744.03 -2852.97 1239.05 
2751.89 -2855.9 1235.83 
2747.2 -2854.25 1238.65 
2747.86 -2854.33 1237.39 
2754.61 -2857.46 1236.33 
2753.23 -2856.73 1236.94 
2764.63 -2860.57 1241.04 
2764.03 -2860.68 1239.5 
2763.21 -2860.5 1239.03 
2763.24 -2860.7 1238.04 
2763.97 -2861.12 1236.72 
2763.79 -2861.08 1236.02 
2764.13 -2861.13 1237.21 
2762.69 -2860.73 1235.43 
2759.29 -2859.34 1235.4 
2761.39 -2860.19 1235.43 
2757.41 -2858.63 1235.35 
2755.77 -2857.96 1235.69 
2756.44 -2858.23 1235.22 
2755.14 -2857.66 1235.45 
2725.76 -2843.32 1240.21 
2740.33 -2850.6 1235.51 
2738.97 -2849.92 1234.63 
2738.04 -2849.49 1234.06 
2737.33 -2849.19 1233.26 
2736.68 -2848.83 1233.49 
2735.76 -2848.4 1231.92 
2735.04 -2848.01 1232.25 
2733.92 -2847.34 1232.8 
2734.55 -2847.72 1231.38 
2732.21 -2846.28 1233.25 
2732.87 -2846.72 1232.88 
2733.51 -2847.12 1232.08 
2725.58 -2842.76 1238.37 
2725.13 -2842.88 1239.62 
2725.02 -2842.59 1238.8 
2722.28 -2841.98 1241.51 
2724.62 -2842.96 1240.81 
2723.97 -2842.6 1240.68 
2711.77 -2836.65 1245.48 
2712.95 -2837.35 1244.97 
2714.46 -2838.16 1244.22 
2716 -2839.2 1243.62 
2720.16 -2841.17 1242.72 
2721.66 -2841.74 1241.81 
2703.38 -2831.88 1248.02 
2700.42 -2830.1 1248.68 
