2781.08 -2305.39 3358.54
2778.78 -2305.55 3358.67
2773.27 -2305.92 3357.06
2774.98 -2305.77 3358.12
2776.63 -2305.64 3359.34
2779.49 -2305.46 3360.11
2755.55 -2307.57 3353.28
2753.8 -2307.78 3352.92
2751.95 -2308.01 3352.41
2757.65 -2307.39 3353.8
2769.99 -2306.22 3356.43
2770.83 -2306.03 3357.83
2772.53 -2305.88 3358.92
2774.06 -2305.79 3359.74
2777.54 -2305.58 3360.69
2775.2 -2305.72 3360.69
2779.46 -2305.46 3361.49
2741.09 -2309.58 3347.07
2759.95 -2307.2 3354.17
2749.69 -2308.38 3351.74
2747.51 -2308.73 3351.02
2756.38 -2307.39 3355.68
2754.41 -2307.6 3355.16
2752.38 -2307.89 3354.7
2750.17 -2308.2 3353.93
2758.61 -2307.21 3356.12
2745.4 -2309 3350.08
2767.94 -2306.31 3357.32
2763.87 -2306.79 3356.33
2729.2 -2311.67 3343.77
2730.69 -2311.31 3344.16
2768.62 -2306.16 3358.77
2770.02 -2306.02 3359.18
2771.73 -2305.92 3359.93
2772.71 -2305.86 3360.89
2776.7 -2305.66 3361.8
2774.13 -2305.82 3361.99
2780.47 -2305.4 3362.33
2777.96 -2305.62 3362.78
2742.99 -2309.27 3349.01
2739.25 -2309.77 3347.25
2740.56 -2309.52 3348.88
2738.1 -2309.99 3345.99
2761.12 -2306.98 3356.52
2747.91 -2308.55 3353.27
2745.84 -2308.81 3352.44
2757.6 -2307.23 3357.31
2755.47 -2307.43 3356.94
2753.33 -2307.7 3356.34
2750.81 -2308.05 3355.63
2748.34 -2308.42 3354.82
2760.14 -2306.96 3357.87
2743.72 -2309.07 3351.48
2765.62 -2306.5 3358.07
2762.74 -2306.74 3358.04
2733.54 -2310.79 3344.62
2732.07 -2311.05 3344.26
2734.98 -2310.48 3345.31
2728.38 -2311.77 3344.77
2727.12 -2312.1 3344.6
2729.87 -2311.38 3345.14
2731.37 -2311.06 3345.33
2766.82 -2306.3 3359.38
2768.36 -2306.13 3360.13
2770.01 -2306.03 3360.32
2771.44 -2305.95 3361.49
2775.37 -2305.8 3363.14
2772.61 -2305.93 3362.9
2779.61 -2305.52 3363.38
2777.62 -2305.72 3363.98
2741.5 -2309.3 3350.91
2737.7 -2309.92 3347.36
2738.36 -2309.68 3349.28
2739.1 -2309.51 3350.69
2736.46 -2310.16 3346.37
2746.11 -2308.71 3353.95
2744.09 -2308.95 3353.25
2756.94 -2307.26 3358.36
2759.24 -2307.01 3358.45
2754.58 -2307.5 3357.8
2752.32 -2307.84 3357.1
2750.03 -2308.15 3356.77
2748.43 -2308.38 3355.94
2746.34 -2308.65 3355.04
2761.64 -2306.77 3359.18
2741.97 -2309.15 3352.61
2764.28 -2306.57 3358.96
2733.73 -2310.59 3346.06
2732.54 -2310.85 3345.37
2734.92 -2310.32 3346.87
2725.61 -2312.5 3344.55
2728.02 -2311.76 3345.92
2729.27 -2311.41 3346.19
2726.8 -2312.04 3345.85
2730.65 -2311.09 3346.25
2731.86 -2310.84 3346.27
2779.91 -2305.63 3364.7
2766.05 -2306.35 3360.16
2767.36 -2306.22 3361.05
2769.22 -2306.1 3361.38
2770.09 -2306.09 3362.36
2775.51 -2305.89 3364.44
2773.34 -2305.97 3364.31
2770.96 -2306.11 3363.71
2777.38 -2305.89 3365.42
2739.52 -2309.41 3352.01
2736.95 -2309.81 3348.99
2736.03 -2310.02 3348.05
2736.83 -2309.62 3351.08
2736.29 -2309.71 3350.44
2737.22 -2309.56 3351.74
2744.24 -2308.9 3354.52
2742.29 -2309.09 3353.75
2755.65 -2307.38 3359.08
2757.88 -2307.15 3359.53
2759.5 -2306.95 3359.34
2753.54 -2307.66 3358.5
2751.4 -2307.98 3357.88
2748.96 -2308.36 3357.97
2747.66 -2308.51 3356.9
2746.29 -2308.65 3355.86
2744.27 -2308.9 3355.52
2761.81 -2306.71 3360.18
2763.68 -2306.58 3359.83
2739.97 -2309.33 3352.92
2733.28 -2310.35 3348.1
2732.63 -2310.57 3347.28
2734.21 -2310.12 3348.87
2725.38 -2312.39 3345.92
2724.31 -2312.79 3345.43
2722.52 -2313.38 3345.36
2728.01 -2311.44 3347.6
2727.26 -2311.67 3347.43
2728.95 -2311.14 3347.92
2729.98 -2310.96 3347.79
2726.31 -2311.91 3347.44
2731.04 -2310.8 3347.51
2731.57 -2310.59 3348.06
2720.75 -2313.87 3345.73
2764.82 -2306.47 3360.76
2767.75 -2306.23 3362.11
2765.63 -2306.41 3361.82
2768.61 -2306.26 3363.28
2774.57 -2306.08 3365.91
2771.94 -2306.17 3365.32
2769.77 -2306.31 3364.81
2737.57 -2309.51 3352.42
2735.12 -2309.88 3349.93
2735.14 -2309.72 3351.31
2734.7 -2309.82 3350.69
2735.5 -2309.66 3351.84
2742.14 -2309.1 3354.82
2740.43 -2309.26 3353.72
2756.75 -2307.31 3360.31
2754.71 -2307.56 3359.88
2758.87 -2307.08 3360.61
2760.38 -2306.86 3360.47
2752.63 -2307.83 3359.23
2750.33 -2308.2 3358.98
2746.53 -2308.69 3357.57
2747.9 -2308.58 3358.88
2745.22 -2308.8 3356.42
2743 -2309.06 3356.11
2762.96 -2306.65 3361.12
2738.11 -2309.45 3353.22
2731.96 -2310.38 3348.84
2732.54 -2310.22 3349.33
2733.51 -2310.03 3349.96
2725.07 -2312.16 3347.77
2724.24 -2312.67 3346.53
2722.61 -2313.2 3346.65
2720.5 -2313.74 3347.54
2728.47 -2310.99 3348.98
2727.63 -2311.24 3348.85
2726.89 -2311.46 3348.79
2729.48 -2310.75 3349.06
2730.48 -2310.58 3348.95
2726.04 -2311.69 3348.83
2731.06 -2310.41 3349.27
2719.22 -2314.11 3347.69
2717.95 -2314.6 3346.66
2714.42 -2315.42 3346.52
2712.47 -2315.97 3346.15
2766.18 -2306.45 3363.03
2763.71 -2306.64 3362.26
2767.53 -2306.45 3364.25
2772.61 -2306.31 3366.89
2770.48 -2306.49 3366.9
2768.57 -2306.53 3365.82
2735.94 -2309.61 3352.47
2733.73 -2309.86 3351.46
2733.38 -2309.93 3350.95
2733.04 -2310.02 3350.41
2734.17 -2309.82 3351.91
2740.86 -2309.23 3355.24
2739.39 -2309.35 3354.24
2756.25 -2307.45 3361.23
2758.85 -2307.16 3361.56
2753.93 -2307.74 3360.71
2761.17 -2306.85 3361.5
2751.65 -2308.05 3360.12
2749.21 -2308.47 3360.08
2745.67 -2308.87 3358.46
2744.17 -2309 3357.31
2747.01 -2308.81 3359.88
2741.69 -2309.21 3356.53
2736.85 -2309.56 3353.43
2731.55 -2310.26 3349.67
2732.04 -2310.16 3350
2724.75 -2312.04 3348.92
2723.74 -2312.62 3347.78
2723.13 -2312.7 3348.47
2721.51 -2313.36 3348.01
2719.6 -2313.8 3349.2
2720.84 -2313.44 3348.99
2728.1 -2310.94 3349.59
2729.07 -2310.71 3349.64
2727.27 -2311.22 3349.4
2726.44 -2311.48 3349.34
2730.08 -2310.53 3349.57
2725.52 -2311.74 3349.39
2730.69 -2310.35 3349.91
2710.81 -2316.45 3346.11
2709.2 -2316.94 3345.93
2718.37 -2314.15 3349.35
2717.68 -2314.47 3348.43
2716.17 -2314.91 3347.85
2714.72 -2315.16 3348.55
2712.98 -2315.65 3347.76
2711.24 -2316.11 3347.77
2765.63 -2306.65 3364.37
2763.82 -2306.74 3363.36
2761.43 -2306.92 3362.44
2766.6 -2306.75 3366.12
2768.49 -2306.79 3367.92
2734.83 -2309.75 3352.53
2732.1 -2310.06 3351.07
2732.38 -2310.02 3351.61
2731.89 -2310.12 3350.51
2733 -2309.96 3352.14
2739.47 -2309.4 3355.47
2738.02 -2309.49 3354.46
2757.41 -2307.42 3362.38
2754.99 -2307.71 3361.93
2759.85 -2307.16 3362.76
2752.54 -2308.04 3361.46
2749.75 -2308.5 3361.21
2744.69 -2309.1 3359.46
2743.38 -2309.14 3357.98
2747.31 -2308.95 3361.4
2745.06 -2309.22 3360.87
2741.01 -2309.34 3357.18
2738.91 -2309.49 3356
2735.82 -2309.68 3353.65
2731.14 -2310.23 3350.2
2724.13 -2312.15 3349.46
2722.65 -2312.76 3349.17
2720.43 -2313.46 3349.87
2719.11 -2313.86 3350.11
2722.22 -2312.84 3349.71
2728.63 -2310.75 3350.03
2727.65 -2311 3349.92
2729.66 -2310.51 3350.11
2726.81 -2311.28 3349.76
2725.97 -2311.53 3349.82
2724.92 -2311.83 3349.85
2730.21 -2310.34 3350.45
2709.78 -2316.51 3347.74
2708.1 -2317.04 3347.81
2707.1 -2317.51 3346.51
2703.02 -2318.64 3346.52
2717.62 -2314.3 3349.98
2716.68 -2314.66 3349.08
2715.99 -2314.77 3349.78
2714.14 -2315.25 3349.3
2712.25 -2315.78 3348.54
2710.33 -2316.23 3348.73
2699.82 -2319.5 3345.44
2697.53 -2320.21 3343.36
2764.39 -2306.91 3365.23
2762.33 -2307 3363.92
2764.79 -2307.15 3367.47
2733.98 -2309.86 3352.72
2731.13 -2310.16 3350.76
2731.22 -2310.14 3351.32
2731.5 -2310.14 3351.96
2731.68 -2310.14 3352.52
2732.43 -2310.06 3352.85
2737.09 -2309.6 3354.84
2758.38 -2307.47 3363.74
2756.02 -2307.72 3363.31
2753.85 -2308.01 3362.91
2760.76 -2307.3 3364.6
2751.32 -2308.4 3362.49
2748.89 -2308.87 3362.87
2742.65 -2309.27 3358.57
2742.64 -2309.45 3359.85
2743.81 -2309.57 3361.89
2740.53 -2309.52 3358.08
2738.65 -2309.61 3356.75
2736.49 -2309.73 3355.34
2735.16 -2309.79 3353.95
2723.93 -2312.13 3350.04
2720.09 -2313.5 3350.5
2721.78 -2312.94 3350.23
2718.46 -2314.01 3350.71
2723.46 -2312.25 3350.47
2728.13 -2310.85 3350.28
2729.22 -2310.56 3350.46
2727.12 -2311.1 3350.23
2726.26 -2311.36 3350.2
2725.3 -2311.67 3350.23
2729.78 -2310.41 3350.88
2708.68 -2316.75 3348.58
2706.38 -2317.55 3348.05
2704.61 -2318.15 3347.42
2701.25 -2319.03 3347.11
2703.21 -2318.43 3347.94
2716.74 -2314.52 3350.54
2714.87 -2315.01 3350.4
2712.5 -2315.66 3349.38
2710.78 -2316.08 3349.36
2709.19 -2316.52 3349.24
2697.99 -2319.94 3345.62
2699.37 -2319.48 3347.19
2696.38 -2320.43 3345.46
2694.95 -2320.91 3344.08
2762.78 -2307.22 3366.06
2733.47 -2309.97 3353.2
2730.38 -2310.27 3351.06
2730.57 -2310.25 3351.55
2730.72 -2310.26 3352.18
2730.98 -2310.26 3352.9
2731.72 -2310.2 3353.37
2756.89 -2307.86 3365.19
2759.05 -2307.7 3366.03
2754.87 -2308.14 3365.05
2752.93 -2308.37 3364.37
2740.2 -2309.7 3359
2741.6 -2309.75 3360.73
2738.28 -2309.77 3357.58
2736.68 -2309.82 3356.27
2734.52 -2309.91 3354.24
2734.96 -2309.94 3355.14
2724.64 -2311.83 3350.62
2719.64 -2313.59 3351.04
2721.25 -2313.09 3350.8
2723.08 -2312.36 3350.96
2718.9 -2313.84 3351.53
2717.63 -2314.26 3351.1
2724.44 -2311.84 3351.09
2728.64 -2310.7 3350.65
2727.56 -2310.96 3350.56
2729.17 -2310.55 3351.06
2707.06 -2317.25 3348.98
2705.24 -2317.87 3348.3
2701.37 -2318.91 3348.16
2703.62 -2318.24 3348.95
2716.31 -2314.64 3351.27
2714.52 -2315.08 3351.11
2712.57 -2315.62 3350.19
2710.67 -2316.08 3350.1
2709.15 -2316.51 3349.95
2707.39 -2317.11 3349.67
2697.6 -2319.96 3347.19
2699.26 -2319.44 3348.18
2694.88 -2320.81 3346.47
2696.26 -2320.35 3347.5
2693.26 -2321.43 3345.12
2680.05 -2325.63 3344.81
2678.24 -2326.34 3343.73
2681.99 -2324.97 3345.25
2732.78 -2310.09 3353.65
2729.85 -2310.39 3351.73
2730.05 -2310.37 3352.28
2730.23 -2310.4 3352.85
2730.66 -2310.39 3353.45
2731.41 -2310.32 3353.88
2739.28 -2309.98 3359.89
2737.66 -2309.98 3358.35
2739.95 -2310.13 3361.5
2736.07 -2309.97 3356.75
2733.17 -2310.1 3354.28
2734.3 -2310.08 3355.44
2725.46 -2311.55 3350.89
2720.33 -2313.34 3351.45
2722.23 -2312.68 3351.4
2723.94 -2311.99 3351.59
2717.85 -2314.2 3351.82
2719.43 -2313.65 3352.03
2725.05 -2311.63 3351.33
2728.15 -2310.8 3350.91
2727.09 -2311.07 3350.97
2726.09 -2311.34 3351.06
2705.48 -2317.72 3349.15
2701.65 -2318.78 3348.96
2703.69 -2318.19 3349.79
2716.66 -2314.56 3352.05
2714.97 -2314.99 3351.91
2712.74 -2315.55 3351.05
2710.82 -2316.06 3350.83
2709.28 -2316.5 3350.75
2707.4 -2317.1 3350.39
2705.52 -2317.67 3350
2697.67 -2319.87 3348.48
2699.66 -2319.31 3349.05
2694.65 -2320.85 3347.83
2693.12 -2321.35 3347.1
2696.09 -2320.35 3348.67
2691.23 -2322.06 3345.85
2686.88 -2323.42 3345.49
2689.06 -2322.74 3346.24
2684.3 -2324.25 3345.27
2678.71 -2326.09 3345.61
2680.12 -2325.56 3346.28
2681.61 -2325.07 3346.56
2677.05 -2326.77 3344.8
2683.47 -2324.48 3346.6
2729.18 -2310.55 3351.92
2729.28 -2310.56 3352.44
2729.64 -2310.55 3353.04
2730.05 -2310.55 3353.65
2730.29 -2310.57 3354.16
2731.71 -2310.34 3354.28
2737.37 -2310.3 3359.96
2735.87 -2310.2 3357.82
2738.15 -2310.57 3362.24
2734.21 -2310.24 3356.31
2732.67 -2310.31 3355.06
2721.27 -2313.01 3351.9
2723.29 -2312.23 3352.09
2724.65 -2311.77 3351.95
2718.49 -2313.99 3352.56
2720.14 -2313.42 3352.38
2725.62 -2311.45 3351.5
2727.71 -2310.91 3351.3
2726.68 -2311.18 3351.5
2728.35 -2310.77 3351.7
2701.64 -2318.76 3349.8
2703.57 -2318.21 3350.57
2717.3 -2314.39 3352.76
2715.24 -2314.95 3352.7
2713.28 -2315.43 3351.93
2711.03 -2316.04 3351.59
2709.24 -2316.54 3351.48
2707.28 -2317.15 3351.15
2705.37 -2317.73 3350.89
2697.38 -2319.94 3349.55
2699.27 -2319.42 3349.68
2694.29 -2320.93 3348.86
2692.77 -2321.42 3348.21
2690.87 -2322.1 3347.13
2695.62 -2320.49 3349.67
2687.42 -2323.22 3347.06
2685.46 -2323.84 3346.29
2689.1 -2322.72 3347.54
2677.8 -2326.42 3346.56
2679.23 -2325.89 3347.22
2680.97 -2325.31 3347.79
2683.03 -2324.62 3347.79
2676.07 -2327.12 3345.83
2674.25 -2327.84 3346.03
2685.2 -2323.89 3347.46
2728.3 -2310.82 3352.23
2728.73 -2310.74 3352.78
2729.07 -2310.72 3353.36
2729.36 -2310.73 3353.89
2729.32 -2310.85 3354.51
2730.84 -2310.6 3354.86
2736.46 -2310.74 3361.32
2735.43 -2310.49 3358.93
2733.74 -2310.44 3356.98
2732.19 -2310.5 3355.71
2722.34 -2312.62 3352.55
2724.22 -2311.97 3352.61
2725.26 -2311.59 3352.1
2719.16 -2313.77 3352.96
2721.22 -2313.12 3353.07
2726.23 -2311.3 3351.96
2727.33 -2311.02 3351.86
2701.29 -2318.88 3350.57
2703.36 -2318.3 3351.32
2716.09 -2314.77 3353.28
2718.02 -2314.2 3353.49
2713.66 -2315.41 3353.06
2711.85 -2315.87 3352.27
2709.94 -2316.41 3352.3
2707.61 -2317.09 3351.87
2705.42 -2317.73 3351.75
2697.13 -2320.06 3350.53
2699.12 -2319.49 3350.47
2693.69 -2321.13 3349.87
2692.65 -2321.44 3349.12
2690.84 -2322.06 3348.22
2695.23 -2320.65 3350.64
2687.27 -2323.27 3348.3
2689.14 -2322.7 3348.76
2677.93 -2326.37 3347.91
2676.39 -2326.97 3347.26
2679.51 -2325.84 3348.64
2681.02 -2325.38 3349.46
2682.85 -2324.73 3349.05
2684.99 -2323.96 3348.66
2674.6 -2327.75 3347.58
2727.01 -2311.12 3352.36
2727.62 -2311.01 3352.73
2728.12 -2310.93 3353.2
2728.4 -2310.96 3353.87
2730.15 -2310.88 3355.55
2728.73 -2311.13 3355.13
2728.09 -2311.18 3354.53
2734.79 -2310.97 3360.58
2733.94 -2310.72 3358.52
2731.72 -2310.7 3356.32
2732.33 -2310.82 3357.46
2723.53 -2312.25 3353.15
2724.95 -2311.78 3352.87
2725.97 -2311.43 3352.51
2719.97 -2313.56 3353.5
2722.42 -2312.75 3353.71
2701.23 -2318.92 3351.43
2703.57 -2318.3 3352.11
2716.78 -2314.63 3353.97
2714.62 -2315.24 3353.96
2718.67 -2314.04 3354.07
2712.44 -2315.88 3353.91
2711.29 -2316.12 3353.05
2708.67 -2316.82 3352.57
2705.89 -2317.67 3352.6
2696.79 -2320.27 3351.7
2698.93 -2319.62 3351.49
2692.98 -2321.39 3350.53
2691.27 -2321.93 3349.61
2694.57 -2320.96 3351.59
2687.09 -2323.37 3349.53
2688.95 -2322.82 3350
2678 -2326.42 3349.15
2676.07 -2327.18 3348.64
2679.54 -2325.94 3350.16
2682.82 -2324.82 3350.53
2684.81 -2324.09 3349.94
2726.61 -2311.32 3353.06
2727.26 -2311.22 3353.54
2726.96 -2311.4 3354.08
2730.34 -2311.06 3356.58
2728.75 -2311.31 3355.99
2727.53 -2311.46 3355.17
2726.45 -2311.67 3354.71
2733.08 -2311.14 3359.65
2731.24 -2311.21 3358.18
2731.79 -2311.69 3360.7
2724.44 -2312.03 3353.61
2725.48 -2311.67 3353.11
2721.52 -2313.16 3354.25
2720.09 -2313.68 3354.58
2723.53 -2312.46 3354.27
2701.41 -2318.95 3352.35
2704.02 -2318.26 3353.04
2718.31 -2314.25 3354.8
2716.48 -2314.87 3355.16
2714.82 -2315.28 3354.73
2712.79 -2315.94 3355.01
2709.9 -2316.61 3353.59
2710.67 -2316.52 3354.57
2707.15 -2317.33 3353.06
2699.11 -2319.66 3352.56
2697.35 -2320.27 3353.12
2695.56 -2320.84 3353.01
2692.38 -2321.68 3351.5
2690.8 -2322.19 3350.94
2693.47 -2321.47 3352.64
2686.99 -2323.5 3350.93
2726 -2311.59 3353.56
2725.59 -2311.81 3354.17
2729.41 -2311.46 3357.35
2727.12 -2311.74 3355.9
2727.74 -2311.78 3356.78
2725.77 -2312.09 3355.62
2724.82 -2312.18 3354.86
2729.99 -2311.9 3359.65
2725.03 -2311.91 3353.92
2722.25 -2313.03 3354.94
2720.34 -2313.74 3355.43
2724.16 -2312.33 3354.63
2701.32 -2319.1 3353.32
2705.64 -2317.93 3354.17
2703.31 -2318.63 3354.1
2718.42 -2314.41 3355.91
2716.34 -2315.15 3356.58
2714.44 -2315.61 3355.99
2711.87 -2316.39 3355.95
2708.31 -2317.09 3353.88
2709.35 -2316.95 3354.95
2699.14 -2319.83 3353.94
2696.82 -2320.73 3354.98
2690.87 -2322.37 3352.7
2728.17 -2312.17 3358.74
2725.79 -2312.34 3356.7
2726.48 -2312.4 3357.76
2723.99 -2312.58 3355.53
2724.34 -2312.71 3356.48
2722.75 -2312.96 3355.43
2720.6 -2313.82 3356.32
2701.31 -2319.32 3354.72
2706.78 -2317.74 3355.26
2718.49 -2314.63 3357.25
2726.04 -2313.03 3359.68
2724.33 -2313.14 3358.24
2722.31 -2313.32 3356.49
2722.59 -2313.52 3357.74
2720.53 -2314.12 3357.71
