2724.65 -2803.21 661.567 
2724.01 -2802.66 661.199 
2724.58 -2803.24 659.679 
2722.72 -2801.41 658.231 
2725.48 -2804.04 660.158 
2724.47 -2803.17 658.865 
2725.54 -2804.13 659.224 
2726.24 -2804.71 659.738 
2723.78 -2802.56 658.609 
2722.74 -2801.4 657.58 
2723.86 -2802.65 658.055 
2722.71 -2801.35 656.976 
2726.87 -2805.26 660.457 
2727.51 -2805.79 661.182 
2724.67 -2803.36 658.305 
2725.87 -2804.42 658.826 
2727.04 -2805.44 659.399 
2727.39 -2805.76 660.046 
2723.84 -2802.59 657.511 
2724.68 -2803.34 657.799 
2723.75 -2802.37 656.814 
2729.17 -2807.03 662.973 
2728.03 -2806.1 662.308 
2727.84 -2806.12 660.524 
2728.95 -2807.27 660.427 
2728.71 -2806.95 661.162 
2727.08 -2805.44 658.845 
2727.8 -2806.16 659.204 
2727.97 -2806.29 659.686 
2728.58 -2806.91 659.931 
2724.63 -2803.25 657.293 
2725.86 -2804.37 657.918 
2722.77 -2801.19 655.674 
2724.64 -2803.17 656.76 
2723.97 -2802.42 656.055 
2730.18 -2808.02 662.569 
2729.96 -2808.02 661.621 
2729.38 -2807.54 661.383 
2730.63 -2808.21 663.683 
2730.59 -2808.39 662.626 
2729.81 -2808.16 660.208 
2730.05 -2808.46 659.803 
2728.82 -2807.18 658.967 
2729.25 -2807.67 659.41 
2727.19 -2805.45 657.937 
2723.13 -2801.35 654.81 
2724.81 -2803.19 656.113 
2725.92 -2804.28 657.012 
2724.07 -2802.33 655.081 
2731.42 -2808.84 663.818 
2730.63 -2808.75 661.04 
2730.26 -2808.54 660.483 
2731.38 -2809.08 662.743 
2730.98 -2808.77 662.577 
2731.09 -2809.15 661.026 
2730.7 -2809.06 659.941 
2727.74 -2806.06 658.45 
2729.95 -2808.4 659.009 
2729.88 -2808.31 658.493 
2727.79 -2805.98 657.689 
2726.06 -2804.25 656.429 
2725.06 -2803.05 654.83 
2727.29 -2805.39 657.041 
2731.88 -2809.45 662.807 
2730.82 -2809.02 660.588 
2732 -2809.85 661.303 
2731.49 -2809.47 661.161 
2731.23 -2809.36 660.575 
2731.61 -2809.66 660.712 
2728.97 -2807.29 658.422 
2730.41 -2808.82 658.636 
2730.44 -2808.88 659.19 
2728.85 -2807.07 657.873 
2726.11 -2803.55 653.232 
2726.29 -2804.11 655.091 
2727.49 -2805.33 656.086 
2728.13 -2806.07 656.607 
2734.86 -2811.58 662.789 
2734.08 -2811 662.572 
2732.94 -2810.21 662.549 
2733.25 -2810.71 661.269 
2732.13 -2810.05 660.728 
2731.16 -2809.43 659.959 
2731.75 -2809.85 660.256 
2732.25 -2810.22 660.271 
2730.88 -2809.28 659.379 
2730.06 -2808.36 657.962 
2730.88 -2809.25 658.828 
2729.11 -2807.15 657.125 
2727.58 -2804.84 653.305 
2728.62 -2806.29 655.861 
2728.55 -2805.95 654.783 
2729.49 -2807.45 656.836 
2735.86 -2812.39 662.936 
2737.29 -2813.56 663.073 
2735.75 -2812.61 661.539 
2734.5 -2811.6 661.377 
2738.29 -2814.35 663.359 
2733.34 -2810.88 660.7 
2731.54 -2809.79 659.58 
2732.3 -2810.33 659.609 
2730.68 -2809.02 658.234 
2730.31 -2808.41 657.405 
2729.25 -2806.6 655.007 
2729.66 -2806.69 653.907 
2737.28 -2813.82 661.771 
2735.48 -2812.47 660.998 
2734.46 -2811.66 660.87 
2739.27 -2814.99 663.876 
2739.37 -2815.34 662.499 
2738.59 -2814.84 661.86 
2740.53 -2815.94 663.836 
2733.41 -2811.05 659.869 
2734.59 -2811.83 660.376 
2731.27 -2809.57 658.794 
2730.85 -2809.01 657.655 
2731.23 -2809.43 658.019 
2730.36 -2807.17 653.561 
2729.97 -2807.67 656.135 
2730.63 -2808.57 656.895 
2730.27 -2807.68 655.455 
2730.19 -2807.25 654.316 
2738.13 -2814.55 661.28 
2736.6 -2813.4 660.881 
2735.16 -2812.27 660.586 
2741.12 -2816.62 662.563 
2740.36 -2816.15 662.022 
2739.65 -2815.7 661.418 
2742.78 -2817.76 662.858 
2735.73 -2812.76 660.273 
2732.39 -2810.42 659.103 
2733.72 -2811.3 659.312 
2734.98 -2812.17 659.775 
2731.74 -2809.85 658.131 
2731.7 -2809.9 658.663 
2732.34 -2810.35 658.466 
2730.9 -2807.43 652.905 
2730.79 -2807.72 654.165 
2731.06 -2807.71 653.486 
2731.02 -2808.84 656.728 
2730.86 -2808.23 655.475 
2731.64 -2809.53 657.245 
2737.34 -2814.03 660.714 
2738.92 -2815.19 660.694 
2742.41 -2817.75 661.694 
2743.01 -2818.11 662.162 
2741.64 -2817.18 661.415 
2740.72 -2816.5 661.131 
2744.32 -2819 662.514 
2744.9 -2819.07 663.805 
2736.05 -2813.04 659.998 
2733.63 -2811.21 658.664 
2736.35 -2813.28 659.341 
2732.46 -2810.29 657.777 
2733.78 -2811.27 658.083 
2731.28 -2808.55 655.275 
2731.42 -2808.16 654.067 
2731.57 -2809.28 656.697 
2732.4 -2810.1 657.298 
2737.7 -2814.3 660.288 
2740.56 -2816.38 660.64 
2739.16 -2815.35 660.119 
2743.38 -2818.54 661.297 
2743.93 -2818.87 661.802 
2742.65 -2818.03 661.06 
2745.41 -2819.57 663.24 
2744.75 -2819.4 662.075 
2747.11 -2820.44 664.773 
2746.41 -2820 664.702 
2735.05 -2812.21 658.951 
2737.87 -2814.39 659.386 
2733.95 -2811.31 657.447 
2735.3 -2812.32 658.082 
2733.87 -2811.13 656.885 
2731.85 -2808.95 655.121 
2732.05 -2809.59 656.434 
2732.63 -2808.99 653.811 
2733.47 -2810.58 656.12 
2733.97 -2811.03 656.227 
2740.67 -2816.44 660.087 
2742.17 -2817.68 660.331 
2739.53 -2815.6 659.527 
2743.77 -2818.88 660.862 
2744.28 -2819.2 661.4 
2743.43 -2818.64 660.464 
2746.23 -2820.14 663.283 
2745.57 -2819.91 662.063 
2745.16 -2819.72 661.649 
2747.13 -2820.71 663.2 
2770.15 -2834.63 658.728 
2769.32 -2834.2 659.074 
2736.49 -2813.32 658.589 
2737.94 -2814.44 658.842 
2736.74 -2813.47 658.142 
2739.64 -2815.65 658.916 
2735.48 -2812.34 657.109 
2735.32 -2812.14 656.679 
2736.85 -2813.45 657.287 
2735.37 -2812.08 656.179 
2733.05 -2809.63 654.597 
2733.18 -2810.23 655.815 
2734.71 -2811.27 655.404 
2735.09 -2811.66 655.549 
2741.92 -2817.49 659.859 
2741.08 -2816.73 659.349 
2743.17 -2818.44 660.033 
2744.11 -2819.18 660.565 
2743.8 -2818.97 660.165 
2746.6 -2820.58 661.942 
2746.13 -2820.42 661.485 
2745.64 -2820.06 661.315 
2748.45 -2821.51 663.018 
2750.55 -2822.84 662.414 
2749.7 -2822.29 662.495 
2751.4 -2823.15 663.624 
2748.18 -2821.57 661.594 
2770.12 -2834.56 657.743 
2768.99 -2834.04 658.083 
2768.35 -2833.74 659.707 
2768.13 -2833.66 658.797 
2768.52 -2833.83 660.647 
2738.09 -2814.52 658.251 
2739.68 -2815.67 658.304 
2738.58 -2814.82 657.565 
2741.6 -2817.1 658.788 
2737 -2813.5 656.802 
2736.48 -2812.99 656.4 
2738.28 -2814.54 657.213 
2738.77 -2814.78 656.405 
2737.06 -2813.29 655.768 
2734.16 -2810.34 654.357 
2734.49 -2810.19 653.352 
2736.18 -2812.39 655.129 
2736.83 -2812.97 655.297 
2734.93 -2810.97 654.316 
2735.67 -2811.83 654.815 
2742.66 -2818.02 659.449 
2743.47 -2818.7 659.644 
2745.12 -2819.77 660.899 
2744.59 -2819.5 660.424 
2744.18 -2819.25 659.975 
2747.89 -2821.49 661.046 
2746.96 -2821 660.84 
2746.28 -2820.58 660.746 
2753.21 -2824.73 662.281 
2754.32 -2825.56 662.164 
2755.62 -2826.21 663.462 
2757.18 -2827.22 663.344 
2756.39 -2826.75 663.404 
2751.19 -2823.35 662.201 
2750.98 -2823.42 660.974 
2749.69 -2822.56 661.139 
2751.93 -2823.87 661.973 
2769.02 -2833.94 656.894 
2767.96 -2833.54 657.619 
2770.2 -2834.32 655.695 
2767.07 -2833.2 658.253 
2766.73 -2833.06 659.333 
2766.98 -2833.14 660.018 
2766.33 -2832.9 658.746 
2767.63 -2833.4 660.758 
2765.83 -2832.52 662.084 
2765.03 -2832.04 662.49 
2764.17 -2831.55 662.886 
2763.42 -2831.15 662.919 
2762.74 -2830.76 662.612 
2758.24 -2827.88 663.075 
2761.33 -2829.87 661.989 
2759.87 -2829.04 661.769 
2740 -2815.84 657.507 
2741.34 -2816.83 657.942 
2739.92 -2815.66 656.473 
2741.02 -2816.51 656.521 
2743.02 -2818.28 659.008 
2742.6 -2817.89 658.288 
2738.14 -2814.18 655.763 
2738.91 -2814.77 655.661 
2740.65 -2816.1 655.535 
2739.01 -2814.53 654.374 
2738.16 -2813.78 654.33 
2735.38 -2811.07 653.637 
2735.81 -2811.31 653.283 
2736.48 -2812.38 654.43 
2737.19 -2812.91 654.256 
2745.78 -2820.22 660.556 
2745.22 -2819.87 660.193 
2744.68 -2819.57 659.708 
2748.83 -2822.11 660.537 
2748.07 -2821.69 660.136 
2747.43 -2821.3 659.977 
2755.19 -2826.13 662.315 
2752.6 -2824.58 660.827 
2754.31 -2825.77 661.027 
2755.82 -2826.61 662.106 
2757.25 -2827.49 662.099 
2756.58 -2827.08 662.172 
2751.61 -2823.94 660.24 
2750.29 -2823.04 660.607 
2767.78 -2833.34 656.614 
2766.67 -2832.94 657.499 
2766.14 -2832.77 658.021 
2768.92 -2833.6 654.756 
2766.54 -2832.93 661.103 
2766.19 -2832.75 661.508 
2765.65 -2832.6 658.62 
2765.66 -2832.64 659.646 
2765.59 -2832.61 659.134 
2765.97 -2832.74 660.293 
2764.22 -2831.81 661.267 
2764.91 -2832.22 660.919 
2763.56 -2831.39 661.542 
2762.78 -2830.97 661.239 
2758.22 -2828.1 661.804 
2761.74 -2830.3 660.749 
2760.3 -2829.44 660.592 
2758.36 -2828.32 660.864 
2742.03 -2817.31 656.939 
2741.67 -2816.95 655.641 
2742.61 -2817.71 656.188 
2743.47 -2818.61 658.739 
2742.96 -2818.1 657.536 
2740.05 -2815.44 654.434 
2740.7 -2816.04 654.834 
2741.91 -2817.05 654.79 
2739.68 -2814.68 652.72 
2740.99 -2815.99 653.476 
2737.82 -2813.15 653.161 
2738.81 -2813.82 652.134 
2736.41 -2811.85 653.256 
2736.7 -2811.96 652.783 
2744.43 -2819.33 659.116 
2746.89 -2820.97 659.866 
2746.34 -2820.61 659.674 
2745.77 -2820.24 659.384 
2749.67 -2822.7 660.183 
2749.11 -2822.37 659.711 
2748.81 -2822.19 659.294 
2755.06 -2826.31 660.979 
2753.43 -2825.28 660.391 
2756.06 -2826.97 661.031 
2756.97 -2827.52 660.975 
2751.06 -2823.62 659.951 
2752.67 -2824.76 659.908 
2767.35 -2833 655.747 
2766.21 -2832.68 657.104 
2765.44 -2832.43 657.891 
2768.1 -2833.01 653.447 
2765.26 -2832.45 660.421 
2764.95 -2832.29 659.068 
2765.09 -2832.39 659.906 
2764.15 -2831.87 660.619 
2763.59 -2831.47 660.904 
2763.08 -2831.16 660.628 
2761.9 -2830.44 660.294 
2760.32 -2829.52 660.064 
2758.9 -2828.68 660.443 
2757.32 -2827.77 660.546 
2742.47 -2817.56 655.353 
2743.37 -2818.3 656.744 
2743.13 -2818.05 655.694 
2743.79 -2818.75 658.245 
2741.52 -2816.58 654.107 
2742.33 -2817.25 654.185 
2742.7 -2817.67 654.813 
2741.03 -2815.63 652.29 
2740.09 -2814.57 651.116 
2739.16 -2813.72 650.616 
2742.05 -2816.82 653.533 
2742.14 -2816.7 652.808 
2737.11 -2812.23 652.274 
2738.18 -2813.15 651.679 
2738.53 -2813.17 650.549 
2746.22 -2820.49 659.067 
2744.98 -2819.59 658.432 
2748.26 -2821.82 659.075 
2747.7 -2821.42 658.923 
2750.7 -2823.44 659.608 
2750.41 -2823.28 658.905 
2754.31 -2825.89 660.354 
2755.36 -2826.6 660.497 
2756.33 -2827.2 660.557 
2752.13 -2824.38 659.518 
2753.76 -2825.56 659.879 
2766.62 -2832.51 655.072 
2765.81 -2832.42 656.719 
2764.43 -2831.91 658.201 
2766.48 -2832.09 653.211 
2764.4 -2832.06 660.137 
2764.29 -2831.96 659.365 
2763.75 -2831.63 660.232 
2763.17 -2831.24 660.1 
2758.37 -2828.43 660.106 
2756.84 -2827.53 660.205 
2743.91 -2818.57 655.982 
2744.23 -2818.95 657.519 
2743.35 -2818.1 654.949 
2742.72 -2817.35 653.548 
2742.95 -2817.69 654.18 
2741.99 -2816.05 651.094 
2741.3 -2815.12 649.845 
2739.78 -2814.05 649.994 
2742.88 -2817.28 652.759 
2743 -2816.97 651.455 
2746.73 -2820.75 658.77 
2748.12 -2821.66 658.317 
2746.13 -2820.29 658.273 
2749.25 -2822.47 658.626 
2752.43 -2824.63 659.125 
2751.09 -2823.74 658.457 
2754.84 -2826.29 660.111 
2755.89 -2826.98 660.134 
2765.64 -2831.94 654.732 
2765.03 -2831.98 656.414 
2764.76 -2832 657.343 
2764.1 -2831.67 657.869 
2763.7 -2831.55 658.562 
2764.99 -2831.33 653.329 
2763.7 -2831.61 659.33 
2761.91 -2830.52 659.463 
2760.37 -2829.58 659.421 
2758.94 -2828.79 659.725 
2757.27 -2827.81 659.83 
2745.32 -2819.65 657.329 
2745.07 -2819.33 656.205 
2743.99 -2818.51 654.975 
2743.46 -2818.05 654.179 
2743.23 -2817.74 653.429 
2743.48 -2817.7 652.548 
2743.09 -2816.46 649.564 
2743.58 -2817.24 650.749 
2749.72 -2822.76 657.716 
2747.14 -2820.9 657.898 
2754.13 -2825.85 659.43 
2752.93 -2824.98 658.661 
2764.6 -2831.47 655.241 
2764.04 -2831.51 657.103 
2763.26 -2831.16 657.731 
2762.36 -2830.73 658.326 
2762.99 -2831.2 658.824 
2761.87 -2830.35 657.927 
2763.98 -2830.85 653.797 
2758.12 -2828.31 659.5 
2756.47 -2827.37 659.491 
2755.35 -2826.66 659.488 
2745.3 -2819.34 655.401 
2746.49 -2820.34 657.162 
2746.57 -2820.19 656.069 
2744.06 -2818.45 654.153 
2743.85 -2818.16 653.411 
2744.05 -2818.07 652.592 
2744.06 -2817.65 650.899 
2743.97 -2816.91 648.531 
2744.5 -2817.41 648.886 
2748.89 -2822.11 657.37 
2750.57 -2823.26 657.256 
2751.67 -2824.03 657.723 
2748.04 -2821.45 657.182 
2754.41 -2826.06 658.968 
2763.63 -2830.95 655.542 
2762.97 -2830.88 656.997 
2761.51 -2830.05 657.514 
2761.61 -2830.28 658.607 
2760.25 -2829.43 658.429 
2763.4 -2830.35 652.961 
2762.96 -2830.24 654.059 
2746.36 -2819.9 655.048 
2744.87 -2818.94 654.312 
2747.31 -2820.75 656.525 
2747.65 -2820.84 655.755 
2747.12 -2820.39 655.243 
2744.64 -2818.63 653.213 
2744.69 -2818.47 652.5 
2744.57 -2817.99 650.922 
2745.02 -2817.79 649.037 
2749.86 -2822.71 656.793 
2752.42 -2824.52 657.593 
2751.63 -2823.93 657.064 
2753.64 -2825.46 658.206 
2748.96 -2822.01 656.488 
2754.81 -2826.28 658.685 
2755.77 -2826.85 658.816 
2762.54 -2830.3 655.585 
2761.23 -2829.8 657.059 
2759.74 -2829.05 657.912 
2758.58 -2828.54 658.905 
2758.15 -2828.27 658.658 
2761.68 -2829.4 653.7 
2761.74 -2829.54 654.498 
2757.04 -2827.67 659.061 
2747.03 -2820.17 654.398 
2745.79 -2819.38 653.936 
2748.94 -2821.9 655.99 
2747.89 -2820.86 655.005 
2745.98 -2819.34 653.129 
2745.56 -2818.78 651.598 
2745.14 -2818.31 650.75 
2745.49 -2818.12 649.162 
2750.88 -2823.33 656.496 
2753.37 -2825.15 657.505 
2752.58 -2824.5 656.86 
2756.32 -2827.2 658.683 
2761.07 -2829.43 655.972 
2757.95 -2828.02 657.933 
2756.25 -2827.02 657.992 
2760.43 -2828.61 654.084 
2760.05 -2828.45 654.721 
2747.78 -2820.6 654.211 
2747.25 -2820.03 653.265 
2750.66 -2822.97 655.625 
2748.95 -2821.75 655.408 
2748.54 -2821.16 654.376 
2746.8 -2819.47 651.923 
2745.97 -2818.54 649.659 
2754.51 -2825.91 657.557 
2755.06 -2826.32 657.959 
2752.16 -2824.1 656.249 
2754.09 -2825.51 657.091 
2759.38 -2828.58 656.868 
2759.99 -2828.62 655.661 
2755.99 -2826.76 657.538 
2748.36 -2820.58 652.82 
2749.09 -2821.1 653.037 
2749.85 -2822.24 654.968 
2751.57 -2823.49 655.424 
2749.87 -2821.75 653.573 
2753.04 -2824.61 656.179 
2754.67 -2825.72 656.65 
2758.23 -2827.88 656.906 
2759.04 -2828.06 655.769 
2751.1 -2822.74 654.123 
2753.21 -2824.32 654.802 
2752.38 -2823.63 654.219 
2751.57 -2822.66 652.861 
2754.4 -2825.21 655.535 
2756.81 -2827 656.707 
2756.13 -2826.22 655.528 
2757.95 -2827.32 655.687 
2756.3 -2825.97 654.299 
2754.67 -2824.94 653.951 
