2649.62 -2785.72 1240.77 
2650.66 -2786.81 1240.84 
2648.41 -2784.55 1240.14 
2646.94 -2783.13 1239.78 
2645.57 -2781.89 1237.87 
2646.51 -2782.75 1239.03 
2615.65 -2749.18 1220.01 
2614.69 -2748.28 1217.93 
2644.31 -2780.58 1236.34 
2644.94 -2781.31 1237.15 
2643.33 -2779.34 1234.88 
2641.08 -2776.89 1232.28 
2640.11 -2775.82 1230.68 
2635.06 -2770.18 1227.72 
2634.18 -2769.3 1227.72 
2639.59 -2775 1229.1 
2633.53 -2768.59 1226.74 
2632.99 -2768 1225.93 
2632.11 -2767.13 1225.4 
2630.81 -2766.06 1225.09 
2629.35 -2764.69 1224.63 
2628.17 -2763.6 1223.96 
2627.16 -2762.73 1223.37 
2626.44 -2762.12 1223.04 
2625.28 -2761.21 1222.58 
2623.34 -2759.59 1221.37 
2619.64 -2755.16 1220.14 
2618.88 -2754.1 1220.23 
2617.32 -2751.86 1220.01 
2618.07 -2753.27 1219.23 
2616.48 -2750.76 1219.43 
2620.76 -2756.74 1220 
2619.79 -2755.8 1218.84 
2619.28 -2755.11 1218.82 
2622.04 -2758.16 1220.87 
2671.53 -2806.55 1269.82 
2671.12 -2806.23 1268.93 
2670.68 -2805.84 1268.26 
2670.35 -2805.58 1267.54 
2669.42 -2804.59 1264.63 
2670.93 -2806.32 1265.45 
2670.91 -2806.37 1264.57 
2670.6 -2806 1264.31 
2668.81 -2803.85 1262.86 
2667.78 -2802.8 1261.34 
2668.56 -2803.62 1261.76 
2666.91 -2801.97 1260.1 
2665.38 -2800.49 1259.23 
2664.01 -2799.12 1258.87 
2597.33 -2725.46 1188.56 
2597.18 -2725.24 1187.62 
2596.81 -2724.35 1183.68 
2596.95 -2724.5 1182.84 
2596.97 -2724.3 1181.84 
2596.95 -2724.73 1184.87 
2597.23 -2725.42 1186.89 
2597.32 -2725.59 1186.21 
2587.69 -2708.37 1156.3 
2610.11 -2743.52 1207.83 
2610.01 -2743.31 1207.09 
2607.76 -2740.23 1205.42 
2607.21 -2739.43 1204.93 
2609.92 -2743.2 1206.32 
2609 -2742 1205.17 
2608.24 -2740.87 1204.66 
2613.97 -2747.93 1215.41 
2613.86 -2748.3 1213.43 
2612.51 -2746.6 1212 
2611.93 -2746.06 1210.78 
2611.49 -2745.57 1210 
2610.47 -2743.94 1208.92 
2611.13 -2745.13 1209.23 
2599.02 -2728.12 1192.56 
2598.8 -2728.01 1190.77 
2598.45 -2727.48 1190.31 
2598.05 -2726.66 1190.33 
2597.64 -2725.93 1189.97 
2600.44 -2729.97 1196.12 
2600.15 -2729.62 1195.07 
2599.83 -2729.27 1193.48 
2599.28 -2728.57 1192.08 
2606.17 -2738.43 1203.48 
2605.8 -2738.03 1202.15 
2606.93 -2739.1 1204.25 
2605.78 -2737.96 1201.37 
2605.63 -2737.61 1200.16 
2605.82 -2737.79 1198.8 
2605.03 -2736.62 1198.17 
2602.04 -2732.21 1194.83 
2601.33 -2731.21 1195.22 
2604.27 -2735.48 1197.33 
2604.13 -2735.31 1196.3 
2603.26 -2733.86 1195.87 
2662.04 -2796.96 1258.63 
2663.25 -2798.37 1258.38 
2660.11 -2795.01 1256.8 
2661.06 -2795.98 1257.65 
2659.32 -2794.29 1255.1 
2658.16 -2793.12 1254.01 
2657.12 -2792.02 1253.5 
2653.41 -2788.89 1248.27 
2652.97 -2788.52 1247.08 
2652.55 -2788.24 1245.67 
2652.02 -2787.87 1243.61 
2651.84 -2787.91 1242.21 
2651.85 -2788.01 1241.68 
2650.55 -2786.73 1240.34 
2649.3 -2785.42 1240.09 
2648.13 -2784.27 1239.35 
2615.69 -2749.81 1218.19 
2615.15 -2749.54 1216.16 
2644.97 -2781.27 1236.22 
2644.66 -2780.84 1235.52 
2643.96 -2780.02 1234.96 
2643.03 -2778.85 1233.65 
2642.09 -2777.9 1232.8 
2640.92 -2776.67 1231.38 
2640.17 -2775.71 1229.7 
2633.8 -2768.67 1225.21 
2632.8 -2767.68 1224.27 
2631.95 -2766.9 1223.81 
2631.09 -2766.23 1224.31 
2628.17 -2763.57 1223.42 
2622.42 -2758.63 1220.52 
2624.16 -2760.33 1221.95 
2618.72 -2754.3 1218.85 
2617.26 -2752.3 1218.33 
2618.02 -2753.51 1217.98 
2616.41 -2751.31 1217.1 
2619.25 -2755.35 1217.84 
2618.93 -2754.88 1217.92 
2618.53 -2754.32 1217.9 
2620.44 -2756.68 1218.51 
2620.85 -2757.1 1218.81 
2619.98 -2756.22 1218.16 
2621.18 -2757.51 1218.63 
2672.37 -2807.38 1268.44 
2671.91 -2807.12 1267.5 
2671.48 -2806.81 1266.73 
2671.17 -2806.55 1266.02 
2669.89 -2805.07 1263.41 
2671.89 -2807.49 1263.99 
2671.22 -2806.86 1263 
2671.71 -2807.38 1262.53 
2670.59 -2805.99 1262.78 
2669.37 -2804.49 1262.18 
2668.27 -2803.37 1260.79 
2667.38 -2802.47 1259.95 
2669.16 -2804.35 1261.2 
2665.92 -2801.06 1258.79 
2664.36 -2799.55 1258.1 
2597.76 -2726.27 1188.84 
2597.62 -2726.08 1187.99 
2596.96 -2724.73 1184.23 
2597.36 -2725.59 1185.63 
2597.7 -2726.25 1187.47 
2597.79 -2726.41 1186.96 
2588.32 -2709.54 1157.19 
2588.27 -2709.6 1155.77 
2587.98 -2709.13 1154.9 
2587.59 -2708.32 1154.45 
2586.39 -2706.1 1154.17 
2587.29 -2707.7 1153.41 
2586.94 -2707.04 1153.61 
2610.56 -2744.09 1207.92 
2610.55 -2744.13 1207.22 
2607.76 -2740.21 1204.32 
2607.39 -2739.7 1203.81 
2610.45 -2744.25 1206.4 
2610.02 -2743.37 1205.34 
2609.22 -2742.18 1203.93 
2608.56 -2741.22 1203.49 
2614.89 -2749.56 1214.63 
2615.09 -2750.01 1213.85 
2613.79 -2748.43 1212.51 
2612.99 -2747.51 1211.43 
2612.43 -2746.88 1210.31 
2611.96 -2746.33 1209.55 
2611.76 -2746.2 1208.97 
2599.07 -2728.48 1190.38 
2598.67 -2727.92 1189.65 
2598.41 -2727.44 1189.12 
2598.15 -2726.96 1189.39 
2601 -2730.83 1193.86 
2600.64 -2730.51 1191.87 
2599.58 -2729.11 1191.13 
2606.44 -2738.61 1202.83 
2606.19 -2738.35 1201.54 
2606.42 -2738.71 1200.05 
2606.07 -2738.23 1199.96 
2606.49 -2738.7 1198.84 
2606.34 -2738.53 1198.32 
2605.7 -2737.61 1198.01 
2605.23 -2736.98 1197.1 
2602.38 -2732.8 1194.1 
2601.76 -2732.05 1192.47 
2605.25 -2737.3 1195.53 
2604.37 -2735.96 1194.36 
2603.64 -2734.74 1194.59 
2602.86 -2733.53 1194.05 
2662.33 -2797.38 1257.87 
2663.32 -2798.54 1257.56 
2660.27 -2795.27 1256.04 
2661.6 -2796.67 1256.89 
2659.44 -2794.52 1254.36 
2658.25 -2793.24 1253.33 
2657.17 -2792.11 1252.86 
2655.45 -2790.66 1249.99 
2654.3 -2789.7 1248.87 
2653.79 -2789.36 1247.43 
2653.5 -2789.2 1246.19 
2653.25 -2789.15 1244.57 
2653.14 -2789.23 1243.27 
2653.1 -2789.29 1242.65 
2650.35 -2786.54 1239.85 
2651.9 -2788.15 1240.88 
2649.08 -2785.19 1239.49 
2653.25 -2789.58 1241.82 
2648.12 -2784.22 1238.77 
2646.66 -2782.87 1238.21 
2645.63 -2781.93 1236.9 
2616.06 -2751.11 1215.63 
2644.9 -2781 1235.08 
2644.08 -2780.05 1234.43 
2643.18 -2778.93 1233.07 
2642.18 -2777.9 1232.05 
2641.05 -2776.7 1230.7 
2633.36 -2768.22 1223.92 
2632.36 -2767.22 1223.11 
2630.8 -2765.97 1223.49 
2631.66 -2766.59 1222.91 
2629.14 -2764.47 1223.72 
2627.41 -2762.91 1222.72 
2626.66 -2762.28 1222.43 
2625.59 -2761.44 1222.09 
2623.72 -2759.96 1221.14 
2624.43 -2760.56 1221.4 
2622.82 -2759.05 1220.36 
2617.17 -2752.5 1217.17 
2617.76 -2753.42 1217.11 
2618.83 -2754.96 1217.17 
2618.51 -2754.56 1217.13 
2618.18 -2754.07 1217.16 
2619.76 -2756.07 1217.48 
2620.22 -2756.65 1217.36 
2674.2 -2808.9 1268.74 
2673.18 -2808.21 1267.48 
2672.67 -2807.97 1266.17 
2672.26 -2807.77 1265.29 
2672.03 -2807.62 1264.58 
2672.69 -2808.43 1262.69 
2672.24 -2808.01 1262.08 
2670.37 -2805.8 1261.68 
2671.26 -2806.89 1261.54 
2671.74 -2807.48 1261.12 
2667.87 -2803.01 1259.71 
2668.84 -2804.08 1260.31 
2666.55 -2801.74 1258.59 
2670.14 -2805.62 1260.84 
2664.78 -2800.04 1257.49 
2598.05 -2726.84 1188.39 
2597.35 -2725.49 1184.95 
2597.34 -2725.36 1184.34 
2597.33 -2724.72 1181 
2597.47 -2725.25 1182.78 
2597.83 -2726.39 1186.33 
2598.23 -2727.16 1187.97 
2598.23 -2727.16 1187.33 
2588.75 -2710.39 1156.38 
2588.63 -2710.38 1155.52 
2588.39 -2710.03 1154.81 
2588.23 -2709.78 1154.09 
2587.89 -2709.1 1153.89 
2587.62 -2708.51 1153.21 
2586.31 -2705.98 1153.45 
2587.28 -2707.71 1152.47 
2586.93 -2707.03 1152.77 
2611.19 -2745.28 1208.04 
2611.19 -2745.44 1208.57 
2611.22 -2745.48 1207.39 
2608.19 -2740.67 1203.09 
2607.91 -2740.38 1202.44 
2606.82 -2739.19 1202.3 
2610.63 -2744.27 1205.79 
2610.03 -2743.37 1204.05 
2609.49 -2742.45 1202.76 
2608.99 -2741.74 1202.24 
2616.24 -2751.55 1215.09 
2615.59 -2750.84 1213.68 
2614.37 -2749.28 1212.51 
2613.42 -2748.19 1211.37 
2612.9 -2747.64 1210.48 
2598.93 -2728.36 1189.42 
2599.33 -2728.9 1189.8 
2598.67 -2727.91 1188.91 
2601.36 -2731.64 1190.97 
2599.96 -2729.71 1190.44 
2606.82 -2739.24 1200.22 
2606.97 -2739.41 1198.9 
2606.86 -2739.14 1198.32 
2606.17 -2738.32 1197.59 
2606.66 -2738.95 1197.86 
2605.95 -2737.94 1196.8 
2602.62 -2733.38 1192.3 
2603.31 -2734.45 1192.95 
2602.37 -2733.07 1191.28 
2606.02 -2738.24 1195.9 
2605.84 -2738.18 1195.19 
2605.72 -2738.09 1194.66 
2605.09 -2737.14 1194.27 
2603.78 -2735.23 1192.92 
2662.69 -2797.93 1256.83 
2663.59 -2798.94 1256.67 
2660.5 -2795.65 1255.25 
2661.67 -2796.96 1255.79 
2659.54 -2794.75 1253.52 
2658.41 -2793.48 1252.57 
2657.42 -2792.4 1252.37 
2656.96 -2791.97 1251.34 
2656.29 -2791.38 1250.68 
2656.12 -2791.35 1249.71 
2654.98 -2790.4 1248.49 
2654.32 -2790 1246.82 
2654.35 -2790.33 1245.26 
2654.46 -2790.67 1244.14 
2654.5 -2790.82 1243.46 
2654.59 -2791 1242.73 
2651.68 -2787.92 1240.38 
2648.04 -2784.09 1238.28 
2617.01 -2752.48 1216.28 
2645.74 -2781.92 1236 
2645.39 -2781.47 1235.21 
2646.87 -2782.98 1237.31 
2645.21 -2781.16 1234.48 
2644.27 -2780.09 1233.86 
2637.12 -2772.27 1225.03 
2637.93 -2772.99 1225.2 
2635.99 -2771 1224.57 
2633.48 -2768.4 1223.19 
2632.83 -2767.7 1222.51 
2632.01 -2766.8 1222.2 
2630.96 -2765.97 1222.61 
2629.55 -2764.79 1223.22 
2631.41 -2766.19 1221.97 
2628.36 -2763.61 1222.5 
2625.23 -2761.15 1221.6 
2620.55 -2756.99 1217.08 
2624 -2760.17 1220.76 
2623 -2759.2 1219.85 
2621.73 -2758.07 1218.72 
2617.45 -2753.18 1216.2 
2618.1 -2754.17 1216.26 
2618.54 -2754.72 1216.58 
2617.77 -2753.72 1216.11 
2619.41 -2755.74 1216.78 
2619.79 -2756.24 1216.62 
2677.19 -2811.46 1268.59 
2675.68 -2810.25 1267.6 
2674.16 -2809.19 1266.43 
2673.51 -2808.82 1265.22 
2673.17 -2808.71 1264.14 
2673.06 -2808.73 1263.1 
2673.59 -2809.4 1261.4 
2672.96 -2808.83 1261.18 
2672.48 -2808.37 1260.48 
2671.05 -2806.77 1260.37 
2671.72 -2807.59 1259.99 
2668.46 -2803.76 1259.31 
2667.09 -2802.34 1258.51 
2669.8 -2805.29 1260.11 
2665.86 -2801.11 1257.62 
2664.77 -2800.14 1256.62 
2597.91 -2726.44 1185.79 
2597.9 -2726.21 1184.47 
2598.19 -2726.86 1185.73 
2598.56 -2727.71 1188 
2594.61 -2720.24 1170.75 
2594.48 -2719.96 1170 
2589.42 -2711.34 1157.89 
2589.2 -2711.18 1156.77 
2589.05 -2711.05 1156.05 
2588.89 -2711.11 1155.05 
2588.73 -2710.89 1154.55 
2588.6 -2710.68 1154.06 
2588.43 -2710.38 1153.55 
2588.16 -2709.71 1153.25 
2587.94 -2709.22 1152.88 
2587.67 -2708.61 1152.39 
2587.35 -2707.86 1151.78 
2586.97 -2707.08 1152.05 
2582.91 -2697.98 1134.01 
2611.62 -2746.19 1208.38 
2611.88 -2746.39 1207.82 
2608.79 -2741.54 1201.16 
2607.76 -2740.36 1200.6 
2611.4 -2745.51 1206.88 
2611.11 -2744.88 1205.99 
2610.69 -2744.34 1204.88 
2610.6 -2744.06 1203.63 
2610.1 -2743.31 1202.61 
2609.61 -2742.58 1201.32 
2616.86 -2752.49 1215.2 
2616.03 -2751.47 1213.89 
2614.85 -2749.96 1212.5 
2614.18 -2749.2 1211.6 
2613.51 -2748.39 1210.85 
2612.51 -2747.26 1209.59 
2612.25 -2747.03 1208.91 
2611.89 -2746.6 1208.66 
2599.61 -2729.29 1189.32 
2598.94 -2728.38 1188.56 
2600.58 -2730.57 1190.05 
2601.78 -2732.27 1190.32 
2607.42 -2740.07 1199.07 
2607.23 -2739.77 1198.4 
2607.03 -2739.45 1197.89 
2606.41 -2738.7 1197.02 
2603.25 -2734.46 1192.16 
2602.86 -2733.89 1191.12 
2606.29 -2738.74 1196.02 
2606.4 -2739.21 1195.18 
2606.33 -2739.07 1194.63 
2605.92 -2738.36 1194.28 
2605.55 -2737.9 1194.07 
2604.59 -2736.46 1193.31 
2662.74 -2798.15 1255.88 
2663.65 -2799.17 1255.66 
2660.73 -2796.1 1254.39 
2661.92 -2797.46 1254.73 
2659.86 -2795.22 1252.85 
2658.52 -2793.77 1251.65 
2657.67 -2792.7 1251.57 
2656.9 -2792.02 1250.47 
2656.61 -2791.9 1249.44 
2655.53 -2791.02 1248.01 
2655.07 -2790.89 1246.43 
2655.85 -2792.02 1245.6 
2655.68 -2791.98 1244.87 
2655.75 -2792.16 1244.3 
2655.74 -2792.21 1243.67 
2650.15 -2786.29 1239.05 
2652.75 -2789.08 1240.91 
2654.99 -2791.46 1242.4 
2654.1 -2790.52 1241.64 
2648.88 -2784.91 1238.58 
2656.06 -2792.55 1243.39 
2646.9 -2782.96 1236.78 
2645.89 -2781.94 1235.38 
2645.73 -2781.6 1234.36 
2647.94 -2783.88 1237.26 
2645.16 -2780.74 1232.99 
2644.46 -2780.13 1233.21 
2636.8 -2772 1223.35 
2637.69 -2772.9 1223.42 
2638.54 -2773.62 1224.29 
2635.61 -2770.67 1223.07 
2634.61 -2769.54 1223.32 
2634 -2768.93 1223.21 
2633.36 -2768.32 1222.09 
2633.07 -2767.99 1221.41 
2632.5 -2767.32 1221.81 
2631.52 -2766.18 1221.19 
2631.98 -2766.71 1220.98 
2630.42 -2765.37 1222.15 
2630.93 -2765.71 1221.57 
2629.54 -2764.68 1222.65 
2628.78 -2763.97 1222.3 
2628.19 -2763.31 1221.78 
2627.57 -2762.91 1222.07 
2625.73 -2761.48 1221.31 
2626.79 -2762.33 1221.79 
2624.47 -2760.47 1220.51 
2620.18 -2756.72 1216.5 
2621.82 -2758.14 1218.23 
2617.5 -2753.41 1215.16 
2618.94 -2755.23 1216.24 
2619.4 -2755.81 1216.22 
2618.45 -2754.64 1215.55 
2619.61 -2756.11 1215.79 
2678.5 -2812.66 1268.17 
2677.33 -2811.89 1266.63 
2675.49 -2810.44 1265.79 
2674.69 -2810.06 1264.16 
2673.98 -2809.52 1263.53 
2673.85 -2809.54 1262.33 
2674.4 -2810.22 1261.38 
2674.2 -2810.17 1260.33 
2673.46 -2809.45 1260.15 
2672.7 -2808.74 1259.41 
2670.77 -2806.58 1259.49 
2671.59 -2807.6 1259.06 
2669.56 -2805.11 1259.36 
2668.42 -2803.89 1258.46 
2667.39 -2802.72 1258.26 
2666.14 -2801.49 1257.14 
2665.06 -2800.5 1256.19 
2596.27 -2722.87 1173.17 
2596.31 -2723.05 1172.22 
2596.29 -2723.1 1171.44 
2595.5 -2721.76 1171.25 
2598.56 -2727.57 1186.69 
2598.28 -2726.74 1184.35 
2598.14 -2726.25 1182.86 
2598.53 -2727.4 1185.77 
2598.85 -2728.02 1186.55 
2599.24 -2728.76 1188.21 
2598.98 -2728.37 1187.36 
2595.51 -2721.79 1170.72 
2595.27 -2721.34 1170.09 
2589.95 -2712.35 1157.93 
2589.6 -2711.86 1157.09 
2589.44 -2711.82 1156.21 
2589.49 -2712.23 1155.48 
2589.18 -2711.61 1155.26 
2589.33 -2712.6 1153.99 
2589.13 -2712.29 1153.3 
2588.88 -2711.74 1152.72 
2588.36 -2710.27 1152.94 
2588.2 -2709.81 1152.43 
2587.99 -2709.32 1152.08 
2587.71 -2708.7 1151.71 
2587.48 -2708.07 1150.9 
2587.15 -2707.35 1151.06 
2588.09 -2708.65 1145.79 
2583.9 -2700.1 1134.57 
2584.64 -2701.63 1135.6 
2583.6 -2699.54 1133.74 
2583.38 -2699.02 1132.94 
2583.04 -2698.09 1132.09 
2612.07 -2746.79 1208.22 
2609.94 -2742.99 1200.09 
2608.89 -2741.71 1199.91 
2608.2 -2740.89 1199.49 
2611.89 -2746.32 1207.06 
2611.54 -2745.57 1206.1 
2611.08 -2744.76 1204.71 
2611.12 -2744.61 1203.47 
2610.76 -2744.07 1202.37 
2610.31 -2743.57 1201.43 
2615.66 -2751.08 1213 
2615.01 -2750.28 1212.01 
2614.41 -2749.57 1211.13 
2612.98 -2747.83 1210.01 
2612.63 -2747.44 1209.1 
2599.47 -2729.08 1188.75 
2600.5 -2730.46 1189.35 
2602.61 -2733.52 1190.33 
2601.58 -2731.99 1189.37 
2607.52 -2740.24 1198.51 
2607.31 -2739.92 1197.77 
2606.85 -2739.33 1197.07 
2606.65 -2739.54 1196.16 
2603.97 -2735.59 1192.28 
2603.51 -2734.93 1191.42 
2606.61 -2740.11 1194.95 
2605.79 -2738.24 1193.77 
2605.19 -2737.34 1193.46 
2662.91 -2798.57 1254.65 
2664.05 -2799.72 1254.94 
2661.19 -2796.81 1253.48 
2662.08 -2797.88 1253.41 
2660.39 -2796 1252.06 
2659.02 -2794.51 1251.08 
2658.08 -2793.45 1250.3 
2657.64 -2792.78 1250.71 
2657.24 -2792.55 1249.7 
2656.15 -2791.77 1247.76 
2656.24 -2792.28 1246.34 
2657.09 -2793.37 1246.04 
2657.71 -2793.87 1246.87 
2656.87 -2793.27 1245.28 
2656.77 -2793.25 1244.63 
2651.78 -2788.03 1239.88 
2655.42 -2791.89 1242.47 
2654.64 -2791.07 1241.76 
2657.23 -2793.78 1244.56 
2648.6 -2784.52 1237.68 
2648.12 -2783.92 1236.75 
2646.26 -2782.13 1234.89 
2645.98 -2781.42 1232.83 
2648.62 -2784.45 1237.14 
2636.47 -2771.71 1221.75 
2637.59 -2772.88 1221.68 
2638.77 -2774.02 1222.59 
2638.76 -2774.12 1221.34 
2639.53 -2774.66 1223.51 
2635.17 -2770.28 1221.86 
2634.15 -2769.22 1221.75 
2634.09 -2769.14 1220.86 
2632.69 -2767.53 1220.8 
2633.91 -2768.9 1220.25 
2631.31 -2765.84 1219.65 
2630.85 -2765.45 1220.38 
2632.23 -2766.91 1219.99 
2630.11 -2764.91 1221.4 
2630.44 -2765.11 1220.81 
2629.51 -2764.43 1221.72 
2628.74 -2763.73 1221.44 
2628.1 -2763.14 1221.18 
2623.43 -2759.56 1219.61 
2619.99 -2756.5 1215.89 
2620.99 -2757.38 1216.71 
2616.43 -2752.09 1213.73 
2617.23 -2753.11 1214.43 
2619.01 -2755.36 1215.44 
2617.68 -2753.68 1214.31 
2619.36 -2755.75 1215.1 
2679.86 -2813.91 1267.66 
2679 -2813.45 1266.17 
2676.18 -2811.33 1264.2 
2677.93 -2812.86 1264.39 
2675.49 -2811.06 1262.41 
2674.66 -2810.31 1262.46 
2675.12 -2810.97 1261.26 
2674.92 -2810.91 1260.32 
2674.4 -2810.53 1259.43 
2673.6 -2809.74 1259.27 
2672.65 -2808.86 1258.55 
2670.54 -2806.45 1258.74 
2671.39 -2807.51 1258.23 
2669.62 -2805.32 1258.74 
2668.43 -2804.06 1257.84 
2667.31 -2802.78 1257.52 
2666.47 -2801.91 1256.89 
2665.56 -2801.06 1255.99 
2596.79 -2723.67 1173.53 
2596.57 -2723.42 1172.79 
2597.04 -2724.47 1172.15 
2596.86 -2724.2 1171.68 
2596.6 -2723.67 1170.89 
2597.11 -2724.72 1171.32 
2598.89 -2727.89 1185.66 
2599.41 -2728.41 1184.87 
2599.22 -2727.9 1183.84 
2599.18 -2728.45 1186.56 
2599.41 -2728.89 1187.28 
2599.63 -2729.23 1187.94 
2600.04 -2729.81 1188.69 
2596.19 -2722.88 1170.38 
2596.06 -2722.6 1169.61 
2590.51 -2713.28 1158.13 
2590.06 -2712.8 1157.1 
2590.47 -2713.42 1157.37 
2589.79 -2712.51 1156.44 
2589.81 -2712.86 1155.68 
2589.57 -2713.16 1154.07 
2589.79 -2713.63 1154.13 
2589.64 -2713.72 1153.1 
2589.42 -2713.33 1152.55 
2589.22 -2712.89 1152.06 
2588.57 -2710.93 1152.16 
2588.28 -2710.03 1151.77 
2588.04 -2709.4 1151.38 
2587.83 -2708.88 1150.7 
2587.29 -2707.33 1149.47 
2587.65 -2708.14 1149.33 
2588.33 -2709.16 1146.27 
2587.3 -2707.07 1142.43 
2587.75 -2707.9 1143.95 
2588.03 -2708.51 1144.35 
2588.21 -2708.87 1145.08 
2587.59 -2707.66 1142.39 
2588.42 -2709.32 1145.69 
2584.48 -2701.33 1134.65 
2583.97 -2700.33 1133.51 
2585.56 -2703.39 1136.24 
2585.35 -2702.97 1135.52 
2583.81 -2699.98 1132.7 
2583.63 -2699.49 1131.92 
2582.98 -2697.73 1130.83 
2583.51 -2699.13 1131.01 
2581.23 -2693.42 1125.46 
2581.99 -2694.94 1124.75 
2612.43 -2747.23 1208.48 
2612.32 -2747 1207.75 
2611.05 -2744.32 1200.36 
2611.26 -2744.54 1199.45 
2610.1 -2743.17 1198.68 
2609.22 -2742.07 1198.64 
2608.39 -2741.11 1198.73 
2612.22 -2746.8 1207.26 
2611.58 -2745.46 1205.43 
2611.44 -2745.12 1204.33 
2611.59 -2745.16 1203.38 
2611.43 -2744.91 1202.34 
2611.15 -2744.52 1201.45 
2615.86 -2751.39 1212.61 
2613.81 -2748.84 1210.44 
2615.34 -2750.75 1211.64 
2613.31 -2748.25 1209.73 
2602.49 -2733.31 1189.59 
2603.49 -2734.83 1190.83 
2600.94 -2731.01 1188.43 
2607.29 -2739.85 1197.24 
2607.06 -2739.95 1196.24 
2606.74 -2740.37 1195.53 
2604.69 -2736.64 1192.64 
2606.73 -2739.66 1194.42 
2607.04 -2740.39 1194.52 
2606.21 -2738.85 1193.85 
2605.54 -2737.85 1193.32 
2662.84 -2798.73 1253.58 
2665.15 -2800.82 1255.23 
2663.81 -2799.67 1254.01 
2661.49 -2797.39 1252.07 
2662.33 -2798.4 1252.34 
2660.78 -2796.82 1250.57 
2659.68 -2795.56 1249.92 
2658.67 -2794.43 1249.28 
2657.81 -2793.46 1248.77 
2656.91 -2792.62 1248 
2657.37 -2793.38 1247.24 
2658.38 -2794.67 1246.84 
2658.41 -2794.45 1247.79 
2658.85 -2795.03 1247.75 
2658.15 -2794.52 1246.33 
2658.09 -2794.58 1245.78 
2658.5 -2795.08 1245.65 
2651.2 -2787.39 1239.2 
2653.51 -2789.88 1240.95 
2652.59 -2788.87 1240.2 
2649.97 -2786.06 1238.43 
2655.95 -2792.43 1242.59 
2655 -2791.45 1241.83 
2649.25 -2785.22 1237.93 
2647.37 -2783.21 1236.19 
2648.38 -2784.05 1236.32 
2648.91 -2784.63 1236.71 
2647.37 -2783.1 1235.56 
2637.35 -2772.65 1220.9 
2635.75 -2770.94 1220.97 
2638.76 -2774.13 1220.46 
2639.97 -2775.22 1222.02 
2639.86 -2775.23 1220.98 
2639.94 -2775.37 1220.08 
2635.48 -2770.63 1220.29 
2633.64 -2768.59 1219.77 
2635.14 -2770.22 1219.68 
2632.21 -2766.74 1218.58 
2631.79 -2766.12 1217.54 
2630.08 -2764.42 1218.51 
2629.9 -2764.32 1219.25 
2633.22 -2768.04 1219.23 
2629.56 -2764.06 1219.7 
2629.28 -2763.91 1220.29 
2628.85 -2763.51 1220.18 
2628.44 -2763.22 1220.31 
2627.32 -2762.59 1221.3 
2627.8 -2762.86 1220.82 
2625.4 -2761.09 1220.42 
2623.93 -2759.91 1219.43 
2626.45 -2761.91 1220.92 
2622.56 -2758.67 1218.37 
2619.8 -2756.22 1215.18 
2621.44 -2757.81 1217.25 
2620.93 -2757.25 1216.14 
2616.51 -2752.21 1213.08 
2618.16 -2754.28 1214.6 
2618.59 -2754.82 1214.69 
2616.88 -2752.7 1212.75 
2616.38 -2752.08 1212.5 
2619.05 -2755.31 1214.4 
2619.46 -2755.75 1214.42 
2618.86 -2755.04 1213.99 
2681 -2815.15 1266.23 
2679.54 -2814.3 1264.27 
2676.84 -2812.29 1262.25 
2678.66 -2813.83 1262.41 
2675.81 -2811.68 1260.89 
2675.45 -2811.51 1260.02 
2674.99 -2811.21 1259.14 
2674.37 -2810.69 1258.52 
2673.6 -2809.93 1258.43 
2672.65 -2809 1257.78 
2670.42 -2806.47 1258 
2671.22 -2807.44 1257.51 
2669.59 -2805.47 1258.08 
2668.49 -2804.34 1257.23 
2667.23 -2802.83 1256.82 
2666.32 -2801.92 1256.11 
2597.37 -2724.84 1173.1 
2597.14 -2724.5 1172.7 
2597.6 -2725.64 1171.84 
2597.8 -2725.95 1172.22 
2597.93 -2725.59 1174.21 
2597.61 -2725.14 1173.69 
2597.05 -2724.49 1170.54 
2597.55 -2725.56 1171.1 
2599.94 -2729.3 1185.93 
2600.54 -2729.81 1184.31 
2600.19 -2729.2 1183.36 
2600.08 -2729.69 1186.92 
2600.39 -2730.2 1187.66 
2596.94 -2724.21 1169.99 
2596.93 -2724.09 1169.46 
2596.15 -2722.65 1168.89 
2591.16 -2714.29 1158.26 
2590.87 -2714.03 1157.52 
2590.42 -2713.59 1156.52 
2590.13 -2713.22 1156.17 
2590.7 -2713.99 1156.69 
2590.16 -2713.86 1155.01 
2589.92 -2714.31 1153.37 
2589.5 -2713.68 1152.11 
2588.75 -2711.49 1151.62 
2588.26 -2709.97 1150.92 
2588.12 -2709.48 1150.08 
2588.09 -2709.12 1148.85 
2588.22 -2709.09 1147.62 
2588.53 -2709.66 1146.7 
2588.63 -2709.77 1146.07 
2587.1 -2706.63 1141.39 
2587.34 -2707.27 1140.2 
2587.56 -2707.67 1140.69 
2587.87 -2708.23 1143.07 
2588.27 -2708.97 1144.51 
2588.1 -2708.68 1143.49 
2588.48 -2709.41 1145.12 
2587.73 -2708.01 1141.39 
2587.68 -2708.01 1139.94 
2588.67 -2709.79 1145.53 
2585.25 -2702.79 1134.86 
2584.5 -2701.33 1133.82 
2584.15 -2700.57 1132.6 
2586.36 -2705.1 1137.64 
2586.05 -2704.44 1136.57 
2585.89 -2704.11 1135.82 
2585.79 -2703.82 1135.15 
2584.14 -2700.5 1131.65 
2584.01 -2700.14 1130.75 
2583.38 -2698.39 1129.37 
2584.06 -2699.9 1129.14 
2580.88 -2692.61 1123.66 
2581.21 -2693.38 1123.13 
2580.45 -2691.48 1122.92 
2580.07 -2690.53 1121.36 
2579.27 -2688.73 1120.46 
2578.43 -2686.85 1121.01 
2584.11 -2699.61 1125.8 
2581.64 -2694.14 1122.96 
2582.29 -2695.47 1122.99 
2612.31 -2745.68 1200.96 
2612.51 -2745.89 1200.32 
2612.41 -2745.84 1199.41 
2611.06 -2744.34 1198.11 
2610.17 -2743.24 1197.26 
2609.39 -2742.22 1197.74 
2608.94 -2741.71 1197.84 
2607.93 -2740.63 1198.07 
2612.63 -2747.29 1207.45 
2611.94 -2746.02 1205.57 
2611.83 -2745.58 1204.29 
2612.28 -2745.96 1203.73 
2612.02 -2745.6 1202.78 
2612.4 -2745.85 1201.69 
2612.63 -2746.2 1202.36 
2614.94 -2750.28 1210.91 
2614.22 -2749.41 1210.08 
2602.88 -2733.79 1189.25 
2601.78 -2732.15 1188.12 
2604.78 -2736.74 1192 
2607.57 -2740.46 1197.59 
2607.38 -2740.37 1196.55 
2606.79 -2740.7 1194.99 
2605.93 -2738.43 1193.11 
2663.34 -2799.44 1252.9 
2666.12 -2801.9 1255.42 
2664.78 -2800.7 1254.24 
2661.98 -2798.39 1250.79 
2662.93 -2799.48 1251.2 
2663.59 -2800.09 1251.83 
2661.82 -2798.43 1249.82 
2660.55 -2796.84 1249.35 
2659.36 -2795.44 1248.69 
2659.36 -2795.65 1247.73 
2658.99 -2795.33 1247.27 
2659.86 -2796.14 1248.38 
2659.03 -2795.5 1246.78 
2659 -2795.58 1246.23 
2659.47 -2796.02 1246.45 
2651.56 -2787.75 1239.3 
2654.11 -2790.49 1241.07 
2653.03 -2789.32 1240.28 
2650.6 -2786.7 1238.38 
2656.82 -2793.38 1243.43 
2658.11 -2794.7 1244.86 
2655.54 -2791.99 1241.92 
2648.95 -2784.5 1236.02 
2649.45 -2785.08 1236.67 
2649.88 -2785.75 1237.44 
2651 -2787.1 1238.42 
2637.13 -2772.39 1220.25 
2638.64 -2774 1219.75 
2639.87 -2775.3 1219.27 
2641.3 -2776.37 1222.92 
2640.89 -2776.23 1221.4 
2641.07 -2776.52 1220.49 
2641.2 -2776.72 1219.76 
2641.2 -2776.76 1218.94 
2636.82 -2771.98 1219.44 
2634.64 -2769.61 1219 
2636.17 -2771.17 1218.71 
2633.45 -2768.07 1218.23 
2632.87 -2767.23 1217.14 
2628.84 -2763.13 1218.66 
2628.46 -2762.76 1218.61 
2628 -2762.78 1219.84 
2627.08 -2762.33 1220.89 
2627.41 -2762.44 1220.28 
2622.95 -2758.93 1218.15 
2626.25 -2761.64 1220.42 
2620.58 -2756.92 1215.55 
2620.23 -2756.62 1215.3 
2617.35 -2753.31 1213.12 
2617.79 -2753.85 1213.55 
2616.22 -2751.91 1211.66 
2615.67 -2751.19 1211.29 
2618.13 -2754.24 1213.72 
2617.73 -2753.74 1212.81 
2618.68 -2754.78 1213.51 
2682.43 -2816.04 1267.68 
2683.44 -2817.23 1266.12 
2682.23 -2816.46 1264.64 
2680.87 -2815.45 1264.02 
2680.3 -2815.21 1262.52 
2677.79 -2813.34 1261.05 
2676.56 -2812.42 1260.46 
2679.54 -2814.83 1261.22 
2675.93 -2812.12 1259.54 
2675.47 -2811.77 1258.98 
2675.17 -2811.66 1258.08 
2674.6 -2811.09 1257.93 
2673.73 -2810.29 1257.5 
2672.44 -2808.96 1256.92 
2670.29 -2806.49 1257.34 
2671 -2807.4 1256.73 
2669.52 -2805.66 1257.21 
2668.46 -2804.61 1256.43 
2667.23 -2803 1256.33 
2598.04 -2726.21 1173.14 
2598.04 -2726.43 1171.92 
2598.12 -2726.48 1172.72 
2598.21 -2725.91 1174.68 
2598.31 -2726.59 1173.49 
2597.95 -2726.23 1170.98 
2601.11 -2730.84 1185.34 
2601.36 -2730.91 1183.72 
2601.36 -2731.39 1186.71 
2597.56 -2725.46 1170.11 
2596.87 -2723.9 1168.83 
2597.66 -2725.5 1169.5 
2591.69 -2715.03 1158.31 
2591.36 -2714.76 1157.64 
2590.99 -2714.44 1156.9 
2590.53 -2714.42 1155.24 
2589.82 -2714.46 1152.61 
2589.17 -2712.83 1151.44 
2589.34 -2713.42 1151.55 
2588.73 -2711.33 1150.89 
2588.64 -2710.92 1150.35 
2588.53 -2710.45 1149.72 
2588.6 -2710.42 1148.96 
2588.44 -2709.81 1147.94 
2588.62 -2710.11 1147.28 
2588.82 -2710.25 1146.52 
2588.85 -2710.15 1145.83 
2586.97 -2706.49 1139.34 
2587.46 -2707.68 1138.87 
2587.11 -2706.88 1138.48 
2587.91 -2708.37 1142.05 
2588.31 -2709.08 1143.82 
2588.11 -2708.76 1142.65 
2587.9 -2708.43 1140.3 
2587.83 -2708.4 1139.18 
2587.67 -2708.19 1138.28 
2585.75 -2703.67 1134.52 
2585.2 -2702.65 1133.94 
2584.59 -2701.38 1132.63 
2584.53 -2701.27 1131.32 
2586.63 -2705.75 1137.3 
2586.53 -2705.56 1136.59 
2586.29 -2704.97 1135.73 
2586.16 -2704.63 1134.95 
2584.48 -2701.06 1130.38 
2584.51 -2700.94 1129.44 
2584.44 -2700.48 1127.8 
2580.64 -2692.01 1121.3 
2580.98 -2692.88 1121.31 
2579.98 -2690.35 1119.79 
2578.97 -2688.04 1119.1 
2579.41 -2689.12 1118.58 
2578.53 -2687.05 1118.95 
2584.52 -2700.48 1126.63 
2584.64 -2700.6 1125.45 
2584.49 -2700.24 1123.99 
2583.96 -2699.12 1123.56 
2583.58 -2698.15 1122.64 
2581.61 -2694 1121.74 
2582.31 -2695.34 1121.56 
2577.78 -2685.18 1119.07 
2613.64 -2748.67 1209.42 
2613.17 -2748.04 1208.65 
2613.69 -2747.28 1201.43 
2613.76 -2747.4 1202 
2614.02 -2747.72 1200.95 
2613.89 -2747.62 1199.8 
2613.03 -2746.72 1198.4 
2612.07 -2745.68 1197.47 
2611.34 -2744.79 1196.49 
2610.59 -2743.81 1195.9 
2610.27 -2743.41 1195.28 
2610.01 -2743.01 1196.01 
2609.17 -2742.02 1197.05 
2608.59 -2741.37 1197.73 
2607.97 -2740.82 1197.6 
2613.04 -2747.77 1207.67 
2612.34 -2746.65 1206.07 
2613 -2747.61 1207.16 
2612.24 -2746.15 1204.66 
2612.75 -2746.67 1204.5 
2613.46 -2747.27 1203.98 
2613.14 -2746.81 1203.22 
2613.98 -2747.66 1202.6 
2614.21 -2747.95 1203.27 
2615.11 -2750.49 1210.32 
2603.93 -2735.29 1190.2 
2603.25 -2734.16 1188.7 
2602.28 -2732.76 1187.59 
2605.67 -2738 1192.65 
2607.49 -2740.78 1196.93 
2607.02 -2740.77 1195.74 
2606.99 -2741.03 1194.56 
2664.21 -2800.5 1252.82 
2666.19 -2802.15 1254.88 
2665.22 -2801.31 1254 
2663.03 -2799.87 1250.47 
2664.63 -2801.64 1251.24 
2664.29 -2801.36 1250.79 
2664.77 -2801.51 1251.96 
2661.75 -2798.46 1249.29 
2660.79 -2797.28 1248.92 
2660.08 -2796.53 1248.03 
2659.68 -2796.05 1247.59 
2659.68 -2796.15 1247.07 
2659.91 -2796.45 1246.52 
2651.98 -2788.18 1239.42 
2654.64 -2791.03 1241.17 
2653.47 -2789.77 1240.37 
2656.64 -2793.19 1243 
2657.89 -2794.48 1244.16 
2658.85 -2795.45 1245.45 
2656.1 -2792.56 1242.13 
2659.45 -2796.05 1245.74 
2649.5 -2784.93 1236.09 
2650.21 -2785.88 1236.92 
2650.48 -2786.36 1237.53 
2651.4 -2787.51 1238.55 
2652.6 -2788.81 1239.62 
2638.3 -2773.56 1219.02 
2639.55 -2774.91 1218.31 
2640.98 -2776.47 1218 
2642.22 -2777.42 1222.11 
2641.99 -2777.45 1220.55 
2642.32 -2777.93 1219.38 
2642.13 -2777.8 1218.71 
2641.95 -2777.58 1217.77 
2637.43 -2772.47 1218.09 
2635.43 -2770.3 1218.13 
2636.53 -2771.39 1217.27 
2634.69 -2769.3 1217.21 
2634.03 -2768.28 1216.1 
2627.76 -2762.13 1218.53 
2627.39 -2761.41 1217.23 
2627.61 -2762.3 1219.38 
2626.81 -2761.99 1220.38 
2627.19 -2762.08 1219.81 
2625.11 -2760.7 1219.58 
2623.87 -2759.73 1218.76 
2621.72 -2757.92 1216.74 
2626.01 -2761.35 1219.93 
2620.1 -2756.44 1214.81 
2619.69 -2755.85 1213.92 
2619.2 -2755.27 1213.49 
2618.38 -2754.39 1212.77 
2616.7 -2752.51 1211.86 
2617.09 -2752.98 1212.07 
2615.74 -2751.28 1210.68 
2616.71 -2752.51 1211.24 
2617.36 -2753.24 1211.55 
2683.89 -2817.19 1268.01 
2684.99 -2818.33 1267.32 
2684.95 -2818.5 1266.14 
2683.48 -2817.54 1264.63 
2682.93 -2817.27 1263.16 
2681.75 -2816.4 1262.79 
2680.98 -2815.95 1261.75 
2678.36 -2814.06 1260.03 
2676.89 -2812.94 1259.5 
2680.01 -2815.48 1260.38 
2676.23 -2812.65 1258.52 
2675.73 -2812.29 1258.05 
2674.86 -2811.81 1256.55 
2675.42 -2812.45 1256.45 
2674.29 -2811.25 1256.35 
2673.35 -2810.4 1255.64 
2672.12 -2808.97 1255.6 
2669.96 -2806.36 1256.64 
2670.88 -2807.75 1255.4 
2669.83 -2806.66 1255.33 
2669.2 -2805.6 1256.29 
2668.49 -2805.4 1254.58 
2667.99 -2804.7 1254.72 
2667.31 -2803.32 1255.76 
2598.29 -2726.86 1172.15 
2598.82 -2726.86 1174.83 
2599.5 -2727.49 1175.87 
2598.52 -2727.04 1173.13 
2597.95 -2726.14 1170.45 
2598.23 -2726.67 1170.86 
2598.3 -2726.85 1171.33 
2602.02 -2732.1 1185.26 
2602.01 -2731.8 1183.29 
2598.02 -2726.12 1169.81 
2596.9 -2723.66 1167.54 
2597.61 -2725.28 1168.92 
2598.49 -2726.67 1168.79 
2592.22 -2715.92 1158.11 
2591.94 -2715.51 1157.82 
2591.71 -2715.37 1157.29 
2591.3 -2714.96 1156.85 
2590.91 -2714.87 1155.66 
2590.23 -2714.66 1153.81 
2590.66 -2715.15 1154.43 
2590.1 -2714.82 1153.08 
2589.71 -2714.3 1152.13 
2589.14 -2712.55 1150.65 
2589.31 -2713.1 1150.89 
2589.03 -2712.05 1150.06 
2588.76 -2710.79 1148.55 
2588.86 -2710.78 1147.82 
2588.85 -2710.64 1147.21 
2589.04 -2710.64 1146.26 
2587.45 -2707.77 1138.08 
2587.11 -2706.89 1137.74 
2588.04 -2708.64 1141.35 
2588.54 -2709.51 1144.1 
2588.73 -2709.84 1144.68 
2588.33 -2709.15 1143.16 
2588.21 -2708.91 1141.77 
2588.92 -2710.2 1145.07 
2588.01 -2708.74 1139.61 
2587.77 -2708.46 1137.79 
2585.79 -2703.64 1133.69 
2586.12 -2704.47 1134.29 
2585.2 -2702.53 1132.38 
2584.79 -2701.63 1129.59 
2584.95 -2702.03 1130.44 
2586.95 -2706.51 1136.88 
2586.95 -2706.45 1136.25 
2586.6 -2705.49 1135.05 
2584.78 -2701.31 1128.13 
2580.54 -2691.56 1119.82 
2581.01 -2692.64 1119.89 
2579.82 -2690.06 1118.48 
2579.13 -2688.36 1117.75 
2579.52 -2689.41 1117.76 
2578.57 -2687.05 1117.95 
2584.94 -2701.09 1124.17 
2585.09 -2701.47 1122.52 
2584.81 -2700.88 1122.2 
2584.51 -2700.17 1121.98 
2584.18 -2699.15 1120.97 
2581.81 -2694.19 1120.63 
2577.57 -2684.66 1118.61 
2614.48 -2749.65 1209.47 
2614.06 -2749.12 1208.89 
2614.9 -2748.78 1201.94 
2615.04 -2748.88 1202.63 
2614.91 -2748.94 1200.65 
2614.07 -2747.97 1198.46 
2612.96 -2746.82 1196.62 
2612.28 -2746.05 1195.77 
2611.41 -2744.99 1195.11 
2610.62 -2743.94 1194.54 
2610.25 -2743.43 1194.25 
2610 -2743.07 1194.85 
2609.57 -2742.47 1195.66 
2608.79 -2741.67 1197.23 
2609.22 -2742.15 1196.18 
2613.84 -2748.77 1208.38 
2612.75 -2747.06 1206.02 
2613.72 -2748.49 1207.81 
2613.19 -2747.43 1205.72 
2613.86 -2747.85 1204.83 
2614.52 -2748.37 1204.02 
2614.95 -2748.9 1204.63 
2615.35 -2749.2 1203.32 
2615.68 -2749.57 1203.94 
2604.04 -2735.1 1188.71 
2603.4 -2734.14 1187.42 
2602.65 -2733.05 1186.53 
2604.95 -2736.93 1191.37 
2606.95 -2740.77 1194.05 
2606.23 -2738.91 1193.21 
2606.56 -2739.59 1193.69 
2665.21 -2801.69 1252.97 
2666.02 -2802.51 1253.51 
2665.81 -2803.06 1251.67 
2665.48 -2802.91 1250.92 
2665.8 -2802.81 1252.2 
2662 -2798.87 1248.95 
2662.9 -2799.91 1249.75 
2664.03 -2801.23 1250.1 
2660.98 -2797.61 1248.57 
2660.16 -2796.68 1247.39 
2660.34 -2796.93 1246.59 
2660.59 -2797.24 1247.19 
2654.39 -2790.7 1240.67 
2658.95 -2795.48 1244.9 
2659.84 -2796.4 1245.87 
2650.08 -2785.52 1236.26 
2650.9 -2786.69 1237.35 
2654.08 -2790.32 1240.31 
2643.68 -2778.8 1222.73 
2638.49 -2773.61 1217.51 
2640.5 -2775.88 1216.64 
2639.17 -2774.33 1216.39 
2641.53 -2777.07 1216.47 
2643.28 -2778.67 1221.07 
2643.32 -2778.81 1220.21 
2642.76 -2778.43 1218.56 
2643.63 -2779.17 1219.6 
2642.37 -2778.09 1217.97 
2642.06 -2777.71 1216.7 
2637.27 -2772.11 1216.57 
2635.82 -2770.45 1216.59 
2636.41 -2771.05 1216.11 
2634.93 -2769.19 1215.29 
2627.3 -2761.68 1218.47 
2626.56 -2761.64 1219.77 
2624.92 -2760.43 1219.06 
2622.96 -2758.84 1217.57 
2621.13 -2757.29 1215.44 
2625.72 -2760.99 1219.33 
2620.59 -2756.81 1214.79 
2619.99 -2756.23 1214.28 
2619.54 -2755.5 1213.2 
2619.06 -2754.97 1212.79 
2618 -2753.86 1211.82 
2617.17 -2752.86 1210.66 
2616.22 -2751.91 1211.07 
2615.38 -2750.77 1209.8 
2615.98 -2751.56 1210.33 
2616.66 -2752.27 1210.24 
2687.58 -2820.14 1269.18 
2686.25 -2819.27 1268.07 
2686.31 -2819.52 1266.78 
2684.69 -2818.49 1264.86 
2683.99 -2818.14 1263.22 
2683.91 -2818.16 1262.29 
2682.73 -2817.29 1262.17 
2681.89 -2816.79 1261.57 
2681.07 -2816.31 1260.68 
2678.86 -2814.79 1258.93 
2677.34 -2813.58 1258.48 
2680.32 -2816.02 1259.26 
2676.72 -2813.55 1256.77 
2676.05 -2813.09 1256.39 
2674.53 -2811.86 1255.3 
2675.11 -2812.53 1255.33 
2675.77 -2813.23 1255.24 
2673.53 -2810.96 1254.63 
2672.21 -2809.42 1254.57 
2670.99 -2808.22 1254.54 
2669.14 -2805.99 1255.02 
2669.64 -2806.88 1254.18 
2668.96 -2806.28 1253.76 
2668.38 -2805.78 1253.38 
2667.73 -2804.94 1253.42 
2666.83 -2803.84 1253.04 
2667.09 -2803.56 1254.47 
2599.47 -2727.96 1174.51 
2598.84 -2727.38 1173.61 
2600.25 -2728.97 1174.44 
2600.54 -2729.27 1174.81 
2598.34 -2726.71 1170.24 
2598.53 -2727.13 1170.7 
2598.69 -2727.48 1171.43 
2598.78 -2727.61 1172.27 
2602.59 -2732.71 1183.95 
2598.83 -2727.3 1169.16 
2597.6 -2724.93 1167.65 
2597.78 -2724.87 1166.52 
2598.32 -2726.18 1167.91 
2599.14 -2727.49 1167.88 
2597.58 -2724.36 1165.85 
2592.7 -2716.73 1157.64 
2593.15 -2717.32 1157.4 
2592.43 -2716.3 1157.59 
2592.17 -2716.03 1157.21 
2591.64 -2715.54 1156.67 
2590.42 -2715.12 1153.76 
2589.62 -2714.2 1151.61 
2589.5 -2713.69 1151.15 
2589.17 -2712.14 1149.32 
2589.35 -2712.96 1150.25 
2589.08 -2711.3 1147.76 
2589.2 -2711.19 1146.73 
2587.37 -2707.63 1137.43 
2588.17 -2708.96 1140.25 
2588.58 -2709.61 1143.45 
2588.37 -2709.2 1142.5 
2588.4 -2709.2 1141.38 
2589.2 -2710.72 1145.07 
2588.06 -2708.92 1138.45 
2587.64 -2708.26 1137.1 
2589.35 -2711.08 1145.45 
2586.38 -2704.8 1133.46 
2586.1 -2704.13 1132.8 
2586.74 -2705.67 1134.41 
2585.61 -2703.23 1131.29 
2585.23 -2702.17 1128.27 
2585.01 -2701.66 1127.55 
2585.54 -2702.91 1129.47 
2587.44 -2707.74 1136.89 
2587.18 -2706.87 1135.86 
2580.24 -2690.88 1118.38 
2581.2 -2692.81 1118.9 
2580.57 -2691.5 1118.07 
2579.78 -2689.9 1117.34 
2579.49 -2689.27 1117.07 
2579.12 -2688.33 1116.96 
2578.8 -2687.43 1116.81 
2578.06 -2685.68 1117.66 
2585.37 -2702.09 1126.22 
2585.46 -2702.14 1124.14 
2585.53 -2702.31 1122.66 
2585.54 -2702.26 1121.12 
2585.92 -2703.03 1121.02 
2585.26 -2701.63 1121.01 
2585.6 -2702.46 1125.15 
2584.74 -2700.31 1120.57 
2615.13 -2750.36 1209.16 
2615.78 -2749.73 1202.52 
2615.48 -2749.57 1201.17 
2616.21 -2750.16 1203.44 
2614.7 -2748.72 1198.96 
2613.59 -2747.54 1196.96 
2612.81 -2746.69 1195.36 
2612.26 -2746.06 1194.86 
2611.25 -2744.78 1194.24 
2610.48 -2743.77 1193.69 
2610.12 -2743.3 1193.54 
2609.41 -2742.46 1195.15 
2609.56 -2742.72 1194.61 
2609.8 -2743 1193.97 
2608.85 -2741.82 1196.66 
2608.28 -2741.09 1197.19 
2607.96 -2740.98 1196.81 
2607.59 -2741.03 1196.04 
2613.81 -2748.44 1207.32 
2615.03 -2750.03 1208.33 
2614.1 -2748.23 1205.59 
2615.4 -2749.43 1205.16 
2615.98 -2749.97 1204.53 
2616.29 -2750.41 1205.12 
2616.45 -2750.46 1203.92 
2616.62 -2750.66 1204.47 
2604.61 -2736.16 1189.93 
2604.65 -2735.49 1187.26 
2603.17 -2733.48 1184.89 
2604.25 -2734.84 1185.55 
2605.09 -2736.22 1188.37 
2605.68 -2737.97 1192.08 
2606.01 -2738.55 1192.4 
2607.17 -2741.16 1195.14 
2607.33 -2741.19 1195.63 
2667.01 -2804.22 1252.74 
2666.78 -2804.3 1251.83 
2667.11 -2804.63 1252.25 
2666.52 -2804.07 1251.43 
2665.22 -2802.74 1250.37 
2661.3 -2798.02 1248.42 
2660.85 -2797.51 1248.07 
2661.06 -2797.82 1247.43 
2661.45 -2798.29 1247.62 
2655.65 -2791.99 1241.35 
2657.22 -2793.74 1242.92 
2659.38 -2795.82 1244.83 
2656.9 -2793.34 1242.49 
2660.22 -2796.75 1245.96 
2651.98 -2787.98 1238.33 
2652.86 -2788.92 1239.18 
2655.31 -2791.57 1240.82 
2645.1 -2780.38 1222.28 
2644.44 -2779.75 1221.6 
2638.06 -2773.03 1215.87 
2639.64 -2774.89 1214.62 
2640.64 -2775.99 1214.64 
2638.93 -2774.09 1214 
2641.51 -2777 1214.98 
2644.55 -2779.98 1220.76 
2643.79 -2779.39 1219.14 
2642.85 -2778.6 1217.92 
2644.94 -2780.38 1220.12 
2642.46 -2778.19 1217.13 
2642.08 -2777.69 1215.52 
2637.12 -2771.91 1215.38 
2635.64 -2770.06 1215.19 
2636.18 -2770.7 1214.75 
2626.66 -2760.85 1217.33 
2626.07 -2760.92 1218.6 
2626.25 -2760.54 1217.19 
2624.74 -2760.14 1218.5 
2623.83 -2759.47 1217.96 
2625.69 -2760.59 1218.3 
2620.41 -2756.52 1213.99 
2619.45 -2755.08 1212.05 
2618.77 -2754.47 1211.72 
2617.91 -2753.61 1211.23 
2617.21 -2752.73 1210.03 
2616.65 -2752.14 1209.7 
2615.95 -2751.39 1209.57 
2688.94 -2821.18 1269.42 
2687.91 -2820.54 1267.97 
2687.27 -2820.32 1266.32 
2685.88 -2819.4 1265.01 
2685.33 -2819.15 1263.24 
2685.03 -2819.03 1262.24 
2683.62 -2818.05 1261.69 
2685.05 -2819.15 1261.5 
2682.59 -2817.44 1261.13 
2681.77 -2816.97 1260.5 
2681.11 -2816.75 1259.36 
2679.46 -2815.72 1257.53 
2677.98 -2814.59 1256.94 
2680.65 -2816.83 1257.63 
2677.72 -2814.74 1255.86 
2676.56 -2813.83 1255.56 
2674.39 -2811.88 1254.79 
2676.31 -2813.81 1254.99 
2673.22 -2810.84 1253.9 
2672.28 -2809.7 1254.01 
2669.77 -2807.25 1253.6 
2668.95 -2806.5 1253.2 
2667.71 -2805.15 1252.96 
2598.81 -2727.53 1172.81 
2599.59 -2728.38 1173.77 
2600.61 -2729.74 1173.64 
2600.25 -2729.29 1173.46 
2600.83 -2729.72 1174.91 
2601.04 -2730.03 1175.29 
2599.53 -2728.43 1173.04 
2599.18 -2727.94 1169.77 
2599.27 -2728.15 1170.58 
2599.28 -2728.28 1171.36 
2599.39 -2728.37 1172.25 
2599.55 -2728.27 1168.47 
2598.55 -2726.3 1166.86 
2599.62 -2728.29 1167.74 
2599.04 -2727.18 1166.88 
2598.53 -2726.09 1166.01 
2597.75 -2724.61 1165.3 
2592.47 -2716.55 1157.05 
2593.3 -2717.55 1156.71 
2593.76 -2718.19 1156.31 
2592.13 -2716.21 1156.64 
2591.14 -2715.39 1155.49 
2590.48 -2715.44 1153.29 
2590.9 -2715.62 1154.41 
2590.26 -2715.24 1152.85 
2590 -2714.93 1152.23 
2589.82 -2714.66 1151.72 
2589.4 -2712.54 1148.96 
2589.37 -2711.82 1147.4 
2589.39 -2711.35 1146 
2589.06 -2710.39 1144.37 
2588.91 -2710.17 1143.72 
2588.79 -2709.87 1142.92 
2588.44 -2709.47 1139.91 
2588.39 -2709.59 1138.2 
2588.09 -2709.08 1137.71 
2587.95 -2708.85 1136.97 
2587.73 -2708.42 1136.58 
2586.94 -2705.94 1133.69 
2586.78 -2705.4 1132.69 
2587.35 -2707.03 1134.9 
2586.28 -2704.22 1130.35 
2585.66 -2702.8 1127.4 
2580.08 -2690.44 1117.17 
2581.37 -2692.89 1117.52 
2580.56 -2691.33 1117.12 
2579.76 -2689.8 1116.45 
2580 -2690.26 1116.52 
2579.47 -2689.18 1116.36 
2579.24 -2688.4 1116.14 
2578.43 -2686.12 1115.98 
2578.92 -2687.36 1115.48 
2585.82 -2702.88 1126.09 
2585.95 -2703.1 1122.74 
2586.27 -2703.71 1120.76 
2585.61 -2702.25 1120.07 
2585.91 -2702.93 1119.88 
2586.19 -2703.59 1119.53 
2585.25 -2701.41 1120.24 
2584.64 -2699.84 1119.44 
2616.47 -2750.51 1202.88 
2615.99 -2750.12 1201.51 
2615.23 -2749.37 1199.5 
2616.87 -2750.95 1203.36 
2614.35 -2748.36 1197.85 
2613.43 -2747.4 1195.89 
2613.07 -2747.01 1194.59 
2612.68 -2746.57 1194.51 
2611.57 -2745.22 1193.84 
2612.4 -2746.26 1193.95 
2610.67 -2744.05 1193.14 
2610.14 -2743.34 1192.89 
2608.99 -2742.08 1195.67 
2608.26 -2741.34 1195.77 
2614.23 -2748.66 1206.68 
2615.6 -2749.79 1205.91 
2616.52 -2750.77 1205.69 
2616.83 -2750.98 1205.02 
2616.99 -2751.27 1205.46 
2617.03 -2751.09 1204.01 
2617.24 -2751.3 1204.53 
2605.2 -2736.81 1189.82 
2605.56 -2737.59 1191.27 
2605.95 -2737.14 1187.98 
2606.27 -2737.81 1189.36 
2606.64 -2738.12 1189.2 
2667.36 -2805.04 1252.06 
2667.7 -2805.39 1252.38 
2663.01 -2800.17 1249.29 
2662.17 -2799.18 1248.52 
2663.86 -2801.15 1249.62 
2664.7 -2802.17 1250 
2666.1 -2803.76 1250.71 
2661.83 -2798.74 1248.17 
2661.77 -2798.69 1247.44 
2661.1 -2797.9 1246.9 
2662.11 -2799.16 1247.78 
2662.55 -2799.74 1248.34 
2658.43 -2794.91 1243.92 
2658.04 -2794.46 1243.3 
2659.88 -2796.33 1245.13 
2651.13 -2786.53 1236.47 
2653.4 -2789.4 1239.27 
2654.61 -2790.71 1240.08 
2646.07 -2781.31 1223.88 
2645.67 -2780.94 1222.68 
2645.6 -2780.93 1221.85 
2645.13 -2780.52 1221.24 
2638.14 -2773.13 1214.32 
2639.7 -2775 1213.14 
2640.41 -2775.74 1213.4 
2638.83 -2773.96 1212.55 
2639.36 -2774.62 1212.29 
2641.39 -2776.81 1213.75 
2644.87 -2780.35 1219.46 
2643.32 -2779.01 1217.74 
2645.52 -2780.95 1220.6 
2645.52 -2780.96 1219.87 
2642.49 -2778.07 1215.17 
2642.03 -2777.54 1213.98 
2638.01 -2772.95 1213.21 
2636.96 -2771.64 1214.16 
2635.77 -2769.93 1213.14 
2636.53 -2770.94 1213.15 
2625.96 -2760.09 1216.59 
2625.3 -2760.19 1217.83 
2624.94 -2759.82 1217.38 
2624.47 -2759.51 1217.15 
2623.23 -2758.84 1217.03 
2622.11 -2758.01 1215.99 
2620.94 -2756.9 1214.41 
2620.68 -2756.45 1213.15 
2620.55 -2756.16 1212.51 
2619.84 -2755.57 1212.53 
2619.83 -2754.9 1210.5 
2618.44 -2753.87 1210.57 
2616.85 -2751.89 1208.33 
2616.6 -2751.97 1209.16 
2615.98 -2751.19 1208.59 
2691.94 -2823.38 1270.08 
2690.35 -2822.24 1269.47 
2689.23 -2821.6 1267.69 
2688.28 -2821.15 1265.81 
2686.88 -2820.25 1264.12 
2686.93 -2820.44 1262.56 
2686.19 -2819.97 1261.73 
2684.6 -2818.9 1261.07 
2683.53 -2818.22 1260.79 
2686.2 -2820.16 1260.73 
2687.11 -2820.74 1261.14 
2682.57 -2817.76 1259.97 
2681.89 -2817.46 1259.22 
2681.32 -2817.46 1257.71 
2679.47 -2816.21 1256.26 
2680.84 -2817.43 1256.4 
2677.43 -2814.7 1255.25 
2679.02 -2816.06 1255.57 
2674.88 -2812.51 1254.59 
2674.2 -2811.85 1254.31 
2675.41 -2813.08 1254.53 
2675.95 -2813.58 1254.61 
2676.68 -2814.23 1254.7 
2671.98 -2809.51 1253.64 
2671.3 -2808.74 1253.94 
2668.29 -2805.95 1252.76 
2601.71 -2730.89 1176.57 
2601.39 -2730.55 1175.65 
2600.97 -2730.36 1173.63 
2600.63 -2729.88 1172.96 
2600.29 -2729.41 1172.9 
2601.65 -2731.44 1173.94 
2600.27 -2729.45 1172.31 
2599.78 -2728.71 1169.11 
2600.04 -2729.11 1170.15 
2600.05 -2729.21 1170.98 
2600.15 -2729.3 1171.73 
2600.01 -2729 1168.52 
2600.52 -2729.91 1167.72 
2600.09 -2729.05 1166.72 
2599.29 -2727.6 1166.38 
2598.74 -2726.41 1165.52 
2598.19 -2725.34 1164.81 
2597.78 -2724.56 1164.26 
2596.25 -2722.17 1159.66 
2594.14 -2718.78 1156.07 
2592.98 -2717.33 1156.39 
2592.64 -2716.9 1156.71 
2593.41 -2717.75 1156.16 
2593.61 -2718.06 1155.7 
2591.5 -2715.86 1155.55 
2590.8 -2715.72 1153.83 
2589.54 -2713.21 1149.77 
2589.56 -2713.46 1150.27 
2589.61 -2712.79 1148.45 
2589.51 -2711.81 1146.63 
2589.42 -2710.92 1144.29 
2589.27 -2710.65 1143.83 
2589.16 -2710.45 1143.2 
2589.03 -2710.19 1142.44 
2588.77 -2709.76 1142.04 
2589.63 -2711.3 1144.56 
2588.85 -2709.88 1141.13 
2588.48 -2709.77 1137.44 
2589.8 -2711.69 1145.01 
2588.2 -2709.27 1137.13 
2588.1 -2709.06 1136.47 
2589.79 -2711.85 1145.53 
2587.54 -2707.28 1134.48 
2587.29 -2706.51 1133.18 
2587.77 -2708.28 1135.67 
2580.33 -2690.79 1116.21 
2581.09 -2692.1 1116.11 
2579.99 -2690.11 1115.8 
2579.64 -2689.39 1115.88 
2579.17 -2687.68 1114.49 
2579.38 -2688.48 1115.24 
2586.94 -2704.75 1123.8 
2586.48 -2704.06 1121.91 
2586.75 -2704.57 1119.97 
2586.46 -2704.15 1119.13 
2585.71 -2702.49 1119.13 
2585.31 -2701.51 1119.31 
2586.03 -2703.19 1118.72 
2586.25 -2703.77 1117.81 
2616.5 -2750.67 1201.63 
2615.73 -2749.95 1200.06 
2614.93 -2749.02 1198.17 
2617.28 -2751.41 1203.19 
2616.94 -2751.13 1201.86 
2614.07 -2748.09 1196.85 
2613.51 -2747.51 1195.09 
2612.9 -2746.82 1193.84 
2613.3 -2747.27 1194 
2611.74 -2745.43 1193.25 
2612.66 -2746.5 1193.28 
2610.6 -2743.93 1192.36 
2609.72 -2742.94 1193 
2609.93 -2743.1 1192.42 
2609.48 -2742.72 1193.49 
2608.63 -2741.94 1195.32 
2608.66 -2741.98 1194.68 
2609.17 -2742.4 1194.34 
2607.94 -2741.36 1195.36 
2615.24 -2749.77 1206.9 
2616.26 -2750.67 1206.51 
2616.58 -2750.94 1206.2 
2617.22 -2751.55 1205.88 
2617.49 -2751.65 1204.84 
2617.7 -2751.91 1205.34 
2617.49 -2751.59 1203.86 
2617.8 -2751.93 1204.32 
2605.91 -2737.99 1191.26 
2606.01 -2737.71 1190.02 
2606.03 -2738.39 1191.77 
2607.16 -2738.72 1189.23 
2607.01 -2738.67 1190.05 
2606.5 -2739.04 1192.41 
2606.63 -2739.59 1193.04 
2606.92 -2740.35 1193.45 
2607.43 -2741.5 1194.63 
2607.19 -2741.25 1194.11 
2667.14 -2804.93 1251.47 
2667.93 -2805.75 1252.11 
2666.51 -2804.24 1250.91 
2662.82 -2800.06 1248.76 
2661.48 -2798.31 1246.83 
2663.19 -2800.5 1248.63 
2663.59 -2800.96 1248.93 
2659.59 -2795.89 1244.34 
2656.48 -2792.8 1241.62 
2657.2 -2793.51 1242.07 
2657.69 -2793.99 1242.5 
2655.79 -2791.98 1240.74 
2660.63 -2797.27 1245.98 
2651.84 -2787.38 1237.06 
2653.07 -2788.82 1238.32 
2646.83 -2781.93 1225.42 
2647.37 -2782.78 1224.44 
2646.99 -2782.45 1223.73 
2646.29 -2781.66 1222.74 
2646.18 -2781.57 1221.86 
2645.81 -2781.19 1221.1 
2639.82 -2775.12 1212.26 
2640.31 -2775.62 1212.3 
2638.76 -2773.77 1211.67 
2639.21 -2774.34 1211.43 
2639.53 -2774.76 1211.33 
2641.11 -2776.42 1212.39 
2644.61 -2780.15 1218.76 
2645.4 -2780.83 1219.25 
2643.89 -2779.46 1217.79 
2643.02 -2778.66 1216.45 
2646 -2781.49 1220.3 
2646.15 -2781.6 1220.83 
2645.92 -2781.4 1219.72 
2643 -2778.48 1214.49 
2642.67 -2778.14 1213.46 
2642.13 -2777.47 1212.58 
2637.74 -2772.51 1212.47 
2636.28 -2770.34 1211.62 
2637.48 -2772.04 1211.66 
2625.93 -2759.92 1216.07 
2625.39 -2759.73 1216.58 
2624.07 -2759.18 1216.69 
2625.29 -2759.52 1216.12 
2622.6 -2758.22 1215.85 
2621.64 -2757.29 1214.26 
2621.43 -2757.02 1213.78 
2621.26 -2756.74 1213.08 
2621.39 -2756.42 1211.52 
2620.52 -2755.63 1211.01 
2620.84 -2755.68 1210.11 
2620.28 -2754.91 1209.04 
2618.84 -2753.74 1209.14 
2617.81 -2752.84 1208.84 
2617.25 -2752.27 1208.57 
2616.41 -2751.33 1207.76 
2617.29 -2751.87 1207.15 
2616.81 -2751.37 1206.86 
2615.88 -2750.65 1207.42 
2693.07 -2824.23 1270.4 
2691.03 -2822.97 1267.57 
2692.47 -2823.99 1268.13 
2689.88 -2822.31 1265.53 
2688.48 -2821.48 1263.77 
2687.93 -2821.27 1261.84 
2689.03 -2822.01 1262.55 
2684.83 -2819.22 1260.45 
2683.67 -2818.57 1259.89 
2686.72 -2820.7 1260.09 
2688.32 -2821.79 1260.46 
2688.81 -2822.06 1261.11 
2682.42 -2818.22 1258.16 
2682.99 -2818.56 1258.38 
2681.88 -2818.09 1257.24 
2681.48 -2818.03 1256.34 
2680.52 -2817.33 1255.81 
2681.36 -2818.13 1255.68 
2677.8 -2815.16 1254.89 
2673.18 -2810.97 1253.29 
2670.92 -2808.53 1253.35 
2670.29 -2807.89 1253.26 
2669.15 -2806.84 1252.77 
2602.37 -2732.1 1176.95 
2602.19 -2732.04 1175.65 
2602.63 -2732.38 1177.44 
2600.94 -2730.41 1172.73 
2600.63 -2729.93 1172.4 
2602.25 -2732.42 1174.08 
2601.62 -2731.66 1172.51 
2600.57 -2729.85 1171.73 
2600.29 -2729.53 1169.51 
2600.45 -2729.79 1170.35 
2600.37 -2729.6 1171.18 
2600.78 -2730.42 1168.67 
2600.57 -2729.95 1165.92 
2600.17 -2729 1164.91 
2599.71 -2728.28 1165.72 
2601.14 -2731.13 1167.9 
2599.1 -2727.1 1165.33 
2598.62 -2726.11 1164.62 
2597.02 -2723.33 1161.77 
2596.61 -2722.72 1160.62 
2598.19 -2725.26 1164.08 
2598.87 -2726.62 1164.38 
2596.48 -2722.67 1160.02 
2596.69 -2723.4 1159.68 
2596.21 -2722.19 1158.93 
2594.66 -2719.4 1155.37 
2592.53 -2716.92 1156.11 
2593.18 -2717.6 1155.72 
2591.76 -2716.33 1155.09 
2593.3 -2717.83 1155.25 
2593.76 -2718.39 1155.18 
2594.19 -2718.93 1154.84 
2590.55 -2715.7 1152.8 
2590.24 -2715.49 1152.08 
2590.06 -2715.14 1151.76 
2589.7 -2714.17 1150.88 
2589.7 -2712.37 1147.27 
2589.83 -2712.08 1146 
2589.87 -2711.51 1144.04 
2589.65 -2711.15 1143.76 
2589.58 -2711 1143.26 
2589.43 -2710.75 1142.65 
2589.06 -2710.18 1141.91 
2589.97 -2711.75 1144.51 
2588.8 -2709.98 1139.72 
2588.89 -2710.23 1138.02 
2590.12 -2712.1 1144.93 
2588.41 -2709.57 1136.73 
2588.02 -2708.82 1135.87 
2587.71 -2707.5 1134.02 
2587.92 -2708.46 1135.21 
2587.74 -2707.1 1132.38 
2580.88 -2691.49 1115.19 
2580.47 -2690.75 1114.98 
2580.25 -2690.18 1114.43 
2579.91 -2689.59 1114.81 
2579.68 -2688.96 1114.65 
2587.96 -2706.61 1123.55 
2587.24 -2705.41 1121.34 
2587.17 -2705.38 1119.05 
2586.81 -2704.84 1118.06 
2586.49 -2704.27 1117.27 
2585.44 -2701.83 1118.22 
2585.65 -2702.33 1117.58 
2584.97 -2700.55 1118.27 
2585.97 -2703.16 1116.74 
2586.25 -2703.85 1116.04 
2584.3 -2699.07 1117.05 
2583.95 -2698.09 1115.82 
2580.87 -2691.01 1113.17 
2616.25 -2750.5 1200.2 
2615.56 -2749.76 1199.12 
2614.94 -2749.04 1197.47 
2617.65 -2751.82 1202.82 
2617.22 -2751.42 1201.49 
2613.66 -2747.69 1194.62 
2613.14 -2747.06 1193.25 
2611.89 -2745.51 1192.51 
2612.75 -2746.52 1192.63 
2610.58 -2743.76 1191.5 
2609.47 -2742.57 1192.57 
2609.69 -2742.74 1191.97 
2608.1 -2741.77 1195.08 
