2545.88 -2583.54 1239.01
2545.07 -2567.01 1218.01
2545.84 -2584.14 1238.85
2545.78 -2582.52 1237.86
2545.7 -2583.36 1237.55
2545.8 -2581.49 1237.67
2545.46 -2572.55 1224.65
2545.31 -2569.39 1218.67
2545.25 -2569.1 1218.1
2545.2 -2568.73 1217.71
2545.12 -2567.64 1217.32
2545.24 -2569.56 1217.53
2545.18 -2566.74 1216.2
2546.08 -2590.07 1244.4
2545.96 -2589.16 1243.33
2546 -2588.16 1243.05
2546 -2585.18 1240.5
2545.74 -2584.6 1238.38
2545.61 -2583.87 1236.89
2545.74 -2581.84 1236.92
2545.67 -2582.57 1236.55
2545.8 -2580.94 1236.05
2545.41 -2573.19 1223.94
2545.39 -2572.19 1222.78
2545.38 -2571.31 1221.52
2545.47 -2573.87 1224.64
2545.37 -2571.01 1220.08
2545.37 -2570.64 1219.01
2545.36 -2570.68 1218.41
2545.33 -2570.75 1217.55
2545.23 -2568.72 1217
2545.41 -2572.07 1218.17
2545.27 -2567.31 1215.9
2545.31 -2569.51 1216.73
2546.13 -2591.25 1245.03
2545.97 -2590.85 1244.28
2545.92 -2589.88 1243.5
2545.83 -2588.9 1242.65
2545.91 -2587.87 1242.28
2545.86 -2586.01 1240.2
2545.71 -2585.18 1238.54
2545.5 -2584.78 1236.84
2545.49 -2583.72 1235.66
2545.59 -2582.39 1235.46
2545.73 -2581.34 1235.54
2545.83 -2579.84 1234.78
2545.55 -2574.43 1225.84
2545.42 -2574.59 1223.99
2545.39 -2574.27 1223.26
2545.39 -2573.69 1222.19
2545.37 -2572.79 1220.87
2545.46 -2574.8 1224.75
2545.39 -2571.74 1219.68
2545.38 -2572.23 1219.08
2545.42 -2571.6 1217.44
2545.48 -2573.16 1218.5
2545.44 -2573.69 1219.49
2545.37 -2569.89 1216.38
2546.18 -2592.66 1245.8
2546.1 -2591.75 1245.13
2545.85 -2591.28 1244.02
2545.75 -2589.42 1242.64
2545.73 -2588.41 1241.86
2545.82 -2587.48 1241.46
2545.82 -2586.81 1240.72
2545.7 -2585.63 1238.97
2545.37 -2585.57 1236.81
2545.35 -2583.84 1234.82
2545.5 -2582.3 1234.57
2545.61 -2581.24 1234.36
2545.72 -2580.36 1234.27
2546.64 -2598.71 1247.98
2546.65 -2600.2 1247.8
2546.48 -2599.33 1247.38
2546.8 -2601.01 1248.07
2546.99 -2601.75 1248.52
2545.56 -2574.97 1226.1
2545.38 -2575.17 1223.42
2545.4 -2575.29 1224.12
2545.37 -2575.04 1222.76
2545.37 -2574.82 1221.94
2545.39 -2573.32 1220.16
2545.39 -2574.59 1221.26
2545.47 -2575.4 1225.09
2545.54 -2573.8 1218.42
2545.5 -2574.36 1219.47
2545.41 -2574.32 1220.64
2545.48 -2575 1220.39
2545.47 -2569.62 1215.82
2545.54 -2571.85 1216.67
2546.06 -2593.8 1245.72
2545.99 -2592.72 1245.13
2545.86 -2591.97 1244.33
2545.65 -2591.63 1243.56
2545.69 -2590.5 1243.1
2545.57 -2588.87 1241.6
2545.66 -2587.91 1241.2
2545.64 -2587.3 1240.39
2545.69 -2586.79 1240.07
2545.47 -2585.87 1237.82
2546.26 -2594.62 1246.59
2545.16 -2586.23 1235.82
2545.06 -2586.03 1234.81
2545.14 -2584.91 1234.36
2545.47 -2581.97 1234.02
2545.3 -2582.91 1233.77
2545.56 -2581.01 1233.7
2545.74 -2579.51 1232.9
2546.44 -2597.84 1247.46
2546.39 -2597.15 1247.41
2546.23 -2598.39 1246.66
2546.15 -2599.49 1246.19
2545.87 -2598.15 1245.6
2546.27 -2596.3 1246.94
2546.16 -2595.25 1246.38
2546.96 -2602.29 1248.17
2546.59 -2601.94 1246.95
2546.4 -2600.69 1246.63
2545.68 -2576.85 1229.05
2545.35 -2575.55 1222.84
2545.33 -2575.69 1223.51
2545.36 -2575.54 1222.29
2545.38 -2575.6 1221.72
2545.42 -2575.51 1221.06
2545.55 -2574.85 1219.37
2545.62 -2574.78 1218.76
2545.68 -2573.81 1217.31
2545.86 -2572.61 1215.47
2545.71 -2575 1218.31
2548.05 -2608.5 1248.23
2546.02 -2594.54 1245.81
2545.82 -2593.85 1245.02
2545.74 -2592.8 1244.37
2545.55 -2592.39 1243.62
2545.47 -2591.37 1242.84
2545.46 -2590.33 1242.22
2545.38 -2589.79 1241.56
2545.48 -2588.54 1240.99
2545.37 -2589.39 1241.25
2545.52 -2586.82 1239.18
2545.43 -2587.51 1239.5
2545.37 -2586.6 1237.99
2545.23 -2586.55 1236.83
2544.97 -2587.08 1235.06
2544.83 -2587.21 1234.05
2544.73 -2587.05 1233.35
2544.82 -2586.37 1233.57
2544.79 -2584.97 1232.63
2544.99 -2583.86 1232.89
2545.36 -2581.83 1233.09
2545.53 -2580.72 1232.84
2545.15 -2582.76 1232.72
2545.66 -2579.71 1232.27
2545.72 -2578.56 1231.26
2545.92 -2597.25 1245.94
2545.85 -2596.68 1245.72
2545.51 -2597.1 1244.78
2545.76 -2598.79 1245.01
2545.5 -2597.77 1244.59
2545.18 -2596.71 1243.84
2545.8 -2596.12 1245.55
2545.57 -2595.57 1244.86
2547.2 -2603.13 1248.51
2546.78 -2603.45 1246.99
2546.55 -2603.26 1246.22
2546.39 -2602.66 1245.86
2546.29 -2601.13 1246.02
2546.04 -2599.68 1245.74
2547.59 -2604.72 1248.82
2547.88 -2606.69 1248.66
2548.43 -2610.8 1248.14
2545.56 -2575.95 1227.27
2545.43 -2575.81 1226.01
2545.67 -2577.68 1229.7
2545.55 -2576.75 1227.93
2545.32 -2576.04 1223.03
2545.3 -2576.12 1223.92
2545.35 -2576.12 1224.59
2545.35 -2576.12 1221.94
2545.38 -2576.05 1221.44
2545.36 -2576.26 1225.26
2545.6 -2575.54 1219.24
2545.56 -2575.77 1219.75
2545.51 -2576.2 1220.34
2545.4 -2576.52 1221.06
2545.95 -2574.49 1216.28
2545.83 -2575.1 1217.6
2545.82 -2576 1218.29
2548.13 -2609.19 1248.08
2547.95 -2608.9 1247.49
2545.47 -2594.72 1244.43
2545.33 -2594.18 1243.83
2545.35 -2593.62 1243.64
2545.26 -2593.25 1243.24
2545.05 -2592.55 1242.25
2544.93 -2593.17 1242.31
2545.16 -2591.11 1241.69
2545.03 -2591.95 1241.81
2545.04 -2590.85 1241.15
2544.92 -2590.68 1240.63
2545.39 -2588.35 1240.37
2545.29 -2587.27 1238.31
2545.23 -2587.73 1238.71
2545.15 -2587.25 1237.19
2545.02 -2587.32 1236.1
2544.82 -2587.85 1234.71
2544.74 -2587.95 1233.91
2544.68 -2587.81 1233.28
2544.57 -2586.96 1232.57
2544.55 -2587.58 1232.66
2544.44 -2586 1231.55
2544.68 -2585.66 1232.41
2544.43 -2584.51 1230.68
2544.27 -2585.24 1230.48
2544.71 -2583.83 1231.38
2545.12 -2581.97 1231.71
2545.4 -2580.41 1231.33
2545.55 -2579.45 1231.03
2544.69 -2583.2 1230.75
2545.63 -2578.67 1230.66
2545.38 -2596.67 1244.44
2545.32 -2596.19 1244.21
2545.18 -2595.63 1243.79
2545 -2596.1 1243.31
2545.18 -2597.28 1243.8
2545.02 -2596.61 1243.35
2545 -2595.1 1243.23
2547.11 -2604.12 1247.66
2546.59 -2604.15 1245.91
2546.78 -2604.46 1246.4
2546.45 -2603.84 1245.53
2546.3 -2603.45 1245.13
2546.26 -2601.9 1245.56
2546.05 -2600.38 1245.52
2547.69 -2606.72 1247.92
2547.27 -2605.37 1247.39
2547.75 -2607.89 1247.34
2547.72 -2608.57 1246.73
2548.27 -2609.88 1248.15
2548.75 -2612.51 1247.64
2548.41 -2611.23 1247.35
2548.56 -2611.98 1247.18
2548.23 -2610.36 1247.42
2545.44 -2576.6 1226.86
2545.36 -2576.68 1226.02
2545.56 -2577.62 1228.86
2545.41 -2577.17 1227.49
2545.28 -2576.58 1222.83
2545.24 -2577.07 1223.36
2545.29 -2576.9 1222.26
2545.28 -2576.82 1224.09
2545.26 -2576.96 1224.72
2545.32 -2577.03 1221.75
2545.23 -2577.21 1225.4
2545.65 -2576.39 1219.29
2545.4 -2577.09 1220.91
2545.47 -2576.98 1220.42
2546.08 -2575.96 1216.78
2546.09 -2576.65 1217.12
2545.83 -2576.72 1218.41
2548.06 -2609.56 1247.42
2547.82 -2609.13 1246.74
2544.82 -2594.14 1242.33
2544.67 -2593.55 1241.74
2544.49 -2592.52 1240.52
2544.51 -2593.02 1240.92
2544.6 -2591.99 1240.51
2544.47 -2591.72 1239.9
2545.12 -2588.84 1239.68
2545.18 -2589.17 1240.32
2544.75 -2590.41 1239.84
2545.12 -2588.22 1238.83
2545.12 -2587.57 1237.7
2544.99 -2587.61 1236.57
2544.85 -2587.93 1235.48
2544.64 -2588.35 1233.5
2544.55 -2588.1 1232.75
2544.45 -2587.53 1232.15
2544.32 -2586.34 1231.11
2544.12 -2585.72 1230
2544.39 -2583.91 1229.75
2544.24 -2584.53 1229.52
2544.09 -2585.18 1229.43
2545.21 -2580.55 1230.14
2544.81 -2582.41 1230.3
2545.37 -2579.32 1229.33
2545.45 -2578.62 1229.18
2544.42 -2583.12 1229.21
2544.85 -2594.83 1242.67
2545.55 -2598.73 1244.33
2544.82 -2596.2 1242.72
2544.79 -2595.7 1242.71
2544.47 -2595.21 1241.72
2544.6 -2594.44 1241.82
2546.84 -2605.34 1245.99
2546.62 -2604.92 1245.48
2546.44 -2604.35 1245.11
2545.76 -2599.66 1244.66
2547.34 -2606.59 1246.8
2547.27 -2606.99 1246.25
2547.3 -2607.58 1245.88
2547.75 -2609.31 1246.16
2547.4 -2608.28 1245.64
2548.71 -2612.66 1247.02
2548.4 -2611.5 1246.86
2548.21 -2610.72 1246.86
2548.5 -2612.02 1246.65
2548 -2609.94 1246.7
2545.32 -2577.49 1226.67
2545.25 -2577.55 1226.09
2545.31 -2577.99 1227.45
2545.24 -2577.43 1222.55
2545.19 -2577.58 1224.46
2545.13 -2577.89 1223.51
2545.13 -2577.71 1225.13
2544.92 -2578.64 1225.48
2545.67 -2577.2 1219.46
2545.33 -2577.9 1221.43
2545.26 -2578.1 1222.01
2545.39 -2577.77 1220.83
2546.05 -2577.43 1217.64
2546.39 -2578.31 1216.32
2545.76 -2577.49 1218.97
2544.49 -2594.09 1241.37
2544.44 -2593.58 1241.02
2544.24 -2592.61 1239.86
2544.3 -2592.98 1240.26
2544.33 -2591.25 1239.07
2544.25 -2591.84 1239.22
2544.6 -2590.07 1239
2544.53 -2589.95 1238.45
2544.56 -2589.49 1237.82
2544.88 -2588.25 1237.21
2544.83 -2588.12 1235.95
2544.71 -2588.36 1234.23
2544.56 -2588.6 1232.92
2544.53 -2589.08 1233.34
2544.49 -2589.21 1232.49
2544.42 -2588.68 1231.96
2544.32 -2587.61 1231.44
2544.42 -2589.49 1232.03
2544.25 -2583.85 1228.93
2544.74 -2581.87 1229.07
2545.07 -2580.14 1228.34
2545.15 -2579.04 1227.73
2544.37 -2582.89 1228.57
2544.49 -2582.21 1228.29
2544.28 -2594.76 1240.91
2545.06 -2597.46 1243.23
2544.36 -2595.36 1241.12
2544.14 -2594.47 1240.27
2546.84 -2606.01 1245.52
2546.55 -2605.26 1244.98
2546.67 -2605.79 1245.01
2546.27 -2604.39 1244.33
2546.18 -2603.48 1244.46
2546.12 -2601.76 1245.01
2546.03 -2600.69 1245.05
2545.82 -2600.18 1244.67
2546.92 -2606.72 1245.15
2547.93 -2610.14 1246.02
2547.45 -2608.87 1245.26
2547.01 -2607.41 1244.85
2548.55 -2612.37 1246.17
2548.83 -2613.3 1246.41
2548.97 -2613.79 1246.4
2548.26 -2611.35 1246.23
2548.23 -2611.48 1245.68
2545.02 -2578.58 1226.35
2545 -2578.46 1224.72
2544.95 -2578.74 1223.91
2545.09 -2578.35 1222.96
2545.09 -2578.95 1222.81
2544.63 -2580.33 1226
2544.49 -2580.97 1226.01
2544.62 -2580.6 1226.45
2545.55 -2577.75 1219.96
2545.41 -2578.32 1220.58
2545.21 -2578.97 1222.01
2545.27 -2579.14 1221.41
2545.04 -2579.64 1222.88
2545.82 -2577.97 1218.74
2546.15 -2578.32 1217.43
2546.29 -2579.07 1216.88
2544.03 -2592.51 1239.14
2544.02 -2592.04 1238.63
2544.26 -2590.96 1238.63
2544.1 -2591.41 1238.39
2544.2 -2590.68 1238.13
2544.75 -2588.53 1236.78
2544.42 -2589.71 1237.22
2544.08 -2590.81 1237.57
2544.69 -2588.62 1235.12
2544.62 -2588.88 1234.12
2544.48 -2589.76 1232.65
2544.45 -2589.93 1233.16
2544.31 -2590.88 1231.71
2544.22 -2587.88 1230.93
2544.24 -2589.32 1230.87
2544.14 -2590.48 1230.37
2544.11 -2586.52 1230.05
2544.04 -2585.99 1229.35
2544.24 -2591.12 1231.14
2544.06 -2585.2 1228.83
2544.19 -2584.18 1228.48
2544.79 -2580.52 1227.46
2544.79 -2580.11 1226.98
2544.45 -2581.9 1227.58
2544.28 -2594.28 1240.74
2544.17 -2593.66 1240.21
2544.01 -2594 1239.72
2543.98 -2594.62 1239.63
2546.52 -2605.8 1244.38
2546.76 -2606.52 1244.65
2546.36 -2605.31 1244.18
2545.66 -2599.37 1244.09
2547.93 -2610.53 1245.5
2547.49 -2609.34 1244.88
2547.02 -2607.94 1244.49
2548.57 -2612.66 1245.53
2548.23 -2611.68 1245.15
2548.83 -2613.48 1245.63
2548.96 -2613.96 1245.19
2547.84 -2610.6 1244.95
2547.78 -2610.65 1244.36
2544.64 -2580.42 1224.78
2544.58 -2580.49 1225.44
2544.95 -2579.4 1223.36
2544.78 -2580.27 1223.99
2544.36 -2581.87 1226.96
2544.34 -2581.65 1226.21
2545.44 -2579.31 1220.6
2545.27 -2579.83 1221.5
2545.04 -2580.1 1222.61
2544.73 -2580.82 1223.89
2545.76 -2578.94 1219.09
2545.56 -2579.29 1219.98
2546.02 -2579.04 1218
2546.12 -2579.67 1217.72
2546.4 -2580.06 1216.79
2545.41 -2580.07 1220.9
2543.99 -2593.09 1239.34
2543.87 -2592.87 1238.8
2543.83 -2592.22 1238.18
2543.89 -2591.66 1237.89
2544.66 -2588.78 1236.19
2543.9 -2591.35 1237.36
2544.59 -2589.07 1234.79
2544.5 -2589.49 1234.08
2544.38 -2590.66 1232.28
2544.38 -2590.67 1233
2544.25 -2592.02 1231.67
2544.11 -2588.16 1230.24
2544.06 -2591.53 1230.16
2544.01 -2590.16 1229.42
2544.18 -2583.64 1228.16
2545.37 -2598.31 1243.69
2544.88 -2597.14 1242.64
2544.56 -2596.13 1241.82
2544.31 -2595.78 1240.67
2543.98 -2595.05 1239.23
2543.82 -2594.34 1238.93
2543.8 -2593.73 1238.86
2546.47 -2606.1 1243.67
2546.29 -2605.27 1243.61
2546.14 -2602.88 1244.32
2547.06 -2608.3 1244.11
2546.82 -2607.28 1244.08
2546.67 -2606.92 1243.7
2548.61 -2613 1245.01
2548.29 -2612.06 1244.69
2547.75 -2610.82 1243.79
2548.78 -2613.52 1244.63
2549.03 -2614.24 1244.59
2549.24 -2614.84 1244.82
2547.31 -2609.26 1243.84
2547.33 -2609.67 1243.23
2544.37 -2581.64 1225.65
2544.43 -2581.97 1225.13
2544.28 -2582.64 1227.59
2544.22 -2582.69 1226.92
2544.15 -2583.25 1227.49
2545.15 -2580.31 1222
2544.76 -2581.48 1223.76
2545.83 -2579.89 1219
2545.48 -2580.34 1220.48
2545.25 -2580.57 1221.54
2546.26 -2580.44 1217.65
2545.89 -2580.62 1219.04
2546.57 -2581.21 1216.95
2545.05 -2580.75 1222.35
2543.69 -2592.74 1238.08
2543.67 -2592.31 1237.39
2544.39 -2589.61 1236.64
2544.04 -2590.72 1236.96
2544.57 -2589.13 1235.64
2544.24 -2590.08 1235.87
2544.47 -2589.55 1234.88
2544.4 -2590.3 1233.75
2544.35 -2591.27 1232.22
2544.22 -2592.24 1231.14
2544.04 -2587.07 1229.48
2543.87 -2591.19 1228.96
2544.04 -2588.26 1229.5
2544 -2586.04 1228.69
2544 -2586.9 1229.01
2543.8 -2594.73 1238.49
2543.69 -2593.74 1238.37
2543.74 -2594.24 1238.39
2546.61 -2607.04 1243.03
2546.48 -2606.55 1242.83
2546.14 -2603.31 1243.98
2546.25 -2604.77 1243.48
2546.34 -2605.76 1243.09
2546.07 -2601.31 1244.51
2545.99 -2600.62 1244.44
2545.84 -2600.05 1244.1
2545.54 -2598.86 1243.65
2547.07 -2608.56 1243.64
2546.84 -2607.8 1243.52
2548.43 -2612.65 1244.36
2547.81 -2611.14 1243.36
2547.37 -2610.1 1242.64
2548.9 -2613.92 1243.97
2548.6 -2613.16 1243.9
2549.12 -2614.54 1244.02
2547.06 -2608.9 1243
2547.08 -2609.19 1242.41
2544.22 -2582.85 1226.19
2544.28 -2583.48 1225.67
2544.06 -2584.23 1227.97
2544.86 -2581.6 1223.27
2544.45 -2583.07 1224.84
2545.55 -2581.09 1220.33
2545.31 -2581.21 1221.47
2545 -2581.41 1222.62
2545.94 -2581.27 1219.14
2546.41 -2581.37 1217.64
2545.54 -2581.55 1220.55
2546.61 -2583.01 1217.97
2546.65 -2584.6 1218.71
2544.79 -2582.28 1223.56
2543.78 -2591.6 1236.85
2544.09 -2590.58 1235.34
2543.96 -2590.87 1236.41
2544.31 -2590.28 1234.33
2544.28 -2590.99 1233.49
2544.28 -2591.99 1232.2
2543.97 -2591.93 1229.78
2544.14 -2592.99 1231.17
2544.21 -2592.61 1232
2543.91 -2590.11 1228.9
2544 -2589.2 1228.99
2544.42 -2596.23 1241.12
2544.17 -2595.67 1239.42
2543.78 -2594.98 1238.05
2543.59 -2594.4 1237.84
2546.44 -2606.66 1241.97
2546.55 -2607.37 1242.11
2546.33 -2606.05 1242.07
2546.88 -2608.34 1242.86
2546.71 -2608.02 1242.2
2547.99 -2611.68 1243.17
2547.19 -2609.72 1241.73
2548.94 -2614.08 1243.19
2548.66 -2613.37 1243.24
2548.13 -2612.11 1242.86
2549.19 -2614.68 1242.9
2546.91 -2608.73 1242.24
2546.91 -2608.89 1241.58
2544.15 -2583.76 1226.57
2544.09 -2583.88 1227.38
2544.17 -2584.36 1226.18
2544.04 -2584.74 1227.99
2544.54 -2583.57 1224.45
2544.32 -2584.16 1225.33
2545.15 -2581.95 1222.16
2544.76 -2582.94 1223.67
2546.19 -2581.84 1218.65
2545.86 -2582.09 1219.89
2545.53 -2581.96 1220.84
2546.44 -2583.29 1218.74
2545.31 -2581.78 1221.5
2543.56 -2592.77 1237.14
2543.61 -2593.21 1237.74
2543.64 -2592.21 1236.79
2543.83 -2591.28 1235.93
2543.71 -2591.7 1236.19
2544.19 -2590.83 1234.13
2544.25 -2591.3 1232.82
2544.08 -2592.89 1230.49
2544.12 -2593.2 1231.78
2543.74 -2590.99 1228.28
2543.71 -2591.55 1228.43
2543.82 -2591.97 1228.95
2544 -2587.92 1228.93
2544.02 -2585.7 1228.16
2544 -2586.65 1228.38
2545.26 -2598.26 1243.16
2546.52 -2607.33 1241.51
2546.16 -2603.74 1243.45
2546.11 -2602.42 1243.99
2546.25 -2605.35 1242.27
2546.31 -2606.1 1241.46
2546.4 -2606.97 1240.9
2545.69 -2599.41 1243.44
2547.53 -2610.73 1242.02
2547 -2609.28 1240.9
2548.76 -2613.66 1242.49
2549.15 -2614.57 1241.4
2548.13 -2612.21 1242.34
2549.36 -2615.14 1240.95
2549.51 -2615.46 1239.57
2549.48 -2615.48 1238.47
2546.74 -2608.48 1241.2
2544.06 -2584.51 1227.39
2544.11 -2584.56 1226.75
2544.14 -2585.69 1226.73
2544.31 -2584.9 1225.42
2544.2 -2585.65 1226.2
2544.87 -2583.24 1223.22
2545.06 -2582.71 1222.52
2544.52 -2584.29 1224.49
2546.3 -2583.52 1219.49
2545.8 -2582.63 1220.44
2545.54 -2582.44 1221.09
2545.24 -2582.66 1221.87
2546.61 -2584.87 1219.43
2544.4 -2585.66 1225.27
2543.55 -2592.68 1236.64
2544.02 -2590.96 1234.79
2543.7 -2591.81 1235.41
2544.17 -2591.83 1232.72
2543.94 -2593 1229.52
2544.06 -2593.55 1231.01
2544.07 -2593.69 1231.66
2543.96 -2589.05 1228.37
2544.04 -2585.29 1227.84
2543.61 -2593.72 1237.71
2545.1 -2598.01 1242.74
2544.01 -2595.56 1238.25
2543.7 -2595.16 1237.3
2543.56 -2594.56 1237.15
2546.62 -2607.94 1241.07
2546.49 -2607.44 1240.72
2546.26 -2606.08 1240.18
2546.31 -2606.57 1239.89
2546.34 -2606.92 1239.24
2549.53 -2615.66 1237.83
2547.24 -2610.1 1241.31
2546.78 -2608.78 1240.51
2549 -2614.23 1241.06
2548.37 -2612.88 1241.49
2549.07 -2614.39 1239.7
2549.3 -2614.98 1239.48
2547.57 -2610.99 1241.13
2549.28 -2615.05 1237.63
2546.61 -2608.14 1240.51
2544.1 -2586.09 1227.21
2544.09 -2586.63 1227.43
2544.16 -2587.47 1226.88
2544.25 -2587.14 1226.33
2544.29 -2586.42 1225.9
2546.6 -2585.41 1219.7
2545.11 -2583.38 1222.57
2544.83 -2583.96 1223.39
2544.62 -2585.26 1224.51
2544.56 -2586.45 1224.92
2546.25 -2584.09 1219.97
2546.01 -2583.81 1220.55
2545.81 -2583.76 1221.06
2546.46 -2584.83 1219.95
2544.42 -2586.71 1225.39
2543.56 -2593.44 1237.22
2543.59 -2592.25 1236.23
2543.94 -2591.46 1234.43
2544.12 -2592.45 1232.62
2544 -2593.43 1232.37
2543.76 -2592.42 1228.58
2544.16 -2593.64 1230.41
2544.31 -2593.96 1231.25
2543.88 -2589.9 1228.29
2543.67 -2591.4 1227.91
2543.7 -2591.97 1228.05
2544 -2587.75 1228.38
2543.55 -2594.02 1237.26
2544.74 -2597.12 1242.04
2543.94 -2595.66 1237.68
2543.82 -2595.65 1237.08
2543.61 -2594.95 1236.83
2546.45 -2607.56 1240
2546.27 -2606.66 1238.57
2546.19 -2602.76 1243.48
2546.13 -2601.87 1243.89
2546.2 -2606.02 1238.92
2546.29 -2605.17 1241.22
2546.23 -2605.53 1239.93
2546.15 -2605.74 1238.29
2546.05 -2605.57 1237.49
2545.92 -2601.03 1244.03
2545.86 -2600.02 1243.58
2549.44 -2615.44 1237.1
2547.16 -2609.88 1240.68
2546.98 -2609.31 1240.13
2546.61 -2608.31 1239.63
2546.8 -2608.9 1239.55
2546.65 -2608.41 1238.94
2548.37 -2612.89 1240.74
2547.82 -2611.62 1240.97
2549.08 -2614.6 1238.94
2548.8 -2613.76 1239.2
2548.43 -2612.97 1240.06
2547.37 -2610.46 1240.42
2549.31 -2614.93 1236.95
2549.13 -2614.41 1237.45
2546.43 -2607.56 1239.46
2546.45 -2607.66 1238.78
2544.06 -2587.11 1227.7
2544.08 -2588.05 1227.2
2544.02 -2588.58 1227.48
2544.07 -2588.55 1226.91
2544.25 -2588.14 1226.26
2544.34 -2587.79 1225.75
2546.74 -2586.52 1219.42
2546.6 -2585.95 1219.81
2546.97 -2590.22 1219.1
2546.78 -2588.6 1219.51
2546.71 -2587.13 1219.77
2544.77 -2584.84 1223.86
2544.96 -2584.46 1223.27
2546.29 -2584.85 1220.5
2545.82 -2584.13 1221.42
2545.42 -2583.87 1222.16
2545.23 -2584.39 1222.73
2544.39 -2587.2 1225.51
2544.54 -2586.97 1224.94
2543.63 -2592.36 1235.34
2543.69 -2592.13 1234.68
2544.14 -2591.84 1233.37
2544.05 -2592.95 1232.73
2543.76 -2590.55 1227.75
2543.94 -2589.17 1227.74
2544.89 -2597.6 1242.23
2544.58 -2596.89 1241.41
2544.45 -2596.57 1240.35
2544.28 -2596.2 1239.23
2543.85 -2595.91 1236.59
2543.72 -2595.46 1236.35
2543.57 -2594.69 1236.33
2546.12 -2606.17 1237.63
2545.92 -2605.37 1236.69
2546.16 -2603.81 1242.9
2546.12 -2605.23 1238.19
2546.01 -2604.86 1237.3
2546.21 -2604.22 1242.33
2546.2 -2605.58 1239.22
2545.88 -2604.78 1236.63
2545.76 -2604.56 1236.07
2545.36 -2598.9 1243.14
2549.46 -2615.29 1236.4
2549.64 -2615.63 1235.82
2546.51 -2607.84 1238.18
2546.73 -2608.58 1238.36
2547.76 -2611.46 1240.41
2548.88 -2613.88 1238.35
2548.48 -2612.96 1238.71
2548.18 -2612.35 1239.46
2547.69 -2611.2 1239.97
2547.25 -2610.05 1239.74
2549.15 -2614.28 1236.74
2548.64 -2613.23 1237.95
2548.82 -2613.54 1237.21
2549.34 -2614.67 1236.32
2546.31 -2607.13 1238.06
2544.17 -2588.79 1226.28
2543.93 -2589.7 1227.29
2544.28 -2588.63 1225.69
2546.67 -2589.81 1219.92
2546.88 -2590.75 1219.34
2546.73 -2590.48 1220.09
2546.59 -2588.9 1219.96
2546.59 -2587.56 1220.12
2544.77 -2585.76 1224.19
2544.73 -2586.44 1224.44
2544.52 -2587.46 1225.07
2545.83 -2584.64 1221.63
2544.47 -2588.01 1225.15
2543.52 -2593.3 1236.69
2543.52 -2592.63 1235.75
2543.94 -2591.89 1234.13
2543.92 -2592.64 1233.68
2543.83 -2593.23 1233.68
2543.84 -2593.91 1233.67
2543.94 -2593.49 1229.31
2543.76 -2593.03 1228.52
2544.29 -2594.23 1230.41
2544.24 -2594.6 1230.8
2544.25 -2594.16 1232
2544.12 -2594.89 1231.5
2543.69 -2592.53 1228.01
2543.53 -2594.16 1236.57
2544.13 -2596.15 1237.83
2544.01 -2596.19 1237.19
2543.86 -2596.03 1235.96
2546.04 -2606.1 1237.09
2545.81 -2605.17 1235.96
2545.63 -2604.23 1235.32
2546.15 -2603.2 1243.09
2546.3 -2602.29 1243.24
2546.07 -2604.49 1237.69
2545.81 -2604.15 1236.42
2546.18 -2604.94 1238.62
2545.63 -2603.36 1235.71
2545.43 -2602.76 1234.95
2545.95 -2600.61 1243.73
2549.47 -2614.9 1235.77
2547 -2609.28 1238.78
2546.23 -2607.03 1237.25
2546.58 -2608.02 1237.46
2548.25 -2612.19 1238.2
2547.73 -2611.06 1238.85
2547.41 -2610.44 1239.33
2549.07 -2613.84 1236.14
2548.83 -2613.34 1236.43
2548.43 -2612.48 1237.49
2548.58 -2612.66 1236.79
2549.25 -2614.14 1235.59
2546.08 -2606.27 1236.47
2543.93 -2589.73 1227.8
2543.99 -2589.79 1226.61
2543.75 -2590.71 1227.09
2544.04 -2589.85 1226.01
2546.44 -2586.59 1220.37
2546.33 -2586.02 1220.71
2546.14 -2585.42 1221.12
2546.88 -2591.25 1219.44
2546.72 -2591.04 1220.12
2546.51 -2590.74 1220.81
2544.92 -2585.85 1223.72
2544.64 -2587.31 1224.57
2544.45 -2588.58 1225.18
2545.65 -2585.4 1222.16
2546.11 -2585.94 1221.3
2545.36 -2585.69 1222.81
2543.64 -2592.83 1234.63
2543.62 -2593.56 1234.65
2544.19 -2594.09 1232.64
2544.15 -2595.05 1230.53
2544.09 -2594.77 1232.13
2543.66 -2591.4 1227.34
2543.68 -2591.91 1227.39
2544.33 -2596.53 1239.73
2544.35 -2596.48 1238.69
2544.02 -2596.51 1236.54
2543.94 -2596.53 1235.69
2543.72 -2595.46 1235.85
2543.57 -2594.7 1235.81
2543.51 -2594.17 1236.01
2545.55 -2603.63 1234.78
2545.39 -2602.56 1234.31
2545.83 -2601.46 1243.72
2546.15 -2604.43 1238.31
2545.89 -2603.88 1236.96
2545.78 -2603.3 1236.38
2546.29 -2604.77 1240.18
2546.28 -2604.85 1239.62
2546.25 -2604.64 1240.93
2545.38 -2602.27 1234.86
2545.26 -2601.38 1234.72
2545.22 -2601.19 1234.18
2549.52 -2614.71 1234.8
2546.91 -2608.84 1237.52
2546.29 -2607.18 1236.74
2547.81 -2610.9 1237.31
2547.46 -2610.17 1237.65
2547.25 -2609.69 1237.88
2549 -2613.37 1235.52
2548.72 -2612.86 1235.93
2548.25 -2611.73 1236.62
2548.5 -2612.13 1235.87
2549.29 -2613.89 1234.56
2545.91 -2605.49 1235.44
2543.86 -2590.88 1226.26
2546.25 -2586.52 1220.92
2546.4 -2587.67 1220.83
2546.75 -2591.53 1220.26
2546.53 -2590.01 1220.92
2546.61 -2591.33 1220.7
2546.32 -2590.8 1221.39
2546.43 -2589.11 1220.84
2545.35 -2586.48 1222.87
2544.97 -2587.12 1223.88
2544.78 -2587.63 1224.18
2544.65 -2588.14 1224.64
2544.18 -2590.02 1225.47
2545.97 -2586.34 1221.59
2543.96 -2590.39 1225.8
2543.49 -2593.21 1235.97
2543.53 -2593.06 1235.15
2543.88 -2594.53 1233.59
2543.63 -2594.29 1234.57
2543.54 -2593.91 1235.18
2543.99 -2594.2 1229.14
2543.9 -2595.09 1233.21
2544.15 -2595.38 1231.75
2544.21 -2595.42 1231.23
2544.27 -2595.53 1230.73
2543.67 -2592.56 1227.49
2544.25 -2596.71 1237.29
2544.35 -2597.43 1236.05
2544.28 -2597.52 1235.33
2544.28 -2597.68 1234.79
2543.94 -2596.63 1234.98
2543.84 -2596.12 1235.04
2543.75 -2595.65 1235.29
2543.65 -2595.08 1235.3
2545.32 -2601.82 1233.81
2546.37 -2602.59 1242.7
2546 -2603.89 1237.55
2546.14 -2603.83 1238.21
2545.59 -2602.5 1235.81
2545.39 -2601.66 1235.26
2546.19 -2604.21 1241.51
2546.3 -2604.32 1239.1
2546.25 -2603.05 1242.38
2546.13 -2603.72 1242.03
2546.36 -2602.98 1239.01
2545.14 -2600.81 1234.59
2545.17 -2598.29 1242.32
2545.69 -2599.88 1243.08
2549.57 -2614.2 1233.55
2546.59 -2607.98 1236.84
2545.87 -2605.22 1234.98
2546.22 -2606.61 1235.8
2547.51 -2609.95 1236.34
2547.19 -2609.31 1236.56
2548.93 -2612.98 1235.19
2549.17 -2613.3 1234.41
2548.72 -2612.44 1235.09
2547.64 -2610.05 1235.75
2548.27 -2611.33 1234.96
2549.39 -2613.37 1233.2
2545.72 -2604.5 1234.8
2543.73 -2591.31 1226.76
2543.85 -2591.43 1226.13
2546.99 -2592.07 1219.86
2547.24 -2592.53 1219.21
2546.67 -2591.84 1220.75
2546.43 -2589.97 1221.42
2546.53 -2591.38 1221.33
2545.74 -2587.32 1222.21
2546.02 -2587.32 1221.67
2544.88 -2588.31 1224.04
2544.53 -2589.11 1224.91
2543.98 -2590.98 1225.66
2543.51 -2593.46 1235.46
2543.82 -2593.69 1228.38
2544.05 -2594.84 1229.3
2544.36 -2595.72 1230.18
2543.76 -2595.09 1234.25
2543.99 -2595.51 1232.86
2543.67 -2593.16 1227.84
2544.57 -2596.85 1239
2544.53 -2597.28 1237.43
2544.53 -2598.29 1235.43
2544.66 -2598.83 1235.17
2544.7 -2599.04 1234.44
2544.28 -2597.77 1234.29
2543.74 -2595.48 1234.65
2543.87 -2596.36 1234.51
2543.58 -2594.55 1235.22
2543.67 -2594.94 1234.76
2545.49 -2603.21 1234
2545.27 -2601.48 1233.35
2545.09 -2600.9 1233.7
2546.39 -2602.17 1242.28
2546.22 -2601.95 1242.79
2546.01 -2603.22 1237.59
2546.25 -2602.78 1238.49
2545.87 -2602.62 1237.11
2545.69 -2602.28 1236.48
2545.55 -2601.98 1235.85
2545.29 -2600.85 1235.21
2546.49 -2603.21 1240.62
2546.5 -2603.2 1240.1
2546.39 -2603.55 1241.26
2546.41 -2601.81 1241.72
2546.34 -2602.46 1241.55
2544.94 -2600.17 1234.19
2545.02 -2600.31 1234.79
2545.89 -2601.21 1243.2
2545.97 -2600.44 1243.25
2545.04 -2597.72 1241.68
2544.66 -2597.04 1240.7
2546.46 -2607.48 1236.21
2545.87 -2604.87 1234.42
2545.73 -2604.01 1233.86
2547.05 -2608.82 1235.97
2546.79 -2608.42 1236.45
2548.98 -2612.66 1234.2
2549.2 -2612.76 1233.23
2548.63 -2611.83 1234.11
2547.56 -2609.68 1235.11
2547.03 -2608.65 1235.42
2547.87 -2610.12 1234.32
2543.74 -2591.81 1226.88
2546.2 -2588.86 1221.44
2547.14 -2592.76 1219.69
2546.89 -2592.44 1220.29
2546.69 -2592.34 1220.78
2546.28 -2590.93 1221.9
2546.55 -2592.27 1221.32
2545.04 -2588.85 1223.85
2545.33 -2587.83 1223
2545.81 -2588.8 1222.39
2546.01 -2588.72 1221.9
2544.82 -2589.09 1224.25
2544.18 -2595.49 1229.28
2543.81 -2595.55 1233.91
2544.16 -2595.9 1232.3
2544.45 -2596.04 1230.88
2543.69 -2592.29 1227.04
2544.61 -2596.91 1239.53
2544.58 -2597.56 1236.94
2544.53 -2598 1235.92
2544.8 -2599.36 1234.96
2544.9 -2599.57 1234.15
2544.02 -2596.88 1234.14
2544.92 -2600.4 1233.47
2546.55 -2602.13 1239.37
2545.84 -2602.12 1237.08
2546.16 -2602.13 1238.23
2546.64 -2602.15 1240.29
2546.52 -2602.3 1240.8
2544.93 -2599.7 1233.5
2545.34 -2598.91 1242.48
2545.46 -2599.36 1242.78
2544.85 -2597.36 1241.37
2546.42 -2607.11 1235.59
2546.21 -2606.19 1234.92
2546.03 -2605.37 1234.43
2545.89 -2604.61 1233.84
2545.7 -2603.65 1233.3
2545.51 -2602.93 1233.17
2546.74 -2608.16 1235.87
2548.94 -2612.1 1233.17
2549.05 -2611.68 1231.89
2549.32 -2612.18 1231.51
2548.52 -2611.27 1233.46
2547.2 -2608.71 1234.83
2546.73 -2607.71 1234.98
2547.99 -2609.97 1233.39
2547.3 -2608.62 1234.23
2545.33 -2601.63 1232.87
2546.13 -2589.81 1222.1
2547.01 -2592.94 1220.25
2547.33 -2593.78 1219.95
2546.82 -2592.87 1220.82
2546.47 -2591.7 1221.86
2546.6 -2592.89 1221.5
2545.51 -2588.91 1222.95
2545.19 -2589.34 1223.59
2545.83 -2589.96 1222.55
2544.69 -2589.52 1224.53
2544.39 -2590.28 1224.98
2544.06 -2591.67 1225.6
2543.94 -2594.52 1228.54
2544.55 -2596.44 1230.3
2543.93 -2596.17 1233.44
2544.94 -2597.38 1238.97
2544.86 -2597.58 1238.22
2544.66 -2598 1236.42
2544.99 -2599.45 1235.54
2544.94 -2598.97 1236
2544.43 -2598.03 1233.49
2544.82 -2599.19 1233.56
2545.08 -2600.31 1232.81
2546.47 -2601.21 1242
2545.97 -2601.32 1242.69
2546.4 -2601.9 1238.89
2546.58 -2601.52 1239.4
2546.09 -2601.56 1238.16
2545.66 -2601.52 1236.49
2545.85 -2601.58 1237.09
2545.49 -2601.16 1235.9
2545.28 -2600.44 1235.6
2546.76 -2601.63 1239.95
2546.61 -2601.37 1241.4
2546.1 -2600.23 1242.8
2544.89 -2597.29 1239.97
2546.21 -2605.91 1234.5
2545.87 -2604.14 1233.05
2545.71 -2603.37 1232.72
2545.54 -2602.77 1232.69
2548.73 -2611.32 1232.59
2548.71 -2610.46 1231.39
2549.02 -2610.48 1230.18
2546.45 -2606.45 1234.25
2548.19 -2609.91 1232.44
2547.33 -2607.98 1233.02
2546.83 -2607.17 1233.73
2543.94 -2591.97 1226.13
2547.18 -2593.83 1220.57
2546.33 -2592.32 1221.97
2547.01 -2594.06 1221.42
2546.02 -2590.9 1222.63
2544.19 -2591 1225.14
2544.3 -2595.95 1229.11
2544.27 -2596.53 1232.18
2544.47 -2596.66 1231.14
2543.69 -2593.05 1227.2
2543.86 -2594.07 1227.97
2543.77 -2593.63 1227.57
2545.39 -2598.15 1238.73
2545.42 -2598.49 1238.17
2544.96 -2598.6 1236.59
2544.17 -2596.74 1233.25
2544.92 -2599.31 1233.06
2546.79 -2600.91 1241.32
2546.43 -2601.16 1238.98
2546.03 -2600.88 1238.21
2545.57 -2600.89 1236.35
2545.73 -2601.03 1236.85
2545.43 -2600.42 1236.2
2546.68 -2601.48 1240.78
2546.78 -2601.18 1240.17
2546.61 -2600.91 1239.51
2546.32 -2600.84 1243.09
2545.26 -2598.25 1241.67
2545.85 -2599.79 1242.52
2544.95 -2597.45 1240.52
2546.04 -2604.71 1232.95
2545.89 -2603.82 1232.34
2545.76 -2603.21 1232.13
2545.62 -2602.72 1232.19
2545.44 -2601.69 1232.37
2548.45 -2609.27 1230.57
2548.76 -2609.48 1229.68
2548.83 -2608.77 1228.48
2546.53 -2606.29 1233.62
2546.31 -2605.16 1232.59
2547.78 -2608.28 1231.62
2547.1 -2606.51 1231.32
2546.78 -2605.9 1231.67
2546.52 -2605.4 1232
2547.41 -2595.36 1221.09
2546.09 -2592.01 1222.41
2546.48 -2593 1222.01
2546.76 -2594.07 1222.02
2547.23 -2595.35 1221.56
2545.63 -2590.06 1223.08
2544.79 -2590.43 1224.4
2545.9 -2591.51 1222.81
2544.01 -2592.3 1225.66
2544.73 -2597.38 1230.22
2544.16 -2595.48 1228.59
2544.83 -2597.67 1231
2545.5 -2598 1239.54
2545.97 -2598.84 1239.08
2545.85 -2598.47 1239.51
2545.66 -2598.98 1238.02
2545.42 -2599.12 1237.38
2545.28 -2599.66 1236.16
2545.16 -2599.18 1236.4
2544.59 -2598.2 1232.81
2545.14 -2599.95 1232.08
2544.83 -2598.49 1231.99
2546.58 -2600.9 1242.47
2546.22 -2600.6 1238.78
2545.89 -2600.38 1237.73
2546.79 -2600.89 1240.75
2545.43 -2598.14 1241.02
2545.11 -2597.74 1240.9
2546.26 -2599.77 1241.99
2546.02 -2603.94 1231.78
2545.96 -2603.51 1231.26
2545.72 -2602.72 1231.63
2545.6 -2601.74 1231.4
2545.36 -2600.21 1231.21
2548.17 -2608.15 1229.77
2548.46 -2608.26 1228.89
2548.65 -2608.12 1228
2548.76 -2607.96 1227.06
2546.37 -2604.5 1230.89
2547.3 -2606.66 1230.54
2547.63 -2606.96 1229.79
2546.89 -2605.52 1230.15
2546.63 -2605 1230.47
2543.79 -2592.47 1226.36
2546.31 -2593.02 1222.49
2547.05 -2595.41 1222.14
2547.3 -2596.31 1221.72
2547.19 -2596.83 1222.32
2545.47 -2590.43 1223.42
2545.65 -2590.94 1223.25
2545.69 -2591.99 1223.05
2544.25 -2591.64 1225.11
2544.52 -2596.55 1229.01
2544.99 -2598.05 1230.02
2544.02 -2594.87 1228.17
2545.04 -2598.74 1230.51
2543.7 -2592.75 1226.77
2546.2 -2598.92 1239.59
2546.04 -2599.27 1238.71
2545.52 -2599.68 1237.19
2546.13 -2599.7 1238.41
2545.16 -2599.26 1231.12
2546.85 -2600.54 1241.72
2546.72 -2600.67 1239.95
2546.56 -2600.33 1242.27
2545.52 -2598.06 1240.27
2545.19 -2598.73 1241.88
2545.95 -2599.24 1241.72
2545.93 -2598.57 1240.46
2548.63 -2606.99 1225.87
2546.15 -2603.84 1230.72
2546.37 -2604.22 1230.33
2546.02 -2603.14 1230.44
2545.77 -2601.91 1230.73
2545.87 -2602.02 1230.07
2545.61 -2600.52 1230.07
2545.53 -2599.8 1229.65
2548.09 -2606.8 1228.05
2548.38 -2606.89 1227.15
2548.44 -2606.89 1226.65
2546.59 -2604.67 1230.04
2547.2 -2605.86 1229.5
2547.74 -2606.56 1228.66
2547 -2605.24 1229.24
2546.79 -2605.01 1229.7
2546.46 -2594.19 1222.84
2546.78 -2596.52 1223.24
2547.29 -2597.76 1222.46
2547.11 -2598.48 1223.3
2544.82 -2591.24 1224.27
2545.35 -2591.23 1223.61
2543.97 -2592.83 1225.89
2545.15 -2598.44 1229.35
2543.91 -2594.3 1227.39
2545.39 -2599.14 1229.39
2546.73 -2600.41 1241.21
2546.39 -2600.39 1239.42
2546.36 -2600.1 1238.84
2546.51 -2599.58 1241.5
2546.01 -2598.8 1240.94
2546.25 -2598.87 1240.2
2548.73 -2607.04 1224.45
2548.85 -2607.22 1223.31
2548.64 -2606.75 1225.09
2548.27 -2605.88 1225.04
2548.12 -2605.98 1225.88
2546.1 -2602.93 1229.7
2546.26 -2603.49 1229.71
2545.91 -2601.89 1229.45
2545.7 -2600.46 1229.12
2545.53 -2599.65 1228.68
2547.55 -2605.93 1228.25
2547.87 -2605.84 1227.2
2547.89 -2605.62 1226.71
2547.36 -2605.28 1228.1
2547.62 -2598.41 1221.79
2547.38 -2598.87 1222.64
2545.91 -2592.73 1223.18
2546.15 -2593.53 1223.03
2546.46 -2594.9 1223.24
2546.92 -2597.08 1223.13
2546.58 -2597.51 1224.02
2546.84 -2597.9 1223.66
2547.23 -2599.01 1223.27
2547 -2598.89 1223.95
2544.97 -2591.86 1224.18
2544.62 -2592.14 1224.66
2545.43 -2591.87 1223.64
2545.5 -2592.4 1223.64
2544.32 -2592.3 1225.19
2544.31 -2596.07 1228.45
2545.23 -2598.74 1228.8
2544.75 -2597.01 1228.53
2543.79 -2593.32 1226.74
2543.86 -2593.89 1226.97
2546.39 -2599.44 1239.26
2546.44 -2600.14 1240.01
2546.84 -2599.98 1241.46
2546.39 -2599.22 1241.08
2548.42 -2606.2 1224.35
2548.9 -2607.21 1222.8
2548.11 -2605.36 1225.12
2548.03 -2605.54 1226.12
2546.59 -2604.31 1229.25
2546.35 -2603.2 1229.08
2545.99 -2601.49 1228.73
2545.86 -2600.68 1228.56
2547.63 -2605.2 1227.14
2546.97 -2604.55 1228.29
2547.43 -2599.57 1222.92
2547.72 -2600.33 1222.18
2547.28 -2599.56 1223.46
2546.29 -2596.79 1224.2
2546.08 -2596.12 1224.19
2546.73 -2598.28 1224.09
2547.14 -2599.75 1223.94
2546.74 -2599.14 1224.62
2547 -2600.03 1224.51
2545.13 -2592.39 1224.15
2544.8 -2592.72 1224.61
2545.59 -2592.92 1223.68
2545.78 -2593.43 1223.57
2543.96 -2594.41 1226.88
2546.5 -2599.29 1239.82
2546.51 -2599.88 1239.5
2546.72 -2600.19 1240.76
2546.75 -2599.56 1241.01
2548.46 -2606.11 1223.06
2548.21 -2605.52 1223.96
2547.86 -2604.81 1225.87
2547.91 -2604.71 1224.9
2548.82 -2606.65 1222.23
2546.54 -2603.73 1228.82
2546.21 -2601.79 1228.09
2546.5 -2603.06 1228.39
2545.85 -2600.26 1228.03
2545.41 -2598.95 1228.19
2544.83 -2597.15 1227.9
2547.41 -2604.64 1227.24
2547.7 -2604.82 1226.64
2544.04 -2593.34 1226.1
2547.64 -2600.92 1222.65
2547.47 -2600.69 1223.33
2547.31 -2600.23 1223.69
2547.97 -2601.84 1221.67
2548.3 -2603.44 1221.09
2546.08 -2594.12 1223.5
2546.05 -2595.19 1224.03
2545.78 -2595.78 1224.6
2546.1 -2597.11 1224.54
2545.63 -2596.36 1225.07
2546.44 -2598.18 1224.62
2546.65 -2599.62 1225.18
2546.79 -2600.18 1225.21
2547.07 -2600.83 1224.92
2545.46 -2593.42 1224.08
2544.46 -2592.9 1225.25
2544.3 -2595.75 1227.84
2544.14 -2594.98 1227.5
2547.7 -2604.33 1225.81
2548.05 -2604.81 1223.69
2548.33 -2605.6 1222.9
2546.92 -2603.84 1227.8
2546.33 -2601.61 1227.48
2545.58 -2599.24 1227.67
2547.65 -2601.43 1223.04
2547.51 -2601.29 1223.72
2547.34 -2600.91 1224.06
2548.58 -2604.78 1221.05
2548.28 -2603.93 1221.43
2545.57 -2594.28 1224.3
2545.55 -2594.74 1224.51
2545.22 -2595.28 1225.2
2545.8 -2597.21 1225.3
2546.43 -2598.86 1224.99
2546.02 -2597.95 1225.29
2547.29 -2601.24 1224.59
2546.41 -2599.61 1225.69
2546.6 -2600.34 1225.73
2546.04 -2598.99 1225.85
2546.05 -2598.49 1225.5
2546.95 -2601.17 1225.45
2547.23 -2601.7 1225.28
2544.93 -2593.34 1224.79
2544.31 -2593.52 1225.69
2546.69 -2599.77 1240.42
2546.56 -2599.27 1240.36
2547.77 -2604.25 1225.16
2547.85 -2604.22 1224.61
2548.76 -2606.26 1221.83
2547.39 -2603.99 1226.62
2546.92 -2602.97 1227.06
2546.45 -2601.13 1226.74
2545.93 -2600.15 1227.23
2547.31 -2603.28 1226.2
2544.99 -2597.4 1227.4
2544.16 -2593.85 1226.23
2547.9 -2602.42 1222.18
2548.13 -2603.48 1221.74
2547.7 -2602.03 1223.23
2547.5 -2601.92 1224.27
2548.26 -2604.34 1221.74
2548.65 -2605.31 1221.36
2544.91 -2593.88 1224.89
2545.06 -2595.72 1225.69
2544.7 -2594.25 1225.47
2545.15 -2596.27 1225.91
2546.09 -2599.53 1226.27
2546.3 -2600.44 1226.48
2545.5 -2597.78 1226.16
2545.33 -2597.12 1226.11
2547.02 -2601.91 1226.02
2547.37 -2602.73 1225.58
2544.59 -2593.71 1225.28
2544.42 -2594.35 1225.99
2544.46 -2596.1 1227.44
2544.22 -2594.9 1226.92
2547.65 -2603.71 1225.27
2548.03 -2604.47 1223.3
2547.79 -2603.74 1224.42
2548.21 -2604.96 1222.66
2548.8 -2606.03 1221.37
2548.39 -2605.25 1222.17
2547.53 -2603.74 1225.91
2545.9 -2599.71 1226.93
2545.59 -2598.77 1226.97
2547.63 -2602.33 1223.86
2547.84 -2602.75 1222.76
2547.48 -2602.42 1224.84
2544.68 -2594.93 1225.81
2544.5 -2595.18 1226.26
2545.78 -2598.95 1226.52
2544.71 -2595.83 1226.46
2544.49 -2595.55 1226.97
2547.62 -2603.23 1224.86
2547.92 -2603.81 1223.3
2545.21 -2597.46 1226.63
2544.89 -2596.92 1226.85
2548.06 -2603.86 1222.33
2548.19 -2604.5 1222.22
2547.67 -2602.84 1224.05
2547.86 -2603.22 1223.07
