2753.57 -2257.6 1530.59 
2755.08 -2257.37 1529 
2755.27 -2257.37 1531.44 
2753.28 -2257.62 1528.04 
2756.97 -2257.16 1527.34 
2756.84 -2257.19 1529.77 
2757.21 -2257.09 1525.09 
2759.63 -2256.83 1526.66 
2759.27 -2256.8 1524.34 
2755 -2257.38 1526.42 
2751.14 -2257.92 1527.23 
2752.96 -2257.63 1525.57 
2755.05 -2257.31 1523.97 
2757.14 -2257.03 1522.55 
2759.41 -2256.69 1522.07 
2761.47 -2256.45 1522.85 
2760.88 -2256.44 1520.27 
2762.78 -2256.24 1521.51 
2763.09 -2256.2 1519.68 
2750.89 -2257.9 1524.69 
2752.85 -2257.61 1523.23 
2754.86 -2257.3 1521.72 
2756.55 -2257.08 1520.03 
2758.71 -2256.75 1520.11 
2759.57 -2256.57 1517.97 
2761.29 -2256.38 1518.02 
2765 -2256.04 1517.99 
2765.34 -2255.99 1520.4 
2763 -2256.22 1517.46 
2767.1 -2255.86 1516.72 
2767.26 -2255.85 1518.79 
2748.67 -2258.26 1523.74 
2750.48 -2257.97 1522.28 
2748.06 -2258.33 1521.16 
2752.53 -2257.67 1520.9 
2754.41 -2257.39 1519.48 
2755.65 -2257.16 1517.72 
2757.64 -2256.85 1517.87 
2758.17 -2256.7 1515.86 
2759.97 -2256.48 1515.96 
2761.97 -2256.27 1515.82 
2764.7 -2256.05 1515.9 
2767.32 -2255.77 1515.01 
2769.56 -2255.6 1515.76 
2769.83 -2255.5 1513.71 
2749.99 -2258.06 1519.78 
2746.11 -2258.64 1520.19 
2747.6 -2258.46 1518.55 
2751.98 -2257.77 1518.55 
2753.48 -2257.55 1517.39 
2754.08 -2257.39 1515.67 
2756.37 -2256.98 1515.78 
2756.95 -2256.78 1513.7 
2758.79 -2256.54 1513.84 
2760.59 -2256.36 1513.87 
2763.06 -2256.13 1513.96 
2765.49 -2255.89 1513.71 
2767.82 -2255.61 1512.78 
2749.9 -2258.08 1517.48 
2745.86 -2258.68 1517.79 
2747.89 -2258.37 1516.48 
2751.61 -2257.82 1516.32 
2752.06 -2257.67 1514.34 
2754.74 -2257.17 1513.44 
2756.23 -2256.81 1511.39 
2758 -2256.55 1511.74 
2759.57 -2256.36 1511.85 
2761.95 -2256.11 1511.75 
2764.44 -2255.88 1511.55 
2766.93 -2255.58 1510.91 
2749.59 -2258.09 1515.27 
2744.25 -2258.97 1516.75 
2746.23 -2258.61 1515.9 
2747.52 -2258.37 1514.16 
2749.67 -2257.97 1513 
2752.05 -2257.52 1512.04 
2754.3 -2257.14 1511.21 
2757.37 -2256.58 1509.86 
2754.92 -2256.99 1509.59 
2759.02 -2256.36 1510.29 
2760.86 -2256.17 1509.96 
2763.21 -2255.94 1509.64 
2743.29 -2259.16 1515.04 
2745.14 -2258.8 1514.52 
2745.93 -2258.58 1512.53 
2747.71 -2258.19 1511.44 
2749.81 -2257.84 1510.51 
2752.25 -2257.45 1509.96 
2756.41 -2256.77 1508.2 
2758.62 -2256.41 1507.75 
2759.89 -2256.25 1508.75 
2752.33 -2257.38 1508.08 
2754.37 -2257.08 1507.42 
2761.94 -2256.04 1508.02 
2741.56 -2259.45 1514.41 
2743.64 -2259.01 1512.54 
2745.68 -2258.53 1510.43 
2747.74 -2258.13 1509.22 
2749.99 -2257.75 1508.49 
2757.19 -2256.68 1505.94 
2755.2 -2256.96 1505.27 
2760.76 -2256.18 1506.46 
2759.29 -2256.38 1505.02 
2750.72 -2257.59 1506.02 
2752.77 -2257.31 1505.48 
2739.63 -2259.82 1513.68 
2741.39 -2259.41 1511.89 
2743.32 -2258.99 1510.28 
2745.2 -2258.61 1508.73 
2747 -2258.26 1507.4 
2748.97 -2257.88 1506.77 
2757.08 -2256.7 1503.49 
2754.25 -2257.1 1503.6 
2759.7 -2256.3 1502.91 
2749.42 -2257.82 1504.3 
2751.44 -2257.48 1503.56 
2747.45 -2258.17 1505.02 
2755.53 -2256.87 1501.54 
2757.99 -2256.55 1501.04 
2752.91 -2257.2 1501.87 
2749.84 -2257.67 1502.19 
2751.24 -2257.43 1500.25 
2753.84 -2257.05 1499.59 
2756.51 -2256.67 1499.08 
2754.72 -2256.88 1497.3 
