2619.84 -2780.27 2558.98
2619.73 -2779.9 2561.03
2619.87 -2779.87 2561.92
2620 -2780.03 2562.44
2619.91 -2780.21 2563.24
2620.54 -2780.01 2554.46
2620.63 -2780.54 2554.8
2620.96 -2781.68 2554.62
2620.83 -2781.36 2555.12
2620.59 -2781.27 2556.42
2620.88 -2781.68 2555.64
2621.04 -2782.07 2555.09
2620.42 -2781.14 2557.15
2620.25 -2780.88 2557.98
2620.49 -2779.55 2554.02
2620.25 -2777.59 2552.38
2620.04 -2777.54 2552.85
2620.17 -2778 2553.25
2621 -2778.01 2551.28
2620.76 -2778.08 2551.85
2626.21 -2784.76 2546.08
2622.92 -2779.78 2548.56
2623.83 -2781.04 2547.71
2625.14 -2783.13 2546.93
2624.84 -2782.99 2547.48
2625.65 -2784.24 2546.98
2625.84 -2784.71 2547.05
2626.63 -2785.19 2545.5
2619.93 -2780.17 2563.82
2621.21 -2779.38 2568.27
2620.74 -2780 2565.59
2621.27 -2780.1 2567.5
2620.47 -2780.65 2564.32
2620.8 -2780.85 2564.82
2621.9 -2780.25 2570.12
2622.32 -2780.58 2571.42
2626.74 -2785.9 2546.41
2627.38 -2786.37 2545.47
2628.19 -2786.67 2543.87
2627.97 -2787 2545.07
2629.62 -2786.99 2541.63
2629.04 -2787.42 2543.39
2623.24 -2781.17 2573.93
2622.8 -2780.93 2572.71
2625.17 -2784.05 2575.62
2624.81 -2783.73 2575
2624.34 -2783.09 2574.57
2623.77 -2782.36 2573.92
2619.52 -2779.73 2560.25
2619.81 -2780.31 2559.9
2619.98 -2780.57 2559.37
2619.73 -2780.45 2561.46
2619.94 -2780.62 2562.34
2620.16 -2780.65 2563.18
2620.98 -2781.28 2553.98
2620.83 -2781.93 2556.44
2621.25 -2782.71 2554.89
2621.16 -2782.15 2554.29
2620.66 -2781.82 2557.16
2620.7 -2780 2553.71
2620.7 -2778.54 2552.26
2620.48 -2778.47 2552.75
2621.51 -2778.6 2550.66
2620.99 -2778.82 2551.91
2622.11 -2778.94 2549.55
2623.31 -2780.6 2548.4
2624.34 -2782.38 2547.98
2625.34 -2784.15 2547.67
2625.03 -2783.78 2548.02
2625.52 -2784.67 2547.8
2622.02 -2781.2 2569.13
2621.42 -2781.35 2566.43
2620.88 -2781.39 2564.42
2620.6 -2781.22 2564
2622.63 -2781.91 2570.61
2623.07 -2782.14 2571.85
2635.22 -2792.95 2538.81
2635.79 -2793.58 2538.66
2626.45 -2786.02 2547.41
2626.05 -2785.6 2547.73
2626.94 -2786.41 2546.79
2629 -2787.97 2544.3
2628.62 -2787.86 2545.04
2627.37 -2786.81 2546.35
2629.96 -2787.86 2542.25
2630.65 -2789.38 2542.95
2631.07 -2789.22 2541.88
2632.98 -2790.93 2540.49
2626.87 -2785.77 2577.9
2625.96 -2784.97 2576.53
2623.34 -2782 2573.02
2625.07 -2784.41 2574.69
2624.5 -2784.38 2573.05
2624.2 -2784.12 2572.58
2623.91 -2783.72 2572.27
2620.21 -2780.96 2558.96
2620.09 -2780.85 2559.78
2619.83 -2780.65 2561.01
2620.32 -2781.16 2562.54
2621.28 -2782.18 2553.72
2621.38 -2782.68 2553.95
2621.07 -2782.37 2555.83
2620.5 -2781.61 2558.39
2620.91 -2779.81 2552.89
2621.16 -2781.33 2553.26
2621.22 -2779 2551.46
2621.2 -2779.89 2552.25
2622.96 -2780.41 2548.98
2623.67 -2781.37 2548.45
2624.11 -2782.68 2548.72
2624.67 -2783.33 2548.28
2625.19 -2784.35 2548.29
2624.86 -2783.91 2548.56
2625.37 -2784.85 2548.41
2622.2 -2782.22 2568.28
2621.46 -2781.94 2565.65
2622.23 -2782.56 2567.75
2622.83 -2782.97 2569.75
2623.37 -2783.23 2571.24
2638.62 -2796.21 2537.99
2635.29 -2793.32 2539.56
2635.99 -2793.98 2539.27
2636.57 -2794.59 2539.39
2626.06 -2785.87 2548.24
2625.66 -2785.32 2548.33
2630.37 -2789.36 2543.49
2630.1 -2789.25 2543.9
2626.46 -2786.44 2548.27
2631.53 -2790.69 2543.2
2632.33 -2791.03 2542.05
2632.1 -2790.52 2541.71
2633.61 -2791.69 2540.37
2632.84 -2791.56 2541.81
2626.84 -2786.09 2577.13
2625.79 -2785.18 2575.59
2625.01 -2784.73 2573.98
2627.56 -2786.68 2578.12
2624.41 -2784.67 2572.28
2623.94 -2784.56 2570.99
2623.55 -2784.08 2570.48
2620.07 -2781.13 2560.94
2619.93 -2781.17 2561.54
2620.2 -2781.34 2561.93
2621.53 -2783.15 2554.18
2621.01 -2782.53 2556.73
2621.22 -2782.85 2555.62
2621.38 -2783.17 2555.11
2620.84 -2782.33 2557.52
2621.36 -2781.39 2552.72
2621.51 -2779.38 2550.97
2621.36 -2780.4 2552.08
2622.11 -2779.5 2549.81
2622.6 -2780.02 2549.41
2623.43 -2781.45 2548.97
2623.65 -2782.32 2549.33
2623.94 -2783.07 2549.42
2624.43 -2783.38 2548.85
2625.03 -2784.48 2548.81
2624.72 -2784.12 2549.14
2625.29 -2785.1 2548.99
2620.39 -2781.35 2563.34
2620.84 -2781.78 2563.96
2621.32 -2782.13 2564.71
2622.45 -2783.04 2567.86
2622.89 -2783.38 2569.31
2637.69 -2795.61 2538.99
2638.49 -2796.28 2538.91
2639.25 -2797.01 2538.9
2634.18 -2792.27 2540.21
2634.62 -2792.85 2540.43
2635.1 -2793.44 2540.49
2635.62 -2794.01 2540.41
2635.72 -2794.33 2541.03
2636.55 -2794.98 2540.6
2637.14 -2795.26 2539.61
2625.62 -2785.53 2548.82
2626.03 -2786.08 2548.78
2631.4 -2790.8 2543.72
2627.75 -2787.34 2546.43
2629.22 -2788.62 2544.97
2630.43 -2789.79 2544.14
2632.1 -2791.36 2543.07
2633.29 -2792 2541.62
2628.41 -2787.89 2578.04
2627.6 -2787.07 2577.35
2626.55 -2786.11 2575.98
2625.62 -2785.32 2574.62
2624.88 -2784.97 2573.13
2624.36 -2784.9 2571.67
2623.92 -2784.8 2570.45
2623.46 -2784.37 2569.71
2623.2 -2784.07 2569.33
2620.41 -2781.51 2559.54
2620.29 -2781.35 2560.44
2620.66 -2781.7 2562.45
2621.42 -2782.2 2553.23
2621.64 -2782.97 2553.46
2621.26 -2783.08 2556.15
2621.58 -2783.49 2554.62
2620.69 -2782.06 2558.79
2621.66 -2780.76 2551.57
2622.83 -2780.98 2549.71
2623.24 -2781.62 2549.49
2623.24 -2782.82 2550.45
2624.1 -2783.53 2549.66
2624.42 -2784.13 2549.73
2624.91 -2784.82 2549.49
2622.05 -2782.92 2566.11
2637.62 -2795.83 2540.02
2638.41 -2796.43 2539.85
2639.05 -2796.99 2539.74
2640.43 -2798.3 2539.78
2633.94 -2792.77 2541.77
2634.18 -2793.16 2542.04
2634.42 -2793.54 2542.3
2635.09 -2794.2 2542.4
2634.06 -2793.48 2543.01
2636.55 -2795.23 2541.33
2625.31 -2785.45 2549.46
2625.74 -2785.88 2549.22
2631.53 -2791.16 2544.07
2628.37 -2787.97 2546.03
2627.12 -2787.02 2547.62
2629.9 -2789.41 2544.78
2630.77 -2790.37 2544.49
2626.47 -2786.66 2548.81
2626.11 -2786.37 2549.24
2628.77 -2788.43 2577.78
2627.51 -2787.27 2576.46
2626.54 -2786.32 2575.35
2629.45 -2788.94 2578.62
2625.52 -2785.5 2573.95
2624.75 -2785.2 2572.28
2624.3 -2785.09 2571.05
2623.49 -2784.64 2569.22
2623.04 -2784.14 2568.58
2622.76 -2783.74 2568.03
2620.54 -2781.74 2561.26
2620.72 -2781.87 2561.98
2621.76 -2783.53 2553.92
2621.26 -2783.19 2556.77
2621.46 -2783.45 2555.56
2621.05 -2782.75 2557.73
2621.66 -2781.8 2552.34
2621.67 -2782.4 2552.72
2621.93 -2780.63 2550.91
2622.17 -2781.15 2550.92
2622.51 -2781.56 2550.71
2622.75 -2782.05 2550.63
2622.46 -2782.89 2551.6
2623.28 -2783.56 2551.07
2623.7 -2784.28 2551.05
2624.65 -2784.81 2550.03
2620.75 -2781.96 2563.1
2621.44 -2782.55 2564.15
2621.77 -2782.76 2565.14
2622.46 -2783.5 2566.84
2637.4 -2795.94 2541.09
2638.17 -2796.48 2540.77
2638.9 -2797.01 2540.49
2639.55 -2797.59 2540.42
2639.83 -2797.94 2540.96
2640.71 -2798.68 2540.56
2644.39 -2802 2538.52
2641.66 -2799.62 2540.88
2632.82 -2792.12 2542.93
2633.18 -2792.64 2543.26
2634.86 -2794.19 2543.04
2633.75 -2793.35 2543.54
2635.82 -2794.88 2542.42
2624.89 -2785.35 2550.26
2625.45 -2785.81 2549.81
2632.17 -2791.77 2543.72
2627.61 -2787.46 2547.15
2628.89 -2788.51 2545.76
2626.78 -2786.93 2548.51
2630.23 -2789.89 2545.11
2631.15 -2790.93 2544.89
2625.86 -2786.23 2549.68
2628.48 -2788.46 2576.61
2627.52 -2787.49 2575.86
2626.45 -2786.45 2574.63
2630.26 -2789.77 2578.74
2631.14 -2790.83 2578.44
2629.25 -2789.11 2577.49
2624.7 -2785.37 2571.74
2624.21 -2785.22 2570.41
2623.85 -2785.04 2569.61
2623.13 -2784.45 2568.16
2622.71 -2783.93 2567.26
2620.62 -2781.94 2559.97
2620.61 -2781.91 2560.67
2620.9 -2782.17 2562.66
2621.87 -2783.07 2552.97
2621.53 -2783.69 2556.11
2621.58 -2783.81 2555.16
2621.75 -2783.96 2554.71
2622.08 -2782.11 2551.77
2621.97 -2782.66 2552.36
2622.82 -2783.83 2552
2623.97 -2784.71 2551.04
2623.15 -2784.48 2552.1
2624.09 -2785.16 2551.32
2621.11 -2782.34 2563.25
2636.81 -2795.72 2542.15
2638.03 -2796.6 2541.59
2639.11 -2797.37 2541.23
2640.11 -2798.28 2541.53
2639.37 -2797.7 2541.81
2640.89 -2798.97 2541.47
2644.18 -2801.92 2539.57
2645.68 -2803.13 2538.67
2641.67 -2799.69 2541.91
2632.49 -2792.21 2543.98
2634.27 -2793.89 2543.84
2633.05 -2792.77 2544.05
2635.15 -2794.5 2543.38
2625.18 -2785.9 2550.57
2631.83 -2791.69 2544.6
2628.15 -2787.95 2546.79
2630.47 -2790.27 2545.48
2626.23 -2786.68 2549.66
2625.57 -2786.19 2550.27
2628.03 -2788.17 2575.53
2627.29 -2787.37 2575.11
2625.5 -2785.85 2573.22
2631.86 -2791.56 2578.58
2630.48 -2790.36 2577.68
2631.47 -2791.61 2577.14
2632.16 -2792.21 2577.63
2629.29 -2789.28 2577
2623.46 -2784.86 2568.57
2622.85 -2784.33 2566.97
2622.26 -2783.52 2565.62
2620.9 -2782.24 2561.54
2621.05 -2782.39 2562.21
2622.03 -2783.7 2553.42
2622.03 -2784.03 2553.86
2621.41 -2783.4 2557.5
2621.82 -2784.25 2555.22
2621.09 -2782.72 2558.67
2622.25 -2783.06 2552.17
2622.67 -2784.04 2552.44
2623.52 -2785.09 2552.19
2621.78 -2783.07 2564.24
2621.46 -2782.83 2563.16
2636.2 -2795.34 2542.86
2638.25 -2796.89 2542.09
2639.53 -2797.91 2542.34
2640.33 -2798.55 2542.24
2638.32 -2797.04 2542.6
2641.17 -2799.26 2542.39
2633.91 -2793.7 2544.42
2632.64 -2792.52 2544.55
2632.11 -2792.07 2544.86
2634.77 -2794.35 2544.14
2624.32 -2785.84 2551.91
2627.73 -2787.71 2547.69
2628.62 -2788.41 2546.68
2629.38 -2789.13 2546.09
2626.61 -2787 2549.33
2631.46 -2791.5 2545.5
2625.9 -2786.57 2550.29
2624.89 -2786.22 2551.65
2624.13 -2785.98 2552.53
2628.8 -2788.97 2575.99
2627.62 -2787.85 2574.62
2626.95 -2787.18 2574.09
2626.39 -2786.64 2573.62
2624.71 -2785.65 2571.07
2624.18 -2785.46 2569.72
2632.99 -2792.72 2578.68
2634.04 -2793.55 2579.38
2630.31 -2790.39 2576.9
2631.51 -2791.91 2576.34
2632.75 -2792.95 2577.28
2633.56 -2793.56 2577.95
2623.39 -2784.94 2568.05
2623.13 -2784.69 2567.36
2622.41 -2783.91 2564.99
2621.03 -2782.54 2559.45
2621.04 -2782.44 2560.25
2622.18 -2783.5 2552.75
2622.02 -2784.31 2554.47
2621.62 -2783.85 2557.05
2621.71 -2784.11 2556.39
2621.41 -2783.32 2558.18
2622.66 -2784.38 2552.84
2636.6 -2795.8 2543.42
2635.17 -2794.67 2544.13
2639.36 -2797.86 2543.12
2640.53 -2798.78 2542.94
2633.22 -2793.1 2544.69
2633.7 -2793.57 2544.93
2634.16 -2793.98 2545.05
2623.73 -2785.71 2552.79
2623.35 -2785.24 2552.7
2628.16 -2788.1 2547.49
2627.48 -2787.63 2548.37
2626.99 -2787.31 2549.04
2630.65 -2790.61 2546.15
2625.6 -2786.58 2551.02
2628.34 -2788.6 2574.97
2627.49 -2787.81 2573.91
2626.89 -2787.21 2573.45
2629.83 -2790.03 2576.28
2626.29 -2786.68 2573.1
2625.4 -2786.07 2572.27
2623.82 -2785.33 2568.71
2634.24 -2794.23 2578.01
2634.9 -2794.12 2579.97
2634.88 -2794.92 2577.84
2631.34 -2791.83 2575.81
2633.06 -2793.39 2576.89
2632.88 -2793.34 2576.36
2634.25 -2794.65 2576.82
2634.63 -2795.01 2576.92
2622.86 -2784.48 2566.02
2622.31 -2783.9 2564.27
2621.84 -2783.36 2563.45
2621.36 -2783.12 2559.02
2621.17 -2782.56 2560.87
2621.37 -2783 2559.91
2621.38 -2782.85 2561.79
2622.3 -2784.25 2553.42
2622.34 -2784.65 2553.97
2621.65 -2783.79 2557.78
2622.09 -2784.68 2555.21
2621.98 -2784.6 2555.81
2637.3 -2796.39 2543.84
2639.5 -2798.01 2543.78
2638.08 -2796.96 2543.78
2640.84 -2799.02 2543.8
2635.66 -2795.14 2544.57
2632.93 -2792.92 2545.12
2632.41 -2792.47 2545.26
2631.99 -2792.1 2545.55
2633.35 -2793.32 2545.37
2631.55 -2791.68 2546.1
2633.64 -2793.62 2545.73
2627.88 -2787.99 2548.23
2627.42 -2787.67 2548.93
2629.1 -2789.01 2547.2
2629.66 -2789.56 2547.02
2626.71 -2787.26 2550.02
2626.39 -2787.03 2550.42
2626.07 -2787.02 2551.12
2625.1 -2786.56 2552.03
2624.69 -2786.35 2552.34
2623.93 -2786.08 2553.21
2623.41 -2785.64 2553.32
2628.09 -2788.38 2574.24
2629.25 -2789.53 2575.58
2625.33 -2786.16 2571.72
2624.64 -2785.85 2570.16
2624.13 -2785.62 2569.08
2623.73 -2785.36 2568.13
2635.24 -2795.62 2576.91
2635.84 -2794.99 2580.02
2635.46 -2795.23 2578.44
2635.94 -2796.02 2577.57
2634.34 -2794.93 2576.1
2634.33 -2795.01 2575.58
2635.2 -2795.86 2575.74
2623.34 -2785.08 2566.78
2622.82 -2784.49 2565.32
2622.23 -2783.88 2563.37
2621.88 -2783.49 2562.54
2621.68 -2783.72 2558.53
2621.45 -2783 2560.75
2621.75 -2783.69 2559.52
2622.56 -2784.68 2553.41
2622.23 -2784.78 2554.65
2621.9 -2784.38 2556.87
2622.89 -2784.95 2553.14
2621.82 -2783.62 2560.74
2634.62 -2794.4 2545.54
2636.02 -2795.44 2544.86
2639.51 -2798.03 2544.73
2638.17 -2797.04 2544.37
2636.62 -2795.9 2545.03
2640.86 -2799.02 2545.13
2632.95 -2793.04 2545.81
2633.17 -2793.26 2546.36
2628.81 -2788.74 2547.65
2628.27 -2788.31 2548.17
2627.82 -2788.01 2548.85
2627.43 -2787.74 2549.5
2629.32 -2789.28 2547.68
2629.85 -2789.8 2547.54
2630.68 -2790.71 2546.92
2628.6 -2788.9 2574.41
2627.95 -2788.24 2573.72
2629.99 -2790.34 2575.44
2626.97 -2787.43 2572.63
2627.43 -2787.8 2573
2626.31 -2786.91 2572.29
2631.1 -2791.59 2575.09
2632.56 -2793.14 2575.45
2623.66 -2785.4 2567.17
2635.98 -2796.46 2576.53
2636.76 -2795.66 2580.42
2636.34 -2796.02 2578.47
2636.48 -2796.74 2576.89
2636.83 -2796.82 2577.43
2635.22 -2796.03 2575.04
2635.3 -2796.22 2574.44
2635.86 -2796.65 2575.17
2636.19 -2796.85 2575.67
2623.33 -2785.13 2566.08
2622.71 -2784.41 2564.49
2622.35 -2784.1 2562.48
2622.04 -2783.8 2561.58
2621.89 -2784.15 2558.05
2622 -2784.15 2558.91
2622.09 -2784.81 2556.66
2622.24 -2785.02 2556.07
2622.39 -2785.14 2555.6
2622.14 -2784.18 2559.78
2634.09 -2794.03 2546.38
2635.22 -2794.88 2545.97
2638.01 -2796.93 2545.12
2639.25 -2797.82 2545.85
2636.71 -2795.96 2545.53
2640.6 -2798.77 2547.04
2632.6 -2792.73 2546.41
2632.21 -2792.33 2546.39
2631.58 -2791.77 2546.74
2632.78 -2792.92 2546.99
2629.04 -2788.99 2548.12
2627.46 -2787.83 2550.02
2629.54 -2789.52 2548.2
2627.05 -2787.63 2550.5
2630.1 -2790.04 2548.02
2626.44 -2787.34 2551.33
2626.92 -2787.62 2551.03
2625.56 -2787.07 2552.54
2624.49 -2786.59 2553.3
2623.6 -2786.03 2553.9
2629.27 -2789.6 2574.81
2628.38 -2788.67 2573.72
2625.47 -2786.4 2571.11
2624.62 -2786 2569.47
2632.84 -2793.43 2575.15
2631.56 -2792.11 2574.76
2630.15 -2790.55 2574.85
2634.08 -2794.8 2574.93
2624.12 -2785.77 2568.46
2623.66 -2785.48 2566.59
2636.65 -2797.2 2575.89
2637.76 -2796.85 2579.46
2636.97 -2796.56 2578.47
2637.07 -2797.47 2576.08
2637.59 -2797.49 2577.28
2635.7 -2796.67 2574.09
2636.09 -2796.94 2574.72
2636.32 -2797.24 2574.28
2636.59 -2797.36 2574.95
2623.28 -2785.11 2564.7
2622.65 -2784.44 2563.05
2623.55 -2785.4 2565.64
2622.3 -2784.26 2560.61
2622.07 -2784.52 2557.65
2622.18 -2784.59 2558.2
2623.02 -2785.46 2553.72
2622.66 -2785.13 2554.04
2622.46 -2785.18 2555.04
2622.35 -2784.61 2559.13
2633.57 -2793.61 2547
2633.09 -2793.21 2547.29
2635.44 -2795.06 2546.43
2634.64 -2794.42 2547.33
2637.55 -2796.52 2546.21
2636.42 -2795.73 2546.41
2638.82 -2797.44 2546.84
2639.52 -2797.75 2548.65
2634.06 -2793.98 2547.57
2632.36 -2792.47 2547.01
2631.88 -2792.03 2547.45
2630.97 -2791.05 2547.74
2632.55 -2792.65 2547.63
2628.84 -2788.83 2548.56
2628.5 -2788.55 2548.93
2628.11 -2788.29 2549.44
2627.47 -2787.93 2550.56
2629.67 -2789.61 2548.9
2630.19 -2790.07 2548.71
2630.95 -2790.99 2548.25
2626.85 -2787.69 2551.62
2624.23 -2786.54 2553.76
2629.08 -2789.41 2574.16
2628.12 -2788.41 2573.04
2626.43 -2787.08 2571.67
2626.9 -2787.44 2571.8
2630.78 -2791.25 2574.56
2634.28 -2795.05 2574.38
2629.79 -2790.19 2574.22
2635.34 -2796.26 2573.78
2637.31 -2797.92 2575.14
2638.97 -2797.93 2579.18
2638.08 -2797.66 2577.95
2637.95 -2798.23 2575.92
2636.04 -2797.02 2573.79
2636.59 -2797.56 2573.8
2637.19 -2798.13 2573.49
2637.2 -2798.07 2574.16
2637.58 -2798.4 2574.18
2623.48 -2785.36 2564.19
2623.23 -2785.2 2562.28
2622.71 -2784.8 2560.52
2622.68 -2785.37 2554.58
2622.4 -2785.13 2556.9
2622.36 -2784.99 2557.41
2622.64 -2785.46 2556.3
2633.34 -2793.38 2547.86
2632.9 -2792.99 2547.89
2635.05 -2794.7 2547.67
2634.06 -2793.9 2548.79
2635.85 -2795.23 2547.73
2636.77 -2795.74 2548.33
2637.74 -2796.4 2548.27
2638.55 -2796.99 2548.62
2638.62 -2796.91 2549.89
2633.61 -2793.57 2548.59
2655 -2811.6 2541.57
2655.47 -2812.06 2540.49
2656.04 -2812.61 2539.46
2656.63 -2813.18 2538.71
2656.8 -2813.23 2537.81
2631.24 -2791.3 2548.61
2632.61 -2792.68 2548.56
2632.17 -2792.25 2548.5
2628.96 -2788.97 2549.14
2629.37 -2789.36 2549.32
2628.12 -2788.35 2550.21
2630.44 -2790.23 2549.91
2629.94 -2789.8 2549.77
2630.65 -2790.53 2549.35
2624.83 -2786.94 2553.69
2627.45 -2788.02 2551.28
2626.09 -2787.5 2552.85
2623.3 -2785.89 2554.34
2640.8 -2799.56 2578.5
2639.63 -2798.66 2578.57
2628.99 -2789.3 2573.63
2628.53 -2788.79 2572.98
2627.57 -2787.94 2572.22
2625.8 -2786.72 2570.8
2624.44 -2786.08 2568
2624.18 -2785.94 2567.38
2631.8 -2792.33 2574.33
2630.45 -2790.88 2574.14
2633.38 -2794 2574.39
2634.54 -2795.33 2573.87
2635.73 -2796.71 2573.43
2629.6 -2789.95 2573.77
2638.35 -2798.36 2576.54
2638.2 -2798.8 2574.71
2638.55 -2799.02 2575.01
2637.43 -2798.39 2572.96
2637.64 -2798.54 2573.41
2638.14 -2799.1 2572.46
2638.01 -2798.87 2573.51
2638.65 -2799.38 2573.51
2623.07 -2785.29 2560.26
2622.67 -2785.05 2559
2622.52 -2785.08 2557.91
2622.82 -2785.63 2555.25
2633.04 -2793.06 2548.88
2633.4 -2793.32 2549.73
2634.5 -2794.15 2549.42
2635.02 -2794.5 2549.58
2634.17 -2793.9 2550.8
2633.72 -2793.57 2550.68
2635.98 -2795.14 2549.71
2637.61 -2796.15 2550.04
2655.99 -2812.7 2541.41
2656.55 -2813.28 2540.71
2657.34 -2814.12 2540.04
2657.69 -2814.44 2539.16
2657.63 -2814.21 2538.06
2631.57 -2791.58 2549.45
2632.49 -2792.46 2549.97
2632.91 -2792.8 2550.73
2632.15 -2792.1 2550.48
2629.55 -2789.49 2550.11
2629.08 -2789.08 2549.85
2628.58 -2788.67 2549.93
2627.97 -2788.33 2551.01
2631.58 -2791.4 2551.23
2631.65 -2791.42 2552.18
2630.89 -2790.63 2551.5
2630.47 -2790.24 2551.2
2627.22 -2788.02 2552.12
2625.34 -2787.33 2553.96
2623.85 -2786.39 2554.43
2641.93 -2800.7 2577.24
2640.36 -2799.74 2576.87
2639.3 -2798.96 2577.01
2626.29 -2787.09 2570.72
2626.77 -2787.44 2570.91
2625.58 -2786.69 2569.81
2624.91 -2786.33 2568.78
2627.18 -2787.69 2571.09
2624.29 -2786.09 2566.64
2624.08 -2785.96 2565.85
2630.79 -2791.19 2573.89
2630.05 -2790.39 2573.66
2636.45 -2797.51 2572.95
2629.42 -2789.69 2573.35
2623.99 -2785.9 2564.3
2623.76 -2785.74 2562.29
2638.99 -2799.21 2575.51
2639.32 -2799.73 2574.28
2639.89 -2799.94 2575.02
2638.72 -2799.57 2572.69
2639 -2799.86 2572.05
2639.22 -2800.06 2571.52
2639.81 -2800.28 2573.16
2639.94 -2800.46 2572.68
2623.07 -2785.49 2559.15
2622.78 -2785.49 2557.22
2622.99 -2785.81 2556.5
2633.23 -2793.09 2551.06
2633.46 -2793.3 2551.81
2634.63 -2794.22 2550.88
2635.22 -2794.63 2550.86
2634.42 -2794.07 2551.87
2633.97 -2793.74 2551.81
2636.47 -2795.39 2550.63
2637.72 -2796.2 2550.78
2656.25 -2812.99 2543.13
2656.66 -2813.49 2542.32
2657.49 -2814.38 2541.67
2657.9 -2814.8 2540.8
2658.66 -2815.58 2539.69
2658.6 -2815.34 2538.33
2658.9 -2815.74 2538.92
2658.57 -2815.13 2537.45
2632.54 -2792.39 2551.85
2632.96 -2792.81 2552.2
2629.7 -2789.6 2551
2630.53 -2790.3 2551.9
2628.77 -2788.83 2550.5
2629.88 -2789.76 2551.82
2631.91 -2791.72 2553.18
2632.59 -2792.45 2552.88
2631.1 -2790.87 2552.63
2624.95 -2787.15 2554.3
2624.32 -2786.78 2554.48
2627.9 -2788.37 2551.84
2626.48 -2787.83 2553.21
2623.35 -2786.05 2554.84
2641.12 -2800.56 2575.8
2642.53 -2801.67 2575.18
2644.26 -2802.92 2575.05
2629.07 -2789.28 2572.8
2628.42 -2788.61 2572.18
2628.85 -2788.99 2572.23
2627.97 -2788.22 2571.78
2626.94 -2787.57 2570.45
2626.4 -2787.22 2570.21
2625.52 -2786.74 2569.07
2624.82 -2786.4 2567.79
2624.52 -2786.33 2566.08
2624.35 -2786.21 2565.39
2631.85 -2792.31 2573.65
2633.53 -2794.12 2573.71
2634.96 -2795.73 2572.93
2635.9 -2796.9 2572.83
2636.98 -2797.97 2572.36
2637.39 -2798.36 2572.15
2637.79 -2798.74 2571.93
2638.5 -2799.44 2571.63
2623.47 -2785.73 2560.12
2640.17 -2800.46 2573.53
2640.6 -2800.67 2573.97
2641.21 -2801.04 2574.23
2639.48 -2800.28 2570.89
2639.96 -2800.56 2572.13
2640.08 -2800.75 2571.49
2640.36 -2801.03 2570.72
2640.55 -2801.24 2570.03
2641.05 -2801.38 2572.15
2641.05 -2801.51 2571.46
2622.92 -2785.43 2558.54
2623.06 -2785.69 2558
2623.21 -2785.99 2555.46
2633.77 -2793.57 2552.76
2633.33 -2793.2 2552.82
2634.89 -2794.4 2551.68
2636.26 -2795.26 2551.44
2634.64 -2794.24 2552.62
2634.19 -2793.91 2552.75
2637.76 -2796.24 2551.61
2637.76 -2796.32 2552.73
2657.15 -2813.93 2544.13
2657.63 -2814.54 2543.04
2658.28 -2815.31 2542.14
2659.01 -2816.07 2541.08
2659.04 -2816.06 2540.3
2659.6 -2816.63 2539.32
2659.65 -2816.75 2540.01
2659.55 -2816.46 2538.59
2659.24 -2815.93 2537.79
2659.4 -2815.92 2536.97
2659.76 -2815.91 2535.58
2632.97 -2792.88 2553.12
2630.59 -2790.37 2552.64
2631 -2790.8 2553.16
2629.31 -2789.31 2552.04
2630.45 -2790.29 2553.16
2630.08 -2789.96 2553.04
2628.73 -2788.91 2552.14
2631.94 -2791.81 2553.93
2632.71 -2792.64 2553.84
2631.65 -2791.58 2554.33
2624.45 -2786.95 2554.99
2628.59 -2788.89 2552.71
2626.88 -2788.09 2553.43
2625.98 -2787.76 2554.43
2628.18 -2788.73 2553.12
2625.44 -2787.51 2554.81
2623.75 -2786.44 2555.18
2645.51 -2803.94 2574.6
2643 -2802.45 2573.5
2644.55 -2803.55 2573.29
2628.87 -2788.93 2571.66
2628.39 -2788.51 2571.2
2627.84 -2788.1 2571.3
2627.71 -2788 2570.78
2626.61 -2787.4 2569.74
2627.18 -2787.72 2569.99
2625.04 -2786.62 2567.22
2627.68 -2787.99 2570.23
2624.78 -2786.59 2564.28
2624.56 -2786.42 2563.5
2624.25 -2786.23 2562.05
2632.43 -2792.92 2573.37
2631.27 -2791.6 2573.25
2630.39 -2790.64 2573.24
2629.86 -2790.02 2572.82
2633.88 -2794.46 2573.34
2635.24 -2795.99 2572.5
2636.4 -2797.4 2572.43
2637.82 -2798.7 2571.22
2638.17 -2799.08 2571.09
2638.54 -2799.47 2571
2639.01 -2799.89 2570.78
2629.52 -2789.6 2572.35
2639.91 -2800.65 2569.96
2623.42 -2785.92 2558.88
2641.42 -2801.58 2572.57
2642 -2801.94 2572.85
2640.79 -2801.47 2569.33
2641.09 -2801.63 2570.84
2641.28 -2801.84 2570.17
2641.47 -2802.03 2569.43
2641.6 -2802.15 2568.75
2642.04 -2802.27 2571.52
2642.05 -2802.4 2570.88
2623.16 -2785.87 2557.48
2623.3 -2786.13 2556.22
2633.56 -2793.46 2553.85
2633.94 -2793.83 2554.25
2633.09 -2793.08 2554.14
2635.32 -2794.68 2552.2
2636.54 -2795.44 2552.18
2634.45 -2794.24 2554.11
2635.03 -2794.72 2554.31
2635.22 -2794.66 2553.06
2639.1 -2797.55 2554.28
2638.38 -2796.88 2553.57
2636.9 -2795.83 2553.61
2636.27 -2795.32 2553.02
2658.37 -2814.9 2546.76
2658.35 -2815.16 2545
2658.57 -2815.57 2543.74
2659.02 -2816.13 2542.64
2659.53 -2816.7 2541.8
2659.84 -2817.03 2540.81
2660.1 -2817.39 2541.47
2660.33 -2817.59 2539.7
2660.18 -2817.3 2539.04
2660.44 -2817.75 2540.29
2659.91 -2816.77 2537.94
2660.35 -2817.39 2538.38
2660.15 -2816.62 2536.43
2660.33 -2817.04 2537.13
2630.75 -2790.63 2553.56
2631.25 -2791.23 2554.51
2629.8 -2789.81 2553.52
2630.52 -2790.66 2554.79
2630.24 -2790.22 2553.83
2629.39 -2789.5 2553.59
2628.89 -2789.45 2554.98
2632.38 -2792.48 2555.14
2631.54 -2791.8 2555.8
2625.1 -2787.36 2555.15
2628.4 -2789.15 2554.92
2627.28 -2788.41 2554.13
2625.63 -2787.68 2555.26
2645.91 -2804.47 2573.42
2647.13 -2805.36 2573.16
2643.24 -2802.93 2572.29
2644.41 -2803.76 2572.07
2629.41 -2789.4 2571.75
2629.01 -2788.95 2571.02
2629.54 -2789.33 2570.78
2629.97 -2789.63 2570.5
2629.15 -2788.96 2570.27
2628.19 -2788.3 2570.25
2626.88 -2787.59 2569.27
2626.05 -2787.17 2568.35
2627.63 -2787.99 2569.5
2625.32 -2786.88 2566.7
2625.19 -2786.9 2565.32
2625.14 -2786.91 2563.91
2624.83 -2786.78 2562
2624.46 -2786.52 2561.12
2624.01 -2786.23 2560.16
2633.03 -2793.52 2573.1
2632.02 -2792.3 2572.73
2630.92 -2791.15 2573.04
2630.25 -2790.39 2572.68
2629.91 -2789.95 2572.16
2634.24 -2794.83 2572.86
2635.54 -2796.27 2572.11
2639 -2799.68 2569.46
2639.56 -2800.22 2569.31
2640.21 -2800.87 2569.16
2629.8 -2789.7 2571.6
2640.97 -2801.58 2568.73
2623.46 -2786.12 2558.04
2642.73 -2802.77 2571.56
2641.65 -2802.15 2568.2
2641.92 -2802.43 2569.83
2642.07 -2802.6 2569
2642.34 -2802.8 2568.28
2642.77 -2803.01 2570.67
2642.81 -2803.11 2570.08
2642.58 -2803.02 2569.53
2623.48 -2786.24 2557.1
2623.62 -2786.4 2556.64
2632.98 -2793.17 2555.59
2633.66 -2793.76 2555.68
2634.56 -2794.53 2555.77
2632.04 -2792.39 2556.23
2635.44 -2795.2 2555.85
2636.32 -2795.8 2555.7
2635.9 -2795.33 2554.53
2638.74 -2797.56 2555.9
2638.12 -2796.93 2555.03
2639.79 -2798.46 2556.7
2637.25 -2796.18 2554.44
2641.14 -2799.56 2556.78
2659.59 -2816.28 2546.39
2659.57 -2816.56 2544.78
2659.55 -2816.64 2543.84
2659.81 -2817.01 2543
2660.01 -2817.26 2542.38
2660.49 -2817.88 2541.98
2660.62 -2818.02 2540.92
2661.07 -2818.62 2541.4
2661.56 -2819.19 2539.89
2660.98 -2818.31 2539.18
2661.08 -2818.35 2538.65
2661.38 -2818.98 2540.38
2661.04 -2818.02 2537.49
2661.32 -2818.56 2538.15
2661.44 -2817.63 2535.08
2661.21 -2817.92 2536.52
2663.06 -2818.87 2533.13
2663.83 -2819.69 2533.16
2629.73 -2790.1 2555.09
2629.34 -2789.8 2555.18
2630.13 -2790.48 2555.36
2630.85 -2791.22 2555.95
2630.4 -2790.94 2556.3
2628.66 -2789.63 2556.46
2628 -2789.16 2556.2
2631.03 -2791.57 2556.58
2624.61 -2787.1 2555.73
2623.96 -2786.65 2555.83
2627.18 -2788.52 2555.08
2626.86 -2788.43 2555.59
2646.29 -2805.01 2572.15
2648.1 -2806.13 2572.15
2647.2 -2805.76 2571.17
2649.05 -2806.97 2570.74
2645.08 -2804.41 2571.04
2643.77 -2803.53 2571.23
2629.81 -2789.42 2569.86
2630.57 -2789.95 2569.1
2631.19 -2790.5 2569.05
2629.94 -2789.43 2568.56
2629.28 -2788.98 2568.89
2627.34 -2787.87 2568.78
2626.39 -2787.42 2567.83
2625.72 -2787.2 2566.05
2628.41 -2788.48 2568.58
2625.71 -2787.33 2564.44
2625.59 -2787.35 2562.65
2625.07 -2787.09 2560.98
2624.46 -2786.7 2559.72
2623.98 -2786.4 2559.01
2633.42 -2793.88 2572.84
2632.63 -2792.9 2572.33
2631.57 -2791.62 2572.24
2630.77 -2790.87 2572.51
2630.33 -2790.29 2571.91
2630.51 -2790.2 2571.03
2634.65 -2795.21 2572.34
2636.06 -2796.83 2571.73
2636.99 -2797.87 2571.56
2638.28 -2799.02 2570.2
2639.12 -2799.61 2568.69
2639.97 -2800.43 2567.71
2639.73 -2800.06 2567.06
2640.29 -2800.8 2567.87
2640.59 -2801.14 2568.11
2630.7 -2790.19 2570.21
2641.64 -2802.1 2567.66
2642.26 -2802.63 2567.3
2642.59 -2803.07 2569
2642.87 -2803.27 2568.54
2643.08 -2803.38 2567.51
2643.04 -2803.28 2566.94
2643.56 -2803.57 2570.39
2643.38 -2803.55 2569.53
2643.99 -2803.94 2569.4
2643.45 -2803.67 2568.82
2632.86 -2793.13 2556.38
2631.71 -2792.24 2556.95
2634.08 -2794.16 2556.41
2635.54 -2795.36 2557.15
2635.9 -2795.6 2556.72
2636.72 -2796.18 2556.61
2636.93 -2796.22 2555.75
2637.26 -2796.61 2556.75
2638.44 -2797.54 2557.21
2637.66 -2796.89 2556.53
2639.69 -2798.67 2558.07
2638.84 -2797.96 2558.01
2641.04 -2799.71 2557.89
2661.08 -2817.76 2547.17
2660.47 -2817.47 2545.57
2660.54 -2817.77 2544.17
2660.64 -2818.01 2543.35
2660.69 -2818.14 2542.64
2661.42 -2819.09 2541.87
2661.84 -2819.66 2540.83
2662.27 -2820.27 2541.21
2662.47 -2820.53 2540.4
2662.06 -2819.86 2539.66
2662.76 -2820.88 2539.98
2662.01 -2819.31 2537.62
2662.17 -2819.75 2538.36
2662.38 -2820.2 2538.96
2661.82 -2818.41 2535.84
2662.49 -2818.75 2534.71
2662.33 -2819.57 2537.28
2663.49 -2819.55 2533.77
2664.45 -2820.38 2533.49
2665.21 -2820.91 2532.66
2629.28 -2790.07 2556.47
2629.81 -2790.47 2556.35
2630.48 -2791.16 2556.99
2629.99 -2790.72 2556.85
2628.73 -2789.79 2557.1
2627.86 -2789.18 2556.97
2630.98 -2791.63 2557.24
2625.23 -2787.52 2556.03
2626.78 -2788.47 2556.58
2625.9 -2787.92 2556.42
2648.05 -2806.46 2569.97
2646.23 -2805.35 2569.75
2650.08 -2807.92 2569.31
2649 -2807.21 2568.7
2651.86 -2809.4 2567.89
2650.61 -2808.59 2567.52
2644.37 -2804.09 2570.23
2630.65 -2789.95 2567.27
2627.96 -2788.27 2568.01
2626.84 -2787.73 2567.09
2626.34 -2787.62 2565.22
2626.25 -2787.73 2563.65
2629.49 -2789.23 2567.07
2629.92 -2789.47 2567.26
2626.09 -2787.79 2561.92
2625.31 -2787.38 2560.26
2624.56 -2786.9 2558.96
2624.1 -2786.62 2558.27
2633.82 -2794.27 2572.54
2633.09 -2793.3 2571.98
2632.15 -2792.13 2571.72
2631.46 -2791.28 2571.52
2630.95 -2790.78 2571.57
2631.28 -2790.81 2570.41
2631.58 -2790.86 2569.34
2635.13 -2795.64 2571.81
2637.78 -2798.5 2570.52
2638.73 -2799.2 2568.94
2639.37 -2799.61 2567.16
2640.57 -2800.85 2566.26
2640.1 -2800.27 2565.75
2639.57 -2799.61 2565.35
2640.97 -2801.35 2567.02
2641.44 -2801.86 2567.23
2642.14 -2802.44 2566.72
2623.87 -2786.49 2557.72
2643.09 -2803.21 2566.2
2643.84 -2803.95 2567.75
2644.27 -2804.2 2566.46
2644.22 -2804.12 2565.96
2644.15 -2804.01 2565.47
2645.01 -2804.64 2569.15
2644.37 -2804.29 2568.27
2645.45 -2805.04 2568.25
2644.79 -2804.65 2567.39
2624.1 -2786.76 2556.79
2666.77 -2822.47 2532.68
2631.67 -2792.19 2557.48
2635.11 -2795.01 2557.44
2633.33 -2793.55 2557.06
2636.39 -2796.06 2557.91
2636.86 -2796.36 2557.25
2637.47 -2796.87 2557.58
2638 -2797.28 2557.54
2639.11 -2798.39 2558.94
2639.89 -2799.12 2559.22
2638.53 -2797.79 2558.52
2641.21 -2800.09 2558.93
2642.55 -2800.98 2557.97
2662.9 -2819.62 2547.68
2662.22 -2819.16 2546.53
2661.75 -2818.91 2545.44
2661.49 -2818.83 2544.47
2663.7 -2820.26 2548.64
2661.64 -2819.18 2543.46
2661.77 -2819.45 2542.69
2661.76 -2819.5 2542.19
2664.29 -2820.78 2549.18
2662.69 -2820.79 2541.53
2662.9 -2821.13 2540.68
2663.16 -2821.45 2540.23
2662.97 -2821.13 2539.56
2663.43 -2821.79 2539.86
2662.9 -2820.7 2538.34
2663.15 -2821.12 2538.72
2662.6 -2819.69 2536.8
2662.68 -2819.37 2535.77
2663.27 -2819.54 2534.35
2663.2 -2819.78 2535.16
2663.17 -2820.92 2537.95
2664.03 -2820.24 2534.25
2665.06 -2821.09 2533.95
2665.84 -2821.65 2533.17
2629.46 -2790.3 2557
2629.18 -2790.18 2557.49
2628.15 -2789.46 2557.61
2631.03 -2791.68 2557.75
2625.16 -2787.5 2556.55
2624.74 -2787.22 2556.6
2627.39 -2788.95 2557.74
2625.94 -2787.99 2557.14
2647.01 -2806.01 2568.42
2649.57 -2807.84 2567.29
2648.3 -2806.92 2567.52
2652.41 -2810.1 2566.06
2651.03 -2809.09 2565.87
2650.05 -2808.34 2566.09
2630.85 -2790.15 2566.18
2629.11 -2789.06 2566.54
2627.78 -2788.33 2566.22
2627.06 -2788.12 2564.45
2627.03 -2788.35 2562.56
2626.61 -2788.22 2561.38
2630.48 -2789.96 2565.7
2625.85 -2787.81 2560.08
2633.52 -2793.71 2571.76
2632.71 -2792.66 2571.3
2632.13 -2791.84 2570.86
2631.7 -2791.22 2570.4
2636.15 -2796.64 2571.05
2637.53 -2798.05 2570.29
2638.07 -2798.51 2569.6
2638.69 -2798.95 2568.35
2639.07 -2799.21 2567.23
2639.24 -2799.24 2565.73
2640.89 -2801.01 2565.12
2640.16 -2800.19 2564.24
2639.62 -2799.64 2564.02
2639.14 -2799.03 2564.13
2639.23 -2799.1 2563.39
2641.47 -2801.71 2566.05
2641.95 -2802.2 2566.19
2642.93 -2802.96 2565.57
2644.25 -2804 2564.63
2645.64 -2805.3 2566.5
2646.12 -2805.63 2565.42
2645.54 -2805.17 2565.21
2645.72 -2805.25 2564.36
2645.27 -2804.82 2564.05
2646.03 -2805.51 2567.29
2647.15 -2806.23 2567.27
2646.74 -2806.05 2566.16
2624.34 -2786.9 2557.28
2667.43 -2823.35 2533.79
2668.26 -2824.18 2533.57
2669.37 -2825.27 2533.05
2631.87 -2792.34 2557.94
2633.01 -2793.27 2557.55
2636.95 -2796.48 2558.26
2638.03 -2797.33 2558.1
2638.74 -2798.17 2559.4
2639.62 -2799.07 2560
2640.54 -2799.98 2560.45
2641.64 -2800.8 2560.03
2642.74 -2801.59 2559.52
2643.91 -2802.14 2557.34
2645.19 -2803.5 2557.86
2646.35 -2804.51 2557.68
2663.61 -2820.42 2547.36
2664.39 -2821.04 2547.94
2663.09 -2820.25 2545.93
2662.81 -2820.35 2544.37
2662.5 -2820.12 2543.82
2662.57 -2820.36 2543.09
2664.99 -2821.58 2548.42
2662.78 -2820.8 2542.39
2662.96 -2821.12 2541.81
2664.76 -2821.28 2549.98
2665.13 -2821.68 2549.52
2664.42 -2820.95 2550.52
2665.49 -2822.08 2548.96
2663.43 -2821.79 2541.04
2663.56 -2821.96 2540.4
2663.91 -2822.35 2539.79
2663.53 -2821.74 2539.15
2663.58 -2821.57 2538.43
2663.33 -2820.88 2537.43
2663.31 -2820.51 2536.61
2663.86 -2820.35 2534.89
2663.64 -2820.73 2536.25
2664.75 -2821.05 2534.69
2666.27 -2822.34 2534.31
2647.97 -2805.69 2557.03
2629.72 -2790.6 2557.75
2630.31 -2791.09 2557.87
2628.77 -2789.95 2558.04
2625.12 -2787.49 2557.14
2627.41 -2789.01 2558.4
2626.02 -2788.03 2557.99
2648.7 -2807.32 2566.39
2655.26 -2812.45 2565.11
2653.87 -2811.47 2564.84
2652.14 -2810.14 2564.53
2651.04 -2809.25 2564.57
2650.26 -2808.58 2565.22
2649.13 -2807.72 2565.52
2629.7 -2789.54 2565.45
2628.22 -2788.83 2564.47
2628.04 -2789.12 2562.03
2628.25 -2789.11 2562.83
2628.46 -2789.57 2561.01
2627.28 -2788.8 2560.84
2626.48 -2788.3 2559.91
2631.3 -2790.62 2564.5
2630.7 -2790.24 2564.65
2625.31 -2787.53 2558.83
2624.7 -2787.12 2557.9
2634.48 -2794.8 2571.71
2633.86 -2793.98 2571.43
2633.32 -2793.12 2570.63
2632.95 -2792.59 2570.28
2632.66 -2792.1 2569.8
2635.7 -2795.94 2570.83
2637.16 -2797.56 2570.25
2637.87 -2798.07 2569.23
2638.29 -2798.41 2568.45
2638.66 -2798.65 2567.41
2638.9 -2798.81 2566.33
2638.83 -2798.66 2565.37
2638.93 -2798.78 2564.53
2641.52 -2801.57 2564.56
2640.13 -2800.03 2562.92
2640.7 -2800.56 2563.01
2639.5 -2799.34 2562.45
2639.07 -2798.82 2562.34
2638.68 -2798.41 2563.59
2638.72 -2798.43 2562.77
2642.36 -2802.39 2565.07
2643.66 -2803.44 2564.19
2645.79 -2805.14 2563
2645.01 -2804.44 2563.02
2647.29 -2806.44 2564.98
2646.99 -2806.2 2563.94
2647.79 -2806.81 2563.99
2647.5 -2806.55 2563.08
2646.8 -2805.98 2562.9
2647.76 -2806.74 2566.12
2648.36 -2807.2 2565.04
2668.27 -2824.45 2534.68
2668.93 -2825.07 2534.4
2669.72 -2825.8 2533.95
2670.37 -2826.36 2533.26
2670.56 -2826.21 2531.29
2671.2 -2826.64 2530.24
2634.23 -2794.25 2558.02
2635.6 -2795.36 2558.54
2636.29 -2795.92 2558.86
2632.67 -2792.98 2558.18
2637.2 -2796.71 2558.8
2636.68 -2796.25 2559.05
2637.93 -2797.37 2559.06
2639.16 -2798.7 2560.15
2640.19 -2799.85 2561.38
2640.95 -2800.54 2561.44
2642.24 -2801.58 2561.19
2643.82 -2802.97 2560.79
2643.96 -2802.63 2558.99
2645 -2803.85 2559.79
2646.03 -2804.71 2559.29
2647.83 -2806.05 2558.65
2664.07 -2820.68 2551.74
2664.88 -2821.53 2551.12
2664.03 -2821.05 2546.59
2664.8 -2821.62 2547.26
2665.75 -2822.47 2547.87
2663.92 -2821.51 2544.73
2663.52 -2821.23 2544.17
2663.32 -2821.38 2542.77
2663.76 -2821.86 2542.87
2663.36 -2821.54 2542.22
2666.13 -2822.76 2548.48
2663.5 -2821.78 2541.75
2665.49 -2822.1 2550.32
2665.86 -2822.46 2549.7
2666.2 -2822.81 2549.28
2666.46 -2823.05 2548.89
2664.15 -2822.69 2540.38
2663.89 -2822.32 2541.04
2664.52 -2823.07 2540.12
2664.3 -2822.76 2539.62
2664.07 -2822.37 2538.87
2663.99 -2821.86 2537.95
2664.13 -2820.81 2535.37
2664.21 -2821.62 2536.92
2664.76 -2821.4 2535.45
2665.84 -2822.14 2534.87
2667.42 -2823.8 2535.34
2667.95 -2824.25 2535.08
2648.9 -2806.57 2557.17
2649.61 -2806.97 2556.24
2628.71 -2789.93 2558.58
2630.83 -2791.51 2558.55
2627.69 -2789.22 2559.15
2626.17 -2788.14 2558.86
2655.28 -2812.73 2563
2653.7 -2811.51 2563.66
2652.26 -2810.39 2563.39
2650.57 -2808.92 2564.1
2649.5 -2808.07 2564.67
2629.57 -2789.73 2563.8
2629.59 -2790.16 2561.64
2629.68 -2790.38 2560.72
2628.63 -2789.79 2560.19
2629.86 -2790.61 2559.94
2627.59 -2789.12 2559.86
2631.36 -2790.78 2563.7
2632.13 -2791.18 2564
2630.38 -2790.33 2563.14
2634.71 -2794.86 2571.14
2634.14 -2793.89 2570.38
2634.21 -2793.43 2569.25
2636.72 -2796.9 2570.02
2637.6 -2797.61 2569.09
2637.89 -2797.79 2568.36
2638.14 -2797.93 2567.56
2638.42 -2798.14 2566.76
2638.45 -2798.12 2566.06
2638.4 -2798.03 2565.34
2638.51 -2798.2 2564.41
2642.9 -2802.66 2563.65
2641.5 -2801.29 2562.95
2639.62 -2799.32 2561.27
2639.17 -2798.87 2561.27
2638.78 -2798.43 2561.47
2638.51 -2798.14 2561.88
2638.27 -2797.86 2563.53
2638.29 -2797.89 2562.8
2644.45 -2803.89 2562.49
2646.77 -2805.8 2561.75
2647.55 -2806.51 2562.08
2645.77 -2804.97 2561.82
2648.62 -2807.43 2564.13
2648.37 -2807.24 2563.1
2649.01 -2807.72 2563.39
2648.3 -2807.13 2562.2
2648.82 -2807.55 2562.32
2669.17 -2825.59 2535.63
2669.46 -2825.79 2535.26
2669.84 -2826.11 2534.88
2670.37 -2826.63 2534.69
2670.91 -2827.02 2533.85
2671.08 -2826.93 2532.27
2671.72 -2827.33 2531.22
2672.29 -2827.65 2530.16
2631.54 -2792.02 2558.84
2633.65 -2793.75 2558.39
2635.03 -2794.82 2558.8
2635.68 -2795.37 2559.04
2636.1 -2795.71 2559.35
2632.48 -2792.81 2558.7
2637.51 -2797 2559.56
2638.27 -2797.78 2559.9
2642.7 -2802.24 2562.28
2644.35 -2803.66 2561.59
2645.47 -2804.5 2560.53
2646.98 -2805.57 2559.6
2648.41 -2806.72 2559.31
2649.18 -2807.16 2558.32
2663.37 -2820.06 2552.86
2664.39 -2821.28 2552.82
2665.16 -2822.04 2552.19
2665.75 -2822.48 2550.96
2664.97 -2821.98 2546.54
2664.56 -2821.99 2545.22
2665.97 -2822.76 2547.34
2667.04 -2823.67 2547.99
2666.88 -2823.59 2547.48
2664.88 -2822.97 2543.23
2664.33 -2822.48 2542.94
2663.92 -2822.17 2542.37
2664.5 -2822.78 2542.49
2667.37 -2823.93 2548.51
2664.12 -2822.51 2541.75
2666.26 -2822.91 2550.2
2666.87 -2823.44 2549.57
2667.42 -2823.93 2549.05
2664.7 -2823.21 2541.43
2664.44 -2823 2541.02
2664.79 -2823.29 2539.66
2664.99 -2823.66 2540.4
2664.53 -2822.85 2538.92
2664.57 -2822.66 2538.33
2665.51 -2822.15 2535.57
2664.9 -2822.21 2536.8
2666.79 -2823.3 2535.56
2667.93 -2824.67 2536.27
2668.71 -2825.23 2535.99
2652.15 -2809.36 2555.72
2650.16 -2807.89 2557.5
2651.45 -2809.15 2557.22
2658.49 -2815.29 2554.07
2629.37 -2790.36 2558.79
2630.08 -2790.89 2558.86
2629.05 -2790.14 2559.32
2657.05 -2814.18 2562.3
2656.05 -2813.49 2561.63
2654.65 -2812.34 2562.44
2652.01 -2810.23 2562.76
2653.9 -2811.79 2562.21
2650.68 -2809.07 2563.26
2649.72 -2808.26 2563.91
2630.66 -2790.8 2561.87
2630.5 -2790.93 2560.72
2630.62 -2791.15 2559.93
2629.87 -2790.69 2559.4
2630.68 -2791.28 2559.36
2631.81 -2791.27 2562.88
2632.44 -2791.67 2563.02
2635.4 -2794.98 2569.61
2634.74 -2794.45 2570.09
2634.81 -2793.88 2568.78
2636.37 -2795.91 2569.04
2635.92 -2795.36 2569.1
2636.79 -2796.42 2568.84
2637.11 -2796.69 2568.34
2637.32 -2796.83 2567.84
2637.33 -2796.7 2567.35
2637.51 -2796.78 2566.4
2638.1 -2797.56 2564.85
2638.03 -2797.47 2564.1
2638.59 -2798.18 2560.71
2638.32 -2797.9 2561.04
2637.91 -2797.39 2562.72
2637.74 -2797.11 2563.41
2637.84 -2797.34 2562.05
2637.71 -2797.23 2561.37
2645.66 -2804.8 2561.23
2647.47 -2806.25 2560.84
2648.37 -2807.05 2561.22
2648.84 -2807.46 2561.29
2649.43 -2808.03 2562.64
2650.07 -2808.56 2563.07
2649.33 -2807.9 2561.48
2650.01 -2808.54 2561.9
2669.49 -2826.13 2536.33
2669.86 -2826.42 2536.08
2670.22 -2826.67 2535.63
2670.82 -2827.14 2535.15
2671.42 -2827.39 2533.11
2671.32 -2827.53 2534.84
2672.06 -2827.77 2531.94
2672.75 -2828.08 2530.55
2633.35 -2793.42 2558.97
2634.59 -2794.42 2559
2635.6 -2795.2 2559.57
2636.14 -2795.65 2559.87
2636.73 -2796.24 2559.82
2632.37 -2792.58 2559.36
2637.78 -2797.28 2560.44
2637.1 -2796.62 2560.03
2647.12 -2805.84 2560.23
2648.53 -2806.96 2559.99
2649.4 -2807.52 2558.91
2650.33 -2808.32 2558.26
2659.21 -2816.07 2554.32
2663.34 -2820.31 2554.24
2662.58 -2819.5 2554.39
2661.84 -2818.76 2554.71
2664.42 -2821.49 2553.97
2665.51 -2822.48 2552.63
2666.21 -2823.06 2551.57
2665.9 -2822.9 2546.43
2665.41 -2823.01 2544.68
2666.76 -2823.71 2546.53
2668.18 -2824.82 2548.27
2667.98 -2824.68 2547.69
2667.52 -2824.41 2546.74
2665.74 -2823.85 2543.11
2665.1 -2823.37 2542.64
2668.35 -2824.93 2548.85
2665 -2823.46 2541.81
2666.97 -2823.64 2550.29
2667.72 -2824.33 2550.29
2667.84 -2824.4 2549.66
2668.49 -2825.05 2549.34
2665.1 -2823.68 2541.25
2665.39 -2823.92 2541.63
2665.22 -2823.83 2539.99
2665.46 -2824.19 2540.6
2665.18 -2823.65 2539.31
2665.03 -2823.36 2538.92
2665.1 -2823.13 2538.16
2665.4 -2822.67 2536.7
2666.27 -2823.3 2536.43
2665.68 -2823.42 2537.56
2666.79 -2824.03 2536.92
2667.33 -2824.65 2537.23
2668.81 -2825.69 2536.8
2652.97 -2810.45 2556.86
2651.83 -2809.68 2557.86
2654.54 -2811.83 2556.66
2655.44 -2812.64 2556.27
2656.8 -2814.06 2555.91
2657.86 -2815.16 2555.74
2657.69 -2814.91 2561.17
2655.57 -2813.19 2561.11
2656.86 -2814.29 2560.74
2653.13 -2811.2 2561.8
2651.49 -2809.8 2562.22
2654.76 -2812.53 2561.15
2632.98 -2792.05 2563.07
2631.4 -2791.44 2561.27
2631.31 -2791.54 2560.55
2631.34 -2791.7 2559.87
2632.28 -2792.04 2561.2
2635.29 -2794.36 2568.61
2635.78 -2794.73 2568.06
2636.12 -2795.16 2567.92
2636.47 -2795.57 2567.51
2636.53 -2795.51 2566.9
2637.38 -2796.51 2564.85
2637.12 -2796.16 2565.65
2637.19 -2796.24 2564.36
2637.46 -2796.92 2561.94
2637.44 -2796.78 2562.69
2637 -2796.04 2563.81
2637.35 -2796.85 2561.24
2637.17 -2796.68 2560.6
2648.97 -2807.41 2560.31
2649.64 -2808.1 2560.43
2649.81 -2808.33 2560.96
2650.72 -2809.14 2562.07
2650.68 -2809.08 2561.14
2651.76 -2810.02 2561.06
2669.79 -2826.64 2536.87
2669.25 -2826.25 2537.25
2670.41 -2827 2536.23
2671.01 -2827.48 2536.05
2671.75 -2827.81 2534.01
2671.51 -2827.89 2535.95
2672.4 -2828.12 2532.53
2673.25 -2828.55 2531.2
2634.08 -2793.89 2559.49
2633.13 -2793.06 2559.78
2634.98 -2794.65 2559.55
2635.56 -2795.07 2560.06
2635.93 -2795.38 2560.27
2636.79 -2796.24 2560.34
2636.5 -2795.87 2560.72
2632.18 -2792.21 2560.23
2649.51 -2807.77 2559.43
2650.68 -2808.81 2558.83
2661.04 -2817.9 2554.62
2659.88 -2816.89 2554.96
2658.37 -2815.67 2555.79
2663.25 -2820.32 2554.98
2662.37 -2819.39 2555.28
2661.58 -2818.57 2555.28
2664.66 -2821.77 2554.31
2665.6 -2822.64 2553.36
2666.7 -2823.58 2551.78
2666.19 -2823.78 2544.68
2666.7 -2824.28 2544.69
2667.1 -2824.62 2544.79
2668.88 -2825.49 2548.16
2668.84 -2825.53 2547.5
2668.37 -2825.25 2546.79
2667.68 -2825.01 2545.3
2666.41 -2824.52 2543.08
2665.83 -2824.1 2542.62
2665.29 -2823.7 2542.17
2665.85 -2824.25 2542.13
2669.19 -2825.75 2548.69
2667.4 -2824.18 2551.42
2668.05 -2824.75 2551.3
2668.64 -2825.21 2550.06
2669.24 -2825.77 2549.38
2665.57 -2824.12 2539.43
2665.66 -2824.34 2539.95
2665.96 -2824.61 2540.41
2665.54 -2823.71 2538.45
2666.19 -2823.99 2537.77
2667.51 -2825.11 2537.81
2666.7 -2824.57 2538.03
2667.86 -2825.52 2538.1
2653.54 -2811.13 2557.45
2652.52 -2810.38 2558.22
2654.74 -2812.2 2557.31
2656.5 -2813.89 2556.53
2657.04 -2814.5 2556.82
2659.07 -2816.19 2559.97
2658.39 -2815.7 2559.82
2656.2 -2813.82 2560.13
2657.43 -2814.88 2560
2654.09 -2812.01 2560.83
2652.42 -2810.61 2561.44
2655.5 -2813.22 2560.32
2633.63 -2792.64 2562.72
2633.26 -2792.59 2561.88
2632.92 -2792.6 2560.89
2637.04 -2796.36 2562.06
2636.77 -2795.81 2563.31
2636.84 -2796.27 2560.85
2650.21 -2808.55 2559.78
2651.12 -2809.4 2560.28
2651.19 -2809.41 2559.71
2652.15 -2810.35 2560.29
2653.42 -2811.43 2560.31
2668.86 -2826.28 2538.02
2670.2 -2827.07 2537.05
2670.62 -2827.46 2537.12
2672.03 -2828.24 2535.1
2671.18 -2827.89 2537.11
2672.71 -2828.56 2533.56
2673.53 -2828.98 2532.64
2674.16 -2829.27 2531.45
2633.75 -2793.45 2560.26
2634.54 -2794.19 2559.95
2635.21 -2794.7 2560.27
2635.59 -2794.89 2560.89
2636.19 -2795.45 2561.2
2651.67 -2809.75 2558.9
2660.64 -2817.68 2555.28
2659.27 -2816.56 2555.88
2657.99 -2815.43 2556.66
2662.43 -2819.5 2555.98
2663.57 -2820.71 2555.42
2661.78 -2818.83 2555.89
2661.04 -2818.12 2555.72
2666.04 -2823.06 2553.33
2666.91 -2824.84 2543.54
2669.46 -2826.05 2547.95
2669.44 -2826.08 2547.29
2668.83 -2825.75 2546.44
2668.12 -2825.51 2544.98
2667.38 -2825.16 2543.93
2666.39 -2824.66 2542.55
2665.89 -2824.44 2541.56
2669.9 -2826.38 2549.31
2669.87 -2826.38 2548.55
2666.95 -2823.91 2552.83
2668.48 -2825.15 2551.44
2667.36 -2824.27 2553.07
2669.57 -2826.08 2550.39
2665.86 -2824.51 2541.03
2666.07 -2824.65 2539.35
2666.18 -2824.81 2539.92
2666.38 -2825 2540.71
2665.97 -2824.35 2538.9
2666.37 -2824.63 2538.75
2654.02 -2811.73 2558.08
2653.41 -2811.25 2558.55
2655.56 -2813.06 2557.33
2656.5 -2814.02 2557.39
2659.73 -2816.89 2559.05
2658.95 -2816.29 2558.59
2656.6 -2814.22 2559.33
2657.67 -2815.16 2559.22
2633.67 -2793.03 2561.5
2633.91 -2793.05 2562.08
2636.71 -2796.01 2561.64
2636.36 -2795.37 2562.69
2652.74 -2810.81 2559.61
2652.98 -2810.94 2559.06
2653.85 -2811.76 2559.77
2654.9 -2812.68 2559.62
2669.1 -2826.65 2538.44
2667.66 -2825.76 2539.11
2666.76 -2824.95 2538.85
2672.21 -2828.56 2536
2671.16 -2828.02 2537.71
2669.6 -2827.12 2538.67
2673.11 -2829.02 2534.78
2674.18 -2829.54 2533.25
2634.62 -2794.07 2560.67
2634.84 -2794.01 2561.51
2635.01 -2793.96 2562.15
2635.53 -2794.45 2562.36
2635.99 -2794.87 2562.72
2659.87 -2817.13 2556.13
2658.4 -2815.86 2556.85
2657.05 -2814.62 2557.71
2662.32 -2819.4 2556.56
2661.57 -2818.64 2556.47
2663.42 -2820.57 2556.08
2660.96 -2818.07 2556.3
2664.49 -2821.63 2555.4
2665.46 -2822.55 2554.4
2666.35 -2823.37 2553.72
2666.86 -2825.01 2542.88
2670.21 -2826.69 2547.91
2670.18 -2826.7 2547.16
2669.43 -2826.23 2546.55
2668.68 -2825.95 2545.15
2667.92 -2825.73 2543.69
2667.46 -2825.46 2543.23
2666.43 -2824.92 2541.72
2670.43 -2826.82 2550.65
2670.63 -2826.98 2548.96
2667.73 -2824.58 2553.25
2669.04 -2825.66 2551.88
2666.68 -2823.68 2554.21
2666.65 -2825.22 2541.15
2666.57 -2825.05 2539.59
2666.67 -2825.24 2540.31
2654.45 -2812.18 2558.51
2655.16 -2812.81 2558.26
2655.73 -2813.38 2558.25
2660.29 -2817.42 2558.66
2659.59 -2816.88 2557.99
2656.11 -2813.79 2559.04
2657.52 -2815.05 2558.44
2658.22 -2815.7 2558.26
2654.22 -2812.03 2559.09
2654.9 -2812.64 2559.08
2667.01 -2825.36 2539.55
2668.38 -2826.36 2539.23
2672.15 -2828.7 2537.12
2670.64 -2827.9 2538.75
2673.41 -2829.37 2535.74
2674.29 -2829.84 2534.77
2675.55 -2830.5 2533.44
2659.85 -2817.14 2556.64
2658.68 -2816.12 2557.19
2662.18 -2819.26 2557.18
2661.48 -2818.56 2557.08
2660.58 -2817.76 2557.01
2663.47 -2820.57 2556.71
2666.96 -2825.34 2542.1
2670.94 -2827.31 2547.2
2670.95 -2827.26 2547.98
2669.96 -2826.69 2546.48
2670.52 -2827.14 2546.44
2669.14 -2826.3 2545.28
2668.5 -2826.31 2543.45
2667.99 -2826.04 2542.93
2667.54 -2825.77 2542.52
2669.62 -2826.15 2552.49
2671.29 -2827.53 2551.97
2671.5 -2827.69 2550.14
2671.45 -2827.63 2548.37
2667.06 -2824.02 2554.63
2668.15 -2824.93 2553.41
2666.03 -2823.07 2555.07
2667.36 -2825.77 2541.85
2667.08 -2825.66 2540.98
2667.21 -2825.64 2540.13
2667.39 -2825.9 2540.62
2661.42 -2818.42 2558.61
2661.22 -2818.28 2557.99
2662.64 -2819.57 2558.59
2659.18 -2816.56 2557.45
2660.56 -2817.72 2557.63
2667.73 -2826.01 2539.72
2672.12 -2828.79 2537.88
2670.43 -2827.88 2539.35
2669.57 -2827.26 2539.36
2668.65 -2826.65 2539.61
2673.28 -2829.5 2537.06
2674.04 -2829.94 2536.49
2675.35 -2830.58 2535.05
2677.56 -2832.04 2535.25
2662.39 -2819.42 2557.83
2663.82 -2820.84 2557.18
2664.93 -2822.01 2555.88
2671.76 -2827.92 2547.43
2671.65 -2827.88 2546.85
2671.16 -2827.64 2546.2
2669.86 -2827.01 2544.97
2669.37 -2826.64 2544.84
2670.54 -2827.44 2545.15
2668.99 -2826.76 2543.24
2668.59 -2826.58 2542.68
2668.08 -2826.26 2542.35
2668.79 -2825.46 2553.7
2670.56 -2826.87 2553.14
2672.26 -2828.26 2553.03
2672.79 -2828.76 2552.02
2673.05 -2828.97 2550.97
2672.89 -2828.75 2549.54
2672.01 -2828.06 2548.84
2672.52 -2828.47 2547.93
2666.47 -2823.43 2555.64
2667.49 -2824.37 2554.73
2665.3 -2822.31 2556.24
2667.91 -2826.25 2541.66
2667.67 -2826.17 2541.14
2667.96 -2826.25 2540.13
2664.06 -2820.7 2559.36
2663.7 -2820.5 2558.64
2664.22 -2821.17 2557.49
2672.02 -2828.84 2538.55
2670.25 -2827.84 2539.85
2671.77 -2828.76 2539.21
2673.2 -2829.61 2538.02
2674.77 -2830.46 2536.8
2676.44 -2831.37 2536.27
2677.31 -2832 2536.72
2678.12 -2832.56 2537.27
2671.94 -2828.18 2546.15
2672.54 -2828.53 2547.06
2671.03 -2827.83 2544.8
2669.53 -2827.11 2543.41
2669.89 -2827.42 2543.14
2669.18 -2826.99 2542.65
2668.76 -2826.77 2542.22
2668.14 -2824.88 2554.75
2669.89 -2826.27 2554.12
2671.66 -2827.65 2554.12
2673.39 -2829.11 2553.76
2673.98 -2829.67 2552.69
2674.54 -2830.17 2551.72
2674.16 -2829.82 2550.08
2675.08 -2830.61 2550.86
2673.14 -2828.89 2548.43
2674.34 -2829.77 2548.12
2674.4 -2829.78 2547.17
2673.75 -2829.33 2547.04
2665.86 -2822.79 2556.58
2667.06 -2823.88 2555.91
2664.72 -2821.62 2557.51
2668.12 -2826.49 2541.2
2668.54 -2826.73 2541.59
2668.19 -2826.5 2540.59
2668.68 -2826.78 2540.22
2665.18 -2821.97 2557.81
2669.37 -2827.24 2539.97
2671.16 -2828.44 2539.89
2672.63 -2829.35 2539.08
2673.95 -2830.1 2538.19
2675.69 -2831.09 2537.49
2676.8 -2831.77 2537.87
2677.46 -2832.22 2538.4
2677.96 -2832.6 2539.27
2672.73 -2828.76 2546.05
2671.53 -2828.22 2544.49
2673.9 -2829.5 2546.06
2670.35 -2827.77 2542.9
2669.55 -2827.3 2542.36
2669.09 -2827.04 2541.93
2667.63 -2824.33 2555.96
2669.21 -2825.63 2555.18
2671.12 -2827.04 2555.32
2672.9 -2828.56 2554.61
2674.56 -2829.95 2554.02
2675.01 -2830.42 2552.85
2675.79 -2831.13 2551.74
2676.55 -2831.75 2550.93
2675.78 -2831.11 2549.82
2675.01 -2830.36 2548.57
2676.96 -2832.08 2550.19
2675.13 -2830.44 2545.27
2666.67 -2823.41 2556.9
2668.83 -2826.97 2540.87
2666.14 -2822.77 2557.85
2670.22 -2827.87 2540.51
2672.6 -2829.37 2539.64
2673.8 -2830.08 2538.96
2675.52 -2831.08 2538.39
2676.66 -2831.79 2539.1
2677.16 -2832.12 2539.75
2678.25 -2832.9 2540.58
2677.56 -2832.42 2540.66
2679.53 -2833.85 2541
2682.81 -2836.35 2539.31
2672.47 -2828.85 2544.39
2673.85 -2829.64 2544.66
2671.38 -2828.36 2543.18
2674.89 -2830.4 2544.17
2670.43 -2827.9 2542.35
2667.37 -2823.88 2557.33
2668.39 -2824.89 2556.02
2676.81 -2831.89 2552.22
2677.88 -2832.76 2551.37
2678.57 -2833.35 2550.12
2677.17 -2832.21 2549.3
2678.45 -2833.26 2549.19
2676.91 -2831.77 2545.31
2677.24 -2832.05 2546.05
2675.8 -2831.12 2543.24
2676.35 -2831.47 2543.58
2669.43 -2827.31 2541.22
2669.86 -2827.6 2541.64
2669.6 -2827.45 2540.59
2671.12 -2828.43 2540.64
2672.5 -2829.33 2540.16
2673.67 -2830.04 2539.66
2675.35 -2831.01 2539.18
2676.23 -2831.56 2540.07
2676.68 -2831.85 2540.92
2678.08 -2832.78 2541.99
2677.56 -2832.42 2541.7
2676.76 -2831.87 2542.04
2680.58 -2834.79 2541.8
