2792 -2287.43 2858.59
2793.74 -2287.42 2859.7
2795.52 -2287.43 2860.87
2792.07 -2287.26 2861.21
2788.56 -2287.28 2860.87
2793.68 -2287.27 2862.15
2817.23 -2289 2862.2
2814.86 -2288.71 2862.64
2804.42 -2287.85 2862.11
2809.75 -2288.32 2860.64
2807.89 -2288.09 2861.65
2797.64 -2287.48 2861.64
2795.8 -2287.27 2863.3
2786.69 -2287.23 2862.49
2784.5 -2287.34 2861.35
2775.94 -2287.65 2861.75
2790.58 -2287.17 2862.3
2792.17 -2287.1 2863.96
2788.81 -2287.15 2863.22
2793.83 -2287.16 2863.95
2820.56 -2289.4 2863.03
2818.32 -2289.1 2863.59
2811.03 -2288.34 2861.83
2815.65 -2288.76 2863.91
2812.8 -2288.5 2862.43
2812.7 -2288.43 2863.64
2800.21 -2287.6 2862.54
2802.39 -2287.69 2863.13
2806.66 -2287.93 2862.78
2804.59 -2287.77 2863.71
2809.06 -2288.1 2862.86
2798.12 -2287.37 2863.5
2795.01 -2287.15 2865
2797.27 -2287.27 2864.74
2784.64 -2287.21 2864.1
2787.54 -2287.08 2864.71
2782.49 -2287.33 2862.76
2780.16 -2287.47 2861.41
2778.12 -2287.53 2862.87
2772.49 -2287.95 2860.36
2773.7 -2287.79 2862.03
2774.88 -2287.64 2864.16
2777 -2287.51 2864.86
2790.51 -2287.05 2864.5
2793.06 -2287.03 2865.49
2791.37 -2287.01 2865.96
2789.23 -2287.01 2865.5
2821.69 -2289.51 2864.04
2819.55 -2289.24 2864.76
2817.23 -2288.94 2864.94
2823.73 -2289.8 2864.57
2810.74 -2288.22 2863.4
2814.69 -2288.63 2865.06
2813.2 -2288.47 2864.6
2810.63 -2288.16 2864.76
2800.09 -2287.47 2864.3
2802.02 -2287.58 2864.81
2806.88 -2287.89 2864
2808.9 -2288.03 2864.09
2803.91 -2287.67 2865.32
2806.27 -2287.8 2865.1
2794.51 -2287.07 2866.38
2796.62 -2287.22 2865.93
2799.19 -2287.36 2865.49
2785.87 -2287.07 2865.83
2782.22 -2287.21 2865.25
2783.7 -2287.13 2866.21
2787.62 -2287 2866.7
2780.34 -2287.35 2863.92
2779.46 -2287.33 2865.97
2772.08 -2287.91 2862.77
2770.83 -2288.02 2862.2
2769.64 -2288.24 2861.33
2772.81 -2287.8 2864.24
2775.04 -2287.53 2866.72
2773.27 -2287.66 2866.38
2777.12 -2287.43 2867.31
2792.83 -2286.98 2866.87
2791.17 -2286.99 2867.19
2789.33 -2287 2866.81
2821.39 -2289.48 2865.44
2818.95 -2289.19 2866.18
2816.23 -2288.81 2865.9
2823.54 -2289.81 2866.22
2813.31 -2288.44 2866.1
2811.77 -2288.28 2865.66
2809.66 -2288.06 2865.94
2808.5 -2287.95 2865.12
2801.1 -2287.49 2866.12
2805.45 -2287.73 2866.24
2802.93 -2287.61 2866.65
2807.73 -2287.87 2866.28
2794.08 -2287.02 2867.76
2796.06 -2287.16 2867.07
2798.45 -2287.32 2866.68
2785.58 -2287.03 2867.4
2781.55 -2287.16 2867.24
2783.21 -2287.12 2867.79
2787.54 -2287 2868.09
2779.15 -2287.28 2868.12
2768.08 -2288.46 2862.03
2770.61 -2287.99 2864.63
2769.48 -2288.16 2863.83
2771.63 -2287.83 2865.97
2774.63 -2287.48 2868.94
2772.85 -2287.58 2868.58
2771.46 -2287.67 2868.32
2776.58 -2287.39 2869.46
2792.04 -2286.98 2868.16
2789.51 -2287 2867.95
2821.11 -2289.49 2866.93
2819.17 -2289.27 2867.75
2817.13 -2288.97 2867.17
2814.7 -2288.62 2866.82
2823.34 -2289.86 2868.06
2810.94 -2288.2 2866.92
2812.31 -2288.36 2867.66
2808.88 -2287.98 2867.25
2800.26 -2287.45 2867.34
2804.46 -2287.7 2867.22
2806.85 -2287.84 2867.48
2802.12 -2287.6 2867.89
2795.55 -2287.11 2868.22
2793.67 -2287.02 2868.9
2797.9 -2287.3 2867.61
2785.28 -2287.04 2868.56
2781.3 -2287.15 2869.15
2782.85 -2287.13 2869.23
2787.54 -2287.01 2869.35
2778.65 -2287.27 2869.78
2768.09 -2288.34 2864.04
2766.19 -2288.71 2863.09
2770.26 -2287.85 2867.27
2769.3 -2288.04 2866.15
2768.09 -2288.22 2865.86
2773.95 -2287.48 2870.5
2772.17 -2287.58 2870.2
2770.62 -2287.63 2870.16
2769.71 -2287.72 2869.54
2775.86 -2287.4 2871.08
2764.15 -2288.98 2864.14
2791.46 -2287.01 2869.44
2789.81 -2287.01 2868.97
2821.28 -2289.59 2868.46
2816.92 -2289.03 2868.58
2814.53 -2288.68 2868.27
2809.99 -2288.13 2868.24
2812.33 -2288.46 2869.13
2808.02 -2287.96 2868.51
2800.07 -2287.49 2868.63
2805.73 -2287.84 2868.52
2803.18 -2287.71 2868.52
2797.32 -2287.28 2868.75
2795.14 -2287.13 2869.48
2793.14 -2287.07 2870.12
2784.75 -2287.09 2869.87
2780.67 -2287.18 2870.63
2782.3 -2287.14 2870.85
2786.41 -2287.09 2870.78
2789.01 -2287.07 2870.42
2777.99 -2287.33 2871.19
2766.33 -2288.56 2865.05
2768.94 -2287.86 2868.85
2767.98 -2288.03 2868.15
2766.52 -2288.34 2867.2
2773.15 -2287.5 2871.72
2771.68 -2287.57 2870.96
2769.91 -2287.64 2871.21
2768.7 -2287.75 2870.77
2767.96 -2287.84 2870.48
2775.47 -2287.42 2872.37
2764.43 -2288.79 2866.21
2762.17 -2289.23 2865.38
2790.88 -2287.1 2870.8
2814.49 -2288.84 2870.03
2810.51 -2288.28 2869.63
2808.68 -2288.09 2869.66
2812.31 -2288.63 2871.05
2806.6 -2287.98 2869.81
2801.68 -2287.68 2869.96
2799.09 -2287.48 2869.94
2804.15 -2287.85 2869.75
2796.67 -2287.32 2870.25
2794.75 -2287.21 2870.73
2792.65 -2287.18 2871.45
2783.75 -2287.16 2871.6
2780.05 -2287.26 2872.09
2781.41 -2287.24 2872.83
2787.29 -2287.16 2871.85
2785.07 -2287.28 2872.97
2789.23 -2287.21 2872.29
2777.67 -2287.38 2872.53
2767.11 -2287.97 2870.16
2766.19 -2288.19 2869.37
2764.71 -2288.54 2868.52
2773.68 -2287.5 2873
2770.62 -2287.61 2871.83
2771.4 -2287.59 2872.63
2768.82 -2287.71 2872.23
2767.94 -2287.78 2871.75
2767.05 -2287.87 2871.65
2766.1 -2288.03 2871.41
2775.92 -2287.46 2873.62
2762.28 -2289.07 2867.28
2760.12 -2289.52 2865.96
2791.02 -2287.3 2872.82
2809.87 -2288.35 2871.13
2807.73 -2288.17 2871.24
2805.44 -2288.06 2871.52
2802.93 -2287.9 2871.69
2800.49 -2287.72 2871.6
2798.07 -2287.54 2871.64
2796.45 -2287.54 2872.65
2794.31 -2287.35 2872.38
2792.78 -2287.45 2873.69
2782.94 -2287.33 2874.02
2778.72 -2287.4 2873.71
2780.64 -2287.41 2874.63
2786.76 -2287.35 2873.84
2784.37 -2287.46 2875.6
2788.96 -2287.43 2874.47
2764.99 -2288.24 2871
2764.05 -2288.43 2870.65
2762.87 -2288.73 2869.75
2774.17 -2287.57 2874.58
2771.9 -2287.63 2873.86
2769.66 -2287.67 2872.9
2769.55 -2287.7 2873.82
2768.03 -2287.77 2873.32
2767.11 -2287.84 2873.01
2766.26 -2287.92 2872.78
2764.93 -2288.13 2872.46
2763.62 -2288.32 2872.38
2776.89 -2287.54 2875.13
2761.12 -2289.13 2868.71
2759.69 -2289.49 2867.38
2757.89 -2289.84 2866.15
2755.87 -2290.11 2865.97
2754.32 -2290.39 2865.51
2752.54 -2290.73 2865.23
2808.87 -2288.45 2873.18
2799.04 -2287.81 2873.63
2795.08 -2287.67 2874.74
2781.96 -2287.51 2876.32
2779.03 -2287.55 2875.94
2762.76 -2288.48 2871.99
2761.99 -2288.66 2871.44
2760.78 -2288.95 2870.67
2775.59 -2287.68 2876.24
2772.57 -2287.72 2875.47
2770.56 -2287.73 2874.76
2767.4 -2287.88 2874.19
2768.54 -2287.84 2874.74
2766.13 -2287.98 2873.85
2764.72 -2288.12 2873.75
2763.99 -2288.22 2873.35
2762.28 -2288.43 2873.68
2761.55 -2288.55 2873.28
2778.07 -2287.74 2877.85
2759.04 -2289.45 2868.77
2757.12 -2289.8 2867.49
2754.98 -2290.12 2867.36
2753.36 -2290.43 2866.74
2751.76 -2290.71 2866.88
2750.83 -2290.98 2866.16
2749.35 -2291.39 2865.33
2760.95 -2288.68 2872.72
2760.31 -2288.85 2871.96
2758.69 -2289.32 2870.28
2776.06 -2287.9 2878.4
2773.91 -2287.83 2876.9
2771.95 -2287.96 2877.15
2770.31 -2287.88 2875.85
2766.24 -2288.06 2875.08
2765 -2288.14 2874.72
2767.88 -2287.99 2875.66
2763.83 -2288.27 2874.6
2762.35 -2288.43 2874.8
2762.27 -2288.43 2874.3
2760.3 -2288.64 2874.25
2759.91 -2288.71 2873.75
2759.45 -2288.81 2873.29
2756.55 -2289.75 2868.7
2754.22 -2290.1 2868.52
2752.74 -2290.4 2867.92
2751.44 -2290.57 2868.35
2750.59 -2290.85 2867.58
2749.33 -2291.2 2867.02
2747.9 -2291.64 2866.12
2746.76 -2292.01 2865.6
2759.04 -2288.93 2872.65
2758.74 -2289.07 2871.86
2757 -2289.49 2870.41
2757.74 -2289.22 2871.71
2771.14 -2288.25 2878.7
2769.47 -2288.07 2876.87
2765.38 -2288.26 2876.11
2763.5 -2288.38 2875.83
2762.47 -2288.45 2875.56
2766.96 -2288.26 2876.98
2760.65 -2288.6 2875.64
2760.37 -2288.63 2874.92
2758.36 -2288.82 2874.81
2757.82 -2288.9 2874.28
2757.71 -2288.96 2873.75
2755.33 -2289.8 2869.6
2752.68 -2290.22 2869.32
2753.91 -2289.89 2870.12
2751.44 -2290.39 2869.61
2750.49 -2290.73 2868.66
2749.1 -2291.11 2868.1
2747.68 -2291.55 2867.35
2746.57 -2291.93 2866.67
2745.55 -2292.28 2865.8
2744.9 -2292.55 2864.88
2757.62 -2289.05 2873.02
2755.86 -2289.33 2872
2755.18 -2289.55 2871.24
2756.03 -2289.17 2872.87
2768.53 -2288.35 2878.25
2764.7 -2288.56 2877.74
2762.98 -2288.54 2876.88
2760.94 -2288.65 2876.73
2760.44 -2288.64 2876.3
2766.61 -2288.68 2879.4
2758.51 -2288.8 2875.38
2758.34 -2288.82 2876.08
2756.36 -2288.94 2875.41
2755.64 -2288.99 2874.67
2755.8 -2289.08 2873.7
2752.29 -2289.96 2871.06
2753.21 -2289.69 2871.73
2751.31 -2290.2 2870.76
2750.48 -2290.59 2869.65
2748.85 -2291.04 2868.98
2747.33 -2291.49 2868.35
2746.26 -2291.87 2867.62
2745.32 -2292.22 2866.77
2744.4 -2292.56 2866.01
2743.72 -2292.85 2865.24
2753.88 -2289.42 2872.61
2754.18 -2289.28 2873.26
2754.1 -2289.21 2873.91
2763.79 -2288.9 2879.46
2762.17 -2288.79 2878.18
2760.72 -2288.8 2877.61
2758.35 -2288.84 2876.75
2758.38 -2288.94 2877.58
2755.97 -2289.01 2876.48
2754.11 -2289.1 2875.95
2753.53 -2289.12 2875.17
2753.8 -2289.17 2874.44
2750.81 -2289.82 2872.76
2750.31 -2290.01 2872.42
2751.87 -2289.65 2872.75
2750.65 -2290.29 2870.96
2748.77 -2290.93 2869.75
2749.56 -2290.59 2870.61
2747.45 -2291.26 2869.49
2746.31 -2291.62 2868.93
2745.64 -2291.89 2868.37
2744.95 -2292.17 2867.67
2742.77 -2293.13 2865.72
2744.29 -2292.46 2866.94
2743.37 -2292.83 2866.4
2734.09 -2295.91 2865.64
2735.69 -2295.43 2866.39
2732.25 -2296.38 2865.87
2731.05 -2296.78 2865.32
2730.04 -2297.19 2864.21
2727.03 -2298.28 2863.52
2752.2 -2289.51 2873.23
2752.27 -2289.43 2873.77
2752.01 -2289.38 2874.33
2761.16 -2289.09 2879.65
2759.62 -2289.04 2878.67
2756.09 -2289.06 2877.11
2755.96 -2289.15 2877.78
2757.16 -2289.17 2878.51
2754.04 -2289.14 2876.53
2753.83 -2289.23 2877.28
2752.24 -2289.27 2876.58
2752.05 -2289.25 2876.07
2751.62 -2289.35 2875.23
2750.61 -2289.7 2873.5
2749.33 -2289.81 2873.82
2749.36 -2290.22 2872.25
2748.62 -2290.09 2873.16
2747.57 -2290.99 2870.64
2748.33 -2290.55 2871.7
2746.24 -2291.38 2870.02
2745.24 -2291.76 2869.39
2744.47 -2292.13 2868.61
2743.9 -2292.41 2867.97
2742.3 -2293.23 2866.49
2743.46 -2292.67 2867.25
2742.64 -2292.96 2867.33
2737.03 -2294.99 2866.92
2733.56 -2295.88 2867
2735.12 -2295.35 2867.88
2732.21 -2296.13 2867.62
2731.05 -2296.52 2867.3
2729.76 -2297.18 2865.56
2728.52 -2297.68 2864.78
2727.13 -2298.03 2865.98
2725.34 -2298.73 2865.14
2724.83 -2299.04 2863.13
2751.01 -2289.53 2874.22
2750.57 -2289.52 2874.65
2760.35 -2289.5 2881.6
2758.49 -2289.3 2879.74
2753.73 -2289.32 2877.96
2754.27 -2289.36 2878.5
2755.45 -2289.4 2879.14
2752.3 -2289.33 2877.18
2752.1 -2289.42 2877.84
2750.68 -2289.4 2875.87
2750.98 -2289.37 2876.81
2750.04 -2289.5 2875.27
2748.11 -2289.97 2873.89
2747.64 -2290.27 2873.07
2746.94 -2290.59 2872.44
2746.46 -2290.93 2871.56
2744.88 -2291.46 2870.88
2745.61 -2291.04 2871.68
2744.06 -2292.05 2869.5
2743.2 -2292.43 2868.87
2742.92 -2292.71 2868.06
2741.69 -2293.38 2867.17
2740.37 -2293.92 2866.82
2741.94 -2293.12 2867.91
2738.07 -2294.61 2867.36
2736.26 -2294.99 2868.16
2733.85 -2295.45 2869.19
2735.12 -2295.07 2869.44
2738.87 -2294.31 2867.68
2732.72 -2295.71 2869.37
2729.96 -2296.85 2867.56
2731.25 -2296.17 2869.09
2728.62 -2297.37 2867.1
2724.24 -2299 2866.28
2723.15 -2299.53 2864.24
2726.51 -2298.07 2867.46
2728.11 -2297.42 2868.16
2721.79 -2300.22 2862.51
2749.8 -2289.64 2874.42
2749.04 -2289.66 2874.77
2749.48 -2289.58 2875.02
2758.09 -2289.66 2881.43
2756.36 -2289.55 2880.18
2752.11 -2289.49 2878.49
2752.99 -2289.58 2879.3
2754.13 -2289.72 2880.27
2750.94 -2289.4 2877.35
2750.74 -2289.45 2877.84
2749.77 -2289.48 2876.19
2750.13 -2289.45 2877.04
2749.2 -2289.57 2875.63
2748.53 -2289.77 2874.53
2747.4 -2289.99 2874.25
2746.97 -2290.26 2873.6
2746.61 -2290.47 2873.1
2745.89 -2290.69 2872.7
2744.07 -2291.57 2871.19
2744.97 -2290.94 2872.44
2743.28 -2291.94 2870.64
2742.32 -2292.78 2868.67
2742.61 -2292.24 2870.24
2739.94 -2293.94 2867.62
2740.42 -2293.7 2867.95
2741.33 -2293.21 2868.5
2737.05 -2294.72 2868.58
2736.04 -2294.77 2869.77
2734.46 -2295.08 2870.53
2735.37 -2294.87 2870.31
2737.75 -2294.45 2868.92
2733.16 -2295.46 2870.48
2729.9 -2296.66 2869.01
2731.6 -2295.97 2870.04
2725.05 -2298.6 2867.68
2722.89 -2299.49 2866.08
2721.51 -2300.12 2864.52
2727.34 -2297.65 2868.89
2728.67 -2297.1 2869.33
2719.77 -2300.93 2863.35
2747.92 -2289.8 2874.86
2748.37 -2289.7 2875.07
2756.82 -2290.25 2883.66
2756.09 -2289.86 2881.64
2750.53 -2289.55 2878.33
2751.36 -2289.63 2879.03
2752.16 -2289.78 2880.01
2753.52 -2290 2881.4
2749.79 -2289.51 2877.48
2749.58 -2289.59 2877.96
2748.7 -2289.6 2876.26
2749.28 -2289.53 2876.99
2748.17 -2289.68 2875.65
2746.43 -2290.28 2873.96
2746.91 -2290.04 2874.51
2746.03 -2290.45 2873.52
2745.33 -2290.66 2873.09
2744.07 -2291.18 2872.35
2744.53 -2290.86 2872.99
2743.03 -2291.61 2872
2742.14 -2292.41 2870.14
2742.41 -2291.84 2871.93
2738.33 -2294.17 2869.2
2739.14 -2293.82 2869.33
2741.55 -2292.65 2870.02
2740.31 -2293.22 2869.75
2736.93 -2294.44 2870.15
2736.43 -2294.49 2870.73
2735.66 -2294.66 2871.05
2734.78 -2294.91 2871.28
2737.63 -2294.14 2870.39
2733.73 -2295.22 2871.37
2730.4 -2296.39 2870.07
2732.36 -2295.66 2871.04
2725.76 -2298.25 2868.67
2723.37 -2299.25 2867.45
2721.44 -2300.06 2865.78
2719.57 -2300.89 2864.76
2727.85 -2297.4 2870.04
2729.19 -2296.86 2870.21
2717.59 -2301.75 2863.84
2715.57 -2302.53 2863.99
2747.31 -2289.84 2875.18
2754.84 -2290.28 2883.1
2749.95 -2289.66 2878.69
2750.56 -2289.77 2879.45
2751.46 -2289.94 2880.51
2752.82 -2290.25 2882.24
2748.81 -2289.64 2877.39
2749.03 -2289.72 2878.38
2748.39 -2289.63 2876.81
2747.72 -2289.71 2876.19
2746.47 -2290.09 2874.75
2743.63 -2291.2 2872.75
2741.92 -2292.16 2871.3
2742.68 -2291.59 2872.58
2738.34 -2293.78 2870.56
2739.79 -2293.08 2870.9
2741.25 -2292.46 2871.03
2737.39 -2294.08 2871.07
2736.92 -2294.16 2871.6
2736.02 -2294.45 2871.74
2735.11 -2294.74 2871.92
2738.16 -2293.73 2871.14
2734.48 -2294.9 2872.34
2730.91 -2296.16 2870.94
2732.99 -2295.44 2871.91
2723.83 -2299.06 2868.51
2726.22 -2298.06 2869.52
2721.92 -2299.86 2866.81
2719.6 -2300.81 2865.8
2717.49 -2301.71 2864.9
2728.17 -2297.26 2870.87
2729.81 -2296.61 2871.05
2713.73 -2303.28 2863.31
2715.36 -2302.57 2864.9
2746.63 -2289.94 2875.39
2753.71 -2290.69 2884.43
2749.25 -2289.78 2878.98
2749.95 -2289.91 2879.83
2750.9 -2290.12 2881.04
2752.15 -2290.5 2883.03
2747.98 -2289.78 2877.58
2747.87 -2289.73 2877.06
2748.15 -2289.82 2878.15
2748.35 -2289.85 2878.67
2747.34 -2289.77 2876.66
2746.82 -2289.86 2876.01
2745.88 -2290.17 2874.95
2745.47 -2290.38 2874.41
2744.86 -2290.63 2873.7
2744.27 -2290.81 2873.68
2741.83 -2292.01 2871.99
2741.92 -2291.88 2872.48
2742.82 -2291.43 2873.07
2739.66 -2292.99 2871.49
2741.08 -2292.35 2871.71
2737.7 -2293.78 2871.91
2738.16 -2293.6 2871.67
2736.69 -2294.14 2872.33
2735.76 -2294.44 2872.5
2734.22 -2294.99 2872.96
2735.53 -2294.48 2873.1
2731.98 -2295.8 2871.87
2724.31 -2298.87 2869.41
2722.28 -2299.72 2867.93
2726.62 -2297.89 2870.37
2720.18 -2300.56 2866.8
2717.59 -2301.65 2865.87
2728.24 -2297.25 2871.62
2729.74 -2296.66 2871.69
2731.35 -2296.04 2872.11
2713.64 -2303.29 2864.36
2715.33 -2302.58 2865.75
2746.02 -2290.09 2875.5
2752.62 -2291.05 2885.34
2748.8 -2289.94 2879.41
2749.47 -2290.08 2880.3
2750.46 -2290.32 2881.61
2751.48 -2290.75 2883.64
2747.03 -2289.86 2877.13
2747.24 -2289.9 2877.75
2747.49 -2289.94 2878.38
2747.78 -2289.98 2879.02
2746.25 -2289.99 2876.1
2746.6 -2289.9 2876.71
2745.39 -2290.29 2875.09
2744.82 -2290.49 2874.49
2743.65 -2291.02 2873.63
2742 -2291.76 2872.96
2741.12 -2292.23 2872.21
2739.7 -2292.77 2872.41
2739.02 -2293.05 2872.61
2736.62 -2294.09 2872.94
2737.6 -2293.7 2872.92
2741.17 -2292.11 2872.77
2735.03 -2294.67 2873.71
2733.29 -2295.34 2873.13
2736.26 -2294.21 2873.89
2736.62 -2294.07 2873.48
2724.81 -2298.68 2870.39
2722.64 -2299.59 2869.16
2720.57 -2300.43 2867.99
2726.88 -2297.8 2871.12
2718.72 -2301.2 2866.98
2716.83 -2301.99 2866.68
2727.91 -2297.43 2872.22
2729.71 -2296.72 2872.48
2731.72 -2295.93 2872.92
2713.26 -2303.45 2865.21
2714.77 -2302.85 2866.61
2745.49 -2290.22 2875.64
2748.41 -2290.12 2879.89
2749.18 -2290.31 2880.94
2750.57 -2290.65 2882.84
2750.78 -2291.15 2884.74
2746.22 -2290.03 2877.03
2746.56 -2289.99 2877.46
2746.78 -2290.02 2878.06
2746.99 -2290.06 2878.69
2747.39 -2290.16 2879.46
2745.67 -2290.13 2876.21
2744.28 -2290.65 2874.51
2743 -2291.21 2873.9
2741.22 -2292.01 2873.31
2740.56 -2292.27 2873.34
2737.74 -2293.57 2873.48
2739.2 -2292.88 2873.57
2740.77 -2292.14 2873.9
2734 -2295.07 2874.04
2735.69 -2294.43 2874.37
2737.02 -2293.9 2874.44
2737.68 -2293.59 2873.99
2725.71 -2298.34 2871.57
2723.36 -2299.36 2870.6
2720.92 -2300.33 2869.23
2718.48 -2301.35 2868.02
2716.11 -2302.36 2867.65
2728.92 -2297.08 2873.16
2726.74 -2297.96 2872.66
2730.9 -2296.31 2873.49
2733 -2295.51 2874.25
2713.4 -2303.45 2866.74
2748.07 -2290.35 2880.42
2748.86 -2290.54 2881.49
2750.14 -2290.89 2883.42
2750.18 -2291.5 2885.55
2745.5 -2290.23 2876.94
2745.84 -2290.18 2877.38
2746.23 -2290.12 2877.83
2746.46 -2290.14 2878.43
2747.12 -2290.36 2879.86
2745.14 -2290.27 2876.1
2744.51 -2290.5 2875.39
2743.71 -2290.87 2874.37
2742.24 -2291.56 2873.75
2741.6 -2291.81 2873.89
2739.41 -2292.75 2874.08
2740.96 -2292.02 2874.4
2735.05 -2294.7 2874.85
2736.63 -2294.08 2874.92
2738.05 -2293.43 2874.87
2738.4 -2293.25 2874.47
2740.02 -2292.44 2874.63
2724.44 -2298.99 2872.2
2722.29 -2299.85 2871.21
2720.29 -2300.69 2870.4
2718.41 -2301.46 2869.31
2716.48 -2302.29 2868.89
2727.61 -2297.72 2873.85
2729.86 -2296.81 2874.25
2725.03 -2298.89 2873.96
2732.04 -2295.93 2874.54
2734.26 -2295.08 2875.32
2747.71 -2290.56 2880.85
2748.49 -2290.77 2882
2749.68 -2291.12 2883.88
2749.36 -2291.59 2885.28
2744.84 -2290.37 2876.69
2746.23 -2290.3 2878.85
2746.5 -2290.41 2879.5
2746.88 -2290.56 2880.31
2743.94 -2290.71 2875.03
2744.17 -2290.57 2875.92
2742.55 -2291.37 2874.2
2743.25 -2291.01 2874.65
2741.44 -2291.8 2874.8
2742.1 -2291.53 2874.51
2736.1 -2294.33 2875.38
2737.75 -2293.6 2875.29
2739.99 -2292.51 2875.59
2722.8 -2299.84 2873.38
2720.84 -2300.63 2872.55
2728.85 -2297.41 2875.47
2726.59 -2298.34 2875.11
2731.31 -2296.36 2875.48
2733.54 -2295.44 2875.85
2735.54 -2294.62 2875.92
2747.51 -2290.78 2881.41
2748.74 -2291.15 2883.4
2748.09 -2291.67 2884.72
2744.85 -2290.45 2877.56
2744.38 -2290.51 2876.87
2745.28 -2290.4 2878.07
2745.7 -2290.39 2878.61
2745.96 -2290.49 2879.23
2746.25 -2290.6 2879.91
2746.7 -2290.81 2880.94
2743.69 -2290.76 2875.46
2742.33 -2291.38 2875.12
2736.96 -2294 2875.71
2738.36 -2293.38 2876.06
2741.74 -2291.68 2875.47
2741.46 -2291.83 2875.9
2730.49 -2296.92 2876.95
2728.39 -2297.95 2877.48
2726.45 -2298.69 2876.97
2732.82 -2295.89 2876.76
2735.09 -2294.92 2876.67
2736.75 -2294.15 2876.24
2747.8 -2291.15 2882.77
2747.26 -2291.33 2883.04
2746.85 -2292.02 2884.91
2744.26 -2290.62 2877.52
2743.91 -2290.71 2876.86
2745.21 -2290.55 2878.6
2746.25 -2290.99 2881.15
2742.95 -2291.06 2875.41
2743.26 -2290.94 2875.93
2743.56 -2290.84 2876.43
2740.56 -2292.3 2876.44
2738.72 -2293.31 2876.72
2742.19 -2291.49 2876.22
2731.88 -2296.61 2878.51
2734.2 -2295.51 2877.88
2736.11 -2294.63 2877.45
2737.36 -2293.99 2876.93
2746.67 -2291.5 2883.02
2746 -2292.31 2884.72
2743.5 -2290.92 2877.26
2744.44 -2290.73 2878.3
2745.03 -2290.83 2879.44
2745.48 -2290.95 2880.27
2745.79 -2291.18 2881.28
2740.85 -2292.22 2876.94
2739.18 -2293.22 2877.41
2742.61 -2291.31 2876.75
2734.13 -2295.92 2879.88
2736.02 -2294.92 2878.82
2737.43 -2294.17 2878.08
2746.05 -2291.7 2882.99
2745.04 -2292.56 2884.4
2743.06 -2291.1 2876.97
2743.89 -2290.91 2878
2745.2 -2291.39 2881.31
2745.48 -2291.73 2882.57
2741.26 -2292.08 2877.39
2742.18 -2291.54 2877
2739.19 -2293.35 2878.02
2736.39 -2295.08 2880.44
2737.6 -2294.33 2879.22
2744.73 -2292.04 2882.69
2744.07 -2292.89 2884.21
2743.13 -2291.25 2877.95
2744.08 -2291.04 2878.95
2744.06 -2291.2 2879.48
2744.6 -2291.28 2880.33
2744.36 -2291.58 2880.86
2744.19 -2292.24 2882.51
2742.41 -2291.51 2877.58
2741.04 -2292.37 2878.06
2739.35 -2293.45 2878.75
2737.74 -2294.88 2881.94
2737.97 -2294.41 2880.29
2739.38 -2293.66 2879.63
2743.15 -2293.18 2883.83
2743.58 -2291.22 2878.75
2743.83 -2291.46 2879.94
2743.25 -2291.92 2880.46
2743.49 -2292.46 2882.23
2742.18 -2291.86 2878.36
2740.99 -2292.63 2878.89
2739.25 -2294.16 2881.29
2740.22 -2293.52 2880.59
2741.74 -2292.5 2879.76
2742.51 -2292.99 2882.35
2740.91 -2293.72 2882.28
2742.54 -2291.8 2878.89
2742.84 -2291.81 2879.53
2741.95 -2292.8 2881.03
