2752.61 -2294.92 3095.16
2753.29 -2294.76 3094.78
2744.07 -2296.66 3095.29
2744.9 -2296.47 3095.84
2745.9 -2296.29 3096.35
2747.86 -2295.9 3096.33
2750.01 -2295.51 3096.77
2759.5 -2293.62 3091.81
2741.68 -2297.33 3094.74
2742.39 -2297.11 3094.15
2743.26 -2296.9 3096.2
2742.77 -2297.03 3095.83
2760.39 -2294.77 3105.48
2760.32 -2294.13 3103.3
2759.51 -2295.31 3106.93
2759.71 -2293.91 3102.16
2759.37 -2293.41 3100.37
2759.18 -2293.75 3101.34
2757.83 -2295.69 3107.53
2759.62 -2293.06 3098.99
2759.08 -2293.27 3099.7
2760.15 -2292.73 3096.46
2760.11 -2292.78 3097.37
2760.37 -2292.66 3095.81
2761.18 -2292.71 3094.63
2653.48 -2329.95 3069.36
2654.36 -2329.52 3070.42
2651.95 -2330.69 3067.48
2647.69 -2333.69 3066.73
2650.1 -2331.96 3067.34
2649.32 -2332.63 3067.67
2652.13 -2330.8 3068.88
2617.1 -2355.18 3059.84
2616.46 -2355.23 3057.51
2615.3 -2356.46 3058.86
2606.27 -2365.27 3059.07
2605.16 -2366.15 3058.02
2604.24 -2367.21 3057.95
2611.21 -2360.49 3060.12
2613.14 -2358.67 3060.37
2614.11 -2357.65 3059.55
2602.6 -2369.18 3058.23
2598.85 -2373.64 3058.86
2597.98 -2374.44 3057.46
2597 -2375.73 3057.52
2595.92 -2377.39 3058.55
2595.1 -2378.37 3057.66
2593.99 -2379.8 3056.78
2592.83 -2381.39 3056.11
2592.12 -2382.12 3053.98
2590.93 -2383.73 3052.44
2589.72 -2385.41 3051.62
2588.5 -2387.16 3051.1
2587.92 -2387.99 3050.6
2587.48 -2388.69 3049.81
2586.45 -2390.45 3049.09
2586.02 -2391.32 3047.78
2586.69 -2389.95 3049.87
2583.66 -2395.75 3044.95
2583.36 -2396.45 3043.78
2582.44 -2398.21 3043.18
2581.58 -2399.97 3041.79
2584.31 -2394.45 3046.13
2585.11 -2393.02 3047.67
2580.72 -2401.64 3040.33
2579.97 -2403.06 3040.36
2579.48 -2404.08 3039.87
2578.65 -2405.77 3039.8
2577.86 -2407.37 3040.07
2577.06 -2409.03 3039.99
2576.24 -2410.46 3040.4
2575.11 -2413.58 3036.48
2575.14 -2413.07 3038.57
2575.79 -2411.35 3040.77
2717.18 -2304.8 3055.09
2717.42 -2304.59 3056.29
2717.9 -2303.99 3056.32
2722.2 -2302.29 3073.43
2719.51 -2304.04 3066.02
2718.88 -2303.88 3061.98
2719 -2304.27 3064.49
2720.78 -2303.29 3070.5
2720.27 -2303.62 3068.57
2719.76 -2304.09 3068.09
2721.2 -2303.01 3072.09
2721.69 -2302.69 3073.36
2721.84 -2302.7 3074
2718.58 -2303.84 3060.15
2721.99 -2302.97 3076.29
2721.95 -2302.78 3074.93
2722.19 -2303.28 3078.48
2722.05 -2303.26 3077.84
2718.18 -2304.01 3058.75
2717.96 -2304.1 3057.84
2740.82 -2297.65 3095.57
2760.45 -2292.87 3093.73
2760.01 -2293.01 3093.17
2759.54 -2293.3 3092.42
2758.76 -2294.21 3090.81
2758.35 -2294.15 3091.15
2757.92 -2294.12 3091.44
2757.19 -2293.97 3092.28
2756.96 -2293.84 3092.85
2756.68 -2293.83 3093.39
2754.24 -2294.55 3094.1
2756.68 -2293.7 3094.03
2752.46 -2294.94 3096.34
2752.85 -2294.86 3095.76
2751.2 -2295.28 3097.15
2752.22 -2295.03 3096.95
2753.56 -2294.67 3095.48
2753.99 -2294.56 3095.01
2744.11 -2296.68 3097.32
2744.91 -2296.51 3098.26
2746.03 -2296.32 3097.99
2748.34 -2295.85 3097.21
2750.14 -2295.57 3097.88
2742.19 -2297.2 3096.86
2741.57 -2297.41 3097.09
2743.14 -2296.95 3098.61
2742.64 -2297.08 3097.94
2755.88 -2296.04 3107.74
2759.48 -2294.71 3104.82
2759.46 -2294.22 3103.13
2758.67 -2295.1 3105.83
2758.86 -2294.03 3102.15
2758.68 -2293.81 3101.23
2756.65 -2295.68 3106.76
2757.89 -2295.08 3105.3
2760.44 -2292.63 3095.27
2759.68 -2292.9 3098.08
2758.98 -2293.17 3099.13
2758.49 -2293.36 3099.66
2758.61 -2293.55 3100.35
2759.85 -2292.69 3095.95
2659 -2326.88 3078.04
2659.85 -2326.48 3079.27
2658.43 -2327.15 3077.5
2652.88 -2330.35 3069.35
2657.68 -2327.55 3076.65
2656.87 -2328.04 3075.66
2597.83 -2375.06 3059.6
2592.33 -2382.48 3057.98
2591.57 -2383.2 3055.58
2590.72 -2384.24 3054.03
2589.54 -2385.79 3052.99
2588.54 -2387.16 3052.18
2587.47 -2388.74 3051.58
2587.84 -2388.23 3052.64
2587.05 -2389.39 3050.6
2586.03 -2390.96 3050.08
2585.75 -2391.66 3048.92
2586.26 -2390.58 3050.7
2583.27 -2396.34 3046.47
2582.17 -2398.36 3045.07
2582.36 -2397.89 3046.03
2581.31 -2400.12 3044.01
2580.59 -2401.66 3042.16
2584.32 -2394.38 3047.55
2585.22 -2392.64 3049.19
2579.87 -2402.99 3042.34
2579.28 -2404.19 3041.93
2578.64 -2405.5 3041.14
2577.88 -2406.98 3041.43
2577 -2408.61 3041.62
2576.21 -2410.03 3042.07
2574.43 -2414.91 3038.04
2574.51 -2414.37 3039.99
2575.28 -2412.4 3040.76
2575.72 -2411.1 3042.4
2573.46 -2417.2 3037.74
2717.56 -2304.55 3057.46
2718.55 -2304.32 3062.44
2718.59 -2304.82 3065.1
2720.77 -2303.49 3072.39
2720.34 -2303.75 3070.63
2720.89 -2303.53 3073.68
2721.31 -2303.33 3075.06
2721.51 -2303.3 3075.82
2721.58 -2303.53 3077.28
2717.74 -2304.8 3059.98
2718 -2304.69 3060.98
2718.11 -2304.96 3063.09
2717.49 -2304.9 3059.03
2740.32 -2297.86 3096.61
2741.15 -2297.59 3098.1
2759.38 -2293.16 3092.92
2758.7 -2293.56 3092.17
2758.21 -2293.37 3093.02
2757.97 -2293.27 3093.63
2757.64 -2293.27 3094.24
2755.01 -2294.3 3094.38
2757.58 -2293.21 3094.93
2754.85 -2294.31 3094.89
2753.19 -2294.76 3096.81
2753.42 -2294.7 3096.18
2751.26 -2295.33 3097.98
2752.18 -2295.07 3097.63
2753.16 -2294.81 3097.52
2754.71 -2294.31 3095.47
2754.26 -2294.45 3095.87
2743.73 -2296.82 3099.51
2744.69 -2296.64 3100.06
2743.77 -2296.86 3100.68
2746.88 -2296.23 3098.72
2745.45 -2296.53 3100.13
2748.45 -2295.91 3098.27
2750.79 -2295.53 3098.9
2749.5 -2295.81 3099.11
2758.95 -2293.34 3092.64
2742.05 -2297.28 3098.99
2741.58 -2297.45 3099.63
2742.75 -2297.07 3100.63
2742.62 -2297.09 3099.91
2754.43 -2296.16 3107.13
2755.4 -2295.78 3106.25
2758.48 -2294.42 3103.28
2758.14 -2294.1 3101.92
2758.14 -2293.85 3100.92
2757.07 -2295.18 3105.11
2757.58 -2294.48 3102.97
2759.71 -2292.66 3095.39
2760.51 -2292.71 3094.49
2759.09 -2293 3098.18
2758.37 -2293.3 3099.16
2757.94 -2293.5 3099.56
2757.99 -2293.66 3100.18
2759.35 -2292.77 3096.5
2759.23 -2292.85 3097.31
2661.07 -2325.89 3081.8
2660.5 -2326.12 3081.45
2659.04 -2326.78 3079.73
2659.74 -2326.45 3080.65
2658.48 -2327.08 3079.01
2656.89 -2327.96 3077.01
2657.86 -2327.4 3078.14
2591.09 -2384.3 3057.61
2590.31 -2385.12 3055.74
2589.3 -2386.3 3054.28
2588.38 -2387.53 3053.68
2587.12 -2389.3 3052.53
2586.74 -2389.83 3051.51
2587.74 -2388.53 3053.9
2585.64 -2391.65 3050.47
2585.62 -2391.68 3051.05
2586.09 -2390.83 3051.58
2583.27 -2396.29 3047.53
2581.95 -2398.52 3046.7
2581.26 -2399.96 3045.75
2580.43 -2401.71 3044.25
2584.14 -2394.7 3048.51
2584.95 -2393.12 3049.44
2579.62 -2403.28 3043.91
2578.79 -2404.91 3043.65
2578.23 -2406.14 3042.52
2577.07 -2408.37 3042.52
2576.25 -2409.74 3043.21
2573.53 -2416.56 3039.77
2575.15 -2412.43 3042.13
2574.32 -2414.54 3041.81
2573.53 -2416.37 3041.98
2575.93 -2410.43 3043.48
2575.43 -2411.63 3043.26
2572.67 -2418.68 3039.15
2571.65 -2421.03 3038.31
2570.68 -2423.16 3038.15
2720.44 -2304.13 3074.56
2720.4 -2303.93 3072.67
2720.63 -2304.12 3075.78
2721.19 -2303.91 3077.51
2740.5 -2297.82 3098.47
2741 -2297.64 3099.7
2759.71 -2292.8 3093.89
2759.17 -2292.94 3093.72
2758.58 -2293.11 3093.55
2758.26 -2293.09 3094.03
2756.72 -2293.58 3094.62
2758.19 -2292.99 3094.7
2756.26 -2293.73 3095.32
2753.88 -2294.55 3097
2754 -2294.52 3096.41
2752.31 -2295.09 3098.33
2751.75 -2295.28 3098.79
2753.24 -2294.83 3098.21
2754.06 -2294.54 3097.66
2755.78 -2293.89 3096.06
2756.58 -2293.59 3095.72
2755.15 -2294.13 3096.49
2742.93 -2297.06 3101.1
2744.51 -2296.78 3101.44
2743.66 -2296.96 3101.64
2742.83 -2297.13 3101.95
2747.54 -2296.22 3099.82
2746.08 -2296.47 3100.62
2751.3 -2295.47 3099.48
2750.45 -2295.73 3099.95
2748.94 -2296.06 3100.4
2741.42 -2297.47 3100.85
2741.88 -2297.33 3100.55
2742.11 -2297.26 3101.74
2742.3 -2297.22 3102.3
2751.95 -2296.35 3105.84
2751.06 -2296.52 3106.05
2753.13 -2296.19 3106.11
2750.24 -2296.64 3106.26
2753.89 -2295.98 3105.81
2754.82 -2295.63 3105.07
2756.44 -2295.16 3104.51
2757.57 -2294.14 3101.58
2757.44 -2293.97 3100.75
2757.05 -2294.55 3102.78
2759.91 -2292.7 3094.71
2759.25 -2292.75 3095.9
2758.55 -2293.13 3098.3
2757.41 -2293.67 3099.53
2758.65 -2292.98 3097.39
2662.1 -2325.46 3082.46
2661 -2325.76 3083.7
2661.64 -2325.47 3084.23
2660.37 -2326.08 3082.93
2658.92 -2326.76 3081.42
2659.65 -2326.42 3082.17
2658.35 -2327.09 3080.77
2656.92 -2327.92 3078.22
2656.25 -2328.4 3076.14
2657.8 -2327.41 3079.39
2589.78 -2386.28 3057.65
2588.96 -2387.02 3055.64
2588.23 -2388.02 3055.31
2587.11 -2389.47 3053.64
2586.56 -2390.13 3052.46
2587.66 -2388.89 3055.08
2584.97 -2393.04 3050.17
2585.62 -2391.73 3051.81
2585.13 -2392.64 3051.21
2586.06 -2390.97 3052.58
2583.13 -2396.52 3048.57
2582.27 -2397.97 3047.43
2581.38 -2399.61 3047.64
2580.87 -2400.58 3046.8
2580.22 -2401.89 3045.69
2583.97 -2395 3049.55
2579.46 -2403.49 3045.34
2578.43 -2405.53 3045.11
2577.85 -2406.78 3044.02
2577.2 -2408.01 3043.01
2576.74 -2408.83 3043.59
2572.81 -2417.98 3041.18
2574.82 -2413.07 3043.23
2574.03 -2414.97 3043.82
2573.33 -2416.49 3044.05
2572.69 -2417.99 3043.31
2576.36 -2409.61 3044.17
2575.52 -2411.23 3044.09
2574.83 -2412.93 3044.39
2571.93 -2419.97 3040.61
2570.95 -2422.09 3040.36
2569.76 -2424.6 3040.16
2569.5 -2425.65 3037.52
2568.67 -2427.88 3035.16
2740 -2298.03 3098.81
2740.38 -2297.85 3099.98
2740.51 -2297.76 3101.01
2757.37 -2293.28 3095.68
2757.88 -2293.09 3095.44
2754.79 -2294.26 3096.9
2755.81 -2293.95 3097.55
2753.09 -2294.95 3099.07
2752.49 -2295.19 3099.63
2754.03 -2294.62 3098.48
2755.58 -2294.08 3098.19
2756.76 -2293.53 3096.41
2757.54 -2293.21 3096.25
2756.45 -2293.69 3096.94
2745.38 -2296.69 3101.99
2744.5 -2296.81 3102.6
2743.7 -2296.97 3102.67
2742.9 -2297.08 3102.94
2742.38 -2297.13 3103.44
2747.7 -2296.31 3101.4
2746.65 -2296.46 3101.51
2752.08 -2295.41 3100.37
2751.1 -2295.65 3100.47
2750.23 -2295.91 3101.04
2749.3 -2296.12 3101.75
2740.88 -2297.59 3102.17
2741.6 -2297.29 3103.01
2741.92 -2297.13 3104.29
2747.4 -2298.17 3118.28
2748.05 -2297.95 3116.58
2749.17 -2297.15 3109.91
2748.63 -2297 3108.1
2749.19 -2296.76 3106.43
2748.29 -2296.84 3106.61
2752.66 -2296.04 3104.88
2751.59 -2296.12 3104.2
2750.81 -2296.27 3104.32
2750.12 -2296.42 3104.77
2749.23 -2296.6 3105.28
2746.47 -2298.39 3119.78
2753.62 -2295.77 3104.55
2755.92 -2295.08 3103.7
2754.57 -2295.42 3103.85
2756.78 -2294.43 3102.01
2756.87 -2294.09 3100.67
2759.21 -2292.72 3095.27
2758.78 -2292.85 3096.47
2757.72 -2293.43 3098.63
2756.91 -2293.92 3099.97
2756.93 -2293.82 3099.46
2758.17 -2293.16 3097.69
2662.37 -2325.16 3084.82
2660.68 -2325.77 3085.29
2661.14 -2325.5 3086.26
2661.7 -2325.26 3086.51
2660.19 -2326.06 3084.34
2658.92 -2326.74 3083.19
2659.56 -2326.41 3083.68
2657.88 -2327.34 3081.66
2658.36 -2327.05 3082.97
2656.45 -2328.22 3078.26
2657.38 -2327.66 3080.2
2655.71 -2328.74 3077.19
2588.65 -2387.8 3057.28
2588.01 -2388.71 3057.08
2586.5 -2390.34 3053.46
2586.98 -2389.9 3054.64
2587.51 -2389.31 3056.16
2584.25 -2394.56 3050.39
2585.69 -2391.75 3052.78
2585.24 -2392.57 3052.23
2584.52 -2394.03 3051.48
2586.2 -2391.02 3053.85
2583.46 -2395.96 3049.82
2582.49 -2397.67 3049.08
2581.65 -2399.19 3048.62
2580.6 -2401.06 3048.01
2579.99 -2402.28 3046.82
2579.03 -2404.32 3046.55
2577.98 -2406.53 3046.56
2577.45 -2407.53 3044.94
2572.12 -2419.26 3042.39
2573.8 -2415.25 3045.35
2572.94 -2417.25 3045.11
2571.99 -2419.18 3044.72
2571.58 -2420.13 3043.63
2576.92 -2408.55 3045.52
2575.94 -2410.46 3045.26
2575.4 -2411.62 3045.49
2574.79 -2413.02 3045.41
2567.54 -2430.17 3034.73
2571.17 -2421.23 3042.2
2570.05 -2423.56 3041.98
2568.83 -2426.08 3041.91
2568.72 -2426.8 3039.77
2568.38 -2427.81 3037.74
2567.7 -2429.4 3036.6
2739.81 -2298.09 3100.31
2739.97 -2297.97 3101.38
2740.1 -2297.86 3102.35
2759.24 -2292.78 3094.39
2758.76 -2292.83 3094.57
2758.12 -2292.99 3095.91
2758.57 -2292.84 3095.46
2756.72 -2293.67 3097.84
2757 -2293.51 3097.28
2754.25 -2294.63 3099.22
2753.73 -2294.9 3099.96
2753.28 -2295.14 3100.67
2755.78 -2294.08 3098.74
2757.57 -2293.22 3096.81
2745.94 -2296.67 3102.84
2744.96 -2296.76 3103.47
2743.95 -2296.88 3103.71
2743.13 -2296.98 3103.94
2742.5 -2297.03 3104.49
2741.96 -2297.07 3105.31
2748.53 -2296.32 3102.5
2746.99 -2296.53 3102.78
2747.82 -2296.48 3103.1
2751.77 -2295.63 3101.36
2752.94 -2295.38 3101.64
2751.06 -2295.84 3101.69
2750.63 -2296.06 3102.67
2749.87 -2296.22 3103.22
2741.2 -2297.4 3103.29
2740.47 -2297.64 3103.53
2741.42 -2297.23 3104.43
2741.33 -2297.17 3105.5
2741.21 -2297.12 3106.58
2747.63 -2297.65 3114.62
2748.13 -2297.41 3112.57
2746.1 -2297.83 3116.6
2745.01 -2297.94 3117.66
2748.22 -2297.2 3110.51
2747.83 -2297.05 3108.67
2747.45 -2296.9 3107.04
2748.22 -2296.7 3105.41
2747.39 -2296.78 3105.85
2752.5 -2295.84 3103.66
2751.53 -2295.91 3102.89
2749.05 -2296.43 3103.89
2748.17 -2296.6 3104.36
2745.67 -2298.68 3121.46
2745.03 -2299.05 3123.28
2744.27 -2298.22 3119.29
2753.49 -2295.55 3103.3
2756.05 -2294.69 3102.25
2754.76 -2295.1 3102.52
2756.22 -2294.39 3101.16
2757.75 -2293.34 3098.08
2757.17 -2293.64 3098.88
2756.45 -2294.09 3100.11
2755.84 -2294.31 3100.27
2758.13 -2293.09 3097.11
2663.36 -2324.74 3085.73
2662.17 -2325.02 3087.35
2660.86 -2325.49 3087.7
2660.42 -2325.79 3086.7
2661.4 -2325.23 3088.13
2661.28 -2325.2 3088.92
2661.91 -2324.98 3088.92
2660.03 -2326.03 3085.81
2659.58 -2326.3 3085.26
2659.13 -2326.57 3084.94
2658.43 -2327.01 3084.21
2657.63 -2327.51 3082.71
2657.01 -2327.9 3080.76
2656.31 -2328.34 3079.48
2655.65 -2328.81 3078.93
2588.45 -2388.51 3059.08
2587.6 -2389.63 3058.41
2586.71 -2390.49 3055.34
2587.18 -2390.01 3056.9
2583.76 -2395.53 3050.92
2585.29 -2392.71 3053.22
2585.8 -2391.79 3053.7
2584.51 -2394.2 3052.2
2586.27 -2391.28 3054.99
2582.74 -2397.33 3050.21
2581.63 -2399.44 3050.1
2580.79 -2400.82 3049.22
2580.03 -2402.2 3048.37
2579.5 -2403.31 3047.45
2578.51 -2405.37 3047.95
2577.45 -2407.65 3047.6
2573.97 -2414.88 3046.62
2573.21 -2416.5 3046.29
2572.2 -2418.66 3045.79
2571.05 -2421 3045.44
2570.88 -2421.39 3044.38
2570.51 -2422.37 3043.01
2576.55 -2409.41 3046.54
2575.56 -2411.35 3046.84
2574.77 -2413.1 3046.87
2566.65 -2431.91 3035.17
2566.78 -2431.13 3036.97
2569.41 -2424.63 3042.88
2568.37 -2426.71 3043.24
2568.04 -2427.82 3041.55
2567.81 -2428.64 3039.53
2567.15 -2430.12 3038.24
2704.23 -2310.08 3085.26
2739.12 -2298.38 3100.94
2739.48 -2298.16 3101.69
2739.6 -2298.03 3102.92
2739.78 -2297.89 3103.71
2757.26 -2293.45 3097.77
2755.68 -2294.21 3099.38
2755.13 -2294.49 3100.04
2754.1 -2294.98 3101.04
2746.15 -2296.68 3103.74
2745.16 -2296.78 3104.32
2744.16 -2296.86 3104.45
2743.3 -2296.94 3104.91
2742.62 -2297 3105.54
2741.9 -2297.04 3106.53
2741.18 -2297.08 3107.52
2747.19 -2296.63 3104
2752.37 -2295.65 3102.43
2753.84 -2295.27 3102.26
2740.35 -2297.5 3105.09
2739.64 -2297.75 3105.33
2740.74 -2297.26 3106.4
2740.28 -2297.35 3106.78
2740.52 -2297.2 3107.8
2740.55 -2297.14 3108.55
2746.03 -2297.4 3113.48
2745.18 -2297.54 3114.98
2746.96 -2297.23 3111.39
2744.03 -2297.64 3116.04
2743.4 -2297.87 3117.53
2746.72 -2297.09 3109.57
2746.55 -2296.98 3108.13
2746.33 -2296.92 3107.18
2746.48 -2296.83 3106.2
2747.34 -2296.68 3104.81
2746.46 -2296.75 3105.21
2743.49 -2299.39 3124.8
2743.65 -2298.54 3121.04
2742.79 -2298.87 3122.53
2742.79 -2298.23 3119.44
2755.18 -2294.71 3101.25
2757.7 -2293.27 3097.48
2664.72 -2324.25 3087.34
2663.11 -2324.67 3088.01
2666.15 -2323.69 3089.4
2662.87 -2324.63 3089.64
2660.81 -2325.41 3088.83
2661.23 -2325.15 3089.76
2660.3 -2325.74 3087.98
2661.79 -2324.94 3089.97
2661.61 -2324.96 3090.63
2662.66 -2324.64 3090.65
2659.91 -2325.98 3087.49
2659.5 -2326.24 3087.09
2659.05 -2326.54 3086.63
2658.3 -2327.08 3085
2657.42 -2327.67 3083.28
2656.64 -2328.2 3081.9
2655.93 -2328.68 3081.4
2587.15 -2390.53 3058.99
2586.82 -2390.77 3057.55
2583.82 -2395.73 3052.15
2583.21 -2396.67 3051.04
2585.74 -2392.25 3054.71
2584.87 -2394.02 3054.41
2584.47 -2394.6 3053.27
2586.39 -2391.37 3056.61
2582.16 -2398.64 3051.35
2581 -2400.86 3051.56
2580.65 -2401.25 3050.38
2579.92 -2402.43 3049.73
2579.29 -2403.76 3048.74
2577.96 -2406.55 3048.94
2576.97 -2408.73 3048.79
2573.89 -2415.1 3047.89
2572.76 -2417.49 3047.18
2571.6 -2419.88 3046.47
2570.51 -2422.08 3046.17
2569.82 -2423.5 3045.48
2569.93 -2423.3 3044.71
2569.89 -2423.47 3043.83
2575.82 -2410.96 3048.33
2574.73 -2413.17 3048.35
2565.73 -2434.01 3035.05
2566.04 -2432.64 3037.14
2566.06 -2432.3 3038.53
2568.95 -2425.4 3043.8
2568.08 -2427.27 3044.33
2567.43 -2428.92 3042.78
2567.23 -2429.64 3040.84
2566.55 -2431.15 3039.41
2705.2 -2309.84 3085.64
2705.76 -2309.66 3086.81
2703.7 -2310.16 3086.33
2704.29 -2309.9 3087.83
2704.45 -2309.89 3086.91
2705.33 -2309.67 3087.16
2738.79 -2298.46 3102.23
2739.37 -2297.91 3104.89
2739.05 -2298.09 3104.53
2746.27 -2296.71 3104.44
2744.26 -2296.88 3105.32
2745.31 -2296.82 3105.2
2743.42 -2296.94 3105.95
2742.58 -2296.98 3106.68
2741.77 -2297.01 3107.61
2741.06 -2297.04 3108.63
2740.52 -2297.1 3109.32
2739.61 -2297.54 3107.12
2739.05 -2297.78 3107.02
2740.08 -2297.27 3108.1
2739.62 -2297.36 3108.37
2739.66 -2297.27 3109.3
2739.88 -2297.19 3110
2742.21 -2299.7 3126.09
2744.18 -2297.35 3113.84
2745.08 -2297.25 3112.6
2743.39 -2297.44 3114.88
2745.01 -2297.12 3111.21
2742.81 -2297.67 3116.34
2742.29 -2297.94 3117.88
2744.98 -2297.03 3109.67
2744.99 -2296.99 3108.56
2745.19 -2296.94 3107.38
2745.37 -2296.86 3106.23
2741.32 -2299.1 3123.45
2741.78 -2298.61 3121.28
2741.55 -2298.28 3119.62
2664.14 -2324.28 3089.78
2665.36 -2323.82 3091.37
2666.73 -2323.34 3092.7
2663.64 -2324.32 3091.32
2661.1 -2325.17 3090.5
2660.61 -2325.45 3089.56
2661.45 -2325.01 3091.28
2662.29 -2324.72 3091.4
2661.9 -2324.84 3092.03
2662.91 -2324.5 3091.99
2660 -2325.8 3088.97
2659.53 -2326.08 3088.75
2658.7 -2326.72 3087.24
2657.96 -2327.29 3085.6
2657.28 -2327.79 3084.08
2656.71 -2328.19 3083.83
2656.06 -2328.66 3083.96
2583.14 -2397.12 3052.47
2585.35 -2393.49 3056.03
2586.11 -2392.28 3057.58
2579.79 -2402.78 3052.47
2580.02 -2402.6 3051.37
2579.32 -2403.87 3050.53
2578.65 -2405.14 3049.71
2577.75 -2407.17 3050.32
2576.93 -2409.02 3050.89
2576.03 -2410.8 3049.98
2573.9 -2415.17 3049.44
2573.05 -2416.89 3048.26
2571.99 -2419.11 3047.43
2570.96 -2421.26 3047.06
2569.44 -2424.3 3045.85
2568.87 -2425.49 3044.71
2568.64 -2425.98 3045.27
2569.86 -2423.49 3046.6
2574.93 -2412.86 3049.55
2565.18 -2434.53 3037.35
2564.95 -2435.61 3035.58
2564.99 -2434.61 3038.84
2565.49 -2433.34 3040
2567.84 -2427.71 3045.15
2567 -2429.65 3044.39
2566.54 -2430.84 3043.09
2566.12 -2431.83 3041.11
2703.39 -2310.22 3088.13
2704.74 -2309.75 3088.12
2705.28 -2309.66 3088.52
2704.9 -2309.77 3089.78
2704.46 -2309.9 3089.49
2667.18 -2323.17 3094.38
2668.78 -2322.67 3095.05
2738.14 -2298.71 3102.96
2738.57 -2298.4 3103.87
2738.48 -2298.21 3105.69
2744.25 -2296.93 3106.49
2743.18 -2296.96 3107.27
2742.3 -2296.97 3107.88
2741.64 -2296.98 3108.62
2741.05 -2297.02 3109.49
2740.49 -2297.11 3110.21
2739.78 -2297.21 3110.59
2739.21 -2297.47 3108.81
2738.4 -2297.86 3108.6
2739.01 -2297.46 3109.8
2739.06 -2297.4 3110.34
2739.1 -2297.33 3111.16
2740.9 -2300 3127.19
2740.33 -2299.48 3125
2739.59 -2300.31 3128.11
2743.77 -2297.21 3112.72
2742.93 -2297.31 3113.91
2742.31 -2297.47 3115.3
2743.62 -2297.09 3111.46
2741.88 -2297.7 3116.67
2741.41 -2297.98 3118.11
2743.45 -2297.02 3110.27
2743.54 -2296.97 3108.96
2744.08 -2296.95 3107.59
2739.81 -2298.98 3122.84
2740.49 -2298.62 3121.21
2740.67 -2298.29 3119.64
2664.76 -2323.91 3092.66
2665.48 -2323.66 3094.17
2663.82 -2324.18 3092.81
2660.96 -2325.23 3091.29
2661.25 -2325.1 3091.93
2660.52 -2325.45 3090.38
2661.63 -2324.94 3092.64
2662.47 -2324.64 3092.65
2662.12 -2324.76 3093.34
2663.14 -2324.38 3093.26
2660.06 -2325.69 3090.25
2658.89 -2326.47 3089.32
2658.27 -2326.98 3087.79
2659.36 -2326.1 3090.6
2657.53 -2327.59 3085.94
2656.96 -2328.03 3085.94
2656.02 -2328.72 3086.25
2579.26 -2404.16 3052.08
2579.51 -2404.16 3053.91
2578.65 -2405.33 3051.18
2577.84 -2407.16 3052.03
2576.1 -2410.83 3051.89
2575.13 -2412.69 3051
2574.22 -2414.64 3050.97
2573.16 -2416.87 3050.46
2572.54 -2418.08 3049.14
2571.51 -2420.2 3047.95
2570.43 -2422.48 3047.82
2568.59 -2426.14 3046.3
2567.74 -2427.93 3046.11
2569.26 -2424.85 3047.27
2564.42 -2436.06 3037.55
2564.35 -2436.84 3035.7
2564.34 -2435.64 3040.38
2563.94 -2436.81 3038.74
2565 -2434.12 3041.75
2566.81 -2429.96 3045.47
2566.05 -2431.7 3044.7
2565.55 -2432.9 3043.04
2705.5 -2309.64 3090.17
2666.82 -2323.27 3096.27
2668.88 -2322.67 3097.43
2738 -2298.55 3104.81
2737.29 -2299.08 3103.61
2738.04 -2298.23 3107.14
2738.33 -2297.99 3107.92
2742.74 -2296.95 3108.4
2741.92 -2296.97 3109.16
2741.47 -2296.99 3109.76
2741.08 -2297.03 3110.26
2740.37 -2297.13 3110.95
2739.6 -2297.23 3111.23
2738.45 -2297.67 3109.95
2737.9 -2297.96 3109.85
2737.94 -2297.89 3110.38
2738.57 -2297.57 3110.78
2738.71 -2297.49 3111.51
2738.94 -2297.4 3112.37
2738.98 -2299.78 3125.95
2738.65 -2299.29 3123.99
2738.11 -2300.61 3128.81
2737.45 -2300.06 3126.61
2742.66 -2297.18 3112.84
2741.93 -2297.32 3114.3
2741.29 -2297.51 3115.67
2742.64 -2297.09 3111.74
2741.19 -2297.75 3116.99
2740.51 -2298.01 3118.29
2742.47 -2297.01 3110.61
2742.41 -2296.95 3109.45
2738.6 -2298.87 3122.1
2739.39 -2298.56 3120.81
2739.34 -2298.36 3119.9
2665.48 -2323.64 3095.65
2664.27 -2324 3094.1
2660.78 -2325.32 3092.37
2661.42 -2325.04 3093.22
2661.81 -2324.89 3094.04
2662.84 -2324.48 3094.04
2662.66 -2324.57 3094.88
2663.99 -2324.1 3094.85
2660.12 -2325.64 3091.44
2658.54 -2326.7 3089.76
2657.78 -2327.33 3088.06
2659.39 -2326.09 3091.86
2657.25 -2327.75 3088.06
2656.65 -2328.23 3088.29
2655.14 -2329.43 3087.77
2578.64 -2405.68 3053.21
2574.55 -2414.25 3052.77
2573.54 -2416.36 3052.33
2572.04 -2419.3 3050.02
2572.56 -2418.49 3051.93
2571.07 -2421.35 3049.16
2569.99 -2423.59 3048.78
2568.21 -2427.21 3047.93
2567.62 -2428.32 3047.16
2566.76 -2430.07 3046.51
2568.98 -2425.69 3048.46
2563.58 -2437.88 3037.19
2564.03 -2436.11 3041.83
2563.22 -2437.88 3040.83
2563.36 -2437.78 3039.6
2562.77 -2439.37 3037.97
2564.27 -2435.45 3043.13
2565.96 -2431.76 3045.98
2565.03 -2433.62 3045.24
2564.97 -2433.88 3044.12
2667.88 -2322.94 3098.71
2666.49 -2323.36 3097.57
2669.12 -2322.58 3100.03
2737.22 -2298.93 3105.2
2737.69 -2298.16 3109.1
2741.84 -2296.98 3110.16
2741.35 -2297.03 3110.95
2739.79 -2297.22 3112.03
2738.18 -2297.69 3111.66
2737.91 -2297.85 3111.17
2737.41 -2298.1 3111.04
2737.5 -2297.99 3112.1
2738.64 -2297.49 3112.81
2738.72 -2297.5 3113.95
2737.35 -2299.65 3125.05
2737.57 -2299.26 3123.52
2735.84 -2300.39 3127.36
2736.34 -2300.94 3129.62
2735.31 -2299.95 3125.6
2741.88 -2297.19 3113.2
2741.1 -2297.32 3114.52
2740.52 -2297.46 3115.45
2740.58 -2297.69 3116.72
2742.08 -2297.1 3112.12
2739.8 -2298 3118.23
2742.04 -2297.04 3111.1
2737.66 -2298.79 3121.54
2738.29 -2298.41 3119.94
2737.43 -2298.71 3121.08
2665.25 -2323.72 3096.55
2660.83 -2325.33 3093.5
2661.53 -2325.03 3094.6
2662.34 -2324.73 3095.53
2663.93 -2324.14 3095.78
2663.73 -2324.22 3096.44
2660.09 -2325.7 3092.58
2658.71 -2326.56 3091.2
2658.13 -2327.04 3090.1
2659.07 -2326.33 3092.17
2659.41 -2326.13 3093.07
2657.7 -2327.4 3090.25
2657.26 -2327.73 3090.46
2655.98 -2328.78 3089.03
2559.38 -2446.53 3032.87
2571.52 -2420.77 3051.54
2570.57 -2422.79 3050.72
2569.39 -2425.21 3050.36
2568.3 -2427.41 3049.91
2567.27 -2429.22 3048.6
2566.64 -2430.39 3047.65
2565.92 -2431.89 3047.09
2562.87 -2439.5 3036.09
2563.28 -2437.68 3042.13
2562.33 -2439.68 3041.56
2562.4 -2439.78 3039.95
2561.73 -2441.35 3038.62
2562 -2441.16 3036.61
2564.17 -2435.56 3044.17
2563.25 -2437.62 3043.11
2565.11 -2433.46 3046.24
2564.42 -2434.95 3045.43
2552.79 -2460.89 3029.23
2552.39 -2461.68 3029.38
2552.13 -2462.31 3029.01
2551.88 -2463.06 3028.41
2667.55 -2323.05 3099.81
2668.55 -2322.74 3101.02
2666.38 -2323.41 3098.5
2737.1 -2298.71 3107.47
2736.41 -2299.3 3105.92
2736.92 -2298.4 3110.76
2741.51 -2297.06 3111.64
2740.82 -2297.11 3112.24
2740.24 -2297.18 3112.31
2739.34 -2297.32 3113.37
2737.78 -2297.82 3112.97
2736.74 -2298.3 3112.98
2736.76 -2298.34 3112.39
2736.98 -2298.14 3113.89
2738.11 -2297.66 3113.6
2738.2 -2297.69 3114.46
2738.17 -2297.73 3114.98
2738.02 -2297.8 3115.73
2735.96 -2299.64 3124.6
2736.57 -2299.22 3123.08
2734.34 -2300.81 3128.49
2733.88 -2300.29 3126.48
2734.67 -2301.41 3130.62
2733.77 -2299.94 3125.05
2741.25 -2297.2 3113.47
2740.6 -2297.33 3114.39
2739.9 -2297.66 3116.6
2739.95 -2297.46 3115.37
2741.45 -2297.11 3112.43
2739.17 -2297.98 3118.12
2736.47 -2298.87 3121.43
2736.23 -2299.08 3122.34
2665.21 -2323.79 3097.71
2660.78 -2325.38 3094.44
2661.7 -2325.03 3095.71
2662.74 -2324.63 3096.72
2663.49 -2324.34 3096.91
2664.67 -2324.03 3098.25
2660.1 -2325.74 3093.69
2658.38 -2326.86 3091.62
2658.78 -2326.57 3092.64
2659.11 -2326.37 3093.47
2659.45 -2326.18 3094.29
2657.96 -2327.22 3091.84
2656.91 -2328.04 3090.91
2657.78 -2327.41 3092.66
2655.55 -2329.22 3090.67
2561.11 -2442.85 3037.46
2560.48 -2444.13 3036.03
2559.75 -2445.71 3034.56
2558.56 -2447.93 3032.79
2558.77 -2447.4 3034.57
2569.02 -2426.4 3052.3
2568.03 -2428.45 3052.25
2567.24 -2429.58 3050.26
2566.29 -2431.31 3048.87
2565.41 -2432.97 3047.81
2562.33 -2439.56 3042.88
2561.52 -2441.29 3042.06
2561.59 -2441.36 3040.5
2560.93 -2442.78 3039.71
2563.53 -2436.94 3044.61
2562.66 -2438.88 3043.89
2564.62 -2434.51 3046.73
2563.78 -2436.41 3045.8
2557.27 -2450.77 3031.9
2556.65 -2452.21 3032.42
2557.68 -2449.78 3031.97
2558.1 -2449.03 3031.96
2553.51 -2459.1 3032.18
2552.76 -2460.6 3031.15
2552.33 -2461.45 3031.02
2551.91 -2462.28 3031.13
2551.75 -2462.8 3030.4
2551.52 -2463.55 3029.94
2551.18 -2464.42 3029.82
2667.3 -2323.17 3100.78
2668.12 -2322.92 3101.89
2668.99 -2322.65 3102.56
2666.49 -2323.43 3099.89
2670.13 -2322.23 3103.27
2736.69 -2298.59 3110.18
2736.51 -2298.95 3108.3
2735.51 -2299.69 3107.1
2718.37 -2305.43 3109.15
2718.21 -2305.46 3107.83
2718.02 -2305.57 3106.5
2717.04 -2305.86 3105.69
2736.14 -2298.68 3112.47
2740.76 -2297.2 3113.28
2738.85 -2297.58 3114.95
2739.22 -2297.47 3114.57
2736.96 -2298.12 3114.59
2736.97 -2298.11 3115.1
2735.77 -2298.7 3114.41
2735.75 -2298.66 3115.03
2735.85 -2298.71 3113.77
2736.24 -2298.43 3114.76
2736.05 -2298.48 3115.62
2737.28 -2298 3115.48
2737.22 -2298.03 3115.98
2737.07 -2298.08 3116.56
2736.98 -2298.15 3117.07
2736.93 -2298.23 3117.58
2737.82 -2297.91 3116.77
2734.63 -2299.57 3123.93
2732.46 -2301.22 3129.22
2732.65 -2300.72 3127.62
2732.52 -2300.41 3126.43
2733.23 -2301.93 3131.86
2732.44 -2300.08 3125.06
2739.26 -2297.68 3116.66
2738.39 -2298.07 3118.31
2736.82 -2298.63 3120.4
2735.21 -2299.1 3121.98
2734.71 -2299.36 3123.06
2665.87 -2323.65 3099.75
2660.95 -2325.39 3095.63
2662.21 -2324.9 3097.01
2663.39 -2324.49 3098.26
2664.01 -2324.3 3098.53
2665.13 -2323.96 3100.13
2660.09 -2325.81 3094.82
2659.77 -2326.06 3095.26
2658.38 -2326.92 3092.93
2658.79 -2326.66 3094.05
2659.16 -2326.44 3094.61
2659.43 -2326.39 3095.79
2656.78 -2328.22 3092.06
2657.74 -2327.53 3093.81
2658.28 -2327.09 3094.02
2655.52 -2329.38 3092.66
2560.2 -2444.37 3038.56
2559.41 -2446.05 3036.91
2558.16 -2448.68 3033.41
2558.53 -2447.55 3037.09
2558.17 -2448.45 3035.19
2567.11 -2430.31 3052.28
2566.35 -2431.46 3050.25
2565.39 -2433.2 3049.11
2564.71 -2434.44 3047.88
2561.93 -2440.35 3043.74
2561.34 -2441.59 3043.12
2560.72 -2442.8 3042.32
2560.9 -2442.57 3041.44
2560.02 -2444.38 3040.41
2562.76 -2438.67 3045.09
2562.11 -2440.07 3044.96
2563.92 -2436.18 3046.98
2562.91 -2438.4 3046.34
2557.47 -2450.04 3033.39
2557.03 -2451.06 3033.76
2556.31 -2452.63 3034.31
2557.82 -2449.35 3033.33
2555.65 -2454 3035.29
2554.88 -2455.68 3035.02
2553.98 -2457.61 3034.98
2553.41 -2458.94 3034.16
2552.68 -2460.49 3032.81
2552.07 -2461.74 3032.33
2551.47 -2463.07 3032.29
2551.71 -2462.43 3032.88
2551.38 -2463.57 3031.3
2551.04 -2464.37 3031.56
2550.61 -2465.79 3030.93
2706.71 -2309.23 3096.65
2707.52 -2308.94 3097.59
2708.97 -2308.57 3097.73
2708.61 -2308.52 3098.89
2705.42 -2309.57 3098.68
2706.03 -2309.32 3098.57
2706.46 -2309.22 3097.82
2704.55 -2309.85 3099.94
2705.14 -2309.61 3099.8
2667.7 -2323.09 3102.4
2666.87 -2323.36 3101.71
2668.72 -2322.72 3103.33
2669.74 -2322.33 3104.01
2671.31 -2321.77 3103.96
2671.08 -2321.76 3105.14
2736.19 -2298.89 3110.21
2735.51 -2299.5 3108.95
2734.28 -2300.25 3109.4
2718.49 -2305.45 3110.79
2716.34 -2305.87 3108.8
2716.15 -2305.91 3110.3
2716.01 -2305.96 3108.1
2715.73 -2306.09 3107.31
2714.92 -2306.41 3106.14
2713.25 -2307.02 3104.41
2735.34 -2299.01 3114.16
2738.4 -2297.76 3116.3
2739.01 -2297.62 3115.78
2735.88 -2298.54 3116.24
2735.75 -2298.59 3116.77
2735.31 -2298.96 3114.83
2735.34 -2298.84 3115.45
2735.34 -2298.78 3116
2736.21 -2298.42 3116.94
2735.89 -2298.54 3117.6
2735.73 -2298.62 3118.15
2735.74 -2298.65 3118.65
2736.43 -2298.48 3118.66
2735.56 -2298.73 3119.34
2736.93 -2298.33 3118.43
2732.71 -2299.78 3123.96
2731.07 -2301.75 3130.4
2731.01 -2301.16 3128.46
2730.92 -2300.79 3127.17
2730.83 -2300.49 3126.03
2731.41 -2302.32 3132.5
2730.65 -2300.22 3124.94
2738.6 -2297.77 3116.95
2737.41 -2298.34 3119.03
2735.59 -2298.86 3120.96
2733.81 -2299.37 3122.57
2733.47 -2299.54 3123.23
2666.17 -2323.59 3101.48
2661.74 -2325.2 3097.41
2661.25 -2325.39 3096.98
2662.89 -2324.78 3098.65
2663.96 -2324.5 3100.29
2664.62 -2324.23 3100.68
2665.75 -2323.82 3102.01
2660.25 -2325.88 3096.31
2659.92 -2326.16 3096.8
2659.01 -2326.68 3095.51
2658.6 -2326.97 3095.26
2659.31 -2326.68 3097.02
2659.77 -2326.43 3097.62
2656.61 -2328.49 3093.6
2658.07 -2327.42 3095.3
2656.95 -2328.36 3095.06
2655.62 -2329.5 3094.7
2559.11 -2446.16 3039.28
2558.43 -2447.42 3039.53
2557.96 -2448.6 3037.46
2557.75 -2449.29 3035.29
2566.3 -2432.03 3052.17
2565.46 -2433.41 3050.44
2564.68 -2434.79 3049.09
2564.05 -2436.06 3047.95
2561.26 -2441.77 3044.38
2560.64 -2442.95 3043.45
2559.72 -2444.64 3042.67
2559.87 -2444.46 3041.68
2558.98 -2446.12 3041.1
2562.35 -2439.66 3046.21
2561.51 -2441.33 3045.67
2563.11 -2438.15 3047.69
2562.5 -2439.51 3047.78
2557.27 -2450.26 3035.41
2556.49 -2451.97 3035.73
2555.57 -2453.79 3036.87
2554.48 -2456.13 3036.47
2553.48 -2458.5 3035.8
2552.88 -2459.83 3035.05
2552.21 -2461.3 3033.98
2551.05 -2464.15 3032.73
2551.14 -2463.83 3033.9
2551.37 -2463.1 3034.36
2551.74 -2462.23 3034.63
2550.56 -2465.4 3032.76
2550.18 -2466.88 3031.91
2711.46 -2307.57 3102.45
2707.31 -2308.9 3098.74
2708.32 -2308.5 3099.96
2709.99 -2308.1 3099.96
2709.46 -2308.14 3100.84
2706.09 -2309.14 3100.76
2706.62 -2308.96 3100.42
2707.05 -2308.88 3099.81
2704.43 -2309.85 3101.94
2704.95 -2309.63 3101.69
2705.56 -2309.36 3101.35
2667.5 -2323.16 3103.27
2668.34 -2322.85 3103.77
2666.71 -2323.48 3103.04
2669.4 -2322.39 3105.01
2670.32 -2322 3105.58
2672.34 -2321.42 3104.13
2672.61 -2321.18 3106.02
2672.59 -2321.1 3107.3
2671.5 -2321.5 3106.84
2735.52 -2299.19 3111.78
2734.9 -2299.45 3113.21
2734.75 -2299.84 3110.75
2717.82 -2305.75 3114
2717.09 -2305.81 3112.49
2715.13 -2306.15 3109.74
2715.1 -2306.21 3112.18
2714.43 -2306.33 3111.28
2714.58 -2306.31 3108.75
2714.25 -2306.46 3107.46
2713.17 -2306.88 3105.93
2711.57 -2307.42 3104.29
2734.8 -2299.3 3114.52
2734.51 -2299.63 3113.81
2737.83 -2298.01 3117.61
2735.25 -2298.77 3117.18
2735.03 -2298.83 3117.78
2734.86 -2298.99 3116.16
2734.73 -2298.99 3116.97
2734.91 -2298.81 3118.64
2734.75 -2298.86 3119.3
2734.33 -2298.94 3119.9
2735.23 -2298.8 3119.98
2733.9 -2299.04 3120.52
2736.32 -2298.59 3119.77
2729.59 -2303.18 3134.46
2729.73 -2302.68 3132.78
2731.53 -2299.89 3123.88
2729.66 -2302 3130.53
2729.67 -2301.37 3128.53
2729.53 -2300.9 3126.91
2729.55 -2300.7 3126.14
2730.22 -2300.15 3124.34
2729.45 -2300.58 3125.54
2734.34 -2299.07 3121.4
2731.73 -2299.79 3123.42
2732.18 -2299.65 3122.91
2660.96 -2325.6 3097.37
2661.48 -2325.55 3098.62
2662.44 -2325.12 3099.24
2663.66 -2324.7 3100.8
2664.65 -2324.37 3102.09
2665.38 -2324.07 3102.61
2666.2 -2323.75 3103.55
2660.65 -2325.94 3098.17
2660.31 -2326.27 3098.77
2658.83 -2327.01 3096.75
2658.38 -2327.34 3096.54
2659.23 -2327.05 3098.86
2659.81 -2326.77 3099.55
2657.37 -2328.23 3096.65
2558.34 -2447.32 3041.46
2557.85 -2448.54 3039.91
2557.44 -2449.64 3037.79
2564.48 -2435.63 3050.41
2563.74 -2437.02 3049.12
2560.79 -2442.73 3045.59
2560.54 -2443.15 3044.39
2559.54 -2444.91 3043.47
2558.86 -2446.23 3042.3
2558.67 -2446.5 3043.1
2561.83 -2440.91 3047.23
2560.93 -2442.61 3046.88
2563 -2438.76 3049.38
2556.58 -2451.6 3037.33
2555.61 -2453.44 3038.61
2554.69 -2455.44 3037.83
2553.81 -2457.48 3037.45
2552.94 -2459.53 3037
2552.14 -2461.32 3036.48
2550.72 -2464.82 3034.17
2551.16 -2463.51 3036.31
2550.87 -2464.29 3035.62
2551.51 -2462.62 3036.76
2550.31 -2465.89 3035.01
2549.97 -2467.09 3034.14
2710.16 -2307.86 3102.57
2707.98 -2308.52 3100.79
2708.94 -2308.2 3101.74
2706.5 -2308.94 3102.12
2707.04 -2308.76 3101.78
2707.59 -2308.59 3101.42
2704.75 -2309.74 3103.52
2705.35 -2309.45 3102.95
2705.94 -2309.17 3102.54
2667.86 -2323.02 3104.52
2668.71 -2322.67 3104.93
2667.13 -2323.34 3104.41
2669.83 -2322.14 3106.78
2670.92 -2321.68 3107.38
2673.52 -2320.96 3105.44
2674.1 -2320.53 3108.28
2674.5 -2320.46 3107.39
2672.48 -2321.08 3108.58
2673.77 -2320.59 3109.18
2734.35 -2300 3111.98
2733.9 -2300.21 3112.66
2732.78 -2300.92 3112.74
2716.67 -2306.11 3115.08
2716.7 -2306.13 3115.81
2715.39 -2306.28 3114.02
2713.92 -2306.44 3109.93
2713.83 -2306.61 3113.7
2713.25 -2306.67 3112.06
2713.32 -2306.59 3109.11
2713.25 -2306.66 3107.97
2711.97 -2307.19 3106.08
2710.12 -2307.81 3103.88
2734.68 -2299.23 3115.28
2734.39 -2299.57 3114.62
2733.67 -2300.24 3113.56
2734.53 -2298.97 3118.01
2734.36 -2298.97 3118.58
2734.29 -2299.21 3116.52
2734.01 -2299.2 3117.52
2734.03 -2299.11 3118.05
2733.94 -2299.02 3119.3
2733.15 -2299.2 3120.51
2732.68 -2299.35 3121.32
2733.58 -2299.16 3121.24
2732.99 -2299.41 3122.22
2732.21 -2299.48 3121.94
2726.62 -2303.75 3134.45
2728.09 -2303.21 3133.65
2728.17 -2302.44 3131.13
2728.31 -2301.76 3129.09
2728.34 -2301.25 3127.55
2728.3 -2301.01 3126.7
2728.12 -2300.85 3126.04
2729.27 -2300.48 3124.96
2730.3 -2300.04 3123.76
2727.94 -2300.73 3125.46
2730.51 -2299.92 3123.2
2661.14 -2325.88 3099.42
2662.15 -2325.45 3100.23
2663.35 -2324.99 3101.44
2664.43 -2324.59 3102.78
2665.15 -2324.29 3103.66
2666.01 -2323.9 3104.34
2667.12 -2323.37 3105.25
2660.9 -2326.32 3100.87
2660.35 -2326.67 3100.84
2658.66 -2327.44 3098.56
2658.01 -2327.93 3098.21
2659.28 -2327.48 3101.21
2658.61 -2327.88 3100.74
2659.79 -2327.28 3102.09
2558.11 -2447.57 3042.7
2557.7 -2448.52 3041.84
2557.26 -2449.62 3040.55
2556.64 -2451.22 3039.27
2559.94 -2444.39 3045.91
2559.69 -2444.69 3044.74
2558.72 -2446.43 3043.88
2558.18 -2447.39 3043.78
2557.77 -2448.22 3043.43
2559.99 -2444.55 3047.31
2555.78 -2452.96 3040.22
2554.84 -2454.97 3039.42
2554 -2456.87 3039.2
2553.15 -2458.88 3038.72
2552.13 -2461.07 3038.88
2551.35 -2462.64 3038.96
2550.47 -2465.15 3036.54
2550.73 -2464.33 3037.57
2550.98 -2463.52 3038.68
2550 -2466.48 3036.89
2549.56 -2467.96 3036.27
2708.71 -2308.22 3102.65
2707.51 -2308.56 3103.28
2706.99 -2308.77 3103.62
2708.01 -2308.41 3102.87
2704.23 -2310.08 3104.85
2705.78 -2309.31 3104.42
2705.53 -2309.53 3105.97
2706.42 -2309.01 3103.95
2668.15 -2322.87 3105.78
2668.91 -2322.54 3106.25
2670.13 -2322.01 3108.22
2671.29 -2321.52 3108.86
2672.36 -2321.09 3109.48
2675.27 -2320.35 3106.26
2675.77 -2319.92 3109.39
2675.24 -2320.05 3110.14
2676.21 -2319.86 3108.33
2673.68 -2320.57 3110.22
2674.98 -2320.09 3110.99
2676.86 -2319.83 3106.81
2731.74 -2301.22 3114.34
2732.81 -2300.74 3113.86
2732.71 -2300.6 3114.59
2718.11 -2305.78 3117.6
2717.08 -2306.05 3116.91
2716.21 -2306.24 3116.39
2731.22 -2301.42 3114.67
2714.46 -2306.6 3115.7
2714.65 -2306.5 3114.89
2714.23 -2306.66 3116.29
2712.94 -2306.71 3110.65
2713.28 -2306.8 3114.76
2712.66 -2306.9 3113.67
2712.23 -2306.97 3112.54
2712.41 -2306.84 3108.96
2712.31 -2306.89 3110.44
2711.76 -2307.16 3107.33
2710.49 -2307.66 3105.35
2734.21 -2299.45 3115.52
2733.9 -2299.83 3114.78
2733.61 -2299.18 3118.5
2733.33 -2299.19 3119.12
2733.67 -2299.45 3116.76
2733.09 -2299.43 3117.96
2733.08 -2299.32 3118.57
2732.71 -2299.26 3120.02
2731.07 -2299.65 3121.79
2731.46 -2299.55 3121.41
2730.42 -2299.79 3122.21
2731.6 -2299.64 3122.45
2730.12 -2299.89 3122.64
2725.23 -2304.26 3135.16
2725.4 -2303.66 3133.28
2726.67 -2302.99 3132
2726.97 -2302.25 3129.87
2727.31 -2301.77 3128.64
2727.41 -2301.42 3127.65
2727.23 -2301.24 3126.99
2729.17 -2300.37 3124.38
2727.87 -2300.64 3124.96
2727.02 -2301.05 3125.99
2729.91 -2300.01 3123.15
2661.66 -2325.96 3101.48
2662.93 -2325.36 3102.24
2664.09 -2324.86 3103.28
2664.74 -2324.57 3104.29
2665.87 -2324.02 3105.08
2667.18 -2323.36 3106.22
2668.11 -2322.92 3106.98
2660.49 -2326.95 3102.83
2661.58 -2326.34 3103.35
2557.43 -2448.97 3043.09
2557.15 -2449.64 3042.15
2556.63 -2450.98 3041.07
2558.81 -2446.31 3044.78
2558.9 -2446.25 3045.8
2558.09 -2447.59 3044.59
2557.58 -2448.6 3044.05
2557.14 -2449.54 3043.59
2559.16 -2446.08 3047.2
2556.1 -2452.2 3041.82
2555.19 -2454.14 3041.26
2554.2 -2456.28 3040.7
2553.23 -2458.49 3040.29
2552.4 -2460.26 3040.39
2551.51 -2462.04 3040.26
2550.74 -2463.73 3040.31
2550.96 -2463.14 3040.63
2550.08 -2465.84 3038.32
2550.46 -2464.49 3040.33
2550.41 -2464.78 3039.15
2549.58 -2467.34 3038.29
2548.96 -2469.43 3037.77
2548.88 -2470.06 3036.15
2547.39 -2474.32 3034.64
2709.12 -2308.08 3104.32
2708.24 -2308.36 3105.29
2708.67 -2308.22 3104.92
2707.76 -2308.51 3105.45
2706.65 -2309 3106.04
2707.2 -2308.75 3105.61
2705.86 -2309.65 3108.39
2707.31 -2308.87 3107.66
2669.17 -2322.44 3107.93
2671.45 -2321.44 3110.04
2670.64 -2321.79 3109.83
2672.63 -2320.95 3110.95
2673.49 -2320.61 3111.02
2677.56 -2319.28 3110.47
2676.94 -2319.44 3111.17
2676.73 -2319.46 3111.97
2677.87 -2319.33 3109.23
2675.02 -2320.05 3112.08
2676.35 -2319.58 3112.53
2732.54 -2300.52 3115.27
2733.63 -2299.74 3115.7
2718.74 -2305.59 3117.95
2717.05 -2306.05 3117.98
2716.42 -2306.19 3117.46
2715.72 -2306.34 3116.99
2714.04 -2306.69 3116.85
2730.63 -2301.61 3115.07
2732.33 -2300.5 3115.74
2731.39 -2301.13 3115.44
2712.92 -2306.91 3115.54
2712.64 -2306.98 3116.24
2712.26 -2307.05 3114.7
2711.83 -2307.13 3113.9
2711.76 -2307.13 3112.32
2711.7 -2307.11 3110.27
2711.28 -2307.3 3108.21
2710.23 -2307.71 3106.31
2733.67 -2299.57 3116.26
2732.62 -2299.39 3119.06
2732.25 -2299.39 3119.68
2733.06 -2299.66 3117.17
2732.56 -2299.67 3117.91
2730.89 -2299.66 3120.99
2729.49 -2300.02 3122.21
2729.15 -2300.16 3122.78
2728.9 -2300.28 3123.3
2723.78 -2304.7 3135.37
2723.94 -2304.18 3133.74
2725.75 -2302.78 3130.77
2724.4 -2303.39 3131.64
2726.06 -2302.06 3128.82
2726.34 -2301.7 3127.9
2726.12 -2301.58 3127.23
2726.11 -2301.38 3126.37
2725.43 -2301.65 3126.74
2725.9 -2301.32 3125.87
2727.6 -2300.61 3124.29
2662.92 -2325.58 3103.55
2664.06 -2325.02 3104.6
2664.83 -2324.67 3105.75
2665.68 -2324.15 3105.69
2666.88 -2323.52 3106.88
2667.9 -2323.09 3108.87
2668.22 -2322.91 3108.45
2669.46 -2322.35 3109.3
2556.85 -2450.28 3042.62
2558.15 -2447.6 3045.57
2558.24 -2447.72 3046.75
2557.6 -2448.64 3045.1
2557.15 -2449.59 3044.78
2556.66 -2450.68 3044.38
2556.39 -2451.33 3043.15
2558.5 -2447.58 3048.34
2544.06 -2486.01 3028.8
2543.82 -2487.05 3027.98
2543.67 -2488.07 3026.99
2555.52 -2453.37 3042.82
2554.71 -2455.17 3042.06
2553.21 -2458.4 3041.33
2553.74 -2457.26 3042.2
2552.38 -2460.14 3041.6
2551.48 -2462.01 3041.23
2550.27 -2464.7 3041.12
2550.5 -2464.08 3041.6
2551.02 -2462.91 3041.56
2549.86 -2465.79 3040.32
2549.49 -2467.05 3039.9
2549.75 -2465.92 3041.04
2548.79 -2469.22 3039.69
2548.33 -2470.87 3038.5
2547.97 -2472.2 3037.16
2547.29 -2474.01 3036.43
2547.08 -2475.03 3034.4
2546.94 -2474.93 3036.6
2546.83 -2476.04 3034
2543.36 -2489.18 3027.43
2709.29 -2308.06 3107.35
2709.87 -2307.84 3107.01
2708.54 -2308.34 3107.4
2707.3 -2309.03 3109.25
2708.3 -2308.52 3109.03
2679.49 -2318.88 3109.68
2672.29 -2321.07 3111.66
2670.68 -2321.78 3111.01
2671.65 -2321.35 3111.71
2673.33 -2320.66 3112.65
2674.08 -2320.38 3112.29
2679.01 -2318.84 3110.75
2678.19 -2318.96 3111.75
2679.04 -2318.72 3111.64
2678.1 -2318.93 3112.54
2677.68 -2319.08 3113.08
2675.91 -2319.75 3113.47
2677.04 -2319.33 3113.54
2733.08 -2299.93 3116.2
2720.15 -2305.16 3117.52
2717.61 -2305.89 3118.48
2716.42 -2306.15 3118.43
2715.84 -2306.29 3117.97
2716.77 -2306.07 3118.81
2714.91 -2306.48 3117.77
2713.63 -2306.77 3117.37
2712.25 -2307.07 3116.9
2730.09 -2301.75 3115.48
2723.74 -2303.96 3116.87
2721.85 -2304.56 3117.32
2731.03 -2301.2 3115.84
2732.28 -2300.31 3116.42
2711.94 -2307.14 3115.38
2711.67 -2307.21 3116.06
2711.57 -2307.22 3114.85
2711.38 -2307.26 3113.47
2711.14 -2307.34 3114.47
2711.21 -2307.32 3112.23
2710.83 -2307.45 3109.29
2731.68 -2299.53 3119.78
2730.33 -2299.85 3120.64
2732.15 -2299.59 3118.76
2732.08 -2299.77 3118.11
2730.99 -2299.79 3119.58
2729.06 -2300.11 3121.84
2728.08 -2300.37 3122.69
2727.49 -2300.5 3122.7
2727.57 -2300.54 3123.54
2721.55 -2305.37 3135.71
2722.38 -2304.75 3134.22
2722.43 -2304.16 3132.39
2724.9 -2302.53 3129.46
2723.52 -2303.18 3130.36
2725.22 -2301.99 3127.96
2724.85 -2301.9 3127.25
2724.91 -2301.64 3126.14
2724.16 -2301.95 3126.78
2726.62 -2300.95 3125.12
2725.73 -2301.25 3125.38
2724.74 -2301.57 3125.64
2665.27 -2324.54 3107.35
2666.41 -2323.83 3107.53
2667.52 -2323.34 3109.2
2669.51 -2322.38 3110.51
2668.85 -2322.76 3110.86
2557.63 -2448.82 3046.21
2557.6 -2449.2 3047.88
2557.02 -2450 3046.03
2556.46 -2451.22 3045.56
2555.92 -2452.41 3044.08
2545.07 -2482.54 3030.63
2544.5 -2484.42 3029.76
2544.12 -2485.25 3031.5
2543.77 -2486.51 3031.05
2543.48 -2487.69 3030.14
2543.46 -2488.18 3028.76
2555.12 -2454.32 3043.73
2554.29 -2456.15 3043.42
2552.65 -2459.61 3042.53
2553.25 -2458.33 3043.35
2551.56 -2461.78 3042.4
2549.94 -2465.34 3041.79
2550.15 -2464.85 3042.54
2550.61 -2463.77 3042.12
2551.1 -2462.67 3042.57
2549.45 -2466.95 3040.62
2548.85 -2468.63 3040.76
2549.4 -2466.85 3041.54
2548.2 -2470.84 3040.07
2547.65 -2472.55 3038.74
2547.04 -2474.22 3038.29
2546.57 -2476.05 3036.27
2546.51 -2475.58 3038.25
2546.3 -2477.33 3035.46
2543.22 -2489.06 3029.41
2543.06 -2490.04 3028.86
2709.99 -2307.79 3109.27
2709.08 -2308.18 3109.08
2707.4 -2309.11 3111.36
2708.26 -2308.61 3110.38
2709.06 -2308.22 3110.56
2680.32 -2318.53 3110.82
2672.75 -2320.93 3113.2
2670.87 -2321.76 3112.25
2671.95 -2321.29 3113.15
2674.1 -2320.45 3114.25
2674.98 -2320.11 3113.84
2680.06 -2318.43 3111.66
2679.05 -2318.62 3112.43
2680.06 -2318.34 3112.38
2678.7 -2318.69 3113.54
2679.27 -2318.49 3113.13
2678.21 -2318.87 3114.03
2676.65 -2319.51 3114.69
2677.77 -2319.05 3114.69
2719.03 -2305.47 3118.39
2717.94 -2305.77 3118.97
2717.06 -2305.98 3119.34
2715.77 -2306.25 3119.02
2715.15 -2306.38 3118.75
2714.23 -2306.58 3118.39
2712.58 -2306.96 3117.65
2711.28 -2307.28 3116.63
2711.29 -2307.24 3117.24
2725.74 -2303.22 3116.54
2729.23 -2302 3115.83
2730.66 -2301.23 3116.28
2721.23 -2304.68 3117.89
2719.86 -2305.16 3118.24
2731.89 -2300.41 3116.79
2711.19 -2307.33 3115.44
2710.87 -2307.41 3116.1
2710.85 -2307.46 3113.86
2710.53 -2307.56 3114.74
2710.61 -2307.57 3113.12
2710.66 -2307.54 3111.52
2729.42 -2300.1 3120.82
2727.84 -2300.49 3121.8
2732.29 -2300 3117.26
2730.9 -2299.97 3118.95
2726.63 -2300.76 3123.54
2725.86 -2300.97 3123.58
2726.19 -2300.85 3123.18
2726.18 -2300.96 3124.42
2719.29 -2305.88 3135.38
2720.44 -2305.27 3134.21
2720.33 -2304.78 3132.43
2721.5 -2303.91 3130.78
2724.1 -2302.46 3128.58
2722.77 -2303.18 3129.7
2723.67 -2302.32 3127.76
2723.8 -2301.98 3126.42
2722.99 -2302.42 3127.32
2722.96 -2302.59 3127.93
2725.18 -2301.3 3124.73
2666.24 -2324.11 3109.33
2667.18 -2323.64 3110.1
2668.35 -2323.08 3111.56
2669.99 -2322.25 3112.37
2669.43 -2322.63 3113.12
2557.03 -2450.19 3047.36
2556.47 -2451.49 3047.58
2556.05 -2452.42 3046.84
2555.63 -2453.24 3045.34
2544.53 -2483.78 3031.95
2543.81 -2485.9 3033.13
2543.46 -2487.33 3032.55
2544.17 -2484.42 3033.71
2543.22 -2488.49 3031.3
2554.69 -2455.45 3045.15
2553.78 -2457.35 3044.83
2551.87 -2461.16 3043.5
2552.75 -2459.47 3044.17
2549.63 -2466.11 3042.22
2550.27 -2464.59 3043.11
2549.83 -2465.61 3043.02
2550.65 -2463.62 3042.8
2551.19 -2462.56 3043.62
2549.02 -2468 3041.66
2548.32 -2470.18 3041.17
2549.24 -2467.22 3042.39
2548.74 -2468.73 3042.21
2547.64 -2472.25 3040.6
2547.52 -2472.68 3039.66
2546.79 -2474.66 3039.23
2545.89 -2477.51 3038.53
2545.88 -2477.98 3037.37
2545.97 -2477.03 3039.5
2545.24 -2481.18 3034.28
2545.61 -2479.42 3035.9
2542.91 -2489.81 3031.22
2542.82 -2491.1 3029.61
2542.69 -2490.91 3031.3
2709.86 -2307.87 3111.2
2708.4 -2308.62 3112.27
2708.77 -2308.4 3111.62
2709.3 -2308.16 3112.45
2682.26 -2317.98 3110.93
2683.33 -2317.63 3111.29
2681.1 -2318.17 3111.63
2673.46 -2320.76 3114.85
2671.09 -2321.78 3113.67
2672.74 -2321.09 3114.99
2672.04 -2321.41 3114.82
2675.31 -2320.13 3115.94
2676.08 -2319.76 3115.34
2680.89 -2318.04 3112.52
2680.14 -2318.22 3112.94
2681.02 -2317.82 3113.36
2679.34 -2318.38 3114.5
2679.94 -2318.17 3114.08
2680.49 -2317.98 3113.77
2678.87 -2318.56 3115.09
2677.65 -2319.11 3115.7
2678.66 -2318.64 3115.83
2718.41 -2305.6 3118.94
2716.26 -2306.05 3119.69
2714.45 -2306.4 3119.37
2714.87 -2306.26 3119.84
2713.23 -2306.71 3118.73
2712.04 -2307.02 3118.02
2715.14 -2306.1 3120.28
2710.64 -2307.4 3116.87
2710.93 -2307.27 3117.77
2710.46 -2307.39 3117.52
2727.34 -2302.54 3116.71
2723.96 -2303.71 3117.47
2730.07 -2301.33 3116.69
2728.58 -2302.09 3116.45
2731.23 -2300.49 3117.38
2722.07 -2304.37 3117.89
2720.23 -2304.94 3118.64
2719.37 -2305.3 3118.72
2731.76 -2300.27 3117.31
2710.47 -2307.56 3115.37
2710.28 -2307.69 3114.23
2709.89 -2307.82 3114.77
2710.01 -2307.82 3113.72
2710.03 -2307.81 3112.63
2726.09 -2300.86 3122.63
2731.21 -2300.12 3118.27
2729.14 -2300.29 3120.22
2729.36 -2300.31 3119.77
2729.7 -2300.36 3119.2
2727.44 -2300.66 3121.49
2725.57 -2301.02 3123.09
2725.06 -2301.22 3123.99
2724.62 -2301.31 3123.57
2724.2 -2301.42 3123.86
2724.66 -2301.39 3124.52
2717.91 -2306.53 3136.43
2718.52 -2305.63 3133.65
2717.2 -2306.34 3134.81
2718.75 -2305 3131.7
2720.4 -2304.04 3130.13
2722.21 -2303.17 3129.15
2722.43 -2302.55 3127.16
2721.53 -2303.13 3128.23
2724.1 -2301.62 3125.12
2723.23 -2302.01 3125.88
2722.11 -2302.55 3126.76
2723.63 -2301.69 3124.95
2667.54 -2323.65 3112.36
2668.66 -2323.19 3114.11
2670.44 -2322.21 3114.34
2669.47 -2322.87 3115.42
2556.57 -2451.54 3048.97
2555.09 -2454.66 3046.84
2544.61 -2483.04 3033.65
2543.74 -2485.38 3035.15
2543.47 -2486.6 3034.91
2543.15 -2488.22 3033.89
2544.43 -2483.09 3035.15
2544.1 -2483.87 3036.03
2542.78 -2489.76 3033.35
2553.15 -2458.79 3045.37
2551.84 -2461.35 3044.63
2552.19 -2460.8 3045.7
2549.44 -2466.65 3042.83
2550.07 -2465.09 3043.63
2550.58 -2463.85 3043.49
2549.68 -2466.03 3043.62
2551.18 -2462.73 3044.4
2547.93 -2471.26 3041.82
2549.06 -2467.8 3043.34
2548.77 -2468.62 3042.8
2548.1 -2470.69 3042.73
2547.1 -2473.68 3040.52
2546.34 -2475.86 3039.79
2545.2 -2479.39 3039.06
2545.12 -2479.88 3038.38
2545.26 -2479.89 3037.39
2545.5 -2478.27 3040.37
2545 -2479.78 3039.85
2544.86 -2481.51 3036.19
2542.46 -2491.16 3033.31
2542.48 -2493.1 3029.95
2542.38 -2492.24 3031.57
2542.25 -2492.25 3033.25
2707.58 -2309.04 3112.47
2708.73 -2308.44 3113.18
2709.39 -2308.11 3113.52
2681.68 -2317.91 3111.9
2684.04 -2317.33 3111.75
2682.46 -2317.59 3112.33
2681.42 -2317.83 3112.63
2674.14 -2320.68 3116.53
2671.48 -2321.81 3115.73
2672.84 -2321.29 3116.89
2671.95 -2321.81 3117.68
2675.83 -2320.02 3117.4
2677.13 -2319.38 3116.61
2681.63 -2317.57 3113.52
2681.47 -2317.5 3114.45
2682.31 -2317.13 3114.61
2680.22 -2317.93 3115.54
2680.75 -2317.71 3115.2
2681.19 -2317.55 3114.89
2680 -2318.01 3116.11
2678.57 -2318.69 3116.66
2680.45 -2317.78 3116.85
2717.23 -2305.73 3120.07
2716.66 -2305.8 3120.23
2715.76 -2305.81 3120.84
2712.51 -2306.77 3119.15
2713.34 -2306.28 3120.67
2714.06 -2306 3121.31
2711.02 -2307.15 3118.46
2714.47 -2305.8 3121.71
2710.08 -2307.53 3117.13
2710.23 -2307.32 3118.23
2709.83 -2307.52 3117.74
2726.95 -2302.46 3117.4
2725.34 -2303.07 3117.62
2721.68 -2304.39 3118.38
2729.13 -2301.52 3117.28
2730.17 -2300.82 3117.73
2719.7 -2305.08 3119.12
2710.17 -2307.65 3115.96
2709.94 -2307.66 3116.49
2709.55 -2308 3114.26
2709.35 -2308.06 3114.87
2709.49 -2307.97 3115.41
2709.65 -2307.85 3115.91
2724.15 -2301.46 3123.34
2724.61 -2301.34 3123.04
2727.28 -2300.81 3121.02
2728.25 -2300.68 3120.07
2725.53 -2301.12 3122.16
2723.61 -2301.59 3123.67
2723.51 -2301.59 3124.21
2723.01 -2301.74 3124.04
2722.66 -2301.86 3124.43
2722.94 -2301.88 3124.97
2715.76 -2307.13 3136.14
2716.78 -2305.8 3132.48
2715.21 -2306.8 3134.23
2718.2 -2304.79 3130.45
2719.97 -2303.89 3129.2
2720.65 -2303.2 3127.46
