2636.39 -2717.92 727.43 
2638.08 -2720.88 733.14 
2638 -2720.06 727.697 
2639.2 -2722.44 734.894 
2639.01 -2722.23 732.8 
2638.36 -2721.27 731.859 
2638.88 -2722.1 731.951 
2637.64 -2720.12 731.577 
2637.52 -2719.79 730.549 
2637.89 -2720.12 729.402 
2639.55 -2722.95 735.246 
2638.24 -2720.54 728.582 
2638.47 -2720.8 728.064 
2639.37 -2722.77 733.162 
2639.45 -2722.93 731.765 
2639.71 -2723.26 732.041 
2639.2 -2722.67 731.313 
2638.92 -2722.21 731.083 
2638.28 -2721.14 731.158 
2638.33 -2721.12 730.535 
2638.56 -2721.42 729.973 
2640.06 -2723.56 734.602 
2639.69 -2723.18 733.625 
2638.72 -2721.55 729.479 
2639.02 -2721.8 728.649 
2638.77 -2721.07 727.593 
2640.54 -2724.31 732.332 
2639.75 -2723.32 731.165 
2640.37 -2724.09 731.534 
2640.69 -2724.5 731.871 
2639.39 -2722.85 730.806 
2639.03 -2722.2 730.158 
2640.5 -2724.19 733.335 
2639.28 -2722.51 729.79 
2640.16 -2723.52 729.232 
2639.21 -2721.5 727.193 
2641.63 -2725.74 732.357 
2641.9 -2726.17 731.796 
2640.84 -2724.71 731.125 
2640.19 -2723.85 730.8 
2641.77 -2725.99 731.103 
2639.45 -2722.86 730.28 
2641.41 -2725.16 733.969 
2640.19 -2723.78 730.113 
2639.48 -2722.24 727.95 
2640.34 -2723.57 728.652 
2641.48 -2725.32 729.153 
2641.48 -2725.15 728.585 
2640.04 -2722.43 726.815 
2642.01 -2726.05 733.494 
2642.72 -2727.21 732.559 
2642.65 -2727.23 731.953 
2642.51 -2727.03 731.213 
2641.72 -2725.9 730.525 
2642.14 -2726.5 730.703 
2641.59 -2725.58 729.621 
2640.37 -2723.1 727.394 
2641.34 -2724.66 727.884 
2642.32 -2726.51 729.086 
2642.06 -2725.83 728.149 
2642.97 -2727.3 733.658 
2643.75 -2728.29 733.735 
2643.6 -2728.29 732.892 
2642.96 -2727.68 731.267 
2643.75 -2728.58 732.326 
2642.56 -2727.06 730.51 
2642.26 -2726.62 730.068 
2645.23 -2730.23 734.909 
2644.62 -2729.5 733.657 
2645.14 -2730.19 733.974 
2644.23 -2728.98 733.593 
2641.62 -2724.49 726.429 
2642.29 -2725.6 726.65 
2642.45 -2726.49 728.597 
2642.44 -2726.24 727.884 
2644.43 -2729.35 733.072 
2643.81 -2728.62 731.812 
2643.01 -2727.71 730.735 
2642.57 -2726.9 729.451 
2645.88 -2731.22 734.922 
2645.64 -2730.92 734.159 
2644.85 -2729.82 733.219 
2642.74 -2726.09 726.399 
2642.62 -2725.41 724.749 
2642.89 -2727.31 729.594 
2642.79 -2727.04 728.998 
2642.84 -2726.66 727.725 
2644.68 -2729.61 731.933 
2643.82 -2728.59 731.22 
2646.31 -2731.79 735.77 
2646.27 -2731.88 734.162 
2646.58 -2732.28 734.798 
2646.09 -2731.62 733.673 
2645.6 -2730.86 733.202 
2645.95 -2731.4 733.241 
2645.33 -2730.44 733.051 
2643.19 -2726.5 725.995 
2643.41 -2727.97 729.855 
2643.11 -2727.17 728.244 
2643.38 -2727.05 726.876 
2645.01 -2730.02 732.557 
2643.93 -2728.65 730.662 
2644.91 -2729.8 731.388 
2647.54 -2733.39 736.623 
2646.95 -2732.71 735.602 
2647.15 -2733.29 734.082 
2646.89 -2732.92 733.533 
2647.5 -2733.83 734.274 
2647.59 -2733.9 734.794 
2646.46 -2732.22 733.184 
2645.65 -2730.89 732.704 
2643.91 -2726.94 724.878 
2644.33 -2728.9 730.036 
2643.43 -2727.78 728.888 
2643.5 -2727.59 728.204 
2643.87 -2727.53 726.699 
2645.35 -2730.4 732.256 
2650.3 -2737.11 738.334 
2649.01 -2735.65 736.699 
2648.33 -2734.72 736.187 
2647.87 -2734.23 735.371 
2647.96 -2734.66 733.853 
2647.46 -2733.81 733.194 
2648.22 -2735 734.345 
2648.42 -2735.19 734.837 
2647.13 -2733.31 732.884 
2646.46 -2732.04 732.41 
2646.17 -2731.54 732.269 
2645.19 -2729.77 730.301 
2644.37 -2728.71 729.094 
2644.51 -2728.37 727.414 
2644.43 -2728.64 728.487 
2645.61 -2730.7 731.914 
2645.45 -2730.21 730.866 
2650.75 -2737.72 738.136 
2650.17 -2737.23 736.773 
2649.83 -2736.76 737.051 
2649.48 -2736.28 737.196 
2649.26 -2736.24 735.731 
2648.76 -2735.55 735.415 
2648.23 -2735.1 733.608 
2648.09 -2734.88 733.132 
2647.85 -2734.45 732.903 
2648.73 -2735.67 734.558 
2648.95 -2735.9 735.023 
2647.13 -2733.19 732.333 
2645.95 -2731.15 731.853 
2645.2 -2729.65 729.638 
2645.52 -2730.13 730.161 
2645.3 -2729.54 728.728 
2645.84 -2730.74 731.185 
2651.75 -2738.97 737.136 
2650.68 -2737.87 736.77 
2650.08 -2737.4 735.525 
2649.69 -2736.86 735.682 
2648.65 -2735.69 733.851 
2648.44 -2735.41 733.075 
2648.1 -2734.88 732.49 
2646.6 -2732.07 731.705 
2646.39 -2731.63 731.474 
2646.19 -2731.11 730.865 
2655.08 -2743.15 739.229 
2653.28 -2740.98 737.259 
2652.82 -2740.29 737.345 
2652.36 -2739.78 736.982 
2651.09 -2738.44 735.992 
2651.99 -2739.5 736.055 
2650.84 -2738.29 735.491 
2649.97 -2737.38 734.92 
2649.61 -2736.88 735.143 
2649.04 -2736.26 734.047 
2647.86 -2734.4 732.125 
2646.17 -2730.83 730.022 
2655.49 -2743.88 738.468 
2654.92 -2743.23 737.938 
2654.1 -2742.15 737.502 
2652.88 -2740.75 736.146 
2653.8 -2741.95 736.462 
2652.41 -2740.11 736.141 
2651.72 -2739.22 735.69 
2656.93 -2745.54 739.345 
2656.14 -2744.57 739.021 
2649.39 -2736.73 734.115 
2648.92 -2736.07 733.203 
2648.46 -2735.42 732.475 
2647.18 -2733.07 731.573 
2646.75 -2732.11 731.076 
2646.52 -2731.65 730.893 
2648.17 -2734.94 731.973 
2646.71 -2731.51 729.759 
2646.77 -2731.78 730.22 
2656.48 -2745.35 738.103 
2656.27 -2745.23 737.452 
2656.11 -2745.12 736.948 
2654.97 -2743.58 736.73 
2653.64 -2741.87 735.871 
2654.86 -2743.5 736.196 
2651.97 -2739.58 735.283 
2652.33 -2740.09 735.34 
2650.65 -2738.21 734.844 
2649.84 -2737.24 734.291 
2657.91 -2746.65 739.816 
2657.34 -2746.34 738.555 
2648.7 -2735.78 732.781 
2649.22 -2736.53 733.497 
2647.23 -2732.08 729.247 
2647.26 -2732.37 729.9 
2665.21 -2755.34 742.409 
2657.36 -2746.65 737.732 
2657.31 -2746.78 737.024 
2652.81 -2740.82 735.395 
2656.07 -2745.22 736.172 
2651.61 -2739.21 735.006 
2658.16 -2747.33 739.01 
2658.05 -2747.58 738.063 
2649.63 -2737.03 733.675 
2650.5 -2737.99 734.085 
2649.17 -2736.47 732.921 
2649.58 -2736.94 733.075 
2647.36 -2733.06 730.875 
2648.59 -2735.5 731.934 
2647.79 -2732.84 729.04 
2647.7 -2733.45 730.56 
2658.23 -2748.03 737.495 
2658.42 -2748.47 736.803 
2654.5 -2743.14 735.3 
2653.35 -2741.61 735.06 
2655.82 -2744.93 735.803 
2657.12 -2746.63 736.349 
2651.89 -2739.52 734.707 
2652.41 -2740.32 734.825 
2651.39 -2739 734.503 
2659.12 -2748.42 739.587 
2658.87 -2748.7 738.226 
2659.11 -2749.27 737.635 
2650.46 -2737.89 733.503 
2649.11 -2736.19 732.22 
2647.96 -2734.27 731.262 
2648.42 -2733.5 728.359 
2648.96 -2734.26 728.216 
2649.48 -2734.8 728.039 
2648.27 -2734.04 729.877 
2647.96 -2733.64 730.089 
2648.23 -2734.6 730.975 
2664.83 -2755.09 741.699 
2666.29 -2756.5 742.007 
2665.55 -2755.86 741.664 
2662.67 -2752.5 741.879 
2663.2 -2753.17 741.894 
2662.18 -2751.87 741.898 
2659.45 -2749.86 737.275 
2659.68 -2750.25 737.009 
2658.15 -2748.1 736.46 
2654.35 -2743.01 734.828 
2660.66 -2750.12 740.768 
2659.67 -2749.45 739.13 
2659.88 -2750.17 738.288 
2660.13 -2750.68 737.916 
2660.42 -2751.16 737.623 
2651.32 -2738.97 733.951 
2651.73 -2739.36 734.117 
2650.6 -2737.9 732.988 
2649.74 -2737 732.499 
2651.41 -2738.89 733.408 
2648.45 -2735 731.188 
2649.07 -2735.99 731.658 
2648.62 -2734.45 729.641 
2648.96 -2734.91 729.651 
2649.7 -2735.27 728.47 
2650.08 -2735.68 728.509 
2664.27 -2754.48 741.709 
2664.96 -2755.42 741.135 
2664.48 -2754.84 741.29 
2666.79 -2757.14 741.218 
2665.67 -2756.14 741.1 
2663.71 -2753.92 741.512 
2660.67 -2751.54 737.403 
2659.33 -2749.8 736.575 
2660.6 -2751.58 736.761 
2661.02 -2752.09 737.033 
2655.37 -2744.34 735.157 
2656.62 -2745.95 735.718 
2653.26 -2741.54 734.431 
2657.93 -2747.81 735.902 
2652.14 -2739.84 734.383 
2660.5 -2750.34 739.773 
2660.92 -2751.42 738.824 
2661.68 -2751.43 741.176 
2661.34 -2751.46 740.068 
2661.08 -2751.78 738.399 
2661.23 -2752.28 737.606 
2651.78 -2739.33 733.592 
2649.72 -2736.77 731.851 
2648.79 -2735.26 730.786 
2649.6 -2736.43 731.331 
2649.13 -2735.61 730.674 
2649.47 -2735.6 729.881 
2650.57 -2736.24 728.559 
2650.01 -2736.15 729.757 
2664.74 -2755.61 740.048 
2664.27 -2755.13 740.035 
2663.91 -2754.7 740.103 
2670.42 -2760.95 740.574 
2671.2 -2761.69 740.447 
2669.23 -2759.61 741.08 
2668.48 -2758.98 740.588 
2667.59 -2758.42 739.599 
2666.4 -2757.21 739.817 
2665.27 -2756.18 739.815 
2662.22 -2752.23 741.069 
2662.73 -2752.9 741.021 
2663.25 -2753.55 741.016 
2661.47 -2752.74 737.133 
2661.26 -2752.54 736.643 
2654.23 -2742.85 734.215 
2657.33 -2746.98 735.796 
2658.49 -2748.6 735.692 
2659.64 -2750.22 735.918 
2652.44 -2740.33 734.175 
2661.6 -2752.43 738.683 
2661.85 -2752.16 740.138 
2661.68 -2752.72 738.251 
2661.84 -2753.2 737.409 
2652.12 -2739.73 733.727 
2650.58 -2737.7 732.297 
2651.35 -2738.59 732.823 
2651.76 -2739 732.775 
2652.04 -2739.45 733.076 
2650.01 -2736.64 731 
2650.73 -2737.6 731.633 
2650.49 -2736.6 729.764 
2651.33 -2737.26 729.288 
2663.49 -2754.23 740.072 
2664.32 -2755.66 738.755 
2663.91 -2755.22 738.874 
2663.54 -2754.77 739.013 
2671.55 -2762.34 739.01 
2670.66 -2761.51 739.135 
2670.02 -2760.71 740.045 
2672.64 -2763.33 739.175 
2673.79 -2764.57 739.012 
2668.97 -2759.82 739.417 
2666.36 -2757.6 738.569 
2667.73 -2758.93 738.34 
2665.06 -2756.38 738.735 
2662.27 -2752.74 740.061 
2662.67 -2753.28 739.964 
2663.05 -2753.76 739.92 
2661.94 -2753.46 736.77 
2661.7 -2753.13 736.355 
2655.17 -2744.1 734.529 
2656.46 -2745.73 734.997 
2660.76 -2751.86 736.124 
2661.37 -2752.72 736.162 
2653.1 -2741.25 733.932 
2662.13 -2753.14 738.766 
2662.3 -2753.53 738.326 
2662.15 -2753.5 737.774 
2662.35 -2753.9 737.202 
2652.39 -2739.9 733.148 
2652.57 -2740.27 733.493 
2651.85 -2738.91 732.236 
2651.51 -2738.5 732.093 
2651.01 -2737.46 730.735 
2651.67 -2738.27 731.149 
2652.14 -2738.33 730.066 
2663.07 -2754.33 738.729 
2663.5 -2754.93 738.525 
2670.19 -2761.28 738.36 
2669.54 -2760.48 738.978 
2668.85 -2760.05 738.262 
2671.69 -2762.67 738.113 
2672.82 -2763.72 738.037 
2675.68 -2766.42 739.097 
2674.16 -2765.12 738.073 
2666.09 -2757.49 738.05 
2667.41 -2758.74 737.847 
2662.62 -2753.77 738.769 
2662.3 -2753.93 736.688 
2662.09 -2753.63 736.072 
2657.4 -2747.01 735.177 
2654.51 -2743.17 733.838 
2653.9 -2742.39 733.67 
2658.77 -2748.95 735.327 
2660.14 -2750.93 735.602 
2661.82 -2753.27 735.845 
2662.64 -2754.07 737.983 
2662.81 -2754.42 737.497 
2652.74 -2740.3 732.962 
2653.39 -2741.49 733.218 
2652.02 -2738.72 731.342 
2652.47 -2739.68 732.26 
2652.61 -2739.29 731.048 
2664.2 -2755.71 738.196 
2663.72 -2755.26 738.153 
2663.07 -2754.56 738.122 
2668.71 -2760.06 737.746 
2672.55 -2763.53 737.585 
2671.5 -2762.63 737.642 
2670.16 -2761.42 737.666 
2675.51 -2766.48 737.985 
2673.64 -2764.7 737.461 
2665.75 -2757.25 737.69 
2664.74 -2756.3 737.982 
2662.66 -2754.34 736.978 
2662.42 -2754.06 736.128 
2655.85 -2744.86 734.181 
2657 -2746.38 734.613 
2658.15 -2748.03 734.976 
2655.12 -2743.88 733.828 
2659.4 -2749.76 735.238 
2660.54 -2751.53 735.528 
2661.15 -2752.44 735.791 
2663.16 -2754.8 737.569 
2654.14 -2742.55 733.127 
2653.42 -2741.29 732.612 
2652.86 -2740.11 732.145 
2678.21 -2769.14 737.805 
2677.52 -2768.49 738.056 
2678.81 -2769.66 737.311 
2653.46 -2739.9 729.842 
2676.68 -2767.66 737.942 
2668.49 -2759.97 737.126 
2667.17 -2758.66 737.213 
2674.89 -2765.96 737.346 
2662.78 -2754.52 736.365 
2663.06 -2754.82 736.694 
2656.59 -2745.73 734.123 
2657.65 -2747.24 734.581 
2655.88 -2744.76 733.671 
2662.14 -2753.63 735.432 
2654.58 -2743.1 733.064 
2655.44 -2744.14 733.259 
2654.23 -2742.46 732.541 
2653.5 -2741.14 732.124 
2653.24 -2740.09 731.01 
2680.4 -2771.02 735.119 
2677.11 -2768.18 736.779 
2676.54 -2767.61 736.926 
2675.8 -2766.87 737.106 
2678.01 -2768.94 736.511 
2653.84 -2740.44 729.764 
2655.34 -2742.1 727.867 
2655.83 -2742.42 726.769 
2656.43 -2743.29 727.045 
2657.1 -2743.87 726.112 
2663.95 -2755.58 737.712 
2672.18 -2763.34 736.779 
2671.07 -2762.27 737.024 
2669.75 -2761.14 737.009 
2665.4 -2757.03 737.055 
2673.04 -2764.17 736.664 
2674.75 -2765.87 736.746 
2664.4 -2756.06 737.446 
2663.61 -2755.34 736.925 
2657.16 -2746.43 733.961 
2658.22 -2747.99 734.453 
2659.13 -2749.25 734.677 
2660.02 -2750.57 734.975 
2656.9 -2745.98 733.612 
2661.03 -2752.12 735.261 
2661.43 -2752.79 735.435 
2662.52 -2754.08 735.495 
2655.13 -2743.68 732.87 
2656.49 -2745.35 733.168 
2654.67 -2742.81 732.023 
2653.84 -2741.05 731.006 
2654.49 -2742.22 731.106 
2654.96 -2742.69 730.753 
2654.96 -2743.29 732.298 
2678.4 -2769.26 735.952 
2680.63 -2771.17 734.07 
2678.97 -2769.75 735.192 
2676.59 -2767.7 736.114 
2675.74 -2766.82 736.46 
2654.56 -2741.34 729.081 
2654.45 -2741.49 729.879 
2655.2 -2742.45 729.268 
2655.76 -2743.09 728.897 
2657.01 -2744.35 728.023 
2656.21 -2743.81 729.409 
2658.07 -2744.93 725.93 
2671.84 -2763.02 736.559 
2670.75 -2761.97 736.724 
2666.95 -2758.51 736.663 
2674.1 -2765.23 736.338 
2672.57 -2763.69 736.331 
2664.17 -2755.9 736.876 
2657.66 -2746.9 733.295 
2663.14 -2754.83 735.933 
2662.9 -2754.52 735.579 
2663.42 -2755.16 736.215 
2655.85 -2744.4 732.497 
2657.33 -2746.24 732.651 
2655.29 -2743.13 730.916 
2655.54 -2743.58 731.398 
2656.17 -2744.4 731.523 
2677.17 -2768.14 735.581 
2679.38 -2770.02 734.317 
2677.74 -2768.57 735.002 
2675.9 -2766.94 735.732 
2675.18 -2766.28 736.138 
2656.9 -2744.76 729.945 
2657.87 -2745.41 728.12 
2659.13 -2746.2 725.942 
2668.74 -2760.28 736.35 
2669.73 -2761.12 736.39 
2667.86 -2759.45 736.493 
2666.63 -2758.18 736.451 
2665.14 -2756.84 736.509 
2673.46 -2764.6 736.118 
2663.85 -2755.62 736.305 
2664.8 -2756.47 736.133 
2658.72 -2748.47 733.942 
2660.34 -2750.9 734.583 
2659.53 -2749.55 734.178 
2661.26 -2752.24 734.792 
2661.65 -2752.89 734.929 
2662.47 -2753.89 734.948 
2662.11 -2753.45 734.828 
2658.23 -2747.43 732.807 
2657.42 -2745.88 731.451 
2676.27 -2767.25 735.254 
2678.28 -2768.94 734.212 
2676.68 -2767.55 734.716 
2674.91 -2765.96 735.523 
2674.48 -2765.56 735.756 
2658.02 -2746.05 729.923 
2658.89 -2746.62 728.318 
2671.5 -2762.65 736.166 
2668.32 -2759.88 736.17 
2670.59 -2761.83 736.183 
2673.16 -2764.31 735.817 
2672.06 -2763.17 735.731 
2666.44 -2757.98 736.023 
2659.3 -2748.94 733.331 
2662.86 -2754.31 735 
2663.22 -2754.77 735.285 
2663.74 -2755.41 735.666 
2664.73 -2756.27 735.372 
2658.93 -2748.29 732.776 
2658.24 -2746.95 731.731 
2658.59 -2746.92 730.424 
2675.39 -2766.38 735.17 
2678.81 -2769.26 733.428 
2677.06 -2767.77 734.019 
2675.84 -2766.72 734.591 
2673.89 -2764.95 735.32 
2659.77 -2748 729.84 
2660.16 -2748.08 728.558 
2661.59 -2749.18 726.734 
2669.42 -2760.8 735.836 
2667.47 -2759.08 735.873 
2672.43 -2763.52 735.515 
2671.63 -2762.72 735.659 
2660.61 -2751.02 734.098 
2659.98 -2749.89 733.645 
2659.77 -2749.36 733.087 
2661.84 -2752.92 734.331 
2661.57 -2752.38 734.063 
2662.74 -2754.05 734.524 
2662.21 -2753.31 734.084 
2663.6 -2755.12 735.178 
2664.58 -2755.97 734.869 
2666.31 -2757.86 735.526 
2659.91 -2748.89 731.763 
2659.17 -2748 731.571 
2659.67 -2748.18 730.685 
2674.68 -2765.66 734.795 
2677.88 -2768.32 733.055 
2676.36 -2766.97 733.38 
2675.32 -2766.17 734.054 
2673.13 -2764.21 735.273 
2661.01 -2749.08 728.606 
2660.81 -2749.13 729.677 
2661.85 -2749.82 727.634 
2668.01 -2759.6 735.742 
2672.01 -2763.04 735.23 
2667.2 -2758.8 735.404 
2660.37 -2750.15 733.166 
2660.19 -2749.33 732.054 
2660.53 -2749.77 732.128 
2661.96 -2752.79 733.734 
2661.17 -2751.59 733.681 
2663.26 -2754.53 734.336 
2662.53 -2753.53 733.668 
2666.05 -2757.51 734.972 
2666.91 -2758.46 735.113 
2660.58 -2749.15 730.543 
2661.27 -2749.9 730.313 
2674.12 -2765.07 734.601 
2677.59 -2767.83 732.016 
2675.58 -2766.14 732.947 
2676.4 -2766.69 731.935 
2674.6 -2765.36 733.88 
2672.7 -2763.73 735.09 
2661.75 -2749.99 728.621 
2662.53 -2750.55 727.613 
2667.58 -2759.16 735.363 
2670.67 -2761.92 735.521 
2660.92 -2750.29 732.08 
2661.73 -2750.56 730.293 
2661.97 -2752.53 733.215 
2662.52 -2753.06 732.776 
2663.63 -2754.95 734.447 
2664.48 -2755.68 734.246 
2663.09 -2754.21 733.817 
2663.48 -2754.64 733.895 
2662.97 -2753.81 733.186 
2662.95 -2753.36 732.276 
2665.88 -2757.17 734.285 
2667.32 -2758.81 734.837 
2661.54 -2749.97 729.472 
2662.48 -2751.1 729.116 
2673.05 -2764.05 734.792 
2677.4 -2767.37 730.837 
2675.89 -2766.14 731.313 
2675.3 -2765.78 732.344 
2676.19 -2766.31 730.674 
2674.13 -2764.84 733.713 
2662.46 -2750.75 728.384 
2663.13 -2751.33 727.762 
2662.93 -2751.39 728.56 
2669.91 -2761.17 735.245 
2668.49 -2759.96 735.276 
2671.38 -2762.36 735.142 
2672.17 -2763.08 734.641 
2661.73 -2751.63 732.365 
2661.91 -2751.14 730.954 
2662.47 -2751.58 730.156 
2662.43 -2752.46 731.904 
2662.82 -2752.63 731.149 
2663.56 -2754.43 733.127 
2664.39 -2755.27 733.409 
2663.45 -2753.92 732.305 
2663.32 -2753.52 731.628 
2663.16 -2752.67 730.402 
2666.7 -2758.16 734.442 
2667.22 -2758.61 734.372 
2667.8 -2759.26 734.797 
2662.84 -2751.75 729.47 
2675.45 -2765.58 730.551 
2675.63 -2765.53 729.838 
2675.08 -2765.44 731.774 
2673.82 -2764.41 733.393 
2663.7 -2752.22 728.238 
2663.31 -2752.01 728.784 
2664.15 -2752.64 728.085 
2664.97 -2753.15 727.568 
2671.72 -2762.6 734.746 
2665.97 -2756.88 733.464 
2664.51 -2755.14 732.713 
2664.11 -2754.48 731.986 
2665.98 -2756.59 732.918 
2663.68 -2753.7 731.062 
2663.53 -2752.8 729.72 
2672.91 -2763.54 733.845 
2674.83 -2764.66 729.694 
2674.71 -2764.91 731.713 
2673.61 -2763.78 732.325 
2673.21 -2763.39 732.722 
2663.88 -2753.07 729.436 
2664.27 -2753.42 729.35 
2665.24 -2753.76 728.227 
2670.49 -2761.59 734.888 
2670.99 -2761.9 734.701 
2672.23 -2762.93 733.91 
2666.77 -2757.9 733.635 
2665.15 -2755.35 731.844 
2664.55 -2754.37 730.754 
2666.45 -2757.03 732.678 
2667.42 -2758.62 733.888 
2668.75 -2760.03 734.592 
2667.84 -2759.15 734.086 
2672.73 -2762.89 732.742 
2674.26 -2763.98 729.852 
2674.01 -2763.99 731.369 
2672.46 -2762.13 731.495 
2672.78 -2762.48 731.183 
2664.97 -2753.95 729.091 
2666.33 -2755.07 728.531 
2670 -2761 734.545 
2671.8 -2762.43 734.007 
2671.34 -2762.03 734.341 
2670.82 -2761.53 734.164 
2672.24 -2762.4 732.802 
2665.71 -2755.63 731.096 
2665.62 -2754.91 729.635 
2667.8 -2758.86 733.625 
2668.88 -2759.89 734.055 
2671.93 -2761.63 731.697 
2671.06 -2760.58 731.173 
2666.93 -2755.9 729.261 
2667.55 -2756.46 729.37 
2670.38 -2761.14 734.066 
2671.68 -2761.85 733.003 
2671.22 -2761.59 733.515 
2670.71 -2761.16 733.589 
2667.16 -2758.39 733.045 
2666.39 -2755.82 729.992 
2667.04 -2757.65 732.248 
2668.74 -2759.51 733.436 
2669.93 -2760.69 733.909 
2669.81 -2760.33 733.344 
2669.69 -2758.97 730.742 
2669.1 -2758.41 730.871 
2670.25 -2760.73 733.443 
2670.72 -2760.44 731.932 
2670.13 -2760.01 732.235 
2666.77 -2756.46 730.424 
2667.13 -2757.5 731.418 
2668.55 -2758.97 732.578 
2669.44 -2759.45 732.294 
2667.56 -2757.06 730.063 
2668.62 -2757.88 730.666 
2667.7 -2757.75 731.457 
2668.2 -2758.36 732.059 
