2612.14 -2767.84 3044.84 
2612.33 -2768.07 3044.01 
2612.49 -2768.21 3043.33 
2612.73 -2768.38 3042.43 
2612.16 -2768.1 3046.34 
2612.31 -2768.36 3045.58 
2612.45 -2768.52 3044.74 
2612.64 -2768.64 3043.77 
2612.65 -2768.84 3044.26 
2612.84 -2768.76 3042.76 
2613.21 -2768.98 3041.55 
2613.15 -2769.1 3042.18 
2612.39 -2768.23 3048.91 
2612.33 -2768.23 3047.9 
2612.42 -2768.61 3047.06 
2612.5 -2768.83 3046.41 
2612.58 -2768.96 3045.27 
2612.55 -2768.94 3045.88 
2612.7 -2769.15 3044.72 
2612.83 -2769.3 3044.15 
2612.92 -2769.06 3043.17 
2613.76 -2769.86 3040.88 
2612.82 -2768.93 3049.04 
2612.66 -2768.9 3047.96 
2612.67 -2769.15 3047.01 
2612.78 -2769.45 3045.2 
2612.88 -2769.63 3044.65 
2613 -2769.4 3043.55 
2613.2 -2769.52 3042.69 
2613.37 -2769.64 3042.21 
2613.56 -2769.73 3041.44 
2612.94 -2769.47 3047.75 
2613.08 -2769.48 3048.69 
2612.82 -2769.54 3046.27 
2612.9 -2769.73 3045.67 
2612.98 -2769.93 3045.11 
2613.08 -2769.91 3044.05 
2613.3 -2769.98 3043.1 
2614.02 -2770.35 3040.85 
2613 -2769.84 3046.88 
2613.6 -2770.09 3049.91 
2613.16 -2770.43 3044.74 
2613.59 -2770.23 3042.26 
2613.75 -2770.28 3041.74 
2613.25 -2770.12 3047.63 
2613.37 -2770.11 3048.46 
2613.09 -2770.2 3046.22 
2613.24 -2770.66 3045.52 
2613.26 -2770.43 3043.9 
2613.5 -2770.72 3043.29 
2614.1 -2770.74 3041.18 
2614.35 -2770.98 3040.78 
2613.85 -2770.65 3049.74 
2613.38 -2770.55 3047.16 
2613.29 -2770.77 3046.17 
2613.35 -2770.96 3044.93 
2613.4 -2771.03 3044.11 
2613.72 -2770.81 3042.48 
2614.02 -2771.04 3041.84 
2613.61 -2770.77 3047.88 
2613.78 -2770.83 3048.7 
2614.42 -2771.42 3051.97 
2613.59 -2770.95 3047.39 
2613.46 -2770.99 3046.69 
2613.57 -2771.17 3043.55 
2614.33 -2771.31 3041.27 
2613.99 -2771.2 3049.02 
2614.17 -2771.29 3050.2 
2613.44 -2771.13 3045.78 
2613.45 -2771.46 3044.7 
2613.79 -2771.43 3042.9 
2614.01 -2771.54 3042.21 
2614.55 -2771.58 3040.84 
2614.84 -2771.68 3040.43 
2613.92 -2771.36 3048.06 
2614.39 -2771.72 3050.73 
2614.93 -2772.22 3053.78 
2615.22 -2772.93 3055.18 
2613.5 -2771.47 3045.28 
2613.49 -2771.59 3044.04 
2613.7 -2771.71 3043.35 
2614.52 -2772 3041.3 
2614.22 -2771.89 3041.84 
2616.02 -2774.29 3057.47 
2615.91 -2774.21 3056.86 
2615.44 -2773.4 3055.67 
2614.15 -2771.67 3048.87 
2614.98 -2772.65 3053.04 
2615.08 -2772.72 3054.4 
2613.84 -2771.47 3047.45 
2613.59 -2771.37 3046.26 
2613.56 -2772.03 3045.26 
2613.91 -2771.91 3042.55 
2615.26 -2772.21 3040.12 
2614.9 -2772.29 3040.79 
2616.32 -2774.86 3057.59 
2615.73 -2774 3056.02 
2616.87 -2775.59 3058.35 
2614.31 -2771.98 3049.38 
2614.63 -2772.32 3050.92 
2615.16 -2773.1 3053.86 
2615.35 -2773.39 3054.75 
2615.52 -2773.7 3055.27 
2613.61 -2771.89 3045.77 
2613.52 -2771.96 3044.41 
2613.82 -2772.18 3043.18 
2613.67 -2772.22 3043.73 
2616.78 -2775.65 3057.83 
2616.08 -2774.71 3056.48 
2616.46 -2775.38 3057.08 
2614.51 -2772.33 3050.07 
2615.05 -2773.14 3052.3 
2614.87 -2772.86 3051.48 
2615.37 -2773.76 3054.1 
2614.13 -2771.96 3048.42 
2631.93 -2793.78 3041.47 
2615.79 -2772.68 3039.57 
2615.07 -2772.79 3040.79 
2615.35 -2772.82 3040.36 
2614.43 -2772.37 3041.8 
2614.17 -2772.27 3042.3 
2617.14 -2776.25 3058.19 
2616.25 -2775.26 3056.5 
2616.59 -2775.91 3056.87 
2617.6 -2776.9 3058.68 
2615.1 -2773.7 3052.65 
2615.21 -2773.76 3053.49 
2615.03 -2773.42 3051.86 
2615.56 -2774.02 3054.72 
2615.43 -2774.38 3053.9 
2615.94 -2774.72 3055.68 
2614.31 -2772.31 3048.91 
2616.12 -2775.28 3055.93 
2613.81 -2772.19 3046.37 
2613.89 -2772.05 3047 
2613.75 -2772.57 3045.56 
2614.03 -2772.05 3047.77 
2613.67 -2772.44 3044.84 
2613.7 -2772.57 3044.26 
2613.82 -2772.77 3043.47 
2631.84 -2793.9 3042.12 
2631.38 -2793.42 3042.03 
2632.24 -2794.33 3042.48 
2614.73 -2772.7 3041.3 
2630.23 -2791.7 3040.39 
2630.93 -2792.55 3040.88 
2616.97 -2776.56 3057.24 
2616.3 -2775.72 3056.25 
2616.57 -2776.29 3056.46 
2614.56 -2772.71 3049.72 
2615.25 -2774.3 3053.36 
2615.04 -2774.01 3052 
2615.72 -2774.62 3054.9 
2615.5 -2774.97 3053.79 
2615.65 -2775.07 3054.3 
2615.91 -2775.33 3055.02 
2616.22 -2775.89 3055.77 
2613.79 -2773.04 3045.21 
2613.74 -2773.06 3043.89 
2614.07 -2772.52 3042.75 
2631.37 -2793.58 3042.52 
2631.65 -2793.89 3042.82 
2630.99 -2793.09 3042.15 
2631.92 -2794.16 3043.25 
2632.46 -2794.68 3043.49 
2629.03 -2790.35 3039.79 
2629.75 -2791.28 3040.49 
2630.14 -2791.94 3041.27 
2630.57 -2792.56 3041.83 
2630.17 -2792.18 3041.79 
2628.6 -2789.87 3039.54 
2628.08 -2789.21 3039.22 
2617.42 -2777.09 3057.94 
2616.87 -2776.88 3056.69 
2617.19 -2777.09 3057.32 
2616.45 -2776.49 3055.92 
2617.86 -2777.57 3058.53 
2614.75 -2772.99 3050.4 
2615.11 -2774.72 3052.66 
2615.3 -2774.86 3053.23 
2615.56 -2775.5 3053.68 
2615.75 -2775.71 3054.22 
2616.09 -2775.79 3055.29 
2616.22 -2776.36 3055.27 
2613.96 -2772.89 3046.39 
2614.04 -2772.73 3047.01 
2614.13 -2772.56 3047.7 
2614.23 -2772.49 3048.35 
2613.88 -2773.03 3045.75 
2614.36 -2772.8 3048.81 
2613.67 -2773.02 3044.51 
2613.76 -2773.52 3043.6 
2613.97 -2773.21 3043.02 
2631.32 -2793.63 3043.23 
2630.8 -2793.05 3042.72 
2631.75 -2794.06 3043.85 
2632.25 -2794.55 3044.29 
2633.24 -2795.64 3045.01 
2633.36 -2795.77 3045.92 
2616.06 -2773.17 3039.5 
2614.94 -2773.35 3041.2 
2614.49 -2772.88 3041.86 
2627.45 -2788.27 3038.79 
2629.09 -2790.69 3040.52 
2629.56 -2791.33 3041.02 
2629.64 -2791.69 3041.61 
2629.62 -2791.9 3042.1 
2627.73 -2788.73 3039.04 
2630.17 -2792.56 3042.79 
2618.9 -2778.46 3059.92 
2618.37 -2778.1 3059.16 
2615.13 -2775.21 3052.52 
2615.39 -2775.49 3053.14 
2615 -2774.89 3052.02 
2615.72 -2776.07 3053.8 
2615.95 -2776.17 3054.53 
2616.33 -2776.98 3055.12 
2613.8 -2773.54 3045.22 
2614.51 -2773.22 3049.3 
2613.71 -2773.71 3044.67 
2613.62 -2773.9 3044.11 
2614.26 -2773.14 3042.38 
2631.64 -2794 3044.44 
2631.25 -2793.64 3044.11 
2630.97 -2793.34 3043.62 
2632.25 -2794.61 3045.36 
2631.66 -2794.03 3045.19 
2632.42 -2794.81 3046.47 
2615.3 -2773.44 3040.58 
2615.72 -2773.23 3040.02 
2629.16 -2791.46 3041.9 
2629.08 -2791.63 3042.38 
2628.24 -2789.71 3039.9 
2628.56 -2790.21 3040.49 
2629.65 -2792.23 3043.01 
2617.55 -2777.76 3057.67 
2616.69 -2777.34 3055.75 
2616.98 -2777.46 3056.43 
2617.29 -2777.71 3057.02 
2618.07 -2778.34 3058.24 
2615.14 -2775.61 3052.19 
2615.35 -2775.83 3052.71 
2615.59 -2776.13 3053.28 
2615.89 -2776.64 3053.81 
2616.08 -2776.72 3054.49 
2614.7 -2773.49 3050.08 
2614.93 -2773.63 3051.07 
2616.58 -2777.51 3055.15 
2613.89 -2773.7 3045.81 
2613.98 -2773.55 3046.45 
2614.05 -2773.57 3047.02 
2614.12 -2773.24 3047.52 
2614.23 -2773.22 3048.11 
2614.34 -2773.27 3048.62 
2613.76 -2774.34 3044.94 
2613.91 -2773.71 3043.11 
2613.75 -2774.02 3043.52 
2630.64 -2793.03 3043.33 
2630.18 -2792.68 3043.63 
2631.21 -2793.63 3044.61 
2631.75 -2794.08 3046.02 
2631.25 -2793.64 3045.35 
2631.84 -2794.11 3046.88 
2617.67 -2775.53 3038.52 
2616.32 -2773.78 3039.49 
2614.66 -2773.45 3041.66 
2628.77 -2790.68 3041.14 
2628.94 -2791.06 3041.53 
2629.54 -2792.25 3043.61 
2629.08 -2791.87 3043.13 
2616.91 -2777.83 3055.65 
2618.74 -2778.9 3059.01 
2619.31 -2779.34 3059.69 
2618.12 -2778.7 3057.88 
2615.01 -2774.1 3051.46 
2615.34 -2776.17 3052.28 
2615.52 -2776.39 3052.75 
2615.75 -2776.66 3053.29 
2615.02 -2775.6 3051.55 
2615.97 -2777.16 3053.57 
2616.21 -2777.27 3054.36 
2614.83 -2773.87 3050.59 
2616.9 -2778.13 3055.22 
2613.6 -2774.37 3043.93 
2613.84 -2774.42 3045.47 
2614.17 -2773.93 3042.54 
2614.43 -2773.76 3042.12 
2629.83 -2792.46 3044.19 
2630.55 -2793.08 3044.2 
2631.32 -2793.65 3046.15 
2630.86 -2793.32 3045.27 
2631.56 -2793.75 3047.64 
2631.29 -2793.59 3046.84 
2617.27 -2774.98 3039.01 
2616.87 -2774.58 3039.22 
2626.9 -2787.95 3039.14 
2627.24 -2788.4 3039.35 
2628.66 -2791.19 3042.2 
2628.65 -2791.42 3042.8 
2627.64 -2788.96 3039.61 
2627.85 -2789.37 3039.93 
2629.07 -2791.99 3043.63 
2617.84 -2778.64 3057.23 
2617.23 -2778.34 3055.87 
2617.5 -2778.48 3056.51 
2619.9 -2780.29 3059.73 
2621.4 -2782.02 3060.16 
2618.61 -2779.27 3058.24 
2618.33 -2779.25 3057.53 
2619.13 -2779.62 3058.95 
2614.97 -2774.88 3051.3 
2615.22 -2776.18 3051.65 
2615.75 -2777.01 3052.92 
2616.16 -2777.67 3053.73 
2615.99 -2777.54 3053.22 
2616.41 -2777.8 3054.41 
2614.58 -2773.84 3049.51 
2614.73 -2774.13 3050.13 
2614.85 -2774.49 3050.57 
2617.09 -2778.64 3055.09 
2614 -2774.28 3046.57 
2614.12 -2774.28 3047.17 
2614.2 -2773.92 3047.67 
2614.33 -2773.95 3048.28 
2614.44 -2773.84 3048.85 
2613.7 -2774.74 3044.53 
2613.79 -2774.94 3045.03 
2613.95 -2774.67 3046.14 
2613.82 -2774.46 3043.29 
2629.35 -2792.17 3044.3 
2629.87 -2792.66 3044.66 
2630.82 -2793.23 3046.04 
2630.38 -2792.93 3045.34 
2631.04 -2793.31 3047.26 
2630.72 -2793.09 3046.8 
2618.44 -2776.47 3038.13 
2615.04 -2773.89 3041.1 
2616 -2773.82 3039.93 
2628.52 -2790.84 3041.79 
2627.96 -2789.72 3040.45 
2628.25 -2790.25 3041.14 
2628.56 -2791.55 3043.36 
2628.88 -2791.86 3044.38 
2617.92 -2779.02 3056.81 
2617.61 -2778.91 3056.13 
2619.58 -2780.05 3059.34 
2618.83 -2779.77 3058.01 
2618.29 -2779.54 3056.96 
2618.61 -2779.84 3057.41 
2615.51 -2776.93 3051.92 
2614.94 -2775.59 3050.92 
2616.63 -2778.31 3054.37 
2616.39 -2778.2 3053.91 
2614.63 -2774.38 3049.66 
2614.75 -2774.74 3050.1 
2614.85 -2775.1 3050.51 
2617.59 -2779.23 3055.7 
2617.33 -2779.1 3055.21 
2614.31 -2774.44 3048.1 
2613.89 -2775.01 3045.72 
2613.96 -2774.39 3042.8 
2629.53 -2792.25 3044.95 
2629.07 -2791.89 3045.24 
2630.27 -2792.76 3046.1 
2629.93 -2792.58 3045.75 
2630.72 -2792.95 3047.59 
2630.47 -2792.79 3047.18 
2630.13 -2792.56 3046.8 
2616.43 -2774.47 3039.52 
2614.79 -2774.08 3041.56 
2626.34 -2787.19 3038.85 
2626.48 -2787.67 3039.25 
2628.23 -2791.19 3043.01 
2628.11 -2790.85 3042.4 
2628.51 -2791.67 3043.92 
2617.96 -2779.43 3056.33 
2620.24 -2781.01 3059.67 
2620.68 -2781.57 3059.74 
2621.62 -2782.54 3059.94 
2619.25 -2780.26 3058.42 
2619.72 -2780.66 3058.97 
2615.74 -2777.48 3052.24 
2615.92 -2777.87 3052.58 
2615.05 -2776.18 3050.91 
2615.2 -2776.69 3051.17 
2616.29 -2778.48 3053.31 
2616.08 -2778.39 3052.85 
2616.93 -2779.12 3054.48 
2614.47 -2774.54 3049.07 
2614.75 -2775.43 3050.09 
2614.1 -2774.95 3046.93 
2614.18 -2775.15 3047.44 
2614.39 -2774.7 3048.58 
2613.96 -2775.49 3046.32 
2613.71 -2774.83 3043.71 
2629.34 -2792.11 3045.72 
2629.8 -2792.35 3046.39 
2630.3 -2792.38 3048.59 
2630.09 -2792.37 3047.68 
2629.73 -2792.16 3047.16 
2615.7 -2773.78 3040.33 
2626.66 -2788 3039.65 
2627.29 -2788.94 3040.07 
2627.97 -2790.38 3041.75 
2627.71 -2789.82 3041.08 
2628.42 -2791.54 3044.55 
2621.11 -2782.57 3059.15 
2621.48 -2782.76 3059.44 
2619.03 -2780.61 3057.69 
2619.44 -2780.93 3058.23 
2618.72 -2780.6 3057.12 
2618.2 -2780.12 3056.65 
2618.36 -2780.59 3056.45 
2615.22 -2777.62 3051.29 
2615.33 -2778.11 3051.53 
2615.66 -2778.02 3052.08 
2615.03 -2777.23 3050.93 
2615.82 -2778.48 3052.4 
2614.91 -2776.73 3050.67 
2614.77 -2776.12 3050.28 
2616.47 -2778.94 3053.49 
2616.72 -2779.05 3054.03 
2614.43 -2775.04 3048.95 
2614.57 -2775.42 3049.57 
2614.25 -2775.4 3047.92 
2613.8 -2775.5 3045.12 
2614.04 -2775.75 3046.85 
2613.8 -2775.15 3044.2 
2614.27 -2774.37 3042.11 
2628.57 -2791.54 3045.42 
2628.95 -2791.71 3046.15 
2629.14 -2791.77 3046.7 
2629.77 -2792.05 3048.06 
2629.37 -2791.82 3047.5 
2617.23 -2775.49 3038.9 
2615.44 -2774.07 3040.72 
2627.93 -2791.17 3043.41 
2628.04 -2791.35 3043.91 
2627.84 -2790.85 3042.83 
2626.71 -2788.52 3040.11 
2627.41 -2789.33 3040.55 
2622.14 -2783.26 3059.88 
2623.76 -2785.15 3059.48 
2623.93 -2785.59 3058.95 
2619.89 -2781.28 3058.78 
2620.3 -2781.76 3058.98 
2620.51 -2782.19 3058.75 
2620.74 -2782.63 3058.53 
2621.29 -2783.08 3058.76 
2621.73 -2783.25 3059.16 
2618.85 -2781.06 3056.95 
2619.35 -2781.38 3057.66 
2617.65 -2780.18 3055.62 
2618.12 -2780.88 3055.7 
2614.99 -2777.97 3050.93 
2615.06 -2778.54 3051.1 
2615.54 -2778.58 3051.94 
2614.72 -2777.24 3050.39 
2614.64 -2776.62 3050.07 
2616.12 -2779.12 3052.83 
2615.82 -2779.21 3052.32 
2617.33 -2779.99 3054.92 
2617.13 -2779.96 3054.37 
2616.64 -2779.73 3053.55 
2614.4 -2775.53 3048.83 
2614.52 -2776.08 3049.53 
2614.11 -2776.01 3047.34 
2614.22 -2775.92 3047.84 
2613.77 -2775.8 3045.6 
2613.88 -2774.98 3043.11 
2628.42 -2791.32 3046.25 
2628.78 -2791.44 3046.99 
2629.64 -2791.63 3049.05 
2629.18 -2791.48 3048.38 
2629.01 -2791.5 3047.74 
2616.05 -2774.47 3039.93 
2615.09 -2774.41 3041.17 
2614.62 -2774.61 3041.71 
2625.86 -2786.73 3039.01 
2627.66 -2790.54 3042.39 
2627.23 -2789.6 3041.15 
2627.35 -2790.03 3041.64 
2628.01 -2791.24 3044.78 
2628.17 -2791.26 3045.54 
2624.38 -2786.2 3058.52 
2624.95 -2786.53 3058.4 
2622.7 -2783.94 3059.72 
2623.89 -2785.97 3058.21 
2619.79 -2781.76 3058.17 
2620.2 -2782.23 3058.23 
2620.43 -2782.64 3058.05 
2620.69 -2783.1 3057.84 
2621.46 -2783.52 3058.41 
2618.51 -2781.44 3055.95 
2618.79 -2781.5 3056.46 
2619.26 -2781.85 3057.1 
2617.75 -2780.65 3055.35 
2614.67 -2778.15 3050.39 
2615.08 -2779.1 3051.17 
2614.8 -2779.07 3050.71 
2615.38 -2779.08 3051.66 
2614.48 -2777.28 3049.83 
2615.63 -2779.54 3051.93 
2616.13 -2779.73 3052.68 
2614.35 -2776.23 3048.88 
2614.38 -2776.68 3049.34 
2614.3 -2776.14 3048.34 
2613.76 -2775.63 3044.52 
2613.78 -2776.16 3046.21 
2613.9 -2776.23 3046.76 
2614 -2774.82 3042.48 
2629.09 -2791.11 3049.26 
2628.67 -2791.19 3047.98 
2616.58 -2774.97 3039.5 
2616.96 -2775.34 3039.32 
2617.87 -2776.15 3038.63 
2625.32 -2786.15 3038.85 
2625.97 -2787.12 3039.36 
2626.33 -2788.19 3040.09 
2626.12 -2787.68 3039.8 
2627.74 -2791.12 3044.25 
2626.85 -2788.95 3040.59 
2624.36 -2786.37 3058.03 
2622.4 -2784.01 3059.18 
2621.81 -2783.91 3058.36 
2622.79 -2784.45 3059.09 
2623.23 -2785.01 3058.9 
2623.37 -2785.57 3058.29 
2623.94 -2786.3 3057.6 
2619.69 -2782.25 3057.45 
2620.12 -2782.71 3057.5 
2620.63 -2783.56 3057.17 
2621.4 -2783.92 3057.77 
2620.98 -2783.93 3057.17 
2618.18 -2781.81 3055.12 
2618.47 -2781.86 3055.53 
2618.96 -2782.09 3056.32 
2618.01 -2781.25 3055.2 
2617.57 -2780.89 3054.83 
2619.4 -2782.53 3056.64 
2614.58 -2778.78 3050.29 
2614.49 -2779.31 3050.16 
2614.45 -2777.79 3049.84 
2615.34 -2779.63 3051.43 
2617.14 -2780.57 3054.19 
2616.54 -2780.41 3053.19 
2615.73 -2780.03 3051.96 
2614.25 -2777.01 3048.8 
2614.25 -2777.37 3049.19 
2614.23 -2778 3049.35 
2614.07 -2776.52 3047.63 
2613.7 -2776.08 3045 
2613.66 -2776.4 3045.53 
2613.72 -2775.5 3043.81 
2613.62 -2775.94 3044.15 
2614.26 -2775.03 3042 
2613.94 -2775.38 3042.64 
2628.29 -2791.1 3046.89 
2627.97 -2791 3046.39 
2628.77 -2790.67 3050.08 
2628.63 -2790.91 3048.82 
2628.39 -2790.89 3048.3 
2619.68 -2778.35 3037.95 
2615.71 -2774.39 3040.41 
2627.14 -2790.17 3042.09 
2627.48 -2791 3043.69 
2627.38 -2790.7 3043.13 
2626.34 -2788.68 3040.62 
2626.73 -2789.58 3041.42 
2627.83 -2791.02 3045.86 
2624.96 -2786.8 3057.65 
2622.22 -2784.4 3058.34 
2621.88 -2784.3 3057.93 
2622.93 -2785.02 3058.46 
2623.08 -2785.62 3057.81 
2623.43 -2786 3057.63 
2624.41 -2786.62 3057.4 
2619.84 -2782.95 3056.77 
2620.29 -2783.55 3056.67 
2620.54 -2784.02 3056.43 
2621.46 -2784.35 3057.27 
2621.04 -2784.36 3056.67 
2617.84 -2782.15 3054.58 
2618.42 -2782.34 3055.14 
2618.88 -2782.53 3055.8 
2617.78 -2781.65 3054.78 
2616.82 -2780.82 3053.51 
2617.1 -2781.17 3053.85 
2617.46 -2781.49 3054.35 
2617.24 -2781.83 3053.84 
2619.34 -2783 3055.95 
2614.28 -2779.34 3049.61 
2613.96 -2780.42 3049.22 
2614.09 -2779.99 3049.44 
2614.38 -2780.13 3049.91 
2614.88 -2779.8 3050.71 
2614.17 -2778.55 3049.28 
2614.76 -2780.65 3050.41 
2615.86 -2780.54 3052.07 
2615.51 -2780.51 3051.55 
2616.13 -2780.88 3052.39 
2614.23 -2776.65 3048.2 
2614.13 -2777.51 3048.48 
2613.91 -2776.72 3047.15 
2613.7 -2776.64 3046.35 
2628.23 -2790.92 3047.74 
2628.35 -2790.62 3049.18 
2625.38 -2786.55 3039.37 
2627.17 -2790.43 3042.7 
2626.45 -2789.07 3041.02 
2626.51 -2789.93 3041.99 
2627.62 -2790.99 3045.15 
2625.22 -2787.07 3057.3 
2621.92 -2784.7 3057.43 
2622.44 -2785.03 3057.75 
2622.79 -2785.84 3057.19 
2623.65 -2786.54 3056.89 
2619.75 -2783.42 3056.03 
2620.13 -2783.97 3055.9 
2620.3 -2784.38 3055.6 
2620.74 -2784.49 3056.06 
2621.5 -2784.77 3056.74 
2618.12 -2782.6 3054.64 
2617.3 -2782.48 3053.67 
2618.81 -2782.88 3055.3 
2616.9 -2782.37 3053.17 
2616.35 -2781.28 3052.63 
2616.65 -2781.63 3052.98 
2616.54 -2782.18 3052.73 
2619.27 -2783.41 3055.34 
2613.97 -2779.9 3048.91 
2613.64 -2780.75 3048.58 
2614.09 -2779.06 3049.1 
2614.32 -2781 3049.68 
2614.63 -2781.41 3050.1 
2615.42 -2781.21 3051.31 
2615.12 -2781.11 3050.88 
2614.11 -2777.01 3047.81 
2614.05 -2778.02 3048.53 
2613.98 -2777.94 3047.98 
2613.91 -2778.68 3048.43 
2613.78 -2779.3 3048.3 
2613.5 -2776.43 3044.45 
2613.47 -2776.75 3044.96 
2613.49 -2776.98 3045.6 
2613.87 -2775.47 3043.25 
2613.5 -2776.16 3043.65 
2627.84 -2790.85 3046.97 
2628.28 -2790.21 3050.61 
2617.32 -2776.11 3038.8 
2618.28 -2776.65 3038.64 
2621.49 -2781.31 3037.96 
2615.23 -2774.61 3040.73 
2625.66 -2787.28 3039.74 
2627.38 -2790.9 3044.59 
2626.7 -2790.21 3042.52 
2624.84 -2787.04 3056.81 
2625.59 -2787.43 3056.82 
2622.23 -2785.49 3056.85 
2623.12 -2786.37 3056.9 
2622.45 -2786.03 3056.74 
2623.93 -2786.88 3056.55 
2619.66 -2783.82 3055.39 
2619.92 -2784.25 3055.26 
2621.44 -2785.04 3056.29 
2616.38 -2782.72 3052.15 
2617.14 -2782.91 3053.06 
2617.74 -2782.79 3053.95 
2616.02 -2782.6 3051.76 
2615.81 -2781.93 3051.74 
2613.42 -2782.19 3047.83 
2613.25 -2781.45 3047.74 
2613.45 -2781.59 3048.26 
2613.87 -2781.3 3048.96 
2613.66 -2780.29 3048.15 
2614.15 -2782.16 3049.19 
2614.97 -2781.87 3050.54 
2614 -2777.32 3047.39 
2613.9 -2777.88 3047.4 
2613.83 -2778.6 3047.86 
2613.74 -2778.54 3047.25 
2613.68 -2779.29 3047.76 
2613.53 -2779.97 3047.66 
2613.59 -2777.19 3046.12 
2613.9 -2777.25 3046.75 
2613.34 -2776.68 3043.92 
2614.53 -2775.11 3041.47 
2614.02 -2775.53 3042.1 
2627.79 -2790.59 3048.03 
2627.52 -2790.78 3046.45 
2627.87 -2790.34 3049.12 
2627.86 -2789.92 3050.72 
2614.84 -2774.91 3041.09 
2616.2 -2775.02 3039.92 
2624.88 -2786.04 3039.24 
2624.66 -2785.34 3038.78 
2625.81 -2787.88 3040.19 
2623.61 -2783.79 3038.41 
2626.99 -2790.73 3043.69 
2626.84 -2790.49 3043.13 
2625.99 -2788.79 3040.96 
2626.22 -2789.6 3041.71 
2627.26 -2790.77 3045.7 
2625.15 -2787.31 3056.51 
2625.91 -2787.67 3056.48 
2621.92 -2785.73 3056.38 
2622.53 -2786.77 3056.11 
2623.57 -2787.09 3056.08 
2623.01 -2786.93 3056.1 
2620.24 -2784.74 3055.16 
2615.65 -2783.18 3050.89 
2616.03 -2783.27 3051.29 
2616.89 -2783.17 3052.45 
2617.55 -2783.14 3053.4 
2618.62 -2783.01 3054.83 
2615.17 -2782.79 3050.52 
2613.13 -2782.2 3047.2 
2613.61 -2782.72 3047.9 
2612.8 -2783.21 3046.77 
2613.35 -2780.86 3047.46 
2613.74 -2783.6 3047.98 
2614.54 -2782.49 3049.7 
2614.2 -2783.84 3048.57 
2614.55 -2783.89 3049.09 
2613.84 -2777.73 3046.9 
2613.6 -2778.57 3046.74 
2613.6 -2779.2 3047.2 
2613.43 -2779.92 3047.16 
2613.45 -2777.53 3045.78 
2613.6 -2777.9 3046.36 
2613.31 -2776.98 3044.38 
2613.26 -2777.32 3044.8 
2613.31 -2777.72 3045.23 
2613.97 -2775.9 3042.6 
2621.75 -2781.75 3038.08 
2615.61 -2774.91 3040.44 
2625.83 -2788.29 3040.57 
2626.99 -2790.71 3044.28 
2626.19 -2790.06 3042.6 
2625.97 -2789.18 3041.4 
2627.16 -2790.76 3045.06 
2624.35 -2787.25 3056.02 
2621.6 -2785.81 3055.98 
2621.85 -2786.31 3055.98 
2618.99 -2783.48 3054.93 
2620.93 -2784.95 3055.72 
2620.48 -2785.16 3055.02 
2614.76 -2784.36 3049.27 
2616.65 -2783.46 3051.92 
2617.25 -2783.49 3052.69 
2618.06 -2783.24 3053.83 
2613.16 -2781.6 3047.09 
2612.53 -2782.76 3046.16 
2613.26 -2783.39 3047.35 
2612.38 -2783.28 3046.08 
2612.72 -2783.93 3046.5 
2613.23 -2784.21 3047.11 
2613.86 -2784.6 3047.81 
2613.21 -2779.27 3046.35 
2613.07 -2780.17 3046.62 
2613.15 -2780.56 3046.98 
2612.92 -2781.17 3046.75 
2613.13 -2778.73 3045.61 
2613.16 -2777.2 3043.92 
2613.18 -2777.83 3044.71 
2614.26 -2775.58 3041.6 
2627.39 -2790.48 3047.45 
2627.45 -2789.63 3050.83 
2627.23 -2790.51 3046.94 
2627.51 -2789.1 3053.07 
2616.52 -2775.45 3039.69 
2616.89 -2775.92 3039.1 
2617.73 -2776.6 3038.8 
2624.96 -2786.63 3039.67 
2624.34 -2784.93 3038.69 
2626.51 -2790.48 3043.78 
2625.97 -2789.72 3042.19 
2626.89 -2790.53 3046.17 
2625.51 -2787.58 3056.11 
2625.03 -2787.44 3055.96 
2624 -2787.25 3055.64 
2621.11 -2785.51 3055.57 
2622.04 -2786.88 3055.73 
2623.48 -2787.19 3055.47 
2622.76 -2787.08 3055.49 
2621.64 -2786.75 3055.36 
2618.67 -2783.63 3054.35 
2619.26 -2784.03 3054.81 
2619.49 -2784.63 3054.58 
2614.34 -2785.09 3048.3 
2615.91 -2783.87 3050.88 
2617.6 -2783.84 3052.86 
2618.28 -2783.75 3053.76 
2612.67 -2782.23 3046.16 
2612.39 -2783.84 3046.04 
2612.72 -2784.44 3046.35 
2613.1 -2784.78 3046.74 
2612.72 -2780.29 3045.94 
2612.79 -2780.75 3046.51 
2612.66 -2781.56 3046.07 
2613.3 -2778.2 3045.39 
2612.6 -2779.98 3045.35 
2612.45 -2779.98 3044.83 
2613.06 -2777.69 3044.13 
2612.91 -2778.36 3044.31 
2612.66 -2778.91 3044.24 
2612.94 -2778.73 3044.85 
2613.84 -2776.13 3043.18 
2613.52 -2776.7 3043.36 
2614.02 -2776.05 3042.12 
2627.28 -2790.29 3048.1 
2627.3 -2789.96 3049.36 
2626.8 -2790.38 3046.67 
2626.12 -2787.95 3055.62 
2615.17 -2775.27 3040.7 
2614.65 -2775.45 3041.07 
2624.48 -2785.69 3039.17 
2625.13 -2787.15 3039.9 
2625.28 -2787.57 3040.18 
2623.84 -2784.25 3038.56 
2626.5 -2790.44 3044.44 
2626.68 -2790.51 3044.94 
2626.24 -2790.32 3043.21 
2626.62 -2790.47 3045.63 
2621.34 -2786.31 3055.28 
2623.15 -2787.19 3055.09 
2622.39 -2787.06 3055.12 
2618.22 -2784.17 3053.4 
2618.77 -2784.25 3054.07 
2618.93 -2784.78 3053.93 
2619.88 -2785.08 3054.55 
2620.44 -2785.63 3054.58 
2613.86 -2785.43 3047.51 
2613.44 -2785.11 3047.07 
2614.21 -2785.66 3047.91 
2616.3 -2784.18 3051.18 
2616.99 -2784.37 3051.87 
2617.6 -2784.37 3052.51 
2612.28 -2782.28 3045.47 
2612.46 -2781.44 3045.4 
2612.35 -2781.14 3045.01 
2612.01 -2780.94 3044.21 
2612.86 -2777.97 3043.7 
2613.07 -2777.49 3043.49 
2612.59 -2778.59 3043.65 
2612.37 -2779.09 3043.63 
2611.98 -2779.88 3043.44 
2612.21 -2779.8 3043.98 
2613.83 -2776.39 3042.52 
2626.86 -2789.5 3050.24 
2626.92 -2788.82 3053.07 
2626.19 -2788.21 3054.37 
2626.94 -2790.2 3047.66 
2626.8 -2790.26 3047.18 
2620.4 -2779.33 3038.12 
2619.93 -2778.96 3038.2 
2618.6 -2777.34 3038.63 
2618.03 -2777.06 3038.8 
2615.78 -2775.36 3040.26 
2625.48 -2788.52 3040.93 
2626.09 -2790.24 3044.17 
2625.92 -2790.22 3043.59 
2625.69 -2789.38 3041.79 
2626.32 -2790.36 3046.06 
2624.91 -2787.56 3055.47 
2625.39 -2787.69 3055.54 
2624.36 -2787.45 3055.2 
2623.88 -2787.33 3055.07 
2621.02 -2786.1 3054.86 
2622.8 -2787.19 3054.73 
2622.35 -2787.03 3054.52 
2621.39 -2786.56 3054.63 
2621.86 -2786.78 3054.52 
2618.19 -2784.72 3052.97 
2618.29 -2785.22 3052.74 
2619.03 -2785.3 3053.7 
2619.72 -2785.42 3054.19 
2620.06 -2785.96 3054.06 
2613.47 -2785.6 3046.93 
2613.18 -2785.28 3046.65 
2613.78 -2785.91 3047.24 
2615.04 -2784.87 3049.44 
2615.7 -2784.78 3050.22 
2616.15 -2784.87 3050.62 
2616.57 -2784.96 3050.98 
2612.04 -2782.76 3045.32 
2612.04 -2783.35 3045.68 
2612.31 -2784.31 3045.86 
2612.03 -2783.91 3045.68 
2612.67 -2784.89 3046.1 
2611.99 -2781.92 3044.79 
2611.74 -2781.84 3044.31 
2611.96 -2782.39 3044.97 
2611.71 -2780.85 3043.64 
2611.5 -2781.44 3043.65 
2612.76 -2778.19 3043.22 
2611.32 -2781.06 3042.93 
2614.11 -2776.15 3041.51 
2613.51 -2776.77 3042.59 
2626.93 -2790.04 3048.38 
2626.79 -2788.9 3052.57 
2626.67 -2789.03 3051.9 
2625.74 -2787.93 3054.87 
2626.26 -2790.02 3047.47 
2619.34 -2778.1 3038.27 
2617.2 -2776.54 3039.05 
2622.57 -2782.78 3038.22 
2616.14 -2775.72 3039.87 
2624.44 -2786.33 3039.67 
2625.32 -2787.98 3040.5 
2626.24 -2790.27 3045.12 
2625.59 -2790.21 3044.02 
2625.78 -2790.12 3043.07 
2625.66 -2789.84 3042.63 
2625.46 -2788.89 3041.27 
2625.87 -2790.11 3046.59 
2626.03 -2790.19 3045.65 
2620.72 -2786.22 3054.37 
2621.49 -2786.69 3054.08 
2616.14 -2785.36 3050.23 
2617.12 -2785.15 3051.4 
2617 -2785.7 3050.85 
2618.58 -2785.88 3052.7 
2617.45 -2786.31 3050.86 
2619.33 -2785.77 3053.66 
2619.58 -2786.36 3053.44 
2614.11 -2786.11 3047.61 
2614.78 -2785.83 3048.42 
2615.14 -2785.73 3048.77 
2615.49 -2786.2 3048.97 
2611.23 -2781.59 3043.17 
2611.45 -2781.95 3043.88 
2612.55 -2778.67 3042.97 
2611 -2781.57 3042.44 
2613.24 -2777.16 3042.96 
2614.52 -2775.98 3041.1 
2626.64 -2789.7 3049.25 
2625.81 -2788.24 3053.48 
2626.34 -2789.29 3050.43 
2625.26 -2787.89 3054.2 
2626.41 -2789.95 3047.99 
2625.71 -2789.94 3047.11 
2620.68 -2779.88 3038.03 
2621.08 -2780.75 3037.95 
2616.56 -2775.94 3039.52 
2621.94 -2782.24 3038.23 
2623.14 -2783.43 3038.37 
2614.95 -2775.77 3040.79 
2615.44 -2775.72 3040.45 
2624.08 -2785.26 3039.07 
2625.77 -2790.18 3044.89 
2625.3 -2790.25 3043.6 
2625.48 -2789.57 3042.21 
2624.74 -2787.71 3054.48 
2623.28 -2787.35 3054.34 
2623.82 -2787.48 3054.42 
2624.27 -2787.64 3054.11 
2622.79 -2787.22 3054.21 
2620.3 -2786.48 3053.82 
2621.93 -2786.95 3053.9 
2615.91 -2786.57 3049.23 
2616.37 -2787.04 3049.42 
2618.86 -2786.29 3052.81 
2617.92 -2786.66 3051.14 
2619.01 -2786.78 3052.62 
2613.25 -2785.83 3046.53 
2612.88 -2785.34 3046.22 
2614.7 -2786.37 3048.03 
2615.19 -2786.52 3048.44 
2611.73 -2782.89 3044.81 
2611.65 -2783.39 3044.99 
2611.74 -2783.88 3045.14 
2611.67 -2782.49 3044.5 
2612.33 -2779.18 3042.96 
2611.92 -2779.76 3042.87 
2611.22 -2780.85 3042.46 
2613.06 -2777.51 3042.65 
2613.87 -2776.54 3041.8 
2613.51 -2776.95 3042.04 
2626.19 -2789.74 3048.68 
2626.09 -2788.74 3052.15 
2624.83 -2787.84 3053.81 
2625.55 -2789.75 3048.03 
2619.44 -2778.79 3038.29 
2618.85 -2777.95 3038.43 
2624.63 -2787.1 3040.09 
2624.82 -2787.76 3040.45 
2625.22 -2790.21 3044.47 
2625.28 -2790.43 3043.11 
2625.17 -2789.19 3041.65 
2625.39 -2789.95 3046.45 
2625.48 -2790.04 3045.69 
2621.02 -2786.63 3053.82 
2619.98 -2786.71 3053.23 
2615.6 -2787.23 3048.65 
2615.99 -2787.65 3048.89 
2617.8 -2787.03 3050.72 
2616.93 -2787.39 3049.62 
2613.58 -2786.26 3046.74 
2614.94 -2786.9 3048.13 
2611.46 -2782.98 3044.37 
2611.38 -2782.6 3044.05 
2611.99 -2784.44 3045.36 
2612.32 -2785.02 3045.58 
2611.13 -2782.24 3043.37 
2611.01 -2782.01 3042.88 
2612.78 -2778.19 3042.65 
2612.43 -2778.94 3042.52 
2611.9 -2779.63 3042.35 
2613.96 -2776.73 3041.26 
2625.99 -2789.44 3049.47 
2625.28 -2788.2 3053 
2625.85 -2789.07 3050.7 
2625.05 -2789.67 3047.89 
2625.18 -2789.59 3048.37 
2624.88 -2789.72 3047.26 
2616.8 -2776.38 3039.33 
2617.57 -2777.1 3039 
2624.01 -2785.82 3039.47 
2625.35 -2790.12 3045.19 
2624.82 -2790.24 3043.99 
2624.75 -2789.86 3046.44 
2624.9 -2789.96 3045.87 
2623.29 -2787.47 3053.76 
2623.81 -2787.61 3053.72 
2622.72 -2787.32 3053.7 
2621.36 -2786.95 3053.36 
2620.67 -2786.73 3053.41 
2615.59 -2787.73 3048.52 
2617.12 -2787.69 3049.26 
2618.23 -2787.37 3050.8 
2612.62 -2785.51 3045.79 
2612.94 -2785.95 3046.05 
2614.07 -2786.54 3047.2 
2614.4 -2786.71 3047.61 
2611.19 -2783.1 3043.94 
2611.35 -2783.61 3044.26 
2611.53 -2784.04 3044.47 
2611.03 -2782.78 3043.38 
2610.8 -2781.98 3042.18 
2611.25 -2780.48 3042.11 
2613.01 -2777.82 3042.14 
2613.35 -2777.43 3041.78 
2624.62 -2787.92 3053.28 
2625.61 -2788.69 3051.88 
2625.54 -2789.14 3050.13 
2625.06 -2789.3 3049.21 
2624.53 -2789.58 3047.76 
2624.45 -2789.7 3046.99 
2618.96 -2778.59 3038.37 
2618.23 -2777.69 3038.73 
2622.02 -2782.86 3038.4 
2615.02 -2776.26 3040.53 
2615.73 -2775.97 3040.04 
2614.44 -2776.47 3040.93 
2623.72 -2784.76 3038.91 
2624.18 -2786.65 3040.02 
2624.93 -2788.3 3040.77 
2624.71 -2790.1 3044.99 
2624.7 -2790.38 3043.4 
2625.11 -2789.73 3042.62 
2622.27 -2787.25 3053.44 
2624.04 -2787.77 3053.3 
2621.83 -2787.2 3053.14 
2620.56 -2786.95 3052.94 
2618.33 -2787.63 3050.3 
2615.09 -2787.51 3048.03 
2616.22 -2788.11 3048.9 
2615.82 -2788.27 3048.55 
2616.82 -2788.27 3048.68 
2613.36 -2786.41 3046.18 
2610.98 -2783.38 3043.46 
2610.88 -2782.68 3042.89 
2611.72 -2784.59 3044.62 
2611.98 -2784.92 3045.01 
2611.51 -2784.51 3044.16 
2610.97 -2781.32 3041.99 
2612.64 -2778.54 3042.3 
2613.64 -2777.16 3041.46 
2612.7 -2778.61 3041.72 
2613.07 -2778.2 3041.54 
2624.99 -2788.38 3052.24 
2625.14 -2788.63 3051.63 
2624.12 -2789.44 3048.02 
2624.56 -2789.32 3048.79 
2624.76 -2789.06 3049.82 
2624.1 -2789.77 3046.58 
2624.34 -2789.92 3046.01 
2621.14 -2781.51 3038.28 
2620.02 -2779.36 3038.51 
2616.17 -2776.27 3039.62 
2621.41 -2782.01 3038.38 
2623.36 -2784.12 3038.7 
2624.4 -2787.53 3040.3 
2624.9 -2788.76 3041.15 
2624.19 -2790.18 3044.25 
2624.79 -2790.09 3042.95 
2624.9 -2789.42 3042.17 
2623.89 -2789.96 3045.72 
2624.09 -2790.07 3045.06 
2623.42 -2787.61 3053.24 
2622.88 -2787.52 3053.02 
2621.4 -2787.25 3052.69 
2622.16 -2787.45 3052.72 
2620.92 -2787.38 3052.23 
2619.27 -2787.2 3052.14 
2619.5 -2787.53 3051.58 
2617.51 -2788.07 3048.88 
2614.78 -2787.31 3047.58 
2615.27 -2787.93 3047.77 
2616.25 -2788.55 3048.44 
2612.36 -2785.65 3045.37 
2612.69 -2786.08 3045.49 
2614.08 -2786.86 3046.79 
2614.5 -2787.17 3047.11 
2611.26 -2783.98 3043.81 
2610.65 -2782.46 3042.04 
2610.81 -2781.73 3041.72 
2613.86 -2777.18 3040.97 
2624.25 -2788.01 3052.67 
2624.98 -2788.78 3050.96 
2624.62 -2788.46 3051.68 
2623.66 -2789.48 3047.55 
2623.56 -2789.33 3048.06 
2624.32 -2788.9 3050.11 
2623.71 -2789.61 3047.07 
2620.65 -2780.5 3038.09 
2618.34 -2778.18 3038.6 
2622.54 -2783.47 3038.4 
2614.48 -2776.83 3040.56 
2615.35 -2776.3 3040.13 
2623.53 -2785.43 3039.2 
2624.47 -2788.08 3040.68 
2624.28 -2790.08 3043.7 
2624.36 -2789.87 3043.08 
2624.66 -2789.13 3041.75 
2623.58 -2790.02 3045.3 
2623.25 -2787.75 3052.69 
2622.54 -2787.72 3052.31 
2623.59 -2788.01 3052.26 
2621.86 -2787.68 3051.95 
2621.24 -2787.8 3051.47 
2619.76 -2787.93 3050.66 
2618 -2787.99 3049.24 
2618.88 -2787.85 3050.18 
2619.04 -2788.14 3049.58 
2616.8 -2788.61 3048.28 
2617.33 -2788.41 3048.46 
2614.98 -2787.74 3047.35 
2615.65 -2788.38 3047.99 
2616.12 -2788.81 3047.92 
2613.75 -2786.88 3046.27 
2613.11 -2786.52 3045.64 
2611.23 -2784.42 3043.52 
2610.7 -2782.89 3042.37 
2610.82 -2783.18 3042.88 
2610.83 -2783.69 3043.03 
2611.72 -2785.1 3044.29 
2611.42 -2784.97 3043.67 
2612.14 -2785.69 3044.87 
2610.58 -2782.93 3041.88 
2610.61 -2782.32 3041.52 
2611.89 -2779.55 3041.81 
2611.11 -2781.04 3041.6 
2613.52 -2777.69 3041.11 
2612.68 -2778.81 3041.17 
2623.97 -2788.24 3051.87 
2624.34 -2788.68 3050.89 
2623.94 -2788.49 3051.17 
2623.09 -2789.39 3047.55 
2623.61 -2789.1 3048.93 
2623.47 -2788.84 3049.77 
2623.27 -2789.66 3046.65 
2623.35 -2789.9 3045.77 
2619.34 -2779.26 3038.43 
2616.89 -2776.97 3039.05 
2617.69 -2777.55 3038.79 
2621.4 -2782.7 3038.56 
2622.81 -2783.89 3038.6 
2623.48 -2786.04 3039.57 
2623.92 -2787.12 3040.17 
2623.7 -2790.1 3044.66 
2623.49 -2790.06 3044.02 
2623.79 -2790.05 3043.54 
2622.79 -2789.92 3045.41 
2622.92 -2787.99 3051.9 
2622.2 -2787.93 3051.58 
2623.27 -2788.27 3051.37 
2619.83 -2788.16 3050.07 
2621.38 -2788.03 3050.97 
2619.01 -2788.47 3048.83 
2618.08 -2788.26 3048.79 
2618.19 -2788.61 3048.2 
2614.46 -2787.49 3046.56 
2615.19 -2788.2 3047.14 
2615.85 -2788.82 3047.44 
2610.64 -2783.75 3042.29 
2611.48 -2780.09 3041.75 
2614.27 -2777.28 3040.42 
2613.8 -2777.7 3040.6 
2613.05 -2778.42 3041.09 
2612.17 -2779.38 3041.17 
2623.22 -2788.66 3050.17 
2622.5 -2789.55 3046.57 
2622.35 -2789.28 3047.5 
2622.26 -2789.13 3047.99 
2622.96 -2789.06 3048.68 
2622.34 -2788.97 3048.62 
2620.25 -2780.05 3038.38 
2616.31 -2776.7 3039.32 
2618.71 -2779.07 3038.47 
2617.17 -2777.26 3038.73 
2623.25 -2784.57 3038.92 
2614.98 -2776.73 3040.14 
2615.64 -2776.58 3039.82 
2623.56 -2786.5 3039.88 
2624.44 -2788.58 3041.02 
2623.12 -2790 3043.57 
2623.97 -2789.92 3042.77 
2623.54 -2789.91 3043.09 
2624.59 -2789.73 3042.63 
2624.29 -2788.99 3041.43 
2622.6 -2789.96 3044.84 
2623.17 -2790.02 3044.44 
2622.56 -2788.2 3051.14 
2622.16 -2788.45 3050.14 
2619.93 -2788.49 3049.22 
2617.29 -2788.72 3048.04 
2614.96 -2788.13 3046.66 
2615.43 -2788.69 3046.8 
2611.89 -2785.62 3044.28 
2612.44 -2786.22 3045.05 
2613.53 -2787 3045.76 
2610.73 -2781.88 3041.22 
2610.58 -2782.31 3040.98 
2611.35 -2780.51 3041.47 
2610.98 -2781.43 3041.31 
2613.39 -2778.1 3040.85 
2611.58 -2780.05 3041.25 
2622.05 -2788.67 3049.42 
2620.64 -2789.13 3047.14 
2620.64 -2789.3 3046.61 
2620.57 -2788.99 3047.64 
2620.98 -2789.65 3045.72 
2621.9 -2783.41 3038.53 
2623.01 -2789.93 3043.03 
2623.27 -2790.23 3042.67 
2624.26 -2789.53 3042.24 
2621.1 -2789.83 3045.22 
2622.57 -2789.94 3044.12 
2621.61 -2788.41 3050.02 
2620.24 -2788.64 3048.83 
2620.09 -2788.75 3048.36 
2620.61 -2788.77 3048.5 
2618.95 -2788.7 3048.11 
2616.44 -2789.08 3047.41 
2615.84 -2789 3046.96 
2614.57 -2787.86 3046.23 
2611.63 -2785.46 3043.77 
2614.13 -2787.44 3046.12 
2612.83 -2786.69 3045.1 
2610.96 -2784.24 3043.12 
2610.5 -2783.81 3041.68 
2611.2 -2784.89 3043.05 
2610.53 -2782.87 3041.38 
2613.13 -2778.55 3040.6 
2619.25 -2789.33 3046.31 
2619.51 -2789.15 3046.81 
2619.56 -2789.63 3045.55 
2620.09 -2780.51 3038.25 
2619.76 -2780.11 3038.46 
2617.34 -2777.68 3038.44 
2618.19 -2778.78 3038.57 
2620.77 -2782.26 3038.52 
2622.76 -2784.35 3038.82 
2622.99 -2785.61 3039.33 
2623.86 -2787.75 3040.37 
2624 -2788.39 3040.82 
2621.07 -2789.92 3044.4 
2622.63 -2789.94 3043.45 
2620.9 -2790.03 3043.84 
2622.37 -2790.09 3042.98 
2622.77 -2790.37 3042.66 
2623.97 -2789.34 3041.85 
2619.77 -2789.78 3045.05 
2618.99 -2788.9 3047.46 
2618.15 -2788.8 3047.59 
2617.18 -2788.77 3047.35 
2617.68 -2788.83 3047.31 
2614.81 -2788.29 3046.04 
2615.29 -2788.75 3046.32 
2612.17 -2786.1 3044.5 
2613.21 -2786.99 3045.26 
2610.85 -2784.18 3042.58 
2610.5 -2782.77 3040.8 
2611.27 -2780.92 3040.97 
2610.79 -2781.79 3040.69 
2613.56 -2778.31 3040.28 
2612.55 -2779.3 3040.58 
2611.87 -2780.02 3040.7 
2611.5 -2780.47 3040.74 
2618.75 -2789.22 3046.54 
2618.68 -2789.64 3045.35 
2618.44 -2789.41 3045.98 
2620.64 -2781.27 3038.28 
2615.73 -2777.02 3039.55 
2617.86 -2778.04 3038.41 
2622.22 -2783.83 3038.56 
2620.86 -2782.93 3038.61 
2622.91 -2785.05 3039.12 
2614.72 -2777.26 3040.06 
2615.27 -2777.04 3039.84 
2619.67 -2790.01 3043.82 
2619.64 -2789.91 3044.33 
2620.94 -2790.17 3043.17 
2621.88 -2790.6 3042.84 
2623.61 -2790.02 3042.33 
2623.72 -2789.1 3041.45 
2618.9 -2789.75 3044.9 
2618.32 -2789.67 3044.92 
2618.13 -2788.98 3047.07 
2616.75 -2788.82 3047.02 
2613.65 -2787.39 3045.45 
2614.32 -2787.96 3045.72 
2615.06 -2788.72 3045.76 
2611.04 -2784.68 3042.61 
2610.45 -2783.41 3041.32 
2612.9 -2779.24 3040.15 
2612.16 -2779.99 3040.25 
2618.05 -2789.19 3046.46 
2617.65 -2789.37 3045.78 
2618.09 -2789.56 3045.44 
2617.48 -2789.1 3046.47 
2616.45 -2777.31 3038.94 
2618.88 -2779.59 3038.54 
2621.33 -2783.4 3038.64 
2614.34 -2777.66 3040.1 
2622.92 -2786.21 3039.62 
2623.37 -2787.32 3040.16 
2623.63 -2788.72 3041.02 
2619.03 -2789.86 3044.28 
2621.45 -2790.27 3043.01 
2620 -2790.15 3043.25 
2622.48 -2791.9 3042.83 
2622.02 -2791.86 3043.06 
2622.64 -2791.05 3042.55 
2623.52 -2789.55 3042 
2616.19 -2788.85 3046.63 
2613.95 -2787.85 3045.36 
2611.38 -2785.39 3042.92 
2611.89 -2785.99 3043.87 
2610.71 -2784.27 3041.7 
2610.88 -2784.5 3042.13 
2610.44 -2783.43 3040.78 
2610.54 -2782.3 3040.44 
2612.49 -2780.04 3039.81 
2611.57 -2780.59 3040.25 
2611.22 -2781.09 3040.44 
2616.9 -2788.99 3046.51 
2615.99 -2777.35 3039.16 
2616.74 -2777.61 3038.6 
2620.48 -2781.82 3038.46 
2620.13 -2781.17 3038.34 
2618.37 -2779.44 3038.57 
2622.45 -2784.82 3039.04 
2615.47 -2777.49 3039.42 
2623.59 -2788.15 3040.58 
2622.96 -2786.81 3039.89 
2618.82 -2789.88 3043.74 
2619.22 -2790.04 3043.38 
2621.36 -2790.82 3043.07 
2622.14 -2792.94 3043.18 
2621.83 -2792.35 3043.2 
2621.66 -2790.61 3042.37 
2621.51 -2790.17 3042.17 
2622.81 -2790.24 3042.13 
2623.15 -2789.35 3041.66 
2617.71 -2789.62 3044.86 
2618.07 -2789.69 3044.36 
2615.86 -2788.83 3046.19 
2614.58 -2788.48 3045.51 
2611.23 -2785.19 3042.38 
2612.45 -2786.72 3044.62 
2610.5 -2782.8 3040.2 
2613.24 -2779.31 3039.74 
2613.95 -2778.3 3039.95 
2611.02 -2781.5 3040.22 
2616.77 -2789.15 3045.93 
2616.93 -2789.31 3045.48 
2619.62 -2780.64 3038.39 
2617.83 -2778.57 3038.27 
2616.9 -2777.99 3038.3 
2618.62 -2780.04 3038.53 
2622.16 -2784.29 3038.78 
2620.22 -2782.8 3038.58 
2621.6 -2783.91 3038.64 
2614.74 -2777.79 3039.74 
2622.51 -2785.94 3039.49 
2622.38 -2785.29 3039.24 
2619.43 -2790.17 3042.9 
2621.65 -2791.09 3042.53 
2621.11 -2790.32 3042.63 
2620.81 -2790.1 3042.27 
2622.89 -2789.74 3041.86 
2623.13 -2788.75 3040.99 
2615.6 -2788.91 3045.62 
2614.18 -2788.33 3045.22 
2611.58 -2785.83 3043.18 
2611.16 -2785.23 3041.87 
2613.56 -2787.77 3045.02 
2612.99 -2787.25 3044.88 
2610.48 -2783.96 3041.19 
2610.46 -2783.4 3040.23 
2612.11 -2780.38 3039.88 
2611.74 -2780.88 3039.67 
2617.11 -2789.47 3045.02 
2616.28 -2789.06 3045.83 
2616.25 -2777.81 3038.79 
2619.13 -2780.33 3038.46 
2620.23 -2782.29 3038.52 
2617.76 -2779.24 3038.56 
2617.42 -2778.86 3038.43 
2617.42 -2778.17 3038.11 
2620.71 -2783.44 3038.64 
2614.58 -2778.32 3039.48 
2615.21 -2777.9 3039.3 
2613.78 -2779.24 3039.29 
2623.12 -2787.81 3040.39 
2622.45 -2786.71 3039.84 
2622.89 -2788.39 3040.69 
2618.16 -2789.77 3043.81 
2618.31 -2789.85 3043.31 
2618.86 -2790.03 3043.01 
2619.91 -2790.24 3042.74 
2620.43 -2790.21 3042.79 
2621.82 -2789.83 3041.81 
2622.03 -2789.41 3041.46 
2622.71 -2789.21 3041.4 
2617.34 -2789.63 3044.47 
2617.42 -2789.68 3043.93 
2615.17 -2788.97 3045.32 
2612.23 -2786.65 3044.11 
2610.74 -2784.39 3041.18 
2610.95 -2784.85 3041.59 
2611.34 -2781.17 3039.94 
2616.36 -2789.29 3045.1 
2615.75 -2777.94 3038.97 
2618.1 -2780.01 3038.56 
2616.44 -2778.22 3038.47 
2621.62 -2784.4 3038.8 
2612.87 -2780.08 3039.35 
2615.02 -2778.35 3039.14 
2622.7 -2787.22 3040.11 
2622.38 -2788.2 3040.63 
2621.72 -2788.98 3041.06 
2621.28 -2788.81 3040.86 
2618.09 -2789.89 3042.85 
2620.26 -2790.14 3042.13 
2620.7 -2789.88 3041.74 
2620.91 -2789.49 3041.41 
2616.85 -2789.61 3044.31 
2614.55 -2788.93 3045.22 
2612.7 -2787.17 3044.42 
2611.88 -2786.37 3043.43 
2610.5 -2783.89 3040.58 
2610.82 -2781.95 3040.05 
2611.98 -2781.08 3039.15 
2611.56 -2781.27 3039.39 
2611.16 -2781.6 3039.75 
2619.92 -2781.81 3038.46 
2619.41 -2781.11 3038.43 
2616.91 -2778.89 3038.41 
2617.24 -2779.35 3038.48 
2618.85 -2780.86 3038.45 
2621.88 -2785.01 3039.11 
2619.93 -2783.28 3038.63 
2620.95 -2784.11 3038.69 
2614.27 -2779.32 3038.96 
2613.48 -2780.16 3038.89 
2622.04 -2786.23 3039.62 
2621.95 -2785.69 3039.41 
2620.81 -2788.59 3040.61 
2620.58 -2789.17 3041.01 
2617.62 -2789.74 3043.41 
2618.61 -2790.05 3042.55 
2619.67 -2790.11 3042.01 
2620.14 -2789.87 3041.62 
2620.32 -2789.53 3041.28 
2616.38 -2789.6 3043.96 
2617.1 -2789.7 3043.52 
2615.82 -2789.14 3045.03 
2613.81 -2788.32 3044.84 
2611.44 -2785.82 3042.4 
2610.52 -2783.82 3039.92 
2612.49 -2780.63 3039.14 
2616.15 -2789.39 3044.53 
2615.85 -2778.52 3038.62 
2615.32 -2778.65 3038.82 
2619.72 -2782.78 3038.57 
2617.53 -2779.8 3038.53 
2618.05 -2780.51 3038.54 
2619.1 -2781.53 3038.44 
2621.27 -2784.93 3038.99 
2620.19 -2783.81 3038.68 
2613.17 -2780.63 3038.83 
2612.36 -2781.24 3038.83 
2622.34 -2787.58 3040.29 
2622.06 -2787.15 3040.03 
2620.2 -2788.89 3040.56 
2617.55 -2789.77 3042.9 
2619.25 -2790.24 3042.35 
2619.14 -2789.94 3041.85 
2619.63 -2789.73 3041.44 
2619.94 -2789.34 3040.91 
2614.16 -2788.75 3044.91 
2612.44 -2787.06 3043.89 
2612.15 -2786.82 3043.46 
2611.74 -2786.31 3042.87 
2610.56 -2783.07 3039.77 
2610.67 -2782.53 3039.8 
2614.73 -2779.44 3038.68 
2613.9 -2780.34 3038.6 
2615.67 -2779.01 3038.54 
2619.52 -2782.16 3038.49 
2618.32 -2781.15 3038.48 
2617.48 -2780.33 3038.53 
2616.34 -2778.75 3038.33 
2621.47 -2785.51 3039.29 
2620.61 -2784.72 3038.85 
2612.77 -2781.34 3038.54 
2621.68 -2786.68 3039.8 
2621.36 -2786.17 3039.54 
2621.78 -2787.56 3040.22 
2619.6 -2788.91 3040.41 
2617.59 -2789.72 3042.35 
2618.58 -2789.96 3042.01 
2618.91 -2789.66 3041.5 
2619.37 -2789.39 3041.03 
2615.81 -2789.59 3044.14 
2616.52 -2789.62 3043.42 
2615.35 -2789.28 3044.88 
2614.77 -2789.39 3044.91 
2611.17 -2785.29 3041.35 
2613.24 -2787.74 3044.6 
2610.73 -2784.35 3040.67 
2611.47 -2781.71 3039.14 
2611.01 -2782.09 3039.55 
2619.35 -2783.12 3038.6 
2617.02 -2779.84 3038.45 
2616.57 -2779.36 3038.38 
2618.34 -2781.82 3038.46 
2619.01 -2782.14 3038.48 
2620.87 -2785.26 3039.07 
2619.64 -2783.91 3038.7 
2611.94 -2781.66 3038.82 
2620.86 -2785.93 3039.36 
2620.36 -2788.25 3040.33 
2619.71 -2788.35 3040.22 
2619.04 -2788.4 3040.14 
2619.1 -2788.91 3040.44 
2617.05 -2789.7 3042.8 
2611 -2784.82 3041.07 
2612.99 -2787.57 3044 
2611.27 -2785.71 3041.73 
2614.43 -2780.38 3038.4 
2613.55 -2780.87 3038.56 
2615.36 -2779.55 3038.56 
2617.64 -2781.07 3038.53 
2619.99 -2784.49 3038.8 
2620.21 -2785.01 3038.93 
2612.52 -2781.76 3038.43 
2620.4 -2787.44 3039.92 
2620.36 -2786.99 3039.7 
2618.49 -2788.68 3040.33 
2617.12 -2789.65 3042.17 
2618.08 -2789.78 3041.84 
2618.67 -2789.43 3041.08 
2615.21 -2789.59 3044.47 
2615.96 -2789.56 3043.56 
2613.54 -2788.48 3044.43 
2614.22 -2789.29 3044.74 
2612.52 -2787.28 3043.4 
2611.36 -2782.19 3039.02 
2614.09 -2780.93 3038.37 
2613.26 -2781.37 3038.4 
2618.83 -2782.66 3038.53 
2617.08 -2780.71 3038.42 
2617.81 -2781.67 3038.48 
2615.91 -2779.64 3038.54 
2618.23 -2782.37 3038.5 
2619.46 -2786.01 3039.22 
2618.94 -2785.57 3039.1 
2618.01 -2785.21 3039.04 
2611.78 -2782.39 3038.57 
2612.22 -2782.16 3038.41 
2619.53 -2787.69 3039.88 
2619.44 -2787.15 3039.63 
2620.09 -2786.49 3039.47 
2619.04 -2787.82 3039.85 
2618.55 -2788.2 3040.04 
2618.57 -2789.12 3040.63 
2617.92 -2789.07 3040.77 
2616.52 -2789.63 3042.54 
2617.51 -2789.66 3041.8 
2615.22 -2789.54 3043.9 
2613.32 -2788.1 3044.17 
2610.7 -2784.25 3040.17 
2611.17 -2782.64 3038.91 
2610.89 -2782.56 3039.33 
2618.81 -2783.16 3038.55 
2616.69 -2780.28 3038.3 
2617.22 -2781.35 3038.39 
2616.13 -2780.25 3038.24 
2615 -2780.39 3038.31 
2619.18 -2786.57 3039.4 
2618.69 -2786.2 3039.2 
2619.07 -2784.09 3038.56 
2617.8 -2788.71 3040.42 
2617.86 -2788.23 3040.08 
2616.18 -2789.59 3043.04 
2617.89 -2789.52 3041.3 
2615.49 -2789.52 3043.34 
2613.85 -2788.91 3044.37 
2614.56 -2789.56 3044.46 
2612.07 -2786.59 3042.52 
2613.03 -2787.76 3043.49 
2610.69 -2783.1 3039.25 
2613.17 -2781.91 3038.24 
2611.91 -2782.91 3038.35 
2618.33 -2782.91 3038.53 
2616.37 -2781.39 3038.07 
2616.29 -2780.88 3038.04 
2617.03 -2781.86 3038.24 
2616.46 -2781.9 3038.11 
2615.16 -2781.17 3038.12 
2614.5 -2781.23 3038.23 
2617.79 -2782.37 3038.24 
2617.21 -2785.65 3039.17 
2616.89 -2784.91 3038.97 
2618.19 -2784.64 3038.83 
2617.37 -2784.5 3038.81 
2616.83 -2784.34 3038.78 
2617.85 -2784.02 3038.72 
2611.2 -2783.1 3038.6 
2618.55 -2787.45 3039.68 
2618.46 -2786.91 3039.48 
2617.38 -2788.47 3040.26 
2617.37 -2788.92 3040.73 
2616.78 -2789.51 3041.8 
2617.15 -2789.55 3041.46 
2611.19 -2785.23 3040.83 
2611.04 -2784.78 3040.55 
2612.58 -2787.3 3042.79 
2610.69 -2784.46 3039.63 
2610.56 -2783.57 3039.43 
2610.84 -2783.56 3038.72 
2612.56 -2782.54 3038.34 
2617.77 -2783.35 3038.62 
2615.01 -2781.89 3038.22 
2614.96 -2782.65 3038.33 
2614.41 -2781.84 3038.09 
2613.85 -2781.85 3038.17 
2617.54 -2782.79 3038.44 
2616.84 -2782.79 3038.35 
2618.04 -2786.6 3039.29 
2616.4 -2784.7 3038.91 
2617.12 -2783.76 3038.67 
2611.53 -2783.61 3038.32 
2618.05 -2787.76 3039.84 
2617.34 -2788.03 3040.01 
2615.73 -2789.56 3042.76 
2616.29 -2789.49 3042.07 
2614.66 -2789.47 3043.93 
2614.95 -2789.44 3043.48 
2613.29 -2788.2 3043.56 
2613.57 -2788.56 3043.9 
2614.19 -2789.28 3044.18 
2614.09 -2782.54 3038.13 
2616.39 -2782.45 3038.2 
2614.1 -2783.12 3038.24 
2613.58 -2782.57 3038.14 
2616.53 -2783.18 3038.49 
2615.22 -2783.31 3038.46 
2617.01 -2786.1 3039.26 
2616.49 -2785.47 3039.17 
2615.46 -2784.35 3038.48 
2615.67 -2783.9 3038.42 
2611.08 -2784.08 3038.49 
2611.54 -2784.46 3038.26 
2618.01 -2787.28 3039.63 
2616.9 -2788.76 3040.67 
2616.82 -2788.37 3040.25 
2616.73 -2789.3 3041.3 
2612.38 -2783.23 3038.38 
2613.41 -2783.11 3038.22 
2613.57 -2783.64 3038.42 
2612.89 -2783.42 3038.36 
2614.6 -2783.92 3038.55 
2614.54 -2783.42 3038.45 
2615.93 -2784.99 3039.02 
2614.97 -2784.5 3038.51 
2614.96 -2785.02 3038.79 
2617.55 -2786.87 3039.5 
2616.99 -2787.57 3039.87 
2616.58 -2787.89 3040.04 
2615.11 -2789.46 3042.95 
2616.34 -2789.25 3041.61 
2613.95 -2788.95 3043.83 
2613.05 -2787.84 3042.93 
2611.08 -2784.8 3040.04 
2610.52 -2784.09 3039.2 
2610.58 -2784.09 3038.66 
2612.84 -2783.93 3038.14 
2614.07 -2784.07 3038.5 
2614.16 -2785.19 3038.6 
2614.45 -2784.72 3038.63 
2616.58 -2786.42 3039.5 
2616.14 -2785.82 3039.31 
2615.76 -2787.28 3039.83 
2616.28 -2786.81 3039.68 
2616.53 -2788.96 3040.96 
2616.33 -2788.63 3040.6 
2615.7 -2789.56 3042.15 
2614.4 -2789.32 3043.42 
2612.4 -2786.77 3042.08 
2611.61 -2785.93 3041.35 
2612.16 -2783.67 3038.25 
2613.53 -2784.15 3038.32 
2611.37 -2784.96 3038.23 
2615.56 -2786.39 3039.57 
2615.22 -2786.74 3039.82 
2616.13 -2788.34 3040.19 
2616.11 -2788.02 3039.78 
2616.05 -2789.03 3041.2 
2613.73 -2788.71 3043.42 
2611.49 -2785.64 3040.84 
2610.51 -2784.81 3039.29 
2613.63 -2784.71 3038.38 
2610.93 -2785.21 3038.29 
2615.52 -2785.45 3039.19 
2615.12 -2789.46 3042.34 
2615.81 -2789.29 3041.62 
2614.5 -2789.26 3042.89 
2611.27 -2785.21 3040.28 
2611.98 -2786.3 3041.63 
2610.73 -2784.73 3038.41 
2612.57 -2784.39 3038.08 
2613.06 -2784.97 3038.06 
2613.65 -2785.35 3038.32 
2615.39 -2785.87 3039.51 
2615.18 -2787.24 3040.06 
2615.33 -2789.3 3041.86 
2613.36 -2788.28 3042.94 
2612.25 -2784.92 3038.12 
2613.43 -2785.92 3038.14 
2614.3 -2785.64 3038.81 
2614.88 -2786.34 3039.91 
2614.77 -2785.89 3039.53 
2615.81 -2788.6 3040.87 
2615.64 -2788.1 3040.25 
2614 -2788.96 3043.06 
2610.91 -2785.04 3039.6 
2610.32 -2785.11 3038.89 
2612.96 -2786.03 3037.95 
2612.97 -2785.5 3037.98 
2614.78 -2787 3040.25 
2614.63 -2789.07 3042.34 
2615.45 -2788.83 3041.35 
2611.49 -2785.04 3039.84 
2611.78 -2785.52 3040.31 
2613.94 -2786 3038.84 
2615.42 -2788.25 3040.73 
2615.19 -2787.89 3040.44 
2614.46 -2786.53 3040.27 
2614.22 -2788.92 3042.6 
2613.17 -2787.79 3042.41 
2612.78 -2787.17 3041.99 
2611.1 -2785.5 3037.88 
2612.14 -2785.48 3038.05 
2613.48 -2786.42 3038.33 
2614.77 -2787.6 3040.58 
2614.3 -2786.99 3040.59 
2614.85 -2788.96 3041.84 
2615.03 -2788.34 3041.14 
2613.75 -2788.62 3042.66 
2610.68 -2785.32 3039.21 
2611.95 -2785.84 3040.73 
2611.64 -2785.32 3038.01 
2614.08 -2785.78 3039.28 
2613.49 -2788.24 3042.4 
2611.18 -2785.42 3039.33 
2612.1 -2786.27 3041.11 
2610.14 -2785.42 3038.49 
2610.29 -2784.96 3038.3 
2612.49 -2786.31 3037.87 
2614.3 -2786.13 3039.97 
2614.12 -2788.63 3042.2 
2614.58 -2788.54 3041.62 
2612.25 -2786.68 3041.39 
2611.96 -2785.22 3039.89 
2611.94 -2785.97 3037.94 
2612.99 -2786.54 3038.03 
2614.41 -2787.71 3040.96 
2614.56 -2788.12 3041.22 
2613.9 -2786.46 3040.37 
2610.55 -2785.62 3038.78 
2610.53 -2785.44 3038.02 
2611.97 -2786.47 3037.8 
2614.09 -2787.31 3040.93 
2613.78 -2787.96 3041.64 
2613.27 -2787.66 3041.78 
2611.74 -2785.42 3039.32 
2612.29 -2785.76 3040.27 
2610.91 -2785.95 3037.61 
2611.42 -2786 3037.84 
2613.71 -2786.78 3040.73 
2613.77 -2785.99 3039.97 
2613.42 -2786.16 3038.81 
2613.36 -2787.26 3041.35 
2612.87 -2787.1 3041.4 
2611.1 -2785.73 3038.87 
2613.55 -2785.72 3039.54 
2612.55 -2786.4 3040.82 
2610.46 -2785.94 3038.3 
2609.94 -2785.8 3038.16 
2613 -2786.21 3038.53 
2613.09 -2786.8 3040.97 
2611.63 -2785.78 3038.94 
2612.43 -2785.17 3039.68 
2611.51 -2786.6 3037.6 
2610.75 -2786.35 3037.33 
2612.45 -2786.8 3037.77 
2613.44 -2786.25 3040.3 
2613.15 -2785.73 3038.94 
2613.01 -2786.36 3040.54 
2612.68 -2785.6 3039.98 
2611.02 -2786.02 3038.43 
2609.97 -2786.18 3037.75 
2611.09 -2786.87 3037.22 
2611.52 -2786.12 3038.49 
2610.6 -2786.75 3037.05 
2613.01 -2785.37 3039.64 
2612.18 -2785.57 3039.03 
2610.54 -2786.26 3037.89 
2612 -2786.91 3037.53 
2612.7 -2785.25 3039.25 
2612.65 -2785.72 3038.73 
2612.52 -2786.09 3038.38 
2612.1 -2785.92 3038.65 
2610.19 -2786.58 3037.36 
2611.07 -2786.39 3037.93 
