1835.57 594.698 4365.66
1834.54 591.719 4361.88
1831.71 587.641 4361.91
1830.87 586.215 4359.85
1828.39 583.593 4359.78
1826.98 582.346 4358.76
1827.69 583.228 4360.01
1825.8 581.386 4358.65
1824.52 579.542 4357.3
1823.84 580.358 4358.77
1826.03 578.945 4355.2
1826.18 578.307 4354.52
1823.42 578.94 4357.41
1826.25 571.106 4369.42
1825.26 568.683 4368.04
1827.17 573.744 4370.47
1828.87 571.126 4376.82
1828.1 574.464 4372.7
1824.3 568.107 4365.43
1823.11 566.554 4365.31
1821.84 567.189 4364.97
1819.73 565.596 4365.42
1820.48 567.285 4364.83
1818.72 565.733 4365.34
1822.98 576.239 4355.86
1823.63 576.611 4355.55
1822.11 576.07 4356.29
1824.77 577.697 4355.42
1821.46 573.13 4356.82
1821.9 574 4356.48
1822.45 574.911 4356.14
1821.35 575.538 4356.63
1820.96 575.978 4356.86
1822.44 570.391 4356.78
1822.17 571.284 4356.65
1821.87 572.046 4356.88
1821.3 572.643 4357.11
1822.28 569.211 4357.44
1821.94 567.748 4361.69
1822.54 565.67 4363.72
1822.94 565.012 4363.31
1822.06 568.3 4358.83
1820.38 566.076 4365.52
1829.74 572.116 4379.69
1832.9 588.287 4380.79
1833.19 590.212 4374.28
1832.2 588.591 4369.95
1831.42 587.564 4367.08
1831.74 588.009 4364.27
1829.29 584.88 4362.8
1828.48 584.192 4362.17
1826.1 581.967 4359.9
1827.1 582.894 4361.54
1827.92 583.649 4363.48
1824.1 581.258 4359.63
1822.3 579.616 4358.64
1822.92 580.231 4358.92
1825.32 578.294 4355.41
1822.67 578.352 4357.25
1826.35 573.806 4367.67
1825.36 570.901 4366.58
1827.51 576.707 4369.36
1828.74 578.704 4371.92
1829.64 578.206 4374.81
1824.28 570.029 4364.32
1823.03 568.559 4364.54
1821.34 569.275 4364.14
1818.91 567.179 4364.74
1819.74 569.228 4364.03
1817.44 566.472 4364.9
1817.94 566.377 4365.15
1818.63 566.756 4365.25
1819.27 576.599 4357.68
1820.36 577.039 4357.39
1817.92 576.353 4358.19
1821.29 577.26 4357.13
1822.21 577.898 4357.14
1814.37 577.514 4360.3
1817.36 578.227 4359.63
1821.2 574.041 4356.87
1820.45 573.192 4357.4
1821.28 575 4356.73
1819.09 575.77 4357.66
1816.6 576.06 4358.66
1821.31 570.95 4357.77
1821.53 570.071 4358.3
1821.2 571.674 4357.45
1820.58 572.364 4357.63
1821.59 569.163 4359.25
1821.26 568.023 4363.24
1821.39 568.591 4361.3
1822.44 565.855 4364.48
1830.85 579.768 4379.11
1832.49 582.311 4387.39
1831.22 586.368 4373.65
1830.28 585.601 4369.56
1829.72 585.221 4366.27
1828.86 584.467 4365.33
1825.98 580.297 4360.92
1824.56 580.564 4360.15
1827 581.449 4363.33
1828.09 583.035 4365.89
1821.58 580.424 4360.5
1821.16 579.113 4358.67
1819.56 579.861 4360.35
1826.65 576 4366.82
1825.39 572.629 4365.17
1828.05 579.132 4369.23
1829.23 581.76 4371.26
1830.29 583.293 4373.58
1824.08 571.99 4363.34
1822.71 570.381 4363.83
1821.14 571.321 4363.35
1817.95 568.52 4364.15
1818.49 570.613 4363.4
1819.79 571.388 4363.21
1816.35 566.603 4364.82
1816.35 567.95 4364.24
1816.94 567.118 4364.9
1818.06 567.365 4365.11
1812.21 576.56 4360.67
1812.58 576.991 4360.67
1810.45 575.813 4361.35
1820 578.839 4359
1809.82 577.311 4362.59
1812.91 578.146 4362.01
1816.04 579.056 4361.32
1820.37 574.537 4357.21
1819.96 573.904 4357.52
1819.65 572.978 4357.9
1819.43 575.019 4357.51
1815.43 575.671 4359.13
1810.8 575.409 4361.1
1820.45 570.732 4359.33
1820.37 571.346 4358.28
1820.73 570.026 4359.93
1820.12 571.982 4358.12
1819.2 572.483 4358.32
1820.8 569.407 4361.05
1820.38 568.46 4363.33
1821.96 566.252 4364.8
1820.21 569.068 4362.39
1820 566.617 4365.25
1829.9 584.528 4371.2
1829.21 584.362 4368.48
1825.84 578.379 4361.92
1824.6 578.621 4360.85
1822.68 579.481 4360.49
1826.88 579.615 4364.49
1827.95 581.376 4366.87
1819.15 579.265 4361.01
1825.52 574.332 4364.15
1827.48 579.037 4367.21
1826.5 577.303 4365.12
1828.71 581.977 4369.15
1823.38 574.034 4362.5
1822.48 572.241 4363.11
1824.63 574.267 4362.56
1821.96 574.043 4362.38
1820.67 573.362 4362.53
1817.02 570.133 4363.47
1819.17 573.087 4362.52
1817.75 572.403 4362.66
1814.75 567.623 4364.24
1815.45 567.161 4364.61
1815.56 569.759 4363.49
1815.43 567.792 4364.56
1816.6 567.855 4364.81
1807.33 576.508 4362.92
1807.44 575.711 4362.7
1806.75 574.585 4362.72
1807.53 574.316 4362.33
1808.72 576.226 4362.93
1812.86 577.047 4362.21
1816.13 578.187 4361.58
1818.29 574.484 4358.01
1818.61 573.256 4358.26
1818.55 573.968 4358.01
1816.93 574.871 4358.55
1811.24 574.966 4360.8
1813.11 574.535 4360.12
1810.74 574.239 4360.95
1808.45 574.12 4361.94
1819.44 571.05 4359.68
1819.64 570.319 4360.7
1819.31 571.586 4358.91
1818.88 572.102 4358.75
1817.97 572.761 4358.83
1819.67 569.693 4361.65
1819.51 568.127 4364.2
1821.4 566.682 4364.56
1818.26 568.904 4363.77
1825.65 576.432 4362.84
1824.42 576.404 4361.68
1823.34 577.768 4361.08
1822.01 577.781 4360.97
1819.81 578.371 4360.99
1822.89 575.88 4361.76
1821.34 575.767 4361.67
1819.92 575.197 4361.78
1816.28 571.977 4362.71
1818.37 574.733 4361.83
1816.67 574.025 4362.03
1814.1 567.631 4364.32
1814.15 569.748 4363.38
1814.78 571.786 4362.67
1814.13 568.368 4364.13
1815.37 568.567 4364.33
1816.43 568.459 4364.69
1805.07 576.094 4363.88
1803.33 574.738 4364.42
1806.24 575.223 4363.31
1804.57 573.939 4363.19
1804.91 573.608 4362.9
1805.92 573.243 4362.48
1807.97 574.962 4363.15
1811.13 575.84 4362.6
1814.67 576.184 4362.01
1816.79 577.266 4361.58
1816.3 574.102 4358.89
1815.03 574.439 4359.41
1817.23 573.215 4358.86
1808.07 573.589 4361.98
1810.51 573.305 4361.2
1808.52 573.056 4361.82
1806.14 572.567 4362.42
1805.37 572.669 4362.6
1818.58 570.833 4360.6
1818.02 571.419 4360.07
1817.21 569.552 4363.21
1817.91 571.891 4359.51
1817.57 572.387 4359.27
1816.6 572.8 4359.43
1820.18 577.207 4361.13
1818.2 576.309 4361.47
1814.47 573.259 4362.35
1815.81 575.222 4361.94
1813.19 574.115 4362.46
1811.71 568.441 4363.7
1813.17 568.064 4363.95
1812.72 570.072 4363.16
1812.62 571.545 4362.82
1811.48 572.451 4362.89
1812.55 568.871 4363.92
1813.93 568.984 4364.17
1816.24 569.873 4363.05
1805.92 574.029 4363.35
1803.28 573.569 4364.23
1803.46 575.987 4364.65
1799.04 573.281 4365.93
1799.74 572.737 4365.61
1804.84 575.481 4364.11
1803.46 574.251 4363.94
1800.49 572.457 4363.92
1801.25 572.145 4363.47
1809.21 574.147 4363.07
1812.25 575.025 4362.51
1806.89 573.673 4363.33
1815.04 573.649 4359.5
1812.26 573.539 4360.56
1815.55 572.83 4359.61
1804.95 571.045 4362.78
1805.69 571.033 4362.58
1804.31 571.234 4362.86
1800.7 570.473 4362.86
1800.3 571.18 4363.18
1815.64 570.307 4362.64
1814.78 570.598 4362.58
1816.59 571.834 4360.48
1816.56 572.323 4359.9
1815.51 572.475 4360.17
1810.11 573.265 4363.02
1810.03 568.777 4363.46
1811.28 568.752 4363.68
1810.71 569.714 4363.3
1809.92 570.57 4363.31
1809.03 571.342 4363.35
1808.21 572.102 4363.36
1811.45 569.347 4363.64
1813.06 569.463 4363.76
1804.12 572.796 4363.75
1805.76 572.459 4363.44
1798.64 570.049 4364.46
1799.49 570.114 4364.41
1801.44 575.883 4365.58
1798.1 573.735 4366.4
1796.17 569.254 4364.22
1796.89 569.248 4364.2
1797.47 569.095 4364.06
1802.25 575.06 4365.07
1799.19 572.894 4364.72
1799.26 572.403 4364.32
1795.81 569.968 4363.81
1795.39 570.064 4364.09
1796.47 570.094 4363.62
1797.02 570.09 4363.37
1797.18 569.409 4363.03
1797.84 569.459 4362.92
1807.47 572.859 4363.35
1812.94 572.986 4360.47
1811.57 572.981 4360.86
1810.98 571.7 4361.35
1812.61 571.941 4361.42
1811.62 571.824 4361.39
1803.56 568.804 4363.56
1804.25 569.054 4363.21
1801.79 569.265 4363.26
1799.5 569.187 4363.17
1800.73 569.121 4363.23
1813.84 570.856 4362.55
1812.13 569.734 4363.71
1815.64 572.116 4360.59
1812.97 571.661 4361.8
1810.38 569.313 4363.25
1808.53 568.825 4363.3
1808.75 569.258 4363.5
1807.94 569.982 4363.49
1807.24 570.784 4363.48
1806.45 571.577 4363.46
1811.37 570.124 4363.39
1804.05 571.726 4363.65
1799.96 569.821 4364.2
1804.8 570.922 4363.56
1795.89 569.243 4363.33
1796.56 569.307 4363.17
1798.09 574.732 4366.65
1795.66 569.375 4364.38
1794.73 569.092 4363.73
1795.31 569.157 4363.52
1797.79 575.252 4366.98
1796.65 572.078 4365.09
1794.89 570.085 4364.37
1800.23 569.442 4363.96
1807.71 570.518 4362.09
1806.64 571.004 4362.27
1804.74 569.407 4362.82
1808.04 569.709 4362.55
1810.92 570.749 4362.78
1810.13 570.63 4362.48
1802.49 568.912 4363.65
1804.18 569.592 4363.65
1805.01 568.889 4363.62
1805.81 568.919 4363.3
1801.88 569.763 4363.91
1813.34 571.312 4362.2
1809.24 569.507 4362.86
1807.27 568.807 4363.51
1807.1 569.094 4363.04
1806.44 569.307 4363.59
1805.71 570.185 4363.56
1795.9 572.485 4366.22
1795.12 569.346 4364.46
1795.99 574.775 4367.39
1795.41 571.598 4365.28
1805.89 569.417 4362.7
1794.43 569.107 4364.44
1793.81 568.84 4364.03
1795.38 574.404 4367.53
1794.42 570.981 4365.33
1793.97 569.297 4364.33
1794.49 574.213 4368.2
1793.88 572.467 4367.09
1795.34 572.933 4366.2
1793.74 570.576 4365.45
1793.05 568.844 4364.49
1793.07 570.679 4366.11
1792.97 571.486 4367
1794.81 573.976 4367.56
1795.13 572.29 4366.19
1793.11 570.311 4365.68
1793.13 569.287 4364.84
1792.64 568.892 4364.79
1792.01 569.736 4366.21
1793.73 573.603 4368.33
1794.29 572.027 4366.3
1792.34 569.341 4365.31
1792.13 568.875 4364.97
1791.88 568.407 4364.79
1791.24 569.631 4366.84
1790.95 568.374 4365.77
1792.2 572.661 4368.87
1794.14 573.47 4367.6
1793.36 571.558 4366.51
1792.6 570.634 4366.35
1791.5 569.826 4366.45
1791.92 569.511 4365.57
1791.73 569.075 4365.25
1790.34 568.295 4366.14
1791.05 568.298 4364.85
1791.47 572.294 4369.21
1792.97 573.275 4368.74
1791.81 570.516 4366.97
1790.68 569.656 4367.06
1791.18 568.797 4365.16
1790.21 570.108 4368.3
1789.87 568.498 4366.97
1789.74 568.201 4366.21
1790.63 571.832 4369.57
1793.74 573.122 4367.6
1792.26 571.313 4367.52
1791.46 570.664 4367.64
1790.82 570.157 4367.76
1789.73 569.419 4367.83
1790.22 569.506 4366.72
1791.42 569.653 4365.83
1790.63 568.815 4365.33
1789.46 569.722 4368.64
1789.22 568.36 4367.43
1788.98 568.155 4366.97
1793.05 572.666 4367.7
1791.42 571.135 4367.86
1792 571.725 4367.81
1790.56 570.551 4368.18
1789.42 569.311 4367.34
1790.92 569.677 4366.14
1790.68 569.209 4365.65
1788.71 569.184 4368.65
1788.47 568.227 4367.98
1788.37 568.141 4367.38
1788.69 568.243 4366.41
1789.69 568.341 4365.13
1789.01 570.803 4370.12
1789.81 571.324 4369.86
1792.6 572.475 4367.89
1791.59 571.946 4368.4
1790.99 571.868 4368.99
1790.91 571.147 4368.34
1789.98 570.562 4368.72
1787.77 568.945 4369.24
1788.46 569.353 4369.14
1789.51 569.393 4366.43
1787.85 568.397 4368.84
1787.67 568.079 4368.24
1787.85 568.156 4367.46
1788.08 568.264 4366.53
1788.96 568.39 4365.23
1789.31 569.017 4365.83
1790.61 571.431 4368.89
1789.7 570.952 4369.34
1789.05 570.154 4369.25
1786.95 568.732 4369.86
1787.6 569.254 4369.85
1788.74 569.142 4367.89
1787.92 568.974 4368.26
1788.87 569.286 4366.72
1787.23 568.339 4369.35
1787.1 568.071 4368.59
1787.17 568.153 4367.89
1787.35 568.246 4367.05
1788.29 568.384 4365.48
1788.7 569.065 4366.09
1787.66 570.08 4370.71
1788.75 570.468 4369.82
1788.33 570.358 4370.32
1788.06 569.692 4369.79
1787.02 569.131 4370.3
1787.14 568.774 4368.95
1787.94 569.055 4367.6
1786.69 568.276 4369.77
1786.42 568.04 4369.18
1786.43 568.124 4368.5
1786.44 568.202 4367.86
1788.09 568.959 4366.15
1787.84 569.101 4367.05
1785.51 568.381 4370.84
1785.88 568.985 4371.26
1786.88 569.634 4371.02
1786.2 568.576 4370.39
1785.67 568.037 4369.58
1785.64 568.183 4368.41
1786.49 568.293 4367.09
1787.45 569.021 4366.57
1784.72 568.24 4371.59
1785.27 568.473 4371.38
1784.89 567.943 4370.73
1784.77 568.072 4369.74
1784.77 568.15 4369.11
1787.2 568.457 4365.57
1787.15 568.585 4366.07
1786.6 568.899 4366.83
1786.63 568.782 4368.23
1784.09 567.967 4371.74
1786.66 568.477 4365.67
1785.58 568.254 4367.86
1785.12 568.474 4368.9
1783.96 567.963 4371.05
1783.55 567.855 4372.02
1784.82 568.228 4368.46
1785.54 568.341 4367.18
1786.15 568.497 4365.75
1785.74 568.501 4366.24
1785.07 568.626 4367.54
1783.91 568.132 4369.69
1783.98 568.055 4370.28
1783.29 567.906 4371.56
1783.07 567.539 4372.6
1782.91 567.983 4370.96
1784.07 568.292 4368.31
1784.62 568.395 4367.2
1785.13 568.522 4366.43
1784.48 568.545 4366.65
1782.67 567.663 4372.02
1782.48 568.081 4370.35
1784.38 568.563 4366.11
1784.11 568.42 4367.25
1783.19 568.23 4369.25
1783.3 568.096 4370.46
1782.02 567.493 4371.98
1782.72 567.211 4372.99
1783.84 568.584 4366.21
1783.63 568.561 4366.95
1781.33 567.232 4372.13
1782.15 568.192 4369.62
1782.24 567.685 4371.24
1783.23 568.606 4366.35
1782.75 568.464 4367.57
1783.04 568.329 4368.52
1781.9 568.052 4370.09
1781.11 566.925 4372.68
1782.24 568.494 4367.58
1782.59 568.627 4366.6
1780.21 567.012 4372.17
1781.83 568.34 4368.79
1781.74 567.638 4370.77
1782.36 566.89 4373.36
1777.95 566.804 4373.18
1778.19 567.132 4372.23
1780.13 567.963 4369.63
1780.09 566.63 4373.13
1778.96 566.603 4373.36
1781.48 566.535 4373.58
1782.16 567.193 4372.77
1781.5 568.402 4368.28
1781.27 568.101 4369.13
1781.46 568.618 4367.14
1777.93 566.503 4373.81
1777.85 567.306 4371.84
1779.47 567.774 4370.07
1779.98 566.422 4373.71
1782.04 566.567 4373.74
1781.7 566.95 4372.96
1781.99 568.634 4366.85
1781.07 568.504 4367.74
1780.54 568.41 4368
1780.46 568.284 4368.56
1778.52 566.398 4373.97
1778.85 567.626 4370.51
1779.17 566.098 4374.63
1781.01 566.243 4374.09
1779.76 566.152 4374.44
1781.42 567.779 4370.07
1781.67 567.4 4371.26
1780.9 568.085 4369.59
1778.85 567.845 4369.91
1778.36 567.6 4370.72
1777.1 567.282 4372.24
1778.57 565.978 4375.04
1777.24 566.85 4373.39
1779.4 565.904 4375.07
1780.76 565.973 4374.79
1781.02 566.63 4373.16
1780.69 567.45 4371.29
1781.67 566.233 4374.16
1780.64 568.6 4367.1
1780.98 568.689 4366.72
1781.04 568.343 4368.57
1779.26 568.078 4369.1
1780.78 567.592 4370
1776.93 567.066 4372.95
1780.38 565.768 4375.29
1779.96 568.346 4367.96
1780.13 567.481 4370.36
1776.38 567.272 4372.77
1779.59 565.614 4375.74
1776.73 566.938 4373.52
1777.96 566.135 4375.01
1777.21 566.655 4374.01
1779 565.608 4375.86
1777.26 567.531 4371.41
1777.78 567.626 4370.89
1778.56 565.614 4376.41
1778.41 565.773 4375.81
1776.12 567.04 4373.7
1776.4 566.84 4374.11
1779.03 568.305 4368.7
1775.83 567.271 4373.19
1775.54 567.068 4374.09
1778.43 568.346 4370.12
1777.57 566.061 4375.82
1776.04 566.101 4374.5
1775.28 567.265 4373.42
1774.81 566.717 4374.33
1774.07 566.494 4374.59
1778.49 568.539 4369.23
1777.17 566.068 4376.27
1777.68 567.494 4372.56
1776.77 566.369 4375.5
1777.55 568.018 4371.87
1777.83 568.51 4370.77
1774.2 565.956 4374.42
1774.09 564.57 4375.33
1771.89 563.564 4375.93
1774.85 567.16 4373.79
1773.5 566.21 4374.91
1777.98 568.542 4369.84
1775.36 564.739 4376.16
1776.9 567.521 4373.53
1774.73 563.788 4376.18
1776.49 567.775 4373.78
1776.95 568.225 4372.46
1771.71 564.402 4375.55
1768.57 562.551 4377.41
1768.08 561.783 4378.47
1771.83 562.166 4377.44
1773.06 566.078 4375.22
1777.47 568.448 4370.39
1775.44 565.693 4376.78
1767.97 561.803 4379.1
1769.75 562.779 4378.22
1773.34 564.404 4377
1776.31 566.909 4375.37
1775.6 567.552 4375.39
1776.09 568.092 4373.91
1776.45 568.615 4372.64
1777.24 568.677 4371.38
1767.68 562.682 4377.51
1762.88 561.518 4380.42
1762.77 560.729 4380.94
1767.25 561.107 4379.52
1771.18 564.668 4375.93
1764.56 562.918 4379.21
1763.75 562.699 4379.68
1765.01 562.541 4379.01
1775.07 566.225 4376.92
1760.56 559.952 4382.27
1761.64 560.738 4381.72
1761.83 561.321 4381.52
1769.85 563.488 4378.08
1774.08 566.251 4377.15
1773.33 566.479 4377.41
1761.33 559.921 4381.97
1775.17 567.8 4375.68
1775.56 568.329 4374.35
1775.83 568.805 4373.27
1776.52 568.752 4371.75
1762.9 562.018 4380.33
1763.46 562.279 4379.97
1758.38 560.324 4382.8
1758.4 560.998 4382.58
1765.28 563.15 4378.8
1774.37 567.173 4374.21
1771.54 565.409 4376.03
1757.45 562.549 4382.39
1756.2 561.918 4382.97
1755.47 561.455 4383.33
1756.49 559.644 4383.65
1755.75 559.298 4384.01
1761.91 561.915 4381.36
1756.89 558.781 4383.82
1769.59 564.082 4378.14
1772.19 564.657 4377.39
1768.36 564.405 4378.53
1772.43 566.649 4377.72
1767.51 564.887 4378.82
1775.09 568.665 4374.56
1775.89 568.75 4372.52
1758.93 562.136 4382.04
1757.13 561.121 4382.94
1766.13 563.49 4378.37
1773.9 567.209 4374.54
1766.59 563.891 4378.22
1754.18 561.762 4383.69
1750.1 558.326 4385.38
1750.58 557.958 4385.33
1751.57 558.098 4385.17
1754.71 560.72 4383.76
1753.55 558.016 4385.08
1752.51 558.094 4385.06
1761.98 562.573 4381.19
1757.97 559.73 4383.32
1761.57 563.048 4381.24
1772.94 567.668 4377.58
1767.91 566.009 4378.95
1762.97 564.164 4380.47
1774.75 568.075 4375.91
1774.29 568.752 4375.61
1775.21 568.95 4373.66
1761.25 563.514 4380.77
1768.38 564.592 4377.5
1762.47 564.266 4380.18
1753.45 561.71 4383.96
1748.8 557.863 4385.88
1746.2 555.616 4386.49
1745.74 555.033 4387.49
1746.46 554.896 4387.8
1748.77 555.448 4387.56
1752.51 557.506 4386.11
1757.55 560.341 4383.44
1751.69 557.781 4386.56
1758.2 561.662 4382.91
1766.08 565.898 4379.41
1759.51 563.192 4382.05
1772.52 567.968 4377.63
1773.76 568.97 4376.08
1774.63 568.997 4374.39
1757.24 563.594 4382.28
1772.86 567.031 4375.64
1771.96 566.188 4376.14
1774.46 568.05 4373.94
1752.05 561.307 4384.6
1748.02 557.693 4386.23
1744.55 555.427 4387.34
1743.35 554.63 4388.22
1742.08 553.61 4389.43
1740.84 552.785 4390.54
1743.78 553.629 4389.84
1746.04 555.361 4389.1
1749.92 557.667 4387.45
1753.25 559.369 4385.77
1752.88 560.185 4385.89
1765.39 566.311 4379.65
1760.16 564.199 4381.58
1754.15 561.499 4385.03
1771.15 568.352 4378.02
1763 566.057 4380.36
1774.04 568.882 4374.98
1767.49 564.965 4378.08
1762.53 565.086 4380.1
1749.21 559.519 4385.96
1747.53 557.748 4386.56
1743.95 555.59 4387.86
1740.25 554.287 4390.05
1739.88 553.932 4390.28
1738.32 552.854 4391.44
1738.36 551.771 4392.39
1736.7 552.318 4392.47
1739.46 552.876 4392.05
1739.87 553.734 4391.96
1745.12 555.865 4389.64
1747.12 557.507 4388.84
1747.21 558.582 4388.91
1756.58 563.369 4383.49
1750.52 560.767 4387.04
1771.56 568.82 4377.85
1763.46 566.528 4380.16
1772.85 568.79 4376.44
1773.47 568.282 4375.32
1755.83 563.722 4382.8
1772.39 566.921 4375.91
1769.55 565.355 4377.16
1766.11 565.553 4378.96
1762.49 565.585 4380.22
1758.17 564.898 4382.38
1747.33 558.528 4386.9
1744.16 556.055 4387.95
1739.35 554.457 4390.79
1738.35 553.992 4391.31
1734.8 552.98 4393.22
1733.92 552.546 4393.69
1732.19 551.967 4394.65
1735.72 551.843 4393.23
1734.29 550.745 4394.96
1734.46 551.681 4394.57
1730.6 551.308 4395.45
1735.53 552.537 4393.69
1740.24 554.815 4391.92
1734.52 553.58 4394.04
1740.56 555.834 4391.86
1744.96 558.571 4390.08
1738.97 556.365 4392.54
1751.36 561.94 4386.43
1745.73 559.757 4389.68
1765.08 566.906 4379.77
1752.93 563.223 4385.34
1771.99 568.531 4377.34
1771.36 566.964 4376.84
1771.84 566.876 4376.34
1753.75 563.193 4384.19
1767.92 565.598 4378.13
1751.08 562.01 4385.77
1745.52 557.775 4387.91
1740.35 555.007 4390.3
1734.88 554.138 4393.24
1734.02 553.821 4393.57
1733.47 553.859 4393.96
1732.2 553.614 4394.69
1729.43 552.068 4395.82
1727.77 551.008 4396.65
1725.56 549.825 4397.82
1735.15 551.343 4393.82
1733.09 549.917 4395.94
1728.88 549.175 4397.44
1730.18 550.386 4396.66
1730.99 551.388 4396.07
1724.59 549.135 4398.32
1725.33 548.915 4398.11
1732.2 552.49 4395.28
1727.48 551.462 4397.16
1729.03 552.605 4396.3
1747.4 561.282 4388.51
1740.3 558.239 4392.21
1768.63 567.835 4378.82
1766.17 567.082 4379.54
1770.58 567.127 4377.44
1768.44 565.853 4377.95
1748.2 560.793 4387.5
1743.08 559.83 4390.89
1740.68 555.57 4390.34
1736.7 555.342 4392.93
1735.55 554.455 4393.07
1724.09 550.48 4398.33
1722.43 549.008 4399.1
1718.62 546.31 4401.18
1716.79 546.276 4401.47
1734.48 550.956 4394.32
1732.33 549.033 4396.61
1728.89 548.385 4397.68
1722.92 546.399 4400.14
1719.96 546.229 4401.2
1724.14 548.19 4399.22
1724.18 548.969 4398.98
1726.05 550.342 4397.96
1719.66 545.843 4400.94
1722.7 550.124 4399.14
1745.91 559.739 4388.7
1739 557.141 4392.59
1739.95 556.377 4391.34
1717.55 547.552 4401.18
1713.68 542.498 4403.42
1710.88 542.464 4404.21
1707.95 542.252 4405
1711.64 544.915 4403.71
1728.96 550.026 4396.53
1724.89 547.355 4398.74
1731.57 548.195 4397.23
1727.23 547.074 4398.57
1719.93 544.332 4401.75
1717.48 544.419 4402.55
1712.94 543.489 4404.36
1712.58 544.205 4404.28
1718.41 546.637 4401.61
1721.12 548.718 4400.1
1716.2 542.51 4402.6
1718.57 543.024 4401.78
1716.72 547.745 4401.8
1710.85 540.439 4404.49
1708.23 540.113 4405.21
1706.27 540.163 4405.84
1705.33 541.714 4406.31
1703.52 539.786 4407.07
1733.87 550.184 4394.97
1729.72 549.497 4396.55
1726.2 547.645 4398.28
1721.14 543.87 4400.89
1730.81 548.501 4396.99
1727.17 546.365 4398.83
1719.64 543.256 4402.27
1714.03 541.835 4404.84
1712.56 542.268 4404.9
1708.43 541.531 4406.51
1706.93 541.725 4406.91
1705.59 541.938 4407.3
1709.98 544.153 4405.18
1715.66 546.556 4402.57
1713.6 540.649 4403.7
1709.75 544.704 4404.77
1709.44 539.491 4405
1707.38 539.212 4405.54
1704.8 539.516 4406.47
1705.15 539.152 4406.35
1702.26 540.546 4407.89
1704.01 542.014 4407.2
1701.5 539.218 4408.35
1702.48 539.198 4407.71
1702.68 541.797 4407.96
1727.15 547.738 4398.02
1723.22 544.259 4400.51
1715.88 540.923 4403.07
1728.6 546.893 4398.2
1724.66 544.103 4400.17
1719.12 542.119 4403.23
1713.82 540.766 4405.65
1708.3 539.472 4408.08
1708.71 540.48 4407.2
1705.28 540.077 4408.41
1702.6 540.072 4409.11
1699.98 539.959 4409.89
1702.45 541.464 4408.5
1704.62 542.827 4407.35
1711.79 539.673 4404.34
1708.81 538.875 4405.25
1706.69 538.589 4405.87
1705.43 538.678 4406.3
1704.18 538.685 4406.85
1702.38 538.489 4407.76
1699.36 539.29 4409.43
1700.38 540.567 4408.89
1698.83 539.168 4409.68
1700.88 538.627 4408.71
1699.11 540.482 4409.65
1725.45 545.182 4399.64
1718.67 541.469 4402.38
1713.31 539.629 4403.94
1722.26 542.493 4401.48
1716.66 540.315 4403.07
1720.17 541.264 4403.09
1715.81 540.309 4405.48
1710.52 538.988 4407.88
1705.66 537.774 4410.07
1702.27 537.619 4411.11
1703.01 538.626 4410.11
1699.75 538.579 4411.04
1697.75 538.703 4411.56
1695.89 539.395 4411.51
1695.22 538.683 4412.72
1698.41 540.396 4410.1
1709.97 538.811 4404.99
1707.24 538.223 4405.79
1705.08 538.135 4406.56
1703.53 538.097 4407.29
1701.86 538.008 4408.2
1700.35 538.262 4409.03
1699.32 538.001 4409.66
1698 538.946 4410.03
1712.25 538.953 4404.3
1715.33 539.445 4403.51
1717.16 539.693 4405.47
1714.72 538.814 4404.1
1711.96 538.377 4407.97
1706.78 537 4410.38
1702.91 536.277 4412.12
1701.25 536.698 4412.34
1698.64 536.895 4413.49
1698.49 537.621 4412.53
1695.28 537.499 4414.47
1695.55 538.799 4411.79
1693.72 538.182 4413.31
1691.35 537.978 4414.94
1708.9 538.212 4405.55
1706.63 537.864 4406.15
1703.81 537.646 4407.39
1702.27 537.548 4408.17
1700.36 537.562 4409.27
1696.99 537.68 4411.4
1711.44 538.364 4404.64
1713.62 537.974 4405.46
1713.28 537.847 4408.03
1710.14 537.684 4405.18
1707.55 536.234 4410.76
1703.21 535.627 4412.76
1700.35 535.97 4413.83
1698.28 535.961 4415.05
1694.05 534.902 4419.02
1694.54 536.111 4416.95
1695.01 537.211 4413
1708.22 537.81 4406.03
1706.01 537.506 4406.59
1703.4 537.33 4407.81
1699.04 537.267 4410.32
1712.38 537.167 4406.7
1709.85 537.32 4406.03
1711.28 536.463 4409.59
1707.5 537.476 4406.64
1706.77 534.991 4412.05
1704.21 535.124 4412.92
1701.06 534.737 4415.19
1700.43 535.291 4414.76
1696.34 534.081 4419.01
1693.39 533.741 4421.1
1690.3 534.321 4421.33
1689.67 535.274 4420.02
1689.88 536.361 4418.26
1689.3 537.261 4416.73
1684.23 535.915 4420.09
1695.43 536.896 4412.95
1686.33 535.549 4420.61
1705.57 537.312 4407.05
1703.07 537.035 4408.2
1700.27 537.116 4409.62
1710.95 536.38 4407.91
1709.27 536.983 4406.78
1706.97 537.179 4407.17
1708.92 535.458 4409.87
1705.71 534.273 4413.31
1703.65 534.613 4413.93
1701.04 533.908 4416.4
1696.78 532.411 4421.21
1696.39 533.186 4420.3
1691.04 532.112 4424.63
1688.12 532.892 4424.54
1686.79 533.768 4423.61
1685.29 534.426 4423.08
1688.46 536.266 4417.68
1681.93 534.669 4422.52
1680.1 534.54 4423.8
1681 535.569 4422.77
1681.84 534.47 4425.06
1699.73 536.586 4410.45
1695.01 536.307 4413.69
1707.17 536.777 4407.6
1704.62 537.031 4407.83
1707.47 534.933 4410.7
1701.34 536.573 4409.67
1702.28 536.493 4409.38
1705.11 533.597 4414.56
1703.56 534.022 4414.8
1701.38 533.042 4417.47
1696.82 531.565 4422.43
1692.23 530.333 4426.67
1691.94 530.994 4426.03
1685.59 529.361 4430.14
1684.71 530.72 4429.74
1681.83 531.367 4430.36
1681.48 533.073 4428.06
1687.54 535.742 4418.62
1682.93 534.692 4421.92
1677.88 533.233 4426.29
1676.04 532.922 4427.52
1676.55 533.726 4426.52
1680.25 535.774 4422.88
1678.43 534.227 4427.64
1676.49 534.692 4427.91
1676.13 532.351 4432
1696.57 535.985 4413.09
1693.57 535.938 4414.98
1705.41 536.479 4408.37
1706.7 534.583 4411.28
1705.29 536.05 4408.87
1697.32 535.894 4412.87
1698.25 535.856 4412.55
1703.56 533.087 4416.06
1705.53 534.41 4411.9
1694.07 531.484 4423.76
1698.93 532.106 4420.33
1689.68 530.569 4426.86
1686.27 529.43 4429.18
1681.63 530.65 4428.38
1679.86 528.13 4432.65
1678.37 530.216 4429.7
1677.4 527.91 4434.39
1677.3 530.793 4432.94
1673.61 527.419 4436.38
1686.48 535.135 4419.69
1680.54 533.723 4424.27
1673.26 530.949 4430.51
1671.97 530.863 4431.13
1671.86 531.467 4430.76
1668.94 529.859 4433.41
1671.12 531.541 4431.14
1678.05 535.513 4424.62
1675.29 535.308 4427.42
1675.74 533.897 4426.82
1671.91 532.184 4430.37
1672.84 532.641 4433.27
1672.61 534.18 4431.31
1671.55 528.613 4436.62
1668.6 528.853 4437.65
1689.51 535.191 4418.12
1702.78 536.142 4409.83
1698.37 535.655 4413.04
1703.28 535.785 4410.27
1690.84 534.957 4417.75
1691.95 534.724 4417.54
1702.75 534.548 4413.2
1697.32 533.164 4418.87
1693.13 533.166 4420.45
1689.05 532.664 4422.9
1685.73 531.348 4426.27
1682.86 530.918 4427.65
1679.34 530.681 4428.85
1685.04 533.549 4422.29
1686.92 533.564 4421.62
1675.56 529.776 4431.11
1672.4 528.286 4433.67
1680.97 533.348 4424.45
1683.59 533.643 4422.83
1669.88 527.45 4435.5
1666.96 526.649 4438.17
1668.07 527.394 4436.32
1676.34 531.945 4428.4
1666.5 529.13 4435.57
1664.69 526.305 4439.61
1666.7 529.661 4435.01
1667.72 530.398 4433.77
1674.27 534.804 4427.94
1673.18 533.302 4429.1
1672.47 535.173 4429.39
1668.97 532.479 4435.19
1667.7 530.162 4437.2
1669.14 533.983 4433.62
1662.2 525.641 4441.35
1663.67 527.572 4440.42
1698.58 535.396 4413.58
1692.56 534.325 4417.87
1699.06 535.185 4413.82
1699.82 534.12 4415.73
1662.87 527.27 4439.06
1664.18 528.819 4437.39
1665.44 529.752 4435.83
1671.69 533.988 4430.19
1667.82 534.557 4433.39
1668.89 531.198 4432.62
1664.17 529.756 4438.86
1664.57 531.933 4437.35
1659.04 524.844 4443.6
1659.8 526.97 4442.35
1660.01 525.867 4441.43
1660.94 527.419 4440.34
1663.99 529.432 4437.12
1670.14 533.62 4431.32
1666.22 534.412 4434.46
1667.55 531.17 4433.52
1661.82 532.695 4438.19
1660.56 529.108 4440.76
1658.03 528.66 4442.39
1655 523.691 4446.47
1655.81 525.732 4445.1
1655.93 524.77 4445.15
1658.64 526.611 4442.47
1659.57 527.508 4441.46
1669.04 533.559 4432.05
1665.39 534.071 4435.12
1666.69 531.147 4434.21
1660.51 532.354 4439.64
1657.04 530.848 4441.62
1653.3 525.345 4446.78
1653.96 527.826 4444.9
1650.71 522.048 4449.77
1653.56 524.216 4446.61
1655.07 525.586 4445.24
1663.03 529.827 4437.84
1660 528.228 4440.97
1656.02 526.344 4444.34
1667.91 533.415 4432.93
1665.06 530.908 4435.69
1664.22 533.325 4436.29
1661.45 532.572 4438.91
1655.17 529.727 4444.57
1657.12 530.395 4443.09
1651.88 529.555 4444.49
1653.77 529.316 4445.53
1650.22 525.787 4447.86
1646.33 520.226 4453.31
1649.11 522.687 4450.53
1651.06 524.36 4448.25
1650.46 525.985 4448.54
1657.81 527.375 4442.8
1653.3 526.929 4446.37
1663.15 531.666 4437.52
1659.97 531.654 4440.44
1655.96 528.053 4444.29
1646.06 527.3 4448.74
1649.94 527.564 4448.91
1646.48 527.408 4447.22
1646.63 523.346 4451.2
1643.23 519.485 4455.55
1646.57 524.634 4451.54
1644.91 523.198 4452.65
1659.01 530.078 4441.88
1644.29 524.806 4453.71
1640.07 525.382 4451.91
1640.09 523.105 4457.01
1640.63 525.39 4450.67
1643.02 523.819 4451.63
1642.46 520.806 4454.8
1638.55 517.502 4459.25
1642.5 521.95 4455.31
1638.81 521.636 4458.17
1633.95 523.415 4455.2
1636.66 522.037 4458.9
1634.94 523.446 4454.01
1633.26 518.851 4462.2
1637.83 521.149 4455.56
1633.7 515.194 4463.25
1634.29 517.527 4460.08
1635.56 518.833 4460.75
1640.01 520.463 4457.33
1628.04 520.774 4460.28
1633.03 520.315 4461.44
1629.04 521.784 4457.48
1629.15 521.146 4457.62
1630.39 518.367 4460.11
1629.57 515.231 4466.42
1630.33 514.689 4466.14
1631.77 515.25 4464.72
1628.6 513.573 4465.72
1623.71 518.788 4464.06
1622.59 519.483 4461.54
1631.56 519.337 4462.99
1628.63 515.162 4467.1
1623.91 519.685 4460.42
1623.39 516.06 4464.08
1624.92 512.004 4471.18
1626.14 511.88 4469.72
1622.9 512.396 4468.23
1619.02 517.169 4466.87
1615.82 517.068 4465.85
1629.09 518.458 4464.59
1617.48 517.651 4464.32
1627 514.233 4468.83
1618.53 517.021 4464.27
1616.44 511.72 4470.29
1622.01 511.542 4473.48
1619.93 510.181 4474.87
1620.86 510.276 4473.48
1620.17 510.754 4471.68
1613.27 515.48 4469.58
1621.9 516.639 4468.27
1610.84 515.274 4468.4
1608.72 514.532 4470.21
1627.42 517.364 4466.04
1627.01 515.172 4467.85
1613.15 515.303 4467.29
1623.17 512.615 4472.47
1610.75 510.441 4472.95
1614.6 509.483 4474.76
1619.99 511.794 4474.19
1618.18 510.23 4475.7
1615.83 508.754 4477.03
1607.28 513.496 4472.95
1614.43 514.581 4471.7
1618.01 515.029 4470.91
1624.58 516.33 4467.86
1607.73 513.624 4470.29
1604.35 512.955 4472.37
1602.06 512.154 4474.33
1624.43 513.792 4470.39
1623.97 514.323 4469.96
1604.4 509.107 4475.79
1608.31 508.555 4476.71
1611.63 507.726 4478.59
1620.62 512.867 4473.26
1618.78 511.863 4474.49
1617.09 510.643 4475.68
1613.97 508.531 4478.02
1601.52 511.532 4476.33
1609.22 512.798 4474.66
1614.78 513.772 4472.99
1620.75 515.144 4470.31
1622.6 514.514 4470.43
1602.13 511.813 4473.45
1598.25 510.77 4475.98
1595.55 509.818 4478.01
1598.29 507.932 4478.4
1601.81 506.901 4480.31
1607.79 506.598 4480.25
1609.53 506.788 4480.38
1619.8 512.925 4473.39
1617.84 512.166 4474.49
1615.61 510.93 4475.87
1612.25 508.742 4478.27
1608.93 507.151 4480.37
1594.9 509.33 4480.1
1602.41 510.767 4478.02
1607.93 511.809 4476.36
1614.76 513.37 4473.66
1618.66 513.893 4472.62
1621.05 514.238 4471.38
1596.31 510.016 4476.73
1590.44 507.978 4480.61
1589.42 507.62 4481.84
1592.46 507.576 4480.01
1597.22 505.828 4482.22
1605.29 504.907 4482.3
1603.74 505.261 4482.54
1603.66 505.764 4482.26
1617.4 512.706 4474.16
1613.32 511.093 4476.26
1609.65 508.832 4478.76
1605.69 507.112 4480.97
1601.77 506.11 4482.51
1588.24 506.956 4484.17
1595.98 508.851 4481.18
1600.91 509.049 4480.39
1613.7 512.583 4475.07
1607.32 510.507 4477.95
1587.94 505.844 4483.09
1583.43 505.415 4485.19
1584.56 505.733 4485.55
1592.8 505.146 4483.54
1601.88 504.318 4483.36
1595.72 503.861 4484.41
1598.18 504.57 4484.23
1595.6 504.871 4485.03
1595.75 505.584 4484.7
1606.42 508.486 4479.77
1600.88 507.036 4482.2
1596.54 506.311 4484.12
1594.8 507.16 4483.54
1584.56 505.283 4486.13
1588.51 506.124 4485.86
1580.24 503.923 4486.67
1580.94 503.86 4486.77
1582.94 504.591 4485.34
1588.6 503.765 4485.4
1578.09 503.191 4486.79
1582.64 504.444 4486.49
1583.12 504.296 4486.63
1601.74 503.893 4483.6
1595.42 503.555 4485.4
1592.83 503.562 4486.3
1589.07 502.169 4487.88
1588.85 502.848 4487.69
1591.66 505.019 4486.21
1593.61 506.358 4484.96
1590.16 504.899 4486.59
1585.99 504.657 4487
1584.18 502.633 4488.25
1589.19 505.138 4486.69
1576.16 502.512 4487.06
1580.57 503.431 4487.02
1578.83 502.91 4487.24
1589.4 503.473 4485.38
1580.9 502.816 4487.13
1574.77 500.215 4488.49
1573.93 500.314 4487.58
1581.47 503.389 4487.17
1600.42 503.506 4483.96
1595.92 503.21 4485.28
1589.99 501.386 4487.79
1587.64 500.542 4488.84
1583.32 498.769 4490.8
1582.54 498.115 4491.3
1586.81 501.993 4488.53
1581.6 498.21 4491.51
1585.94 501.839 4488.8
1582.3 503.071 4487.58
1582.24 500.443 4490.27
1580.53 498.365 4491.65
1578.83 498.01 4492.13
1572.8 500.464 4487.03
1573.8 501.642 4487.91
1570.97 499.856 4487.13
1575.63 500.1 4489.35
1582.7 502.68 4486.88
1576.52 499.699 4489.98
1571.6 497.104 4490.62
1571.11 497.463 4489.6
1570.59 497.919 4488.42
1577.23 502.444 4487.3
1599.65 503.183 4484.2
1592.62 502.033 4486.66
1585.99 499.036 4489.78
1592.51 503.195 4485.05
1585.48 502.784 4486.19
1577.79 496.438 4493.33
1581.04 498.255 4491.6
1576.2 496.21 4493.7
1580.62 502.409 4487.84
1580.92 500.485 4490.26
1577.16 497.825 4492.44
1575.35 496.236 4493.77
1574.11 496.234 4493.95
1572.27 496.412 4493.91
1569.05 497.423 4487.83
1573.03 501.182 4488.12
1569.46 499.748 4488.04
1567.62 497.138 4487.02
1573.15 497.565 4491.21
1580.46 500.72 4488.83
1576.66 498.472 4490.99
1573.69 497.01 4492.01
1568.48 494.228 4492.41
1567.21 493.934 4491.75
1568.15 495.426 4490.21
1566.73 494.975 4489.66
1576.27 501.701 4487.6
1599.18 502.874 4484.37
1580.65 496.873 4492.49
1577.74 495.917 4493.7
1598.6 502.553 4484.56
1592.31 502.407 4485.33
1585.91 502.2 4486.42
1581.81 500.294 4488.93
1575.13 495.469 4494.29
1572.53 495.125 4494.81
1573.61 494.91 4494.74
1571.23 495.149 4494.98
1578.81 501.647 4488.19
1577.75 499.086 4491.37
1575.92 497.892 4492.44
1570.84 496.864 4493.42
1570.15 495.186 4495.16
1568.83 495.246 4495.31
1566.29 495.164 4495.29
1565.53 494.799 4488.87
1568.02 499.441 4488.86
1566.01 496.775 4486.73
1563.97 494.319 4488.25
1569.83 494.646 4492.95
1578.17 497.969 4491.23
1574.45 496.626 4492.48
1571.93 494.768 4493.77
1570.64 494.53 4493.7
1565.25 491.095 4494.91
1563.96 490.692 4494.42
1562.63 490.235 4494.07
1564.74 492.672 4491.56
1563.29 492.358 4490.76
1573.99 500.866 4488.02
1571.77 500.608 4488.43
1566.05 498.673 4489.26
1567.25 499.11 4489.46
1593.19 501.907 4486.47
1597.87 502.245 4484.74
1590.36 501.781 4485.84
1586.14 501.442 4486.87
1582.51 499.372 4489.54
1570.24 494.35 4495.46
1567.87 493.888 4495.94
1567.2 493.938 4496.02
1568.75 493.701 4495.82
1566.79 493.319 4496.2
1565.98 493.876 4496.21
1576.59 501.103 4488.12
1576.23 499.128 4490.82
1570.8 497.515 4492.34
1565.54 495.704 4494.34
1564.87 493.902 4496.31
1563.76 494.045 4496.19
1560.8 493.808 4496.02
1559.97 492.882 4496.54
1561.79 491.925 4490.12
1563.83 495.844 4486.74
1562.27 493.69 4487.74
1560.22 491.407 4489.54
1566.32 491.416 4495.39
1579.14 497.154 4491.74
1575.4 496.138 4492.89
1572.74 494.66 4494.01
1567.94 492.011 4495.56
1570.18 492.96 4495.13
1560.29 489.009 4497.25
1560.9 489.351 4497.34
1559.27 488.587 4497.22
1561.37 489.785 4493.53
1559.42 488.585 4495.88
1560.17 489.434 4493.12
1558.96 489.078 4492.54
1568.28 499.207 4489.27
1570.92 499.792 4488.71
1563.17 497.313 4489.34
1562.82 497.585 4490.32
1587.8 499.315 4489.01
1582.41 497.158 4491.74
1578.39 495.756 4493.47
1576.63 495.238 4494.03
1573.04 494.398 4494.96
1597.36 501.953 4484.89
1593.03 501.3 4486.54
1587.97 498.841 4489.12
1589.06 500.943 4486.54
1586.07 500.061 4487.99
1583.13 498.398 4490.24
1564.52 492.835 4496.58
1563.31 492.598 4496.76
1562.24 492.401 4496.89
1562.71 491.784 4496.98
1564.04 492.135 4496.76
1560.8 491.164 4497.28
1561.09 492.253 4496.99
1573.79 500.256 4488.44
1574.75 499.387 4489.98
1568.65 497.457 4491.87
1564.44 495.868 4493.68
1559.98 494.002 4495.6
1560.2 492.272 4496.98
1557.6 492.149 4496.45
1557.58 491.721 4496.74
1557.44 491.18 4497.07
1557.58 488.638 4492.03
1561.5 494.632 4486.63
1560.18 492.704 4487.44
1558.39 490.678 4489.07
1556.24 488.212 4491.52
1562.02 489.94 4497.19
1580.17 496.248 4492.49
1565.29 491.058 4496.57
1568.66 492.125 4495.89
1559.71 489.805 4497.72
1558.65 489.377 4497.87
1560.85 490.219 4497.49
1557.15 487.856 4497.74
1557.39 488.885 4498
1555.81 487.318 4497.83
1557.57 487.947 4495.73
1556.41 487.629 4494.84
1566.97 498.511 4489.61
1569.45 499.055 4489.27
1559.99 494.947 4488.09
1559.82 496.318 4490.66
1582.91 497.043 4491.66
1579.39 496.026 4493.1
1575.16 494.54 4494.44
1564.6 492.165 4496.66
1596.72 501.624 4485.1
1587.18 498.39 4489.43
1584.02 497.463 4490.9
1590.09 500.639 4486.49
1559.63 490.92 4497.4
1558.48 490.682 4497.45
1557.38 490.427 4497.48
1556.05 488.437 4498.11
1556.73 490.416 4497.4
1567.31 497.578 4491.28
1561.59 495.545 4493.5
1558.31 493.83 4495.31
1555.81 491.77 4496.39
1554.32 490.394 4497
1554.78 489.787 4497.44
1554.81 487.125 4494.23
1558.65 492.377 4486.62
1556.78 490.237 4488.34
1554.89 487.729 4491.13
1553.85 487.459 4490.58
1553.1 486.563 4493.82
1571.2 493.035 4495.25
1569.23 493.071 4495.84
1570.95 493.628 4495.49
1569.23 492.385 4495.81
1566.9 492.406 4496.22
1554.35 486.741 4497.91
1554.86 488.131 4498.19
1554.75 486.878 4496.37
1562.18 497.067 4490.68
1564.6 497.989 4490.11
1561.87 496.32 4492.17
1557.23 492.174 4486.4
1557.11 493.796 4488.65
1557.88 495.678 4491.27
1596.24 501.298 4485.3
1589.68 499.139 4488.07
1593.59 501.215 4486.27
1591.04 500.331 4486.44
1553.89 487.865 4498.25
1553.08 487.734 4498.24
1552.01 487.442 4498.27
1556.64 494.31 4494.3
1556 492.966 4495.55
1552.93 490.067 4496.98
1553.58 491.104 4496.46
1550.32 487.295 4498.08
1549.57 487.14 4497.9
1550.98 487.218 4498.25
1552.96 486.269 4496.13
1555.22 489.782 4487.67
1552.54 487.038 4490.13
1551.47 486.077 4492.94
1551.01 485.497 4496.88
1551.1 485.725 4495.02
1552.46 486.028 4498.21
1560.91 496.45 4491.15
1555.77 494.613 4493.54
1554.94 491.148 4486.41
1553.47 489.126 4487.16
1554.75 493.022 4489.38
1594.78 500.814 4485.71
1590.97 499.458 4487.34
1550.81 485.409 4498.4
1554.13 492.605 4495.48
1548.58 486.779 4497.74
1549.4 487.941 4497.25
1552.15 490.536 4496.52
1547.38 484.301 4498.63
1548.94 484.818 4498.64
1551.27 486.631 4489.65
1549.67 485.485 4492.51
1549.33 485.138 4494.65
1549.16 484.848 4496.81
1553.51 493.792 4491.79
1557.08 495.435 4491.76
1553.57 493.757 4494.02
1552.71 491.49 4496.05
1552.21 489.131 4486.29
1550 486.181 4489.21
1549.07 486.017 4488.66
1552.5 491.105 4488.12
1546.45 484.861 4498.04
1545.47 483.48 4498.85
1548.61 487.702 4497.08
1547.4 484.256 4496.52
1548.2 485.04 4491.78
1547.44 484.488 4494.45
1552.37 493.302 4493.57
1550.82 491.233 4489.77
1552.1 492.083 4495.37
1548.8 488.188 4496.8
1550.25 488.419 4486.17
1547.81 485.604 4488.17
1546.33 484.431 4491.27
1545.93 484.878 4497.71
1544.92 483.408 4499
1545.43 483.419 4497.38
1540.08 481.345 4500.56
1546.35 484.223 4493.29
1545.12 483.467 4495.94
1550.33 492.032 4494.05
1548.63 488.677 4496.31
1548.42 487.838 4486.37
1548.75 490.241 4489.89
1545.8 485.676 4496.89
1546.54 485.172 4487.7
1544.95 484.034 4490.38
1544.44 483.337 4494.73
1544 483.333 4493.34
1538.37 481.39 4500.77
1543.15 482.316 4498.37
1543.22 482.359 4498.96
1533.88 478.969 4502.5
1537.62 480.201 4500.53
1544.79 484.217 4497.65
1544.36 483.344 4498.97
1543.3 482.378 4497.33
1548.26 490.06 4494.37
1547.5 487.968 4496.12
1544.45 484.655 4486.65
1546.57 487.901 4487.85
1545.1 484.597 4487.53
1544.92 485.065 4496.53
1544.25 484.257 4497.52
1543.25 483.131 4492.47
1542.92 483.211 4490.86
1543.54 482.547 4496.04
1543.28 482.545 4494.81
1535.89 481.083 4501.04
1537.55 481.444 4500.72
1532.27 479.145 4502.55
1536.9 479.877 4499.97
1527.75 476.621 4504.38
1531.41 477.808 4502.34
1542.87 483.296 4499.26
1539.17 480.684 4498.18
1547.43 489.458 4494.11
1545.16 485.694 4495.92
1543.42 484.449 4486.2
1542.19 483.033 4489.88
1541.48 482.893 4488.75
1544.84 487.481 4488.72
1543.64 484.198 4497.63
1542.75 482.567 4493.05
1540.04 480.978 4496.78
1541.4 481.565 4495.32
1534.72 481.106 4501.12
1530.08 479.307 4502.39
1527.34 477.443 4503.91
1531.48 477.775 4501.22
1522.47 474.623 4505.94
1526.28 475.826 4503.66
1533.42 478.452 4499.55
1546.97 489.031 4494
1544.44 485.29 4495.48
1541.5 483.408 4486.71
1541.97 482.454 4491.33
1541.2 482.353 4489.61
1543.59 486.514 4488.48
1543.83 484.381 4496.55
1542.93 484.091 4497.82
1542.26 483.589 4499.23
1542.08 481.966 4493.78
1534.25 478.699 4498.1
1538.41 480.274 4495.71
1527.95 479.253 4502.46
1524.02 477.344 4503.94
1522.55 476.055 4505
1520.71 474.705 4506.12
1525.07 475.299 4502.95
1516.47 472.298 4507.86
1520.34 473.557 4505.64
1527.64 476.215 4501.03
1546.59 488.715 4493.44
1544.11 485.348 4494.9
1543.21 484.464 4495.77
1541.76 481.951 4492.3
1541.18 481.808 4490.99
1545.82 488.016 4492.53
1542.58 484.09 4497.26
1541.84 483.829 4499
1540.87 483.359 4499.61
1531.75 480.699 4501.6
1525.47 478.759 4502.87
1539.69 480.839 4494.12
1524.26 474.874 4501.31
1530.51 477.217 4498.49
1535.3 479.002 4495.99
1519.5 476.125 4504.89
1515.4 473.916 4506.69
1515.06 473.152 4507.34
1514.73 472.395 4507.97
1519.76 473.213 4503.79
1518.06 472.628 4505.45
1510.52 470.016 4509.68
1513.94 471.103 4507.67
1543.64 485.202 4494.26
1542.84 484.505 4495.34
1542.38 484.141 4496.52
1540.84 483.422 4486.39
1539.32 480.706 4493.14
1540.52 482.242 4488.14
1540.45 481.378 4490.64
1538.52 480.373 4492.4
1540.24 482.957 4486.4
1545.33 487.533 4492.03
1541.74 483.912 4498.12
1539.21 483.195 4499.77
1535.94 482.099 4500.7
1528.05 479.821 4502.23
1520.92 477.533 4503.74
1518.06 476.108 4504.86
1535.62 479.09 4494.94
1516.18 471.773 4503.81
1523.09 474.366 4500.69
1528.16 476.253 4498.17
1511.39 473.385 4506.63
1509.44 471.999 4507.97
1507.27 470.396 4509.42
1508.54 470.097 4509.81
1511.32 470.033 4507.44
1512.82 470.549 4505.91
1504.82 467.827 4511.43
1507.92 468.792 4509.48
1543.43 485.238 4493.36
1542.44 484.521 4494.79
1542.02 484.162 4496.05
1541.4 483.9 4497.62
1535.12 478.86 4494.15
1539.85 482.522 4486.45
1539.98 481.57 4488.32
1539.32 480.819 4490.24
1537.16 479.786 4491.86
1534.03 478.385 4493.56
1544.57 486.863 4491.14
1537.76 482.908 4499.71
1530.02 480.604 4501.68
1513.84 474.726 4505.52
1528.48 476.312 4497.04
1507.63 468.967 4506.16
1509.55 469.769 4504.38
1516.67 471.894 4502.55
1520.88 473.448 4500.2
1503.14 470.146 4508.85
1505.13 471.208 4507.74
1501.56 469.279 4509.73
1504.38 468.755 4510.8
1500.16 468.391 4510.54
1501.58 467.38 4511.91
1503.17 467.334 4509.72
1505.4 468.059 4508.15
1498.89 466.337 4512.1
1500.99 466.56 4511.2
1543.82 486.14 4490.97
1542.61 484.692 4493.03
1541.59 484.162 4495.69
1541.85 484.378 4494.43
1541.09 483.909 4496.95
1539.35 483.357 4498.35
1527.8 475.99 4496.21
1539.46 481.043 4488.74
1536.03 479.304 4491.26
1536.22 479.423 4490.25
1533.14 477.993 4492.88
1526.57 475.463 4495.63
1534.78 482.25 4500.14
1528.86 480.487 4501.74
1521.54 478.046 4503.28
1514.73 475.288 4504.46
1507.7 472.432 4506.62
1506.11 472.181 4505.49
1503.83 471.391 4505.94
1521.86 473.756 4498.76
1505.02 470.42 4503.16
1507.01 471.998 4500.06
1511.54 470.545 4502.63
1508.84 472.741 4498.7
1514.15 471.291 4501.21
1494.57 469.217 4507.56
1496.58 469.567 4507.21
1499.01 470.028 4506.89
1501.41 470.644 4506.38
1493.27 468.486 4508.85
1497.77 467.807 4510.77
1492.55 468.113 4509.26
1500.65 469.147 4505.78
1502.8 469.557 4505
1499.4 467.759 4508.4
1496.61 465.794 4512.44
1497.84 467.186 4508.31
1499.27 469.221 4504.54
1492.65 466.562 4511.15
1542.97 485.355 4490.73
1541.97 484.45 4492.69
1540.99 484.05 4495.66
1539.68 483.575 4497.12
1541.26 484.215 4494.07
1536.79 482.704 4498.65
1519.23 472.867 4498.13
1539.4 481.973 4486.77
1538.4 480.468 4488.58
1532.78 477.843 4491.91
1530.78 476.987 4491.81
1534.44 478.638 4489.96
1527.8 475.864 4494.12
1521 473.612 4496.13
1531.41 481.494 4500.7
1522.9 478.697 4502.83
1515.58 475.717 4503.81
1507.03 472.806 4503.71
1506.91 473.449 4500.05
1505.63 473.107 4500.29
1515.87 471.919 4499.65
1501.72 471.996 4500.76
1503.39 472.455 4500.25
1504.24 472.682 4500.7
1510.82 473.25 4497.74
1512.87 473.649 4496.91
1496.34 470.624 4504.12
1491.41 467.641 4509.76
1495.82 470.378 4504.17
1500.94 471.622 4500.96
1499.57 470.947 4501.21
1495.78 464.986 4512.93
1492.29 466.102 4511.51
1496.63 466.651 4508.43
1497.87 469.068 4503.59
1497.76 470.163 4501.56
1495.88 469.202 4502.28
1490 467.716 4509.31
1491.5 468.809 4507.82
1542.22 484.699 4490.48
1541.71 484.305 4490.57
1541.21 484.15 4492.6
1540.32 483.889 4495.47
1538.15 483.215 4496.96
1535.35 482.363 4498.44
1540.34 483.735 4494.27
1529.53 481.136 4500.7
1515.14 474.006 4496.08
1517.56 474.274 4495.24
1539 481.471 4487.16
1536.65 479.681 4488.27
1525.4 475.257 4492.65
1530.92 477.044 4490.71
1523.31 474.582 4494.1
1533.51 478.246 4489.19
1517.93 474.872 4495.6
1524.38 479.394 4502.39
1516.68 476.196 4503.41
1508.12 473.446 4502.13
1509.79 474.1 4499.36
1494.12 469.339 4504.4
1495.12 464.426 4512.76
1493.2 465.44 4512.34
1495.57 466.73 4507.15
1496.17 468.233 4504.12
1493.98 468.219 4503.04
1491.66 468.166 4505.53
1487.64 467.125 4510.73
1488.49 467.337 4508.36
1541.24 483.924 4490.45
1540.62 483.556 4491.8
1540.04 483.33 4493.28
1537.6 483.033 4496.45
1537.43 482.705 4495.7
1521.29 478.124 4502.82
1512.98 474.554 4498.43
1539.03 481.631 4487.75
1534.94 478.949 4487.76
1527.55 475.879 4491.38
1519.81 475.201 4495.42
1521.92 475.545 4495.15
1531 477.141 4489.54
1512.29 474.778 4501.21
1514.98 475.454 4500.83
1509.13 473.835 4501.57
1494.08 464.053 4512.56
1492.6 464.859 4512.7
1489.81 465.659 4511.57
1486.71 466.488 4511.42
1488.16 465.381 4511.79
1494.24 466.276 4507.03
1493.65 467.099 4504.86
1492.2 467.278 4503.75
1489.62 466.9 4505.85
1486.38 466.146 4509
1539.21 481.94 4488.54
1539.59 482.804 4492.06
1537.33 482.339 4494.55
1534.47 482.167 4497.96
1529.32 480.967 4500.11
1529.81 480.968 4499.67
1523.07 478.869 4502.25
1534.19 481.765 4497.02
1531.68 477.651 4489.26
1528.72 476.377 4490.88
1524.97 475.977 4494.21
1516.71 475.876 4500.72
1518.42 476.234 4500.45
1520.74 476.658 4499.6
1493.01 463.617 4512.58
1491.58 464.546 4512.7
1489.29 465.104 4511.95
1485.52 465.804 4512.3
1485.87 466.772 4511.06
1487.56 465.115 4512
1492.73 465.507 4507.55
1491.52 465.949 4505.88
1488.83 465.552 4505.11
1490.37 466.369 4504.42
1487.11 465.561 4506.72
1483.8 464.597 4509.51
1484.01 465.452 4510.96
1538.28 482.076 4491.85
1535.75 481.599 4494.31
1533.79 481.35 4496.35
1529.52 480.674 4499.35
1523.47 478.869 4501.8
1524.2 478.922 4501.06
1529.65 480.49 4498.8
1528.76 476.729 4491.38
1537.81 481.122 4488.98
1526.26 476.624 4494.41
1522.5 477.078 4499.17
1491.9 463.071 4512.86
1490.95 464.211 4512.75
1488.88 464.831 4512.13
1487.11 464.809 4512.22
1484.86 465.396 4512.72
1484.74 466.364 4511.87
1491.74 464.582 4508.82
1489.51 464.359 4507.83
1489.39 464.857 4506.8
1487.04 464.644 4505.84
1484.65 464.129 4507.28
1481.34 463.277 4510.32
1482.08 464.569 4511.88
1536.13 481.242 4492.27
1533.36 480.67 4494.71
1531.8 480.531 4496.59
1524.95 478.282 4499.09
1529.49 477.154 4491.02
1528.54 478.338 4495.33
1526.71 478.304 4497.34
1532.13 478.085 4489.31
1536.86 480.849 4489.76
1490.76 462.582 4512.93
1490.34 463.73 4512.85
1484.24 465.027 4513.05
1483.69 465.934 4512.47
1490.01 463.773 4509.28
1487.24 463.265 4508.67
1486.39 463.523 4507.7
1485.32 463.765 4506.57
1482.09 462.722 4508.07
1478.77 461.933 4511.25
1479.75 463.221 4512.46
1482.31 465.251 4512.91
1533.51 480.409 4493.59
1529.2 478.212 4494.06
1530.19 477.644 4490.81
1533.77 479.623 4490.72
1489.65 462.342 4512.39
1489.58 463.22 4512.93
1487.91 464.119 4512.46
1486.14 464.087 4512.73
1483.62 464.66 4513.36
1486.83 462.599 4509.73
1484.03 462.182 4508.96
1481.75 461.97 4508.03
1483.48 462.89 4507.24
1476.75 460.693 4511.59
1477.06 461.716 4513.22
1479.74 463.674 4513.29
1481.61 465.063 4513.67
1530.12 478.451 4493.18
1488.36 462.371 4511.13
1488.8 462.753 4513
1488.18 462.125 4513.18
1487.32 463.693 4512.65
1485.74 463.773 4512.91
1482.77 464.241 4513.75
1484.47 461.508 4510.51
1482.14 461.189 4509.83
1479.78 461.405 4508.68
1474.23 459.686 4513.14
1475.68 461.178 4514.02
1478.69 463.334 4514.07
1481.02 464.657 4514.1
1487.47 461.936 4513.08
1486.32 461.549 4511.46
1486.83 463.221 4512.88
1485.33 463.446 4513.1
1482.85 460.523 4511.51
1480.28 460.134 4510.83
1476.72 459.885 4509.97
1478.61 460.399 4509.33
1474.88 458.75 4510.4
1472.63 458.427 4512.85
1472.89 459.406 4514.43
1475.13 461.204 4514.89
1478.46 463.343 4514.73
1480.85 464.194 4514.45
1486.89 461.693 4512.96
1485.5 462.729 4513.24
1484.21 460.447 4512.41
1484.93 463.147 4513.29
1482.4 463.853 4513.99
1481.27 459.316 4512.95
1480.11 459.489 4511.98
1477.11 458.741 4511.75
1477.74 459.391 4510.85
1475.33 458.773 4510.65
1472.61 457.545 4511.21
1471.41 457.231 4512.14
1470.34 457.719 4514.65
1473.16 459.988 4515.32
1479.35 463.469 4515.2
1480.51 463.639 4514.77
1485.74 461.108 4513.26
1484.76 462.226 4513.53
1481.86 462.791 4514.51
1484.11 460.087 4513.59
1477.75 458.388 4512.78
1481.32 458.821 4514.07
1478.51 458.135 4513.69
1474.6 457.497 4512.75
1473.21 457.673 4511.54
1469.26 455.963 4512.64
1468.22 456.359 4514.91
1471.26 458.811 4515.74
1478.4 462.878 4515.7
1484.34 461.714 4513.76
