1807.07 508.62 4530.65 
1807.22 505.429 4530.52 
1806.14 507.127 4533.12 
1805.92 508.938 4533.56 
1806.84 510.807 4531.93 
1808.85 514.692 4530.11 
1809.71 519.896 4531.19 
1806.99 504.526 4532.2 
1805.73 506.134 4534.53 
1807.04 529.8 4537.76 
1807.71 530.716 4536.01 
1807.5 531.619 4536.68 
1806.36 532.969 4539.85 
1807.29 534.971 4539.36 
1805.11 507.616 4535.49 
1804.87 510.563 4535.85 
1803.29 509.144 4538.52 
1804.85 512.52 4536.39 
1808.08 516.044 4532.53 
1806.79 523.153 4538.13 
1806.44 520.711 4537.89 
1806.75 525.011 4538.55 
1806.41 527.254 4539.25 
1807.21 503.528 4532.86 
1805.56 505.104 4535.66 
1804.48 506.219 4537.32 
1803.95 529.462 4543.2 
1804.68 530.5 4541.88 
1804.73 531.408 4542.04 
1804.07 532.941 4544.09 
1803.1 531.627 4545.05 
1807.82 537.104 4540.42 
1807.57 538.813 4543 
1804.61 534.334 4544.35 
1803.07 506.796 4539.41 
1802.11 507.711 4540.61 
1801.41 510.32 4541.6 
1799.79 507.816 4544.3 
1802.11 512.658 4540.87 
1805.59 516.005 4536.69 
1804.25 522.892 4543.03 
1804.22 524.137 4543.58 
1803.85 516.92 4539.88 
1804.2 520.684 4541.93 
1804.47 525.263 4543.25 
1804.01 527.631 4543.52 
1805.45 504.526 4536.44 
1806.42 503.003 4535.82 
1808.74 500.16 4534.28 
1803.72 505.17 4539.18 
1801.27 505.374 4542.51 
1802.23 529.736 4545.88 
1802.18 528.938 4545.96 
1802.59 530.456 4545.55 
1803.11 532.709 4546.26 
1802.53 531.419 4546.59 
1802.04 530.248 4546.96 
1806.35 538.617 4545.97 
1804.04 534.763 4546.4 
1806.7 540.412 4548.73 
1799.18 505.38 4545.52 
1800.52 510.801 4543.22 
1799.49 508.614 4544.98 
1798.49 505.535 4546.87 
1800.89 512.81 4543.2 
1802.74 521.756 4545.88 
1802.82 520.545 4544.71 
1803.22 523.377 4545.56 
1802.42 516.548 4542.32 
1801.24 515.574 4544.4 
1803.59 524.924 4545.12 
1802.6 527.112 4545.9 
1804.21 504.134 4538.93 
1805.18 502.918 4538.35 
1808.82 499.071 4537.03 
1808.14 499.578 4537.73 
1800 503.835 4544.77 
1800.89 503.333 4543.74 
1798.11 502.959 4548.21 
1801.99 529.495 4546.67 
1801.9 528.669 4546.86 
1802.96 533.259 4547.85 
1802.33 531.737 4547.98 
1801.89 530.617 4548.33 
1801.65 529.545 4548.13 
1803.95 535.488 4548.14 
1805.59 539.1 4551.11 
1797.82 503.409 4548.85 
1800.06 511.492 4544.51 
1798.91 508.71 4546.42 
1798.24 506.254 4547.57 
1797.74 504.223 4549.03 
1802.49 521.82 4547.16 
1801.98 519.506 4546.66 
1801.08 516.006 4545.54 
1802.92 523.623 4547.06 
1799.31 511.549 4546.99 
1802.17 526.866 4547.33 
1801.58 502.697 4543.18 
1804.82 502.137 4539.77 
1801.95 502.034 4543.16 
1807.65 499.583 4538.82 
1808.45 495.487 4543.94 
1798.39 501.749 4548.13 
1798.79 501.11 4547.74 
1797.68 502.021 4549.59 
1801.61 528.775 4547.92 
1802.36 532.457 4549.26 
1803.32 534.719 4549.69 
1801.83 531.113 4549.68 
1801.56 529.941 4549.37 
1801.44 528.463 4549.19 
1804.98 538.718 4554.62 
1803.33 534.98 4551.68 
1797.45 502.692 4550.31 
1798.9 509.721 4547.04 
1797.79 506.384 4549.18 
1797.47 504.644 4549.97 
1797.2 503.129 4551.5 
1802.5 522.466 4548.54 
1802.06 520.499 4547.9 
1801.42 518.473 4548.51 
1800.27 514.67 4547.38 
1801.92 526.509 4548.59 
1801.94 525.926 4549.56 
1798.39 509.936 4549.66 
1802.08 501.093 4543.77 
1806.96 499.574 4540.22 
1799.07 500.086 4548.07 
1807.84 495.082 4545.19 
1797.34 500.805 4552.1 
1797.59 500.17 4551.83 
1798.24 499.027 4550.88 
1797.27 501.398 4552.26 
1802.36 532.801 4550.81 
1801.63 530.482 4550.45 
1801.99 531.713 4551.56 
1801.4 529.153 4550.24 
1803.75 536.169 4557.31 
1802.45 532.955 4553.57 
1797 501.9 4553.39 
1798.04 508.124 4549.43 
1797.21 505.352 4551.43 
1796.97 503.444 4552.72 
1796.8 502.003 4554.53 
1802.36 522.546 4550.13 
1801.87 526.143 4550.99 
1801.72 520.386 4550.03 
1799.84 514.282 4549.6 
1800.96 518.397 4551.98 
1797.98 509.628 4551.93 
1797.64 507.862 4551.33 
1802.07 500.012 4544.74 
1799.45 498.423 4549.16 
1806.3 498.991 4541.86 
1806.96 494.442 4546.85 
1805.12 492.259 4550.61 
1803.77 490.569 4554.8 
1804.73 488.707 4557.63 
1803.97 491.395 4553.08 
1804.8 487.151 4562.42 
1797.07 499.205 4554.74 
1796.89 499.88 4555.11 
1797.86 498.382 4553.05 
1798.75 497.545 4551.51 
1803.27 487.652 4568.99 
1796.87 500.506 4555.1 
1801.41 529.358 4551.77 
1801.63 529.919 4553.32 
1802.05 530.931 4555.99 
1801.58 526.033 4553.71 
1802.91 533.455 4559.68 
1797 505.891 4553.43 
1796.8 504.081 4554.19 
1796.68 502.1 4555.44 
1796.82 500.498 4556.05 
1801.47 521.063 4553.64 
1799.23 513.429 4552.57 
1801.04 519.954 4556.94 
1799.22 513.929 4556.21 
1797.26 507.56 4553.61 
1797.54 508.956 4554.67 
1804.55 497.755 4544.98 
1800.34 497.475 4548.95 
1799.49 496.745 4551.15 
1805.08 493.59 4549.38 
1804.01 492.529 4551.5 
1800.33 492.973 4557.12 
1800.96 492.028 4558.96 
1802.19 490.22 4560.67 
1801.54 490.35 4562.94 
1800.32 493.575 4555.27 
1800.74 494.131 4553.5 
1800.99 490.727 4565.04 
1797.17 497.879 4555.59 
1797.98 497.112 4554.11 
1798.45 496.266 4554.01 
1800.45 491.61 4567.07 
1801.48 489.066 4572.86 
1801.93 487.979 4578.87 
1796.98 498.926 4555.71 
1801.2 489.442 4580.12 
1801.54 525.958 4556.5 
1801.83 529.252 4558.96 
1802.8 532.299 4563.97 
1797.01 498.617 4556.32 
1796.66 504.607 4556.19 
1796.94 506.471 4555.67 
1796.65 502.536 4556.3 
1796.79 501.502 4558.82 
1796.96 499.65 4559.16 
1799.84 516.064 4562.56 
1801.41 522.933 4561.88 
1797.64 509.648 4559.44 
1796.92 506.554 4559.08 
1801.6 489.855 4584.15 
1800.92 491.777 4580.41 
1802.13 494.886 4550.24 
1801.26 494.567 4551.86 
1798.08 495.649 4556.85 
1798.62 494.437 4560 
1798.3 494.908 4561.16 
1797.66 496.31 4558.1 
1797.68 496.298 4557.35 
1797.32 497.144 4556.97 
1799.78 492.826 4568.48 
1798.31 495.127 4562.69 
1800.26 491.356 4572.84 
1799.82 493.673 4573.9 
1797.27 497.765 4559.71 
1796.66 503.351 4558.86 
1796.8 504.54 4560.31 
1796.96 500.399 4563.99 
1796.94 501.777 4564.01 
1797.2 498.854 4563.67 
1798.07 510.201 4565.87 
1800.56 518.392 4568.45 
1797.36 506.033 4565.58 
1799.72 497.796 4577.51 
1799.74 495.885 4576.05 
1797.74 496.366 4560.72 
1798.24 495.887 4565.2 
1798.31 496.434 4567.72 
1797.79 497.964 4567.5 
1799.57 514.032 4573.04 
1797.6 497.475 4563.85 
1797 502.897 4564.17 
1797.34 504.823 4566.74 
1797.42 501.105 4567.9 
1797.6 499.247 4567.91 
1797.45 503.782 4567.89 
1798.48 509.835 4571.69 
1800.46 498.431 4582.27 
1799.07 502.157 4575.14 
1798.55 507.012 4573.15 
1799.89 507.736 4580.42 
1799.66 503.106 4579.61 
