1852.38 436.663 3919.93
1851.37 443.951 4005.44
1851.55 441.59 3929.26
1852.42 439.635 3923.23
1851.27 436.704 3922.62
1850.74 435.206 3922.82
1851.89 435.066 3920.19
1852.39 433.607 3918.25
1852.16 440.673 4013.13
1851.66 442.454 4010.34
1851.66 439.176 4005.16
1851.97 441.092 4002.08
1852.99 445.801 3995.01
1850.78 443.762 3942.83
1850.91 443.258 3937.15
1850.69 442.084 3934.09
1850.39 440.519 3931.36
1851.23 439.383 3926.33
1850.96 437.45 3924.03
1847.77 434.865 3928.31
1848.06 434.406 3927.34
1847.56 433.435 3927.56
1847.82 432.849 3926.8
1850.67 433.63 3922.3
1851.34 431.558 3920.33
1852.43 437.16 4014.2
1851.41 437.457 4006.33
1851.35 435.867 4007.55
1852.06 436.646 4005.01
1852.01 438.563 4003.13
1851.18 440.368 3999.23
1853.3 445.786 3992.33
1850.64 443.574 3951.3
1849.9 442.404 3944.38
1850.13 442.083 3938.7
1849.69 440.757 3935.77
1847.36 437.164 3934.68
1847.56 436.748 3932.19
1848.52 437.039 3929.63
1847.95 435.754 3928.88
1845.24 432.849 3931.49
1845.29 433.361 3932.2
1845.09 432.173 3931.03
1847.19 431.778 3927.33
1844.93 431.395 3930.78
1850.05 431.795 3923.03
1850.01 429.707 3922.72
1850.61 427.74 3921.24
1850.93 424.711 3919.76
1851.53 433.409 4008.48
1851.7 431.683 4009.15
1851.59 435.483 4005.65
1851.29 434.306 4006.18
1852.15 437.191 4003.89
1852.03 435.843 4004.8
1851.22 438.173 4000.92
1850.17 438.955 3997.76
1851.55 442.469 3993.22
1849.39 441.319 3950.39
1849.14 440.727 3941.19
1847.11 437.36 3937.94
1845.23 434.225 3935.38
1845.02 434.428 3938.56
1845.43 433.985 3933.12
1844.38 432.051 3933.09
1844.38 432.474 3934.23
1844.59 433.109 3935.03
1844.27 431.406 3932.47
1844.65 430.563 3930.82
1846.87 430.838 3927.5
1844.18 430.69 3932.17
1846.66 429.952 3927.69
1849.64 427.833 3923.49
1847.03 429.135 3927.36
1849 425.52 3925.12
1848.62 424.454 3926.11
1850.03 422.904 3921.96
1848.31 423.704 3926.81
1851.52 422.028 3917.56
1851.93 421.104 3916.49
1852.79 421.172 3914.73
1851.1 432.998 4006.68
1851.87 430.037 4009.85
1851.1 431.534 4007.33
1851.67 434.58 4005.37
1851.43 433.258 4005.85
1851.76 437.123 4002.33
1852.1 436.028 4003.35
1852.04 435.185 4004.62
1850.24 437.483 3998.57
1849.52 438.491 3995.03
1853.85 445.814 3988.66
1846.8 437.659 3947.59
1847.46 438.674 3953.68
1850.12 442.09 3959.77
1846.72 437.362 3942.37
1844.56 434.227 3943.14
1844.38 433.324 3938.29
1843.64 432.693 3942.47
1843.76 431.361 3934.77
1843.88 431.91 3935.99
1844.14 432.636 3937.16
1843.68 430.728 3933.5
1844.11 429.991 3931.93
1844.46 429.865 3930.99
1843.64 429.983 3933.08
1846.89 428.352 3927.71
1848.84 426.669 3925.22
1844.5 429.261 3931.03
1848.07 425.262 3927.16
1847.72 423.916 3929.24
1847.52 424.229 3929.68
1847.38 423.064 3930.58
1847.9 422.747 3927.8
1849.32 422.127 3923.69
1850.71 421.401 3919.52
1847.3 422.484 3930.62
1851.11 420.316 3918.21
1852.39 419.706 3915.61
1851.72 419.453 3916.86
1853.13 420.107 3914.26
1854.11 420.794 3912.41
1851.21 431.995 4006.3
1851.29 429.837 4008.13
1850.97 430.781 4006.83
1851.14 434.526 4004.49
1851.55 433.5 4005.07
1850.93 432.438 4005.47
1850.93 436.446 4000.25
1848.56 435.039 4003.13
1849.55 435.151 4001.51
1849.99 436.399 3997.67
1849.25 436.421 3995.37
1851.33 440.994 3991.52
1844.82 434.397 3949.67
1845.19 434.838 3954.46
1847.05 437.836 3956.42
1849.82 441.934 3962.72
1851.57 444.267 3969.88
1844.1 433.355 3949.43
1843.07 431.8 3941.86
1843.48 432.578 3948.46
1843.21 430.621 3936.19
1843.19 431.027 3937.96
1843.2 431.505 3939.54
1843.04 429.996 3934.69
1843.92 429.355 3932.28
1843.34 429.367 3933.33
1846.47 427.701 3928.59
1846.56 426.773 3928.96
1844.42 428.671 3931.61
1845.81 426.564 3930.66
1845.47 426.528 3932.11
1846.61 423.889 3932.61
1846.51 424.823 3932.68
1846.71 421.761 3932.5
1846.32 422.69 3933.51
1848 421.909 3927.27
1847.1 421.476 3930.35
1847.08 421.757 3931
1849.74 421.322 3922.15
1850.55 419.886 3919.43
1850.12 420.127 3920.52
1846.5 420.902 3932.49
1851.1 419.142 3918.03
1853.29 418.684 3914.3
1852.63 418.504 3915.39
1851.94 418.448 3916.55
1854.13 418.93 3913.07
1855.06 419.118 3911.75
1850.38 431.347 4005.96
1851.49 428.089 4008.95
1850.92 429.351 4007.49
1850.2 430.2 4006.47
1844.91 434.594 4003.5
1846.05 434.226 4004.62
1844.91 433.588 4005.29
1849.82 435.126 3999.62
1838.57 434.379 4001.33
1839.44 435.543 4000.58
1840.81 435.91 3999.61
1849.47 435.001 3997.46
1848.23 435.003 3995.5
1850 437.508 3992.82
1851.75 441.976 3989.59
1852 445.657 3987.09
1850.12 446.471 3985.8
1850.44 445.837 3984.13
1851.14 445.197 3981.65
1850.55 443.846 3974.63
1844.25 433.752 3955.27
1845.43 435.172 3958.23
1843.81 434.264 3957.42
1847.39 438.409 3959.47
1850.22 442.699 3967.37
1843.65 433.262 3955.06
1842.18 430.709 3944
1843 432.003 3948.3
1843.15 432.8 3954.54
1842.72 429.717 3937.22
1842.26 429.81 3939.8
1841.91 430.049 3942.32
1842.55 429.248 3935.3
1843.88 428.792 3932.68
1842.93 429.064 3933.92
1844.41 427.329 3934.37
1846.05 423.41 3934.69
1845.87 424.768 3934.42
1844.42 419.606 3933.13
1845.62 420.579 3933.92
1845.75 421.213 3934.74
1846.97 420.999 3929.68
1848.47 421.44 3925.87
1846.06 420.363 3931.78
1845.89 420.113 3930.84
1849.65 420.486 3921.84
1850.42 419.03 3919.45
1849.71 419.055 3920.96
1843.86 419.302 3932.3
1851.17 418.395 3917.85
1853.88 417.451 3913.87
1854.58 417.584 3912.95
1853 417.451 3914.98
1851.98 417.425 3916.36
1855.53 417.454 3911.88
1856.57 417.236 3910.83
1844.18 432.691 4005.91
1851.61 426.469 4009.56
1851.08 427.656 4008.29
1850.05 429.033 4006.99
1844.58 431.276 4006.49
1837.97 433.872 4001.91
1837.54 433.737 4002.66
1837.2 433.561 4003.66
1843.5 435.343 3997.98
1837.52 433.769 3999.85
1837.77 436.031 3999.64
1838.06 438.815 3999.31
1838.37 440.202 3999.8
1843.49 437.143 3997.04
1848.1 436.058 3994.06
1843.11 440.849 3996.86
1849.51 438.653 3991.5
1849.51 441.952 3989.75
1848.18 445.903 3988.67
1846.07 445.197 3987.05
1846.12 443.625 3984.27
1844.34 443.843 3986.54
1848.02 443.339 3978.79
1848.08 442.331 3973.32
1842.03 433.905 3957.98
1845.49 435.655 3961.27
1843.3 435.07 3960.04
1841.76 434.518 3958.94
1847.51 438.633 3961.77
1847.57 441.274 3970.89
1841.51 433.428 3957.87
1842.18 430.909 3948.17
1842.67 431.634 3949.38
1842.53 432.34 3954.21
1841.29 432.879 3957.46
1842.37 428.914 3937.47
1841.42 428.923 3941.48
1841.27 429.499 3944.2
1842.12 428.407 3936.52
1844.34 427.272 3936.03
1842.8 428.085 3936.71
1845.75 425.27 3935.25
1845.54 421.655 3935.59
1845.99 423.974 3935.53
1840.89 417.559 3932.21
1840.24 416.975 3930.74
1841.73 417.972 3933.27
1842.55 418.037 3933.91
1847.1 420.729 3928.66
1845.6 419.772 3929.8
1848.78 420.774 3924.42
1843.73 419.157 3931.42
1843.92 419.029 3930.47
1849.25 419.363 3921.75
1850.36 418.444 3919.36
1849.59 418.489 3920.84
1839.94 416.609 3929.69
1850.87 417.507 3917.91
1855.08 416.435 3912.82
1854.12 416.514 3913.81
1853.18 416.546 3914.8
1852.14 416.419 3915.96
1856.07 416.122 3911.88
1858.18 415.381 3910.03
1857.54 414.725 3911.02
1837.76 433.212 4005.22
1851.5 425.86 4009.09
1850.94 426.693 4008
1850.06 427.797 4007.49
1844.79 429.937 4006.99
1837.87 432.347 4005.84
1836.58 433.477 4000.11
1834.98 433.506 4001.46
1838.83 442.482 3999.31
1837.96 433.454 3998.39
1838.02 434.515 3998.64
1838.38 437.49 3998.16
1838.52 441.653 3998.51
1838.78 439.941 3997.29
1839.08 445.045 3998.89
1845.07 441.762 3995.27
1839.89 446.894 3998.03
1844.64 446.721 3992.98
1843.17 445.984 3991.06
1842.5 444.37 3988.95
1842.61 442.313 3985.81
1842.82 441.389 3980.87
1841.54 442.996 3988.02
1843.28 440.188 3975.29
1840.23 434.948 3962.74
1840.1 435.465 3963.19
1843.05 436.81 3963.82
1841.4 436.381 3963.69
1840.52 435.948 3963.56
1847.31 438.454 3963.19
1847 440.251 3968.78
1842.71 437.562 3967.87
1842.38 437.337 3968.82
1840.41 434.277 3962.19
1842.04 430.607 3949.19
1842.23 431.972 3954.01
1841.2 432.36 3957.27
1840.86 433.15 3960.96
1841.66 428.124 3939.37
1841.04 428.374 3941.92
1840.79 428.822 3945.12
1843.96 427.038 3937.96
1841.85 427.795 3940.37
1845.78 424.822 3936.35
1843.3 418.197 3934.6
1845.26 422.153 3936.46
1838.76 416.112 3927.14
1838.69 416.326 3927.8
1839.5 416.383 3928.7
1845.47 419.539 3928.77
1847.66 420.528 3927.33
1843.88 418.792 3929.53
1848.86 419.776 3923
1840.55 417.016 3929.2
1848.91 418.525 3921.74
1849.97 417.696 3919.51
1849.22 417.817 3920.68
1850.13 416.621 3918.43
1851.14 416.377 3917.11
1854.27 415.477 3913.68
1855.19 415.09 3912.91
1853.37 415.606 3914.54
1852.31 415.372 3915.67
1851.26 415.307 3916.71
1856.48 414.236 3912.02
1860.91 410.191 3909.81
1858.74 412.607 3910.72
1863.69 406.83 3908.09
1862.75 406.931 3909.61
1834.5 433.088 4001.87
1851.43 425.374 4008.6
1851.59 424.69 4008.69
1850.83 426.142 4007.56
1846.99 428.145 4007.24
1848.64 426.813 4007.33
1839.34 430.853 4006.26
1836.18 430.939 4002.31
1837.93 433.146 3997.87
1836.87 433.249 3999.11
1835.91 433.174 3999.57
1838.9 443.877 3997.48
1838.39 433.641 3997.4
1838.49 433.195 3996.85
1838.64 435.961 3997.12
1839.12 438.021 3995.47
1839.29 441.588 3995.27
1839.65 439.465 3993.23
1839.24 445.843 3996.31
1841.77 447.285 3996.77
1840.5 446.825 3995.08
1840.15 445.143 3992.87
1840.47 443.161 3990.15
1841.86 441.859 3987.25
1841.98 440.515 3980.62
1841.83 438.984 3975.44
1841.05 442.509 3989.03
1841.79 436.722 3969.09
1839.95 434.265 3968.12
1840.58 435.163 3968.51
1844.35 437.443 3965.06
1841.3 436.041 3969.1
1839.55 433.971 3967.27
1841.89 430.244 3949.69
1842.02 431.828 3954.71
1840.99 432.473 3960.94
1839.47 433.427 3967.04
1840.64 427.996 3943.3
1840.76 428.599 3945.67
1841.47 429.512 3948.72
1841.53 429.432 3949.85
1843.25 426.684 3940.72
1845.52 423.771 3937.67
1841.16 427.677 3942.82
1843.83 418.092 3934.94
1841.22 416.092 3929.62
1844.65 419.026 3936.79
1838.59 416.202 3926.17
1839.48 416.166 3926.8
1846.25 419.617 3928.11
1842.6 417.503 3926.73
1841.97 417.41 3927.43
1848.17 419.909 3925.31
1841.27 417.298 3928.33
1848.44 418.801 3922.69
1839.89 416.273 3926.36
1848.54 417.883 3921.67
1849.31 416.888 3919.56
1848.55 416.992 3920.35
1839.28 416.307 3925.88
1850.33 415.504 3917.34
1849.39 415.694 3918.29
1852.14 413.206 3914.83
1850.75 413.288 3915.65
1852.88 412.859 3914.29
1849.76 413.337 3916.29
1849 413.429 3916.82
1848.4 413.578 3917.24
1847.58 413.694 3917.67
1854.49 412.518 3913.32
1855.68 411.947 3912.64
1859.61 409.007 3911.29
1860.01 405.714 3912.37
1855.29 411.254 3912.94
1864.23 406.078 3907.04
1863.29 404.09 3909.38
1861.88 403.466 3911.27
1860.96 404.248 3912.03
1836.55 431.714 4000.09
1850.79 425.506 4007.31
1850.9 424.902 4007.19
1851.53 424.135 4008.21
1848.82 425.885 4007.31
1851.62 423.098 4008.64
1840.5 429.554 4006.31
1841.75 428.31 4006.43
1837.97 428.793 4002.49
1838.28 429.665 4000.15
1838.69 432.41 3996.5
1838.09 432.801 3997.16
1837.7 432.337 3997.95
1839.68 443.297 3993.68
1838.81 432.923 3995.59
1839.04 434.475 3995.53
1839.27 431.869 3996.02
1839.35 431.813 3995.38
1839.39 436.211 3994.39
1840.05 438.077 3992.53
1840.22 441.272 3991.13
1840.59 440.089 3990.94
1841.76 441.28 3987.94
1841.7 439.828 3980.52
1841.4 437.689 3975.06
1841.19 441.83 3989.36
1840.93 435.769 3974.05
1840.34 434.095 3973.71
1839.77 432.649 3973.51
1842.04 431.106 3953.82
1841.8 431.702 3955.46
1841.1 431.919 3961.14
1839.49 432.319 3967.66
1839.18 431.218 3973.43
1841.32 429.001 3949.61
1841.58 430.735 3955.47
1841.6 431.253 3955.94
1842.99 426.134 3942.95
1845.68 422.808 3939.97
1840.67 428.028 3944.79
1841.12 428.481 3949.04
1843.08 415.752 3930.55
1841.09 415.449 3927.33
1846.66 416.473 3939.35
1846.07 415.215 3933.91
1838.78 415.986 3925.13
1839.33 415.559 3925.44
1839.48 416.274 3925.03
1840.69 415.207 3925.58
1847.04 419.416 3927.14
1843.18 417.48 3926.05
1840.97 416.35 3924.62
1847.94 418.837 3924.24
1847.87 417.933 3922.69
1840.49 416.403 3925.27
1847.95 417.032 3921.21
1848.7 416.148 3919.3
1847.94 415.967 3919.74
1846.88 413.923 3918.06
1848.41 415.147 3918.54
1846.11 414.129 3918.46
1848.45 412.248 3917.02
1847.21 412.313 3917.42
1849.68 412.126 3916.56
1846.08 412.611 3917.75
1845.54 412.958 3918.08
1843.14 414.175 3919.45
1850.99 411.847 3915.67
1856.27 410.047 3912.68
1856.86 407.708 3913.32
1857 405.688 3914.52
1857.87 403.515 3914.88
1851.35 411.48 3915.56
1864.37 402.76 3907.7
1863.56 401.778 3909.33
1861.43 399.032 3912.39
1859.39 401.897 3914.03
1839.01 430.457 3998.11
1849.55 425.035 4007.36
1850.89 424.246 4006.95
1849.41 424.445 4007.06
1851.43 423.434 4007.63
1842.64 427.184 4006.47
1843.76 426.061 4006.58
1851.43 422.352 4007.86
1839.63 426.799 4002.84
1840 427.626 4000.16
1840.36 428.38 3998.02
1840.3 430.035 3995.25
1839.58 430.833 3995.87
1839.26 430.987 3996.24
1838.56 432.27 3992.49
1839.12 433.446 3992.66
1840.07 436.493 3992.53
1839.88 430.376 3994.18
1838.53 431.626 3992.49
1841.04 439.252 3990.62
1841.54 441.109 3989.36
1841.93 440.249 3986.97
1841.26 438.717 3979.55
1840.65 436.997 3979.64
1840.05 435.232 3979.75
1841.4 431.341 3958.29
1841.58 431.005 3962.53
1840.9 431.961 3964.15
1838.59 429.731 3972.67
1839.36 433.311 3978.39
1841.5 430.121 3955.55
1841.81 429.489 3959.11
1841.62 430.069 3959.04
1843.99 425.462 3944.78
1846.24 421.472 3942.43
1841.94 427.421 3948.89
1841.57 429.594 3954.41
1843.24 415.079 3928.63
1842.04 414.946 3926.17
1847.91 411.679 3941.79
1848.21 415.011 3944.99
1847.77 411.157 3940.03
1848.41 412.595 3937.52
1848.53 412.208 3934.68
1846.16 414.762 3932.34
1838.99 415.763 3924.14
1838.95 415.479 3924.63
1840.53 415.023 3924.59
1839.8 416.26 3924.46
1842 414.715 3925.04
1847.19 418.74 3925.34
1843.6 417.303 3925.27
1841.51 416.257 3923.9
1840.97 416.298 3923.84
1840.14 416.393 3924.9
1847.09 417.901 3923.66
1847.16 417.107 3922.02
1847.4 416.376 3920.85
1847.17 415.681 3920.08
1846.88 415.004 3919.55
1847.35 414.767 3919
1841.76 414.827 3920.32
1845.21 414.305 3918.92
1846.85 412.319 3918.35
1847.89 412.146 3917.85
1844.82 413.406 3918.52
1848.77 412.08 3917.41
1843.47 413.502 3919.12
1842.03 414.357 3919.99
1853.78 410.135 3914.21
1855.76 407.4 3914.54
1853.59 409.789 3915.06
1855.75 405.27 3916.06
1857.25 402.538 3916.01
1850.7 411.583 3916.58
1849.54 411.922 3917.65
1864.34 398.752 3908.68
1859.01 400.44 3914.87
1859.71 396.603 3915.11
1863.2 395.797 3910.83
1840.31 429.099 3995.89
1844.98 424.924 4006.67
1850.58 423.577 4006.68
1849.25 423.805 4006.95
1845.65 423.908 4006.58
1851.26 422.877 4006.89
1841.2 424.987 4003.29
1842.66 423.188 4003.39
1851.76 422.372 4006.85
1841.33 425.643 4000.42
1841.54 426.282 3997.95
1841.46 427.04 3995.71
1841.11 428.515 3994.53
1839.64 429.519 3992.04
1840.78 428.797 3995.05
1838.76 431.8 3989.32
1838.35 431.418 3989.51
1839.46 433.612 3989.33
1840.4 436.556 3989.5
1838.25 430.921 3990.44
1841.49 438.882 3987.34
1840.7 436.544 3986.7
1839.75 433.721 3985.21
1842.17 430.229 3963.31
1839.25 428.554 3970.54
1839.06 429.192 3970.23
1838 429.181 3975.96
1839.13 432.37 3979.89
1842.15 429.034 3959.05
1842.85 429.321 3964.2
1843.39 428.708 3964.29
1844.61 425.355 3947.59
1846.85 421.931 3948.01
1847.59 418.328 3947.4
1842.64 428.893 3954.67
1843.73 428.12 3954.08
1841.73 428.703 3957.74
1844.51 414.53 3927.98
1843.38 414.463 3925.66
1848.76 409.368 3945.07
1848.09 407.605 3941.09
1849.43 412.502 3952.82
1846.8 407.506 3939.34
1847.94 410.372 3938.97
1848.98 411.175 3936.47
1848.56 412.162 3933.96
1849.23 411.706 3934.41
1846.64 414.416 3931.88
1839.19 415.532 3923.15
1839.66 415.092 3923.83
1839.69 415.929 3923.61
1840.95 414.645 3923.48
1841.95 414.511 3924.11
1840.49 416.403 3924.41
1843.28 414.222 3924.47
1844.02 417.137 3924.51
1844.62 417.062 3923.9
1842.01 416.123 3923.23
1841.06 416.048 3923.37
1840.56 416.121 3923.59
1846.41 417.025 3922.51
1844.71 416.698 3923.18
1846.45 416.168 3921.18
1846.44 415.464 3920.28
1844.96 414.558 3919.32
1842.01 415.231 3921.31
1846.15 412.541 3919.45
1844.1 413.146 3919.44
1847.82 412.101 3919.16
1848.64 411.995 3918.55
1840.95 414.471 3920.51
1840.96 414.923 3920.75
1841.01 415.156 3921.41
1855.04 407.209 3915.81
1853.01 409.799 3916.25
1854.75 405.164 3917.48
1856.25 402.352 3917.45
1849.8 411.796 3918.47
1848.9 411.919 3919.44
1865.33 397.156 3907.8
1858.05 399.546 3916.41
1858.44 396.38 3917.31
1860.66 390.679 3915.64
1861.61 390.13 3914.18
1864.96 394.254 3909.51
1862.51 389.876 3912.98
1863.75 390.686 3911.51
1841.73 427.112 3994.42
1848.72 423.19 4006.93
1850.02 422.91 4006.61
1846.23 423.051 4006.64
1843.91 421.509 4003.32
1851.46 422.648 4006.28
1842.5 423.706 4000.62
1843.57 421.848 4000.69
1842.62 424.272 3998.12
1842.65 424.874 3995.74
1842.73 425.332 3993.87
1841.75 427.001 3993.43
1840.27 428.293 3991.61
1837.88 430.269 3988.09
1838.53 429.147 3988.42
1838.49 430.945 3986.44
1839.01 431.566 3985.83
1838.1 430.635 3987.07
1838.96 428.145 3971.37
1838.08 428.8 3977.22
1838.77 431.158 3981.86
1843.65 428.776 3959.58
1844.01 428.228 3964.44
1838.77 427.96 3971.9
1838.55 427.767 3972.72
1845.77 425.297 3951.32
1847.21 421.671 3956.32
1848.35 417.211 3954.59
1843.37 428.496 3958.13
1845.23 426.192 3958.09
1845.01 413.995 3925.68
1846.17 413.955 3927.5
1847.02 414.087 3931.05
1844.51 413.932 3924.71
1849.28 406.532 3945.3
1848.98 405.628 3941.24
1847.82 405.806 3939.63
1850.01 412.225 3961.34
1851.36 406.448 3960.27
1850.75 405.136 3952.09
1846.01 407.131 3938.08
1846.78 405.641 3938.09
1847.91 409.831 3937.95
1848.51 412.34 3933.06
1849.42 411.816 3933.09
1849.36 411.19 3935.26
1851.22 410.743 3931.42
1840.24 414.668 3922.72
1839.99 415.591 3922.75
1839.38 415.197 3922.16
1842.05 413.995 3922.29
1842.19 414.194 3923.07
1843.37 413.956 3923.47
1844.8 413.598 3923.74
1842.33 415.936 3922.84
1841.36 415.74 3922.78
1844.79 416.288 3922.38
1842.87 415.81 3922.45
1844.94 415.441 3920.93
1844.88 415.874 3921.64
1845.03 415.03 3920.25
1842.56 414.863 3920.24
1843.34 415.024 3920.78
1841.64 415.42 3922
1842.15 415.524 3922.15
1842.63 415.219 3921.32
1845.5 412.771 3920.33
1842.91 413.55 3920.61
1841.49 413.973 3920.37
1847.37 412.231 3920.35
1839.48 414.769 3921.35
1840.08 415.015 3921.48
1840.78 415.332 3922.11
1852.85 409.486 3917.27
1854.43 407.094 3917.06
1854.13 405.303 3918.79
1855.55 401.924 3918.92
1849.62 411.771 3920.2
1848.94 411.863 3920.7
1847.74 412.145 3921.01
1866.89 394.533 3907.27
1857.29 398.363 3918.25
1857.38 396.054 3919.75
1859.51 391.285 3917.7
1860.52 386.817 3917.51
1861.4 386.485 3915.56
1862.4 386.503 3913.85
1868.82 389.969 3906.68
1870.51 390.769 3904.32
1863.47 386.684 3912.48
1865.94 389.039 3909.86
1842.28 425.738 3992.62
1846.63 422.217 4006.73
1848.55 422.714 4006.84
1850.41 422.573 4006.31
1849.01 422.52 4006.57
1844.87 421.053 4004.08
1844.53 420.83 4001.45
1844.11 421.121 4000.74
1843.68 422.352 3998.16
1844.3 421.58 3998.08
1843.76 422.879 3995.69
1843.71 423.524 3993.4
1842.63 424.549 3991.4
1840.09 427.433 3989.64
1837.7 429.88 3984.2
1837.56 429.496 3985.1
1838.3 428.525 3986.06
1838.12 430.312 3983.11
1838.34 428.5 3978.32
1844.57 427.277 3963.83
1839.59 427.584 3970.47
1838.61 428.208 3979.42
1838.32 427.37 3977.12
1838.87 428.147 3981.69
1848.09 416.908 3963.21
1845.18 422.329 3965.02
1844.95 427.388 3961.74
1843.32 424.842 3966.65
1846.32 413.498 3925.07
1846.05 413.371 3924.26
1847.26 413.491 3926.6
1847.73 413.549 3930.29
1848.38 412.345 3932.26
1850.73 403.627 3945.79
1851.05 403.058 3941.72
1849.36 404.693 3938.79
1848.25 405.028 3937.03
1850.74 412.253 3967.25
1851.39 407.699 3965.61
1853.58 399.693 3964.67
1853.64 396.945 3961.47
1852.85 401.721 3958.46
1852.72 401.653 3952.86
1852.81 400.913 3946.7
1846.09 405.989 3936.83
1847.99 409.679 3937.28
1845.79 406.814 3936.63
1850.3 411.027 3930.52
1851.3 410.522 3929.7
1847.87 409.229 3936.23
1851.25 410.745 3931.93
1852.27 409.073 3926.97
1852.43 408.124 3926.32
1852.28 407.74 3927.02
1840.96 414.207 3921.74
1844.99 412.978 3921.63
1843.88 413.471 3922.51
1843.67 413.354 3921.3
1845.14 413.182 3922.85
1847.12 412.772 3923.52
1846.59 412.758 3923
1843.09 415.584 3921.96
1852.58 409.384 3918.25
1853.84 407.166 3918.17
1853.87 405.952 3919.31
1855.2 401.362 3920.11
1851.52 410.234 3919.62
1848.38 412.007 3922.04
1846.52 412.546 3922.02
1856.45 397.607 3920.76
1856.46 395.897 3922.53
1858.14 391.754 3920.71
1859.46 387.42 3919.8
1861.19 385.539 3916.64
1860.22 385.713 3919.12
1862.08 385.407 3914.75
1863.11 385.471 3913.2
1865.94 386.443 3910.42
1870.41 387.318 3905.45
1841 426.041 3989.58
1847.02 421.736 4006.55
1845.34 420.957 4003.64
1849.6 422.368 4006.25
1847.49 421.768 4006.18
1845.15 420.659 4000.73
1844.99 420.727 3999.24
1844.63 421.141 3998.72
1852.07 423.002 4005.68
1844.38 422.045 3995.79
1844.86 421.431 3995.42
1844.37 422.367 3993.22
1843.59 423.284 3991.45
1841.69 425.053 3988.89
1839.74 427.009 3987.09
1839.21 427.496 3982.58
1839.59 426.712 3971.24
1838.96 426.731 3976.89
1848.04 418.4 3969.64
1844.47 422.177 3970.65
1840.02 425.733 3972.88
1848.27 412.682 3924.75
1850.06 411.304 3923.82
1850.25 411.174 3922.95
1848.35 412.475 3929.36
1849.88 411.162 3927.1
1849.45 411.137 3930.42
1851.66 402.151 3939.26
1853.34 399.35 3938.97
1850.1 404.122 3936.58
1851.98 401.474 3936.9
1848.17 405.833 3935.88
1849.53 404.586 3935.53
1850.93 414.904 3973.04
1853.45 402.965 3968.31
1856.22 393.341 3965.05
1854.44 391.554 3959.68
1853.31 394.184 3958.51
1853.91 389.936 3955.48
1853.21 399.83 3957.9
1853.54 399.734 3951.56
1853.69 398.651 3943.21
1846.77 406.271 3935.96
1846.15 406.905 3935.73
1851.99 410.063 3925.85
1852.25 409.334 3925.11
1852.57 407.942 3923.99
1847.99 409.238 3935.73
1846.44 407.552 3935.45
1849.67 410.693 3934.83
1851.36 409.98 3931.64
1852.84 406.601 3923.54
1852.61 405.99 3923.86
1851.45 405.794 3926.8
1851.73 404.833 3925.4
1848.75 411.967 3922.68
1850.78 410.81 3921.67
1853.52 407.479 3918.66
1853.58 406.358 3919.95
1853.61 403.627 3921.88
1855.3 399.66 3921.63
1855.74 397.293 3923.29
1855.68 395.492 3925.73
1856.87 391.746 3923.91
1857.82 388.41 3923.28
1858.83 386.564 3922.3
1861.1 384.775 3917.53
1862.09 384.625 3915.16
1860.07 385.25 3920.22
1863.08 384.785 3913.48
1866 385.487 3910.65
1872.67 386.924 3903.03
1870.36 384.349 4000.2
1869.96 384.378 3996.32
1869.41 384.239 3992.17
1845.87 421.03 4003.24
1847.99 421.806 4005.82
1846.46 420.963 4002.79
1845.79 420.555 4000.4
1845.53 420.507 3998.76
1845.15 421.004 3996.69
1846.23 419.356 3994.11
1851.9 423.435 4005.39
1850.01 422.231 4005.97
1848.52 421.737 4005.46
1844.7 421.557 3993.1
1846.17 420.018 3991.51
1845.57 420.562 3990.92
1852.62 423.403 4005.14
1844.31 422.271 3991.28
1842.86 423.799 3988.25
1840.3 426.219 3983.11
1841.43 425.064 3984.19
1848.24 418.719 3973.99
1840.15 425.367 3976.01
1842.14 423.415 3977.34
1852.17 408.857 3922.87
1852.82 408.171 3920.05
1854.05 397.642 3935.53
1853.73 398.742 3933.47
1851.8 402.176 3932.46
1852.69 400.851 3933.65
1847.49 406.134 3934.95
1849.27 404.67 3933.18
1850.53 403.527 3931.74
1851.82 415.3 3977.34
1856.04 397.567 3969.78
1859.94 388.84 3966.69
1857.2 386.884 3958.23
1860.77 383.427 3960.54
1856.12 386.148 3953.23
1853.26 394.097 3957.22
1853.56 389.87 3953.11
1854.56 388.019 3951.01
1853.45 397.435 3956.21
1853.78 398.64 3952.34
1854.24 396.898 3944.94
1854.27 396.09 3938.37
1846.59 406.648 3934.68
1852.92 407.228 3921.71
1848.18 409.22 3935.05
1846.58 407.306 3934.6
1850.14 410.606 3933.88
1853.27 405.853 3921.97
1852.71 404.138 3923.57
1851.2 407.553 3929.55
1848.78 405.349 3931.71
1848.43 405.759 3931.72
1851.02 404.052 3927.09
1849.16 404.887 3931.57
1852.91 402.296 3924.87
1854.45 399.841 3923.76
1872.68 385.85 3903.51
1855.28 396.61 3926.38
1855.14 397.924 3924.64
1855.17 395.253 3928.73
1855.25 391.705 3929.53
1855.87 391.887 3926.91
1856.18 388.614 3927.26
1856.92 387.632 3925.89
1856.85 386.814 3926.4
1858.72 385.988 3923.33
1862.3 383.856 3915.39
1861.43 383.97 3917.61
1863.15 384.03 3913.81
1860.36 384.581 3920.26
1864.31 384.348 3912.49
1867.34 385.102 3909.67
1873.11 383.304 4020.07
1873.61 381.991 4021.24
1872.12 382.674 4013.03
1871.05 381.93 4006.8
1870.7 381.931 4003.09
1870.5 377.643 4004.14
1870.56 378.871 4000.13
1870.55 379.192 3996.08
1869 383.41 3989.87
1867.84 383.628 3984.93
1870.41 378.58 3992.22
1847.04 420.881 4002.38
1846.53 420.393 3999.52
1846.1 420.389 3998.77
1846.68 418.925 3994.67
1847.28 418.93 3995.1
1846.02 419.628 3992.64
1849.55 418.089 3989.52
1850.43 417.35 3990.83
1852.15 423.74 4004.97
1851.12 422.983 4005.27
1849.09 421.508 4004.79
1847.73 420.81 4002.27
1844.78 421.554 3989.43
1849.52 415.782 3985.65
1851.29 414.655 3986.07
1847.55 417.608 3982.95
1843.56 422.609 3985.05
1842.92 422.669 3980.23
1850.06 416.677 3978.04
1854.54 395.806 3933.51
1854.47 397.002 3930.77
1854.24 398.45 3929.05
1853.55 399.919 3928.1
1851.45 403.342 3927.54
1853.23 400.924 3926.61
1859.54 392.555 3972.45
1863.96 381.451 3967.29
1863.43 386.104 3974.97
1860.71 380.156 3953.92
1864.06 377.119 3961.52
1860.48 379.341 3950.25
1856.01 386.137 3948.11
1853.83 394.129 3949.68
1853.62 391.049 3950.59
1854.02 389.443 3947.24
1854.65 387.452 3942.15
1854.06 392.712 3942.67
1854.45 391.831 3936.82
1848.22 408.836 3934.27
1846.58 407.021 3934.02
1848.12 406.185 3931.91
1850.95 408.979 3931.32
1872.53 385.204 3904.13
1867.55 384.504 3909.8
1854.91 396.998 3927.98
1854.93 391.406 3931.61
1854.89 395.351 3930.59
1855.41 387.768 3930.46
1855.97 387.285 3928.55
1855.95 386.46 3929.22
1856.71 386.145 3927.33
1858.96 385.41 3923.46
1863.45 383.294 3913.97
1862.64 383.113 3915.56
1861.64 383.356 3917.88
1864.58 383.612 3912.69
1860.64 383.945 3920.48
1872.66 381.76 4015.77
1872.66 379 4017.92
1872.74 380.067 4016.85
1872.75 377.535 4018.51
1873.74 380.205 4021.1
1874.15 379.296 4021.97
1870.79 377.004 4011.6
1869.87 376.565 4007.31
1869.88 373.377 4006.51
1868.92 372.972 4008.55
1870.75 376.382 4001.4
1871 375.783 3998.62
1871.28 376.035 3993.69
1869.37 378.137 3988.35
1866.56 381.307 3979.23
1847.25 420.312 3999.46
1847.6 419.16 3995.85
1848 419.266 3996.38
1851.85 416.537 3991.74
1851.87 416.842 3992.81
1852.14 415.583 3987.56
1851.44 423.276 4004.85
1849.66 421.354 4003.86
1848.29 420.213 4000.25
1852.35 413.646 3982.43
1846.77 418.541 3980
1852.57 414.181 3980.96
1854.64 392.084 3933.8
1865.71 379.234 3974.09
1865.74 374.35 3968.17
1863.18 375.521 3956.08
1861.44 376.177 3953.31
1864.7 373.279 3961.23
1860.35 375.837 3949.7
1861.64 374.309 3944.78
1861.12 379.126 3946.41
1862.24 374.638 3944.22
1859.79 381.449 3945.62
1855.21 386.587 3941.68
1854.19 389.507 3941.64
1854.5 388.175 3939.38
1854.95 386.861 3936.14
1854.74 387.255 3935.67
1854.57 388.253 3935.39
1849.08 407.405 3931.8
1873.3 384.734 3904.02
1867.87 383.969 3909.83
1854.88 388.506 3932.51
1855.45 386.884 3930.88
1854.93 387.289 3932.89
1856.01 386.035 3930.58
1855.17 386.493 3932.69
1857.69 385.38 3926.12
1856.66 385.649 3929.88
1863.73 382.629 3914.2
1864.76 383.038 3912.95
1862.72 382.494 3916.22
1861.95 382.661 3918.35
1860.79 383.329 3921.62
1869.2 374.971 4014.01
1870.04 375.756 4012.6
1873.51 376.871 4019.22
1868.71 374.167 4015.59
1875.02 376.874 4021.84
1873.68 375.647 4019.14
1870.65 373.142 4005.26
1868.89 371.107 4008.39
1867.76 372.026 4010.09
1871.34 372.875 4002.86
1872 373.932 3995.65
1870.8 373.625 3989.68
1867.77 376.555 3983.11
1849.22 419.152 3996.83
1848.67 419.15 3996.45
1850.51 421.255 4002.91
1852.98 422.082 4002.12
1849.22 419.873 3999.98
1849.71 419.104 3997.1
1866.55 375.31 3976.26
1866.15 372.749 3967.84
1866.68 373.604 3975.26
1862.51 373.22 3956.22
1861.32 373.877 3953.59
1864.41 372.01 3960.83
1861.22 374.728 3949.39
1860.93 373.86 3945.04
1857.18 375.906 3941.88
1857.08 375.534 3942.54
1863.05 375.26 3943.64
1862.11 376.644 3942.29
1861.42 379.492 3942.33
1856.9 376.07 3940.68
1860.93 380.096 3940.71
1857.85 383.843 3943.45
1855.39 386.152 3936.39
1855.39 386.131 3932.98
1871.93 384.188 3905.88
1868.36 383.604 3909.79
1857.3 385.001 3930.15
1859.32 383.93 3925.41
1855.95 385.742 3932.1
1863.34 382.005 3915.71
1864.54 382.249 3913.76
1865.61 382.73 3912.56
1863.09 381.554 3917.29
1862.15 382.081 3919.5
1861.9 381.548 3922.05
1866.77 371.712 4011.56
1869.11 373.806 4016.9
1866.26 371.216 4012.71
1878.31 373.944 4023.42
1876.44 373.702 4020.45
1873.39 374.815 4018.94
1867.36 372.505 4016.1
1869.94 371.008 4007.03
1867.98 370.26 4009.73
1872.48 371.254 4004.07
1873.14 371.853 3997.4
1871.69 372.209 3991.16
1869.65 372.74 3986.21
1867.15 373.249 3980.37
1851.22 419.227 3998.23
1866.65 371.483 3967.09
1867.53 370.773 3974.68
1867.27 371.985 3976.46
1868.15 371.761 3981
1861.93 371.688 3956.52
1862.17 373.721 3950.05
1861.58 371.466 3954.62
1864.77 371.153 3960.26
1862.42 373.693 3946.42
1859.74 373.398 3945.21
1857.19 375.176 3939.71
1856.49 375.489 3939.46
1857.89 374.692 3941.21
1861.96 376.401 3940.18
1858.47 376.124 3940.94
1861.81 379.215 3939.44
1858.27 383.094 3940.15
1860.49 380.833 3937.21
1861.46 379.755 3937.47
1857.53 383.575 3935.83
1872.48 383.499 3906.53
1868.73 383.122 3909.97
1858.45 383.227 3933.29
1860.3 381.947 3929.62
1862.5 379.803 3926.16
1863.89 381.553 3915.62
1864.79 381.707 3914.17
1865.84 382.191 3912.88
1863.32 380.514 3919.81
1863.9 380.852 3916.99
1863.89 378.349 3925.2
1866.62 370.387 4012.2
1868.62 369.941 4010.58
1881.19 369.911 4021.43
1878.51 371.064 4019.38
1873.4 373.827 4018.2
1875.68 372.424 4017.75
1867.59 372.525 4016.88
1867.35 370.458 4012.86
1870.44 369.698 4008.49
1873.27 369.679 4007.63
1874.65 369.761 4004.7
1872.75 371.333 3992.97
1875.06 369.236 3999.94
1870.9 370.776 3986.9
1869.38 369.34 3976.16
1868.04 369.789 3968.08
1869.07 370.664 3980.72
1862.75 372.957 3950.22
1863.28 370.497 3955.44
1865.72 370.347 3961.17
1863.06 373.125 3946.11
1860.75 372.372 3945.22
1858.74 372.879 3944.15
1857.47 374.182 3938.69
1858.87 373.309 3939.39
1858.42 375.628 3939.76
1859.56 372.722 3941.65
1861.91 376.999 3938.84
1861.44 380.298 3932.8
1861.83 379.261 3934.21
1861.83 377.727 3935.09
1862.06 376.77 3938.02
1872.63 382.499 3908.18
1868.86 382.566 3910.42
1863.33 377.857 3930.42
1862.76 378.035 3932.01
1864.75 375.81 3930.83
1864.72 380.967 3915.21
1865.76 381.394 3913.81
1864.24 379.456 3919.95
1864.77 377.722 3923.98
1864.68 379.822 3917.67
1865.94 374.591 3930.1
1870.75 370.854 4012.5
1872.79 369.238 4010.36
1880.81 367.597 4014.35
1877.53 369.241 4012.86
1874.55 370.43 4012.99
1871.22 373.409 4017.82
1872.01 371.961 4014.71
1867.23 370.718 4013.92
1867.03 372.383 4017.09
1875.6 368.485 4009.46
1877.53 368.016 4007.31
1871.92 369.243 3986.82
1874.41 369.236 3993.55
1876.71 367.858 4000.58
1870.92 367.847 3976.55
1870.79 368.602 3982.05
1869.76 368.299 3968.55
1863.3 372.491 3950.71
1863.68 372.662 3945.76
1864.9 370.148 3955.48
1867.69 368.974 3961.1
1861.78 371.876 3944.58
1860.21 372.029 3943.53
1858.24 374.895 3938.38
1858.97 373.691 3938.38
1860.5 372.01 3939.89
1860.32 372.557 3938.91
1861.25 371.46 3941.63
1862.24 376.089 3937.34
1862.54 376.155 3934.36
1859.05 374.534 3937.62
1868.81 381.929 3911.19
1873.48 380.27 3911.55
1864.18 375.546 3933.1
1865.54 373.689 3933.54
1865.88 373.291 3933.03
1865.6 380.131 3915.72
1866.72 380.501 3914.41
1866.28 376.574 3923.12
1866.91 373.655 3929.95
1867.17 376.635 3921.3
1866.24 372.551 3933.46
1879.83 366.617 4007.66
1870.71 373.465 4018.25
1866.49 370.725 4014.81
1874.06 367.84 3989.32
1877.62 366.741 3997.81
1872.68 366.382 3976.64
1873.27 366.431 3983.07
1871.59 367.017 3968.66
1863.93 371.834 3951.53
1864.39 373.199 3947.42
1864.3 372.11 3945.23
1862.63 371.539 3944.07
1866.57 369.251 3955.27
1870.12 367.545 3960.86
1861.69 371.368 3942.63
1860.07 373.326 3938.07
1861.58 371.248 3940.27
1861.57 371.446 3939.45
1861.34 372.108 3938.67
1862.05 371.184 3941.18
1862.78 375.301 3936.98
1859.98 374.049 3937.43
1863 374.345 3936.57
1869.94 381.194 3911.86
1872.38 376.609 3917.91
1870.43 378.77 3915.42
1872.58 375.693 3919.11
1863.34 373.57 3936.59
1863.64 372.748 3936.6
1867.71 376.968 3919.74
1868.89 377.033 3918.81
1869.6 371.846 3930.19
1870.77 372.818 3925.31
1866.61 371.771 3934.37
1870.6 374.45 3922.19
1864.03 372.084 3936.57
1880.71 365.795 4005.85
1866.34 371.034 4015.87
1869.97 373.508 4018.57
1867 372.576 4017.68
1876.32 365.986 3990.54
1879.79 365.141 3998.74
1874.36 365.324 3976.71
1875.04 365.22 3983.47
1873.21 365.988 3969.48
1864.84 371.38 3951.54
1865.04 372.196 3947.57
1863.65 371.379 3943.55
1863.17 371.479 3943.79
1862.28 371.193 3942.59
1868.59 368.154 3955.1
1871.99 366.443 3960.43
1861.05 372.851 3937.86
1862.14 371.096 3940.12
1862.28 371.192 3939.34
1862.3 371.641 3938.51
1862.55 371.088 3941.4
1862.65 371.007 3940.59
1874.23 369.729 3927.19
1876.51 367.405 3928.27
1862.07 372.25 3937.8
1863.03 371.412 3938.31
1863.53 371.271 3938.1
1866.12 370.798 3937.21
1867.85 369.888 3937.25
1872.59 368.802 3933.62
1873.86 368.983 3930.4
1865.03 371.647 3937.13
1864.11 371.256 3938.17
1866.13 371.718 4017.3
1869.01 373.382 4018.72
1879.06 363.945 3991.21
1884.48 361.174 3999.07
1877.06 364.089 3983.59
1876.31 364.277 3977.76
1874.47 365.155 3969.06
1866.38 369.919 3950.87
1864.58 370.711 3943.76
1870.23 367.291 3953.58
1873.42 365.583 3959.52
1862.75 370.922 3939.94
1862.96 371.03 3939.18
1863.41 370.795 3941.18
1863.39 370.792 3940.5
1876.7 366.581 3930.94
1863.58 370.939 3938.88
1864.5 370.583 3939.06
1870.03 368.489 3938.47
1865.96 369.604 3940.19
1876.41 365.882 3934.89
1883.86 360.344 3990.71
1881.39 361.478 3984.42
1882.55 360.544 3980.87
1879.57 362.477 3976.53
1878.86 362.96 3970
1876.63 364.099 3963.16
1867.09 369.113 3945.46
1871.96 366.178 3951.14
1876.88 363.843 3956
1863.35 370.757 3939.84
1863.91 370.575 3939.66
1865.75 369.631 3941.77
1864.89 370.076 3940.6
1880.63 363.656 3930.74
1867.96 368.566 3941.24
1874.95 365.463 3939.53
1880.24 363.182 3936.96
1882.24 361.213 3969.42
1880.48 362.487 3961.8
1871.19 366.65 3946.07
1876.45 363.849 3949.75
1881.21 362.17 3954.77
1882.24 361.2 3948.15
1869.56 367.503 3943.32
1876.43 364.233 3941.49
1880.8 362.299 3941.83
1877.25 363.635 3944.51
