1868.49 376.19 4136.81
1869.5 374.187 4136.59
1869.83 373.731 4136.52
1869.05 374.837 4136.96
1870.14 373.196 4136.98
1869.72 372.526 4140.31
1867.48 377.626 4139.27
1866.71 376.113 4142.81
1868.29 375.51 4138.39
1866.36 375.209 4144.52
1866.94 374.017 4144.15
1867.44 373.581 4143.61
1867.96 373.177 4143.12
1866.4 374.466 4144.99
1868.39 372.732 4143.11
1869.69 371.904 4142.29
1867.43 372.088 4147.13
1866.7 378.17 4142.02
1865.98 376.911 4144.6
1865.44 376.012 4146.66
1864.75 375.196 4149.56
1864.96 374.533 4149.62
1864.17 379.259 4174.45
1863.69 378.007 4167.18
1863.54 377.972 4164.14
1865.21 373.908 4149.68
1865.66 373.373 4149.2
1866.09 372.925 4148.85
1866.5 372.5 4148.61
1870.77 370.684 4144.77
1869.71 371.321 4144.41
1867.87 371.438 4148.42
1866.81 371.563 4150.82
1865.16 377.568 4147.12
1864.54 376.643 4149.36
1864.18 376.055 4151.14
1864.09 375.642 4152.12
1863.82 375.444 4154.44
1864.08 374.939 4153.69
1864.28 374.452 4153.52
1863.93 377.428 4169.92
1863.5 377.053 4163.1
1863.31 378.292 4160.12
1863.5 379.906 4159.19
1863.99 382.021 4157.42
1864.52 373.92 4153.29
1865.11 373.176 4152.63
1865.89 372.274 4151.83
1868.63 370.806 4150.64
1869.79 370.172 4152.07
1867.55 371.081 4152.55
1865.73 372.011 4155.26
1866.43 371.456 4155.17
1865.56 379.575 4146.55
1863.68 377.18 4153.49
1863.78 377.602 4152.54
1863.63 376.621 4154.35
1863.55 376.191 4155.92
1863.46 376.009 4158.08
1863.68 375.298 4157.68
1863.96 374.622 4156.86
1864.21 373.968 4156.39
1864.84 376.28 4182.62
1864.4 376.828 4175.88
1863.83 376.004 4166.53
1863.44 377.009 4160.65
1863.3 377.127 4159.24
1863.33 377.535 4158.22
1863.36 377.004 4157.97
1863.92 381.157 4155.74
1863.46 377.994 4155.99
1864.23 381.192 4153.02
1864.51 373.317 4155.97
1865.06 372.617 4155.67
1869.09 369.986 4156.41
1867.88 370.459 4156.83
1866.8 370.846 4159.22
1864.85 372.585 4161.43
1865.63 371.639 4160.81
1864.73 380.472 4150.05
1863.56 376.254 4160.82
1863.7 375.501 4160.84
1863.85 374.868 4161.42
1864 374.153 4161.79
1865.83 373.728 4184.28
1865.5 374.605 4183.46
1864.82 375.084 4175.95
1864.49 375.843 4173.66
1864.05 375.209 4166.53
1864.33 373.456 4161.65
1869.87 369.094 4163.12
1868.73 369.529 4164.17
1867.82 369.863 4165.2
1865.64 371.825 4167.72
1866.31 371.012 4167.41
1867.1 370.312 4166.7
1864.38 374.335 4167.45
1864.59 373.556 4167.31
1864.96 372.755 4167.61
1866.29 372.822 4184.38
1865.92 372.673 4175.71
1865.3 373.776 4175.15
1870.82 368.159 4171.09
1869.86 368.768 4172.71
1866.66 371.533 4175.6
1867.65 370.461 4175.67
1868.61 369.576 4173.73
1867.2 371.544 4184.19
