1899.65 98.6523 1571.32
1900.74 99.3027 1572.8
1896.35 97.4131 1570.33
1900.78 99.4731 1575.12
1897.57 97.1505 1580.35
1896.97 96.9223 1576.29
1892.14 95.7706 1569.35
1893.95 94.8094 1581.07
1891.86 93.7204 1575.1
1890.67 93.3298 1568.11
1894.36 90.5316 1563.61
1892.78 92.5663 1565.38
1893.78 91.0851 1564.03
1903.68 89.6166 1553.3
1902.6 89.2347 1554.2
1904.13 93.2829 1550.23
1905.03 92.6991 1550.48
1905.63 92.086 1550.23
1902.72 93.8278 1551.27
1906.15 91.2239 1550.74
1897.69 89.0597 1558.27
1900.18 89.1354 1555.6
1899.31 89.045 1556.58
1898.1 89.1287 1557.58
1897.39 89.0464 1558.73
1896.9 89.9266 1559.41
1897.55 89.7367 1558.63
1896.27 90.0106 1560.16
1899.67 90.691 1556.35
1900.12 91.1622 1555.52
1900.6 91.6582 1554.71
1902.22 93.2991 1552.17
1895.34 89.9221 1562.18
1895.85 89.9666 1560.85
1895.32 89.6871 1562.75
1896.19 88.7532 1562.48
1896.74 88.8058 1563.26
1896.35 88.7888 1564.95
1896.65 89.9736 1565.53
1895.97 91.9329 1565.9
1895.05 93.5848 1565.97
1894.1 93.9851 1566.16
1899.46 99.2418 1572.85
1900.14 99.5404 1573.38
1896.63 97.7628 1571.31
1900.47 99.3687 1574.3
1893.46 96.2853 1569.41
1899.69 98.6181 1580.3
1895.13 95.3092 1587.63
1893.99 94.7213 1583.96
1892.27 96.0163 1569.88
1891.63 93.5435 1576.06
1890.21 93.7035 1566.76
1891.17 95.1982 1568.61
1894.78 89.7968 1563.67
1895.12 89.6774 1563.26
1893.46 92.4844 1565.5
1893.06 91.5344 1564.92
1893.38 90.9244 1564.74
1892.86 91.8667 1565.28
1893.87 90.3976 1564.39
1905.07 90.8932 1551.41
1904.17 90.4344 1552.12
1902.14 89.5127 1553.7
1903.41 94.1938 1550.57
1903.09 93.9455 1550.03
1904.41 91.9828 1550.68
1905.27 91.586 1550.73
1902.33 93.5543 1550.92
1898.3 89.2975 1556.97
1899.33 90.4609 1556.02
1899.77 90.9243 1555.18
1900.3 91.4701 1554.31
1901.14 92.2005 1553.92
1901.7 92.7675 1553.07
1898.88 89.9848 1556.87
1895.96 88.7713 1562.94
1896.35 88.8027 1563.74
1896.08 88.4878 1564.18
1896.27 88.7794 1565.48
1895.6 91.5075 1565.87
1894.51 93.1512 1565.75
1893.43 93.232 1565.72
1897.05 98.2208 1572.68
1899.95 99.3722 1574
1899.74 98.8624 1575.29
1894.35 96.9562 1570.47
1898.83 98.3629 1581.61
1893.12 96.3971 1570.16
1898.9 97.815 1585.7
1895.08 95.1191 1591.65
1892.73 93.9753 1582.73
1890.87 93.1259 1574.5
1890.16 93.0717 1567.62
1889.54 93.4783 1567.03
1891 95.3982 1569.6
1894.38 89.8435 1564.01
1895.16 88.9822 1563.7
1895.58 88.8565 1563.35
1892.96 90.7695 1565.17
1904.49 91.1138 1551.43
1903.59 90.6148 1552.17
1903.12 89.9376 1552.9
1902.2 93.5211 1550.36
1903.4 93.0172 1550.1
1903.72 92.2557 1550.68
1903.77 91.3061 1551.52
1901.44 92.7524 1551.6
1901.33 92.5679 1552.24
1901.74 93.0756 1550.98
1898.6 89.7173 1555.85
1898.42 89.4991 1556.4
1899.81 89.4965 1555.54
1900.94 89.5972 1554.54
1898.94 90.1754 1555.83
1899.05 90.3549 1555.29
1899.72 91.0281 1554.22
1900.16 91.4384 1553.73
1900.65 91.9219 1553.03
1895.79 88.4887 1565.18
1895.62 88.6069 1564.52
1896.17 88.4437 1565.88
1895.56 88.5362 1566.18
1895.34 89.1263 1566.34
1895.65 89.4365 1566
1895.03 90.7805 1566.05
1896.88 98.1609 1573.25
1893.94 96.8805 1570.78
1899.49 98.6289 1574.91
1897.16 97.5774 1580.94
1897.83 97.7236 1585.6
1898.5 97.4191 1589.86
1896.52 95.9472 1594.59
1893.32 94.1603 1587.69
1891.85 93.5179 1580.36
1892.77 96.4354 1570.55
1893.35 96.8154 1571.18
1892.16 96.2589 1570.53
1890.4 92.8266 1574.74
1889.07 92.4113 1567.65
1894.74 89.1041 1564.05
1894.2 92.1387 1565.58
1893.36 90.1331 1564.85
1893.66 91.7551 1565.42
1893.98 89.3187 1564.66
1902.98 90.7633 1552.26
1902.07 90.3096 1553.04
1901.25 90.0646 1553.85
1902.61 93.7837 1549.63
1901.71 93.2498 1550.12
1902.63 93.1439 1550.24
1903.05 92.5048 1550.69
1902.98 91.7748 1551.38
1902.41 91.1178 1552.17
1902.05 90.7947 1552.63
1900.58 91.9766 1552.51
1900.76 92.3635 1551.33
1898.72 89.9241 1555.3
1900.15 90.0463 1554.75
1899.27 90.7887 1554.01
1899.64 91.1826 1553.32
1895.1 88.7592 1564.93
1895.27 88.6415 1565.6
1894.95 88.798 1566.42
1894.24 89.0798 1566.3
1894.44 89.063 1566.8
1894.46 90.5046 1566.34
1896.95 97.9929 1574.01
1894.05 97.1187 1571.93
1896.45 97.5502 1575.29
1894.09 95.7454 1582.18
1893.21 95.5968 1587.11
1897.17 97.1953 1589.89
1896.39 95.7376 1597.78
1893.5 94.1719 1590.44
1897.68 96.8225 1595.17
1891.84 93.4454 1582.22
1892.58 96.2895 1571.86
1893.46 96.9273 1572.52
1890.27 92.6872 1576.24
1888.66 92.6265 1566.92
1889.16 93.1061 1566.97
1894.36 90.9554 1565.84
1893.26 89.568 1565.25
1893.53 90.7688 1565.31
1894.59 88.9069 1565.36
1901.46 90.4902 1553.29
1900.57 90.3053 1554.18
1900.7 92.4751 1550.69
1901.17 92.9339 1550.01
1902.49 92.4388 1550.96
1902.41 91.5874 1551.76
1901.15 91.1625 1552.53
1900.9 90.908 1553.12
1900.53 90.6302 1553.76
1899.6 91.3021 1552.71
1899.68 91.5131 1552.02
1899.89 91.8009 1551.36
1899.06 90.5139 1554.62
1898.87 90.4957 1553.61
1894.03 89.1244 1565.74
1893.91 89.6642 1566.31
1894.56 96.8214 1576.14
1889.51 92.9851 1580.93
1896.03 96.4825 1594.31
1890.97 94.3663 1593.73
1890.54 93.9478 1588.1
1896.16 95.4801 1600.86
1893.47 94.0867 1592.25
1891.97 93.4407 1584.55
1896.78 96.1125 1600.07
1892.91 96.4621 1573.53
1890.35 94.0672 1570.1
1890.96 94.3396 1574.19
1891.01 94.9514 1569.92
1888.37 91.9233 1567.95
1891.39 93.1223 1583.35
1889.64 92.3337 1575.31
1888.76 92.5166 1569.3
1901.87 93.2553 1549.49
1899.83 91.9054 1550.75
1901.99 92.0985 1551.24
1902.05 92.5119 1550.5
1901.33 91.4378 1551.95
1899.17 91.0016 1552.06
1899.08 90.8192 1552.59
1898.99 90.6482 1553.11
1899.25 91.1677 1551.55
1893.29 96.136 1577.38
1885.36 90.1853 1585.72
1882.95 88.7624 1584.48
1885.73 90.5834 1577.05
1887.27 91.0998 1572.53
1890.35 93.4178 1577.94
1890.99 94.1669 1597.05
1894.94 95.7071 1598.83
1885.44 90.627 1596.25
1886 90.6846 1592.78
1887.1 91.4481 1588.89
1895.29 94.7007 1608.23
1893.86 94.3068 1603.16
1893.53 94.121 1596.51
1896.3 95.4812 1604.67
1891.64 93.2999 1589.94
1895.85 95.535 1603.44
1895.56 95.0007 1606.39
1892.57 95.5898 1576.9
1887.73 91.3277 1570.62
1890.2 92.5855 1581.78
1888.28 91.7531 1575.28
1887.57 91.2059 1567.81
1887.87 91.4856 1568.3
1902 92.6483 1550
1900.52 92.4934 1550.1
1899.2 91.2967 1551.04
1899.81 92.0293 1550.14
1901.19 91.6222 1551.28
1901.81 92.0728 1550.65
1882.87 88.1102 1590.09
1881.15 88.0814 1583.83
1881.15 87.4721 1591.31
1884.3 89.9981 1575.12
1886.22 90.5243 1570.72
1886.88 90.6005 1569.37
1887.65 92.3552 1601.6
1884.18 90.2956 1598.77
1893.55 94.8849 1601.52
1895.31 94.4549 1612.89
1891.35 92.8782 1611.04
1888.22 91.7068 1606.81
1895.15 94.1114 1611.69
1894.96 93.7044 1616.04
1890.07 92.8568 1599.2
1887.9 92.0852 1593.31
1887.95 91.9354 1585.28
1894.05 94.2679 1607.13
1894.45 94.0022 1609.82
1892.67 94.0081 1605.03
1894.21 93.2084 1614.96
1885.43 90.9114 1578.73
1886.51 90.6371 1568.22
1886.16 90.208 1568.98
1901.45 92.8821 1549.17
1899.58 91.4848 1550.61
1880.69 88.3718 1580.97
1878.67 86.994 1588.84
1878.89 86.8725 1595.5
1883.29 89.6148 1573.58
1885.21 90.0349 1569.97
1888.58 91.7211 1608.48
1884.07 90.2407 1607
1880.73 88.5793 1601.1
1893.92 93.7192 1617.01
1895.23 94.0602 1616.88
1893.98 92.4924 1623.7
1889.13 91.7064 1616.1
1887.31 91.1448 1612.9
1885.27 90.5754 1604.56
1886.21 90.9963 1613.27
1893.84 92.498 1620.22
1893.54 92.0881 1623.29
1884.01 90.2247 1599.81
1884.64 90.8669 1587.81
1882.27 89.6813 1595.62
1891.71 92.3185 1613.3
1892.41 91.9204 1618.32
1892.56 91.5422 1621.4
1882.09 89.8049 1578.26
1883.7 90.1152 1571.2
1885.42 90.2552 1567.39
1885.69 89.977 1568.52
1899.91 92.2327 1549.53
1878.69 87.6392 1581.46
1876.51 86.6151 1590.79
1876.31 86.3256 1596.87
1882.22 89.258 1573.13
1884.62 89.7725 1569.56
1886.42 89.8699 1615.72
1880.87 88.4684 1612
1877.17 86.7258 1603.38
1894.03 93.5103 1621.95
1890.41 92.0681 1621.47
1895.04 93.8616 1619.73
1894.03 92.5454 1625.27
1892.82 91.1649 1627.16
1893.18 91.4738 1627.89
1889.41 92.0099 1621.87
1886.86 91.3117 1620.59
1884.08 90.3712 1610.28
1882.57 90.0314 1620.62
1892.01 90.8653 1624.77
1882.26 89.7789 1605.09
1880.25 89.195 1585.32
1880.25 89.034 1591.95
1880.14 89.1116 1600.93
1890.07 90.5065 1619.64
1890.87 90.2524 1623.52
1878.4 88.5502 1580.47
1878.63 88.4896 1572.38
1881.33 89.3012 1570.11
1884.57 90.0126 1567.59
1885.2 89.8606 1568.6
1875.32 86.5812 1587.57
1878.2 87.7166 1579.36
1872.82 85.7618 1595.57
1871.43 85.1856 1602.6
1881.85 89.1303 1571.88
1877.12 87.5598 1577.81
1884.11 89.6462 1569.55
1882.88 88.0095 1619.46
1887.5 89.0069 1622.35
1878.15 86.8919 1617.11
1873.67 85.5392 1608.35
1874.53 85.8499 1613.14
1894.37 93.473 1625.48
1891.85 92.473 1626.31
1894.63 93.3685 1624.1
1891.9 92.716 1628.3
1891.2 92.6323 1627.68
1893.96 92.515 1627.24
1892.05 90.5478 1627.75
1893.32 91.7258 1628.67
1892.23 90.6298 1629
1892.87 91.2348 1628.94
1888.85 92.0141 1630.8
1886.83 91.3827 1628.21
1883.53 90.3932 1628.29
1880.21 89.2725 1615.35
1879.37 89.1659 1630.15
1877.78 88.6312 1624.3
1891.15 90.0714 1626.99
1878.04 88.5728 1610.11
1877.66 88.2697 1591.12
1875.98 87.7322 1587.61
1877.4 88.2572 1597.51
1877.05 88.2115 1603.67
1889.64 89.5737 1623.97
1889.89 89.4877 1626.65
1876.43 87.8482 1576.09
1875.48 87.5233 1582.02
1875.71 87.4032 1574.38
1880.16 88.885 1569.7
1883.94 89.8365 1567.53
1875.05 86.774 1582.58
1871.01 85.8789 1585.93
1869.47 85.2538 1593.13
1867.12 84.4682 1600.84
1866.77 84.0655 1608.11
1881.02 88.8923 1571.93
1883.9 89.561 1568.91
1872.66 86.6427 1578.71
1882.81 87.6004 1623.16
1886.95 88.4863 1625.65
1888.42 88.8329 1627.19
1874.57 86.2906 1619.61
1880.38 87.2104 1622.74
1871.04 84.7725 1619.55
1869.1 84.2207 1615.24
1893.29 92.904 1629.98
1894.49 93.3411 1627.68
1893.32 93.0804 1632.44
1894.16 92.8008 1627.8
1893.26 91.7055 1629.18
1891.85 92.8804 1635.29
1891.17 89.9714 1629.1
1891.83 90.3613 1629.54
1892.77 91.1944 1629.54
1888.56 91.9927 1639.79
1884.59 90.7925 1636.47
1880.74 89.6369 1636.31
1875.74 87.9641 1618.52
1876.65 88.4581 1641.16
1875.21 87.9609 1634.23
1873.25 87.3095 1627.82
1889.57 89.1749 1628.7
1872.95 87.0801 1613.68
1874.78 87.5796 1608.67
1874.3 87.3137 1596.09
1871.49 86.4888 1593.99
1872.22 86.6318 1586.39
1873.69 87.2012 1603.32
1876.21 87.5463 1573.89
1877.7 88.1158 1570.95
1882.92 89.5192 1567.86
1866.46 85.0381 1590.89
1868.28 85.761 1585.06
1863.29 84.2277 1598.28
1861.53 83.3527 1607.61
1863.09 83.0576 1615.39
1878.03 88.0474 1572.89
1882.66 89.337 1569.27
1883.44 89.6026 1567.43
1885.52 88.2057 1628.19
1886.76 88.3388 1628.13
1887.52 88.3943 1629.15
1888.37 88.6733 1629.73
1875.72 87.936 1624.17
1870.54 86.1489 1627.76
1869.97 84.7176 1625.48
1882.38 87.9819 1627.4
1865.66 83.2268 1623.72
1893.94 92.9639 1632.14
1893.46 92.7686 1633.17
1894.16 92.9648 1630.87
1893.18 93.2049 1633.45
1894 92.6258 1629.98
1893.05 91.545 1629.89
1892.46 92.9154 1635.58
1892.57 92.3903 1634.06
1891.13 90.0853 1630.43
1891.5 90.425 1631.19
1891.92 90.5418 1630.3
1886.01 91.2591 1644.01
1891.87 92.6719 1636.46
1879.97 89.4861 1644.39
1872 86.8634 1620.56
1875.43 88.1886 1650.68
1872.37 87.2021 1643.76
1870.93 86.7043 1636.97
1868.5 85.9593 1632.72
1869.47 86.1746 1625.97
1889.81 89.4195 1630.33
1868.51 85.8693 1619.08
1869.84 86.1601 1609.61
1869.97 86.1442 1602.12
1866.24 85.2585 1599.46
1868.39 85.7439 1591.71
1876.11 87.53 1572.03
1878.58 88.3258 1569.62
1864.42 84.9799 1592.17
1858.55 83.4051 1604.9
1861.13 84.3137 1598.25
1855.33 82.4934 1613.22
1857.63 82.316 1617.11
1859.42 82.0109 1623.97
1879.48 88.4151 1571.66
1881.55 89.2923 1567.14
1884.19 89.7712 1566.96
1882.66 89.6061 1566.42
1886.2 89.0437 1632.9
1887.21 89.1936 1632.97
1887.78 89.1897 1632.53
1888.36 89.4043 1632.97
1888.99 89.6669 1633.16
1889.49 89.8631 1633.05
1889.97 90.1597 1633.31
1875.44 89.1876 1629.34
1868.71 86.7313 1634.32
1867.15 83.8608 1631.16
1866.26 84.6647 1635.35
1884.92 89.0349 1632.96
1878.55 89.4138 1630.8
1862 82.1877 1631.62
1893.22 92.3132 1632.67
1893.45 92.3505 1632.2
1892.73 92.1799 1633.15
1893.33 92.0184 1630.97
1892.42 90.9976 1630.26
1892.37 91.0819 1630.79
1890.96 90.8406 1633.37
1883.24 90.4777 1648.75
1887.97 91.6811 1642.89
1891.47 92.162 1635.95
1880.02 89.5664 1653.36
1877.39 88.8125 1657.77
1874.53 88.0014 1662.31
1870.6 86.8242 1659.25
1871.63 87.0576 1651.59
1867.27 85.7839 1653.2
1867.27 85.7283 1645.41
1867.52 85.7323 1638.83
1864.21 84.8997 1639.85
1865.44 85.1519 1629.78
1863.19 84.5597 1625.31
1865.71 85.1423 1616.12
1864.88 84.9231 1608.27
1861.28 84.2753 1606.02
1876.91 87.766 1570.59
1878.76 88.2064 1570.91
1857.5 83.6108 1604.14
1854.36 82.7451 1610.56
1851.74 81.4768 1622.59
1850.91 81.8319 1618.75
1854 81.3156 1626.43
1855.35 80.9203 1632.97
1878.54 88.3191 1568.67
1887.62 89.6266 1635.7
1886.74 89.578 1635.42
1888.09 89.8257 1635.69
1889.73 91.004 1636.78
1890.22 91.4386 1636.71
1875.46 90.6795 1635.01
1865.46 86.5096 1641.26
1872.74 90.1299 1638.5
1863.56 84.7276 1641.87
1864.09 82.9393 1637.51
1862.26 83.4197 1643.58
1883.75 89.5082 1634.04
1877.23 90.8373 1635.83
1858.12 81.1011 1639.59
1892.32 91.4169 1632.1
1892.72 91.5198 1631.32
1892.03 91.33 1632.51
1891.5 91.1274 1633.04
1883.74 90.5091 1649.61
1886.56 91.0939 1644.99
1881.17 89.6973 1653.64
1871.33 87.0843 1667.37
1876.89 88.3864 1660.34
1866.09 85.5297 1662.15
1862.9 84.6614 1656.29
1862.14 84.4294 1649.14
1859.1 83.644 1645.88
1861.23 84.1253 1636.05
1861.63 84.1893 1616.89
1857.88 83.3113 1633.01
1859.11 83.6192 1624.96
1858.36 83.6295 1614.84
1856.85 83.4364 1610.96
1853.41 82.8006 1611.03
1850.76 82.0888 1616.3
1847.8 80.8858 1627.27
1845.94 80.1314 1634.41
1849.74 82.0504 1617.77
1846.76 81.1318 1624.81
1849.92 80.3996 1634.32
1850.83 79.8913 1641.42
1888.05 89.6719 1637.15
1888.63 90.0149 1637.52
1886.81 89.3754 1636.3
1885.89 89.4112 1635.72
1889.32 90.6182 1636.82
1887.24 90.0817 1642.89
1886.17 90.4267 1645.15
1862.25 86.3171 1648.23
1868.86 89.3724 1644.69
1860.62 84.7005 1648.87
1873.79 90.8783 1639.87
1859.43 83.4664 1650.41
1860.55 81.8316 1644.8
1858.42 82.2272 1651.5
1882.39 89.9394 1634.93
1877.4 90.8737 1637.09
1854.51 80.072 1647.58
1881.47 89.278 1652.74
1868.16 86.1377 1671.79
1872.94 86.9855 1666.28
1877.5 87.8676 1658.77
1862.95 84.7753 1670.32
1860.88 84.1983 1664.76
1858.63 83.5936 1658.05
1855.92 82.8877 1654.09
1853.44 82.2862 1649.3
1856.16 82.9053 1641.21
1855.26 82.962 1623.74
1851.79 82.0827 1641.7
1853.79 82.5742 1632.31
1853.48 82.7367 1618.59
1843.74 80.149 1633.7
1841.28 79.2615 1641.76
1844.95 79.3341 1643.31
1846.53 81.4038 1624.02
1850.31 82.0496 1627.49
1842.3 80.2685 1632.37
1847.67 78.9849 1650.01
1887.67 89.3694 1637.82
1887.24 89.1533 1642.04
1884.76 88.9487 1646.46
1886.16 89.2551 1636.55
1887.03 89.0141 1638.21
1884.93 89.3894 1636.34
1882.47 88.9539 1650.63
1860.18 86.8071 1654.96
1865.5 88.6262 1649.79
1858.1 84.9399 1655.15
1869.69 89.7761 1645.07
1856.69 83.609 1657.12
1875.4 90.9112 1638.94
1855.44 82.3231 1658.73
1856.77 80.6606 1652.63
1854.7 81.084 1659.18
1880.72 90.2113 1636.23
1850.94 79.0317 1655.92
1864.66 85.2699 1678.18
1867.65 85.4604 1674.61
1871.26 85.994 1668.58
1879.89 87.7809 1654.35
1875.33 86.7876 1661.81
1860.21 84.3909 1680.18
1858.7 83.7008 1673.67
1856.39 83.0835 1667.77
1853.77 82.3957 1663.09
1850.62 81.6473 1658.45
1848.74 81.3908 1652.29
1849.17 81.7125 1636.48
1847 81.1845 1646.31
1839.41 79.3165 1641
1838.7 78.4023 1649.75
1836.48 78.3938 1649.33
1842.25 78.4131 1652.44
1843.11 80.7327 1629.39
1845.5 81.1156 1634.17
1837.98 79.4272 1639.74
1839.94 80.0929 1635.32
1844.66 78.0534 1658.97
1886.41 88.3812 1642.84
1882.16 87.7167 1650.16
1885.76 89.1177 1637.26
1885.53 87.5529 1643.68
1881.15 89.9643 1637.13
1885.06 89.0518 1637.79
1855.98 85.3134 1661.21
1857.76 86.4265 1659.88
1863.63 88.1076 1652.62
1854.83 84.0202 1662.39
1870.61 89.9775 1644.32
1854.7 82.6321 1665.39
1875.17 90.7394 1639.83
1853.77 81.3792 1666.78
1854.36 81.997 1666.34
1852.95 79.4851 1660.41
1853.2 80.7445 1667.37
1846.88 77.8822 1664.7
1861.69 86.0373 1680.88
1857.98 86.3797 1682.66
1863.99 84.9778 1679.43
1868.18 85.1286 1673
1865.5 85.0677 1677.28
1871.86 85.5024 1667.01
1876.94 86.5464 1658.68
1856.15 83.4855 1682.3
1853.44 85.6861 1684.53
1853.85 82.4939 1676.92
1851.36 81.8376 1671.87
1848.41 81.1324 1667.17
1844.95 80.5721 1662.88
1844.23 80.5644 1655.44
1844.33 80.7746 1643.12
1841.11 80.0757 1652.34
1834.79 78.4895 1648.22
1836.2 77.5482 1658.05
1833.17 77.4389 1657.91
1832.06 77.6598 1655.69
1839.57 77.5163 1661.3
1840.73 80.1534 1642.89
1833.7 78.6011 1646.94
1836.64 79.4318 1641.23
1840.4 77.007 1668.34
1882.4 87.0926 1649.18
1878.53 86.3249 1655.6
1886.49 88.6879 1638.71
1884.18 86.5982 1645.37
1880.88 86.1109 1651.12
1881.18 89.7033 1638.18
1884.77 88.8654 1638.55
1885.43 88.0925 1639.83
1856.4 83.4383 1665.21
1856.9 83.3705 1665.3
1857.42 86.0692 1661.08
1861.89 87.4504 1655.63
1866.35 88.7738 1649.78
1856 82.9552 1665.85
1870.44 89.8319 1645.15
1858.16 82.2286 1668.66
1857.69 81.9397 1669.15
1874.9 90.5272 1640.89
1856.91 81.4875 1669.43
1849.25 78.3152 1667.92
1853.1 80.3778 1668.25
1856.11 81.4413 1669.54
1843.31 77.0898 1672.21
1856.04 88.4605 1683.07
1861.87 84.8185 1679.72
1857.95 87.2104 1681.54
1850.83 88.1829 1685.17
1862.93 84.3475 1675.9
1861.7 84.046 1675.92
1865.24 84.6618 1673.65
1864.44 84.6293 1675.14
1869.52 85.0828 1670.18
1873.31 85.3136 1664.11
1852.09 82.764 1684.74
1848.85 85.0168 1686.4
1847.86 87.4507 1686.37
1848.66 81.8465 1686.14
1848.73 81.2201 1680.69
1846.05 80.5775 1676.52
1843.03 80.09 1672.57
1839.49 79.5076 1670.72
1840.16 79.7537 1662.41
1836.57 79.1658 1660.43
1837.03 79.3885 1651.22
1829.9 77.6903 1655.1
1831.4 76.6777 1665
1834.48 76.6555 1667.63
1828.65 76.6889 1664.41
1827.66 76.0938 1669.89
1828.08 76.9981 1661.43
1833.27 78.7757 1646.51
1830.31 78.0185 1651.88
1834.17 76.0718 1674.62
1838.19 76.3286 1676.26
1875.48 85.2869 1660.13
1884.32 86.4302 1644.17
1881.91 85.4159 1648.53
1878.46 85.1223 1653.96
1877.04 85.1988 1657.08
1881.55 89.1925 1639.61
1884.84 87.9766 1640.35
1882.26 85.3591 1647.01
1881.81 85.6317 1646.79
1858.28 82.1014 1667.76
1858.87 82.1452 1666.82
1858.44 86.1635 1660.79
1857.91 83.4793 1664.71
1862.74 87.5221 1655.58
1866.59 88.6562 1650.47
1859.73 82.5481 1666.02
1870.1 89.5251 1646.69
1859.75 82.5364 1667.88
1860.94 83.4488 1668.7
1860.21 83.2518 1670.28
1874.58 90.3742 1641.8
1858.94 82.7296 1671.15
1847.86 77.9446 1670.22
1853.64 80.3388 1669.27
1841.82 77.3163 1675
1855.32 81.5767 1669.63
1857.43 82.306 1671.44
1838.66 77.0709 1679.19
1853.72 89.5989 1683.05
1850.4 90.6494 1684.89
1859.13 84.4399 1678.34
1859.16 83.2837 1673.96
1855.9 85.7829 1679.05
1848.25 90.1892 1685.71
1865.08 84.626 1672.4
1870.4 85.026 1667.97
1872.04 85.0143 1664.81
1845.91 84.286 1687.61
1845.53 86.4353 1687.12
1845.93 88.361 1686.43
1843.32 80.3901 1688.62
1843.04 81.2008 1688.2
1843.47 79.9501 1686.91
1840.99 79.5882 1682.12
1837.72 79.0561 1680.15
1834.18 78.4714 1678.43
1835.32 78.8035 1669.77
1831.48 78.1586 1668.73
1832.58 78.4838 1660.06
1832.94 78.6561 1652.97
1825.11 76.7031 1663.8
1826.54 77.2353 1658.78
1828.51 75.7044 1674.39
1824.31 76.1061 1669.36
1824.19 75.6594 1673.55
1823.97 75.1535 1678.29
1829.34 77.9993 1653.12
1828.13 75.0403 1682.3
1831.77 75.395 1682.15
1832.42 75.6867 1682.88
1835.72 76.7752 1682.61
1872.72 84.9275 1662.58
1877.19 84.5779 1653.97
1872.99 84.6967 1660.86
1872.35 84.1943 1660.41
1881.06 89.0175 1640.68
1884.16 88.0958 1640.58
1876.83 84.051 1653.13
1881.6 86.0939 1646.26
1860.82 82.4954 1666.59
1861.66 82.6399 1665.9
1859.75 86.4366 1660.06
1858.42 83.7513 1664.07
1858.94 84.0019 1663.56
1860.07 82.94 1665.31
1865.07 87.9999 1653.58
1869.75 89.2456 1648.08
1863.29 83.8816 1666.3
1863.22 84.2136 1667.26
1865.61 84.68 1671.11
1874.28 90.2126 1642.64
1852.64 79.6801 1669.93
1844.88 77.778 1672.34
1854.56 81.2929 1669.72
1841.83 78.2258 1677.38
1840.03 78.1088 1681
1855.85 82.0795 1670.88
1838.72 78.0609 1683.81
1850.93 90.5812 1682.96
1851.95 88.0742 1680.33
1848.55 91.9855 1684.54
1849.64 90.8748 1682.45
1855.91 82.8032 1673.06
1856.92 82.721 1672.76
1854.66 82.8287 1672.79
1853.3 85.0598 1677.09
1846.73 90.9776 1685.53
1866.06 84.4374 1669.7
1842.59 80.8885 1687.59
1842.46 80.4836 1686.54
1843.47 81.6402 1685.02
1839.65 78.567 1688.69
1839.8 78.2866 1693.48
1839.1 78.4206 1686.84
1840.11 79.1263 1691.05
1836.24 78.6243 1689.92
1832.81 78.1027 1686.94
1828.7 77.3858 1687.5
1830.32 77.8107 1678.11
1826.79 77.2257 1676.7
1827.59 77.5126 1667.14
1829.27 77.92 1659.59
1820.81 75.6844 1672.89
1821.77 76.1976 1668
1825.69 77.2576 1659.94
1823.38 74.582 1683.99
1820.38 75.1441 1677.93
1820.25 74.6665 1682.41
1819.49 74.0953 1687.7
1823.99 74.6611 1691.69
1826.89 75.3738 1690.77
1829.83 76.1141 1689.54
1831.63 76.4291 1687.65
1837.16 77.7421 1685.54
1835.63 77.3448 1686.09
1866.04 84.073 1668.18
1871.83 83.6397 1659.77
1865.99 83.7292 1667.12
1865.9 83.3391 1666.42
1882.88 87.9053 1642.01
1880.63 88.4804 1642.52
1871.75 83.1256 1658.53
1880.52 85.1488 1648.45
1875.67 83.7823 1653.51
1871 82.6754 1658.41
1861.09 86.6771 1659.27
1859.42 84.2995 1662.95
1861.32 82.9222 1664.74
1861.43 83.1441 1664.26
1866.15 88.091 1653.35
1865.7 82.9377 1665.79
1865.68 82.5668 1664.94
1871.34 89.5178 1646.74
1876.88 89.2635 1643.61
1846.28 78.1312 1671.84
1843.51 78.7105 1675.77
1843.14 79.528 1680.18
1841.91 79.1651 1682.65
1840.47 78.81 1685.26
1849.95 87.9523 1679.08
1850.52 85.5612 1676.68
1847.76 89.0566 1681.34
1847.49 90.843 1682.91
1848.26 87.2073 1679.33
1854.59 81.7784 1670.19
1853.54 82.7786 1672.41
1852.89 82.5482 1672.14
1846.73 89.5709 1683.24
1845.03 85.6427 1684.47
1845.31 83.1697 1681.03
1836.77 77.5768 1689.18
1836.8 77.2347 1694.07
1836.87 76.9384 1699.13
1838.98 78.2807 1695.78
1832.93 77.7869 1695.09
1827.98 77.048 1695.89
1823.96 76.3034 1697.73
1825.29 76.8116 1686.61
1821.94 76.2737 1684.08
1823.4 76.6706 1674.79
1822.75 76.6499 1665.94
1817.31 75.1671 1677.24
1816.74 74.6574 1682.07
1817.94 75.5333 1673.63
1819.78 73.8647 1693.75
1816.51 74.1673 1686.65
1815.9 73.5941 1691.97
1817.18 73.4906 1697.55
1830.72 76.24 1694.31
1826.29 75.321 1696.66
1834.35 77.0222 1690.38
1880.8 85.8916 1647.19
1865.41 82.2384 1664.38
1877.09 84.0006 1652.26
1865.21 81.9792 1663.87
1861.78 86.6741 1659.34
1860.23 84.4659 1662.55
1862.13 83.1345 1663.85
1863.92 87.2167 1657.44
1868.36 88.5332 1651.46
1872.4 89.6224 1645.87
1877.05 88.8555 1644.72
1880.36 85.9566 1647.47
1847.51 78.6647 1671.97
1844.68 78.9905 1674.79
1845.49 80.8722 1677.4
1844.62 80.345 1678.25
1847.55 82.3061 1676.1
1850.42 83.2202 1674.41
1848.04 81.2862 1674.79
1850.88 79.6993 1671.26
1852.86 79.9832 1670.46
1852.15 82.2381 1672.34
1853.34 81.2904 1670.98
1833.32 76.4423 1696.93
1837.18 77.1748 1700.67
1835.55 76.5578 1701.89
1829.9 75.3921 1703.75
1832.88 75.8691 1704.97
1832.25 76.955 1700.23
1829.61 76.1721 1703.33
1820.7 75.9205 1692.92
1819.76 75.4571 1701.29
1825.46 75.514 1704.89
1816.99 75.2962 1691.95
1818.41 75.6879 1682.61
1820.5 76.1749 1674.55
1819.47 76.0329 1670.25
1813.18 74.1589 1686.3
1813.67 74.5634 1682.31
1812.4 73.5728 1691.74
1816.15 75.3407 1676.91
1821.77 73.9643 1701.84
1812.62 73.2345 1694.95
1812.53 72.8153 1701.42
1815.46 73.1278 1700.72
1828.95 75.4728 1700.38
1876.88 84.3969 1651.98
1871.29 82.8052 1657.78
1865.89 81.8276 1662.89
1863.21 83.1419 1663.22
1861.18 84.5124 1662.28
1862.32 84.5106 1661.99
1862.97 85.1249 1661.16
1866.99 87.9371 1654.26
1870.97 89.0908 1648.45
1876.64 88.753 1645.35
1879.76 85.839 1648.16
1849.71 80.6952 1673.01
1851.37 79.9343 1671.22
1836.15 76.7136 1703.5
1823.86 73.8917 1708.04
1830.55 75.0743 1709.01
1835.03 76.3756 1705.14
1830.54 75.7293 1706.5
1815.39 74.8056 1701.57
1821.5 74.8171 1706.78
1825.71 75.0245 1707.96
1813.77 74.787 1689.1
1811.98 74.345 1697.56
1812.97 74.7068 1682.29
1809.53 73.5478 1691.51
1808.96 73.091 1695.85
1809.46 73.775 1689.01
1807.95 72.3798 1703.02
1810.25 72.5701 1702.65
1819.45 72.8483 1709
1814.99 71.9177 1708.51
1875.54 84.1681 1653.19
1870.37 82.8291 1658.38
1865.65 82.251 1662.49
1863.81 85.1916 1660.77
1867.63 87.9112 1654.17
1871.6 88.9868 1648.39
1876.3 88.6805 1645.91
1879.08 86.6209 1647.59
1877.88 85.0441 1650.66
1831.6 75.1218 1709.83
1833.94 75.8163 1707.11
1829.75 75.2233 1709.12
1811.06 73.8697 1705.9
1816.94 74.2455 1707.59
1819.93 74.194 1709.63
1824.46 74.5346 1710.21
1808.67 73.7962 1696.14
1809.59 74.0394 1688.15
1806.8 73.3162 1704.78
1805.63 72.8593 1697.37
1805.42 72.5391 1700.59
1805.77 73.1091 1694.82
1805.88 71.4129 1707.66
1811.09 71.3446 1708.52
1817.55 71.9293 1713.05
1825.65 73.9546 1711.25
1810.76 70.1705 1713.92
1872.56 83.4995 1656.03
1866.52 82.3592 1661.63
1864.5 85.0596 1660.58
1867.74 87.6868 1654.94
1871.76 88.7794 1649.01
1876.67 88.1968 1646.96
1878.2 85.6084 1649.76
1833.08 75.3631 1709.88
1831.65 74.9854 1711.08
1826.42 74.4837 1711.87
1813.78 73.5265 1710.08
1808.59 72.9271 1710.7
1820.32 73.8584 1711.97
1815.7 73.4518 1711.67
1803.25 72.7476 1700.02
1806.07 73.3506 1693.75
1802.95 72.4191 1709.81
1801.49 71.8608 1706.33
1802 72.228 1702.74
1802.97 71.404 1708
1801.62 68.8084 1715.57
1805.35 68.8905 1715.37
1816.72 71.2982 1714.93
1823.9 73.0463 1713.1
1809.84 69.7526 1717.16
1867.78 82.6243 1660.38
1865.05 84.9296 1660.39
1868.12 87.5219 1655.74
1871.07 88.3707 1651.13
1874.22 89.1369 1646.75
1876.44 87.9424 1648.04
1878.15 86.9201 1648.09
1877.57 85.5121 1650.29
1873.44 83.9162 1654.98
1868.87 82.9097 1659.26
1830.11 74.9543 1713.38
1820.14 73.8526 1713.84
1826.4 74.7785 1713.93
1821.82 74.3388 1715.17
1810.45 72.7949 1712.76
1804.68 72.1761 1713.16
1815.2 73.2847 1713.66
1800.1 72.1442 1704.6
1798.19 71.4681 1709.25
1797.36 71.5303 1710.58
1800.02 71.6539 1713.7
1799.84 70.8736 1710.77
1800.78 70.5855 1710.96
1798.58 68.125 1717.93
1799.94 67.9078 1720.61
1796.27 67.6205 1721.94
1811.7 71.0237 1720.24
1819.59 72.4041 1716.8
1804.16 69.09 1721.07
1869.01 87.483 1655.79
1871.49 88.236 1651.81
1867.6 87.2585 1657.13
1865.89 85.3936 1659.68
1874.31 88.9153 1647.8
1877.72 86.8349 1648.64
1876.02 87.7507 1649.03
1869.2 83.1831 1658.7
1873.71 84.2008 1654.1
1825.9 75.9721 1717.89
1816.8 74.0492 1716.89
1814.36 73.3827 1715.6
1819.7 76.1153 1718.32
1814.06 76.1187 1720.52
1810 72.8294 1714.93
1805.47 72.3119 1714.81
1799.49 71.6987 1715.35
1796.9 70.2119 1713.68
1799.09 70.62 1711.82
1795.72 70.5276 1714.28
1796.39 68.2306 1718.19
1794.35 67.3152 1721.51
1793.01 67.6165 1726.4
1796.6 67.9997 1725.19
1792.26 67.2813 1725.1
1803.56 69.8167 1724.65
1812.41 72.2203 1723.61
1819.9 74.0611 1720.48
1872.44 88.211 1651.9
1869.63 87.4224 1655.83
1866.46 85.5697 1659.26
1874.45 88.6626 1648.93
1877.1 86.7587 1649.23
1875.65 87.5976 1649.85
1876.66 85.431 1650.58
1870.78 83.6183 1656.82
1819.6 77.4822 1720.31
1822.59 78.3056 1725.13
1811.78 73.5867 1718.31
1809.28 75.4836 1721.68
1809.2 72.9517 1717.05
1811.98 78.3802 1724.05
1806.79 77.6934 1725.09
1804.94 72.4644 1716.93
1800.99 72.0129 1716.82
1796 71.54 1717.66
1793.62 71.1408 1716.32
1794.28 68.2973 1718.58
1791.86 68.1792 1719.56
1794.29 70.3509 1714.93
1790.79 68.3901 1719.71
1790.97 67.0293 1722.12
1789.77 66.9241 1725.15
1789.21 67.55 1731.11
1792.9 68.009 1729.6
1789.82 67.2837 1728.92
1787.64 66.8333 1728.8
1806.16 71.6208 1727.86
1798.86 69.499 1728.72
1811.26 76.3181 1729.44
1817.48 77.2434 1726.2
1872.67 88.0902 1652.49
1875.44 87.4507 1650.43
1870.29 87.4189 1655.54
1867.21 85.5451 1658.77
1816.19 78.8737 1725.55
1817.99 80.0219 1732.38
1807.16 73.0994 1719.5
1803.99 74.8029 1722.99
1801.82 76.8914 1726.14
1803.74 72.528 1718.91
1805.25 79.9591 1729.09
1811.69 80.3547 1731.68
1799.54 79.1204 1729.49
1798.69 71.9703 1718.96
1793.19 71.4597 1720
1791.14 71.1001 1718.69
1789.22 70.7344 1718.15
1790.76 70.6276 1716.65
1788.16 67.2548 1722.55
1792.18 69.4969 1717.32
1787.78 68.0974 1721.54
1787.26 66.5395 1725.05
1786.13 66.3169 1727.94
1787.05 67.6854 1734.98
1786.39 67.2504 1733.79
1792.53 68.7296 1732.84
1787.06 66.9777 1731.39
1784.87 66.543 1731.91
1784.68 66.2166 1729.59
1799.83 71.1707 1732.31
1805.12 76.8228 1734.47
1808.5 80.61 1737.64
1813.53 79.6954 1733.01
1875.24 87.2582 1651.03
1875.81 85.0504 1651.32
1867.9 85.6715 1658.31
1870.8 87.3725 1655.37
1870.95 83.8965 1656.32
1812.98 81.6496 1739.28
1801.62 73.1234 1721.95
1796.86 75.9556 1727.04
1794.83 78.3236 1730.44
1799.28 72.2065 1720.68
1798.46 81.1731 1733.15
1806.19 81.6081 1736.44
1791.83 80.7718 1734.31
1794.22 71.7182 1721.43
1787.73 71.1094 1722.59
1788.21 70.991 1720.87
1786.68 70.6472 1720.39
1787.45 70.3979 1719.61
1788.94 70.2442 1718.28
1789.57 69.2327 1719.02
1785.62 67.3657 1723.73
1785.27 66.7658 1725.45
1785.36 67.8269 1723.24
1784.87 66.1714 1727.19
1785.24 68.1333 1737.71
1783.93 67.7171 1736.38
1784.41 67.1426 1734.49
1792.66 70.0025 1736.31
1783.89 66.365 1731.03
1783.45 67.0448 1733.08
1783.71 66.1215 1728.18
1783.15 66.3556 1729.45
1798.32 75.7226 1738.27
1801.53 80.9799 1742.26
1806.21 82.3515 1744.21
1875.01 87.0702 1651.45
1875.27 85.0067 1651.46
1868.55 85.7896 1657.88
1809.4 83.2414 1746.02
1804.69 83.0742 1743.31
1796.07 72.4134 1723.22
1794.94 74.482 1726.16
1789.71 77.7268 1731.78
1788.32 76.2388 1730.68
1787.86 79.9729 1734.98
1792.26 82.7545 1738.65
1798.99 82.8994 1740.92
1785.85 83.1314 1739.88
1782.36 82.047 1739.4
1790.61 71.509 1723.38
1785.2 71.0493 1724.82
1782.41 70.6619 1724.51
1784.23 70.6042 1722.64
1784.95 70.3036 1721.86
1786.25 70.0685 1720.63
1787.36 69.8062 1719.78
1787.49 68.9502 1720.59
1784.04 67.121 1724.93
1783.75 66.4834 1726.41
1784.84 67.9887 1723.35
1783.84 67.5748 1724.4
1785.34 68.9289 1740.1
1782.01 68.7808 1737.54
1782.18 68.2927 1735.84
1781.84 68.0959 1734.44
1790.16 73.3316 1741.9
1782.26 67.0695 1731.4
1780.99 68.1188 1732.93
1782.77 66.4145 1727.46
1782.3 66.6718 1728.27
1781.75 67.1088 1729.81
1794.3 78.8722 1744.52
1796.36 83.1154 1749.62
1801.5 83.7159 1750.24
1805.11 84.6538 1752.01
1873.27 87.901 1653.15
1874.68 86.7608 1651.91
1869.26 85.8397 1657.29
1871.73 87.2624 1655.07
1871.42 84.289 1655.45
1799.64 84.5365 1749.21
1790.71 72.2817 1725.31
1789.05 74.2731 1728.23
1782.89 79.6051 1736.51
1781.62 78.0366 1735.27
1781.88 76.003 1732.93
1792.94 84.6629 1748.05
1785.7 84.9908 1747.75
1778.77 84.598 1744.81
1774.08 83.6683 1744.42
1777.45 81.521 1740.74
1785.97 71.8049 1726.6
1781.57 71.4069 1727.88
1780.72 70.6796 1726.36
1780.13 70.3425 1726.25
1782.77 70.1884 1723.82
1783.77 69.9902 1722.86
1784.76 69.8119 1721.92
1785.69 69.5046 1721.3
1785.83 68.7285 1721.91
1782.92 67.2514 1725.54
1782.69 66.8265 1726.5
1784.12 68.0747 1723.68
1782.37 71.8935 1745.79
1781.9 69.521 1740.35
1779.99 69.4916 1737.09
1779.69 69.2412 1735.59
1779.36 69.0522 1734.22
1787.07 77.4446 1748.21
1779.78 68.3521 1731.47
1778.78 69.0875 1733.05
1782.07 66.9891 1727.35
1780.85 67.4027 1728.82
1781.4 67.1951 1728.03
1779.89 68.1198 1730.02
1789.94 82.4285 1751.91
1791.72 85.2024 1757.91
1797.18 85.3115 1757
1801.18 86.0396 1757.9
1874.41 86.4293 1652.22
1872.95 84.5841 1653.63
1872.25 87.2854 1654.67
1869.93 85.7028 1656.61
1795.02 86.1279 1755.87
1783.1 74.0335 1730.28
1775.2 80.1185 1740.07
1775.82 77.7346 1737.2
1774.88 75.8213 1735.46
1787.23 86.5466 1755.87
1778.62 86.6185 1753.93
1771.35 85.9112 1749.2
1766.37 84.9001 1748.78
1770.21 82.6242 1744.78
1778.31 73.5634 1731.63
1778.03 70.801 1728.77
1774.66 72.5799 1732.17
1778.42 70.3854 1727.82
1778.86 69.9067 1727.32
1780.64 70.0731 1725.73
1781.66 69.8613 1724.75
1782.85 69.6748 1723.63
1783.92 69.3722 1722.78
1784.21 68.6059 1723.11
1782 67.4445 1726.08
1781.84 67.2727 1726.73
1783.26 67.8367 1724.53
1782.55 67.6479 1725.33
1779.55 76.1207 1752.24
1779.32 71.5693 1745.08
1776.46 74.314 1750.18
1778.91 70.6559 1740.91
1778.36 70.3851 1738.23
1777.88 70.1852 1736.61
1776.76 70.6757 1736.39
1782.84 81.2697 1755.55
1777.47 69.9241 1732.88
1776.51 70.5353 1734.8
1781.31 67.4142 1727.34
1780.1 67.8744 1728.71
1779.61 68.2768 1729.37
1780.46 67.7263 1728.01
1778.13 69.4594 1731.33
1785.43 85.0407 1759.29
1787.17 87.1085 1765.98
1792.92 87.024 1764.18
1797.46 87.4826 1764.02
1871.33 85.5592 1655.34
1790.78 87.7828 1762.95
1766.6 81.7049 1745.17
1770.34 79.6019 1741.39
1769.02 77.97 1740.11
1767.23 76.1166 1739.08
1770.82 74.4247 1735.79
1782.86 88.2348 1763.07
1769.88 87.7765 1757.35
1775.35 88.5762 1762.77
1763.42 87.0937 1753.23
1758.11 86.1975 1753.43
1762.21 83.9879 1749.4
1777.77 70.3007 1728.76
1776.9 70.7211 1730.72
1778.53 69.2193 1729.9
1774.89 71.7763 1733.5
1778.07 70.0456 1728.24
1778.49 69.7245 1727.77
1779.63 69.7198 1726.56
1780.81 69.5264 1725.44
1782.17 69.3132 1724.22
1782.94 68.6006 1724.12
1781.33 67.6152 1726.65
1782.33 68.2308 1724.92
1773.79 77.6052 1756.89
1776.31 80.8776 1759.78
1775.82 73.2372 1747.07
1772.4 76.5428 1753
1774.97 72.7687 1744.86
1774.72 72.3589 1741.64
1771 74.04 1740.54
1771.88 73.3863 1738.63
1778.62 85.2214 1763.44
1772.89 72.7938 1736.32
1780.79 67.8245 1727.1
1780.5 67.8696 1727.52
1779.68 68.2654 1728.52
1779.69 68.3508 1728.01
1781.65 87.1228 1767.2
1780.99 89.0177 1774.18
1788.27 88.6974 1771.31
1793.4 88.9573 1770.28
1786.31 89.4283 1769.92
1758.99 82.7797 1749.32
1763.44 80.4037 1744.96
1763.05 78.013 1742.8
1767.6 75.3522 1739.93
1778.47 90.1123 1771.22
1766.6 89.6301 1765.67
1761.16 89.0533 1761.36
1771.26 90.4776 1771.11
1755.51 88.348 1757.52
1749.93 87.3924 1757.93
1754.26 85.1007 1753.72
1778.48 69.3327 1729.25
1778.43 69.4466 1728.68
1778.74 69.2794 1727.99
1779.16 69.0283 1727.46
1779.27 69.3956 1726.86
1779.73 68.753 1727.05
1780.27 69.2179 1725.87
1781.88 68.6604 1724.98
1781.48 67.9931 1725.86
1780.93 68.0615 1726.51
1769.98 81.3141 1764.12
1771.15 78.7897 1758.3
1772.18 84.9463 1767.52
1772.23 75.5838 1750.18
1767.26 79.8524 1758.12
1766.57 78.8553 1753.91
1769.81 75.5873 1745.89
1768.58 76.8356 1748.92
1769.77 75.1451 1743.25
1764.53 76.8486 1743.37
1763.93 77.3769 1744.96
1775.54 87.8948 1771.43
1779.99 68.2796 1727.59
1773.22 89.7941 1778.82
1777.3 90.9442 1781.99
1784.35 90.2386 1777.79
1789.51 90.4348 1776.54
1782.54 91.0121 1776.76
1752.37 82.9953 1752.58
1755.95 81.4326 1749.26
1759.52 79.4805 1745.99
1775.08 92.0621 1779.96
1763.52 91.6094 1774.66
1758.38 90.9922 1770.23
1753.04 90.4125 1765.93
1768.58 92.2742 1779.31
1748.24 89.4723 1761.48
1741.96 88.1653 1762.25
1745.11 86.5222 1759.18
1748.47 84.9292 1756.06
1780.34 68.6131 1726.48
1780.99 68.7247 1725.79
1766.14 85.3815 1771.94
1764.94 84.6676 1769.95
1766.1 82.3212 1764.34
1768.91 88.4691 1775.42
1760.3 83.2126 1763.02
1760.67 81.6489 1758.02
1760.37 80.3263 1752.4
1762.64 78.5824 1748.11
1758.47 79.6783 1748.25
1758.06 80.0668 1749.55
1766.38 90.6814 1783.65
1771.11 91.8358 1786.67
1776.12 93.0392 1789.82
1781.02 91.8653 1784.43
1785.74 91.9557 1782.97
1779.49 92.5518 1783.59
1751.92 82.8128 1754.05
1774.31 93.8541 1788.67
1767.7 93.986 1787.56
1761.09 93.6317 1784.04
1755.95 93.0274 1779.67
1750.94 92.416 1775.31
1745.76 91.7632 1770.69
1741.98 90.6817 1765.44
1738.3 89.5906 1765.43
1747.86 84.892 1758.04
1745.01 86.7582 1762.15
1762.6 88.9999 1779.18
1760.77 88.348 1777.15
1760.72 85.9875 1770.98
1753.94 86.1164 1767.06
1752.63 84.6886 1761.49
1753.03 83.4406 1757.15
1755.14 81.7941 1753.18
1759.83 91.4838 1786.75
1764.3 92.7924 1791.73
1769.76 93.6411 1793.49
1772.71 94.7151 1796.66
1777.58 94.8483 1795.25
1781.47 93.5002 1789.52
1770.92 95.3766 1795.31
1764.46 95.8433 1795.95
1759.2 95.4743 1792.67
1747.86 94.418 1784.42
1743.32 93.6542 1779.42
1737.78 92.9202 1774.3
1735.21 91.3474 1768.74
1740.83 89.2461 1767.25
1747.15 87.1924 1765.54
1756.49 91.8472 1782.91
1755.15 89.0494 1775.58
1754.11 91.6878 1781.22
1747.28 89.271 1771.33
1757.26 93.3594 1793.91
1753.21 95.0062 1788.76
1765.18 94.9893 1799.43
1760 94.6532 1799.45
1768.37 96.1439 1802.83
1773.81 96.2764 1801.31
1766.48 96.9555 1801.96
1758.5 97.5814 1802.94
1752.44 96.8047 1797.47
1745.65 96.2876 1793.1
1739.43 95.8199 1789.12
1736.44 94.6978 1782.76
1729.84 94.6378 1780.41
1730.19 93.4181 1773.09
1735.42 91.7313 1771.12
1740.33 91.3918 1772.77
1749.44 95.1548 1785.96
1745.48 93.0887 1779.55
1753.57 95.5202 1801.88
1750.67 97.0227 1795.89
1746.41 98.059 1791.78
1761.38 96.8401 1807
1756.36 96.5232 1807.04
1765.04 97.7533 1809.42
1770.23 97.5905 1806.87
1763.27 98.3947 1808.24
1757.84 99.4531 1812.04
1751.11 98.5384 1805.71
1744.75 97.9643 1801.17
1737.83 97.5913 1797.48
1729.93 97.5897 1795.35
1730.35 96.1872 1788.49
1725.69 96.4398 1787.04
1724.71 96.6761 1783.09
1727.02 95.0405 1775.66
1725.83 95.7134 1774.82
1731.53 93.9221 1774.67
1735.83 94.1313 1776.99
1742.21 97.65 1787.36
1737.31 96.8514 1783.31
1750.22 97.8251 1810.45
1747.51 99.7474 1804.36
1744.84 100.346 1799.7
1739.1 100.59 1792.36
1740.35 101.542 1796.8
1754.99 98.5491 1814.63
1760.23 98.6607 1813.82
1762.88 99.9009 1816.65
1767.15 98.9999 1812.85
1755.33 101.088 1819.48
1750.99 100.107 1813.27
1743.61 99.6374 1809.16
1736.93 99.2921 1805.67
1729.79 99.0986 1802.81
1725.84 99.046 1801.2
1724.52 97.7179 1793.72
1721.52 98.7948 1789.73
1721.21 98.7125 1783.09
1724.01 96.9286 1779.08
1724.41 96.5156 1775.24
1720.82 99.1595 1780.34
1724.1 97.4993 1779.47
1720.5 98.994 1779.02
1722.63 97.5823 1776.39
1727.97 95.8709 1778.1
1730.09 96.5512 1780.06
1732.74 100.449 1789.27
1730.61 99.0066 1785.15
1747.79 99.58 1817.63
1742.99 103.114 1812.72
1741.88 103.092 1807.05
1738.09 103.954 1803.73
1731.68 102.036 1793.36
1736.52 102.784 1798.14
1751.53 100.402 1822.16
1757.26 100.308 1820.46
1761.04 101.159 1821.99
1757.43 102.347 1827.02
1751.5 102.695 1826.43
1747.96 101.9 1821.34
1742.72 101.195 1816.65
1736.12 100.974 1813.8
1728.6 100.55 1809.68
1723.29 100.627 1808.09
1721.71 99.3954 1800.62
1721.02 99.3144 1795.47
1717.64 101.304 1796.05
1719.39 99.974 1788.21
1720.58 98.8821 1778.37
1717.23 101.132 1785.7
1720.53 98.8144 1777.6
1715.9 102.735 1786.76
1718.22 101.423 1785.83
1721.65 99.2679 1783.06
1717.38 100.824 1780.92
1714.05 103.596 1787.05
1718.54 100.044 1778.98
1724.21 98.2426 1782.36
1724.47 99.6752 1785.21
1724.96 102.167 1790.39
1724.59 101.326 1788.39
1744.44 101.646 1824.06
1739.48 105.815 1818.65
1735.84 106.116 1809.62
1734.81 107.779 1815.59
1734.02 105.166 1803.99
1723.41 102.786 1792.54
1727.36 103.529 1799.52
1753.31 101.96 1827.34
1747.69 102.178 1829.46
1754.19 103.735 1832.92
1748.57 104.169 1832.96
1744.24 103.813 1830.03
1740.51 102.857 1824.31
1734.65 102.74 1822.16
1728.36 102.022 1816.92
1725.29 101.885 1815.25
1719.59 102.458 1815.75
1719.39 100.99 1807.26
1717.81 101.456 1802.44
1715.71 102.288 1792.64
1714.12 103.686 1804.52
1713.74 103.727 1800.04
1716.76 101.205 1780.82
1716.29 101.391 1780.18
1713.1 103.63 1788.22
1716.89 100.984 1779.91
1717.64 103.13 1790.38
1717.44 103.896 1796.06
1718.68 103.544 1795.38
1719.23 101.391 1787.09
1712.37 104.242 1786.85
1714.75 102.374 1781.92
1715.3 104.513 1794.16
1714.28 102.6 1781.66
1720.84 100.708 1786.33
1721.34 102.001 1789.09
1741.32 103.632 1830.92
1737.01 107.654 1825.23
1732.19 110.264 1822.23
1731.89 107.743 1809.98
1732.19 108.953 1815.22
1726.37 105.955 1807.48
1721.35 103.052 1793.91
1719.71 102.716 1790.39
1722.08 103.87 1801.65
1749.92 103.528 1833.79
1744.1 104.028 1836.99
1750.41 105.152 1838.94
1744.56 105.496 1838.47
1738.66 105.73 1838.07
1737.39 104.44 1831.32
1732.11 104.671 1831.06
1727.2 103.476 1823.82
1724.13 103.399 1822.39
1718.07 104.283 1824.29
1715.87 103.735 1820.28
1717.1 102.442 1813.26
1714.87 103.462 1809.92
1710.91 105.383 1800.28
1711.97 104.531 1794.34
1711.08 105.684 1810.31
1709.07 106.727 1807.11
1712.94 103.512 1783.04
1711.89 104.051 1782.87
1713.53 102.997 1781.96
1708.3 106.723 1795.85
1709.03 106.055 1789.64
1719.8 103.295 1794.75
1720.25 104.072 1802.54
1719.25 104.17 1801.67
1720.85 104.016 1802.41
1710.38 105.254 1787.22
1712.57 105.217 1791.46
1711.26 104.467 1783.88
1716.13 105.027 1798.16
1739.03 105.139 1838.07
1734.86 108.997 1832.79
1730.61 112.303 1829.2
1729.79 111.381 1821.64
1728.06 113.684 1829.48
1728.96 110.55 1816.51
1725.76 108.561 1813.41
1723.15 105.064 1808.49
1746.29 104.969 1839.84
1737.85 106.222 1844.6
1742.23 106.207 1845.26
1746.54 106.515 1844.72
1740.28 106.926 1844.42
1733.26 107.32 1844.51
1732.3 106.221 1838.8
1725.83 106.254 1837.23
1726.2 104.864 1830.44
1723.76 104.879 1829.67
1717.27 105.924 1832.21
1714.3 105.513 1828.9
1712.34 105.53 1824.59
1713.18 104.741 1817.44
1710.36 106.336 1816.27
1707.34 107.57 1803.01
1707.17 108.123 1814.58
1704.7 109.464 1812.08
1709.52 105.473 1784.69
1705.03 108.561 1794.24
1704.73 108.993 1800.72
1705.63 107.983 1788.34
1707.44 106.69 1785.95
1721.29 105.455 1808.64
1722.16 105.248 1808.89
1719.33 104.522 1803.51
1720.75 105.918 1808.67
1708.81 106.243 1787.41
1712.49 105.763 1793.16
1708.24 106.571 1787.63
1716.86 105.311 1800.68
1707.79 106.865 1788.13
1733.33 109.832 1839.16
1728.29 114.377 1836.49
1727.32 114.947 1834.6
1727.06 113.323 1824.13
1726.85 114.148 1828.31
1726.59 114.94 1832.3
1725.18 112.051 1819.84
1722.53 109.048 1814.71
1734.9 107.964 1851.42
1738.91 107.65 1851.24
1733.06 109.609 1844.52
1742.83 107.889 1850.55
1736.66 108.288 1850.21
1730.51 108.523 1849.73
1725.26 107.683 1844.17
1723.29 106.354 1836.9
1717.9 107.553 1840.68
1713.66 107.295 1837.6
1711.5 107.269 1836.55
1710.54 106.875 1831.51
1707.64 108.469 1830.15
1709.38 107.175 1823
1706.25 108.916 1821.1
1704.23 109.511 1806.5
1703.64 110.335 1818.51
1703.71 109.959 1810.12
1705.84 107.708 1786.72
1706.39 107.403 1786.24
1704.37 109.039 1796.61
1704.66 108.606 1789.92
1707.55 107.146 1788.68
1718.37 111.303 1813.15
1719.99 106.385 1808.38
1716.76 112.512 1811.31
1712.21 106.513 1794.34
1716.37 106.161 1801.46
1718.89 106.469 1806.73
1712.18 107.606 1796.16
1727.65 114.366 1842.8
1725.45 114.905 1839.55
1726.64 115.112 1836.97
1725.62 114.661 1825.29
1725.9 114.844 1828.99
1726.09 115.268 1832.79
1718.29 114.106 1817.89
1722.57 115.818 1823.19
1734.92 109.123 1857.49
1730.83 111.217 1849.24
1730.05 111.343 1855.92
1739.22 109.287 1856.47
1733.73 109.717 1856.52
1733 108.92 1852.36
1729.27 109.783 1855.65
1724.33 109.164 1851.26
1723.18 107.843 1844.34
1720.65 108.875 1848.48
1712.89 108.979 1845.74
1710.11 108.967 1844.51
1708.09 108.616 1839.18
1705.55 109.955 1837.04
1703.12 111.228 1833.51
1705.49 109.62 1827.67
1703.2 110.88 1825.89
1703.18 110.657 1819.96
1703.47 110.215 1813.2
1703.82 109.696 1805.18
1705 108.433 1787.24
1705.45 108.121 1787.3
1707.09 108.271 1789.8
1704.38 108.904 1793.48
1704.65 108.572 1787.65
1704.12 109.206 1797.34
1710.55 107.965 1794.43
1713.61 115.24 1809.81
1715.57 112.773 1809.27
1711.87 115.882 1805.94
1717.09 107.626 1805.37
1714.88 112.233 1807.35
1710.95 112.237 1800.08
1715.5 108.064 1803.08
1726.1 115.021 1850.52
1725.04 114.954 1843.9
1723.03 114.724 1843.18
1724.16 114.896 1840.26
1725.95 115.19 1836.88
1726.8 115.239 1835.12
1723.5 116.833 1826.4
1722.67 117.177 1828.72
1723.88 116.66 1830.96
1723.46 116.528 1833.67
1723.22 116.839 1832.51
1717.52 118.38 1826.12
1713.65 116.736 1819.21
1711.65 115.706 1811.32
1730.2 111.138 1862.5
1735.22 110.692 1862.41
1725.06 115.315 1858.33
1729.34 111.071 1862.06
1723.73 110.727 1858.85
1722.73 109.719 1853.55
1720.81 110.442 1856.25
1714.95 110.062 1852.06
1709.95 110.882 1854.09
1706.52 109.853 1845.67
1707.77 110.492 1851.21
1703.05 111.695 1844.24
1702.39 111.879 1839.25
1702.52 111.543 1832.72
1702.81 111.161 1827.31
1702.99 110.823 1821.48
1703.28 110.385 1814.7
1703.57 109.955 1808.15
1704.07 109.415 1801.75
1705.11 108.735 1787.83
1706.19 109.039 1789.58
1705.71 109.876 1789.9
1705.58 108.364 1787.84
1708.3 111.942 1795.74
1709.63 112.128 1797.9
1704.51 108.644 1788.32
1704.33 109.771 1788.27
1704.03 109.193 1795.81
1704.31 108.842 1790.99
1707.68 117.607 1802.42
1707.7 117.296 1803.56
1710.03 116.163 1803
1707.3 117.736 1801.07
1711.23 114.302 1802.63
1710.39 115.683 1802.57
1707.1 116.225 1798.61
1705.94 115.794 1796.95
1723.84 115.313 1853.12
1723.33 114.825 1847.11
1721.09 114.586 1844.09
1720.97 114.598 1847.21
1723.05 114.82 1840.53
1720.44 115.466 1838.69
1723.57 115.85 1835.45
1715.57 120.128 1829.13
1716.93 119.831 1830.51
1716 120.672 1831.88
1716.07 120.274 1833.81
1714.07 119.841 1827.28
1710.68 117.995 1820.37
1708.87 116.212 1812.55
1706.93 117.087 1804.59
1732.02 112.077 1868.3
1728.18 112.417 1868.8
1724.43 115.417 1864.77
1722.89 115.664 1860.93
1727.57 112.438 1868.37
1723.24 112.031 1865.19
1722.08 111.313 1861.28
1721 111.742 1863.05
1714.23 111.595 1859.39
1708.5 112.899 1863.62
1707.03 112.075 1858.86
1704.6 111.337 1853.08
1702.31 112.354 1849.94
1704.58 112.473 1859.83
1701.83 112.363 1842.91
1701.77 112.155 1836.32
1702.06 111.726 1829.89
1702.42 111.262 1823.56
1702.62 110.86 1816.26
1703.02 110.321 1808.79
1703.43 109.814 1802.14
1704.99 109.477 1788.57
1701.58 114.484 1790.7
1702.08 115.273 1792.18
1703.97 111.608 1789.92
1700.51 115.349 1790.58
1702.79 115.179 1792.86
1703.75 113.811 1792.32
1706.91 112.181 1794.19
1705.46 109.208 1788.84
1704.07 114.501 1793.56
1705.25 114.738 1794.9
1704.94 111.707 1791.12
1703.82 109.843 1788.04
1699.12 117.159 1791.2
1703.42 109.976 1789.49
1702.78 110.085 1793.46
1704.74 119.518 1799.86
1704.71 119.167 1799.09
1704.66 118.93 1801.03
1705.83 117.635 1798.55
1705.02 118.475 1798.61
1704.93 116.758 1796.71
1704.45 115.599 1794.98
1722.09 115.185 1856.99
1721.9 114.742 1850.53
1717.61 114.046 1845.02
1719.46 114.341 1847.38
1717.28 114.331 1843.5
1719.8 114.467 1850.83
1717.53 114.953 1841.53
1714.17 119.539 1836.08
1711.65 121.471 1829.49
1712.07 121.964 1830.97
1711.92 122.496 1832.19
1710.81 120.242 1826.16
1707.94 118.101 1819.57
1705.73 116.635 1812.53
1705.12 117.07 1805.79
1704.05 117.914 1803.08
1727.78 113.614 1874.84
1723.51 115.722 1870.62
1721.97 115.918 1867.32
1721.27 115.443 1863.05
1722.64 113.233 1870.99
1721.52 112.675 1867.89
1718.98 112.495 1866
1720.77 113.346 1870.99
1714.19 112.632 1864.68
1707.62 114.528 1871.01
1705.04 113.911 1867.26
1712.49 113.604 1868.86
1701.25 113.459 1859.87
1701.29 113.151 1854.66
1701.05 113.02 1847.22
1701.94 113.701 1864.28
1699.59 113.59 1837.14
1699.49 113.291 1827.37
1700.23 112.59 1821.32
1700.01 112.43 1813.21
1701.04 111.565 1807.83
1700.53 111.601 1798.72
1700.83 111.637 1795.09
1699.96 117.505 1792.48
1700.84 117.279 1793.17
1702.07 116.795 1793.94
1699.29 118.249 1792.57
1703.17 115.843 1794.1
1699.3 116.683 1790.88
1698.8 118.935 1792.65
1700.17 115.036 1790.36
1698.73 117.729 1791.38
1698.35 117.893 1792.08
1703.03 119.768 1798.29
1703.43 119.019 1797.8
1703.96 118.281 1797.47
1702.33 119.725 1799.7
1704.42 117.472 1796.98
1703.82 116.355 1795.18
1720.49 114.738 1855.67
1715.98 114.046 1846.17
1712.74 117.37 1840.48
1716.1 113.891 1848.95
1713.24 118.529 1837.69
1716.59 113.198 1852.94
1711.11 122.495 1832.68
1709.56 121.778 1829.01
1708.9 120.204 1825.55
1709.75 122.649 1830.97
1705.02 118.273 1818.97
1702.82 117.005 1811.72
1703.46 117.143 1806.47
1702.97 117.275 1804.85
1701.5 118.711 1802.36
1722.99 115.789 1876.28
1722.37 115.722 1881.57
1722.31 114.35 1876.44
1721.07 116.219 1874.3
1720.13 115.715 1870.52
1719.19 115.055 1864.77
1720.98 114.062 1874.63
1718.57 113.713 1871.96
1720.17 114.829 1878.19
1704.79 114.245 1868.51
1708.79 113.492 1863.76
1709.94 115.124 1874.86
1712.71 114.863 1875.28
1713.23 114.838 1873.11
1712.48 114.247 1868.89
1702.17 113.746 1864.89
1699.44 114.401 1851.52
1700.43 114.108 1856.22
1698.83 114.382 1844.77
1697.28 115.093 1836.08
1697.66 114.516 1828.6
1696.62 114.845 1819.24
1697.96 113.838 1815.51
1696.95 114.16 1805.41
1698.09 113.322 1802.89
1698.51 113.048 1800.21
1697.01 115.994 1797.98
1697.53 118.795 1793.27
1700.27 117.942 1793.27
1701.44 117.415 1793.94
1702.73 116.691 1794.51
1698.97 119.257 1793.1
1699.7 118.827 1793.44
1700.4 118.494 1793.85
1698.18 119.183 1792.29
1698.34 119.647 1792.9
1701.89 118.817 1795.93
1701.41 119.62 1796.29
1702.82 118.074 1796.1
1703.33 117.269 1795.69
1700.74 120.12 1797.44
1716.9 113.156 1858.2
1710.31 115.146 1848.56
1710.05 121.722 1834.4
1707.8 119.484 1841.36
1707.16 114.32 1854.87
1710.12 112.867 1858.23
1709.15 122.679 1830.68
1708.52 121.903 1828.66
1707.67 120.239 1825.1
1701.81 117.588 1815.13
1701.88 117.138 1807.89
1701.54 117.168 1806.11
1700.57 117.696 1804.62
1699.51 119.219 1801.32
1720.44 116.691 1886.8
1720.46 115.35 1880.87
1719.55 116.32 1880.78
1717.74 115.672 1878.01
1716.59 114.93 1872.13
1714.86 113.424 1863.17
