1814.92 -151.243 417.641
1814.73 -152.226 417.982
1826.19 -154.713 419.393
1830.08 -157.182 420.691
1910.16 92.7529 436.217
1914.53 93.2456 437.583
1917.09 67.7253 437.817
1912.39 66.1695 436.616
1910.93 65.2914 436.498
1909.14 63.9924 436.102
1907.6 62.197 435.383
1902.76 60.6637 434.053
1896.71 59.342 432.71
1896.13 58.9085 433.194
1900.54 58.2689 434.591
1790.25 -10.1355 408.6
1786.78 -11.5856 407.769
1782.37 -12.6235 406.596
1777.05 -14.4832 405.873
1773.96 -15.7883 405.391
1773.82 -16.2729 404.87
1772.9 -17.2997 404.6
1770.65 -18.671 404.702
1766.85 -20.0265 405.004
1761.05 -22.3284 400.922
1771.39 -22.8642 404.693
1736.81 -42.3153 399.286
1728.3 -43.6976 395.271
1815.3 -146.635 416.224
1817.11 -147.973 416.608
1821.4 -149.616 417.168
1825.4 -151.246 417.702
1828 -152.577 418.45
1826.28 -153.351 418.753
1914.89 93.6519 436.192
1914.38 93.5126 436.351
1911.83 67.3588 434.288
1912.69 67.2757 435.349
1911.07 66.1254 435.156
1910.06 65.2573 435.154
1908.98 63.4838 434.544
1905.02 61.9756 433.437
1899.59 60.4918 432.068
1896.48 59.8805 431.851
1899.21 59.6029 433.101
1906.21 59.0376 435.722
1793.31 -8.14047 408.108
1790.81 -9.7191 407.501
1789.61 -10.4584 407.282
1786.88 -11.2928 406.329
1782.74 -13.0086 405.657
1778.14 -14.6782 405.141
1775.99 -15.7823 404.651
1776.37 -16.0921 404.105
1776.69 -16.5004 403.609
1774.22 -18.4399 403.79
1769.67 -22.7301 404.519
1916.7 94.1812 435.495
1912.47 93.5361 434.79
1911.15 67.8887 432.363
1913.22 68.4155 434.13
1912.25 67.656 434.393
1910.63 66.3876 434.011
1909.8 65.0028 433.601
1906.89 63.4011 432.727
1901.45 61.7134 431.257
1898.13 60.908 430.764
1898.2 60.516 431.453
1904.11 60.3437 433.71
1793.12 -7.55635 406.86
1791.43 -8.9112 406.543
1790.25 -9.77185 406.223
1789.06 -10.5736 405.939
1786.44 -11.9056 405.334
1782.34 -13.5824 404.757
1780.07 -14.6185 404.266
1778.3 -15.6563 403.844
1778.6 -15.9207 403.377
1778.71 -16.3144 402.834
1778.93 -16.6443 402.32
1825.64 -43.1428 414.226
1823.6 -43.1362 413.798
1818.13 -137.073 412.744
1818.46 -138.163 413.21
1935.49 97.1603 438.378
1928.85 96.2117 437.066
1912.91 93.9624 433.39
1914.78 70.1299 433.619
1913.62 69.1345 433.619
1911.28 67.6161 432.857
1910.16 66.3021 432.55
1908.13 64.8803 431.929
1903.57 63.2104 430.596
1898.25 61.8687 429.408
1897.8 61.4396 429.928
1902.47 61.2354 431.645
1881.3 5.999 425.988
1877.68 4.70563 425.087
1794.78 -5.78363 405.976
1792.98 -7.94861 405.691
1791.88 -8.94828 405.475
1790.49 -9.9965 405.189
1789.29 -10.9362 404.881
1785.64 -12.4909 404.255
1783.23 -13.7027 403.829
1782.16 -14.4173 403.434
1780.71 -15.3603 403.131
1828.93 -43.0082 413.831
1829.88 -42.9837 414.118
1825.85 -43.0737 413.279
1819.63 -134.817 412.123
1825.12 -136.675 412.385
1820.39 -137.098 412.626
1933.18 97.1017 436.69
1912.98 70.3207 431.264
1913.37 70.2303 432.215
1912.44 69.2602 432.141
1910.49 67.6134 431.454
1908.74 65.9565 430.805
1904.77 64.0198 429.518
1899.83 62.7937 428.461
1897.03 62.174 428.225
1900.68 62.1459 429.774
1872.8 5.7202 422.731
1875.29 5.23806 423.712
1882.02 5.65483 425.917
1796.44 -4.606 405.281
1794.68 -6.36913 404.967
1793.41 -7.73819 404.698
1792.57 -8.58321 404.437
1791.33 -10.0902 404.338
1789.46 -11.2889 403.968
1786.23 -12.8951 403.491
1784.98 -13.5911 403.025
1784.3 -14.2755 402.679
1784.68 -15.1488 402.54
1830.18 -42.9041 413.022
1828.13 -43.0038 412.592
1818.9 -133.279 411.348
1819.65 -134.335 411.939
1822.11 -135.837 412.272
1938.22 98.3456 436.508
1930.07 97.0377 434.703
1915.86 94.9725 431.514
1913.9 71.5495 430.275
1915.41 71.7958 431.64
1912.47 70.1363 430.666
1911.29 69.0309 430.561
1909.77 67.7904 430.191
1905.6 65.4049 428.642
1900.68 63.9333 427.302
1897.66 63.0325 426.913
1899.6 62.8849 427.931
1875.3 6.25986 421.768
1874.19 6.0947 422.038
1878.88 5.54481 423.439
1882.43 7.14638 425.671
1802.84 -2.71316 405.787
1798.56 -4.15342 404.497
1796.02 -4.97587 404.042
1794.88 -6.44909 403.837
1794.34 -7.44366 403.695
1793.18 -8.48079 403.39
1792.35 -9.65579 403.163
1789.86 -11.6424 403.329
1788.32 -12.6512 402.907
1787.6 -13.3123 402.359
1787.4 -14.2705 402.543
1790.58 -14.8874 401.86
1822.92 -128.177 408.905
1822.17 -128.582 409.024
1821.71 -130.408 409.984
1821.21 -131.276 410.432
1821.5 -132.293 410.948
1821.86 -133.319 411.283
1820.84 -134.175 411.731
1833.92 -137.176 413.058
1939.23 98.836 435.543
1927.39 97.1324 433.01
1912.12 94.9364 429.454
1913.43 71.6976 429.072
1913.39 71.3099 429.661
1912.3 70.2908 429.567
1910.67 69.0188 429.164
1908.39 67.0599 428.274
1902.77 65.2514 426.671
1899.15 63.9695 425.812
1898.65 63.6115 426.259
1883.55 10.2452 424.325
1876.2 6.74366 421.022
1882.95 9.03787 424.934
1806.47 0.076333 405.804
1800.63 -1.62051 403.942
1798.3 -3.24243 403.127
1797.34 -4.0997 403.069
1796.43 -5.05875 402.993
1795.61 -6.27963 402.741
1795.27 -7.1034 402.643
1795.08 -8.42194 402.552
1794.46 -9.56727 402.371
1792.26 -11.0989 402.457
1791.43 -12.2708 402.485
1790.73 -13.2041 402.251
1791.13 -14.1311 401.915
1794.61 -15.0805 401.082
1796.42 -16.07 400.717
1792.54 -17.3468 400.938
1789.95 -18.5353 401.082
1822.39 -127.223 408.285
1822 -127.569 408.484
1821.73 -128.014 409.045
1822.37 -129.187 409.275
1821.75 -130.024 409.786
1823.13 -131.161 410.201
1830.37 -133.552 410.481
1831.49 -134.588 411.252
1823.01 -134.116 411.589
1942.11 99.5368 435.253
1924.79 97.0435 431.212
1909.49 95.052 427.715
1914.85 72.7509 428.204
1912.97 71.9473 427.914
1912.67 71.326 428.272
1911.55 70.3585 428.203
1909.52 68.3339 427.246
1904.86 66.5033 425.72
1900.54 65.301 424.925
1899.18 64.7652 425.147
1902.44 64.5082 426.513
1874.5 7.60587 419.303
1875.99 7.23966 420.008
1802.89 0.190211 402.91
1799.73 -1.23036 402.175
1798.7 -2.18715 401.998
1797.97 -2.95876 402.084
1797.22 -3.93793 402.019
1796.44 -5.06614 401.799
1795.57 -6.7082 401.701
1795.25 -7.41263 401.58
1797.69 -7.81278 400.818
1794.75 -9.97437 402.059
1797.94 -11.7416 401.525
1792.97 -13.1994 401.815
1792.57 -14.216 401.53
1794.36 -15.1568 401.101
1794.55 -16.3192 400.857
1795.4 -17.3537 400.617
1792.96 -18.5632 400.721
1792.47 -19.6661 400.643
1793.89 -20.7149 400.197
1833.52 -42.5654 410.179
1825.81 -127.825 407.749
1821.92 -127.06 407.704
1821.47 -127.633 407.579
1822.78 -127.863 408.528
1827.63 -129.801 409.051
1831.98 -131.455 409.546
1832.56 -132.393 410.094
1842.62 -134.717 411.809
1840.12 -135.24 412.018
1829.52 -134.809 410.979
1923.07 97.0317 429.635
1908.66 95.2934 426.386
1909.57 72.0662 424.212
1914.54 73.1142 427.044
1912.9 72.402 427.001
1911.6 71.4282 426.94
1910.08 69.6983 426.155
1905.34 67.4562 424.447
1901.2 66.4865 423.836
1899.61 65.8692 423.976
1902.87 65.3857 425.12
1908.21 65.4538 426.485
1875.81 8.28038 418.114
1809.14 3.31045 403.875
1803.15 1.37256 401.925
1800.69 0.239341 401.449
1799.6 -0.999763 401.157
1798.76 -1.86004 401.046
1797.94 -2.68122 401.072
1797 -3.9221 400.828
1795.16 -13.2063 401.367
1794.51 -14.3277 401.252
1793.61 -15.3626 401.093
1793.59 -16.439 400.934
1792.84 -17.6397 400.859
1791.87 -18.7639 400.843
1791.28 -19.866 400.815
1834.9 -42.6806 409.27
1822.7 -126.624 406.409
1822 -126.626 406.698
1822.06 -126.818 407.103
1825.96 -128.327 407.795
1838.96 -131.206 409.253
1842.48 -133.279 410.886
1844.85 -134.381 411.799
1839.48 -134.63 411.468
1834.75 -134.663 411.434
1843.66 -136.769 413.238
1937.13 99.7124 431.784
1921.26 97.0848 427.951
1909.59 95.6946 425.503
1919.43 73.8811 426.541
1914.83 73.6326 426.167
1912.48 72.545 425.772
1911.19 71.1893 425.45
1907.04 69.24 423.913
1902.06 67.6931 422.651
1899.82 66.8542 422.595
1902.64 66.5217 423.869
1907.8 66.4013 425.05
1901.24 64.8384 425.315
1874.54 9.08465 416.397
1867.48 9.25377 415.544
1802.91 3.8365 400.943
1802.37 3.09411 400.65
1801.39 1.18983 400.519
1800.76 0.353396 400.395
1799.84 -0.641402 400.294
1798.44 -1.74413 399.885
1796.79 -3.41122 399.204
1798.95 -15.4107 400.707
1797 -16.5664 400.584
1796.88 -17.6232 400.428
1796.38 -18.7212 400.315
1791.29 -34.4048 398.37
1791.56 -35.4757 398.566
1822.95 -42.6692 405.413
1833.31 -42.4643 407.783
1822.18 -126.046 405.322
1822.84 -126.382 405.807
1823.3 -126.688 406.305
1828.04 -128.345 407.306
1841 -130.877 409.23
1842.31 -132.744 410.531
1839.85 -133.333 410.68
1835.45 -133.471 410.555
1832.21 -133.899 410.693
1934.22 99.8848 429.56
1928.32 98.6413 428.386
1915.98 96.7061 425.532
1912.52 96.3084 425.019
1919.11 74.2746 425.663
1913.68 73.6332 424.714
1911.56 72.0661 424.116
1908.61 70.5557 423.267
1903.07 69.0855 421.873
1900.89 68.156 421.567
1902.89 67.5006 422.659
1908.62 67.1896 424.595
1903.44 65.058 424.923
1871.64 10.0333 414.372
1866.39 10.0557 413.984
1812.46 5.753 401.394
1803.65 4.84223 400.016
1803.25 3.6895 399.924
1802.44 2.4193 399.761
1801.79 1.41498 399.555
1801.18 0.623263 399.392
1800.28 0.039421 399.349
1798.06 -2.03435 398.522
1791.32 -34.3626 397.412
1791.31 -35.4111 397.64
1826.12 -42.5632 404.974
1833.58 -42.4609 406.632
1795.8 -105.286 393.049
1814.22 -110.015 400.731
1823.7 -126.156 404.952
1824.54 -126.558 405.508
1827.97 -128.187 406.181
1837.6 -129.971 408.347
1846.9 -131.822 410.365
1840.92 -132.051 409.967
1842.48 -133.096 410.77
1832.67 -132.538 409.793
1936.04 100.644 428.47
1933.54 100.183 428.299
1921.6 98.0906 425.496
1911.24 96.6876 423.294
1921.38 97.7468 426.207
1915.46 74.6963 423.848
1912.51 73.3106 423.047
1908.37 71.4595 421.783
1903.68 70.2704 420.668
1900.93 69.5051 420.517
1902.72 68.8601 421.509
1908.18 68.7318 423.171
1869.45 10.9301 412.562
1865.01 10.9136 412.3
1855.77 11.4047 411.093
1805.79 6.85052 398.907
1804.22 4.93194 398.96
1803.62 3.77208 398.821
1802.93 2.68519 398.731
1802.41 1.51741 398.525
1801.9 0.888397 398.342
1790.92 -35.4237 396.429
1790.51 -36.5946 395.924
1825.68 -42.5166 403.727
1792.59 -104.238 393.018
1794.68 -105.759 393.042
1810.5 -110.142 400.206
1809 -110.692 400.613
1812.6 -112.092 401.414
1819.69 -113.935 402.401
1822.21 -115.282 402.831
1827.91 -128.629 405.059
1833.12 -128.901 407.614
1835.16 -130.009 408.437
1934.76 100.875 427.085
1933.05 100.522 427.011
1917.32 97.7925 423.26
1910.23 95.0819 421.496
1916.99 73.1612 422.067
1913.39 74.4246 422.067
1909.61 72.3893 420.956
1904.34 71.5121 419.584
1900.39 70.9736 419.474
1901.83 70.2742 420.316
1907.12 69.4045 421.503
1907.27 66.6119 423.079
1818.89 8.7787 401.211
1809.32 6.87714 398.46
1805.55 5.83576 398.141
1804.74 5.03707 397.904
1804.27 3.91964 397.832
1803.69 2.78003 397.851
1803.14 1.43012 397.804
1803.47 1.06267 397.1
1819.82 -42.5553 401.165
1823.88 -42.4952 402.228
1815.01 -104.533 397.798
1791.25 -103.8 392.062
1797.49 -106.049 394.22
1804.91 -107.095 398.371
1812.47 -108.916 399.703
1817.21 -110.212 401.016
1818.61 -111.379 401.427
1821 -112.69 401.87
1824.21 -114.046 402.401
1822.27 -125.102 403.168
1825.24 -126.027 404.035
1824.59 -126.507 405.34
1930.84 100.525 424.945
1925.11 99.4731 423.789
1919.2 98.2424 423.175
1916.29 74.4942 421.181
1913.64 76.0874 421.173
1910.21 73.9491 419.102
1905.33 72.719 418.565
1901.59 72.0871 418.493
1902.09 71.3625 419.038
1906.75 70.5655 420.348
1817.04 9.50201 399.105
1809.9 8.02432 397.31
1806.83 7.23599 397.23
1805.98 5.90492 397.193
1805.33 5.0001 397.01
1805.06 3.97479 396.841
1804.49 2.75729 396.824
1804.54 2.0274 396.287
1827.11 -42.3825 401.682
1824.48 -42.4278 401.131
1800.07 -103.829 394.72
1799.21 -104.232 395.063
1803.54 -104.928 396.682
1813 -106.747 398.398
1818.02 -107.95 399.894
1820.91 -109.124 400.839
1823.2 -110.415 401.357
1826.11 -111.906 401.71
1934.96 101.71 424.475
1929.49 100.632 423.419
1913.14 98.1736 419.647
1913.37 76.287 420.194
1910.46 75.3442 418.307
1905.32 73.8858 417.347
1903 73.1921 417.491
1903.61 72.5697 418.092
1907.56 71.9459 419.269
1821.55 13.3365 398.055
1821.31 12.9193 398.701
1819.58 11.8698 398.638
1813.47 10.5621 397.091
1809.67 9.19489 395.722
1807.83 8.32316 396.382
1807.22 6.98362 396.192
1806.76 6.01121 396.219
1806.34 4.9761 396.014
1806.54 4.08706 395.816
1804.94 2.48614 396.328
1806.2 1.91705 395.397
1830.03 -42.2328 401.017
1833.41 -42.241 401.9
1822.98 -42.355 399.638
1805.08 -102.952 395.328
1812.83 -104.386 397.153
1816.12 -105.483 398.441
1820.48 -106.712 399.819
1822.47 -107.828 400.473
1825.66 -109.215 401.231
1932.92 102.022 422.416
1934.2 101.995 423.171
1923.39 100.296 420.767
1910.15 97.7824 417.697
1920.15 99.4528 420.919
1912.2 78.0027 416.722
1912.72 77.6653 418.627
1910.98 76.5759 417.15
1905.25 75.1322 416.105
1903.09 74.5501 416.485
1904.84 73.8142 417.171
1908.86 73.0145 418.209
1818.4 14.4822 396.088
1813.38 13.3476 394.813
1812.09 12.444 394.402
1810.93 11.6207 394.595
1809.31 10.4411 394.755
1808.26 9.67425 395.425
1808.3 8.62365 395.689
1808.36 7.50986 395.849
1807.55 6.20804 395.1
1837.27 -42.1066 401.49
1836.4 -42.1032 401.401
1799.05 -100.774 391.593
1794.47 -100.4 391.47
1795.82 -101.072 392.476
1807.73 -102.754 395.399
1815.9 -104.214 397.378
1817.79 -105.249 398.223
1819.09 -106.315 398.718
1820.93 -107.344 400.122
1930.48 102.171 420.673
1933.61 102.327 421.973
1911.32 98.3435 416.949
1910.88 77.3638 416.075
1906.87 76.6033 415.369
1903.97 75.8303 415.364
1905.46 75.0247 416.217
1909.49 74.0454 417.084
1814.14 14.5703 394.048
1811.01 13.6266 393.433
1810.4 12.7317 393.789
1809.56 11.9045 394.11
1809.67 10.9198 394.675
1809.21 9.91609 395.181
1810.67 8.81026 395.509
1812.27 9.11627 397.115
1836.16 -42.0677 400.082
1836.9 -42.07 400.303
1826.9 -43.1301 398.104
1828.86 -96.9256 398.53
1792.91 -98.6638 389.063
1790.68 -99.5399 389.204
1788.73 -99.1318 388.337
1790.83 -100.496 390.034
1798.6 -102.305 392.28
1806.29 -102.828 395.255
1808.78 -103.933 396.135
1804.97 -104.25 395.686
1804.15 -104.671 396.008
1929.59 102.449 419.392
1930.34 102.385 420.079
1910.03 78.7006 414.695
1907.06 77.8352 414.279
1905.67 77.1312 414.551
1907.48 76.4506 415.48
1910.51 75.1326 416.066
1913.5 74.1701 416.586
1916.58 72.1633 416.485
1919.59 74.1504 419.351
1815.82 16.2017 394.055
1812.22 15.0713 393.14
1810.69 14.0764 393.07
1810.65 13.1758 393.541
1811.33 12.3147 394.264
1813.31 11.2107 394.898
1814.42 10.3404 395.707
1808.96 9.07336 395.28
1836.15 -41.9719 398.84
1838.21 -41.9439 399.395
1833.56 -42.4214 398.347
1815.48 -91.5752 390.979
1821.29 -93.039 394.102
1825.72 -94.4995 395.98
1827.59 -95.6608 397.176
1819.66 -96.7834 394.526
1795.15 -100.922 391.733
1788.43 -97.5607 389.599
1787.15 -97.8152 388.403
1785.72 -98.6989 387.219
1785.94 -99.9146 387.071
1788.08 -101.127 387.936
1791.15 -102.354 390.216
1792.14 -103.004 391.045
1790.3 -104.83 389.869
1789.84 -105.622 390.013
1922.25 102.034 415.98
1927.54 102.424 417.741
1934.05 103.368 419.989
1922.72 101.635 417.683
1925.75 101.631 418.779
1908.73 79.6565 413.033
1905.22 79.078 412.843
1906.79 78.4061 413.645
1908.31 77.7384 414.46
1912.06 76.6092 415.217
1914.36 75.182 415.254
1916.22 73.9418 415.578
1821.5 17.7522 393.443
1815.54 17.3921 392.98
1812.6 16.4929 392.586
1811.78 15.5944 392.967
1811.94 14.5948 393.238
1813.85 14.0091 394.19
1819.33 13.8866 396.655
1840.92 -41.9678 398.819
1839.69 -41.9914 398.49
1837.34 -41.9499 397.972
1826.18 -73.0876 393.259
1828.26 -74.1726 393.816
1819.56 -87.3667 392.325
1823.23 -88.5276 393.975
1825.07 -89.8192 394.661
1826.04 -91.037 395.356
1826.28 -92.0805 395.681
1826.49 -93.1883 396.044
1826.38 -94.2247 396.277
1824.58 -95.3939 395.638
1814.45 -96.5633 392.626
1794.13 -100.468 391.215
1789.37 -98.0801 389.164
1785.81 -97.9765 387.526
1784.07 -98.7756 386.516
1783.93 -99.8762 386.219
1784.45 -100.708 385.761
1784.28 -102.4 386.793
1784.28 -103.477 386.683
1787.25 -104.336 386.948
1789.71 -106.14 388.011
1791.38 -110.487 387.204
1922.73 102.228 415.044
1936.65 104.374 420.346
1925.74 101.997 417.573
1912.27 80.8016 412.293
1907 80.8292 411.336
1905.41 80.3006 411.689
1906.52 79.6739 412.406
1910.06 78.9308 413.341
1912.65 77.5823 413.902
1914.69 76.1646 413.866
1915.92 75.0445 414.217
1813.75 23.1155 391.134
1815.64 21.9001 390.893
1818.08 20.3416 391.011
1816.32 19.5097 391.44
1814.79 18.7928 391.865
1813.82 17.7825 392.382
1813.65 16.8006 392.585
1814.4 15.7438 392.764
1843.13 -42.2157 398.079
1840.69 -41.9989 397.593
1839.76 -42.0305 397.367
1826.34 -70.0702 393.065
1827.99 -71.2181 393.578
1830.37 -72.2185 394.075
1831.58 -73.4161 394.233
1830.5 -74.5094 394.035
1823.21 -75.279 391.896
1818.96 -83.7603 392.018
1824.61 -85.0562 393.629
1826.49 -86.3563 394.155
1827.88 -87.497 394.7
1827.11 -88.5152 394.835
1825.36 -89.6658 394.753
1825.28 -90.6801 395.076
1825.38 -91.7992 395.357
1824.9 -92.9433 395.35
1822.36 -94.0172 394.674
1819.62 -95.2168 393.155
1812.36 -96.3392 391.239
1790.75 -98.7271 389.124
1786.13 -98.6377 387.671
1783.59 -99.2315 386.606
1783.97 -100.288 386.26
1784.12 -101.314 386.495
1784.65 -102.401 386.574
1784.98 -103.492 386.362
1786.65 -104.395 385.888
1786.21 -105.991 386.166
1787.83 -107.076 386.728
1788.75 -108.361 387.221
1787.76 -109.383 386.517
1791.91 -111.587 386.684
1936.19 105.537 417.831
1906.34 82.0584 410.025
1903.51 81.5609 410.167
1907.29 80.8149 411.313
1910.54 79.8278 412.005
1913.23 78.5433 412.46
1914.79 77.0963 412.455
1916.1 76.014 412.824
1916.72 75.3062 413.272
1812.43 24.6219 391.182
1816.53 23.0373 390.194
1816.48 22.0683 390.547
1816.34 21.0656 390.83
1815.42 20.0049 391.306
1815.35 18.9932 391.642
1815.66 17.885 391.798
1818.54 17.3351 392.901
1842.53 -42.1472 396.78
1841.81 -42.0931 396.604
1842 -42.1065 396.629
1826.39 -66.7478 392.112
1829.76 -67.8319 393.213
1831.64 -69.0278 393.799
1831.62 -70.1914 393.889
1831.21 -71.2507 393.954
1831.06 -72.2922 394.127
1831.07 -73.4791 394.134
1830.86 -74.6596 394.089
1829.37 -75.759 393.762
1826.05 -76.7062 392.642
1825.18 -78.012 392.388
1825.09 -79.1554 392.43
1826.53 -80.3223 393.134
1827.21 -81.5465 393.347
1826.65 -82.7492 393.413
1827 -83.899 393.704
1830.31 -85.2294 394.276
1832.61 -86.5509 394.675
1829.88 -87.393 394.743
1819.87 -88.153 392.518
1817.32 -91.6281 392.107
1818.85 -92.8292 392.671
1816.21 -93.7985 391.478
1814.86 -94.7655 391.421
1813.32 -95.664 391.329
1792.19 -99.466 389.097
1783.12 -98.9085 386.898
1786.24 -100.798 386.489
1785.99 -101.343 385.818
1786.08 -102.515 385.643
1786.6 -103.601 385.207
1786.59 -104.756 385.151
1786.29 -105.898 385.19
1786 -107.111 385.257
1786.2 -108.307 385.13
1785.1 -109.49 385.16
1784.43 -110.134 384.689
1783.41 -111.322 384.425
1781.42 -113.221 384.982
1781.65 -113.449 384.209
1895.68 84.2488 406.704
1901.05 83.4303 408.154
1903.1 82.8239 409.022
1906.4 82.0871 409.961
1911.42 80.8484 410.86
1913.53 79.6315 411.099
1914.88 78.1074 411.108
1915.88 77.1267 411.394
1916.95 76.2977 411.982
1916.95 75.8792 412.512
1814.04 26.8797 390.723
1816.39 25.539 389.738
1817.28 24.4454 389.829
1817.25 23.3015 390.162
1816.44 22.2882 390.375
1816.6 21.2809 390.616
1817.04 20.1385 390.679
1817.98 19.4107 391.507
1837.66 -42.157 394.554
1842.47 -42.0192 395.596
1842.91 -42.0331 395.701
1842.32 -42.2059 395.004
1829.08 -63.4072 391.453
1831.26 -64.4358 392.336
1832.8 -65.6125 393.013
1832.13 -66.5473 393.353
1830.37 -67.5667 393.236
1829.61 -68.693 393.461
1827.97 -69.7308 393.51
1827.3 -70.9197 393.399
1826.36 -72.2383 393.206
1829.28 -73.4868 393.786
1830.03 -74.7061 393.915
1830.15 -75.886 393.909
1829.99 -77.1045 393.844
1829.98 -78.2477 394.063
1829.03 -79.2812 393.953
1825.92 -80.2454 392.755
1821.36 -81.1031 392.004
1820.98 -83.423 392.064
1834.32 -85.2641 394.983
1812.97 -92.4356 389.858
1813.58 -93.5403 390.44
1813.7 -94.513 390.536
1813.26 -95.2911 390.846
1810.85 -96.3419 390.228
1787.98 -102.586 384.249
1788.16 -103.806 383.986
1787.4 -104.847 384.338
1787.44 -105.889 384.255
1786.71 -107.269 384.374
1785.96 -108.555 384.454
1785.52 -109.815 384.365
1785.25 -110.396 383.973
1783.9 -111.687 383.873
1783.05 -113.312 383.122
1886.95 85.4767 404.033
1892 84.8085 405.411
1898.87 84.1672 407.165
1906.69 83.1812 408.768
1911.81 82.0282 409.637
1914.44 80.8624 410.137
1915.14 79.3722 409.973
1915.83 78.346 410.298
1916.43 77.2656 410.454
1917.13 76.33 410.818
1823.48 30.3024 390.387
1819.45 27.9204 389.454
1819.05 26.8173 389.355
1818.67 25.5793 389.37
1818.33 24.475 389.327
1818.17 23.2986 389.412
1817.73 22.2186 389.764
1818.49 21.2529 389.802
1822.46 20.2414 390.466
1844.13 -42.1442 394.756
1842.98 -41.8989 394.307
1841.59 -43.3757 394.092
1833.87 -61.146 391.409
1834.33 -62.2133 391.875
1834.77 -63.2716 392.351
1831.47 -64.138 392.26
1825.68 -64.9379 391.471
1821.48 -75.664 392.121
1826.14 -77.0763 392.625
1828.3 -78.3104 393.294
1826.65 -79.0841 392.849
1813.25 -92.4377 389.919
1812.95 -93.3325 390.074
1813.18 -94.0505 390.074
1813.13 -94.8164 390.446
1817.24 -96.0198 392.863
1794.62 -103.055 384.645
1790.1 -104.136 384.117
1788.57 -104.975 383.648
1787.99 -106.07 383.583
1787.44 -107.2 383.505
1786.76 -108.321 383.495
1786.75 -109.357 383.152
1786.88 -110.329 382.858
1785.59 -111.553 382.894
1784.45 -112.722 382.821
1888.04 86.6982 403.154
1890.96 86.1032 404.248
1895.04 85.3311 405.437
1904.59 84.5364 407.308
1912.42 83.3574 408.703
1915.01 81.8856 408.679
1915.56 80.7296 408.853
1916.04 79.7394 409.173
1916.47 78.3872 409.182
1916.71 77.4054 409.406
1916.96 77.0959 410.034
1824.47 30.5026 389.568
1822.16 28.9562 388.932
1820.95 27.7251 388.744
1819.81 26.7722 388.42
1819.52 25.5753 388.438
1819.17 24.4617 388.56
1819.23 23.4145 388.224
1819.65 22.2767 388.648
1826.31 21.5969 390.165
1842.84 -42.0439 393.343
1842.78 -42.3496 393.251
1841.33 -44.128 393.413
1835.18 -59.8337 391.103
1836.35 -60.9392 391.643
1833.37 -61.8271 391.595
1827.15 -62.5339 390.916
1822.9 -77.7782 391.999
1824.45 -79.0014 392.416
1794.29 -104.088 383.393
1790.63 -105.317 383.05
1788.84 -106.347 382.874
1788.58 -107.29 382.558
1788.18 -108.342 382.216
1788.24 -109.342 381.915
1788.02 -110.435 381.701
1787.55 -111.495 382.297
1789.8 -112.523 382.666
1889.53 88.0619 402.322
1894.18 87.3258 403.667
1898.56 86.5418 404.811
1904.68 85.6954 406.087
1911.98 84.3507 407.148
1915.04 83.1778 407.557
1916.04 82.0082 407.809
1916.43 80.9554 408.094
1916.73 79.7791 408.158
1916.98 78.4895 408.078
1824.96 31.5839 388.468
1823.18 30.0413 387.908
1822.12 28.7326 387.642
1821.09 27.9744 387.58
1820.5 26.6657 387.777
1820.4 25.6467 387.499
1820.37 24.5059 387.27
1821.09 23.3982 387.483
1827.32 22.7943 389.284
1843.05 -42.7634 392.583
1837.87 -58.445 391.22
1836.76 -59.4898 391.147
1829.96 -60.2376 390.394
1798.43 -103.303 382.574
1793.04 -105.501 382.722
1792.1 -106.404 382.198
1790.3 -107.414 381.897
1789.53 -108.439 381.677
1789.59 -109.496 381.286
1788.72 -110.531 381.318
1788.58 -111.527 381.728
1790.46 -112.745 381.568
1910.82 101.065 405.012
1910.3 101.693 403.938
1889.21 89.3725 401.166
1895.07 88.6172 402.779
1902.08 87.8269 404.16
1907.81 86.7223 405.235
1913.12 85.4803 406.039
1915.91 84.2079 406.296
1916.33 83.327 406.785
1916.85 82.2638 406.919
1916.98 80.9652 406.995
1917.16 79.763 406.989
1916.16 78.3111 406.679
1825.18 32.7623 387.303
1823.9 31.3399 386.92
1823.07 29.9318 386.796
1822.25 28.8442 386.609
1821.9 27.9408 386.688
1821.36 26.584 386.77
1821.83 25.6946 386.534
1823.58 24.7208 387.056
1828.21 25.3285 388.442
1843.48 -42.276 391.054
1842.79 -43.2409 391.257
1840.61 -57.0436 391.512
1839.57 -58.011 391.603
1837.43 -59.1 391.058
1795.4 -107.789 382.409
1789.26 -109.647 381.283
1789.41 -110.785 381.027
1790.13 -111.755 381.274
1911.89 102.207 403.918
1911.54 101.775 404.372
1910.89 101.224 404.711
1909.52 98.898 401.975
1888.14 91.9032 398.749
1887.88 90.5573 399.872
1896.48 89.8723 401.83
1902.49 88.9835 403.017
1909.4 87.7899 404.163
1914.44 86.5204 404.839
1916.2 85.7513 405.464
1916.79 84.5116 405.58
1917.2 83.4704 405.801
1917.4 82.2644 405.801
1917.51 81.0257 405.781
1916.39 80.0316 405.742
1825.86 34.8176 386.238
1825.38 33.7133 386.096
1824.74 32.4316 385.95
1823.92 31.078 385.826
1823.48 30.0495 385.698
1822.96 28.9306 385.77
1822.86 27.9708 385.875
1822.7 26.8442 385.705
1825.8 25.6961 386.09
1829.4 26.1078 387.192
1844.33 -42.4 389.654
1842.66 -46.2417 388.726
1837.41 -50.3163 385.638
1787.93 -110.8 381.68
1789.22 -111.86 380.894
1913.71 105.816 402.241
1912.87 102.732 403.332
1912.1 102.848 403.104
1912.68 101.746 402.297
1906.84 99.0244 401.047
1898.2 93.7499 399.406
1892.59 92.7151 399.034
1891.79 91.9549 399.464
1895.86 91.2735 400.698
1904.16 90.3636 402.393
1910.29 89.0743 403.031
1914.62 87.868 403.772
1916.86 86.8722 404.164
1917.13 85.7588 404.476
1917.42 84.7038 404.707
1917.69 83.4858 404.755
1917.89 82.2662 404.702
1917.9 81.0653 404.631
1826.84 36.3837 385.133
1826.04 34.6291 385.037
1825.52 33.577 384.957
1824.97 32.4929 384.915
1824.24 31.0338 384.763
1824.09 30.0231 384.971
1823.93 29.0804 385.08
1824.05 27.9916 384.653
1825.6 26.7862 384.75
1831.54 25.9977 386.298
1830.33 25.3863 386.364
1843.93 -45.5144 387.615
1842.29 -47.3026 387.906
1840.03 -49.345 387.798
1840.13 -50.3562 388.085
1939.47 110.68 408.073
1935.69 109.832 407.617
1930.67 108.923 407.533
1913.74 105.531 402.073
1913.5 104.224 401.93
1913.74 102.675 401.662
1903.5 98.9818 399.168
1896.22 95.1019 398.2
1897.58 94.1579 398.862
1896.19 93.3817 399.217
1899.49 92.6128 400.302
1905 91.7286 401.73
1912.15 90.3041 402.135
1915.97 89.1849 402.913
1917.4 88.239 403.286
1917.5 86.9951 403.359
1917.63 85.8423 403.508
1918 84.6891 403.56
1918.14 83.4902 403.58
1918.35 82.3311 403.52
1917.25 80.9819 403.409
1827.49 37.255 384.159
1826.77 35.8785 384.141
1826.29 34.7174 384.085
1825.83 33.5554 383.96
1825.49 32.4892 384.006
1825 31.192 383.956
1825.13 30.2043 384.187
1826.09 29.1986 383.885
1827.79 27.9035 383.826
1831.91 26.4918 384.656
1831.24 26.5905 385.345
1846.66 -41.302 388.033
1845.66 -42.7653 387.501
1843.69 -45.5386 387.43
1842.53 -46.6436 387.257
1841.26 -46.7444 386.901
1839.75 -48.1444 387.61
1839.02 -50.1929 387.178
1938.29 111.058 406.084
1936.13 111.005 406.357
1934.58 110.095 406.501
1914.18 105.426 401.224
1914.15 104.18 400.993
1914.61 102.197 400.913
1894.61 97.2973 396.415
1882.3 95.0604 393.72
1890.86 95.2413 396.615
1898.15 94.7063 398.641
1902.4 94.1061 400.356
1908.03 93.0502 401.366
1913.45 91.6633 401.295
1917.12 90.449 401.708
1918.03 89.6304 402.29
1918.01 88.2738 402.313
1918.03 87.1063 402.417
1918.22 85.9974 402.547
1918.51 84.7864 402.464
1918.84 83.5856 402.468
1919.07 82.4157 402.538
1902.86 67.9618 395.945
1828.6 38.7194 382.952
1827.71 37.0517 383.164
1827.26 35.7904 383.144
1826.81 34.7254 383.138
1826.44 33.5433 383.128
1826.31 32.5287 383.139
1826.29 31.506 383.192
1827.54 30.3202 383.087
1833.01 27.419 383.294
1833.22 27.4616 384.628
1825.13 25.5431 383.453
1846.85 -40.2055 386.798
1845.61 -41.7505 386.488
1845.59 -42.4663 386.58
1845.5 -44.4188 387.171
1843.75 -45.3807 386.952
1842.44 -46.4927 386.825
1836.67 -49.6317 384.417
1836.82 -48.9456 385.268
1930.92 114.145 403.271
1934.65 111.163 404.975
1933.48 112.832 403.353
1933.49 111.84 401.71
1914.79 104.913 400.598
1912.48 104.247 400.469
1909.08 103.085 399.963
1903.93 100.776 398.178
1892.3 98.5069 394.862
1889.91 97.2799 394.802
1885.82 96.1531 394.209
1887.96 95.7054 395.459
1899.61 95.3081 398.757
1915.25 92.7384 400.381
1918.11 91.9001 400.975
1918.74 90.8959 401.264
1918.55 89.6266 401.268
1918.52 88.3005 401.308
1918.58 87.1393 401.311
1918.72 86.0582 401.362
1919.17 84.8191 401.442
1919.3 83.7021 401.537
1919.67 82.5775 401.632
1901.49 72.0108 394.834
1903.47 71.1165 395.348
1905.2 69.8512 396.423
1903 69.0312 396.002
1901.45 68.3856 395.626
1902.94 67.0041 396.12
1830.08 40.8546 382.359
1829.27 39.511 382.286
1828.87 38.3151 382.18
1828.27 37.0315 382.235
1827.78 35.7732 382.18
1827.59 34.7873 382.239
1827.45 33.8067 382.25
1828.15 32.6571 382.14
1828.84 31.5351 382.19
1830.89 29.9844 381.996
1833.81 28.5253 382.261
1835.32 28.1259 383.319
1830.53 27.2416 382.702
1846.08 -40.3437 385.336
1845.37 -41.3886 385.754
1845.19 -42.5491 385.653
1844.44 -43.5233 385.275
1844.38 -44.1889 386.072
1844.52 -45.0016 386.8
1836.96 -46.7509 383.863
1933.04 113.1 403.488
1915.73 106.98 399.212
1910.87 105.239 398.932
1905.35 103.166 397.299
1893.01 99.7854 394.096
1886.59 98.1834 392.808
1886.16 97.4728 393.257
1887.52 96.9643 394.233
1892.6 96.4822 396.082
1906.27 95.7028 399.548
1915.69 94.0291 399.265
1918.52 93.0601 399.691
1918.82 92.096 399.969
1918.9 90.8061 400.137
1918.97 89.5902 400.147
1918.97 88.389 400.224
1919.18 87.2278 400.185
1919.43 86.0896 400.295
1920.03 84.7377 400.272
1919.82 83.9169 400.755
1897.29 73.3636 393.257
1898.99 72.4379 394.004
1902.79 71.368 395.238
1907.08 70.1623 396.58
1905.81 69.4676 396.81
1901.68 68.4116 395.763
1901.14 67.1513 395.92
1897.76 65.8197 394.286
1832.81 43.2354 381.9
1830.9 41.7577 381.441
1830.42 40.6925 381.308
1829.68 39.4281 381.278
1829.28 38.1566 381.283
1828.94 37.0744 381.297
1828.83 35.9351 381.246
1828.66 34.9229 381.278
1829.18 33.8335 381.139
1830.02 32.6384 381.059
1830.76 31.4646 381.073
1832.57 30.1109 381.295
1834.52 29.1879 381.947
1834.03 28.4492 382.302
1830.08 27.5112 381.772
1828.12 27.9795 382.259
1827.31 27.6765 381.916
1847.43 -39.3258 384.125
1844.75 -39.8253 384.59
1844.86 -41.0498 384.525
1849.38 -42.4596 387.611
1935.25 111.88 403.146
1933.41 112.482 402.232
1934.14 112.221 402.438
1914.25 106.996 397.813
1912.22 106.603 398.125
1905.45 104.12 395.727
1896.92 102.379 393.79
1891.34 100.756 392.407
1888.07 99.5352 392.03
1886.44 98.7088 392.198
1885.76 97.9945 392.593
1888.61 97.6353 394.037
1902.49 97.2673 398.568
1915.87 95.1767 398.123
1919.22 94.449 398.787
1919.83 93.3883 399.151
1919.55 92.0235 399.058
1919.42 90.8052 398.985
1919.36 89.6228 398.991
1919.45 88.4499 399.072
1919.63 87.2707 399.174
1920.25 86.1232 399.137
1921.25 84.7023 399.15
1922.07 83.7814 399.583
1896.95 73.7777 393.018
1899.16 72.824 393.893
1908.17 71.2157 395.394
1913.92 72.4935 396.901
1911.97 71.4906 396.004
1902.74 68.6734 395.933
1900.08 67.3476 395.573
1896.86 66.0841 394.937
1835.53 47.153 381.103
1833.43 43.9917 380.793
1831.72 42.5746 380.495
1831.26 41.6415 380.338
1830.84 40.5064 380.292
1830.37 39.4385 380.289
1830.06 38.2805 380.389
1829.95 37.1012 380.39
1829.92 36.0723 380.397
1830.29 35.0177 380.229
1830.67 33.9084 380.41
1830.97 32.8292 380.489
1832.13 31.6402 380.5
1833.6 30.5151 380.825
1833.83 29.6632 381.354
1832.01 28.9274 381.435
1829.56 27.599 381.221
1829.4 27.2532 381.441
1828.28 27.5949 381.474
1853.66 -36.3776 382.654
1851.38 -37.1874 383.066
1847.14 -37.9217 383.269
1845.69 -38.782 383.223
1845.28 -39.4715 384.21
1850.62 -41.9004 385.182
1834.66 -45.892 382.247
1938.25 110.595 403.175
1933.08 112.541 401.067
1937.13 110.975 402.322
1912.15 106.734 396.098
1906.55 105.781 395.208
1896.65 103.737 392.798
1888.16 101.273 390.279
1886.35 100.563 390.435
1886.78 100.039 391.14
1888.71 99.3941 392.201
1887.84 98.6914 392.64
1894.51 98.4339 394.934
1913.75 96.92 397.139
1920.12 95.7913 397.938
1920.3 94.6882 398.109
1919.94 93.2927 397.905
1919.77 92.0154 397.878
1919.66 90.7995 397.811
1919.72 89.6147 397.84
1919.84 88.5278 397.902
1920.26 87.2492 397.942
1921.4 85.9054 398.032
1924.64 83.8151 397.701
1897.84 74.2377 393.04
1900.34 73.3117 393.969
1909.33 71.7368 394.847
1913.47 71.5779 396.115
1912.76 70.4727 396.527
1903.81 69.1908 395.988
1902.77 67.9421 396.175
1904.13 67.2773 396.994
1836.79 46.4076 380.247
1833.92 44.676 379.591
1832.98 43.8378 379.47
1832.09 42.5997 379.383
1831.63 41.5673 379.301
1831.29 40.5506 379.283
1831.23 39.6422 379.099
1831.36 38.4308 379.008
1831.21 37.1855 379.322
1831.62 36.1403 379.533
1831.79 35.0792 379.604
1832.11 34.0354 379.621
1831.82 32.8859 379.932
1833.46 31.8669 380.083
1836.63 30.9883 381.047
1831.73 29.8573 380.778
1854.56 -34.0509 381.715
1849.75 -34.6886 381.82
1847.07 -35.4754 381.864
1847.1 -36.507 382.287
1847.04 -37.4423 382.814
1847.61 -38.476 383.268
1847.6 -39.2004 383.696
1900.14 -48.2434 390.295
1928.56 116.644 397.19
1932.74 112.783 399.647
1935.71 111.418 400.912
1906.26 106.873 393.878
1898.14 105.112 392.024
1890.02 102.655 389.726
1885.64 101.476 388.948
1884.45 100.96 389.357
1882.48 100.166 389.475
1883.95 99.6606 390.296
1920.79 95.7951 396.961
1920.45 94.597 396.853
1920.13 93.1983 396.672
1920.03 92.0503 396.692
1919.91 90.8372 396.738
1920.05 89.6102 396.718
1920.43 88.5525 396.854
1920.82 87.1889 396.777
1922.5 85.6291 396.784
1893.59 75.0507 390.682
1896.46 74.2976 391.878
1901.78 73.8193 393.799
1906.17 72.687 394.313
1908.84 71.6205 394.517
1908.25 71.2076 395.151
1900.96 69.5234 395.389
1840.06 48.6778 379.495
1836.08 47.0954 378.641
1835.03 46.2776 378.734
1833.76 44.9187 378.716
1833.35 43.9298 378.521
1832.65 42.628 378.48
1832.35 41.6991 378.226
1832.41 41.0641 377.953
1842.19 35.2334 380.327
1835.84 34.1287 379.722
1834.46 33.0738 379.128
1835.29 32.1571 379.736
1829.51 29.1063 381.055
1852.9 -31.6585 380.625
1851.6 -32.326 381.106
1848.23 -33.2383 380.82
1847.3 -34.162 381.299
1847.7 -35.1766 381.611
1847.72 -36.1657 382.063
1850.47 -37.4184 382.806
1856.19 -38.4912 384.112
1900.47 -45.7239 389.691
1922.9 124.868 392.196
1920.1 122.54 391.709
1926.07 116.988 396.273
1930.46 113.431 398.691
1935.09 111.514 399.489
1907.73 109.052 392.61
1905.79 107.977 392.486
1898.5 106.277 390.759
1892.28 104.765 389.549
1889.51 103.49 389.065
1887.37 102.254 388.768
1921.26 97.0116 395.796
1920.94 95.7761 395.675
1920.55 94.4116 395.55
1920.41 93.2336 395.545
1920.31 92.0882 395.574
1920.12 90.9031 395.528
1920.38 89.6455 395.506
1920.82 88.4638 395.576
1921.25 86.867 395.606
1922.57 86.4052 396.026
1921.39 86.0945 396.19
1905.42 75.0527 393.21
1905.5 74.061 394.045
1913.89 71.018 395.517
1915.02 74.3477 393.183
1913.16 71.1453 396.196
1843.08 50.6775 377.794
1837.93 49.3192 377.223
1836.42 48.3525 377.764
1835.3 47.4717 377.849
1835.05 46.2108 377.557
1834.45 45.1691 377.568
1834.05 44.1711 377.425
1833.53 42.8184 377.501
1851.42 -28.2383 378.692
1849.58 -28.9289 379.299
1849.05 -29.964 379.494
1849.44 -30.8762 379.977
1848.7 -31.8758 380.375
1848.14 -32.8165 380.76
1847.98 -33.8441 381.132
1849.91 -34.8859 381.75
1853.18 -36.1149 382.41
1885.78 -40.683 388.205
1899.58 -42.9715 389.723
1900.44 -44.2219 389.48
1926.71 127.135 393.497
1923.79 125.365 392.73
1923.07 124.06 392.531
1927.33 114.16 396.707
1909.88 111.295 391.41
1898.7 109.323 388.646
1896.58 108.262 388.761
1897.9 107.445 389.494
1895.57 106.584 389.66
1891.72 105.261 388.797
1892.47 104.652 389.421
1888.25 103.056 388.43
1921.8 98.1308 394.615
1921.42 97.1333 394.655
1921.04 95.7678 394.569
1920.73 94.476 394.425
1920.65 93.2889 394.334
1920.6 92.1159 394.427
1920.49 90.9001 394.327
1920.93 89.5728 394.292
1920.96 88.4915 394.391
1921.24 87.6804 394.663
1843.91 53.1172 376.815
1839.63 51.8833 376.628
1837.09 49.4797 376.59
1836.41 48.3627 376.577
1835.94 47.672 377.001
1835.84 46.4199 376.775
1835.74 45.6555 376.376
1835.63 45.2611 376.081
1833.77 42.4611 377.191
1849.79 -26.277 378.63
1849.8 -27.4652 378.766
1849.48 -28.4825 379.113
1849.09 -29.5284 379.35
1849.52 -30.5123 379.827
1850.05 -31.6391 380.226
1850.99 -32.5861 380.739
1853.93 -33.721 381.415
1885.8 -38.5122 386.683
1889.44 -40.4051 388.175
1900.79 -43.8461 389.129
1930.62 128.789 393.992
1923.46 127.963 393.751
1925.51 126.677 393.413
1921.62 117.401 393.127
1918.13 113.534 392.014
1906.87 112.028 388.967
1897.04 110.732 387.468
1896.12 109.77 387.743
1896.63 108.816 388.248
1898.42 108.089 389.248
1898.26 107.132 389.604
1895.95 106.335 389.807
1890.81 104.935 388.69
1922.58 100.019 393.383
1922.4 99.6557 393.67
1922.07 98.4415 393.59
1921.58 97.0328 393.392
1921.28 95.6825 393.31
1921.1 94.4734 393.242
1920.94 93.2957 393.247
1920.92 92.1656 393.366
1920.96 90.9013 393.226
1921.53 89.7636 393.339
1921.07 88.6511 393.521
1844.96 55.5045 376.164
1840.85 54.3184 375.541
1838.93 53.0952 375.388
1838.28 52.0374 375.557
1837.97 50.6899 375.938
1837.08 49.767 375.489
1837.16 48.85 376.499
1836.89 47.6572 376.223
1837.39 46.481 375.823
1837.57 47.28 378.54
1836.04 43.0342 375.569
1850.26 -23.8924 377.951
1850.27 -24.9662 378.041
1850.08 -25.9565 378.321
1850.21 -27.0896 378.545
1849.97 -28.098 378.866
1850.38 -29.1838 379.269
1853.45 -30.4376 379.658
1857.62 -31.9289 379.827
1889.52 -37.4533 386.095
1921.96 148.033 392.774
1925.58 146.85 393.725
1927.38 129.609 393.376
1929.1 128.921 394.119
1910.05 115.77 387.478
1910.61 115.191 388.011
1909.28 114.507 388.134
1903.43 113.52 387.777
1893.24 111.989 385.886
1891.75 110.697 385.535
1894.94 110.085 387.06
1898.09 109.352 388.203
1904.04 109.303 390.222
1907.27 109.326 391.531
1891.04 104.715 388.972
1923.44 100.94 392.617
1922.63 99.7634 392.507
1922 98.0704 392.207
1921.68 97.0042 392.199
1921.42 95.5906 392.096
1921.3 94.5 392.206
1921.41 93.4282 392.128
1921.46 92.2472 392.18
1921.92 90.9752 392.138
1922.2 89.9103 392.341
1922.16 88.9447 392.877
1896.31 82.0372 386.135
1890.47 80.9784 385.446
1859.36 59.9391 376.337
1850.04 59.3108 376.226
1842.97 57.7911 374.441
1841.18 56.6799 374.669
1840.27 55.7083 374.772
1839.9 54.7045 375.11
1839.77 53.756 375.454
1839.01 52.754 375.577
1838.19 50.0842 376.165
1850.4 -21.3669 377.436
1850.83 -22.5964 377.136
1850.77 -23.7308 377.332
1850.78 -24.7455 377.561
1850.84 -25.8162 377.731
1851.72 -27.0141 377.787
1853.6 -28.2233 378.084
1894.22 -36.3594 385.777
1885.27 -36.3309 385.468
1907.35 155.202 388.834
1919.28 148.97 391.009
1920.94 147.871 391.399
1923.66 146.632 392.046
1928.37 145.413 393.222
1930.72 130.765 392.558
1928.06 130.187 392.855
1906.34 116.811 386.37
1903.37 115.659 386.202
1898.36 114.471 385.596
1895.57 113.494 385.61
1895.33 112.503 385.995
1895.12 111.588 386.598
1897.69 110.802 387.403
1903.02 110.342 389.006
1909.43 110.899 391.307
1934.43 109.395 392.352
1931.01 104.5 392.527
1924.31 103.036 391.47
1923.59 101.49 391.119
1923.12 100.737 391.304
1922.53 99.5267 391.2
1922.09 98.0916 391.02
1921.85 96.963 390.919
1921.63 95.7083 390.961
1921.73 94.5361 390.972
1921.94 93.4488 391.03
1922.18 92.1952 390.988
1923.23 90.992 391.028
1924.86 89.4796 391.103
1894.43 85.315 386.287
1897.6 82.7171 385.92
1853.11 62.507 374.82
1849.31 61.6493 375.113
1843.42 60.1186 373.741
1841.49 59.263 373.903
1840.81 58.1774 374.144
1840.76 57.1769 374.407
1843.36 56.2253 375.231
1846.76 55.3996 376.532
1845.55 54.4752 376.747
1842.71 53.3017 376.418
1851.82 -17.9333 375.785
1851.43 -19.0973 376.128
1851.79 -20.2419 375.856
1851.71 -21.3989 376.116
1851.53 -22.5434 376.462
1851.75 -23.6614 376.569
1851.64 -24.5829 376.982
1852.71 -25.7234 377.124
1857.34 -27.1066 377.644
1886.12 -31.9389 382.274
1895.85 -33.331 384.447
1901.63 -34.6705 385.429
1908.03 -34.1364 383.866
1912.2 -34.6963 384.713
1902.59 156.096 386.488
1905.18 155.07 387.08
1908.76 153.919 387.951
1918.04 149.648 389.936
1918.75 148.753 389.831
1919.87 147.675 390.12
1921.87 146.447 390.612
1925.13 145.276 391.363
1929.41 144.185 392.394
1931.5 132.107 391.325
1928.5 131.311 391.508
1892.66 117.37 382.564
1897.5 116.559 383.987
1897.5 115.824 384.569
1897.48 114.968 385.107
1900.17 114.114 386.057
1904.34 113.554 387.635
1904.07 112.591 387.87
1905.4 111.801 388.693
1927.22 107.146 389.427
1934.04 111.587 392.29
1932.66 105.316 392.571
1925.3 103.596 390.728
1923.87 102.138 390.326
1923.03 100.736 390.003
1922.47 99.3875 389.808
1922.24 98.1352 389.826
1921.93 97.0006 389.794
1922.03 95.8173 389.745
1922.27 94.6695 389.94
1922.55 93.4905 389.96
1923.24 92.4175 390.133
1925.83 90.063 389.336
1900.33 84.7169 384.589
1896.98 83.9587 384.67
1848.52 64.781 373.329
1847.85 63.7262 373.577
1844.87 62.6301 372.915
1842.99 61.5406 372.909
1842.2 60.6214 373.348
1841.2 59.6332 373.741
1842.6 58.5985 374.128
1847.8 57.8384 375.855
1853.03 -17.014 374.35
1852.62 -17.9215 374.868
1852.36 -19.0914 375.162
1852.54 -20.1955 375.14
1852.7 -21.3241 375.444
1852.56 -22.4567 375.734
1854.06 -23.603 375.924
1856.54 -24.9262 376.058
1892.86 -30.9456 382.63
1901.19 -32.1427 384.589
1906.8 -33.1663 383.405
1911.64 -33.1572 385.39
1919.66 -34.9134 387.646
1903.07 154.983 385.318
1906.5 153.798 386.202
1910.18 152.646 387.181
1915.93 150.446 388.593
1917.42 149.379 388.916
1918.36 148.431 388.928
1918.95 147.484 388.817
1920.53 146.326 389.167
1921.8 145.192 389.432
1924.15 144.219 389.684
1928.68 142.87 391.39
1932.31 133.75 390.419
1932.21 132.768 391.05
1934.15 131.891 391.823
1922.37 128.92 388.296
1888.91 117.691 381.584
1891 116.904 382.507
1897.85 116.285 384.197
1904.62 115.767 386.197
1910.77 115.164 387.428
1915.2 114.969 388.608
1914.42 114.61 388.754
1925.25 111.56 389.265
1933.02 107.367 390.87
1929.89 106.147 390.466
1925.89 104.75 389.626
1924.33 103.182 389.094
1923.61 101.942 388.883
1922.98 100.744 388.808
1922.57 99.4313 388.614
1922.31 98.1688 388.592
1922.29 97.0438 388.639
1922.47 95.8781 388.705
1922.76 94.621 388.733
1923.25 93.431 388.707
1924.29 92.2945 388.995
1898.1 87.0208 384.494
1847.37 73.6297 372.016
1852.38 68.0314 374.604
1846.56 65.957 371.894
1845.15 64.9038 371.891
1844.03 63.8669 372.056
1843.5 62.9052 372.41
1842.57 62.0161 372.683
1843.23 60.9798 373.289
1847.2 60.2107 374.683
1858.86 59.2465 376.563
1853.71 -13.2915 374.149
1853.46 -14.4018 374.016
1853.23 -15.5975 374.127
1853.38 -16.8019 374.085
1853.11 -17.8764 374.27
1853.33 -19.0799 374.23
1853.77 -20.1991 374.562
1854.94 -21.356 374.862
1859.18 -22.7652 375.134
1863.7 -24.0104 375.945
1880.2 -26.3839 379.524
1888.41 -28.0961 380.857
1895.53 -29.9677 381.991
1902.03 -31.0792 383.603
1910.75 -32.7433 385.384
1914.86 -34.054 386.336
1919.95 -35.7013 387.887
1926.31 -43.8295 388.193
1901.69 154.843 383.861
1904.21 153.725 384.483
1907.78 152.541 385.512
1911.71 151.353 386.579
1914.6 150.28 387.305
1915.73 149.413 387.305
1916.73 148.37 387.287
1917.6 147.366 387.404
1918.99 146.117 387.913
1919.36 145.109 387.666
1919.9 144.077 387.361
1921.71 143.009 387.885
1925 141.778 389.052
1930.02 140.757 390.513
1934.87 139.739 391.83
1935.89 137.747 391.164
1930.28 136.308 389.157
1928.57 134.747 388.54
1931.3 133.996 389.694
1906.73 121.692 383.22
1895.09 120.147 381.347
1889.44 119.099 380.832
1886.33 117.978 380.7
1890.21 117.329 382.082
1906.01 117.289 385.595
1914.89 116.884 386.861
1921.02 115.745 387.777
1924.27 113.979 387.939
1926.32 112.277 388.785
1927.23 109.131 388.033
1929.34 107.471 389.292
1926.05 105.76 388.175
1924.78 104.512 388.004
1924.01 103.089 387.66
1923.28 101.795 387.584
1922.96 100.659 387.5
1922.66 99.4663 387.443
1922.55 98.2652 387.456
1922.64 97.0639 387.558
1922.95 95.889 387.514
1923.36 94.6399 387.527
1924.82 93.1828 387.533
1925.44 92.1712 387.798
1899.52 87.0274 383.586
1848.86 73.5973 370.98
1848.3 72.4744 371.122
1850.93 71.2108 372.08
1850.62 70.0907 372.376
1848.89 68.8331 371.414
1846.74 67.5132 371.383
1845.3 66.4645 371.487
1844.77 65.3981 371.775
1844.31 64.3425 372.037
1844.53 63.4768 372.409
1847.17 62.6594 373.343
1861.56 61.8044 375.966
1854.54 -9.84857 372.785
1854.99 -11.3561 371.825
1854.44 -12.0748 372.666
1854.14 -13.3113 373.198
1854.12 -14.3951 373.175
1853.78 -15.5457 373.475
1854.03 -16.7407 373.412
1854.16 -17.7319 373.663
1855.43 -19.0087 373.575
1859.1 -20.296 374.109
1863.1 -21.5037 374.892
1885.73 -25.7557 378.799
1890.24 -27.3661 379.693
1893.76 -28.445 380.665
1899.7 -29.9801 381.69
1905.94 -31.453 382.734
1910.16 -31.7823 384.733
1911.7 -33.1123 385.059
1912.85 -34.3417 385.103
1914.42 -35.1286 384.921
1919.29 -36.8772 386.56
1915.68 -36.8424 384.513
1920.89 -39.2051 386.51
1921.87 -41.4487 386.332
1926.6 -44.4953 389.412
1924.7 -44.2066 387.594
1921.64 -45.4039 384.75
1924.88 -46.1912 386.508
1918.59 -46.7632 387.095
1918.63 -48.8815 386.536
1902.48 153.603 382.929
1905.27 152.379 383.687
1908.77 151.193 384.616
1911.37 150.242 385.205
1912.85 149.309 385.243
1914.04 148.337 385.299
1915.73 147.274 385.835
1917.06 146.118 386.347
1917.85 144.919 386.456
1917.75 143.877 385.963
1917.14 142.716 385.279
1917.3 141.827 384.58
1920 140.759 385.522
1925.09 139.481 387.529
1930.27 138.501 389.391
1927.64 137.183 388.071
1924.84 136.089 386.349
1926.51 134.786 387.207
1934.94 134.391 390.533
1934.29 132.542 391.489
1904.11 122.831 381.637
1900.72 121.878 381.61
1896.48 120.846 381.377
1894.18 119.879 381.484
1892.48 118.891 381.64
1903.78 118.579 384.324
1916.3 118.126 386.049
1920.77 116.795 386.587
1925.5 114.132 385.231
1928.6 108.571 387.814
1927.06 107.57 387.578
1925.25 105.727 386.914
1924.55 104.312 386.549
1923.76 103.054 386.343
1923.29 101.823 386.291
1922.93 100.65 386.332
1922.92 99.4916 386.306
1922.91 98.3481 386.45
1923.09 97.1182 386.34
1923.62 95.9108 386.412
1924.07 94.5521 386.413
1924.51 93.5051 386.606
1899.52 91.3921 383.246
1897.66 89.0021 382.626
1847.92 75.4252 372.348
1848.78 74.7898 371
1848.78 73.6022 371.105
1848.18 72.4024 371.061
1847.79 71.2021 370.973
1847.89 69.7748 371.169
1846.64 68.9618 371.154
1846.62 67.8524 371.206
1846.06 66.7763 371.376
1845.52 65.683 371.728
1849.1 65.3181 373.04
1855.19 -8.61795 372.08
1854.86 -9.78913 372.156
1854.83 -10.9985 371.968
1854.81 -12.1066 372.156
1854.63 -13.3391 372.364
1854.78 -14.3721 372.308
1854.59 -15.5197 372.587
1855.32 -16.6585 372.57
1858.55 -17.8775 373.071
1872.81 -20.7188 375.192
1878.87 -21.9219 376.529
1886.33 -23.5946 377.504
1888.42 -24.9756 377.63
1887.87 -25.6262 378.387
1895.01 -27.6625 379.35
1897.54 -28.688 380.124
1902.74 -29.9165 381.3
1907.36 -31.2246 381.979
1911.1 -33.9346 384.925
1916.26 -35.1745 386.191
1918 -36.4022 386.021
1919.3 -37.5036 386.221
1913.65 -37.1842 383.303
1913.18 -37.4636 382.736
1921.23 -41.6588 385.502
1922.67 -43.1617 386.178
1922.3 -44.0697 385.823
1921.27 -45.2869 384.611
1920.95 -46.3171 384.866
1920.52 -47.621 385.038
1920.34 -48.806 384.884
1901.63 153.424 381.651
1903.39 152.261 382.02
1905.24 151.223 382.375
1907.17 150.264 382.646
1909.69 149.161 383.297
1911.14 148.142 383.503
1913.07 147.108 384.012
1914.67 145.946 384.623
1915.68 144.744 384.949
1915.93 143.584 384.744
1914.46 142.512 383.431
1912.6 141.49 381.944
1913.25 140.655 381.971
1916.99 139.741 383.216
1923.3 137.988 385.999
1923.02 137.214 385.299
1923.15 136.166 384.888
1926.98 134.786 386.735
1914.26 125.796 381.829
1907.17 124.426 381.021
1903.08 123.276 380.968
1903.27 122.507 381.665
1901.95 121.686 381.969
1904.36 120.824 382.943
1910.7 120.156 384.336
1917.54 118.793 384.715
1920.32 117.593 384.98
1921.91 116.561 385.36
1930.48 110.305 386.416
1926.88 108.901 385.63
1926.65 108.091 385.861
1926.07 106.947 385.769
1924.87 105.606 385.45
1924.16 104.373 385.389
1923.62 103.046 385.082
1923.36 101.984 385.117
1923.2 100.698 385.168
1923.2 99.5378 385.211
1923.37 98.3218 385.179
1923.71 97.0735 385.153
1924.35 95.8248 385.313
1924.2 95.1956 385.793
1899.21 92.5065 381.857
1854.14 79.2433 368.411
1851.25 77.925 370.484
1850.65 76.5752 370.2
1849.62 75.893 370.318
1849.41 74.7895 370.296
1849.03 73.5896 370.535
1848.67 72.3189 370.778
1848.79 70.9782 370.075
1848.58 69.9813 370.663
1848.15 68.9721 370.85
1848.2 68.0453 371.121
1850.88 67.4657 372.439
1855.57 -2.92338 369.931
1855.76 -3.80373 370.529
1855.49 -5.0752 370.801
1855.44 -6.31262 371.383
1855.63 -7.41366 370.846
1855.42 -8.57658 371.081
1855.38 -9.78902 371.056
1855.51 -10.9774 371.143
1855.42 -12.0973 371.162
1855.76 -13.2611 371.456
1856.55 -14.3595 371.461
1857.5 -15.439 371.853
1861.82 -16.6399 372.599
1877.67 -19.4305 375.144
1884.55 -21.3716 375.685
1887.84 -22.5074 376.448
1890.01 -24.026 376.752
1891.16 -25.3595 377.051
1883.92 -24.3928 377.853
1898.58 -28.007 378.856
1900.33 -28.6425 379.585
1902.98 -29.4347 380.37
1899.41 -29.2365 380.527
1909.13 -33.3154 382.266
1918.32 -38.3652 384.247
1913.89 -37.8892 382.298
1913.76 -38.3737 383.048
1919.89 -41.3185 383.546
1920.47 -42.8628 384.137
1920.73 -43.8385 383.935
1921.31 -45.0807 384.088
1921.57 -46.4948 384.281
1921.52 -47.5976 384.255
1921.47 -48.8774 384.203
1921.84 -49.7781 383.668
1901.89 152.194 380.495
1903 151.204 380.595
1904.43 150.143 380.717
1906.67 148.97 381.341
1908.61 147.907 381.855
1910.5 146.88 382.418
1911.58 145.811 382.644
1912.74 144.594 383.056
1913.19 143.433 383.047
1912.41 142.325 382.155
1910.94 141.293 380.754
1911.26 140.297 380.63
1913.47 139.654 381.221
1919.09 138.127 383.366
1920.75 136.966 383.704
1922.04 135.819 383.905
1926.01 134.546 386.039
1934.06 133.844 389.529
1922.81 130.091 382.46
1911.95 126.669 380.362
1908.29 125.772 380.354
