2009.05 609.2 2910.47
2008.42 610.375 2907.94
2009.4 612.336 2905.62
2008.93 611.777 2906.52
2008.15 606.457 2912.58
2006.45 608.646 2908.51
2005.3 609.912 2905.49
2006.54 602.879 2912.24
2012.13 612.02 2905.1
2016.38 613.752 2903.45
2009.82 612.194 2904.97
2006.79 611.127 2905.13
2004.5 610.166 2904.22
2008.15 611.889 2904.43
2007.49 611.747 2904.73
2004 607.025 2907.08
2003.03 609.066 2904.42
2001.22 592.442 2906.35
2004.26 598.197 2910.26
2002.81 602.675 2905.84
2012.33 610.66 2902.35
2010.38 611.929 2904.23
2011.46 609.883 2896.47
2011.47 610.408 2892.24
2008.63 611.87 2904.04
2002.59 608.213 2903.65
2006.93 611.637 2903.87
2005.8 611.004 2904.01
2002.03 605.682 2903.68
2003.3 602.388 2900.09
2003.07 601.275 2900.28
2002.16 594.903 2899.99
2002.65 596.247 2905.32
2002.49 599.369 2901.33
2002.66 597.609 2902.11
2010.98 610.046 2901.82
2009.82 607.756 2898.06
2009.09 611.768 2903.59
2008.42 606.763 2893.75
2008.58 607.598 2890.16
2009.56 609.662 2881.35
2008.87 608.62 2886.2
2007.43 611.728 2903.53
2003.43 609.304 2903
2003 608.44 2903.12
2003.93 602.942 2898.7
2002.74 600.22 2900.75
2004.99 602.425 2895.84
2004.6 601.584 2895.34
1996.77 585.026 2898.17
2001.05 593.277 2897.82
2003.7 599.337 2895.65
2002.91 598.609 2893.88
2004.21 600.72 2895.16
2010.03 610.211 2901.72
2008.34 606.332 2897.23
2008.89 607.084 2898.01
2007.8 605.899 2896.5
2008.07 611.434 2902.9
2007.8 606.459 2893.02
2007.48 605.868 2895.98
2007.91 607.299 2888.66
2007.86 608.208 2884.55
2005 606.972 2878.61
2005.18 607.237 2875.59
2006.68 611.568 2903.01
2004.34 603.842 2898.35
2004.81 604.689 2898.22
2003.32 608.941 2902.46
2005.51 603.401 2896.4
2005.18 610.858 2903.09
2003.83 608.821 2901.84
2005.73 603.387 2895.17
2006.12 604.281 2895.72
2005.36 602.716 2894.46
1999.6 592.546 2895.25
1994.77 583.791 2893.98
2001.45 597.696 2892.41
2004.93 601.88 2893.57
2005.12 602.334 2891.55
2012.96 610.894 2865.49
2006.69 607.401 2871.72
2008.92 609.869 2901.01
2007.36 606.193 2897.19
2007.99 606.764 2897.51
2007.02 605.879 2896.94
2006.88 611.103 2902.24
2007.44 606.475 2892.19
2007.13 605.842 2895.42
2006.47 605.29 2896.13
2007.31 607.51 2888.43
2006.91 608.065 2884.48
2003.76 605.993 2879.55
1999.56 605.743 2876.69
2000.36 605.701 2874.77
2000.65 604.988 2872.18
2005.99 604.471 2896.79
2005.05 605.11 2898.03
2006.18 605.285 2897.08
2004.64 607.797 2899.99
2005.2 610.402 2901.68
2005.33 605.687 2897.95
2006.79 605.482 2894.89
2006.34 604.537 2894.35
2005.86 603.471 2893.17
1998.26 592.186 2891.45
2001.12 597.606 2890.45
1995.51 588.306 2887.61
1993.16 581.988 2892.44
2004.86 602.252 2889.63
2005.66 603.641 2889.99
2013.16 612.341 2856.72
2006.53 609.464 2857.32
2005.06 606.7 2865.15
2004.38 606.341 2871.36
2007.85 609.588 2900.44
2006.3 605.836 2897.23
2006.61 606.362 2897.55
2007.3 606.996 2898.02
2005.95 610.419 2901.36
2006.56 606.703 2892.88
2005.99 608.254 2889.47
2005.74 606.416 2885.14
2002.06 605.014 2879.62
1998.38 604.774 2876.46
1998.19 604.049 2873.52
1998.74 603.89 2872.08
1999.43 603.199 2868.27
2002.51 605.07 2869.57
2018.67 615.753 2850.52
2006.22 606.655 2898.1
2005.35 608.412 2899.69
1984.46 566.699 2890.51
2006.25 604.866 2892.42
1990.93 575.31 2895.78
1998.66 595.429 2887.77
2003.71 601.688 2888.23
1993.52 585.045 2887.52
1994.5 590.052 2882.22
1991.28 578.822 2892.02
2005.69 604.863 2889.72
2004.08 603.747 2887.19
2010.33 612.775 2848.77
2003.32 608.704 2851.35
2002.1 604.995 2860.02
2002.12 604.155 2863.87
2006.94 609.084 2900.09
2005.39 607.581 2892.36
2005.47 606.593 2888.65
2003.2 604.662 2883.65
1998.77 603.551 2877.9
1996.99 603.281 2874.84
1997.13 602.712 2872.84
1997.77 602.075 2868.67
1998.58 602.611 2868.09
2001.12 603.875 2867.58
2000 602.449 2862.47
2021.49 617.971 2834.41
2016.45 616.016 2841.86
1987.81 572.366 2892.6
1981.69 563.886 2886.16
1982.46 570.419 2887.33
1979 566.918 2881.4
1996.43 597.587 2879.87
1997.24 598.829 2886.83
1992.25 583.293 2886.75
1992.73 586.089 2880.92
1992.51 592.204 2877.91
1991.27 588.396 2875.91
1989.71 577.908 2888.83
1987.61 574.992 2889.25
2004.36 604.629 2886.11
1996.96 600.9 2885.83
2009.2 612.906 2840.52
2003.22 609.708 2843.27
2002.11 608.376 2847.82
2000.96 604.542 2856.33
1998.77 602.432 2882.91
1996.63 601.81 2875.74
1997.52 600.762 2879.05
1996.02 600.886 2872.09
1997.1 601.182 2867.65
1998.03 599.763 2859.66
1999.12 601.058 2860.79
2017.22 615.678 2824.12
2013.58 614.465 2832.7
1978.78 562.599 2880.81
1978.57 571.45 2881.63
1982.63 575.458 2885.57
1977.03 570.101 2877.18
1976.78 566.918 2876.66
1977.36 558.111 2880.21
1993.08 594.582 2875.47
1996.39 599.16 2875.31
1991.31 582.404 2883.09
1987.4 578.428 2886.01
1991.36 582.996 2878.27
1991.07 585.78 2876.1
1991.16 591.092 2873.79
1992.01 593.211 2876.05
1990.44 591.674 2872.27
1990.02 588.826 2873.19
2005.4 610.52 2834.39
2001.34 606.185 2834
1999.61 605.131 2840.53
2000.32 606.274 2847.38
1999.5 602.975 2855.34
1995.33 599.277 2873.09
1994.82 597.976 2865.77
1996.18 597.997 2858.36
1997.78 601.593 2853.02
2009.31 612.203 2825.88
1972.7 551.772 2872.71
1976.52 563.798 2875.93
1978.58 576.401 2881.7
1977.2 573.638 2878.26
1976.1 574.687 2874.56
1975.85 572.415 2872.91
1975.76 568.579 2872.45
1975.29 558.854 2874.3
1992.91 595.014 2873.29
1987.69 579.081 2884.24
1990.33 580.215 2879.16
1978.87 578.097 2880.84
1989.92 581.817 2875.33
1989.89 585.241 2874.2
1989.13 589.574 2867.6
1992.02 594.061 2867.31
1988.25 587.248 2870.29
2004.05 608.275 2827.14
1998.95 603.063 2826.59
1997.04 600.988 2831.99
1996.58 601.327 2840.01
1995.63 600.828 2844.2
1992.54 594.101 2857.96
1995.42 597.944 2853.66
1994.36 598.724 2846.26
2007.8 610.45 2818.71
1972.22 553.381 2869.66
1969.45 548.114 2862.98
1970.55 550.956 2865.39
1974.82 565.143 2869.97
1976.62 576.932 2877.13
1976.13 576.907 2873.83
1975.5 576.002 2871.15
1975.04 572.225 2868.68
1975.25 575.239 2869.04
1974.23 567.454 2864.9
1973.94 560.917 2868.37
1987.66 579.056 2883.16
1979.28 578.311 2880.41
1989.75 579.548 2877.09
1976.9 577.487 2876.37
1987.78 584.374 2871.39
1987.89 581.091 2872.86
1987.24 585.128 2863.57
1989.87 590.298 2859.92
1986.57 583.705 2866.21
2003.98 607.441 2818.35
2000.02 604.684 2821.57
1991.61 601.016 2818.39
1991.64 599.283 2824.1
1992.88 597.02 2836.07
1990.83 597.193 2828.92
1991.17 594.844 2838.99
1990.7 591.63 2851.9
1992.37 595.132 2846.28
1972.31 557.216 2866.82
1969.53 548.732 2862.3
1968.76 547.049 2857.21
1970.64 554.993 2863.17
1973.18 562.986 2862.84
1975.55 576.466 2870.06
1977.07 577.58 2874.28
1976.46 577.129 2871.56
1975.54 575.911 2868.52
1973.6 566.077 2860.96
1974.63 571.238 2865.09
1975.23 573.353 2866.09
1971.54 562.315 2857.74
1970.91 559.345 2860.33
1987.75 578.986 2882.22
1979.74 578.531 2879.98
1977.39 577.8 2876.45
1988.86 579.079 2877.3
1987.57 580.268 2873.53
1986.09 582.296 2869.07
1985.65 581.14 2870.5
1985.44 581.841 2860.6
1986.01 583.528 2858.41
1986.36 584.921 2854.88
1985.56 581.736 2864.74
1996.31 603.964 2816.42
2002.3 606.263 2816.44
2005.94 607.672 2815.64
1990.2 600.83 2814.45
1988.72 599.307 2816.61
1988.07 599.079 2813.2
1987.99 597.05 2820.6
1988.59 594.55 2830.19
1986.75 595.036 2822.28
1989.64 592.989 2838.04
1988.13 593.159 2831.13
1987.16 587.591 2849.16
1987.73 588.966 2843.38
1969.07 548.73 2857.57
1969.83 550.976 2862.52
1967.82 547.428 2850.34
1969.61 556.14 2858.44
1970.17 559.881 2856.21
1975.93 576.481 2868.21
1976.38 577.103 2869.32
1977.32 577.681 2871.12
1977.79 578.068 2873.83
1975.78 574.905 2866.71
1974.24 567.955 2860.34
1971.09 562.579 2853.9
1972.29 564.707 2853.03
1975.07 570.132 2859.89
1969.81 560.283 2851.65
1969.47 558.145 2855.13
1987.76 578.685 2880.83
1980.6 578.784 2879.68
1978.06 578.251 2876.71
1986.85 579.924 2874.97
1985.21 580.521 2871.07
1984.33 581.378 2868.83
1984.05 580.999 2866.12
1981.67 580.188 2869.84
1984.74 580.052 2860.62
1983.36 579.494 2857.45
1984.08 580.715 2856.81
1983.36 580.687 2854.94
1984.38 582.711 2853.9
1985.37 584.601 2851.07
1993.36 602.298 2814.47
2000.54 605.174 2814.94
2004.33 606.134 2814.48
1989.43 599.575 2812.01
1987.77 598.423 2811.34
1986.68 598.252 2813.28
1985.66 597.218 2811.44
1986.07 597.249 2810.67
1986.85 597.803 2815.68
1985.6 592.963 2824.03
1986.28 596.663 2817.15
1988.04 591.816 2834.43
1986.14 591.509 2826.73
1984.22 585.843 2845.01
1985.42 586.686 2837.58
1966.55 544.648 2843.18
1968.72 551.9 2854.99
1969.42 552.517 2859.51
1967.73 550.892 2848.75
1966.57 546.247 2843.28
1968.79 555.987 2853.33
1968.96 558.149 2849.92
1976.53 577.11 2867.86
1976.41 576.245 2866.87
1977.48 577.782 2868.98
1978.29 578.292 2870.98
1978.59 578.557 2873.57
1976.17 573.431 2862.1
1973.74 567.123 2853.22
1969.62 560.349 2846.15
1970.52 562.111 2846.03
1971.64 564.096 2845.64
1976.68 571.334 2853.85
1975.6 569.485 2851.13
1968.64 558.147 2844.86
1968.06 555.598 2847.63
1986.76 578.867 2879.48
1980.4 578.873 2878.7
1979.02 578.776 2875.9
1984.87 580.341 2872.94
1981.9 579.959 2871.96
1981.5 579.913 2871.04
1981.2 579.98 2868.45
1983.61 580.18 2862.74
1980.2 579.297 2867.52
1982.81 579.025 2859.64
1981.73 578.817 2857.16
1982.37 579.328 2855.86
1982.38 579.144 2854.97
1982.8 580.411 2853.57
1983.41 582.019 2852.5
1984.39 583.116 2851.4
1983.98 583.739 2847.41
1992.4 601.326 2812.94
1998.3 603.81 2813.42
2003.25 604.984 2812.63
1989.19 598.793 2810.31
1987.57 597.654 2809.65
1986.25 596.942 2809.75
1985.27 596.674 2811.87
1985.27 596.577 2810.68
1985.24 596.592 2812.92
1985 591.869 2823.92
1985.79 595.306 2819.37
1984.79 595.636 2814
1985.68 589.755 2828.37
1982.4 581.097 2839.79
1982.11 582.946 2831.52
1966.04 542.769 2836.54
1966.55 549.976 2842.52
1966.58 553.326 2840.71
1965.91 544.03 2836.99
1967.41 555.645 2841.77
1977.41 577.197 2866.14
1977.57 577.73 2867.5
1977.29 575.895 2862.32
1979.45 578.761 2866.5
1976.87 572.361 2856.15
1974.02 567.07 2846.81
1969.29 560.314 2839.6
1968.13 557.866 2839.58
1970.58 562.565 2840.63
1972.93 565.864 2841.69
1980.33 574.484 2849.98
1981.01 576.475 2853.56
1981.98 577.351 2852.2
1978.9 572.414 2847.06
1983.41 579.269 2877.78
1981.33 579.667 2874.09
1982.57 579.457 2862
1979.86 577.997 2862.23
1979.21 577.202 2859.84
1979.34 576.274 2857.56
1981.66 578.439 2856.01
1982.59 578.204 2851.2
1982.98 578.9 2850.64
1983.36 579.829 2850.38
1983.4 579.675 2848.55
1983.28 580.546 2846.88
1982.26 578.777 2842.81
1991.49 600.21 2811.13
1995.4 601.969 2811.77
2001.63 603.841 2811.54
2002.31 601.732 2807.1
2000.78 595.969 2797.57
1989.21 598.134 2809.05
1987.59 597.047 2808.59
1986.23 596.421 2808.97
1985.03 595.961 2809.73
1984.58 595.609 2811.1
1984.57 595.633 2812.07
1984.39 595.094 2809.85
1984.66 593.343 2820.86
1984.31 588.484 2825.39
1985.14 594.428 2819.73
1984.28 594.878 2813.77
1984.03 594.831 2811.73
1980.07 577.488 2836.3
1980.32 575.427 2841.83
1977.48 577.042 2826.88
1977.51 575.417 2831.41
1981.62 583.24 2827.02
1965.67 547.833 2838.54
1965.01 550.978 2834.52
1964.86 552.53 2831.76
1965.77 554.073 2834.24
1965.5 544.422 2834.81
1966.47 555.979 2834.08
1979.42 578.388 2864.87
1979.28 574.954 2855.43
1977.24 571.099 2843.61
1967.45 558.678 2832.81
1969.56 562.174 2835.21
1972.06 565.978 2835.74
1976.98 572.077 2838.85
1982.13 576.202 2848.29
1981.15 575.563 2845.29
1982.52 576.989 2847.63
1982.04 576.97 2845.48
1991.06 599.113 2809.3
1994.39 600.802 2810.14
1999.91 602.384 2810.01
2001.24 601.043 2806.85
1999.68 597.673 2802.14
2000.03 596.756 2800.04
1998.38 591.797 2792.59
1999.23 590.814 2789.84
1987.78 596.51 2807.7
1989.15 597.208 2807.58
1986.38 595.748 2807.93
1985.2 594.999 2808.14
1984.34 594.039 2808.07
1983.86 594.431 2810.68
1983.84 593.982 2809.26
1983.85 592.663 2807.4
1983.96 589.015 2822.69
1983.89 594.034 2814.17
1982.54 584.713 2823.58
1983.51 593.939 2810.99
1983.19 592.927 2809.21
1976.53 576.312 2823.53
1973.13 569.81 2828.33
1972.4 570.5 2822.89
1980.66 581.869 2825.59
1965.22 542.953 2821.55
1963.71 543.232 2816.12
1964.59 543.222 2819.27
1964.62 548.101 2834.03
1964.16 550.502 2830.38
1964.1 551.78 2828.28
1964.4 553.342 2827.74
1965.09 554.985 2828.55
1965.28 544.694 2833.45
1965.55 543.383 2822.17
1965.88 557.012 2828.49
1966.57 559.563 2826.18
1967.98 561.453 2828.79
1969.93 565.103 2827.96
1991.23 598.417 2807.95
1996.34 600.541 2808.72
1999.56 599.318 2805.17
1996.74 594.569 2799.63
1996.16 592.034 2795.53
1995.44 589.068 2790.65
1996.86 588.116 2787.47
1987.74 595.461 2806.28
1986.55 594.776 2806.49
1988.84 595.971 2806.04
1985.4 593.874 2806.58
1984.58 591.759 2804.83
1983.97 590.383 2803.79
1983.36 592.604 2808.29
1983.41 590.022 2804.58
1983.37 588.937 2802.8
1983.23 585.722 2822.06
1983.98 590.173 2820.04
1983.34 592.018 2813.08
1983.14 592.089 2811.08
1981.78 583.28 2822.46
1982.69 584.168 2821.46
1982.78 591.142 2808.73
1983.01 589.182 2804.38
1982.75 588.984 2804.97
1973.37 572.271 2820.42
1978.61 579.393 2822.45
1970.01 566.639 2824.06
1970.07 567.442 2820.96
1964.89 545.791 2818.64
1964.92 545.451 2817.29
1964.77 544.861 2816.01
1962.44 542.122 2812.53
1963.84 544.078 2813.87
1964.68 545.342 2814.25
1964.43 547.585 2832.47
1963.68 549.875 2828.2
1963.63 550.855 2826.67
1963.75 552.027 2825.84
1964.83 555.296 2826.17
1964.21 553.732 2825.53
1965.66 557.698 2825.58
1965.7 543.691 2829.71
1965.52 543.794 2823.13
1964.76 545.907 2819.78
1966.65 560.852 2823.45
1967.93 563.105 2824.39
1990.56 596.915 2806.22
1995.64 598.842 2806.43
1997.24 596.623 2802.61
1992.92 592.555 2799.46
1992.67 590.894 2797.13
1992.17 589.191 2794.83
1993.17 588.12 2791.64
1995.13 587.262 2787.89
1986.27 591.459 2802.8
1987.59 593.332 2803.93
1985.28 590.818 2802.83
1989.49 593.63 2803.04
1984.15 589.402 2801.98
1982.6 586.896 2800.9
1982.08 585.574 2800.8
1981.94 585.231 2801.32
1981.91 585.235 2801.91
1983.17 584.202 2819.32
1983.67 585.266 2819.16
1983.51 589.41 2817.9
1982.74 588.85 2811.89
1982.49 588.278 2808.78
1980.71 581.819 2821.02
1981.84 582.702 2819.64
1982.12 582.056 2816.89
1982.34 586.924 2805.13
1981.68 584.586 2802.24
1981.67 584.645 2802.81
1976.53 576.591 2819.91
1971.14 568.959 2818.17
1973.15 571.959 2818.25
1968.34 564.475 2822.44
1969.57 566.578 2818.91
1967.64 563.271 2821.03
1964.53 546.522 2818.25
1964.69 546.453 2817.03
1964.92 546.263 2815.72
1965.14 546.377 2814.7
1964.08 544.751 2812.2
1962.23 542.154 2810.04
1964.9 546.078 2813.21
1965.36 547.105 2813.85
1964.24 547.171 2831.17
1963.46 549.343 2827.52
1963.42 550.076 2825.78
1963.46 550.839 2824.66
1963.78 552.595 2824.46
1964.51 554.99 2824.15
1965.27 556.981 2824.56
1966.13 559.785 2822.74
1965.49 544.096 2828.53
1965.28 544.431 2823.57
1964.53 546.212 2820.94
1964.4 546.724 2819.73
1992.05 595.146 2803.41
1994.22 597.244 2804.9
1989.27 589.359 2798.22
1990.33 587.311 2794.45
1995.8 586.029 2785.33
1991.68 586.973 2792.01
1993.79 586.555 2788.55
1987.32 587.044 2797.14
1982.2 586.214 2798.93
1982.87 586.675 2799.31
1982.16 585.581 2799.49
1981.88 584.599 2799.17
1981.67 583.831 2798.93
1981.56 583.581 2799.4
1981.42 583.263 2799.94
1981.28 582.897 2800.42
1981.41 579.727 2812.27
1981.95 580.729 2812.55
1983.81 585.606 2817.79
1982.16 581.17 2811.71
1983.29 586.649 2815.21
1982.23 583.327 2810.04
1981.78 584.407 2806.76
1981.36 583.585 2804.02
1977.79 577.935 2818.52
1980.78 580.852 2817.51
1981 579.857 2814.62
1980.59 577.926 2811.14
1981.19 583.135 2802.58
1981.11 582.473 2800.94
1971.15 568.288 2815.81
1973.02 571.46 2816.79
1968.33 564.441 2819.31
1969.96 566.511 2816.67
1966.62 561.079 2820.35
1964.56 547.189 2817.53
1964.36 547.476 2818.73
1964.24 547.286 2819.34
1964.82 547.013 2816.13
1965.14 547.29 2814.88
1964.19 545.072 2810.15
1965.17 546.669 2811.65
1962.51 542.808 2807.76
1965.84 547.926 2812.33
1965.77 548.28 2813.35
1964.29 546.719 2830.03
1963.56 548.522 2828.12
1963.49 548.794 2826.76
1963.39 549.231 2825.69
1963.35 549.874 2823.55
1963.36 549.524 2824.43
1963.49 551.19 2823.43
1963.97 553.457 2823.42
1965.48 558.068 2822.73
1964.86 556.158 2822.58
1965.12 544.783 2826.07
1964.57 546.06 2822.67
1964.23 546.951 2821.56
1964.21 547.195 2820.47
1989.81 586.312 2793.86
1994.04 585.604 2787.11
1991.48 586.12 2791.26
1989.94 585.69 2793.05
1981.64 584.872 2798.03
1986.04 585.779 2796.5
1981.95 585.744 2798.31
1988.4 585.498 2794.64
1981.15 586.135 2799.24
1980.86 584.806 2797.65
1981.73 583.968 2798.2
1981.47 583.045 2797.92
1981.29 582.419 2797.91
1981.1 581.808 2798.43
1980.99 581.583 2799
1980.3 576.296 2806.08
1979.76 574.811 2805.37
1980.59 577.365 2805.64
1980.74 578.145 2805.09
1981.03 580.809 2804.6
1980.62 579.531 2803
1980.55 578.886 2801.62
1980.9 581.705 2801.79
1977.96 577.568 2816.92
1980.06 578.314 2814.08
1979.77 576.512 2811.44
1979.98 576.718 2810.95
1979.27 573.884 2805.74
1980.91 581.561 2800.66
1980.88 581.011 2799.14
1972.63 568.481 2811.47
1971.62 567.209 2811.79
1973.42 571.435 2815.17
1968.11 563.585 2818.24
1970.58 565.778 2812.91
1965.92 559.421 2820.72
1964.53 547.832 2818.06
1964.77 547.664 2816.83
1963.84 548.814 2820.88
1963.92 548.988 2820.22
1963.77 548.617 2821.52
1965.12 547.854 2815.6
1965.61 548.498 2814.32
1964.94 546.034 2807.68
1965.57 547.199 2809.66
1966.57 548.72 2809.81
1963.86 544.604 2806.33
1967.68 550.265 2808.45
1967.43 550.764 2810.69
1964.39 546.302 2826.72
1963.76 548.018 2827.31
1963.66 548.341 2823.83
1963.77 547.823 2824.83
1963.72 548.463 2822.52
1963.45 550.063 2822.43
1963.54 551.83 2822.63
1963.51 550.507 2821.83
1964.3 554.405 2822.08
1965.17 557.109 2821.03
1993.81 584.719 2786.53
1992.03 585.454 2789.82
1990.28 585.165 2792.13
1989.05 584.673 2793.27
1988.56 584.971 2793.93
1980.68 583.6 2796.79
1981.4 585.33 2797.77
1982.86 584.936 2796.76
1986.95 584.702 2794.97
1980.5 585.076 2798.7
1980.71 586.341 2799.52
1980.13 583.882 2796.73
1981.5 583.624 2797.19
1981.26 582.31 2797.07
1981.05 581.559 2796.96
1980.98 580.852 2797.14
1980.96 580.483 2797.72
1979.86 574.689 2801.78
1979.45 573.599 2801.78
1980.26 576.444 2802.02
1980.63 578.759 2800.12
1980.32 576.506 2800.78
1977.39 576.628 2815.85
1979.06 576.977 2813.72
1979.46 575.996 2811.87
1978.49 573.673 2809.6
1978.6 572.849 2805.11
1980.7 578.651 2798.97
1980.77 578.433 2798.19
1975.81 570.436 2808.31
1972.86 566.16 2803.89
1974.93 568.322 2803.36
1972.1 565.195 2804.57
1975.65 571.307 2810.95
1967.06 561.232 2818.55
1969.63 564.225 2814.08
1971.53 564.436 2805.56
1964.09 549.357 2819.56
1964.76 548.214 2817.49
1965.06 548.29 2816.49
1965.58 548.872 2815.13
1967.3 551.367 2812.42
1966.2 547.235 2806.08
1966.83 548.364 2807.05
1968.15 549.416 2804.12
1962.91 543.547 2804.78
1965.44 546.033 2804.98
1969.78 552.094 2801.56
1969.19 549.523 2799.77
1969.49 554.025 2806.44
1963.63 551.246 2821.28
1964.03 553.155 2821.29
1965.05 555.97 2819.97
1966.2 559.514 2819.18
1992.75 584.035 2787.77
1992.29 584.767 2789.01
1990.77 584.688 2791.2
1989.5 584.191 2792.52
1988.09 583.742 2793.5
1987.57 584.073 2794.07
1981.03 582.015 2795.92
1981.24 582.235 2796.42
1980.61 582.417 2795.98
1979.54 582.63 2795.66
1979.83 581.985 2795.38
1980.17 584.814 2797.4
1980.26 584.527 2796.83
1984.23 584.176 2795.8
1985.2 583.651 2794.89
1979.79 584.662 2798.72
1980.24 586.441 2799.69
1979.56 584.734 2797.23
1981.04 581.488 2796.21
1981.04 580.867 2795.91
1981.27 580.323 2795.88
1981.22 578.186 2796.4
1981.02 578.118 2797
1980.89 578.288 2797.57
1980.04 574.955 2800.83
1979.76 574.014 2800.94
1980.24 575.564 2799.75
1976.08 573.813 2813.98
1978.75 575.428 2812.67
1978.15 573.619 2811.02
1977.67 571.645 2804.81
1980.29 575.148 2798.79
1980.53 575.218 2797.88
1973.29 565.181 2799.72
1972.55 564.328 2800.4
1969.3 563.025 2814.01
1971.11 563.729 2806.45
1972.18 563.652 2800.63
1964.3 549.977 2818.98
1965.56 549.387 2815.99
1964.54 550.794 2818.65
1967.28 552.153 2813.68
1968.98 555.056 2810.56
1967.72 548.32 2803.22
1967.02 547.418 2803.52
1968.61 547.903 2799.33
1964.5 544.782 2802.89
1966.13 546.112 2802.56
1971.65 555.477 2798.43
1970.71 556.156 2803.26
1964.96 552.259 2818.41
1967.28 559.344 2816.83
1968.1 561.161 2816.03
1991.6 584.123 2789.77
1992.1 583.314 2788.67
1993.52 583.064 2786.02
1990.43 583.88 2791.32
1989.45 583.381 2792.26
1988.42 583.318 2793.08
1985.13 583.069 2794.58
1981.8 581.627 2795.22
1980.77 581.541 2795.31
1978.7 582.226 2795.05
1979.47 584.253 2797.81
1979.39 583.539 2796.19
1980.05 583.399 2796.04
1980.7 583.369 2795.97
1979.11 584.269 2798.63
1979.49 586.061 2799.49
1979.99 586.925 2800.09
1978.92 584.463 2796.88
1978.66 583.196 2795.65
1981.2 581.106 2795.37
1981.67 580.562 2795.31
1981.46 578.237 2795.76
1981.75 578.345 2795.3
1981.09 575.279 2796.23
1980.81 574.835 2796.83
1980.05 574.015 2799.45
1980.21 574.004 2798.51
1969.79 561.872 2811.65
1970.97 563.004 2806.03
1972.16 562.966 2800.19
1967.04 552.911 2814.91
1969.48 558.344 2810.83
1968.88 557.83 2813.02
1968.04 547.078 2799.88
1967.33 546.394 2800.17
1970.33 558.986 2806.53
1971.51 559.707 2801.62
1972.38 560.197 2798.72
1966.3 554.156 2816.91
1967.81 557.508 2815.44
1991.16 583.387 2790.21
1991.72 582.635 2789.12
1992.97 582.396 2786.85
1990.12 582.906 2791.4
1989.27 582.458 2792.2
1988.6 582.681 2792.8
1985.77 582.303 2794.12
1983.04 581.713 2795
1982.17 580.904 2795.18
1979.15 581.621 2795.02
1979.36 581.894 2795.7
1978.77 584.164 2797.73
1978.63 582.274 2795.81
1978.39 582.732 2795.74
1978.65 584.615 2798.57
1978.99 586.302 2799.52
1979.61 587.301 2800.62
1978.62 584.799 2797.32
1977.88 582.846 2795.09
1982.09 578.52 2794.94
1982.98 579.119 2794.34
1981.45 575.252 2795.48
1981.83 575.389 2794.75
1970.81 561.947 2805.72
1990.86 582.677 2790.47
1992.18 580.037 2788.1
1991.58 580.341 2789.1
1990.31 580.279 2790.76
1989.63 580.01 2791.41
1988.85 579.842 2791.93
1986.08 581.834 2793.87
1988.4 581.959 2792.76
1986.71 579.574 2792.9
1984.23 579.433 2793.86
1983.51 579.328 2794.11
1978 582.11 2794.73
1978.25 584.467 2797.06
1978.25 584.349 2797.88
1977.99 583.188 2795.9
1978.28 585.43 2798.35
1978.39 586.573 2799.46
1979.1 587.489 2800.89
1978.31 585.202 2797.87
1977.47 583.148 2795.25
1977.07 582.21 2794.53
1982.27 575.315 2794.02
1983.33 575.708 2793.12
1990.95 580.442 2790.07
1991 577.537 2789.52
1990.33 577.194 2790.04
1989.74 577.206 2790.57
1988.92 576.734 2790.9
1986.41 576.598 2792.02
1977.65 583.709 2796.02
1977.66 585.66 2797.95
1977.62 586.655 2799.2
1978.59 587.645 2801.11
1977.2 585.073 2797.64
1977.83 584.712 2797.5
1976.8 582.762 2794.76
1977.29 584.092 2796.19
1976.91 585.606 2797.46
1976.58 586.638 2798.6
1976.64 585.984 2797.76
1978.11 587.894 2801.38
1976.2 582.927 2794.57
1974.99 583.784 2794.75
1976.71 584 2795.68
1976.64 585.194 2796.82
1976.12 585.673 2797.1
1975.57 586.627 2798.02
1975.72 586.018 2797.29
1977.36 588.268 2801.49
1975.33 586.816 2798.47
1973.76 585.113 2795.4
1975.73 582.586 2793.84
1975.34 583.074 2794
1976.49 584.905 2796.38
1976.3 583.738 2795.07
1976.02 585.23 2796.52
1975.42 585.713 2796.76
1974.73 586.653 2797.58
1976.31 588.81 2801.46
1974.49 588.012 2799.24
1972.66 586.087 2795.72
1976.09 584.659 2795.8
1974.43 587.479 2798.55
1975.15 585.386 2796.22
1973.65 589.312 2800.14
1971.72 587.713 2796.94
1972.32 585.805 2795.07
1973.5 584.499 2794.39
1974.22 583.427 2793.53
1975.63 584.441 2795.22
1975.97 583.582 2794.64
1975.33 584.788 2795.51
1973.52 587.949 2798.62
1973.95 586.078 2796.39
1972.69 589.593 2799.81
1974.55 585.712 2796.28
1970.62 589.306 2797.98
1970.96 587.385 2795.96
1972.97 584.758 2794.25
1973.72 583.696 2793.4
1974.9 583.347 2793.93
1974.49 584.108 2794.03
1972.46 588.332 2798.42
1973.31 586.36 2796.45
1971.29 589.709 2798.97
1974.29 584.661 2794.67
1973.8 584.899 2794.69
1973.57 585.793 2795.85
1969.55 588.841 2796.63
1971.62 585.862 2794.5
1971.25 588.712 2798.01
1972.26 586.932 2796.64
1969.94 589.755 2798.1
1969.13 590.254 2798.02
1967.55 589.995 2796.45
1967.88 589.385 2795.85
1970.39 587.418 2795.48
1973.31 584.19 2793.29
1970.41 588.883 2797.51
1969.49 589.345 2797.27
1970.82 587.67 2796.42
1968.75 589.445 2796.72
1969.59 587.899 2795.4
1968.43 588.921 2795.8
1967.31 589.542 2795.6
1966.81 587.858 2792.82
1966.62 588.24 2793.24
1972.4 585.197 2794.08
1969.84 585.504 2791.99
1971.24 585.752 2794
1972.72 584.32 2793.07
1972.58 583.98 2792.59
1969.83 588.361 2796.32
1969.15 588.541 2795.92
1970.6 586.433 2794.33
1968.95 587.689 2794.63
1970.09 587.002 2794.64
1967.98 588.534 2794.96
1966.74 589.755 2795.52
1966.14 588.255 2792.89
1966.57 587.396 2791.9
1965.79 587.843 2791.95
1967.64 587.47 2792.95
1969.16 585.985 2792.03
1969.47 587.424 2794.67
1968.22 586.259 2791.49
1970.96 585.218 2792.73
1970.75 585.772 2793.59
1971.34 584.536 2792.18
1968.33 587.668 2794.13
1969.44 586.641 2793.68
1969.96 586.122 2793.42
1966.25 589.436 2794.72
1967.82 588.354 2794.38
1967.99 585.919 2790.8
1968.75 586.379 2792.16
1968.89 586.938 2793.63
1969.57 585.048 2791.22
1970.49 584.759 2791.96
1968.33 587.108 2793.42
1968.56 585.807 2791.12
1969.11 585.421 2791.69
1969.85 585.003 2791.77
1966.96 588.584 2794.25
1965.3 588.351 2792.36
1967.65 587.615 2793.55
1965.56 587.642 2791.43
1965.09 588.16 2791.86
1966.6 586.747 2790.86
1967.32 586.024 2790.37
1966.76 586.28 2790.23
1968.53 585.32 2790.69
1967.46 585.496 2790.08
1967.94 585.442 2790.38
1967.14 586.497 2791.48
1966.42 588.564 2793.81
1965.34 589.661 2794.34
1964.72 588.745 2792.49
1965.83 586.924 2790.48
1966.21 586.383 2789.93
1966.69 585.752 2789.74
1965.97 587.157 2791.41
1964.62 588.311 2791.7
1964.44 588.64 2792.08
1965.06 587.789 2791.24
1965.49 586.327 2789.33
1964.97 589.274 2793.54
1964.53 587.892 2790.95
1965.07 587.029 2790
1964.87 586.474 2789.05
1964.23 586.552 2788.62
1963.97 589.302 2792.78
1963.95 588.646 2791.66
1964.29 587.15 2789.53
1964.33 586.865 2789.1
1963.62 586.698 2788.36
1963.36 589.439 2792.46
1963.79 588.977 2792.06
1962.96 586.939 2788.15
1964 588.206 2790.99
1963.98 587.775 2790.28
1963.85 586.998 2788.91
1963.36 587.119 2788.68
1963.35 588.924 2791.59
1963.43 588.434 2790.86
1963.32 587.427 2789.12
1963.5 587.951 2790.14
1962.27 587.203 2787.95
1962.82 587.317 2788.52
1962.75 589.381 2791.81
1962.96 588.643 2790.77
1961.75 587.65 2788.18
1962.83 588.231 2789.98
1962.86 587.639 2789.05
1962.03 589.303 2791.03
1962.47 588.864 2790.69
1962.37 587.87 2788.98
1962.33 588.516 2789.99
1961.32 587.478 2787.53
1961.66 588.584 2789.58
1960.88 587.87 2787.75
1960.28 588.423 2788.08
1961.22 589.194 2790.11
1961.88 588.106 2788.91
1961.36 587.987 2788.28
1959.78 588.71 2788.07
1961.15 588.947 2789.62
1961.38 588.339 2788.84
1959.91 588.086 2787.21
1960.88 588.226 2788.23
1959.36 588.657 2787.62
1960.75 588.637 2788.84
1959.43 588.254 2787.05
1958.77 588.79 2787.29
1960.46 587.662 2787.05
1959.88 588.407 2787.65
