-1420.000000 2565.899902 4525.509766 
-1418.500000 2565.000000 4523.990234 
-1417.400024 2564.899902 4523.279785 
-1416.699951 2565.399902 4523.410156 
-1415.599976 2565.399902 4522.890137 
-1414.900024 2566.000000 4523.100098 
-1413.800049 2565.899902 4522.490234 
-1412.699951 2565.899902 4521.910156 
-1411.599976 2565.800049 4521.299805 
-1410.400024 2565.600098 4520.509766 
-1409.500000 2565.800049 4520.200195 
-1408.699951 2566.199951 4520.109863 
-1407.500000 2565.800049 4519.200195 
-1406.599976 2566.100098 4519.100098 
-1405.300049 2565.699951 4518.009766 
-1404.400024 2566.000000 4517.910156 
-1403.300049 2566.000000 4517.399902 
-1402.000000 2565.500000 4516.209961 
-1401.000000 2565.600098 4515.810059 
-1399.800049 2565.399902 4515.020020 
-1398.599976 2565.100098 4514.189941 
-1397.900024 2565.699951 4514.310059 
-1396.699951 2565.300049 4513.399902 
-1395.400024 2564.800049 4512.390137 
-1394.900024 2565.800049 4513.000000 
-1393.900024 2565.699951 4512.390137 
-1392.800049 2565.899902 4511.990234 
-1391.900024 2566.199951 4511.899902 
-1390.900024 2566.300049 4511.500000 
-1389.800049 2566.199951 4510.799805 
-1388.900024 2566.500000 4510.709961 
-1388.300049 2567.199951 4510.990234 
-1387.000000 2566.699951 4509.890137 
-1386.000000 2566.899902 4509.609863 
-1384.800049 2566.600098 4508.790039 
-1384.199951 2567.300049 4509.089844 
-1383.099976 2567.100098 4508.390137 
-1381.900024 2566.899902 4507.509766 
-1381.099976 2567.300049 4507.600098 
-1380.000000 2567.199951 4506.899902 
-1378.800049 2566.899902 4506.100098 
-1377.699951 2567.000000 4505.709961 
-1377.000000 2567.600098 4505.799805 
-1375.599976 2566.899902 4504.609863 
-1375.099976 2567.800049 4505.100098 
-1373.800049 2567.300049 4504.000000 
-1372.599976 2567.199951 4503.299805 
-1371.599976 2567.100098 4502.810059 
-1370.599976 2567.199951 4502.410156 
-1369.500000 2567.100098 4501.709961 
-1368.300049 2566.800049 4500.879883 
-1367.099976 2566.500000 4500.000000 
-1365.800049 2566.100098 4499.120117 
-1364.699951 2566.000000 4498.410156 
-1363.900024 2566.500000 4498.509766 
-1362.300049 2565.300049 4496.609863 
-1361.400024 2565.699951 4496.609863 
-1360.300049 2565.500000 4495.790039 
-1359.300049 2565.600098 4495.390137 
-1358.300049 2565.600098 4495.000000 
-1357.099976 2565.199951 4494.109863 
-1355.900024 2564.899902 4493.200195 
-1354.599976 2564.500000 4492.189941 
-1353.699951 2564.699951 4492.000000 
-1352.599976 2564.699951 4491.390137 
-1351.500000 2564.500000 4490.600098 
-1350.699951 2564.899902 4490.600098 
-1349.699951 2565.000000 4490.299805 
-1348.599976 2564.800049 4489.500000 
-1347.800049 2565.100098 4489.410156 
-1346.900024 2565.399902 4489.290039 
-1345.800049 2565.399902 4488.799805 
-1344.699951 2565.300049 4488.189941 
-1343.800049 2565.399902 4487.910156 
-1342.800049 2565.500000 4487.399902 
-1341.699951 2565.699951 4487.089844 
-1340.699951 2565.600098 4486.509766 
-1339.699951 2565.600098 4486.109863 
-1339.000000 2566.199951 4486.299805 
-1337.900024 2566.100098 4485.689941 
-1337.099976 2566.500000 4485.600098 
-1336.400024 2567.100098 4485.810059 
-1335.199951 2566.800049 4484.979980 
-1334.400024 2567.000000 4484.799805 
-1333.300049 2566.899902 4484.189941 
-1332.099976 2566.800049 4483.609863 
-1331.199951 2567.100098 4483.399902 
-1330.300049 2567.199951 4483.089844 
-1329.300049 2567.300049 4482.600098 
-1328.000000 2566.899902 4481.689941 
-1327.199951 2567.199951 4481.600098 
-1326.199951 2567.100098 4480.990234 
-1325.000000 2566.800049 4480.100098 
-1323.800049 2566.500000 4479.399902 
-1322.699951 2566.300049 4478.609863 
-1321.699951 2566.300049 4478.089844 
-1320.699951 2566.399902 4477.689941 
-1319.500000 2566.199951 4476.990234 
-1318.199951 2565.600098 4475.890137 
-1317.199951 2565.600098 4475.399902 
-1316.099976 2565.500000 4474.790039 
-1315.400024 2565.899902 4474.790039 
-1314.199951 2565.500000 4473.790039 
-1313.300049 2565.800049 4473.689941 
-1312.300049 2565.800049 4473.299805 
-1311.199951 2565.600098 4472.600098 
-1310.099976 2565.399902 4471.890137 
-1308.800049 2564.800049 4470.700195 
-1307.800049 2564.800049 4470.209961 
-1306.699951 2564.699951 4469.600098 
-1305.400024 2564.100098 4468.410156 
-1304.000000 2563.500000 4467.290039 
-1302.699951 2562.899902 4466.189941 
-1301.300049 2562.199951 4464.810059 
-1300.199951 2561.899902 4463.990234 
-1299.000000 2561.600098 4463.200195 
-1297.900024 2561.199951 4462.310059 
-1296.599976 2560.600098 4461.209961 
-1295.400024 2560.300049 4460.299805 
-1294.500000 2560.399902 4459.990234 
-1293.000000 2559.600098 4458.589844 
-1291.500000 2558.500000 4456.910156 
-1289.699951 2557.000000 4454.709961 
-1434.400024 2569.100098 4533.689941 
-1430.800049 2564.399902 4527.709961 
-1434.300049 2572.699951 4536.990234 
-1430.400024 2567.699951 4530.490234 
-1427.900024 2565.100098 4526.890137 
-1427.400024 2566.100098 4527.589844 
-1426.099976 2565.600098 4526.490234 
-1425.599976 2566.699951 4527.189941 
-1423.599976 2565.000000 4524.600098 
-1423.099976 2566.000000 4525.299805 
-1421.500000 2565.000000 4523.709961 
-1420.699951 2565.199951 4523.279785 
-1419.900024 2565.600098 4523.279785 
-1418.500000 2564.899902 4522.000000 
-1417.599976 2565.300049 4521.910156 
-1416.699951 2565.500000 4521.700195 
-1415.800049 2565.699951 4521.390137 
-1414.800049 2565.899902 4521.089844 
-1413.900024 2566.199951 4520.910156 
-1412.699951 2565.899902 4519.990234 
-1411.699951 2565.899902 4519.589844 
-1410.699951 2566.000000 4519.100098 
-1409.699951 2566.100098 4518.709961 
-1408.599976 2565.899902 4518.009766 
-1407.800049 2566.399902 4518.009766 
-1406.599976 2566.100098 4517.089844 
-1405.599976 2566.100098 4516.689941 
-1404.500000 2566.100098 4516.109863 
-1403.300049 2566.000000 4515.410156 
-1402.400024 2566.199951 4515.200195 
-1401.099976 2565.899902 4514.310059 
-1400.099976 2565.800049 4513.700195 
-1399.000000 2565.800049 4513.209961 
-1398.000000 2565.899902 4512.700195 
-1397.000000 2565.899902 4512.209961 
-1395.800049 2565.500000 4511.290039 
-1395.300049 2566.500000 4511.990234 
-1394.199951 2566.300049 4511.200195 
-1393.099976 2566.399902 4510.799805 
-1392.099976 2566.600098 4510.500000 
-1391.099976 2566.699951 4510.100098 
-1390.400024 2567.199951 4510.189941 
-1389.400024 2567.300049 4509.799805 
-1388.400024 2567.500000 4509.490234 
-1387.199951 2567.199951 4508.609863 
-1386.400024 2567.600098 4508.609863 
-1385.300049 2567.500000 4508.000000 
-1384.599976 2568.000000 4508.089844 
-1383.500000 2567.899902 4507.379883 
-1382.300049 2567.699951 4506.709961 
-1381.400024 2567.899902 4506.410156 
-1380.300049 2567.800049 4505.799805 
-1379.199951 2567.699951 4505.100098 
-1378.099976 2567.699951 4504.609863 
-1377.099976 2567.699951 4504.209961 
-1376.199951 2567.800049 4503.810059 
-1375.300049 2568.199951 4503.810059 
-1374.099976 2567.800049 4502.810059 
-1373.000000 2567.800049 4502.200195 
-1371.699951 2567.300049 4501.189941 
-1371.000000 2568.000000 4501.490234 
-1369.699951 2567.399902 4500.209961 
-1368.500000 2567.100098 4499.390137 
-1367.300049 2567.000000 4498.689941 
-1366.000000 2566.500000 4497.709961 
-1364.900024 2566.399902 4497.009766 
-1364.000000 2566.600098 4496.799805 
-1362.800049 2566.199951 4495.790039 
-1361.500000 2565.699951 4494.810059 
-1360.800049 2566.399902 4495.089844 
-1359.699951 2566.300049 4494.390137 
-1358.699951 2566.300049 4493.899902 
-1357.400024 2565.800049 4492.890137 
-1356.699951 2566.399902 4493.100098 
-1355.300049 2565.800049 4491.910156 
-1354.099976 2565.600098 4491.089844 
-1353.199951 2565.800049 4490.910156 
-1352.000000 2565.399902 4489.899902 
-1351.099976 2565.699951 4489.810059 
-1350.000000 2565.600098 4489.200195 
-1349.000000 2565.500000 4488.500000 
-1348.199951 2565.800049 4488.500000 
-1347.099976 2565.800049 4487.910156 
-1346.099976 2565.899902 4487.609863 
-1345.199951 2566.100098 4487.299805 
-1344.099976 2565.899902 4486.600098 
-1343.300049 2566.600098 4486.910156 
-1342.000000 2566.199951 4485.899902 
-1341.199951 2566.600098 4485.810059 
-1340.199951 2566.500000 4485.290039 
-1339.599976 2567.399902 4485.810059 
-1338.599976 2567.500000 4485.410156 
-1337.500000 2567.199951 4484.589844 
-1336.699951 2567.600098 4484.589844 
-1335.699951 2567.699951 4484.189941 
-1334.900024 2568.000000 4484.100098 
-1333.900024 2568.100098 4483.700195 
-1332.699951 2567.899902 4483.000000 
-1331.900024 2568.399902 4483.000000 
-1331.000000 2568.600098 4482.790039 
-1330.099976 2568.800049 4482.600098 
-1329.199951 2569.000000 4482.299805 
-1328.300049 2569.399902 4482.209961 
-1327.400024 2569.399902 4481.810059 
-1326.199951 2569.000000 4480.899902 
-1324.800049 2568.500000 4479.799805 
-1323.900024 2568.500000 4479.399902 
-1322.900024 2568.600098 4479.000000 
-1321.900024 2568.600098 4478.479980 
-1320.500000 2568.000000 4477.299805 
-1319.199951 2567.500000 4476.200195 
-1318.000000 2567.199951 4475.399902 
-1317.000000 2567.100098 4474.790039 
-1316.000000 2567.199951 4474.490234 
-1315.000000 2567.199951 4474.000000 
-1314.300049 2567.500000 4474.000000 
-1313.099976 2567.300049 4473.209961 
-1312.000000 2567.100098 4472.500000 
-1310.900024 2566.899902 4471.709961 
-1309.699951 2566.600098 4471.009766 
-1308.900024 2567.000000 4471.009766 
-1307.599976 2566.399902 4469.790039 
-1306.500000 2566.300049 4469.209961 
-1305.099976 2565.699951 4467.990234 
-1303.699951 2564.800049 4466.399902 
-1302.400024 2564.399902 4465.509766 
-1301.099976 2563.600098 4464.200195 
-1300.300049 2564.100098 4464.290039 
-1299.199951 2563.699951 4463.410156 
-1297.900024 2563.199951 4462.310059 
-1296.500000 2562.300049 4460.910156 
-1295.400024 2562.300049 4460.299805 
-1294.000000 2561.600098 4459.020020 
-1292.400024 2560.300049 4457.209961 
-1290.199951 2558.100098 4454.100098 
-1435.800049 2564.100098 4528.109863 
-1433.199951 2561.300049 4524.290039 
-1434.300049 2565.000000 4528.200195 
-1433.199951 2565.000000 4527.589844 
-1434.300049 2568.899902 4531.709961 
-1432.199951 2567.000000 4528.899902 
-1431.000000 2566.800049 4528.109863 
-1429.400024 2565.800049 4526.399902 
-1428.500000 2566.199951 4526.399902 
-1427.900024 2567.100098 4526.790039 
-1426.300049 2566.000000 4525.080078 
-1425.199951 2566.000000 4524.509766 
-1423.800049 2565.399902 4523.279785 
-1422.699951 2565.300049 4522.609863 
-1421.599976 2565.199951 4522.000000 
-1421.099976 2566.000000 4522.399902 
-1419.800049 2565.500000 4521.299805 
-1418.599976 2565.100098 4520.390137 
-1417.699951 2565.500000 4520.290039 
-1417.000000 2565.899902 4520.290039 
-1415.800049 2565.699951 4519.500000 
-1415.000000 2566.199951 4519.589844 
-1414.000000 2566.399902 4519.290039 
-1412.800049 2566.000000 4518.310059 
-1411.800049 2566.199951 4518.009766 
-1411.000000 2566.699951 4518.009766 
-1409.699951 2566.100098 4516.910156 
-1408.800049 2566.300049 4516.600098 
-1408.099976 2566.800049 4516.689941 
-1406.699951 2566.199951 4515.500000 
-1405.500000 2566.000000 4514.709961 
-1404.800049 2566.699951 4515.020020 
-1403.599976 2566.399902 4514.100098 
-1402.500000 2566.399902 4513.609863 
-1401.300049 2566.199951 4512.790039 
-1400.400024 2566.500000 4512.600098 
-1399.300049 2566.300049 4511.899902 
-1398.099976 2566.100098 4511.200195 
-1397.300049 2566.399902 4510.990234 
-1396.300049 2566.399902 4510.500000 
-1395.500000 2566.800049 4510.500000 
-1394.599976 2567.100098 4510.310059 
-1393.500000 2567.100098 4509.799805 
-1392.599976 2567.399902 4509.609863 
-1391.599976 2567.600098 4509.310059 
-1390.699951 2567.800049 4509.089844 
-1389.599976 2567.600098 4508.299805 
-1388.699951 2567.899902 4508.209961 
-1387.699951 2568.100098 4507.810059 
-1386.800049 2568.300049 4507.509766 
-1385.800049 2568.399902 4507.200195 
-1384.599976 2568.100098 4506.290039 
-1383.900024 2568.600098 4506.410156 
-1382.699951 2568.399902 4505.709961 
-1381.699951 2568.500000 4505.310059 
-1380.699951 2568.500000 4504.790039 
-1379.699951 2568.500000 4504.299805 
-1378.599976 2568.600098 4503.810059 
-1377.400024 2568.199951 4502.899902 
-1376.500000 2568.600098 4502.810059 
-1375.599976 2568.699951 4502.410156 
-1374.400024 2568.300049 4501.589844 
-1373.300049 2568.399902 4501.009766 
-1372.099976 2568.100098 4500.209961 
-1371.199951 2568.399902 4500.000000 
-1370.000000 2568.000000 4499.120117 
-1368.800049 2567.800049 4498.410156 
-1367.500000 2567.300049 4497.310059 
-1366.300049 2567.100098 4496.490234 
-1365.099976 2566.699951 4495.609863 
-1364.199951 2566.899902 4495.299805 
-1363.099976 2566.699951 4494.600098 
-1361.699951 2566.100098 4493.410156 
-1361.099976 2566.899902 4493.810059 
-1360.000000 2566.899902 4493.290039 
-1359.000000 2566.800049 4492.709961 
-1357.900024 2566.699951 4492.100098 
-1357.000000 2567.000000 4492.000000 
-1355.900024 2566.899902 4491.299805 
-1354.500000 2566.300049 4490.109863 
-1353.699951 2566.699951 4490.109863 
-1352.500000 2566.399902 4489.290039 
-1351.599976 2566.600098 4489.009766 
-1350.500000 2566.600098 4488.399902 
-1349.400024 2566.300049 4487.700195 
-1348.699951 2566.800049 4487.790039 
-1347.300049 2566.199951 4486.600098 
-1346.699951 2567.000000 4487.000000 
-1345.500000 2566.699951 4486.109863 
-1344.599976 2566.899902 4485.899902 
-1343.699951 2567.199951 4485.810059 
-1342.500000 2567.199951 4485.200195 
-1341.800049 2567.699951 4485.290039 
-1340.900024 2567.800049 4484.979980 
-1339.900024 2567.899902 4484.589844 
-1339.000000 2568.300049 4484.500000 
-1337.900024 2568.000000 4483.700195 
-1337.099976 2568.399902 4483.700195 
-1336.099976 2568.399902 4483.180176 
-1335.300049 2568.800049 4483.180176 
-1334.300049 2568.899902 4482.910156 
-1333.300049 2568.899902 4482.390137 
-1332.500000 2569.500000 4482.600098 
-1331.599976 2569.699951 4482.299805 
-1330.800049 2570.300049 4482.509766 
-1330.199951 2571.000000 4482.790039 
-1329.400024 2571.399902 4482.790039 
-1328.500000 2571.500000 4482.509766 
-1327.400024 2571.500000 4481.899902 
-1326.199951 2571.000000 4480.899902 
-1325.199951 2571.100098 4480.500000 
-1324.400024 2571.600098 4480.589844 
-1323.099976 2570.899902 4479.399902 
-1321.800049 2570.399902 4478.299805 
-1320.500000 2570.100098 4477.390137 
-1319.400024 2569.800049 4476.589844 
-1318.300049 2569.800049 4476.109863 
-1317.099976 2569.399902 4475.189941 
-1316.199951 2569.399902 4474.700195 
-1314.900024 2568.800049 4473.509766 
-1314.000000 2568.899902 4473.299805 
-1313.199951 2569.500000 4473.509766 
-1311.800049 2568.699951 4472.109863 
-1310.900024 2568.800049 4471.709961 
-1309.900024 2569.000000 4471.410156 
-1308.699951 2568.500000 4470.399902 
-1307.400024 2568.199951 4469.509766 
-1305.900024 2567.300049 4467.990234 
-1304.699951 2566.800049 4466.890137 
-1303.599976 2566.699951 4466.310059 
-1302.300049 2566.100098 4465.209961 
-1301.500000 2566.399902 4465.089844 
-1300.300049 2566.000000 4464.200195 
-1299.300049 2566.000000 4463.810059 
-1298.400024 2566.199951 4463.500000 
-1296.699951 2564.800049 4461.390137 
-1294.699951 2562.899902 4458.799805 
-1292.500000 2560.600098 4455.600098 
-1289.000000 2555.699951 4449.490234 
-1436.699951 2560.000000 4523.009766 
-1436.000000 2560.699951 4523.279785 
-1439.199951 2568.399902 4531.890137 
-1439.500000 2570.800049 4534.089844 
-1434.800049 2564.199951 4525.790039 
-1435.099976 2566.500000 4528.109863 
-1433.099976 2564.800049 4525.509766 
-1432.599976 2565.800049 4526.209961 
-1431.599976 2565.800049 4525.600098 
-1430.599976 2566.100098 4525.390137 
-1429.699951 2566.399902 4525.299805 
-1428.800049 2566.699951 4525.080078 
-1427.900024 2567.100098 4524.899902 
-1426.500000 2566.300049 4523.589844 
-1425.400024 2566.399902 4523.100098 
-1424.099976 2566.000000 4522.089844 
-1423.000000 2565.899902 4521.390137 
-1422.199951 2566.100098 4521.209961 
-1421.400024 2566.500000 4521.209961 
-1420.000000 2565.800049 4519.899902 
-1418.900024 2565.600098 4519.100098 
-1417.900024 2565.800049 4518.799805 
-1416.900024 2565.899902 4518.399902 
-1415.800049 2565.800049 4517.790039 
-1415.099976 2566.399902 4518.009766 
-1414.099976 2566.500000 4517.490234 
-1413.199951 2566.699951 4517.299805 
-1412.000000 2566.500000 4516.509766 
-1411.000000 2566.600098 4516.109863 
-1410.000000 2566.699951 4515.689941 
-1409.099976 2566.800049 4515.290039 
-1408.099976 2566.899902 4514.890137 
-1407.099976 2567.000000 4514.589844 
-1405.900024 2566.600098 4513.609863 
-1405.000000 2567.100098 4513.609863 
-1403.699951 2566.699951 4512.600098 
-1402.699951 2566.899902 4512.299805 
-1401.500000 2566.600098 4511.500000 
-1400.699951 2566.899902 4511.290039 
-1399.500000 2566.699951 4510.589844 
-1398.599976 2566.899902 4510.189941 
-1397.699951 2567.100098 4509.890137 
-1396.699951 2567.100098 4509.490234 
-1395.900024 2567.500000 4509.490234 
-1394.900024 2567.600098 4509.089844 
-1393.900024 2567.899902 4508.910156 
-1392.900024 2568.000000 4508.509766 
-1392.099976 2568.399902 4508.390137 
-1391.099976 2568.500000 4508.000000 
-1390.099976 2568.500000 4507.509766 
-1388.900024 2568.399902 4506.899902 
-1388.000000 2568.699951 4506.709961 
-1387.199951 2569.000000 4506.500000 
-1386.000000 2568.699951 4505.709961 
-1385.099976 2569.000000 4505.490234 
-1384.099976 2569.100098 4505.100098 
-1382.900024 2568.800049 4504.299805 
-1382.099976 2569.199951 4504.209961 
-1381.000000 2569.100098 4503.689941 
-1380.000000 2569.199951 4503.200195 
-1379.099976 2569.399902 4502.990234 
-1377.900024 2569.199951 4502.200195 
-1376.900024 2569.300049 4501.799805 
-1375.900024 2569.300049 4501.310059 
-1374.800049 2569.100098 4500.609863 
-1373.800049 2569.300049 4500.209961 
-1372.500000 2568.899902 4499.299805 
-1371.400024 2568.699951 4498.600098 
-1370.300049 2568.600098 4497.990234 
-1369.199951 2568.500000 4497.410156 
-1367.900024 2568.000000 4496.310059 
-1366.699951 2567.699951 4495.390137 
-1365.400024 2567.399902 4494.509766 
-1364.300049 2567.100098 4493.709961 
-1363.199951 2567.000000 4493.200195 
-1362.099976 2566.899902 4492.490234 
-1361.400024 2567.600098 4492.709961 
-1360.400024 2567.600098 4492.310059 
-1359.300049 2567.500000 4491.700195 
-1358.300049 2567.399902 4491.089844 
-1357.300049 2567.600098 4490.810059 
-1356.199951 2567.399902 4490.109863 
-1355.199951 2567.600098 4489.810059 
-1354.099976 2567.500000 4489.200195 
-1353.099976 2567.600098 4488.799805 
-1352.000000 2567.399902 4488.009766 
-1350.900024 2567.399902 4487.490234 
-1350.000000 2567.500000 4487.209961 
-1349.099976 2567.600098 4486.790039 
-1347.800049 2567.199951 4485.899902 
-1347.000000 2567.600098 4485.899902 
-1346.000000 2567.600098 4485.410156 
-1345.000000 2567.600098 4484.890137 
-1344.099976 2568.000000 4484.799805 
-1343.300049 2568.600098 4484.979980 
-1342.400024 2568.899902 4484.799805 
-1341.300049 2568.600098 4484.009766 
-1340.199951 2568.600098 4483.490234 
-1339.400024 2569.000000 4483.490234 
-1338.500000 2569.199951 4483.310059 
-1337.500000 2569.199951 4482.790039 
-1336.900024 2569.899902 4483.089844 
-1335.699951 2569.500000 4482.209961 
-1334.900024 2569.899902 4482.209961 
-1333.699951 2569.800049 4481.600098 
-1333.099976 2570.699951 4481.990234 
-1332.300049 2571.000000 4481.990234 
-1331.500000 2571.600098 4482.089844 
-1330.800049 2572.199951 4482.390137 
-1330.199951 2572.899902 4482.700195 
-1329.300049 2573.100098 4482.509766 
-1328.300049 2573.100098 4481.990234 
-1327.699951 2574.000000 4482.509766 
-1327.000000 2574.600098 4482.700195 
-1326.800049 2576.100098 4484.009766 
-1324.699951 2574.199951 4481.290039 
-1323.099976 2573.100098 4479.490234 
-1322.000000 2572.899902 4478.790039 
-1321.199951 2573.300049 4478.790039 
-1320.099976 2573.199951 4478.299805 
-1318.500000 2572.000000 4476.290039 
-1316.900024 2570.899902 4474.609863 
-1315.000000 2568.899902 4471.890137 
-1314.099976 2569.199951 4471.799805 
-1313.599976 2570.199951 4472.410156 
-1312.400024 2569.899902 4471.709961 
-1311.599976 2570.300049 4471.500000 
-1310.800049 2570.800049 4471.709961 
-1309.500000 2570.199951 4470.490234 
-1308.400024 2570.100098 4469.910156 
-1307.099976 2569.399902 4468.689941 
-1305.400024 2568.199951 4466.799805 
-1304.599976 2568.500000 4466.700195 
-1303.500000 2568.399902 4466.089844 
-1302.800049 2568.899902 4466.089844 
-1301.900024 2569.199951 4466.089844 
-1301.800049 2570.800049 4467.500000 
-1290.699951 2556.800049 4449.490234 
-1439.099976 2558.600098 4521.089844 
-1439.900024 2562.000000 4524.600098 
-1439.500000 2565.100098 4527.100098 
-1436.400024 2561.399902 4522.189941 
-1439.099976 2568.199951 4529.790039 
-1437.000000 2566.300049 4526.890137 
-1434.800049 2564.100098 4523.890137 
-1435.300049 2566.800049 4526.609863 
-1433.800049 2566.100098 4525.209961 
-1432.400024 2565.500000 4523.890137 
-1431.400024 2565.600098 4523.589844 
-1430.800049 2566.399902 4523.990234 
-1429.900024 2566.699951 4523.709961 
-1428.699951 2566.600098 4523.009766 
-1427.800049 2566.899902 4522.890137 
-1426.800049 2566.899902 4522.399902 
-1425.599976 2566.699951 4521.609863 
-1424.300049 2566.399902 4520.689941 
-1423.300049 2566.399902 4520.200195 
-1422.400024 2566.500000 4519.810059 
-1421.199951 2566.199951 4519.009766 
-1420.099976 2566.000000 4518.189941 
-1418.900024 2565.699951 4517.399902 
-1418.199951 2566.199951 4517.490234 
-1417.099976 2566.100098 4516.819824 
-1416.099976 2566.300049 4516.509766 
-1415.400024 2566.800049 4516.689941 
-1414.199951 2566.699951 4515.990234 
-1413.300049 2567.000000 4515.810059 
-1412.199951 2566.899902 4515.109863 
-1411.000000 2566.600098 4514.310059 
-1410.099976 2566.800049 4514.009766 
-1409.199951 2566.899902 4513.700195 
-1408.400024 2567.399902 4513.700195 
-1407.099976 2566.899902 4512.600098 
-1406.300049 2567.500000 4512.700195 
-1405.300049 2567.500000 4512.209961 
-1404.000000 2567.300049 4511.500000 
-1403.000000 2567.399902 4510.990234 
-1401.900024 2567.199951 4510.310059 
-1400.900024 2567.199951 4509.799805 
-1400.000000 2567.500000 4509.609863 
-1399.000000 2567.800049 4509.399902 
-1398.000000 2567.800049 4508.910156 
-1397.199951 2568.100098 4508.790039 
-1396.300049 2568.300049 4508.609863 
-1395.199951 2568.300049 4508.000000 
-1394.400024 2568.699951 4507.899902 
-1393.400024 2568.899902 4507.689941 
-1392.400024 2569.000000 4507.290039 
-1391.699951 2569.600098 4507.379883 
-1390.500000 2569.300049 4506.589844 
-1389.400024 2569.300049 4506.100098 
-1388.500000 2569.500000 4505.799805 
-1387.500000 2569.600098 4505.399902 
-1386.500000 2569.600098 4505.000000 
-1385.500000 2569.800049 4504.609863 
-1384.400024 2569.600098 4503.910156 
-1383.500000 2569.800049 4503.600098 
-1382.400024 2569.800049 4503.109863 
-1381.500000 2570.000000 4502.810059 
-1380.400024 2569.800049 4502.109863 
-1379.199951 2569.699951 4501.490234 
-1378.199951 2569.800049 4501.009766 
-1377.199951 2569.699951 4500.399902 
-1376.300049 2570.000000 4500.310059 
-1375.199951 2569.899902 4499.689941 
-1374.000000 2569.699951 4498.899902 
-1372.800049 2569.500000 4498.109863 
-1371.699951 2569.199951 4497.410156 
-1370.599976 2569.100098 4496.700195 
-1369.199951 2568.500000 4495.509766 
-1368.300049 2568.699951 4495.299805 
-1366.800049 2568.000000 4493.899902 
-1365.699951 2567.800049 4493.200195 
-1364.599976 2567.800049 4492.620117 
-1363.699951 2567.899902 4492.310059 
-1362.599976 2567.800049 4491.700195 
-1361.900024 2568.500000 4492.000000 
-1360.800049 2568.300049 4491.299805 
-1359.699951 2568.199951 4490.600098 
-1358.699951 2568.199951 4490.200195 
-1357.800049 2568.500000 4489.990234 
-1356.500000 2568.000000 4489.009766 
-1355.800049 2568.699951 4489.200195 
-1354.699951 2568.600098 4488.589844 
-1353.699951 2568.600098 4488.189941 
-1352.500000 2568.300049 4487.209961 
-1351.500000 2568.399902 4486.910156 
-1350.599976 2568.600098 4486.600098 
-1349.599976 2568.600098 4486.209961 
-1348.400024 2568.199951 4485.200195 
-1347.400024 2568.300049 4484.890137 
-1346.500000 2568.600098 4484.709961 
-1345.400024 2568.500000 4484.100098 
-1344.599976 2569.000000 4484.189941 
-1343.699951 2569.399902 4484.009766 
-1342.800049 2569.500000 4483.700195 
-1341.900024 2569.699951 4483.490234 
-1340.699951 2569.600098 4482.790039 
-1339.900024 2570.000000 4482.790039 
-1339.199951 2570.399902 4482.790039 
-1338.099976 2570.300049 4482.209961 
-1337.199951 2570.500000 4481.990234 
-1336.199951 2570.399902 4481.509766 
-1335.300049 2570.699951 4481.290039 
-1334.400024 2571.000000 4481.109863 
-1333.400024 2571.199951 4480.899902 
-1332.599976 2571.699951 4480.899902 
-1331.699951 2572.000000 4480.799805 
-1331.000000 2572.600098 4480.899902 
-1331.199951 2580.699951 4488.399902 
-1331.599976 2583.500000 4491.299805 
-1330.500000 2583.399902 4490.600098 
-1326.500000 2577.600098 4483.490234 
-1324.000000 2574.800049 4479.709961 
-1322.800049 2574.600098 4478.910156 
-1322.300049 2575.500000 4479.490234 
-1321.300049 2575.600098 4479.089844 
-1310.800049 2568.600098 4467.799805 
-1310.400024 2569.899902 4468.899902 
-1309.300049 2569.800049 4468.200195 
-1308.500000 2570.100098 4468.109863 
-1307.599976 2570.500000 4468.109863 
-1306.099976 2569.399902 4466.399902 
-1305.199951 2569.800049 4466.310059 
-1304.500000 2570.399902 4466.609863 
-1304.900024 2573.100098 4469.209961 
-1443.199951 2564.199951 4526.310059 
-1440.099976 2560.500000 4521.520020 
-1441.800049 2565.399902 4526.700195 
-1441.000000 2565.800049 4526.609863 
-1440.000000 2565.899902 4526.209961 
-1439.000000 2566.100098 4526.000000 
-1438.300049 2566.699951 4526.089844 
-1437.400024 2566.899902 4525.790039 
-1435.300049 2565.000000 4523.100098 
-1435.400024 2566.899902 4524.899902 
-1433.900024 2566.199951 4523.500000 
-1432.599976 2565.800049 4522.490234 
-1431.699951 2566.100098 4522.310059 
-1430.900024 2566.500000 4522.189941 
-1430.099976 2567.100098 4522.399902 
-1428.800049 2566.699951 4521.299805 
-1428.000000 2567.199951 4521.390137 
-1427.000000 2567.100098 4520.810059 
-1425.599976 2566.699951 4519.810059 
-1424.500000 2566.699951 4519.200195 
-1423.199951 2566.300049 4518.189941 
-1422.300049 2566.399902 4517.790039 
-1421.300049 2566.300049 4517.299805 
-1420.300049 2566.300049 4516.819824 
-1419.199951 2566.199951 4516.209961 
-1418.300049 2566.500000 4515.990234 
-1417.500000 2566.800049 4515.810059 
-1416.199951 2566.500000 4514.890137 
-1415.599976 2567.199951 4515.200195 
-1414.400024 2567.100098 4514.589844 
-1413.300049 2566.899902 4513.890137 
-1412.400024 2567.300049 4513.790039 
-1411.400024 2567.300049 4513.209961 
-1410.199951 2567.000000 4512.390137 
-1409.400024 2567.399902 4512.299805 
-1408.599976 2567.800049 4512.299805 
-1407.199951 2567.100098 4510.899902 
-1406.599976 2567.899902 4511.410156 
-1405.599976 2568.100098 4511.109863 
-1404.500000 2568.100098 4510.589844 
-1403.199951 2567.800049 4509.609863 
-1402.400024 2568.199951 4509.609863 
-1401.199951 2567.899902 4508.700195 
-1400.300049 2568.100098 4508.509766 
-1399.500000 2568.600098 4508.509766 
-1398.500000 2568.600098 4508.089844 
-1397.699951 2569.000000 4508.000000 
-1396.599976 2568.899902 4507.379883 
-1395.699951 2569.100098 4507.109863 
-1394.800049 2569.500000 4506.990234 
-1393.900024 2569.800049 4506.799805 
-1392.800049 2569.800049 4506.290039 
-1392.000000 2570.199951 4506.410156 
-1390.900024 2570.100098 4505.709961 
-1390.000000 2570.500000 4505.609863 
-1388.800049 2570.000000 4504.490234 
-1388.000000 2570.500000 4504.609863 
-1387.099976 2570.699951 4504.390137 
-1386.099976 2570.800049 4504.000000 
-1385.000000 2570.699951 4503.390137 
-1384.199951 2571.199951 4503.390137 
-1383.000000 2570.800049 4502.410156 
-1381.900024 2570.600098 4501.799805 
-1380.699951 2570.399902 4501.009766 
-1379.699951 2570.500000 4500.609863 
-1378.599976 2570.600098 4500.089844 
-1377.699951 2570.699951 4499.790039 
-1376.599976 2570.600098 4499.120117 
-1375.599976 2570.600098 4498.689941 
-1374.300049 2570.199951 4497.709961 
-1373.300049 2570.300049 4497.189941 
-1371.900024 2569.600098 4495.910156 
-1370.800049 2569.500000 4495.390137 
-1369.500000 2569.000000 4494.290039 
-1368.400024 2569.000000 4493.709961 
-1367.199951 2568.600098 4492.799805 
-1366.099976 2568.600098 4492.310059 
-1365.099976 2568.600098 4491.700195 
-1364.300049 2568.899902 4491.700195 
-1363.300049 2569.100098 4491.390137 
-1362.199951 2569.000000 4490.689941 
-1361.300049 2569.199951 4490.509766 
-1360.300049 2569.300049 4490.109863 
-1359.199951 2569.199951 4489.500000 
-1358.199951 2569.300049 4489.100098 
-1357.199951 2569.300049 4488.709961 
-1356.099976 2569.300049 4488.100098 
-1355.199951 2569.600098 4488.009766 
-1354.199951 2569.600098 4487.399902 
-1353.000000 2569.300049 4486.600098 
-1352.099976 2569.500000 4486.299805 
-1351.099976 2569.500000 4485.810059 
-1350.099976 2569.399902 4485.290039 
-1348.900024 2569.199951 4484.589844 
-1347.900024 2569.199951 4484.100098 
-1347.000000 2569.600098 4484.009766 
-1345.900024 2569.500000 4483.399902 
-1345.000000 2569.600098 4483.089844 
-1344.300049 2570.600098 4483.609863 
-1343.400024 2570.699951 4483.180176 
-1342.400024 2570.800049 4482.910156 
-1341.400024 2570.699951 4482.390137 
-1340.500000 2571.100098 4482.299805 
-1339.900024 2571.699951 4482.600098 
-1338.699951 2571.399902 4481.689941 
-1337.599976 2571.300049 4481.200195 
-1336.900024 2571.800049 4481.200195 
-1335.800049 2571.600098 4480.500000 
-1334.900024 2572.000000 4480.500000 
-1333.800049 2571.899902 4479.799805 
-1332.699951 2571.899902 4479.310059 
-1327.800049 2580.100098 4484.500000 
-1302.000000 2555.399902 4449.890137 
-1302.199951 2557.800049 4452.089844 
-1301.500000 2558.500000 4452.520020 
-1302.099976 2561.699951 4455.689941 
-1302.800049 2565.000000 4459.020020 
-1304.699951 2570.800049 4465.209961 
-1307.800049 2578.699951 4473.910156 
-1449.000000 2572.500000 4534.910156 
-1443.400024 2564.399902 4524.810059 
-1442.400024 2564.500000 4524.410156 
-1441.000000 2563.899902 4523.100098 
-1441.300049 2566.399902 4525.509766 
-1440.300049 2566.500000 4525.080078 
-1439.400024 2566.800049 4524.899902 
-1438.300049 2566.800049 4524.290039 
-1437.400024 2566.899902 4523.990234 
-1436.000000 2566.199951 4522.700195 
-1435.400024 2567.000000 4523.100098 
-1434.099976 2566.600098 4522.089844 
-1433.199951 2566.800049 4521.790039 
-1431.800049 2566.300049 4520.689941 
-1431.199951 2567.100098 4521.000000 
-1430.300049 2567.399902 4520.810059 
-1429.000000 2567.000000 4519.899902 
-1428.099976 2567.399902 4519.810059 
-1427.000000 2567.199951 4519.009766 
-1425.599976 2566.600098 4517.790039 
-1424.699951 2566.899902 4517.700195 
-1423.300049 2566.500000 4516.600098 
-1422.599976 2566.899902 4516.600098 
-1421.599976 2566.800049 4515.990234 
-1420.500000 2566.699951 4515.410156 
-1419.400024 2566.600098 4514.799805 
-1418.599976 2567.000000 4514.709961 
-1417.599976 2567.100098 4514.310059 
-1416.500000 2567.000000 4513.700195 
-1415.500000 2567.000000 4513.209961 
-1414.699951 2567.500000 4513.209961 
-1413.500000 2567.300049 4512.509766 
-1412.599976 2567.699951 4512.299805 
-1411.800049 2568.100098 4512.299805 
-1410.699951 2567.899902 4511.500000 
-1409.800049 2568.199951 4511.410156 
-1408.800049 2568.000000 4510.799805 
-1407.800049 2568.100098 4510.310059 
-1406.900024 2568.500000 4510.189941 
-1406.000000 2568.800049 4510.009766 
-1404.699951 2568.600098 4509.189941 
-1403.699951 2568.699951 4508.790039 
-1402.900024 2569.000000 4508.700195 
-1401.800049 2568.899902 4508.089844 
-1400.800049 2569.100098 4507.810059 
-1399.900024 2569.300049 4507.509766 
-1399.099976 2569.600098 4507.379883 
-1398.099976 2569.699951 4506.990234 
-1397.099976 2569.699951 4506.500000 
-1396.199951 2570.000000 4506.290039 
-1395.099976 2570.000000 4505.799805 
-1394.400024 2570.800049 4506.189941 
-1393.300049 2570.600098 4505.399902 
-1392.599976 2571.300049 4505.709961 
-1391.500000 2571.199951 4505.100098 
-1390.400024 2571.100098 4504.490234 
-1389.300049 2571.000000 4503.810059 
-1388.599976 2571.500000 4504.000000 
-1387.500000 2571.399902 4503.390137 
-1386.500000 2571.600098 4502.990234 
-1385.400024 2571.500000 4502.410156 
-1384.500000 2571.600098 4502.109863 
-1383.300049 2571.399902 4501.310059 
-1382.300049 2571.500000 4500.879883 
-1381.300049 2571.500000 4500.399902 
-1380.300049 2571.699951 4500.209961 
-1379.099976 2571.500000 4499.390137 
-1378.300049 2571.800049 4499.299805 
-1377.099976 2571.399902 4498.290039 
-1376.000000 2571.399902 4497.709961 
-1374.900024 2571.300049 4497.100098 
-1373.500000 2570.800049 4496.000000 
-1372.300049 2570.399902 4495.000000 
-1371.099976 2570.100098 4494.200195 
-1369.900024 2569.699951 4493.290039 
-1368.699951 2569.500000 4492.490234 
-1367.500000 2569.199951 4491.700195 
-1366.599976 2569.600098 4491.609863 
-1365.599976 2569.500000 4491.000000 
-1364.800049 2569.899902 4491.000000 
-1363.800049 2570.000000 4490.600098 
-1362.699951 2569.899902 4489.990234 
-1361.800049 2570.300049 4489.899902 
-1360.900024 2570.399902 4489.589844 
-1359.800049 2570.399902 4489.100098 
-1358.699951 2570.300049 4488.399902 
-1357.800049 2570.500000 4488.189941 
-1356.699951 2570.399902 4487.609863 
-1355.800049 2570.699951 4487.399902 
-1354.900024 2570.899902 4487.089844 
-1353.599976 2570.399902 4485.990234 
-1352.699951 2570.699951 4485.899902 
-1351.699951 2570.800049 4485.500000 
-1350.500000 2570.300049 4484.500000 
-1349.500000 2570.300049 4484.009766 
-1348.599976 2570.699951 4484.009766 
-1347.599976 2570.800049 4483.609863 
-1346.599976 2570.699951 4482.910156 
-1345.599976 2570.899902 4482.700195 
-1345.199951 2572.199951 4483.700195 
-1344.400024 2572.600098 4483.700195 
-1343.500000 2572.699951 4483.399902 
-1342.400024 2572.600098 4482.700195 
-1341.300049 2572.500000 4482.089844 
-1340.400024 2572.699951 4481.899902 
-1339.300049 2572.500000 4481.200195 
-1338.300049 2572.699951 4480.899902 
-1337.500000 2573.000000 4480.709961 
-1336.500000 2573.000000 4480.290039 
-1335.400024 2573.000000 4479.709961 
-1334.199951 2572.699951 4478.910156 
-1333.000000 2572.399902 4478.089844 
-1329.099976 2582.699951 4485.600098 
-1444.800049 2565.000000 4524.200195 
-1442.699951 2563.100098 4521.390137 
-1442.199951 2564.100098 4522.089844 
-1441.699951 2565.199951 4522.700195 
-1441.300049 2566.300049 4523.500000 
-1440.500000 2566.800049 4523.589844 
-1439.400024 2566.800049 4523.009766 
-1438.199951 2566.600098 4522.310059 
-1437.300049 2566.800049 4522.000000 
-1436.199951 2566.500000 4521.209961 
-1435.199951 2566.600098 4520.810059 
-1434.199951 2566.699951 4520.390137 
-1433.300049 2567.100098 4520.290039 
-1432.000000 2566.600098 4519.200195 
-1431.199951 2567.100098 4519.200195 
-1430.199951 2567.199951 4518.799805 
-1429.000000 2567.100098 4518.100098 
-1428.000000 2567.199951 4517.790039 
-1427.099976 2567.399902 4517.399902 
-1425.800049 2566.899902 4516.390137 
-1424.699951 2566.899902 4515.810059 
-1423.599976 2566.899902 4515.290039 
-1422.800049 2567.300049 4515.200195 
-1421.699951 2567.000000 4514.399902 
-1420.900024 2567.300049 4514.310059 
-1419.699951 2567.100098 4513.490234 
-1418.800049 2567.500000 4513.399902 
-1417.800049 2567.500000 4512.910156 
-1416.900024 2567.699951 4512.700195 
-1415.800049 2567.600098 4511.990234 
-1414.900024 2568.000000 4511.990234 
-1413.900024 2568.100098 4511.500000 
-1413.099976 2568.500000 4511.410156 
-1412.099976 2568.600098 4510.990234 
-1411.000000 2568.399902 4510.310059 
-1410.199951 2568.699951 4510.189941 
-1409.300049 2569.000000 4510.009766 
-1408.099976 2568.800049 4509.189941 
-1407.199951 2569.100098 4509.089844 
-1406.300049 2569.399902 4509.000000 
-1405.300049 2569.500000 4508.509766 
-1404.199951 2569.500000 4508.000000 
-1403.199951 2569.699951 4507.689941 
-1402.300049 2569.899902 4507.379883 
-1401.400024 2570.100098 4507.109863 
-1400.500000 2570.300049 4506.899902 
-1399.400024 2570.199951 4506.189941 
-1398.500000 2570.500000 4506.009766 
-1397.599976 2570.699951 4505.799805 
-1396.800049 2571.100098 4505.799805 
-1395.699951 2571.199951 4505.310059 
-1394.900024 2571.699951 4505.399902 
-1393.800049 2571.600098 4504.700195 
-1393.000000 2572.100098 4504.790039 
-1391.800049 2571.800049 4503.910156 
-1390.800049 2571.899902 4503.600098 
-1390.199951 2572.600098 4503.910156 
-1388.900024 2572.100098 4502.810059 
-1388.000000 2572.399902 4502.689941 
-1386.900024 2572.300049 4502.109863 
-1386.099976 2572.699951 4501.890137 
-1384.800049 2572.199951 4500.879883 
-1383.699951 2572.100098 4500.310059 
-1383.000000 2572.699951 4500.490234 
-1381.900024 2572.600098 4499.790039 
-1380.699951 2572.500000 4499.209961 
-1379.599976 2572.399902 4498.600098 
-1378.599976 2572.300049 4497.990234 
-1377.500000 2572.300049 4497.410156 
-1376.500000 2572.399902 4497.100098 
-1375.300049 2572.000000 4496.089844 
-1373.800049 2571.199951 4494.600098 
-1372.800049 2571.199951 4494.200195 
-1371.500000 2570.800049 4493.200195 
-1370.099976 2570.100098 4491.910156 
-1369.099976 2570.199951 4491.490234 
-1368.000000 2570.199951 4490.910156 
-1367.400024 2571.100098 4491.490234 
-1366.599976 2571.500000 4491.490234 
-1365.599976 2571.500000 4491.000000 
-1364.599976 2571.500000 4490.509766 
-1363.599976 2571.600098 4490.109863 
-1362.400024 2571.399902 4489.410156 
-1361.699951 2572.000000 4489.500000 
-1360.599976 2571.800049 4488.890137 
-1359.599976 2571.899902 4488.500000 
-1358.800049 2572.300049 4488.399902 
-1357.800049 2572.500000 4488.100098 
-1356.699951 2572.399902 4487.609863 
-1356.000000 2572.899902 4487.609863 
-1354.699951 2572.399902 4486.600098 
-1353.599976 2572.500000 4486.109863 
-1352.599976 2572.399902 4485.600098 
-1351.400024 2572.000000 4484.709961 
-1350.400024 2571.899902 4484.100098 
-1349.500000 2572.300049 4484.009766 
-1348.599976 2572.600098 4483.890137 
-1347.900024 2573.300049 4484.100098 
-1347.400024 2574.300049 4484.799805 
-1347.500000 2576.699951 4487.089844 
-1347.099976 2577.800049 4487.910156 
-1347.199951 2579.899902 4489.810059 
-1345.099976 2577.800049 4486.910156 
-1342.900024 2575.600098 4483.890137 
-1341.099976 2574.199951 4481.689941 
-1339.900024 2573.699951 4480.709961 
-1338.800049 2573.600098 4480.189941 
-1338.000000 2573.899902 4480.009766 
-1337.000000 2574.000000 4479.609863 
-1336.099976 2574.300049 4479.399902 
-1334.599976 2573.600098 4478.089844 
-1333.000000 2572.399902 4476.290039 
-1447.000000 2566.899902 4525.080078 
-1443.500000 2562.600098 4519.500000 
-1442.699951 2563.199951 4519.589844 
-1442.099976 2564.000000 4519.990234 
-1441.699951 2565.199951 4520.910156 
-1441.099976 2566.000000 4521.390137 
-1440.500000 2566.899902 4521.790039 
-1438.900024 2565.899902 4520.200195 
-1438.000000 2566.100098 4519.899902 
-1436.900024 2566.000000 4519.200195 
-1435.699951 2565.800049 4518.399902 
-1434.900024 2566.100098 4518.310059 
-1434.000000 2566.500000 4518.189941 
-1433.099976 2566.699951 4518.009766 
-1432.300049 2567.199951 4518.009766 
-1431.199951 2567.100098 4517.299805 
-1430.099976 2567.100098 4516.819824 
-1429.099976 2567.199951 4516.390137 
-1428.199951 2567.600098 4516.299805 
-1427.300049 2567.699951 4515.899902 
-1426.099976 2567.600098 4515.200195 
-1424.800049 2567.199951 4514.310059 
-1423.900024 2567.500000 4514.100098 
-1422.900024 2567.399902 4513.490234 
-1422.099976 2567.699951 4513.399902 
-1421.199951 2568.000000 4513.209961 
-1420.099976 2567.699951 4512.390137 
-1419.199951 2568.100098 4512.299805 
-1418.199951 2568.199951 4511.810059 
-1417.199951 2568.199951 4511.410156 
-1416.400024 2568.699951 4511.500000 
-1415.400024 2568.800049 4510.990234 
-1414.199951 2568.699951 4510.310059 
-1413.599976 2569.300049 4510.589844 
-1412.599976 2569.399902 4510.189941 
-1411.500000 2569.399902 4509.609863 
-1410.500000 2569.399902 4509.089844 
-1409.699951 2569.800049 4509.089844 
-1408.599976 2569.600098 4508.299805 
-1407.599976 2569.800049 4508.089844 
-1406.699951 2570.000000 4507.810059 
-1405.599976 2570.100098 4507.379883 
-1404.699951 2570.399902 4507.200195 
-1403.699951 2570.600098 4506.899902 
-1402.800049 2570.800049 4506.589844 
-1401.800049 2570.800049 4506.100098 
-1400.800049 2571.000000 4505.799805 
-1399.800049 2571.100098 4505.399902 
-1399.000000 2571.399902 4505.189941 
-1398.199951 2571.800049 4505.189941 
-1397.199951 2571.899902 4504.910156 
-1396.300049 2572.199951 4504.700195 
-1395.300049 2572.500000 4504.490234 
-1394.400024 2572.699951 4504.209961 
-1393.300049 2572.600098 4503.600098 
-1392.500000 2573.000000 4503.600098 
-1391.300049 2572.800049 4502.810059 
-1390.699951 2573.600098 4503.200195 
-1389.500000 2573.199951 4502.200195 
-1388.699951 2573.600098 4502.200195 
-1387.500000 2573.399902 4501.490234 
-1386.699951 2573.800049 4501.399902 
-1385.400024 2573.399902 4500.399902 
-1384.400024 2573.500000 4500.089844 
-1383.500000 2573.699951 4499.790039 
-1382.400024 2573.600098 4499.209961 
-1381.199951 2573.300049 4498.290039 
-1380.199951 2573.500000 4497.990234 
-1379.099976 2573.199951 4497.189941 
-1378.000000 2573.000000 4496.490234 
-1377.000000 2573.300049 4496.310059 
-1375.699951 2572.800049 4495.089844 
-1374.500000 2572.500000 4494.290039 
-1373.099976 2571.899902 4493.100098 
-1372.099976 2571.899902 4492.620117 
-1370.699951 2571.300049 4491.390137 
-1369.800049 2571.600098 4491.299805 
-1369.000000 2572.100098 4491.390137 
-1368.800049 2573.600098 4492.620117 
-1368.000000 2574.100098 4492.709961 
-1367.400024 2574.699951 4492.890137 
-1366.199951 2574.500000 4492.189941 
-1365.099976 2574.399902 4491.609863 
-1363.900024 2574.199951 4490.810059 
-1363.300049 2575.000000 4491.209961 
-1362.000000 2574.399902 4490.109863 
-1361.099976 2574.800049 4489.990234 
-1360.199951 2575.000000 4489.689941 
-1359.400024 2575.399902 4489.689941 
-1358.400024 2575.600098 4489.410156 
-1357.400024 2575.500000 4488.799805 
-1356.099976 2575.100098 4487.790039 
-1354.800049 2574.600098 4486.790039 
-1353.599976 2574.399902 4485.990234 
-1352.599976 2574.300049 4485.410156 
-1351.300049 2573.699951 4484.310059 
-1350.400024 2574.000000 4484.100098 
-1350.400024 2576.000000 4485.899902 
-1350.699951 2578.500000 4488.310059 
-1352.400024 2583.800049 4493.990234 
-1346.500000 2586.399902 4493.589844 
-1341.300049 2578.300049 4483.700195 
-1340.000000 2577.699951 4482.600098 
-1338.199951 2576.199951 4480.290039 
-1336.199951 2574.600098 4477.910156 
-1336.599976 2577.300049 4480.589844 
-1338.400024 2582.699951 4486.299805 
-1451.900024 2564.699951 4523.709961 
-1453.199951 2568.899902 4528.200195 
-1452.099976 2572.500000 4530.790039 
-1447.500000 2566.100098 4522.799805 
-1445.199951 2563.800049 4519.589844 
-1443.599976 2562.800049 4517.910156 
-1442.699951 2563.300049 4517.910156 
-1442.000000 2563.699951 4517.910156 
-1441.400024 2564.699951 4518.490234 
-1440.599976 2565.100098 4518.399902 
-1440.099976 2566.000000 4519.009766 
-1438.400024 2565.000000 4517.299805 
-1437.500000 2565.199951 4517.000000 
-1436.500000 2565.300049 4516.600098 
-1435.599976 2565.500000 4516.299805 
-1434.599976 2565.500000 4515.810059 
-1434.000000 2566.399902 4516.299805 
-1433.000000 2566.399902 4515.810059 
-1432.099976 2566.800049 4515.689941 
-1431.199951 2567.100098 4515.500000 
-1430.400024 2567.699951 4515.689941 
-1429.500000 2567.899902 4515.410156 
-1428.500000 2568.100098 4515.020020 
-1427.300049 2567.800049 4514.189941 
-1426.400024 2568.000000 4513.890137 
-1425.099976 2567.699951 4513.000000 
-1424.199951 2568.000000 4512.910156 
-1423.300049 2568.100098 4512.509766 
-1422.400024 2568.300049 4512.209961 
-1421.400024 2568.199951 4511.600098 
-1420.400024 2568.300049 4511.200195 
-1419.500000 2568.699951 4511.109863 
-1418.699951 2569.000000 4510.899902 
-1417.599976 2568.899902 4510.310059 
-1416.900024 2569.600098 4510.589844 
-1415.900024 2569.800049 4510.310059 
-1414.699951 2569.500000 4509.399902 
-1413.900024 2569.899902 4509.399902 
-1413.099976 2570.399902 4509.399902 
-1412.199951 2570.500000 4509.089844 
-1410.900024 2570.100098 4508.209961 
-1410.099976 2570.500000 4508.089844 
-1409.300049 2570.899902 4508.000000 
-1408.099976 2570.699951 4507.290039 
-1407.099976 2570.800049 4506.899902 
-1406.199951 2571.199951 4506.799805 
-1405.300049 2571.500000 4506.589844 
-1404.300049 2571.699951 4506.290039 
-1403.300049 2571.600098 4505.709961 
-1402.300049 2571.699951 4505.310059 
-1401.400024 2572.000000 4505.100098 
-1400.400024 2572.100098 4504.790039 
-1399.500000 2572.300049 4504.390137 
-1398.699951 2572.600098 4504.299805 
-1397.800049 2572.899902 4504.209961 
-1396.500000 2572.600098 4503.200195 
-1395.800049 2573.199951 4503.509766 
-1394.900024 2573.500000 4503.299805 
-1393.699951 2573.300049 4502.589844 
-1393.099976 2574.100098 4502.899902 
-1392.099976 2574.100098 4502.500000 
-1391.199951 2574.399902 4502.290039 
-1390.099976 2574.300049 4501.709961 
-1389.300049 2574.800049 4501.709961 
-1388.000000 2574.300049 4500.700195 
-1387.199951 2574.699951 4500.609863 
-1386.099976 2574.600098 4500.000000 
-1385.099976 2574.699951 4499.600098 
-1384.099976 2574.699951 4499.209961 
-1383.099976 2574.800049 4498.689941 
-1381.800049 2574.500000 4497.890137 
-1381.000000 2574.899902 4497.799805 
-1379.599976 2574.300049 4496.609863 
-1378.500000 2574.100098 4495.910156 
-1377.400024 2574.000000 4495.209961 
-1376.500000 2574.399902 4495.209961 
-1375.000000 2573.500000 4493.589844 
-1373.599976 2572.699951 4492.310059 
-1372.900024 2573.399902 4492.490234 
-1371.699951 2573.100098 4491.700195 
-1371.000000 2573.800049 4492.000000 
-1370.500000 2574.800049 4492.709961 
-1370.199951 2576.300049 4493.899902 
-1369.500000 2576.899902 4494.109863 
-1369.099976 2578.000000 4494.899902 
-1368.000000 2577.899902 4494.290039 
-1367.000000 2578.100098 4493.990234 
-1366.000000 2578.100098 4493.410156 
-1365.099976 2578.399902 4493.290039 
-1363.800049 2577.899902 4492.310059 
-1362.900024 2578.100098 4492.000000 
-1362.500000 2579.300049 4492.890137 
-1361.900024 2580.300049 4493.500000 
-1360.800049 2580.000000 4492.709961 
-1359.000000 2578.699951 4490.689941 
-1357.300049 2577.399902 4488.589844 
-1355.800049 2576.500000 4487.089844 
-1354.599976 2576.100098 4486.209961 
-1353.599976 2576.100098 4485.810059 
-1352.400024 2575.699951 4484.799805 
-1351.599976 2576.300049 4484.979980 
-1352.699951 2580.500000 4489.290039 
-1463.400024 2568.000000 4530.700195 
-1462.400024 2569.899902 4531.799805 
-1465.199951 2576.600098 4539.220215 
-1460.900024 2574.699951 4535.310059 
-1457.599976 2570.800049 4530.209961 
-1453.400024 2565.399902 4523.279785 
-1450.699951 2562.500000 4519.290039 
-1449.800049 2562.800049 4519.100098 
-1450.400024 2565.699951 4522.000000 
-1449.599976 2566.100098 4522.000000 
-1447.699951 2564.600098 4519.709961 
-1445.699951 2562.899902 4517.209961 
-1444.500000 2562.399902 4516.209961 
-1443.500000 2562.600098 4515.899902 
-1442.800049 2563.300049 4516.109863 
-1441.900024 2563.699951 4515.990234 
-1441.099976 2564.199951 4515.990234 
-1440.099976 2564.199951 4515.500000 
-1439.500000 2565.000000 4515.899902 
-1438.300049 2564.800049 4515.109863 
-1437.199951 2564.699951 4514.500000 
-1436.300049 2564.899902 4514.310059 
-1435.400024 2565.199951 4514.100098 
-1434.599976 2565.600098 4514.009766 
-1434.099976 2566.500000 4514.500000 
-1433.099976 2566.600098 4514.100098 
-1432.099976 2566.800049 4513.890137 
-1431.500000 2567.600098 4514.310059 
-1430.400024 2567.600098 4513.790039 
-1429.699951 2568.399902 4514.100098 
-1428.900024 2568.800049 4514.009766 
-1427.500000 2568.000000 4512.700195 
-1426.599976 2568.500000 4512.600098 
-1425.400024 2568.199951 4511.810059 
-1424.599976 2568.699951 4511.810059 
-1423.599976 2568.699951 4511.410156 
-1422.800049 2568.899902 4511.109863 
-1421.500000 2568.500000 4510.100098 
-1420.699951 2568.899902 4510.100098 
-1419.699951 2568.899902 4509.609863 
-1419.000000 2569.500000 4509.799805 
-1418.099976 2569.800049 4509.609863 
-1417.199951 2570.100098 4509.399902 
-1416.199951 2570.199951 4509.000000 
-1415.199951 2570.300049 4508.609863 
-1414.300049 2570.600098 4508.390137 
-1413.300049 2570.800049 4508.209961 
