-899.068 2458.99 7084.57
-899.093 2458.8 7083.75
-900.368 2458.45 7069.38
-899.106 2459.23 7071.76
-899.863 2458.33 7071.96
-899.036 2458.92 7073.49
-899.241 2458.74 7073.2
-899.183 2458.47 7074.87
-899.079 2458.47 7075.6
-898.775 2458.86 7075.57
-899.96 2457.74 7087.49
-901.137 2455.71 7090.22
-899.04 2458.42 7076.77
-899.923 2457.12 7081.4
-900.163 2456.81 7082.72
-900.324 2456.49 7081.49
-900.284 2456.68 7084.42
-900.85 2455.69 7084.52
-899.994 2457.05 7079.92
-900.853 2455.72 7081.76
-899.898 2457.45 7084.81
-900.129 2457.24 7086.38
-899.828 2458.04 7073.36
-901.024 2456.5 7074.5
-899.59 2457.94 7075.21
-899.896 2457.67 7074.83
-899.883 2457.35 7076.76
-900.364 2456.74 7077
-899.616 2457.63 7077.37
-899.972 2457.18 7077.4
-901.077 2455.62 7088.7
-899.867 2457.26 7078.85
-901.006 2455.45 7083.11
-901.229 2455.06 7084.14
-901.488 2454.66 7082.98
-901.039 2455.43 7086.25
-901.682 2454.25 7086.31
-902.056 2453.59 7085.85
-900.997 2455.57 7081.44
-901.693 2454.4 7082.44
-901.076 2455.44 7087.26
-901.003 2456.26 7075.85
-902.061 2454.72 7077.54
-900.739 2456.36 7076.75
-901.05 2455.63 7079.02
-901.6 2454.96 7079.06
-900.768 2455.98 7079.65
-900.799 2455.92 7080.57
-903.374 2451.26 7091.94
-904.644 2449.03 7097.4
-904.078 2450.23 7095.73
-906.246 2445.89 7103.39
-905.464 2447.16 7099.02
-902.029 2453.7 7089.02
-902.898 2452.07 7090.37
-902.014 2453.73 7084.26
-902.247 2453.3 7085.2
-902.25 2453.39 7083.87
-902.236 2453.25 7087.93
-902.722 2452.34 7087.29
-902.942 2452.04 7086.56
-901.768 2454.4 7081.78
-902.38 2453.23 7083.4
-902.453 2453.21 7082.78
-903.32 2453.07 7078.61
-901.777 2454.88 7078.26
-902.807 2453.55 7079.11
-902.179 2454.03 7080.48
-901.697 2454.59 7080.63
-902.726 2453.32 7080.63
-902.438 2453.87 7079.62
-901.72 2454.51 7081.27
-904.148 2449.8 7093.99
-904.272 2449.42 7092.88
-903.729 2450.46 7091.13
-904.863 2448.23 7095.96
-905.617 2446.51 7097.64
-906.259 2445.41 7101.63
-906.957 2443.49 7102.86
-907.013 2443.73 7104.34
-906.42 2444.64 7100.32
-902.981 2451.87 7089.27
-902.889 2452.24 7085.05
-903.103 2451.82 7085.94
-903.077 2451.98 7084.6
-903.273 2451.28 7088.44
-903.499 2450.93 7087.74
-903.744 2450.52 7087.1
-902.309 2453.63 7081.78
-903.098 2452.01 7084.07
-902.928 2452.52 7082.87
-903.205 2451.91 7083.79
-903.645 2452.25 7080.22
-903.226 2452.67 7080.64
-902.347 2453.71 7081.18
-902.857 2452.97 7081.41
-903.323 2452.28 7081.6
-904.921 2447.97 7094.92
-905.102 2447.47 7094.18
-904.491 2448.87 7091.88
-903.876 2450.13 7090.03
-905.77 2445.94 7096.51
-906.604 2444 7099.06
-907.055 2444.11 7106.01
-907.168 2442.59 7101.15
-907.293 2442.43 7102.75
-907.394 2442.47 7104
-907.317 2443.1 7105.3
-903.721 2450.76 7085.69
-903.848 2450.41 7086.46
-903.799 2450.72 7085.23
-904.039 2449.79 7089.04
-904.205 2449.52 7088.38
-904.485 2448.97 7088.12
-904.489 2449.03 7087.53
-902.893 2452.74 7082.15
-903.766 2450.88 7084.83
-903.546 2451.42 7083.82
-903.477 2451.7 7083.08
-903.987 2450.56 7084.77
-916.127 2440.26 7069.12
-917.301 2439.17 7067.45
-913.827 2441.39 7074.66
-912.741 2441.83 7077.21
-910.94 2444.12 7077.27
-905.242 2449.93 7081.33
-906.037 2448.88 7081.43
-904.376 2451.05 7081.2
-903.787 2451.63 7081.68
-903.417 2451.98 7082.31
-903.829 2451.5 7082.05
-905.913 2445.5 7095.83
-905.209 2447.17 7093.02
-906.009 2445.24 7095.19
-904.61 2448.6 7090.68
-906.819 2443.33 7097.89
-907.453 2441.61 7099.69
-907.436 2443.12 7106.59
-907.46 2441.74 7101.53
-907.57 2441.68 7103.09
-907.635 2442.18 7105.47
-907.71 2441.61 7104.31
-904.41 2449.34 7086.73
-904.357 2449.57 7086.02
-904.37 2449.68 7085.56
-904.757 2448.29 7089.77
-904.953 2447.88 7089.42
-905.201 2447.36 7089.11
-905.132 2447.63 7088.24
-904.348 2449.96 7084.89
-903.991 2450.78 7083.94
-904.047 2450.96 7083
-904.577 2449.38 7085.45
-919.192 2437.85 7064.37
-918.533 2437.73 7067.08
-919.606 2436.73 7066.25
-917.24 2438.12 7070.79
-915.35 2439.94 7073.04
-918.134 2437.41 7069.36
-914.254 2440.13 7076.51
-915.607 2438.83 7074.9
-913.581 2440.41 7078.15
-912.744 2440.95 7079.56
-912.084 2442.02 7078.99
-910.83 2443.68 7078.72
-909.462 2445.1 7079.56
-910.315 2443.77 7079.97
-906.547 2448.23 7081.37
-905.061 2449.87 7082.14
-904.364 2450.92 7081.67
-905.761 2448.73 7082.71
-904.356 2450.74 7082.3
-906.965 2442.9 7097.01
-907.094 2442.57 7096.59
-905.353 2446.83 7092.08
-906.057 2445.13 7094.39
-907.16 2442.43 7095.96
-907.554 2441.27 7098.87
-907.679 2440.93 7100.28
-907.768 2442.13 7106.63
-907.921 2442 7107.37
-907.649 2441.16 7101.9
-907.936 2440.95 7104.25
-907.848 2440.85 7103.09
-907.915 2441.36 7105.46
-905.019 2448.04 7087.36
-904.894 2448.48 7086.44
-905.045 2448.3 7086.21
-905.529 2446.42 7091.4
-905.732 2446 7090.92
-906.049 2445.33 7090.58
-905.899 2445.82 7089.24
-904.46 2449.99 7084.31
-904.905 2448.81 7085.51
-904.562 2450.09 7083.48
-920.153 2436.89 7064.04
-920.696 2435.36 7066.36
-919.89 2435.51 7068.33
-919.079 2436.01 7069.62
-920.67 2434.34 7068.68
-917.404 2437.04 7072.76
-918.304 2436.48 7071.03
-915.566 2438.41 7076.2
-914.493 2439.41 7077.65
-917.516 2436.46 7073.74
-913.448 2440.14 7079.46
-914.269 2439.3 7079.03
-912.113 2441.31 7080.65
-912.708 2440.67 7080.48
-911.456 2442.3 7080.19
-909.376 2444.51 7080.9
-909.977 2443.74 7080.88
-910.673 2442.89 7080.9
-910.231 2442.96 7081.81
-908.737 2444.99 7081.6
-908.042 2445.64 7082.14
-907.576 2446.64 7081.61
-906.813 2447.72 7081.7
-906.298 2447.84 7082.93
-904.947 2449.72 7082.96
-905.638 2448.42 7083.68
-907.623 2441.05 7098.56
-907.663 2440.95 7097.93
-906.31 2444.57 7093.88
-907.232 2442.28 7095.3
-907.806 2440.5 7099.95
-908.046 2441.21 7106.12
-908.155 2441.32 7107.19
-907.854 2440.46 7101.57
-908.103 2440.77 7104.85
-908.116 2440.39 7103.75
-908.064 2440.15 7102.74
-905.676 2446.53 7088.08
-905.755 2446.49 7087.65
-905.614 2447.04 7086.84
-906.449 2444.28 7093.25
-906.632 2443.89 7092.56
-906.693 2443.81 7091.46
-907.17 2442.65 7092.79
-906.526 2444.4 7090.19
-904.921 2449.06 7084.78
-905.413 2447.77 7085.92
-905.124 2449.04 7084.02
-921.138 2436.24 7062.9
-921.398 2434.79 7065.67
-921.577 2433.76 7067.52
-921.096 2433.67 7069.02
-919.936 2434.56 7070.24
-919.226 2435.2 7071
-920.305 2433.9 7070.66
-918.502 2435.85 7071.83
-915.402 2438.26 7077.46
-917.098 2436.58 7075.21
-914.98 2438.47 7079.03
-918.409 2435.4 7073.19
-913.954 2439.42 7080.15
-913.224 2440.09 7080.51
-914.597 2438.7 7080.16
-911.432 2441.76 7081.51
-912.165 2441.06 7081.21
-912.606 2440.44 7081.53
-909.237 2443.33 7083.4
-908.753 2443.8 7083.6
-909.451 2442.77 7083.98
-910.542 2442.43 7082.15
-909.638 2442.31 7084.48
-908.271 2444.44 7083.57
-907.2 2446.32 7083.1
-907.744 2444.62 7084.49
-906.73 2447.1 7083.03
-906.33 2447.36 7083.74
-905.983 2447.41 7084.66
-907.845 2440.38 7099.31
-907.889 2440.24 7098.69
-907.712 2440.88 7096.99
-907.51 2441.57 7095.11
-907.961 2440.02 7100.42
-908.295 2440.54 7106.07
-908.247 2440.5 7105.25
-908.595 2441.29 7109.39
-908.394 2440.76 7107.32
-908.08 2439.77 7101.66
-908.305 2440.15 7104.22
-908.292 2439.83 7103.17
-908.255 2439.57 7102.21
-908.954 2440.77 7110.13
-906.531 2444.55 7089.28
-906.528 2444.74 7088.5
-906.42 2445.19 7087.75
-907.428 2441.88 7094.2
-907.692 2441.21 7094.58
-907.216 2442.56 7092.05
-907.572 2441.68 7093.61
-907.937 2440.56 7095.11
-907.13 2442.85 7091.26
-905.572 2447.84 7085.18
-906.24 2445.84 7086.9
-922.288 2434.13 7064.87
-922.899 2434 7063.65
-922.462 2433.14 7066.57
-922.433 2432.64 7067.79
-921.776 2432.97 7068.79
-921.348 2433.11 7069.6
-920.642 2433.43 7070.78
-923.372 2434.86 7060.69
-919.548 2434.53 7071.5
-919.086 2434.88 7072.16
-916.551 2436.87 7077.3
-918.409 2435.08 7074.73
-915.866 2437.39 7079.24
-915.35 2437.78 7080.61
-919.049 2434.57 7073.33
-913.96 2439.21 7081
-914.628 2438.46 7081.24
-913.194 2439.86 7081.5
-910.955 2441.79 7082.62
-911.952 2440.88 7082.38
-912.423 2440.13 7083.06
-912.951 2439.74 7082.65
-908.516 2442.92 7085.64
-908.787 2442.4 7086.1
-908.162 2443.31 7085.74
-909.045 2441.91 7086.59
-909.88 2441.96 7084.68
-909.295 2441.53 7086.88
-907.199 2444.99 7085.21
-907.597 2443.68 7086.46
-906.767 2445.79 7085.08
-906.631 2445.75 7085.62
-906.538 2445.62 7086.18
-906.306 2445.92 7086.41
-907.992 2439.91 7099.74
-907.911 2440.28 7097.66
-908.031 2439.76 7099.14
-907.908 2440.45 7096.44
-908.106 2439.56 7100.84
-908.494 2440.03 7106.03
-908.455 2439.93 7104.89
-908.677 2440.32 7107.87
-908.267 2439.26 7101.41
-908.479 2439.6 7103.61
-908.449 2439.22 7102.35
-909.221 2440.31 7110.39
-908.92 2439.86 7108.02
-907.079 2443.23 7090.25
-907.053 2443.55 7089.24
-907.031 2443.82 7088.43
-908.082 2439.97 7096.79
-907.738 2441.31 7093.73
-908.168 2439.94 7095.53
-908.24 2439.52 7096.9
-907.563 2441.78 7092.32
-907.077 2443.93 7087.89
-923.609 2432.27 7065.73
-924.419 2433.12 7062.17
-925.273 2431.49 7063.64
-923.419 2431.94 7066.91
-922.424 2432.21 7068.91
-923.409 2431.59 7067.89
-921.97 2432.28 7070.02
-921.134 2432.94 7070.54
-920.211 2433.67 7071.48
-919.73 2433.99 7072.36
-917.293 2435.89 7078.09
-918.549 2434.78 7075.76
-916.525 2436.51 7080.63
-915.551 2437.44 7081.79
-919.479 2433.94 7074.36
-920.262 2433.35 7072.92
-914.478 2438.48 7082
-913.859 2439.08 7081.93
-915.163 2437.67 7082.81
-913.547 2439.17 7082.72
-911.471 2441 7083.33
-910.171 2441.58 7084.89
-912.623 2439.66 7083.97
-911.816 2440.39 7084.01
-913.15 2439.26 7083.76
-908.451 2442.38 7087.07
-908.069 2443.02 7086.61
-908.632 2441.92 7087.59
-908.929 2441.54 7087.73
-909.546 2441.13 7087.25
-909.312 2440.95 7088.25
-907.293 2443.97 7086.86
-907.752 2442.98 7087.68
-907.178 2443.95 7087.43
-908.144 2439.42 7100.41
-908.067 2439.7 7098.35
-908.184 2439.26 7099.94
-908.679 2439.69 7106.37
-908.646 2439.51 7105.13
-908.649 2439.32 7104.07
-908.426 2438.99 7101.59
-908.296 2439.06 7101.01
-908.628 2439.05 7102.87
-908.601 2438.78 7101.97
-909.512 2439.79 7110.53
-909.152 2439.5 7108.25
-908.886 2439.31 7106.47
-907.555 2441.83 7091.46
-907.546 2442.2 7090.3
-907.501 2442.75 7089.15
-908.187 2439.37 7098.17
-908.047 2440.52 7094.41
-908.272 2439.72 7095.43
-908.397 2439.01 7097.04
-908.316 2438.96 7098.16
-907.521 2442.98 7088.5
-925.158 2430.86 7065.21
-926.213 2431.85 7060.84
-926.932 2430.11 7062.86
-925.271 2430.39 7066.15
-922.89 2431.59 7069.35
-924.237 2430.73 7068.06
-921.696 2432.33 7070.8
-922.708 2431.41 7070.76
-920.689 2433.17 7071.37
-918.053 2435.05 7078.98
-919.25 2433.97 7076.62
-916.796 2436.15 7082
-918.005 2434.99 7080.74
-916.258 2436.56 7082.98
-920.312 2433.11 7074.02
-920.271 2432.99 7075.88
-921.267 2432.29 7073.14
-921.283 2432.48 7071.94
-914.864 2437.89 7083.25
-914.371 2438.39 7082.99
-915.441 2437.21 7084.05
-916.009 2436.69 7083.78
-913.862 2438.65 7083.86
-910.479 2441.24 7085.01
-909.717 2440.64 7088.06
-912.733 2439.38 7084.75
-911.789 2440.29 7084.32
-910.692 2440.97 7085.17
-913.443 2438.76 7084.86
-908.1 2442.47 7087.8
-908.263 2442.1 7088.11
-908.876 2441.16 7088.78
-908.615 2441.33 7088.99
-909.121 2440.57 7089.66
-909.417 2440.26 7089.72
-909.205 2440.14 7090.49
-907.582 2443.1 7088.04
-907.856 2442.53 7088.43
-908.036 2442.3 7088.35
-908.203 2439.18 7099.37
-908.342 2438.87 7100.65
-908.782 2439.29 7105.53
-908.842 2438.92 7104.32
-908.812 2438.79 7103.32
-908.484 2438.76 7101.34
-908.787 2438.56 7102.4
-908.698 2438.51 7101.84
-909.893 2439.44 7111.38
-909.409 2438.96 7108.21
-909.118 2438.98 7106.84
-909.033 2438.93 7106.05
-908.927 2438.95 7105.24
-907.866 2441.11 7092.94
-907.84 2441.35 7091.46
-907.926 2441.7 7090.26
-908.304 2438.84 7099.3
-908.383 2439.58 7095.29
-908.509 2439 7096.35
-908.432 2438.5 7098.6
-908.54 2438.46 7097.98
-908.425 2438.47 7099.52
-907.892 2442.23 7089.13
-926.983 2429.63 7063.84
-927.776 2429.99 7061.09
-928.76 2428.6 7061.74
-929.06 2427.83 7062.77
-926.223 2429.49 7066.18
-927.247 2429.08 7064.57
-923.559 2431.05 7069.03
-925.834 2429.46 7067.38
-922.108 2431.77 7071.61
-923.165 2430.87 7071.31
-929.609 2429.1 7058.77
-920.023 2433.12 7078.1
-917.268 2435.59 7082.72
-918.623 2434.3 7082.07
-920.125 2432.88 7080.1
-921.16 2432.23 7074.64
-921.275 2431.98 7076.44
-922.047 2431.58 7072.84
-922.311 2431.17 7074.8
-915.05 2437.57 7084.09
-914.562 2437.99 7084.16
-916.141 2436.52 7084.46
-915.858 2436.77 7084.63
-916.565 2436.09 7084.68
-917.126 2435.61 7084.04
-914.176 2438.15 7084.9
-909.921 2440.47 7088.05
-909.416 2439.85 7090.71
-909.494 2439.6 7091.15
-912.844 2439.12 7085.41
-911.942 2440 7084.84
-910.964 2440.61 7085.54
-910.24 2440.38 7087.61
-913.546 2438.55 7085.44
-908.46 2441.4 7089.35
-908.896 2440.2 7091.09
-908.737 2440.58 7090.55
-909.026 2439.45 7092.56
-909.174 2438.99 7093.3
-908.282 2441.52 7089.63
-908.359 2438.74 7100.13
-908.481 2438.59 7100.8
-909.014 2438.49 7103.94
-908.975 2438.34 7102.93
-908.618 2438.48 7101.36
-908.888 2438.29 7102.26
-908.801 2438.22 7101.66
-910.199 2439.05 7111.8
-909.815 2438.72 7109.43
-909.586 2438.29 7107.4
-909.271 2438.63 7106.63
-909.209 2438.55 7105.87
-909.089 2438.57 7104.94
-908.209 2440.26 7094.26
-908.211 2440.45 7093.24
-908.16 2440.99 7091.14
-908.503 2438.42 7100.26
-908.648 2438.89 7096.1
-908.651 2438.61 7097.03
-908.561 2438.11 7099.22
-908.575 2438.17 7099.85
-908.74 2437.87 7099.19
-908.7 2438.11 7098.49
-929.137 2427.48 7063.58
-930.377 2427.4 7060.49
-931.005 2426.4 7061.23
-931.919 2425.39 7061.52
-927.603 2428.43 7065.47
-929.328 2427.05 7064.32
-923.896 2430.71 7069.08
-926.071 2429.15 7067.8
-927.776 2427.98 7066.42
-922.786 2431.02 7072.22
-923.742 2430.53 7070.46
-931.145 2427.21 7059.15
-921.307 2431.77 7078.76
-918.446 2434.37 7084.14
-920.083 2432.78 7083.78
-921.763 2431.14 7081.81
-922.656 2430.62 7077.24
-922.283 2430.83 7078.49
-922.654 2430.95 7073.76
-923.355 2430.08 7076.56
-915.199 2437.37 7084.5
-914.833 2437.56 7085.32
-916.949 2435.56 7086.89
-917.424 2435.11 7087.23
-915.563 2436.86 7085.71
-916.629 2435.76 7087.55
-917.983 2434.54 7087.9
-918.364 2434.21 7087.45
-913.896 2438.29 7085.36
-914.509 2437.74 7085.76
-909.755 2439.81 7090.1
-909.334 2438.46 7094.31
-909.553 2438.56 7093.54
-909.526 2438.01 7095.06
-913.051 2438.83 7085.79
-912.193 2439.6 7085.48
-911.186 2440.17 7086.22
-910.307 2439.84 7088.86
-909.812 2439.57 7090.59
-908.55 2440.5 7091.21
-908.775 2439.53 7093.41
-908.963 2438.93 7094.37
-909.166 2438.38 7095.26
-909.404 2437.94 7095.85
-908.375 2440.53 7091.67
-908.636 2438.31 7101
-909.177 2438.13 7103.74
-909.121 2438.02 7102.84
-908.993 2438.04 7102.22
-908.97 2437.92 7101.8
-908.8 2438.03 7101.21
-910.35 2439.36 7113.1
-910.439 2438.12 7110.75
-910.041 2438.11 7109.01
-909.847 2437.82 7107.33
-909.431 2438.27 7106.41
-909.461 2438.07 7105.88
-909.246 2438.28 7105.02
-908.578 2439.18 7095.52
-908.467 2439.86 7094.09
-908.67 2438.12 7100.59
-908.868 2438.29 7097.14
-908.793 2438.19 7097.79
-908.711 2437.85 7099.77
-908.744 2437.9 7100.35
-908.954 2437.6 7099.23
-908.886 2437.55 7099.8
-908.924 2437.76 7098.74
-935.504 2422.52 7060.14
-937.472 2420.45 7060.61
-933.426 2424.84 7059.35
-931.931 2425.88 7060.25
-931.428 2425.56 7062.45
-932.95 2424.81 7060.44
-934.339 2422.9 7061.91
-933.492 2423.51 7062.59
-929.49 2426.71 7064.84
-931.735 2425.09 7062.99
-925.61 2429.39 7068.44
-928.056 2427.51 7067.48
-929.395 2426.66 7065.39
-923.385 2430.43 7073.01
-923.777 2430.34 7071.28
-925.229 2429.56 7069.09
-922.815 2430.12 7081.14
-919.298 2433.32 7086.93
-921.512 2431.2 7083.94
-920.445 2432.12 7086.64
-922.926 2429.76 7082.91
-924.058 2429.1 7079.5
-923.621 2429.37 7080.66
-923.884 2429.7 7076.08
-924.74 2428.55 7079
-915.176 2437.03 7086.8
-917.82 2434.43 7090.08
-917.523 2434.66 7090.59
-918.466 2433.65 7091.79
-916.122 2436.18 7087.55
-917.132 2435.05 7090.25
-918.873 2433.32 7091.24
-919.302 2432.97 7090.64
-913.488 2438.51 7085.77
-914.129 2437.97 7086.06
-914.741 2437.31 7087.09
-909.668 2437.5 7096.33
-909.762 2437.96 7094.59
-909.829 2437.39 7096.02
-909.893 2437.1 7096.81
-912.186 2439.38 7086.14
-912.875 2438.88 7086.08
-911.183 2439.8 7087.19
-910.425 2439.6 7089.26
-909.705 2438.95 7092.32
-909.831 2438.87 7092.26
-908.63 2439.63 7093.94
-908.926 2438.5 7095.97
-909.032 2438.38 7095.9
-909.278 2437.95 7096.42
-909.527 2437.52 7096.91
-909.739 2437.16 7097.24
-909.321 2437.88 7103.89
-909.285 2437.74 7103.05
-909.179 2437.73 7102.4
-909.174 2437.57 7101.99
-908.972 2437.77 7101.45
-908.881 2437.75 7100.94
-910.71 2438.2 7111.89
-910.711 2437.37 7110.16
-910.312 2437.51 7108.77
-909.93 2437.55 7106.88
-909.639 2437.69 7105.65
-909.398 2437.98 7105
-908.784 2438.68 7096.09
-908.827 2438.65 7095.95
-909.009 2437.93 7097.76
-909.059 2437.64 7098.55
-908.881 2437.6 7100.38
-909.099 2437.31 7099.74
-909.178 2437.37 7099.11
-909.042 2437.26 7100.39
-941.846 2417.42 7058.91
-940.864 2418.2 7058.96
-938.764 2419.8 7059.46
-937.324 2420.09 7061.7
-934.916 2422.56 7061.34
-938.62 2418.94 7061.56
-935.231 2421.63 7063.06
-936.605 2420.47 7062.49
-933.625 2422.97 7063.92
-935.481 2421.04 7064.13
-931.539 2425.06 7063.74
-927.753 2427.55 7068.66
-929.281 2426.57 7066.47
-930.792 2425.22 7066.19
-931.315 2424.98 7064.94
-924.559 2429.61 7071.92
-924.753 2429.13 7075.15
-925.328 2429.3 7070.04
-927.204 2427.83 7069.69
-923.955 2428.63 7082.63
-919.809 2432.49 7089.96
-922.946 2429.34 7085.03
-921.592 2430.74 7086.75
-920.687 2431.47 7089.69
-923.836 2428.36 7084.43
-925.191 2427.73 7080.65
-924.608 2428.25 7081.12
-924.863 2427.52 7082.79
-925.159 2428.4 7077.68
-925.555 2427.65 7079.49
-916.314 2435.93 7088.39
-915.622 2436.53 7087.7
-918.555 2433.41 7093.38
-918.037 2433.99 7092.61
-918.663 2433.23 7094.33
-919.334 2432.5 7094.99
-919.386 2432.38 7095.83
-917.371 2434.7 7091.5
-918.168 2433.73 7093.84
-919.539 2432.33 7094.53
-920.001 2431.93 7093.72
-913.228 2438.46 7086.73
-913.875 2438.04 7086.56
-914.558 2437.35 7087.5
-915.646 2436.47 7087.96
-909.918 2436.84 7097.53
-909.977 2437.62 7094.96
-910.047 2437.06 7096.32
-910.069 2436.78 7097.13
-910.097 2436.53 7097.79
-912.33 2439.14 7086.6
-911.288 2439.62 7087.47
-910.446 2439.32 7089.97
-909.993 2438.13 7093.69
-909.206 2437.75 7097.47
-909.353 2437.56 7097.47
-909.551 2437.27 7097.66
-909.761 2436.95 7097.84
-909.999 2436.6 7098.03
-909.461 2437.62 7103.98
-909.431 2437.49 7103.28
-909.37 2437.41 7102.6
-909.371 2437.22 7102.14
-909.105 2437.49 7101.47
-909.03 2437.43 7100.93
-911.325 2437.21 7111.53
-910.437 2437.11 7108.25
-910.869 2436.81 7109.49
-910.171 2437.14 7106.83
-909.793 2437.35 7105.38
-909.552 2437.59 7104.63
-909.096 2437.88 7097.53
-909.28 2437.4 7098.47
-909.397 2437.13 7099
-909.238 2437.03 7100.22
-909.325 2437.08 7099.58
-909.27 2436.91 7100.83
-909.206 2437.11 7101.06
-946.65 2413.51 7059.95
-945.833 2414.35 7059.12
-944.675 2415.32 7058.71
-943.534 2416.45 7058.09
-947.151 2412.77 7061.25
-942.021 2416.95 7059.61
-939.655 2418.36 7060.76
-940.529 2417.47 7061.12
-938.048 2418.84 7063.16
-938.751 2418.25 7062.96
-939.616 2417.75 7062.29
-937.307 2419.06 7064.63
-936.917 2419.79 7063.56
-937.882 2418.7 7063.99
-935.61 2420.66 7065.08
-933.538 2422.77 7065.09
-937.03 2419.05 7065.66
-928.82 2426.66 7068.41
-929.918 2425.85 7067.2
-931.673 2424.2 7067.25
-932.47 2423.62 7066
-926.137 2428.18 7073.9
-926.881 2427.97 7070.67
-927.242 2427.14 7074.96
-926.522 2427.42 7076.72
-928.165 2426.99 7070.07
-924.848 2426.94 7085.29
-920.594 2431.29 7093.23
-923.778 2427.86 7087.52
-924.65 2426.88 7086.93
-922.76 2428.95 7088.79
-921.653 2430.19 7090.42
-921.36 2430.35 7093.22
-925.883 2426.96 7080.84
-925.505 2426.96 7082.14
-925.849 2425.8 7085.3
-926.178 2425.66 7084.26
-926.052 2427.58 7077.9
-926.301 2427.11 7078.87
-916.818 2435.29 7090.33
-919.548 2432.12 7096.92
-918.712 2433.05 7095.58
-919.438 2432.2 7097.22
-920.516 2430.96 7098.27
-920.636 2430.86 7097.93
-920.606 2430.71 7099.54
-918.01 2433.79 7094.43
-918.785 2432.89 7096.6
-920.669 2430.89 7097.31
-921.059 2430.47 7097
-912.712 2438.72 7087.17
-913.189 2438.21 7087.84
-913.635 2437.98 7087.49
-914.128 2437.61 7087.67
-914.881 2436.95 7088.26
-915.599 2436.44 7088.29
-916.652 2435.37 7090.6
-910.262 2436.24 7098.22
-910.186 2437.13 7095.82
-910.222 2436.83 7096.58
-910.211 2436.55 7097.28
-910.296 2436.23 7098.02
-911.725 2439.36 7087.31
-910.856 2439.3 7089.25
-910.096 2438.51 7092.62
-910.241 2437.17 7095.57
-909.555 2437.16 7098.13
-909.412 2437.29 7098.29
-909.704 2436.96 7098.13
-909.857 2436.76 7098.17
-910.088 2436.44 7098.3
-910.317 2436.16 7098.46
-909.583 2437.29 7103.69
-909.537 2437.16 7102.88
-909.613 2436.87 7102.51
-909.462 2436.94 7101.91
-909.249 2437.21 7101.51
-912.071 2436.5 7112.03
-911.146 2436.74 7110.13
-910.645 2436.74 7108.13
-911.041 2436.39 7109.06
-910.236 2436.91 7106.33
-909.683 2437.27 7104.4
-909.922 2437.07 7105.02
-909.604 2436.92 7098.87
-909.576 2436.79 7099.54
-909.436 2436.84 7100.02
-909.395 2436.78 7100.64
-909.458 2436.77 7101.51
-909.514 2436.64 7101.27
-944.665 2414.34 7061.35
-945.04 2413.62 7062.78
-943.668 2415.26 7060.7
-942.955 2416.1 7059.91
-945.872 2412.72 7063.92
-948.197 2411.31 7063.9
-947.014 2411.86 7064.37
-941.215 2416.72 7061.59
-940.419 2416.98 7062.49
-938.873 2417.89 7063.61
-939.612 2417.43 7063.07
-938.336 2417.7 7065.93
-938.515 2417.85 7064.86
-935.776 2420.27 7066.06
-937.185 2418.53 7067.08
-934.66 2421.31 7066.66
-938.065 2417.67 7067.03
-929.305 2426.15 7068.98
-930.653 2424.92 7069.21
-932.71 2422.97 7068.87
-931.87 2423.64 7070.53
-933.304 2422.56 7067.44
-928.451 2426.41 7072.95
-928.436 2426.08 7075.33
-929.471 2425.32 7074.65
-928.004 2426.16 7076.69
-929.454 2425.63 7072.3
-926.756 2424.29 7087.92
-925.928 2425.15 7088.27
-921.545 2429.93 7096.62
-925.691 2425.19 7089.85
-924.725 2426.31 7090.26
-923.383 2427.88 7091.42
-922.456 2428.93 7093.57
-922.257 2429.05 7096.43
-926.724 2426.43 7079.89
-926.882 2425.57 7081.96
-926.331 2425.86 7082.8
-927.418 2423.88 7086.37
-927.651 2423.96 7085.07
-928.38 2425.59 7077.6
-917.64 2434.19 7093.67
-920.364 2430.91 7100.07
-919.418 2432.16 7097.78
-920.018 2431.31 7099.82
-921.266 2429.7 7101.48
-921.561 2429.41 7101.14
-921.825 2429.2 7100.44
-921.087 2429.75 7102.48
-918.698 2432.93 7097.02
-919.459 2431.82 7099.63
-922.15 2428.9 7099.94
-912.503 2438.69 7087.77
-913.755 2437.64 7088.57
-913.266 2437.97 7088.5
-914.307 2437.22 7088.86
-915.419 2436.32 7089.67
-916.356 2435.52 7090.85
-917.317 2434.49 7093.29
-910.531 2435.93 7098.62
-910.497 2435.98 7098.41
-910.422 2436.64 7096.79
-910.374 2436.38 7097.39
-910.391 2436.13 7097.96
-910.574 2435.9 7098.34
-911.464 2439.3 7088.06
-910.898 2438.94 7090.17
-910.293 2438.57 7092.18
-910.288 2437.37 7094.93
-910.494 2436.72 7096.47
-909.904 2436.65 7098.51
-909.767 2436.77 7098.66
-910.087 2436.41 7098.63
-910.165 2436.33 7098.55
-910.355 2436.11 7098.69
-910.521 2435.93 7098.86
-909.737 2437.02 7103.91
-909.684 2436.94 7103.22
-909.795 2436.6 7102.83
-909.675 2436.61 7102.18
-912.669 2435.95 7112.51
-911.344 2436.31 7109.79
-910.688 2436.55 7107.6
-911.135 2436.17 7108.73
-910.404 2436.64 7106.19
-910.188 2436.77 7105.2
-909.891 2436.93 7104.23
-909.788 2436.6 7099.3
-909.545 2436.69 7100.26
-909.699 2436.59 7099.88
-909.596 2436.53 7101.05
-909.703 2436.47 7101.88
-909.755 2436.38 7101.65
-943.364 2414.42 7063.59
-942.975 2415.06 7062.55
-944.002 2413.53 7065.1
-942.071 2415.87 7062.05
-945.124 2412.42 7066.44
-948.836 2410.66 7064.94
-947.612 2410.61 7067.4
-946.463 2411.47 7066.77
-949.557 2410.09 7065.55
-941.499 2416.03 7062.85
-940.671 2416.71 7062.66
-939.342 2417.26 7064.28
-939.936 2417.07 7063.33
-938.976 2416.79 7067.16
-939.067 2417.14 7065.51
-936.642 2418.97 7067.73
-937.747 2417.63 7068.69
-938.464 2416.97 7068.44
-935.497 2420.11 7068.22
-930.152 2425.09 7071.7
-931.077 2424.1 7073
-933.165 2422.2 7071.58
-934.294 2421.24 7069.33
-932.126 2423.05 7073.34
-929.827 2424.64 7076.39
-930.154 2424.62 7075.16
-930.24 2424.77 7073.58
-928.23 2422.67 7088.25
-927.846 2422.83 7089.55
-926.949 2423.67 7090.35
-922.547 2428.48 7099.4
-926.908 2423.44 7092.09
-926.121 2424.3 7092.52
-925.152 2425.5 7092.55
-924.374 2426.36 7093.95
-923.641 2427.2 7096.29
-923.173 2427.74 7098.92
-927.581 2425.22 7080.91
-928.622 2425.11 7078.48
-928.79 2423.31 7083.19
-928.215 2423.61 7084.28
-928.695 2422.43 7087.04
-929.479 2421.8 7086.21
-930.297 2423.98 7077.13
-918.166 2433.51 7096.01
-920.9 2429.88 7102.78
-920.528 2430.31 7102.31
-919.852 2431.31 7100.64
-921.629 2429.01 7103.8
-921.855 2428.85 7103.42
-922.19 2428.54 7102.88
-922.604 2428.13 7102.33
-921.452 2429.1 7104.3
-918.86 2432.5 7098.73
-919.268 2431.83 7100.34
-920.012 2430.76 7102.33
-923.01 2427.72 7101.72
-912.746 2438.32 7088.47
-911.953 2438.93 7088.23
-913.753 2437.35 7089.72
-913.273 2437.73 7089.44
-914.668 2436.73 7090.15
-915.915 2435.74 7091.37
-916.717 2435.04 7092.48
-917.507 2434.19 7094.66
-910.656 2435.75 7099.12
-910.75 2435.69 7098.83
-910.789 2435.66 7098.7
-910.56 2436.08 7097.83
-910.614 2436.29 7097.32
-910.62 2435.89 7098.21
-910.827 2435.66 7098.57
-911.227 2438.99 7089.36
-910.578 2438.34 7092.24
-910.35 2437.84 7093.74
-910.458 2436.85 7096.04
-910.718 2436.41 7096.97
-909.972 2436.46 7099.04
-910.252 2436.18 7098.98
-910.084 2436.31 7099.23
-910.365 2436.03 7099.2
-910.489 2435.86 7099.46
-991.571 2394.73 7029.65
-990.215 2394.95 7032.89
-981.908 2396.98 7046.92
-981.922 2396.8 7048.22
-980.012 2397.4 7050.78
-978.206 2398.09 7052.3
-909.847 2436.73 7103.54
-909.898 2436.32 7102.5
-909.965 2436.47 7103.15
-913.263 2435.47 7113.28
-912.254 2435.65 7110.81
-911.331 2436.03 7109.18
-910.856 2436.25 7107.38
-911.33 2435.87 7108.67
-910.644 2436.33 7106.25
-910.356 2436.54 7105.11
-910.038 2436.69 7103.92
-909.893 2436.44 7099.64
-909.695 2436.46 7100.7
-909.799 2436.43 7100.23
-909.846 2436.24 7101.5
-909.949 2436.21 7102.26
-910.004 2436.12 7102.09
-943.272 2413.82 7065.74
-942.56 2414.56 7064.95
-942.363 2415.11 7063.71
-944.255 2412.63 7067.67
-945.638 2411.49 7068.6
-948.541 2409.88 7068.13
-946.803 2410.47 7069.78
-947.711 2409.95 7069.7
-949.657 2409.11 7068.78
-950.779 2408.77 7067.97
-941.601 2415.34 7064.69
-940.878 2416.18 7063.77
-939.867 2416.4 7065.63
-940.264 2416.33 7064.79
-939.565 2416.4 7066.6
-939.313 2416.03 7069.13
-939.654 2415.95 7068.18
-937.065 2418.13 7069.7
-938.819 2416.25 7070.3
-938.081 2416.9 7070.64
-936.347 2418.72 7070.89
-931.195 2423.71 7074.83
-932.322 2422.56 7074.86
-934.399 2420.78 7071.86
-933.122 2421.93 7073.65
-930.93 2423.68 7076.05
-929.392 2421.41 7088.51
-929.282 2421.29 7089.74
-928.772 2421.68 7090.5
-928.089 2422.26 7091.45
-923.688 2426.95 7100.99
-927.954 2422.12 7093.26
-927.302 2422.75 7093.94
-926.928 2423.07 7095.18
-925.943 2424.31 7094.47
-925.542 2424.72 7095.86
-924.642 2425.79 7098.15
-929.024 2423.67 7081.41
-929.269 2424.21 7079.31
-930.572 2423.39 7078.19
-930.452 2421.77 7082.84
-930.445 2421.23 7084.62
-930.351 2420.58 7087.82
-931.318 2420.01 7085.99
-931.401 2422.96 7077.09
-918.457 2433.09 7097.34
-921.023 2429.53 7103.99
-920.521 2430.15 7103.11
-922.042 2428.44 7105.41
-922.229 2428.31 7105.11
-922.468 2428.13 7104.68
-922.998 2427.58 7104.25
-923.461 2427.11 7103.7
-921.888 2428.55 7105.79
-921.502 2428.92 7105.29
-919.28 2431.36 7102.23
-918.913 2432.13 7100.22
-919.779 2430.85 7102.63
-920.383 2430.1 7103.79
-923.952 2426.56 7103.18
-912.584 2438.29 7088.94
-911.754 2438.83 7088.87
-913.551 2437.22 7090.77
-914.502 2436.64 7091.07
-913.06 2437.71 7089.99
-915.865 2435.7 7091.89
-917.1 2434.54 7094.23
-917.795 2433.84 7095.71
-910.821 2435.52 7099.59
-910.67 2435.62 7099.87
-910.953 2435.44 7099.35
-911.05 2435.42 7099.03
-910.782 2435.83 7098.15
-910.87 2435.68 7098.43
-910.839 2435.92 7097.88
-911.103 2435.44 7098.82
-911.166 2438.46 7090.95
-910.578 2437.72 7093.66
-910.506 2436.94 7095.63
-910.764 2436.53 7096.61
-910.932 2436.05 7097.51
-910.182 2436.16 7099.57
-910.022 2436.27 7099.88
-910.35 2435.94 7099.87
-910.542 2435.68 7100.27
-992.783 2394.62 7026.14
-987.403 2395.22 7040.12
-989.534 2394.94 7035.59
-983.332 2396.63 7044.35
-986.841 2395.23 7041.52
-992.328 2394.34 7029.96
-990.948 2394.56 7033.35
-990.334 2394.46 7036.33
-976.504 2398.76 7054.87
-984.338 2395.54 7047.34
-984.107 2395.76 7046.8
-983.946 2395.67 7048.28
-982.231 2396.41 7050.02
-980.569 2396.84 7053.05
-978.736 2397.56 7054.52
-977.353 2398.2 7055.45
-910.116 2436.18 7102.74
-910.13 2436.42 7103.39
-913.795 2435.04 7114.09
-913.327 2434.78 7111.78
-911.85 2435.68 7109.76
-911.688 2435.61 7109.19
-911.066 2435.95 7107.36
-911.497 2435.6 7108.56
-911.003 2435.95 7106.73
-910.666 2436.23 7105.64
-910.307 2436.43 7104.1
-909.959 2436.23 7100.49
-909.885 2436.21 7101.07
-910.16 2435.95 7102.12
-910.061 2436 7101.73
-910.249 2435.99 7102.53
-943.343 2413.29 7067.48
-942.345 2414.37 7066.04
-941.532 2414.99 7065.97
-944.072 2412.38 7069.13
-945.044 2411.49 7070.24
-946.323 2410.42 7071.33
-948.706 2409.2 7070.46
-948.091 2409.24 7071.87
-949.808 2408.17 7072.32
-950.462 2408.06 7071.34
-951.45 2408.33 7068.44
-951.152 2407.71 7071.44
-941 2415.53 7065.55
-940.778 2415.36 7066.81
-940.521 2415.31 7067.74
-940.332 2415.25 7068.61
-939.619 2415.29 7071.32
-940.166 2414.96 7070.53
-937.566 2417.13 7072.25
-939.079 2415.52 7072.69
-938.392 2416.11 7073.08
-936.972 2417.37 7074.31
-935.876 2418.75 7073.73
-932.339 2422.25 7076.17
-933.392 2421.35 7075.14
-934.3 2420.52 7074.1
-930.423 2420.27 7088.95
-930.295 2420.15 7090.39
-929.638 2420.65 7091.44
-928.665 2421.43 7092.9
-929.302 2420.77 7092.87
-925.334 2424.89 7099.74
-924.827 2425.52 7102.01
-928.163 2421.76 7094.84
-927.652 2422.23 7095.8
-926.734 2423.24 7096.44
-927.533 2422.29 7097.21
-926.277 2423.75 7097.61
-930.65 2422.65 7079.95
-931.588 2422.53 7077.78
-932.37 2419.68 7083.37
-931.842 2420.66 7082.03
-932.823 2418.96 7084.33
-931.736 2419.38 7086.97
-933.391 2418.25 7084.95
-932.59 2421.88 7076.57
-918.43 2433 7097.94
-918.746 2432.34 7099.86
-920.825 2429.6 7104.5
-921.225 2429.15 7105.19
-922.558 2427.88 7106.69
-922.331 2428.06 7107.02
-922.807 2427.68 7106.29
-923.167 2427.38 7105.8
-923.89 2426.59 7105.34
-924.607 2425.77 7104.83
-921.93 2428.43 7106.73
-921.584 2428.74 7106.4
-919.094 2431.32 7102.85
-919.61 2430.83 7103.1
-920.014 2430.44 7103.5
-920.361 2429.87 7104.82
-920.726 2429.53 7105.28
-925.805 2424.35 7102.86
-912.111 2438.45 7089.36
-912.712 2437.86 7090.16
-911.481 2438.32 7090.83
-914.156 2436.76 7091.39
-913.196 2437.33 7091.13
-915.79 2435.7 7092.12
-917.154 2434.44 7094.71
-918.049 2433.5 7096.78
-910.858 2435.38 7100.52
-911.031 2435.25 7100.53
-910.734 2435.44 7100.86
-911.144 2435.21 7100.07
-911.263 2435.23 7099.59
-911.045 2435.58 7098.45
-911.136 2435.45 7098.71
-911.089 2435.6 7098.32
-911.39 2435.24 7099.24
-910.862 2437.47 7093.87
-910.649 2436.72 7095.97
-910.89 2436.45 7096.63
-911.084 2436 7097.46
-911.19 2435.59 7098.22
-910.232 2435.99 7100.27
-910.13 2436.03 7100.67
-910.422 2435.72 7100.73
-910.608 2435.5 7101.21
-993.933 2394.15 7025.77
-993.052 2394.17 7028.69
-988.531 2394.85 7039.27
-987.859 2394.53 7042.09
-987.401 2394.41 7043.78
-989.627 2394.48 7038.43
-985.411 2395.63 7043.44
-985.175 2395.29 7045.77
-986.396 2394.83 7044.52
-991.654 2394.31 7032.8
-990.914 2394.2 7036.32
-989.962 2394.16 7039.41
-990.467 2393.98 7039.23
-975.073 2399.3 7057.48
-975.834 2398.79 7057.95
-985.873 2394.64 7047.19
-986.339 2394.51 7046.2
-985.882 2394.78 7046.15
-984.07 2395.49 7049.29
-982.318 2396.21 7051.22
-980.321 2396.84 7054.05
-977.688 2397.86 7057.31
-978.845 2397.3 7057.09
-976.325 2398.39 7058.9
-910.293 2436.21 7103.21
-915.063 2433.91 7114.23
-914.332 2434.17 7113
-912.812 2435 7110.64
-912.516 2435.04 7109.86
-911.872 2435.26 7108.93
-911.426 2435.56 7107.82
-911.417 2435.51 7107.35
-911.008 2435.89 7106.25
-910.589 2436.14 7104.45
-910.092 2435.97 7101.32
-910.412 2435.82 7102.45
-910.47 2435.7 7102.23
-910.269 2435.79 7101.92
-910.461 2436.02 7103.13
-942.769 2413.6 7067.82
-941.873 2414.35 7067.34
-941.247 2414.6 7068.27
-943.482 2412.65 7069.62
-945.583 2410.64 7072.62
-944.212 2411.71 7071.66
-947.805 2409.02 7073.72
-946.857 2409.38 7074.7
-949.325 2408.15 7073.52
-949.099 2407.98 7074.88
-950.699 2407.24 7074.29
-950.055 2407.37 7075.09
-951.401 2406.94 7074.14
-951.926 2407.56 7070.68
-951.982 2406.79 7073.6
-941.167 2414.24 7070
-940.828 2414.35 7070.78
-940.008 2414.59 7073.21
-940.607 2414.1 7073.13
-937.686 2416.38 7075.45
-939.43 2414.75 7075.16
-938.928 2415.17 7075.4
-938.369 2415.53 7076.29
-936.268 2417.62 7076.8
-935.33 2418.98 7075.67
-933.844 2420.7 7075.79
-931.212 2419.61 7088.36
-930.477 2419.76 7091.65
-931.176 2419.42 7089.67
-930 2420.08 7093.02
-928.788 2421.12 7094.81
-929.304 2420.61 7094.7
-926.427 2423.57 7100.45
-928.688 2421.1 7096.76
-927.985 2421.82 7096.97
-928.056 2421.7 7098.68
-927.102 2422.77 7098.53
-931.828 2421.46 7079.96
-932.767 2420.92 7078.85
-933.677 2420.16 7078.23
-934.044 2418.71 7081.18
-933.515 2419.5 7080.56
-934.738 2417.89 7081.41
-932.443 2418.64 7087.38
-933.559 2417.86 7085.88
-934.845 2417.23 7083.39
-935.347 2417.24 7081.57
-934.315 2419.81 7077.11
-918.436 2432.76 7099.16
-918.64 2432.22 7100.62
-918.845 2431.48 7102.82
-921.15 2429.14 7105.89
-922.897 2427.49 7108.18
-923.143 2427.28 7107.93
-922.017 2428.26 7107.7
-922.545 2427.79 7108.25
-923.474 2426.98 7107.58
-924.009 2426.46 7106.84
-924.947 2425.42 7106.38
-925.742 2424.48 7104.74
-921.625 2428.59 7107.63
-921.285 2428.91 7107.14
-919.202 2430.91 7103.8
-919.599 2430.64 7103.86
-919.96 2430.26 7104.37
-920.17 2429.85 7105.64
-920.501 2429.59 7106.09
-920.833 2429.31 7106.63
-927.078 2422.87 7102.25
-927.401 2422.44 7100.07
-912.307 2437.94 7090.66
-911.768 2438.01 7091.24
-912.852 2437.47 7091.32
-911.231 2437.33 7093.72
-913.728 2436.96 7091.57
-914.828 2436.24 7092.12
-915.302 2435.98 7092.08
-916.628 2434.89 7094.03
-917.083 2434.47 7094.83
-918.047 2433.41 7097.31
-910.99 2435.18 7101.41
-911.198 2435.01 7101.64
-911.246 2435.01 7101.14
-910.884 2435.25 7101.66
-911.346 2435 7100.67
-911.449 2435.03 7100.25
-911.357 2435.32 7098.84
-911.314 2435.37 7098.67
-911.403 2435.34 7098.63
-911.577 2435.15 7099.33
-911.602 2434.98 7100.2
-910.851 2436.56 7096.16
-911.089 2436.26 7096.87
-911.301 2435.67 7097.93
-911.456 2435.34 7098.54
-910.297 2435.78 7101.14
-910.518 2435.53 7101.63
-910.8 2435.32 7101.82
-994.51 2393.88 7026.37
-993.776 2393.83 7028.95
-992.737 2393.98 7031.62
-988.419 2394.44 7041.37
-987.782 2394.04 7044.58
-986.826 2394.41 7045.31
-988.373 2394.14 7042.82
-991.682 2394.04 7035.03
-991.207 2393.89 7037.77
-988.807 2394.04 7042.39
-989.134 2393.91 7042.36
-990.685 2393.76 7040.1
-989.404 2393.79 7042.47
-975.11 2398.93 7059.83
-974.155 2399.63 7058.93
-975.417 2398.61 7061.07
-986.081 2394.42 7048.2
-986.768 2394.23 7046.86
-987.08 2394.2 7045.89
-984.298 2395.27 7050.19
-982.476 2396.08 7051.65
-980.612 2396.68 7054.65
-977.009 2398 7059.21
-976.293 2398.27 7060.05
-978.832 2397.26 7058.13
-915.757 2433.57 7115.08
-914.893 2433.63 7112.73
-913.919 2434.23 7111.74
-913.404 2434.43 7110.61
-912.576 2434.78 7109.48
-911.851 2435.14 7108.43
-911.814 2435.1 7107.95
-911.423 2435.45 7106.89
-911.014 2435.81 7105.72
-910.79 2435.85 7104.26
-910.33 2435.69 7101.73
-910.62 2435.77 7102.81
-910.776 2435.53 7102.55
-910.559 2435.58 7102.08
-942.486 2413.51 7068.93
-941.792 2413.87 7069.53
-943.251 2412.42 7071.33
-946.093 2409.69 7075.53
-944.539 2410.97 7074.28
-949.04 2407.7 7076.23
-948.364 2408.02 7076.64
-947.609 2408.29 7077.45
-949.897 2407.03 7076.76
-951.181 2406.45 7076.3
-951.847 2406.13 7076.21
-950.528 2406.63 7076.86
-952.356 2405.89 7076.11
-952.538 2406.74 7072.83
-952.86 2406.03 7074.88
-941.749 2413.45 7071.64
-941.227 2413.62 7072.94
-940.12 2414.12 7075.33
-941 2413.45 7074.88
-936.99 2416.51 7078.15
-939.28 2414.37 7078.05
-939.798 2413.85 7078.47
-937.997 2415.4 7078.82
-936.035 2417.49 7078.38
-935.48 2418.34 7077.54
-931.311 2419.12 7090.77
-930.565 2419.59 7092.48
-932.533 2418.34 7088.87
-930.05 2419.87 7094.94
-929.254 2420.51 7097.07
-928.456 2421.29 7098.02
-928.432 2421.34 7100.16
-934.97 2418.43 7079.05
-935.38 2417.86 7079.48
-936.079 2417.04 7079.85
-934.061 2417.3 7086.64
-935.325 2416.72 7083.72
-936.338 2416.31 7081.68
-936.792 2416.27 7080.08
-918.363 2432.53 7100.29
-918.511 2431.81 7102.31
-918.755 2431.28 7103.67
-922.777 2427.52 7109.09
-923.427 2426.96 7109.5
-923.766 2426.63 7109.22
-921.775 2428.38 7108.24
-921.368 2428.73 7108.06
-924.227 2426.18 7108.75
-925.092 2425.28 7107.79
-925.933 2424.33 7106.76
-927.168 2422.84 7104.16
-921.084 2428.96 7108.25
-920.93 2429.12 7107.86
-919.058 2430.73 7104.79
-919.459 2430.56 7104.57
-919.848 2430.14 7105.25
-920.285 2429.62 7107.08
-919.995 2429.84 7106.76
-920.597 2429.39 7107.44
-927.802 2422.04 7101.37
-911.972 2437.6 7092.07
-912.396 2437.45 7092.02
-911.493 2437.02 7094.14
-912.973 2437.16 7092.1
-913.561 2437.01 7091.76
-911.077 2436.48 7096.09
-914.465 2436.41 7092.29
-915.718 2435.42 7093.68
-916.286 2435.08 7093.95
-917.617 2433.84 7096.56
-918.042 2433.08 7098.97
-911.26 2434.98 7101.92
-911.489 2434.79 7101.83
-911.553 2434.77 7101.99
-911.497 2434.79 7101.54
-911.143 2435.08 7101.97
-911.615 2434.78 7101.18
-911.641 2435.19 7098.99
-911.726 2435.17 7098.89
-911.753 2434.97 7099.92
-911.787 2434.78 7100.88
-911.261 2436.12 7096.99
-911.591 2435.27 7098.55
-911.457 2435.58 7097.95
-911.809 2435.14 7098.83
-910.641 2435.46 7101.93
-910.886 2435.28 7102.01
-911.142 2435.1 7102.09
-995.014 2393.49 7028.09
-994.248 2393.52 7030.16
-992.946 2393.75 7032.86
-987.833 2393.92 7045.23
-988.251 2393.73 7045.24
-992.035 2393.75 7036.37
-991.332 2393.61 7039.48
-988.565 2393.61 7045.17
-989.812 2393.63 7042.49
-988.774 2393.54 7045.08
-974.399 2399.08 7061.42
-973.835 2399.58 7060.42
-975.52 2398.41 7062.17
-974.262 2398.94 7062.77
-986.1 2394.33 7049.02
-986.96 2394.04 7047.71
-987.407 2393.98 7046.56
-984.444 2395.13 7051.12
-982.672 2395.92 7052.4
-981.932 2396.14 7054.65
-980.053 2396.81 7057.21
-976.864 2397.95 7060.34
-976.038 2398.19 7061.89
-977.839 2397.61 7059.56
-915.967 2433.07 7113.95
-914.302 2433.81 7111.41
-913.239 2434.33 7109.95
-912.325 2434.77 7108.62
-912.146 2434.78 7108.07
-911.762 2435.09 7107.34
-911.288 2435.5 7105.96
-910.951 2435.61 7104.02
-910.821 2435.37 7102.17
-911.063 2435.28 7102.91
-911.166 2435.33 7104.01
-942.515 2413.02 7070.95
-943.343 2411.84 7073.92
-946.677 2408.79 7077.88
-945.148 2410.1 7076.58
-949.323 2407 7078.25
-950.051 2406.52 7078.25
-948.717 2407.18 7079.12
-947.949 2407.56 7079.59
-951.098 2405.73 7078.73
-952.257 2405.18 7078.54
-951.716 2405.46 7078.56
-953.006 2404.6 7079.12
-953.091 2405.46 7076.44
-953.269 2404.69 7078.5
-953.35 2406.16 7073.69
-953.732 2405.69 7074.73
-942 2412.79 7074.21
-942.582 2412.47 7073.51
-940.492 2413.42 7077.59
-941.415 2412.65 7077.7
-942.054 2412.36 7076.42
-937.926 2415.18 7080.13
-940.282 2413.22 7079.81
-938.324 2414.76 7080.49
-931.513 2418.85 7091.4
-932.868 2417.89 7089.79
-930.977 2419.16 7093.07
-930.521 2419.41 7095.09
-934.288 2416.94 7087.82
-929.695 2420.09 7096.81
-929.059 2420.68 7098.03
-928.929 2420.83 7099.78
-928.748 2421.04 7101.54
-935.513 2416.37 7084.65
-937.042 2415.62 7082.07
-937.219 2415.33 7082.72
-918.214 2432.04 7102.16
-918.366 2431.52 7103.51
-918.646 2431.07 7104.5
-921.785 2428.36 7109.21
-922.733 2427.53 7109.91
-923.527 2426.84 7110.72
-924.147 2426.25 7110.49
-924.637 2425.75 7110.25
-921.225 2428.83 7109.4
-921.03 2428.99 7109.29
-925.544 2424.84 7109.04
-926.523 2423.74 7107.42
-927.835 2422.2 7105.13
-928.126 2421.74 7102.78
-920.668 2429.26 7108.81
-920.78 2429.19 7109.76
-919.252 2430.49 7105.34
-918.756 2430.8 7105.18
-919.62 2430.23 7105.61
-919.714 2430.04 7106.6
-920.028 2429.67 7108.11
-920.369 2429.45 7108.52
-919.508 2430 7107.87
-912.246 2437.07 7093.25
-911.776 2436.84 7094.34
-912.923 2436.85 7093.04
-911.428 2436.3 7096.23
-913.762 2436.7 7092.43
-911.428 2436.18 7096.68
-914.812 2435.94 7093.4
-916.127 2435.02 7094.73
-917.135 2434.19 7096.16
-917.659 2433.55 7097.96
-918.019 2432.57 7100.87
-911.536 2434.83 7102.24
-911.737 2434.68 7102.31
-911.923 2434.52 7102.12
-911.854 2434.54 7101.96
-912.005 2434.49 7102.49
-911.911 2434.54 7101.77
-911.555 2434.83 7102.68
-911.967 2434.58 7101.42
-911.878 2435 7099.55
-912.015 2434.99 7099.3
-911.943 2434.77 7100.57
-912.182 2434.55 7101.11
-911.611 2435.75 7097.47
-911.738 2435.21 7098.54
-911.948 2435.09 7098.82
-911.848 2435.35 7098.12
-912.154 2434.96 7099.17
-911.121 2435.15 7102.46
-911.367 2434.97 7102.69
-995.896 2393.53 7025.62
-995.393 2393.28 7028.84
-994.314 2393.36 7031.6
-993.195 2393.54 7034.2
-987.93 2393.74 7046.62
-992.413 2393.52 7037.15
-991.667 2393.43 7039.94
-990.267 2393.48 7042.4
-988.424 2393.5 7046.77
-989.061 2393.45 7044.85
-988.82 2393.34 7046.63
-973.093 2399.72 7061.94
-973.416 2399.39 7062.79
-974.57 2398.78 7062.94
-973.218 2399.34 7063.78
-972.683 2399.67 7063.45
-971.598 2400.46 7062.43
-986.945 2393.95 7048.62
-985.819 2394.44 7049.83
-987.528 2393.8 7047.61
-984.313 2395.16 7052.33
-982.778 2395.79 7054.7
-980.915 2396.46 7057.59
-979.051 2397.11 7059.96
-975.737 2398.28 7062.55
-976.368 2398.07 7062.02
-974.617 2398.69 7063.65
-977.144 2397.81 7060.88
-916.658 2432.63 7114.43
-915.084 2433.32 7112.09
-913.847 2433.91 7110.32
-912.919 2434.37 7108.92
-912.178 2434.68 7107.77
-912.616 2434.44 7108.09
-911.747 2435.05 7106.86
-911.377 2435.31 7105.49
-911.469 2434.99 7104.24
-911.61 2435.03 7105.57
-943.408 2411.4 7076.15
-947.842 2407.36 7080.76
-946.624 2408.37 7079.99
-944.954 2409.8 7078.64
-949.792 2405.81 7081.3
-950.165 2405.78 7080.44
-951.079 2404.99 7081.11
-949.082 2406.36 7081.19
-949.111 2405.95 7082.58
-951.881 2404.26 7081.9
-952.273 2404.14 7081.61
-952.667 2404.01 7081.34
-953.162 2403.93 7080.82
-954.318 2403.65 7079.97
-953.871 2403.57 7080.82
-953.92 2404.85 7077.14
-954.146 2404.12 7078.91
-943.07 2411.36 7077.71
-941.287 2412.42 7079.71
-942.569 2411.43 7079.54
-941.077 2412.29 7081.6
-938.694 2414.28 7081.34
-937.449 2415.05 7083.12
-932.672 2417.93 7090.88
-931.829 2418.48 7092.72
-934.119 2416.87 7089.82
-934.888 2416.36 7088.45
-930.98 2419 7095.18
-930.202 2419.63 7097.03
-935.778 2416.04 7085.42
-929.685 2420.08 7098.48
-929.513 2420.26 7100.6
-928.698 2421.11 7102.22
-917.999 2431.85 7103.04
-918.098 2431.52 7103.97
-918.33 2431.14 7104.81
-921.893 2428.33 7110.71
-921.44 2428.69 7110.92
-922.545 2427.78 7111.17
-924.064 2426.43 7111.42
-925.067 2425.46 7111.19
-926.016 2424.44 7110.13
-921.028 2429 7111.5
-920.85 2429.14 7110.89
-927.194 2423.07 7107.76
-928.667 2421.31 7104.32
-920.358 2429.44 7109.68
-920.414 2429.4 7110.5
-918.705 2430.77 7105.46
-919.064 2430.47 7106.22
-919.119 2430.3 7107.21
-919.892 2429.7 7108.82
-919.359 2430.01 7108.45
-918.446 2430.61 7107.66
-918.721 2430.38 7108.31
-912.631 2436.67 7093.93
-911.789 2436.3 7095.81
-912.041 2436.21 7095.81
-913.487 2436.54 7093.3
-911.866 2435.87 7097.02
-914.26 2436.26 7093.28
-915.782 2435.17 7094.87
-916.965 2434.15 7096.88
-917.347 2433.77 7097.85
-917.749 2432.91 7100.25
-917.768 2432.18 7102.37
-911.962 2434.56 7103.8
-912.17 2434.41 7103.88
-912.393 2434.23 7103.14
-912.254 2434.3 7102.25
-912.434 2434.23 7102.09
-912.362 2434.27 7103.91
-912.328 2434.37 7101.68
-911.859 2434.65 7104.31
-912.489 2434.35 7101.41
-912.078 2434.79 7100.21
-912.236 2434.79 7099.89
-912.316 2434.57 7100.76
-912.681 2434.32 7101.13
-912.108 2435.06 7098.74
-912.287 2434.92 7099.08
-912.133 2435.39 7097.8
-912.266 2435.16 7098.32
-912.467 2434.74 7099.64
-911.668 2434.79 7104.31
-996.606 2393.25 7026.33
-995.643 2393.17 7029.29
-994.701 2393.2 7032.22
-993.644 2393.3 7035.28
-987.962 2393.6 7047.73
-992.648 2393.39 7037.6
-991.923 2393.32 7040.24
-990.375 2393.34 7043.06
-988.406 2393.39 7047.87
-989.149 2393.3 7045.77
-988.881 2393.21 7047.68
-972.086 2400.05 7063.1
-973.369 2399.16 7064.44
-971.91 2399.65 7065.57
-972.1 2399.45 7066.18
-971.517 2399.86 7065.44
-970.845 2400.31 7064.96
-987.546 2393.68 7048.48
-986.596 2394.06 7049.11
-985.859 2394.41 7051.14
-984.501 2395.03 7053.34
-982.497 2395.88 7056.69
-984.395 2395.06 7054.26
-980.702 2396.52 7059.69
-978.952 2397.11 7061.04
-975.321 2398.32 7064.17
-976.084 2398.05 7063.65
-973.747 2398.9 7065.13
-977.011 2397.81 7062
-917.751 2431.96 7115.21
-916.289 2432.62 7113.15
-914.608 2433.43 7110.91
-913.65 2433.9 7109.43
-912.004 2434.76 7107.07
-912.616 2434.36 7107.69
-912.363 2434.47 7107.56
-913.56 2433.85 7108.84
-911.943 2434.7 7106.15
-966.89 2401.87 7067.27
-969.187 2400.88 7066.22
-947.975 2406.74 7082.9
-948.963 2405.8 7083.64
-946.49 2408.2 7081.3
-944.561 2409.81 7080.03
-950.894 2404.54 7083.13
-951.012 2404.19 7084.18
-950.229 2404.9 7083.45
-951.652 2403.87 7083.75
-950.139 2404.69 7084.71
-952.271 2403.62 7083.38
-952.789 2403.58 7082.54
-953.352 2403.53 7081.7
-954.729 2403.36 7080.25
-954.341 2403.2 7081.22
-953.802 2403.26 7081.85
-954.796 2404.41 7077.24
-955.002 2403.53 7079.42
-955.381 2404.75 7075.51
-942.345 2411.29 7081.56
-944.252 2409.77 7081.53
-942.533 2410.92 7083.18
-939.184 2413.7 7082.4
-937.501 2414.91 7083.65
-933.535 2417.2 7091.43
-935.147 2416.05 7090.42
-932.695 2417.71 7093.37
-931.685 2418.45 7094.56
-935.481 2415.9 7088.45
-936.365 2415.52 7085.96
-931.023 2418.92 7096.53
-930.757 2419.12 7098.79
-930.15 2419.64 7099.85
-929.472 2420.3 7101.39
-929.012 2420.87 7103.08
-917.749 2431.96 7103.1
-917.803 2431.67 7103.97
-917.841 2431.41 7104.79
-918.089 2431.13 7105.35
-921.577 2428.6 7111.74
-921.887 2428.37 7111.71
-921.086 2428.97 7111.93
-922.724 2427.68 7111.52
-925.153 2425.51 7112.25
-923.404 2427.13 7111.87
-926.286 2424.31 7111.36
-927.599 2422.83 7109.36
-920.45 2429.39 7111.44
-920.534 2429.36 7112.07
-928.589 2421.52 7106.29
-929.29 2420.73 7104.76
-919.606 2429.85 7109.3
-919.827 2429.75 7110.42
-918.362 2430.85 7106.22
-918.462 2430.69 7107.04
-918.924 2430.23 7108.65
-918.095 2430.75 7108.11
-917.441 2431.36 7105.88
-917.568 2431.2 7106.72
-913.067 2436.42 7094.21
-912.386 2435.97 7096.15
-912.232 2435.66 7097.15
-913.995 2436.16 7093.97
-914.616 2435.83 7094.29
-915.734 2435.09 7095.42
-916.796 2434.09 7097.64
-917.154 2433.67 7098.63
-917.502 2432.79 7100.99
-917.483 2432.23 7102.62
-912.264 2434.38 7105.6
-912.442 2434.25 7105.47
-912.701 2434.08 7105.31
-912.674 2434.08 7104.46
-913.04 2433.83 7104.54
-912.675 2434.05 7103.32
-912.868 2433.92 7103.13
-912.7 2434.09 7102.09
-912.105 2434.51 7105.95
-912.843 2434.08 7101.8
-912.442 2434.59 7100.38
-912.612 2434.59 7100.04
-912.718 2434.39 7100.73
-912.986 2434.17 7101.15
-913.078 2433.93 7101.98
-912.546 2434.92 7098.84
-912.615 2434.75 7099.31
-912.595 2435.24 7097.88
-912.674 2435.05 7098.38
-912.969 2434.42 7100.05
-912.909 2434.54 7099.65
-996.756 2393.03 7027.82
-995.82 2393.07 7030.09
-995.113 2393.04 7032.87
-993.989 2393.15 7035.71
-987.904 2393.54 7048.43
-992.778 2393.3 7038.03
-990.924 2393.2 7043.02
-992.221 2393.19 7040.75
-991.305 2393.08 7043.25
-989.582 2393.22 7045.24
-988.232 2393.41 7048.38
-989.341 2393.13 7046.96
-988.605 2393.27 7048.29
-972.476 2399.26 7066.3
-970.303 2400.16 7067.05
-970.773 2399.91 7067.23
-971 2399.65 7068.06
-969.661 2400.47 7067.04
-987.208 2393.79 7048.9
-986.395 2394.13 7049.88
-986.153 2394.26 7052.26
-981.733 2396.18 7059.44
-983.186 2395.63 7056.61
-985.109 2394.76 7054.47
-978.429 2397.27 7062
-979.521 2396.9 7061.97
-974.806 2398.39 7065.67
-975.441 2398.07 7066.1
-976.366 2397.9 7064.22
-972.954 2399.01 7066.57
-971.899 2399.25 7067.95
-977.026 2397.74 7063.41
-917.755 2431.74 7114.31
-918.657 2431.48 7116.18
-916.119 2432.55 7112.28
-914.782 2433.23 7110.68
-912.369 2434.39 7107.26
-913.194 2433.97 7107.94
-912.699 2434.21 7107.39
-914.707 2433.19 7110.22
-968.231 2400.74 7068.98
-966.166 2401.51 7070.27
-964.697 2402.12 7071.16
-963.634 2402.57 7071.77
-963.264 2402.35 7073.3
-962.392 2402.68 7073.64
-961.885 2402.7 7074.34
-961.324 2402.71 7075.1
-949.108 2405.31 7085.47
-947.914 2406.57 7084.02
-949.839 2404.71 7085.7
-946.304 2408.13 7082.33
-951.644 2403.72 7084.42
-951.268 2403.74 7085.36
-950.8 2404.1 7085.21
-952.119 2403.49 7084.16
-950.431 2404.13 7086.27
-952.644 2403.32 7083.74
-953.066 2403.34 7082.9
