-895.004 2363.25 4339.47
-895.393 2362.49 4338.73
-895.663 2361.94 4337.48
-895.884 2361.52 4336.55
-896.108 2361.16 4335.52
-896.334 2360.84 4334.71
-896.516 2360.61 4334.19
-902.948 2358.87 4317.13
-903.384 2358.48 4317.28
-902.609 2359.18 4317.07
-904.026 2357.59 4318.09
-905.197 2356.45 4318.72
-905.841 2355.63 4319.37
-906.315 2354.78 4320.46
-906.211 2355.07 4319.98
-906.357 2354.44 4321.19
-906.457 2354.51 4320.87
-906.568 2354.13 4321.65
-906.944 2353.65 4322.46
-906.985 2353.49 4323.02
-906.867 2353.84 4321.97
-906.856 2353.3 4325.75
-906.957 2353.24 4325.46
-907.092 2353.15 4325.2
-904.156 2355.46 4328.34
-903.289 2356.06 4327.85
-903.741 2355.74 4328.24
-904.488 2355.23 4327.76
-904.928 2354.89 4327.56
-905.836 2354.12 4326.87
-906.747 2353.39 4326.27
-906.985 2353.4 4323.51
-907.243 2353.06 4324.95
-907.135 2353.2 4324.2
-907.461 2352.93 4324.79
-895.922 2365.98 4316.41
-896.49 2365.56 4316.18
-896.938 2365.29 4315.97
-897.262 2364.72 4316.24
-898.534 2363.74 4316.04
-900.441 2361.79 4316.24
-900.499 2361.95 4315.98
-902.5 2359.4 4316.85
-901.74 2360.46 4316.31
-902.395 2359.7 4316.55
-898.14 2358.76 4333.06
-898.365 2358.57 4332.95
-897.781 2359.06 4334.17
-897.503 2359.37 4334.27
-897.636 2359.22 4334.53
-897.368 2359.54 4334.7
-898 2358.87 4334.01
-896.706 2360.36 4334.59
-896.901 2360.12 4335.05
-897.182 2359.76 4334.75
-898.659 2358.34 4332.76
-899.12 2358.01 4332.48
-900.029 2357.5 4331.27
-899.739 2357.63 4331.82
-899.394 2357.81 4332.5
-900.301 2357.4 4330.66
-901.154 2357.11 4329.41
-902.177 2356.71 4328.26
-902.479 2356.49 4328.55
-902.918 2356.24 4328.33
-894.844 2367.72 4316.05
-895.19 2367.15 4316.1
-895.66 2366.5 4316.13
-894.566 2368.24 4315.96
-891.368 2369.76 4345.31
-891.592 2369.52 4345.53
-918.53 2338.9 4344.57
-918.823 2338.87 4344.59
-918.726 2338.88 4344.5
-918.634 2338.89 4344.45
-920.1 2338.99 4344.92
-919.869 2338.96 4344.75
-919.631 2338.92 4344.6
-919.07 2338.87 4344.57
-918.939 2338.87 4344.47
-919.422 2338.9 4344.59
-919.202 2338.88 4344.47
-921.349 2339.23 4345.32
-921.083 2339.15 4345.21
-920.824 2339.08 4345.09
-920.571 2339.04 4344.88
-920.361 2339.01 4344.77
-920.243 2339 4344.87
-922.694 2339.6 4346.26
-922.158 2339.45 4345.83
-921.662 2339.31 4345.4
-921.366 2339.23 4345.15
-927.436 2339.94 4338.33
-927.174 2340.07 4338.11
-926.922 2340.2 4337.82
-926.763 2340.32 4337.85
-928.216 2339.15 4337.17
-929.04 2338.41 4336.6
-929.443 2338.16 4336.64
-927.557 2339.8 4338.04
-928.157 2339.19 4337.11
-929.613 2338.02 4336.43
-926.492 2340.49 4337.86
-926.333 2340.56 4338.17
-926.168 2340.63 4338.26
-926.129 2340.63 4338.49
-926.058 2340.63 4338.72
-925.964 2340.65 4338.97
-925.954 2340.63 4339.24
-925.922 2340.63 4339.46
-925.727 2340.72 4339.47
-925.686 2340.7 4339.65
-925.639 2340.7 4339.82
-925.513 2340.74 4339.91
-925.37 2340.79 4339.97
-925.383 2340.76 4340.13
-925.264 2340.8 4340.2
-925.276 2340.77 4340.4
-925.157 2340.79 4340.67
-925.144 2340.82 4340.47
-925.017 2340.83 4340.75
-924.975 2340.73 4341.61
-924.801 2340.65 4342.03
-924.79 2340.68 4341.78
-924.829 2340.7 4341.61
-924.901 2340.84 4340.99
-924.89 2340.8 4341.16
-924.892 2340.88 4340.76
-924.864 2340.74 4341.38
-929.772 2337.89 4336.19
-929.977 2337.73 4335.85
-929.813 2337.83 4335.78
-930.121 2337.63 4335.75
-930.368 2337.45 4335.41
-930.198 2337.55 4335.46
-924.864 2340.46 4343.57
-924.824 2340.49 4343.3
-924.869 2340.54 4343.07
-924.795 2340.57 4342.77
-924.768 2340.61 4342.37
-924.677 2340.62 4342.09
-924.692 2340.58 4342.5
-924.82 2340.34 4344.54
-924.68 2340.34 4344.11
-924.758 2340.38 4343.91
-924.666 2340.4 4343.63
-923.879 2339.97 4347.04
-924.578 2340.21 4346.12
-923.819 2339.96 4346.68
-924.52 2340.21 4345.53
-924.458 2340.24 4344.54
-924.362 2340.19 4345.03
-908.764 2349.62 4353.69
-908.243 2349.61 4354.36
-907.414 2349.66 4355.28
-909.29 2349.75 4352.8
-909.054 2349.7 4353.13
-909.141 2349.73 4352.98
-908.904 2349.69 4353.27
-908.893 2349.66 4353.4
-908.793 2349.64 4353.55
-909.81 2349.81 4351.82
-909.7 2349.83 4351.95
-909.617 2349.83 4352.1
-909.616 2349.78 4352.23
-909.515 2349.79 4352.35
-909.334 2349.78 4352.64
-909.399 2349.81 4352.48
-915.277 2341.46 4345.11
-915.095 2341.77 4345.5
-916.332 2339.89 4344.64
-916.262 2339.97 4344.63
-916.432 2339.8 4344.49
-916.666 2339.56 4344.39
-916.572 2339.65 4344.45
-916.524 2339.72 4344.38
-915.443 2341.22 4344.75
-916.109 2340.19 4344.67
-915.963 2340.43 4344.66
-916.213 2340.05 4344.57
-915.821 2340.66 4344.6
-915.586 2341.02 4344.64
-915.702 2340.86 4344.55
-916.882 2339.41 4344.43
-916.962 2339.37 4344.44
-917.036 2339.34 4344.5
-916.842 2339.41 4344.25
-916.764 2339.47 4344.26
-917.168 2339.28 4344.56
-917.088 2339.29 4344.42
-910.599 2349.71 4348.75
-910.729 2349.59 4348.33
-910.204 2350.03 4349.81
-910.195 2349.97 4350.05
-910.204 2350.11 4349.57
-910.152 2349.97 4350.31
-910.056 2350.04 4350.51
-910.001 2350.05 4350.8
-909.963 2350.02 4351.04
-909.917 2350 4351.16
-909.967 2349.9 4351.37
-910.277 2350.07 4349.24
-910.352 2350.03 4348.87
-909.954 2349.83 4351.56
-909.855 2349.83 4351.7
-914.481 2342.99 4346.45
-913.932 2344.08 4346.63
-911.403 2348.71 4344.96
-910.999 2349.31 4347.04
-911.974 2347.85 4344.38
-913.084 2345.93 4346.51
-913.97 2344.03 4346.44
-912.443 2347.19 4345.6
-912.685 2346.75 4346.31
-910.901 2349.41 4347.77
-914.96 2342.08 4345.8
-914.825 2342.4 4346.07
-918.343 2338.93 4344.4
-918.452 2338.92 4344.4
-917.939 2339 4344.33
-917.851 2339.01 4344.36
-917.798 2339.03 4344.27
-917.706 2339.04 4344.33
-917.617 2339.06 4344.39
-917.489 2339.09 4344.3
-917.571 2339.07 4344.3
-917.37 2339.16 4344.5
-917.411 2339.11 4344.37
-917.319 2339.21 4344.62
-917.223 2339.23 4344.46
-918.309 2338.95 4344.2
-918.234 2338.96 4344.22
-918.169 2338.97 4344.2
-918.039 2338.98 4344.23
-918.14 2338.97 4344.08
-905.828 2350.16 4355.08
-905.74 2350.24 4355.03
-905.922 2350.1 4355.07
-905.998 2350.03 4355.11
-905.634 2350.32 4355.03
-905.601 2350.4 4354.95
-905.505 2350.48 4355
-905.417 2350.6 4354.96
-905.329 2350.73 4354.92
-905.246 2350.78 4355.03
-905.153 2350.9 4355.01
-905.123 2350.98 4354.92
-904.997 2351.11 4354.99
-904.843 2351.31 4355.01
-904.685 2351.53 4355.01
-904.387 2352.03 4355.01
-904.534 2351.78 4354.96
-904.231 2352.4 4354.92
-894.544 2365.39 4348.52
-894.795 2365.1 4348.28
-893.188 2367.21 4347.94
-893.181 2367.14 4348.11
-893.271 2367.2 4347.7
-893.14 2367.35 4347.72
-894.151 2365.91 4348.42
-893.388 2367.07 4347.64
-901.849 2358.03 4349.65
-902.031 2357.89 4349.69
-899.537 2360.19 4350.3
-900.459 2359.28 4349.8
-900.113 2359.62 4349.86
-901.483 2358.34 4349.4
-901.143 2358.66 4349.41
-900.802 2358.98 4349.4
-901.852 2358.05 4349.27
-898.006 2361.64 4349.56
-896.634 2362.97 4348.87
-895.759 2363.93 4348.3
-894.973 2364.92 4348.08
-895.114 2364.75 4347.87
-902.237 2357.74 4349.67
-903.061 2355.87 4352.56
-903.16 2355.93 4352.24
-903.255 2355.99 4351.93
-903.044 2355.74 4352.87
-903.08 2355.34 4353.53
-903.042 2355.56 4353.22
-903.121 2355.1 4353.86
-903.17 2356.44 4351.21
-903.25 2356.24 4351.44
-902.992 2356.74 4351
-902.822 2357 4350.82
-902.708 2357.16 4350.57
-903.365 2356.04 4351.61
-902.768 2357.18 4350.36
-902.632 2357.36 4350.09
-902.464 2357.56 4349.81
-903.558 2353.9 4354.6
-903.702 2353.69 4354.49
-904.126 2352.72 4354.78
-906.124 2349.99 4355.02
-906.324 2349.91 4354.93
-906.842 2349.67 4355.04
-907.008 2349.66 4355.08
-907.178 2349.66 4355.17
-907.368 2349.64 4355.15
-906.783 2349.67 4354.91
-906.722 2349.73 4354.82
-906.597 2349.81 4354.8
-931.908 2337.11 4333.06
-931.822 2337.14 4333.01
-931.911 2337.03 4333.32
-931.738 2337.18 4332.99
-931.642 2337.2 4333.02
-932.046 2338.53 4326.98
-931.991 2338.47 4327.94
-931.897 2338.38 4329.13
-932.105 2338.31 4329.17
-931.863 2338.46 4328.57
-932.042 2338.25 4329.62
-931.907 2338.18 4330.03
-931.759 2338.11 4330.44
-931.694 2337.98 4330.92
-931.668 2337.65 4331.85
-931.764 2337.63 4331.84
-931.564 2337.24 4332.97
-931.476 2337.27 4332.96
-933.068 2338.35 4323.32
-931.926 2338.68 4324.96
-931.877 2338.66 4326.01
-933.954 2338.03 4322.59
-934.618 2337.78 4321.58
-936.685 2336.81 4320.46
-937.753 2336.26 4319.54
-935.714 2337.31 4321.06
-935.572 2337.36 4320.65
-935.001 2337.62 4320.73
-937.716 2336.22 4319.09
-938 2336.05 4318.61
-938.214 2335.94 4318.44
-938.593 2335.76 4317.83
-939.023 2335.62 4316.95
-938.735 2335.71 4317.25
-938.342 2335.87 4318.07
-938.823 2335.71 4316.68
-951.391 2336.68 4276.85
-950.808 2336.72 4277.61
-950.305 2336.74 4277.89
-952.449 2336.62 4275.63
-952.175 2336.66 4275.75
-951.658 2336.66 4276.01
-952.996 2336.68 4274.12
-952.69 2336.64 4274.73
-952.441 2336.62 4274.95
-951.431 2338.89 4261.67
-950.377 2339.12 4262.42
-950.074 2339.18 4262.98
-950.832 2339.02 4261.9
-950.372 2339.14 4261.96
-947.669 2337.02 4279.12
-947.462 2337.15 4279.7
-947.209 2337.22 4279.93
-947.91 2336.95 4278.87
-946.989 2337.3 4280.17
-948.152 2336.91 4278.68
-944.897 2337.97 4286.34
-945.14 2338.02 4285.34
-944.395 2337.91 4288.82
-944.096 2337.89 4290.64
-945.494 2338.02 4283.91
-945.776 2337.91 4283.37
-945.238 2338.1 4284.53
-946.056 2337.78 4282.79
-946.193 2337.66 4282
-946.523 2337.52 4281.33
-946.629 2337.48 4281.08
-946.367 2337.57 4281.49
-946.798 2337.37 4280.32
-946.617 2337.48 4280.68
-948.376 2336.53 4276.87
-948.168 2336.57 4276.99
-947.922 2336.58 4276.9
-948.604 2336.51 4276.77
-948.903 2336.51 4276.83
-949.399 2336.48 4276.57
-949.017 2336.44 4276.39
-939.939 2337.13 4304.75
-940.056 2337.24 4303.41
-940.504 2337.26 4302.14
-943.138 2337.42 4295.84
-943.568 2337.64 4293.61
-942.28 2337.37 4298.08
-941.342 2337.29 4300.27
-943.728 2337.85 4292
-939.152 2336.82 4309.92
-939.132 2336.64 4311.34
-939.641 2336.95 4307.36
-938.883 2336.36 4313.4
-938.707 2336.1 4314.81
-938.442 2336.06 4315.51
-938.51 2335.98 4315.73
-938.639 2335.87 4316.05
-938.586 2335.81 4316.56
-930.429 2337.38 4335.13
-931.71 2337.02 4333.59
-931.607 2337 4333.73
-931.503 2336.97 4333.91
-931.401 2336.97 4334.08
-931.13 2337.01 4334.62
-931.215 2336.99 4334.42
-931.281 2336.99 4334.15
-931.799 2337.07 4333.31
-930.76 2337.19 4334.76
-930.622 2337.26 4334.8
-931.071 2337.05 4334.37
-930.926 2337.1 4334.38
-930.822 2337.14 4334.52
-930.479 2337.34 4334.85
-892.992 2372.28 4314.82
-893.677 2372.72 4313.43
-893.509 2372.58 4313.8
-893.535 2372.22 4314.09
-893.215 2370.78 4315.71
-894.274 2368.71 4315.96
-893.921 2369.92 4315.41
-893.55 2370.53 4315.44
-894.438 2364.21 4351.92
-894.461 2363.97 4352.31
-894.099 2364.05 4352.49
-893.834 2364.36 4352.18
-893.89 2364.6 4351.76
-894.143 2364.45 4351.79
-891.764 2369.26 4346.01
-891.981 2368.92 4346.48
-892.305 2368.43 4347.08
-894.208 2364.14 4352.25
-894.149 2365.97 4348.19
-892.325 2368.53 4346.68
-892.004 2368.97 4346.22
-895.311 2364.39 4347.15
-895.456 2364.24 4347.53
-894.635 2365.35 4347.75
-895.51 2364.21 4347.88
-895.549 2363.77 4345.67
-895.945 2363.5 4346.8
-895.749 2363.67 4346.43
-895.767 2363.77 4347.06
-895.239 2362.97 4340.21
-895.644 2362.44 4340.89
-895.6 2363.54 4344.96
-895.816 2362.74 4343.24
-895.557 2362.35 4339.65
-895.703 2361.99 4338.68
-895.964 2361.5 4337.78
-896.169 2361.1 4336.63
-896.352 2360.83 4335.72
-896.585 2360.53 4335.12
-903.556 2358.49 4317.03
-903.181 2358.94 4316.73
-904.158 2357.66 4317.77
-905.421 2356.68 4318.01
-905.957 2355.86 4318.77
-906.281 2355.23 4319.55
-906.601 2354.53 4320.59
-906.52 2354.75 4320.2
-906.591 2354.22 4321.34
-906.697 2354.28 4321.03
-907.267 2353.4 4322.72
-907.304 2353.26 4323.25
-907.337 2353.13 4323.72
-906.858 2353.97 4321.59
-907.268 2353.51 4322.3
-908.436 2352.15 4326.81
-908.212 2352.32 4327.01
-908.504 2352.12 4326.56
-908.607 2352.06 4326.32
-908.443 2352.2 4325.88
-904.374 2355.31 4328.8
-904.544 2355.2 4328.3
-903.904 2355.61 4328.81
-903.369 2355.98 4328.39
-904.917 2354.93 4328.21
-905.359 2354.59 4328.25
-906.043 2353.99 4327.4
-907.601 2352.8 4327.37
-908.301 2352.27 4327.46
-907.349 2353.07 4324.1
-908.679 2352.07 4325.74
-907.684 2352.83 4324.5
-908.799 2352.03 4325.5
-896.245 2365.95 4316.03
-896.651 2365.75 4315.79
-897.084 2365.39 4315.71
-897.329 2364.9 4315.97
-898.565 2364.03 4315.67
-898.538 2363.89 4315.86
-900.608 2362.07 4315.71
-901.756 2360.75 4315.92
-903.077 2359.23 4316.41
-902.34 2360.12 4316.07
-902.921 2359.67 4316.01
-898.216 2358.69 4333.72
-898.351 2358.58 4334.11
-898.523 2358.44 4333.53
-897.695 2359.17 4335.2
-897.871 2359 4334.83
-897.51 2359.38 4335.11
-897.293 2359.65 4335.43
-897.448 2359.51 4335.85
-898.122 2358.78 4334.62
-897.029 2359.97 4335.62
-896.671 2360.42 4335.93
-898.897 2358.16 4333
-900.296 2357.33 4331.43
-899.954 2357.48 4332.08
-899.634 2357.64 4332.62
-899.172 2357.96 4333.2
-900.593 2357.22 4330.8
-901.479 2356.91 4329.55
-902.603 2356.34 4328.99
-901.596 2356.78 4329.95
-903.028 2356.14 4328.81
-895.289 2367.5 4315.69
-894.961 2368 4315.67
-895.649 2366.94 4315.75
-896.072 2366.39 4315.78
-894.883 2368.48 4315.37
-918.555 2338.91 4344.35
-918.819 2338.88 4344.37
-918.724 2338.89 4344.3
-918.641 2338.9 4344.22
-920.004 2338.97 4344.68
-919.757 2338.93 4344.49
-919.515 2338.9 4344.32
-919.36 2338.89 4344.38
-919.065 2338.88 4344.35
-918.938 2338.88 4344.25
-919.192 2338.88 4344.25
-921.071 2339.15 4345.02
-920.788 2339.07 4344.89
-920.564 2339.03 4344.67
-920.338 2339 4344.57
-920.15 2338.98 4344.62
-922.52 2339.56 4345.78
-921.905 2339.38 4345.31
-921.474 2339.26 4345.03
-921.163 2339.17 4344.9
-927.218 2340.02 4337.95
-926.926 2340.19 4337.59
-926.67 2340.37 4337.44
-926.532 2340.47 4337.6
-929.291 2338.18 4336.34
-929.471 2338.06 4336.16
-928 2339.31 4337.09
-927.42 2339.84 4337.74
-928.853 2338.52 4336.27
-929.641 2337.94 4335.91
-926.268 2340.6 4337.95
-926.056 2340.7 4338.14
-925.997 2340.7 4338.38
-925.945 2340.7 4338.6
-925.866 2340.72 4338.82
-925.729 2340.8 4338.92
-925.818 2340.72 4339.13
-925.772 2340.73 4339.31
-925.592 2340.87 4339.18
-925.526 2340.87 4339.28
-925.546 2340.81 4339.47
-925.522 2340.77 4339.68
-925.388 2340.81 4339.78
-925.242 2340.86 4339.83
-925.207 2340.85 4340.03
-925.145 2340.85 4340.26
-925.027 2340.86 4340.54
-925.02 2340.89 4340.3
-924.903 2340.9 4340.55
-924.663 2340.66 4341.8
-924.678 2340.7 4341.56
-924.763 2340.73 4341.42
-924.786 2340.9 4340.81
-924.767 2340.86 4340.98
-924.806 2340.79 4341.22
-924.786 2340.94 4340.56
-929.884 2337.75 4335.51
-930.037 2337.65 4335.51
-929.705 2337.86 4335.47
-930.272 2337.47 4335.17
-930.106 2337.57 4335.21
-924.663 2340.44 4343.38
-924.653 2340.48 4343.13
-924.714 2340.53 4342.91
-924.605 2340.55 4342.64
-924.586 2340.59 4342.21
-924.482 2340.61 4341.95
-924.561 2340.63 4341.84
-924.523 2340.57 4342.35
-924.552 2340.34 4343.83
-924.459 2340.29 4344.08
-924.49 2340.4 4343.35
-924.435 2340.35 4343.58
-923.794 2339.96 4346.41
-923.82 2339.99 4345.86
-922.934 2339.7 4345.76
-923.588 2339.94 4345.35
-924.292 2340.21 4344.5
-924.132 2340.14 4344.89
-908.046 2349.61 4354.47
-908.712 2349.63 4353.67
-909.214 2349.77 4352.83
-908.998 2349.73 4353.11
-909.09 2349.76 4352.95
-908.818 2349.67 4353.39
-908.86 2349.73 4353.23
-908.801 2349.69 4353.34
-908.735 2349.65 4353.52
-908.669 2349.64 4353.64
-909.698 2349.87 4351.83
-909.586 2349.88 4351.99
-909.492 2349.87 4352.16
-909.512 2349.83 4352.24
-909.388 2349.84 4352.39
-909.275 2349.82 4352.6
-909.194 2349.8 4352.77
-915.34 2341.4 4344.85
-915.162 2341.67 4345.24
-916.357 2339.88 4344.49
-916.292 2339.96 4344.47
-916.479 2339.78 4344.31
-916.395 2339.86 4344.36
-916.614 2339.63 4344.3
-916.697 2339.55 4344.24
-916.588 2339.67 4344.19
-915.5 2341.16 4344.58
-916.117 2340.19 4344.57
-915.976 2340.42 4344.56
-916.248 2340.02 4344.42
-916.184 2340.11 4344.44
-915.901 2340.54 4344.48
-915.77 2340.76 4344.44
-915.592 2341.04 4344.48
-916.919 2339.37 4344.27
-917.008 2339.32 4344.29
-916.841 2339.44 4344.09
-916.905 2339.39 4344.12
-916.771 2339.49 4344.11
-917.148 2339.25 4344.33
-917.087 2339.28 4344.22
-910.503 2349.94 4348.24
-910.419 2350 4348.54
-910.598 2349.86 4347.76
-910.036 2350.31 4349.66
-910.059 2350.19 4349.88
-910.068 2350.1 4350.13
-910.033 2350.4 4349.44
-909.966 2350.19 4350.28
-909.922 2350.19 4350.56
-909.896 2350.16 4350.78
-909.858 2350.13 4350.91
-909.823 2350.09 4351.07
-909.868 2349.96 4351.33
-910.11 2350.35 4349.14
-910.193 2350.31 4348.75
-909.863 2349.88 4351.55
-909.763 2349.89 4351.68
-914.582 2342.81 4346.2
-910.935 2349.42 4346.17
-911.094 2349.19 4344.59
-911.332 2348.74 4341.37
-911.136 2349.08 4341.95
-910.707 2349.78 4346.69
-910.68 2349.78 4347.25
-912.059 2347.72 4343.82
-911.527 2348.44 4341.4
-913.001 2346.16 4346.21
-914.047 2343.91 4346.25
-913.779 2344.56 4346.2
-914.683 2342.63 4345.96
-912.421 2347.25 4344.69
-912.721 2346.74 4345.57
-915.034 2341.91 4345.45
-914.902 2342.22 4345.74
-918.403 2338.93 4344.2
-918.495 2338.92 4344.21
-917.985 2339 4344.14
-917.897 2339.01 4344.2
-917.853 2339.02 4344.1
-917.757 2339.04 4344.16
-917.659 2339.06 4344.2
-917.507 2339.09 4344.12
-917.431 2339.1 4344.2
-917.576 2339.07 4344.16
-917.338 2339.15 4344.27
-917.286 2339.18 4344.4
-917.229 2339.2 4344.25
-918.385 2338.94 4344.01
-918.305 2338.95 4344.03
-918.23 2338.96 4344.03
-918.075 2338.98 4344.05
-918.227 2338.97 4343.88
-918.147 2338.98 4343.89
-905.955 2350.17 4354.87
-905.85 2350.23 4354.9
-905.763 2350.31 4354.86
-906.054 2350.08 4354.92
-905.511 2350.53 4354.88
-905.711 2350.36 4354.83
-905.61 2350.44 4354.84
-905.417 2350.66 4354.83
-905.323 2350.79 4354.79
-905.239 2350.84 4354.91
-905.08 2351.07 4354.83
-905.208 2350.92 4354.81
-904.949 2351.22 4354.9
-904.806 2351.41 4354.91
-904.678 2351.59 4354.89
-904.38 2352.12 4354.88
-904.539 2351.82 4354.85
-892.273 2368.54 4346.83
-902.034 2357.91 4349.32
-902.206 2357.78 4349.36
-900.389 2359.36 4349.49
-900.045 2359.69 4349.49
-899.497 2360.22 4349.75
-901.684 2358.18 4349.05
-901.314 2358.46 4349.11
-900.987 2358.78 4349.1
-900.65 2359.11 4349.13
-902.085 2357.9 4348.93
-897.77 2361.83 4349.04
-896.685 2362.84 4348.46
-896.069 2363.52 4348.22
-902.407 2357.63 4349.42
-903.274 2355.6 4352.65
-903.321 2355.71 4352.33
-903.411 2355.8 4351.98
-903.508 2355.89 4351.64
-903.221 2355.41 4353.04
-903.247 2354.98 4353.72
-903.243 2355.18 4353.38
-903.711 2353.77 4354.36
-903.46 2356.18 4351.16
-903.477 2356.27 4350.95
-903.259 2356.5 4350.93
-903.544 2356.06 4351.26
-903.077 2356.79 4350.73
-902.953 2356.97 4350.54
-903.69 2355.95 4351.26
-902.925 2357.11 4350.16
-903.098 2356.91 4350.29
-902.758 2357.3 4349.97
-902.616 2357.47 4349.68
-904.277 2352.43 4354.73
-904.266 2352.54 4354.6
-906.274 2350 4354.79
-906.488 2349.9 4354.74
-906.967 2349.64 4354.9
-907.129 2349.63 4354.97
-907.285 2349.62 4355.02
-906.812 2349.67 4354.88
-906.714 2349.73 4354.79
-906.69 2349.84 4354.62
-931.706 2337.12 4333.23
-931.554 2337.2 4333.12
-931.616 2337.11 4333.38
-931.804 2338.6 4327.39
-931.702 2338.57 4328.13
-931.839 2338.31 4329.62
-931.658 2338.39 4329.6
-931.595 2338.53 4328.94
-931.727 2338.24 4330.04
-931.593 2338.17 4330.49
-931.59 2338.03 4330.89
-931.561 2337.68 4331.84
-931.391 2337.29 4332.97
-931.314 2337.34 4332.89
-931.472 2337.24 4333.08
-933.403 2338.25 4322.47
-932.183 2338.67 4323.6
-934.266 2337.92 4321.62
-931.377 2338.85 4325.79
-931.561 2338.74 4326.59
-936.68 2336.76 4319.92
-935.462 2337.4 4320.19
-936.601 2336.76 4319.5
-934.871 2337.68 4320.32
-937.529 2336.25 4318.72
-937.836 2336.11 4318.36
-938.066 2336 4318.14
-938.447 2335.82 4317.59
-938.542 2335.78 4317.06
-938.212 2335.93 4317.84
-950.142 2336.44 4275.92
-950.244 2336.42 4275.57
-949.624 2336.44 4276.31
-950.063 2336.48 4276.35
-952.195 2336.65 4275.08
-951.796 2336.63 4275.28
-950.411 2336.41 4275.29
-952.731 2336.71 4273.87
-952.643 2336.67 4274.29
-952.983 2336.76 4273.42
-952.438 2336.66 4274.42
-952.199 2336.67 4274.44
-951.632 2338.87 4260.86
-950.996 2338.98 4261.16
-949.953 2339.26 4262.25
-949.704 2339.32 4262.81
-950.331 2339.17 4261.42
-949.8 2339.32 4261.67
-947.409 2336.67 4277.01
-947.422 2337.01 4278.82
-947.543 2336.65 4277.04
-947.243 2337.07 4278.95
-947.069 2337.13 4279.06
-947.687 2336.6 4276.85
-946.904 2337.19 4279.19
-944.436 2338.06 4287.24
-944.796 2338.12 4285.6
-944.988 2338.19 4284.7
-943.852 2338.1 4289.52
-945.599 2337.99 4283
-945.292 2338.11 4283.75
-945.887 2337.84 4282.5
-946.22 2337.59 4281.16
-946.001 2337.73 4281.74
-946.455 2337.52 4280.73
-946.362 2337.54 4280.89
-946.645 2337.37 4279.98
-946.747 2337.21 4279.09
-946.467 2337.47 4280.24
-947.849 2336.28 4275.14
-947.669 2336.34 4275.38
-947.439 2336.37 4275.46
-948.137 2336.25 4275.1
-948.489 2336.16 4274.72
-948.266 2336.19 4274.83
-939.676 2337.24 4304.76
-939.806 2337.38 4303.19
-940.213 2337.38 4302.2
-942.653 2337.57 4296.27
-943.168 2337.79 4293.87
-941.887 2337.59 4297.99
-941.028 2337.47 4300.09
-943.389 2338.04 4291.65
-938.876 2336.76 4311.34
-938.855 2336.95 4310.04
-939.351 2337.04 4307.73
-938.663 2336.43 4313.5
-938.505 2336.16 4314.95
-938.262 2336.13 4315.6
-938.273 2336.04 4316.01
-938.407 2335.93 4316.27
-938.336 2335.87 4316.87
-930.334 2337.42 4334.89
-931.447 2337 4333.82
-931.383 2336.99 4333.9
-931.359 2337.01 4333.88
-931.155 2337.02 4334.14
-931.265 2337.04 4333.83
-930.687 2337.21 4334.54
-930.548 2337.29 4334.58
-931.006 2337.08 4334.12
-930.87 2337.14 4334.14
-930.749 2337.18 4334.27
-930.397 2337.37 4334.63
-955.327 2337.72 4247.51
-955.463 2337.72 4249.69
-955.586 2337.66 4248.73
-954.806 2337.86 4248.29
-893.349 2371.94 4314.6
-894.339 2372.03 4313.16
-894.127 2371.88 4313.58
-894.34 2371.45 4313.65
-894.006 2371.22 4314.26
-895.13 2371.69 4312.38
-894.751 2369.63 4314.61
-894.316 2369.94 4314.89
-895.83 2363.73 4347.42
-895.982 2363.58 4347.82
-895.879 2363.23 4345.36
-895.807 2363.5 4346.12
-896.318 2363.01 4346.84
-896.22 2363.21 4347.21
-896.167 2363.11 4346.46
-896.033 2361.93 4341.2
-895.939 2361.84 4340
-896.124 2362.35 4343.44
-896.035 2361.55 4339.11
-896.23 2361.13 4338.05
-896.432 2360.75 4336.78
-903.773 2358.49 4316.78
-904.351 2357.72 4317.41
-903.776 2358.78 4316.34
-905.54 2356.98 4317.31
-906.173 2356.07 4318.13
-906.375 2355.45 4319
-906.657 2354.87 4319.78
-906.849 2354.32 4320.72
-906.758 2354.55 4320.31
-906.93 2354.06 4321.22
-907.715 2353.04 4323.28
-907.687 2353.15 4322.88
-907.897 2352.84 4323.68
-907.857 2352.79 4324.07
-907.238 2353.66 4321.87
-907.7 2353.24 4322.47
-909.625 2351.29 4327.91
-909.824 2351.17 4327.57
-909.562 2351.32 4328.33
-909.931 2351.14 4327.24
-904.643 2355.14 4329.19
-904.934 2354.93 4328.85
-904.073 2355.49 4329.19
-903.515 2355.84 4329.01
-905.44 2354.57 4329.02
-906.448 2353.71 4328.01
-906.051 2354.11 4329.06
-908.294 2352.32 4328.35
-909.255 2351.57 4328.57
-910.225 2350.97 4327.21
-908.97 2352.02 4324.94
-908.985 2351.95 4325.31
-910.406 2350.88 4327.05
-896.513 2366.18 4315.5
-896.949 2365.79 4315.43
-897.444 2365.07 4315.65
-897.384 2365.44 4315.33
-898.658 2364.17 4315.42
-900.696 2362.21 4315.45
-900.741 2362.54 4315.03
-902.161 2360.73 4315.5
-903.478 2359.3 4315.92
-902.754 2360.18 4315.55
-903.402 2359.71 4315.46
-898.317 2358.63 4334.92
-898.536 2358.44 4334.58
-898.735 2358.28 4333.87
-897.84 2359.09 4335.91
-897.629 2359.3 4335.84
-898.002 2358.91 4335.39
-897.226 2359.77 4336.28
-897.569 2359.44 4336.66
-897.365 2359.66 4336.9
-898.21 2358.76 4335.63
-896.89 2360.18 4336.62
-896.672 2360.5 4337.57
-900.225 2357.32 4332.11
-900.481 2357.17 4332.19
-900.657 2357.12 4331.48
-899.84 2357.5 4333.11
-900.1 2357.36 4332.73
-899.386 2357.8 4333.65
-898.966 2358.1 4334.19
-902.713 2356.24 4329.51
-901.633 2356.7 4330.49
-903.127 2356.05 4329.36
-895.372 2367.95 4315.22
-895.705 2367.39 4315.32
-896.141 2366.81 4315.33
-895.223 2369.34 4314.27
-895.727 2368.89 4314.04
-918.574 2338.92 4344.1
-918.82 2338.88 4344.17
-918.729 2338.9 4344.08
-918.658 2338.91 4343.97
-919.912 2338.95 4344.44
-919.651 2338.91 4344.21
-919.435 2338.89 4344.07
-919.312 2338.89 4344.15
-919.058 2338.88 4344.14
-918.938 2338.89 4344.03
-919.173 2338.89 4344.03
-920.851 2339.08 4344.74
-920.42 2339.01 4344.42
-920.641 2339.04 4344.53
-920.204 2338.98 4344.32
-920.083 2338.97 4344.4
-922.216 2339.49 4345.23
-921.663 2339.33 4344.91
-921.348 2339.23 4344.79
-921.05 2339.15 4344.66
-927.13 2340.05 4337.66
-926.941 2340.18 4337.33
-926.702 2340.35 4337.21
-926.45 2340.51 4337.24
-926.397 2340.54 4337.54
-929.1 2338.29 4336.01
-929.345 2338.1 4335.83
-929.525 2337.99 4335.64
-927.918 2339.35 4336.94
-928.007 2339.24 4336.58
-927.265 2339.92 4337.37
-926.189 2340.64 4337.74
-925.862 2340.78 4338.29
-925.925 2340.76 4338.06
-925.807 2340.79 4338.48
-925.757 2340.81 4338.64
-925.629 2340.9 4338.71
-925.481 2341 4338.8
-925.617 2340.88 4339.02
-925.423 2341.01 4338.98
-925.354 2341.01 4339.09
-925.347 2340.96 4339.26
-925.379 2340.89 4339.46
-925.342 2340.86 4339.6
-925.186 2340.93 4339.61
-925.083 2340.92 4339.89
-925.104 2340.94 4339.72
-925.051 2340.91 4340.08
-924.908 2340.93 4340.34
-924.912 2340.95 4340.13
-924.778 2340.98 4340.33
-924.579 2340.68 4341.63
-924.711 2340.76 4341.32
-924.621 2340.74 4341.42
-924.683 2340.98 4340.57
-924.669 2340.94 4340.73
-924.626 2340.91 4340.84
-924.707 2340.83 4341.09
-924.659 2341.02 4340.34
-929.949 2337.67 4335.21
-929.777 2337.77 4335.16
-929.583 2337.91 4335.22
-930.187 2337.5 4334.93
-930.029 2337.59 4334.92
-924.545 2340.5 4342.87
-924.468 2340.44 4343.11
-924.424 2340.54 4342.45
-924.432 2340.51 4342.66
-924.405 2340.59 4342.05
-924.484 2340.66 4341.72
-924.394 2340.64 4341.82
-924.359 2340.56 4342.21
-924.343 2340.29 4343.8
-924.202 2340.22 4344.12
-924.307 2340.36 4343.33
-924.234 2340.3 4343.56
-922.535 2339.6 4345.22
-923.437 2339.91 4345.04
-922.315 2339.56 4344.64
-922.319 2339.55 4344.83
-924.089 2340.16 4344.57
-923.181 2339.85 4344.66
-908.062 2349.61 4354.38
-907.389 2349.61 4354.93
-908.035 2349.62 4354.32
-908.95 2349.76 4353.08
-909.054 2349.8 4352.91
-908.704 2349.67 4353.47
-908.848 2349.76 4353.17
-908.743 2349.71 4353.35
-908.66 2349.69 4353.47
-908.617 2349.65 4353.61
-908.005 2349.64 4354.27
-909.544 2349.92 4351.93
-909.634 2349.93 4351.77
-909.42 2349.9 4352.15
-909.355 2349.87 4352.33
-909.244 2349.85 4352.54
-909.136 2349.83 4352.74
-915.418 2341.31 4344.58
-915.227 2341.6 4345
-916.341 2339.93 4344.31
-916.53 2339.74 4344.15
-916.443 2339.83 4344.2
-916.68 2339.58 4344.13
-916.696 2339.59 4343.99
-916.623 2339.66 4344.02
-916.08 2340.26 4344.47
-916.294 2339.99 4344.26
-916.238 2340.06 4344.28
-916.176 2340.14 4344.31
-916.078 2340.27 4344.37
-915.936 2340.5 4344.37
-915.665 2340.93 4344.37
-915.814 2340.7 4344.33
-915.475 2341.25 4344.43
-916.979 2339.35 4344.15
-917.054 2339.32 4344.1
-916.84 2339.47 4343.93
-916.912 2339.42 4343.97
-916.974 2339.38 4344.02
-916.763 2339.53 4343.99
-917.175 2339.24 4344.17
-917.138 2339.28 4344.08
-910.233 2350.35 4348.37
-910.322 2350.33 4347.96
-910.36 2350.35 4347.42
-909.881 2350.58 4349.51
-909.881 2350.49 4349.73
-909.943 2350.31 4349.98
-909.878 2350.67 4349.28
-909.846 2350.39 4350.11
-909.831 2350.33 4350.37
-909.81 2350.28 4350.6
-909.771 2350.23 4350.78
-909.723 2350.2 4350.94
-909.772 2350.07 4351.19
-909.789 2349.97 4351.43
-909.971 2350.61 4349
-909.979 2350.72 4348.58
-909.724 2349.94 4351.59
-910.619 2349.95 4345.95
-910.777 2349.68 4344.96
-910.848 2349.63 4342.65
-910.965 2349.5 4339
-911.062 2349.38 4338.18
-910.704 2349.99 4339.47
-910.44 2350.24 4346.87
-911.783 2348.07 4341.9
-912.253 2347.46 4343.81
-911.526 2348.44 4339.47
-911.185 2349.2 4337.66
-913.074 2346.14 4345.81
-913.423 2345.45 4346
-914.702 2342.58 4345.76
-914.086 2343.93 4345.96
-914.939 2342.13 4345.49
-912.634 2346.96 4344.77
-912.573 2347.07 4344.26
-912.889 2346.53 4345.11
-915.104 2341.82 4345.17
-918.477 2338.93 4344.01
-918.046 2338.99 4343.94
-917.951 2339.01 4344.02
-917.808 2339.04 4343.98
-917.897 2339.02 4343.92
-917.725 2339.05 4344.05
-917.658 2339.06 4344.03
-917.58 2339.08 4344.01
-917.571 2339.09 4343.87
-917.482 2339.1 4344
-917.385 2339.14 4344.1
-917.293 2339.19 4344.16
-917.237 2339.23 4344.06
-918.482 2338.94 4343.81
-918.394 2338.95 4343.84
-918.311 2338.96 4343.86
-918.308 2338.97 4343.69
-918.232 2338.98 4343.7
-918.152 2338.99 4343.74
-906.036 2350.23 4354.63
-905.92 2350.27 4354.71
-906.066 2350.16 4354.74
-905.856 2350.34 4354.66
-906.178 2350.09 4354.73
-905.518 2350.57 4354.77
-905.741 2350.39 4354.72
-905.623 2350.48 4354.74
-905.432 2350.7 4354.71
-905.367 2350.8 4354.65
-905.274 2350.9 4354.68
-905.169 2351.01 4354.71
-905.038 2351.18 4354.73
-904.916 2351.31 4354.8
-904.805 2351.47 4354.78
-904.673 2351.65 4354.77
-904.485 2352 4354.73
-902.255 2357.76 4349.04
-900.248 2359.5 4349.21
-899.257 2360.39 4349.21
-899.857 2359.82 4349.07
-901.932 2358.01 4348.73
-901.554 2358.28 4348.75
-901.167 2358.57 4348.81
-900.803 2358.92 4348.82
-900.43 2359.29 4348.9
-902.314 2357.74 4348.69
-902.193 2357.84 4348.46
-897.832 2361.68 4348.5
-896.902 2362.57 4348.21
-896.254 2363.21 4347.6
-902.59 2357.51 4349.33
-902.464 2357.61 4349.04
-903.346 2355.43 4352.78
-903.463 2355.58 4352.34
-903.541 2355.67 4352.02
-903.633 2355.75 4351.69
-903.803 2355.81 4351.32
-903.414 2354.91 4353.4
-903.379 2355.16 4353.1
-903.815 2353.63 4354.26
-903.387 2354.79 4353.65
-903.747 2356.09 4350.9
-903.714 2356.18 4350.76
-903.556 2356.35 4350.66
-903.774 2356.26 4350.49
-903.344 2356.55 4350.67
-903.903 2355.99 4350.85
-903.212 2356.75 4350.48
-903.993 2355.86 4350.95
-903.206 2356.92 4349.99
-903.049 2357.09 4349.88
-903.4 2356.65 4350.26
-903.349 2356.76 4350.08
-902.873 2357.27 4349.79
-902.768 2357.38 4349.5
-904.543 2351.94 4354.66
-904.302 2352.54 4354.49
-906.508 2349.96 4354.59
-906.379 2350.06 4354.54
-907.117 2349.64 4354.84
-907.251 2349.62 4354.89
-907.076 2349.68 4354.76
-907.023 2349.71 4354.68
-906.868 2349.75 4354.61
-906.748 2349.86 4354.52
-931.512 2338.7 4327.55
-931.427 2338.67 4328.3
-931.587 2338.3 4330.05
-931.435 2338.36 4330.06
-931.384 2338.51 4329.57
-931.293 2338.64 4329.03
-931.465 2338.23 4330.48
-931.403 2338.1 4330.94
-931.502 2338.03 4331.01
-931.49 2337.73 4331.77
-931.235 2337.36 4332.89
-931.299 2337.21 4333.27
-931.34 2337.11 4333.55
-933.146 2338.37 4322.15
-934.075 2338.01 4321.33
-931.705 2338.83 4323.8
-931.009 2338.97 4326.37
-931.253 2338.84 4326.87
-936.45 2336.83 4319.21
-935.27 2337.48 4319.68
-937.406 2336.32 4318.36
-934.364 2337.9 4320.49
-937.855 2336.1 4317.97
-938.042 2336 4317.68
-938.262 2335.9 4317.39
-948.849 2336.15 4274.39
-948.875 2336.18 4274.83
-948.991 2336.15 4274.19
-951.824 2336.63 4274.7
-950.502 2336.39 4274.95
-950.524 2336.38 4274.67
-949.098 2336.14 4273.98
-952.345 2336.68 4273.89
-952.293 2336.68 4273.59
-952.667 2336.75 4273.44
-952.887 2336.82 4272.89
-952.216 2336.68 4274.02
-951.625 2336.6 4274.32
-951.839 2336.63 4274.04
-951.132 2338.21 4267.08
-951.453 2338.06 4267.4
-949.456 2339.39 4263.18
-949.091 2339.51 4263.35
-949.189 2339.51 4262.94
-951.255 2338.9 4260.22
-951.749 2338.79 4259.72
-950.662 2339.05 4260.49
-949.525 2339.4 4262.11
-949.368 2339.44 4262.49
-950.001 2339.24 4260.78
-949.417 2339.44 4261.32
-947.277 2336.69 4277.02
-947.129 2336.45 4275.75
-946.988 2336.47 4275.8
-947.261 2336.4 4275.57
-947.148 2336.74 4277.13
-947.03 2336.81 4277.38
-946.889 2336.8 4277.22
-944.307 2338.2 4286.61
-944.58 2338.25 4285.42
-944.737 2338.32 4284.59
-945.056 2338.23 4283.81
-943.597 2338.26 4289.15
-945.358 2338.11 4283
-945.693 2337.92 4282.16
-945.933 2337.72 4281.21
-946.152 2337.6 4280.81
-946.295 2337.56 4280.39
-946.235 2337.59 4280.69
-946.565 2337.25 4279.05
-946.785 2336.87 4277.45
-946.391 2337.34 4279.28
-947.673 2336.16 4274.45
-947.502 2336.16 4274.41
-947.508 2336.24 4274.79
-947.371 2336.28 4274.95
-947.227 2336.32 4275.12
-947.771 2336.11 4274.21
-947.919 2336.07 4274
-948.317 2336.1 4274.09
-939.374 2337.28 4305.66
-939.522 2337.4 4303.95
-939.705 2337.55 4302.42
-940.045 2337.57 4301.61
-941.991 2337.83 4296.78
-942.629 2337.87 4294.88
-942.912 2338.04 4293.08
-941.36 2337.98 4297.73
-940.717 2337.7 4299.81
-943.036 2338.24 4291.44
-938.537 2336.9 4311.48
-938.431 2336.51 4313.61
-938.541 2337.11 4310.09
-938.92 2337.14 4308.51
-938.287 2336.22 4315.15
-938.044 2336.2 4315.75
-938.121 2336.12 4315.99
-938.056 2336.06 4316.4
-938.204 2335.97 4316.56
-938.069 2335.98 4317.23
-930.245 2337.45 4334.67
-931.172 2337.06 4333.86
-931.055 2337.11 4333.86
-931.231 2337.17 4333.45
-930.609 2337.24 4334.33
-930.455 2337.32 4334.38
-930.924 2337.17 4333.85
-930.779 2337.21 4333.95
-930.65 2337.24 4334.05
-930.292 2337.41 4334.42
-955.257 2337.79 4246.61
-953.924 2338.11 4247.86
-953.64 2338.16 4248.85
-954.566 2338 4250.41
-954.289 2338.01 4249.62
-953.16 2338.26 4250.41
-894.842 2371.52 4312.92
-894.646 2371.03 4313.59
-895.071 2371.08 4313.02
-895.726 2371.1 4312.15
-896.24 2362.84 4345.8
-896.386 2362.07 4343.76
-896.735 2362.59 4347.21
-897.27 2361.95 4347.08
-896.749 2362.4 4346.59
-896.877 2362.53 4347.72
-896.781 2362.23 4346.06
-896.296 2361.37 4340.27
-896.365 2361.5 4341.33
-896.395 2361.07 4339.36
-896.458 2360.83 4338.23
-904.566 2357.83 4316.97
-904.693 2358.04 4316.49
-904.072 2358.88 4315.9
-905.629 2357.27 4316.72
-906.27 2356.39 4317.44
-906.574 2355.6 4318.47
-906.79 2355.03 4319.31
-906.897 2354.65 4319.92
-907.126 2354.1 4320.86
-907.003 2354.39 4320.33
-907.327 2353.76 4321.45
-908.476 2352.59 4323.45
-908.357 2352.76 4323.04
-908.272 2352.91 4322.67
-909.097 2352 4324.65
-909.384 2351.86 4324.62
-907.687 2353.38 4322.04
-908.156 2353.11 4322.2
-910.125 2350.9 4328.24
-910.134 2350.87 4328.76
-910.455 2350.71 4328.02
-910.576 2350.58 4328.58
-909.954 2351.03 4329.07
-910.812 2350.45 4328.21
-905.183 2354.8 4329.63
-904.711 2355.12 4329.81
-905.21 2354.83 4330.18
-905.63 2354.48 4329.78
-903.675 2355.73 4329.5
-904.283 2355.36 4329.86
-906.171 2354.09 4329.92
-906.898 2353.47 4329.28
-908.232 2352.42 4329.09
-906.884 2353.58 4330.16
-909.109 2351.72 4329.22
-909.648 2351.27 4329.18
-911.091 2350.26 4328.33
-910.488 2350.88 4326.72
-910.704 2350.77 4326.56
-911.149 2350.28 4327.92
-896.68 2366.46 4315.06
-897.173 2366.02 4314.97
-898.564 2364.67 4314.96
-898.835 2364.28 4315.11
-898.668 2364.96 4314.57
-897.607 2365.75 4314.81
-900.871 2362.93 4314.46
-902.023 2361.24 4315.04
-902.628 2362.18 4313.26
-902.734 2360.73 4314.89
-903.26 2360.35 4314.79
-904.227 2359.19 4315.32
-904.103 2359.8 4314.63
-898.472 2358.54 4335.64
-898.747 2358.28 4334.83
-898.723 2358.35 4335.87
-897.764 2359.23 4336.6
-897.972 2359.07 4336.91
-898.074 2358.92 4336.28
-897.106 2359.97 4337.27
-897.499 2359.61 4337.96
-897.677 2359.41 4337.75
-897.353 2359.78 4338.24
-898.317 2358.72 4336.45
-896.993 2360.2 4338.36
-896.705 2360.63 4339.16
-900.389 2357.18 4333.06
-900.682 2357.02 4332.85
-900.859 2356.96 4332.07
-900.143 2357.3 4333.6
-899.665 2357.61 4334.15
-899.204 2357.92 4334.67
-898.97 2358.12 4335.31
-901.785 2356.58 4330.84
-902.807 2356.15 4330.08
-903.381 2355.89 4329.93
-896.079 2368.47 4313.98
-896.356 2368.08 4314.01
-896.642 2367.72 4313.99
-895.495 2370.38 4313.12
-896.388 2369.71 4312.6
-918.568 2338.92 4343.89
-918.822 2338.89 4343.96
-918.756 2338.9 4343.84
-918.673 2338.92 4343.76
-919.85 2338.93 4344.24
-919.739 2338.91 4344.02
-919.548 2338.9 4343.96
-919.416 2338.9 4343.84
-919.297 2338.89 4343.94
-919.039 2338.89 4343.9
-918.893 2338.9 4343.78
-919.165 2338.9 4343.81
-920.834 2339.1 4344.49
-920.299 2339 4344.18
-920.548 2339.05 4344.29
-919.958 2338.94 4344.16
-920.066 2338.95 4344.09
-921.972 2339.44 4344.79
-921.531 2339.3 4344.67
-921.243 2339.22 4344.57
-921.063 2339.17 4344.38
-927.097 2340.03 4337.01
-926.751 2340.31 4336.99
-926.5 2340.48 4336.93
-926.265 2340.6 4337.3
-929.247 2338.13 4335.37
-928.85 2338.48 4335.91
-929.414 2338.03 4335.34
-927.881 2339.33 4336.41
-927.808 2339.38 4336.2
-926.058 2340.7 4337.69
-925.687 2340.92 4338.07
-925.657 2340.92 4338.29
-925.77 2340.88 4337.81
-925.575 2340.96 4338.46
-925.447 2341.05 4338.57
-925.291 2341.16 4338.59
-925.272 2341.14 4338.76
-925.206 2341.14 4338.88
-925.167 2341.11 4339.03
-925.179 2341.05 4339.23
-925.17 2341 4339.4
-925.01 2341.1 4339.32
-924.977 2341.07 4339.46
-924.937 2341.05 4339.59
-924.945 2340.99 4339.78
-924.919 2340.98 4339.94
-924.787 2341 4340.13
-924.789 2341.03 4339.92
-924.657 2341.05 4340.13
-924.529 2340.73 4341.49
-924.64 2340.8 4341.2
-924.557 2340.78 4341.29
-924.572 2341.03 4340.41
-924.552 2340.99 4340.57
-924.505 2340.96 4340.7
-924.591 2340.87 4340.97
-924.519 2341.1 4340.14
-929.894 2337.66 4334.87
-929.721 2337.76 4334.79
-929.596 2337.87 4334.96
-929.406 2337.99 4334.94
-930.101 2337.52 4334.7
-929.982 2337.58 4334.55
-924.361 2340.46 4342.87
-924.292 2340.4 4343.1
-924.25 2340.54 4342.2
-924.27 2340.52 4342.42
-924.245 2340.48 4342.64
-924.305 2340.6 4341.99
-924.442 2340.71 4341.57
-924.36 2340.7 4341.63
-924.31 2340.66 4341.79
-924.138 2340.24 4343.8
-923.722 2340.09 4343.98
-923.839 2340.1 4344.33
-924.122 2340.36 4343.09
-924.115 2340.32 4343.33
-924.038 2340.26 4343.55
-921.677 2339.36 4344.53
-922.043 2339.49 4344.39
-922.843 2339.76 4344.34
-907.355 2349.64 4354.84
-908.918 2349.79 4353.03
-909.002 2349.83 4352.88
-908.578 2349.67 4353.59
-908.795 2349.79 4353.13
-908.677 2349.77 4353.28
-908.701 2349.74 4353.33
-908.623 2349.72 4353.44
-908.54 2349.69 4353.57
-907.98 2349.65 4354.22
-907.339 2349.67 4354.75
-909.467 2349.96 4351.92
-909.406 2349.93 4352.07
-909.592 2349.97 4351.72
-909.275 2349.93 4352.25
-909.267 2349.91 4352.35
-909.21 2349.88 4352.49
-909.102 2349.87 4352.68
-915.297 2341.52 4344.75
-916.38 2339.91 4344.15
-916.554 2339.74 4343.99
-916.466 2339.83 4344.05
-916.779 2339.54 4343.85
-916.707 2339.61 4343.85
-916.64 2339.68 4343.85
-916.32 2339.98 4344.11
-916.248 2340.07 4344.15
-916.157 2340.18 4344.22
-916.06 2340.31 4344.27
-915.93 2340.52 4344.25
-915.776 2340.77 4344.24
-915.607 2341.04 4344.3
-915.417 2341.39 4344.41
-915.279 2341.58 4344.7
-917.111 2339.32 4343.96
-917.038 2339.35 4343.96
-916.907 2339.45 4343.82
-916.85 2339.5 4343.76
-916.988 2339.4 4343.86
-917.194 2339.28 4343.94
-910.075 2350.73 4348.04
-910.159 2350.71 4347.69
-909.849 2351.5 4346.42
-909.777 2351.57 4346.85
-909.686 2350.83 4349.56
-909.688 2350.9 4349.38
-909.662 2350.78 4349.75
-909.77 2350.57 4349.9
-909.761 2351.01 4348.84
-909.666 2351.04 4349.11
-909.692 2350.56 4350.19
-909.571 2350.8 4350.02
-909.716 2350.44 4350.4
-909.685 2350.39 4350.6
-909.622 2350.38 4350.8
-909.64 2350.22 4351.12
-909.552 2350.39 4351
-909.694 2350.09 4351.28
-909.678 2350.03 4351.45
-909.903 2350.98 4348.22
-909.766 2351.14 4348.46
-909.6 2350 4351.62
-910.059 2351.18 4345.63
-910.014 2351.22 4346.08
-910.145 2351.02 4344.92
-910.193 2350.96 4344.09
-910.157 2351.05 4342.88
-910.273 2350.83 4340.93
-910.432 2350.59 4338.24
-910.633 2350.25 4337.1
-909.942 2351.49 4340.47
-912.188 2347.54 4343.27
-911.884 2347.91 4341.43
-911.621 2348.31 4338.99
-911.221 2349.2 4337.04
-910.8 2349.99 4336.38
-913.178 2346.06 4345.41
-913.678 2345.05 4345.75
-913.567 2345.34 4345.59
-914.076 2344.02 4345.83
-914.94 2342.14 4345.37
-914.844 2342.33 4345.42
-915.113 2341.85 4345.02
-912.884 2346.63 4344.64
-912.889 2346.67 4344.41
-912.561 2347.09 4343.74
-913.084 2346.29 4344.8
-917.989 2339.01 4343.85
-918.073 2338.99 4343.79
-917.852 2339.04 4343.81
-917.753 2339.05 4343.88
-917.946 2339.02 4343.74
-917.649 2339.07 4343.88
-917.518 2339.1 4343.81
-917.665 2339.07 4343.7
-917.601 2339.09 4343.68
-917.43 2339.12 4343.92
-917.329 2339.19 4343.99
-917.28 2339.24 4343.88
-918.592 2338.93 4343.69
-918.538 2338.94 4343.61
-918.462 2338.95 4343.66
-918.385 2338.96 4343.68
-918.382 2338.96 4343.51
-918.305 2338.97 4343.52
-918.223 2338.98 4343.55
-918.135 2338.99 4343.6
-906.004 2350.32 4354.5
-906.191 2350.17 4354.55
-906.132 2350.25 4354.46
-905.884 2350.38 4354.55
-905.535 2350.61 4354.67
-905.754 2350.44 4354.62
-905.653 2350.5 4354.64
-905.458 2350.73 4354.59
-905.352 2350.86 4354.55
-905.242 2350.98 4354.58
-905.117 2351.12 4354.61
-904.948 2351.33 4354.66
-904.801 2351.52 4354.67
-904.678 2351.72 4354.65
-900.079 2359.57 4348.76
-898.811 2360.68 4348.48
-899.464 2360.06 4348.61
-899.693 2359.82 4348.4
-901.911 2358.04 4348.38
-901.494 2358.33 4348.44
-901.124 2358.59 4348.5
-900.529 2359.14 4348.54
-900.826 2358.86 4348.5
-900.225 2359.39 4348.47
-902.522 2357.59 4348.75
-902.385 2357.71 4348.34
-902.22 2357.83 4348.09
-897.722 2361.66 4347.81
-902.699 2357.45 4349.12
-903.461 2355.23 4352.86
-903.515 2355.43 4352.49
-903.668 2355.52 4352.09
-903.752 2355.62 4351.76
-903.906 2355.67 4351.4
-904.083 2355.68 4351.1
-903.951 2353.52 4354.05
-903.535 2354.8 4353.32
-903.932 2353.46 4354.19
-904.011 2356.08 4350.5
-903.964 2356.17 4350.4
-903.689 2356.39 4350.35
-903.923 2356.29 4350.19
-904.144 2356.16 4350.09
-903.474 2356.53 4350.43
-904.174 2355.95 4350.51
-904.196 2355.82 4350.68
-904.255 2355.64 4350.88
-903.527 2356.74 4349.77
-903.315 2356.93 4349.68
-903.204 2357.06 4349.47
-903.74 2356.46 4350.11
-903.654 2356.58 4349.95
-903.009 2357.22 4349.44
-902.936 2357.29 4349.27
-904.707 2351.81 4354.51
-904.456 2352.26 4354.47
-906.6 2349.97 4354.46
-906.383 2350.14 4354.36
-906.556 2350.04 4354.37
-907.225 2349.66 4354.79
-907.185 2349.69 4354.71
-907.192 2349.73 4354.63
-907.06 2349.74 4354.59
-906.948 2349.77 4354.52
-907.014 2349.82 4354.36
-906.75 2349.91 4354.42
-931.226 2338.81 4327.72
-931.131 2338.77 4328.47
-931.327 2338.29 4330.49
-931.179 2338.35 4330.5
-931.21 2338.47 4330.01
-931.034 2338.63 4329.68
-931.015 2338.73 4329.21
-931.3 2338.15 4330.93
-931.26 2337.82 4331.76
-931.382 2337.78 4331.75
-931.176 2337.46 4332.69
-931.154 2337.31 4333.1
-932.093 2338.78 4322.58
-933.733 2338.16 4320.97
-930.909 2339.05 4325.47
-930.62 2339.09 4327.09
-930.878 2338.97 4327.44
-936.26 2336.93 4319
-937.089 2336.49 4318.17
-936.145 2337 4318.65
-934.957 2337.65 4319.38
-937.594 2336.24 4317.87
-937.848 2336.1 4317.53
-948.257 2336.06 4273.7
-948.417 2336.05 4273.53
-950.394 2336.34 4274.41
-949.217 2336.13 4273.82
-948.536 2336.03 4273.33
-951.865 2336.62 4273.54
-951.786 2336.61 4273.75
-951.817 2336.68 4273.08
-952.318 2336.75 4273.19
-952.63 2336.8 4272.98
-952.615 2336.88 4272.38
-950.362 2336.32 4273.92
-950.36 2336.32 4274.2
-950.378 2336.32 4273.65
-952.239 2337.59 4268.94
-952.14 2337.72 4268.45
-951.913 2337.84 4268.1
-951.61 2337.95 4267.76
-950.861 2338.29 4266.94
-950.957 2338.17 4267.27
-951.232 2338.08 4267.48
-948.903 2339.63 4262.69
-948.683 2339.71 4263.06
-949.092 2339.55 4262.18
-952.965 2338.54 4258.68
-951.03 2338.85 4258.34
-951.331 2338.77 4258.01
-952.002 2338.62 4257.29
-951.595 2338.69 4257.37
-950.613 2339 4259.36
-949.232 2339.51 4261.69
-950.356 2338.98 4258.3
-949.695 2339.31 4260.32
-949.1 2339.53 4260.63
-947.036 2336.35 4275.24
-946.922 2336.39 4275.44
-946.74 2336.41 4275.47
-946.871 2336.47 4275.77
-946.788 2336.49 4275.78
-946.606 2336.5 4275.76
-946.614 2336.47 4275.65
-943.971 2338.35 4286.72
-944.287 2338.37 4285.5
-944.461 2338.47 4284.49
-944.792 2338.37 4283.85
-945.072 2338.26 4283.06
-943.231 2338.46 4289.06
-945.375 2338.1 4282.41
-945.591 2337.93 4281.65
-945.74 2337.78 4280.87
-945.947 2337.68 4280.77
-946.038 2337.66 4280.64
-946.111 2337.61 4280.3
-946.222 2337.4 4279.32
-946.673 2336.89 4277.46
-946.546 2336.96 4277.63
-946.43 2336.92 4277.34
-947.578 2336.08 4274.13
-947.395 2336.1 4274.26
-947.32 2336.18 4274.52
-947.176 2336.22 4274.68
-947.043 2336.27 4274.87
-947.719 2336.03 4273.95
-947.955 2336.04 4273.77
-939.049 2337.38 4306.25
-939.238 2337.5 4304.23
-939.419 2337.58 4303
-939.502 2337.74 4301.9
-939.825 2337.79 4301.04
-941.517 2338.14 4296.67
-942.065 2338.09 4295.36
-942.461 2338.2 4293.6
-940.461 2337.92 4299.46
-940.757 2338.44 4297.13
-940.189 2338.17 4299.06
-942.532 2338.45 4291.79
-938.168 2337.05 4311.63
-938.217 2336.6 4313.69
-938.091 2336.28 4315.3
-938.215 2337.26 4310.26
-938.528 2337.32 4308.69
-937.912 2336.16 4316.25
-937.775 2336.36 4315.64
-937.771 2336.29 4316.01
-937.799 2336.14 4316.68
-938 2336.02 4316.85
-937.824 2336.1 4317.15
-930.131 2337.49 4334.45
-931.118 2337.19 4333.5
-931.005 2337.21 4333.55
-930.512 2337.29 4334.13
-930.356 2337.38 4334.19
-930.884 2337.28 4333.47
-930.816 2337.26 4333.67
-930.674 2337.3 4333.75
-930.545 2337.34 4333.85
-930.198 2337.48 4334.22
-954.102 2338.14 4246.58
-953.258 2338.31 4247.89
-952.418 2338.43 4249.8
-952.209 2338.45 4251.01
-953.517 2338.24 4252.06
-952.708 2338.36 4252.19
-952.067 2338.48 4252.49
-951.64 2338.58 4252.54
-896.041 2370.49 4312.33
-896.658 2361.77 4343.93
-896.63 2361.22 4341.7
-897.95 2361.22 4347.15
-897.387 2361.59 4346.34
-896.939 2361.46 4344.04
-896.602 2360.96 4340.35
-905.06 2358.21 4315.86
-905.739 2357.6 4316.07
-906.196 2356.93 4316.61
-906.759 2355.73 4318.02
-906.625 2356.33 4317.12
-907.02 2355.11 4318.88
-907.074 2354.76 4319.49
-907.225 2354.48 4319.9
-907.566 2353.72 4321.2
-907.33 2354.11 4320.56
-907.86 2353.42 4321.66
-909.691 2351.77 4324.3
-910.094 2351.38 4325.13
-909.446 2352.06 4323.64
-908.76 2352.7 4322.51
-911.395 2350.29 4327.04
-908.391 2353.11 4321.9
-909.118 2352.56 4322.42
-910.608 2350.51 4329.08
-910.452 2350.59 4329.67
-910.65 2350.43 4329.56
-911.013 2350.21 4329.04
-911.039 2350.13 4329.58
-910.159 2350.85 4329.78
-911.421 2349.86 4329.45
-905.75 2354.45 4330.36
-905.047 2354.93 4330.77
-905.858 2354.43 4331.17
-905.468 2354.68 4331.05
-906.246 2354.08 4330.4
-904.006 2355.53 4330.26
-904.65 2355.16 4330.71
-906.702 2353.78 4330.72
-907.797 2352.84 4330.01
-907.331 2353.3 4330.82
-908.789 2352.04 4330.01
-907.168 2353.55 4331.89
-909.261 2351.64 4329.92
-909.565 2351.36 4329.64
-909.957 2351.03 4330.02
-911.596 2349.79 4329.01
-911.778 2349.54 4329.7
-911.372 2350.12 4327.91
-911.682 2349.92 4327.98
-911.914 2349.51 4329.17
-897.027 2367.61 4313.66
-897.294 2367.05 4313.88
-897.749 2366.94 4313.53
-900.155 2363.95 4314.2
-898.777 2365.45 4314
-899.791 2365.08 4313.45
-898.499 2366.45 4313.33
-901.15 2363.5 4313.53
-902.366 2363.08 4312.56
-903.016 2361.59 4313.53
-903.127 2363.22 4311.49
-903.601 2363.06 4311.15
-903.707 2361.38 4313.06
-904.33 2360.97 4312.92
-905.308 2358.67 4314.91
-905.805 2359.4 4313.44
-905.296 2360.35 4312.74
-898.577 2358.52 4336.64
-898.969 2358.22 4336.82
-899.002 2358.15 4336.34
-897.873 2359.22 4337.68
-898.171 2358.91 4337.18
-898.05 2359.12 4338.33
-897.509 2359.76 4339.37
-897.68 2359.55 4339.16
-897.881 2359.32 4338.89
-897.249 2360.07 4339.57
-898.382 2358.75 4337.44
-896.966 2360.42 4339.79
-900.453 2357.09 4334.04
-900.679 2356.98 4333.71
-900.937 2356.85 4333.49
-901.081 2356.8 4332.73
-900.02 2357.36 4334.4
-899.58 2357.64 4334.75
-899.203 2357.98 4336.06
-899.364 2357.82 4335.38
-901.978 2356.45 4331.23
-901.94 2356.41 4332.03
-903.093 2355.99 4330.49
-903.747 2355.65 4330.69
-896.954 2369.18 4312.37
-897.438 2368.86 4312.06
-896.861 2369.88 4311.82
-918.78 2338.91 4343.64
-918.691 2338.92 4343.55
-919.839 2338.92 4343.88
-919.651 2338.9 4343.82
-919.526 2338.9 4343.72
-919.381 2338.91 4343.6
-919.286 2338.9 4343.71
-919.025 2338.9 4343.69
-918.907 2338.91 4343.56
-919.165 2338.91 4343.6
-920.774 2339.11 4344.3
-920.09 2338.98 4343.94
-920.369 2339.04 4344.03
-920.607 2339.09 4344.11
-921.393 2339.27 4344.43
-921.225 2339.24 4344.22
-920.913 2339.16 4344.17
-927.711 2339.44 4336.01
-926.933 2340.14 4336.6
-926.584 2340.42 4336.63
-926.353 2340.56 4336.85
-926.148 2340.67 4337.15
-925.971 2340.76 4337.48
-929.089 2338.23 4335.3
-929.274 2338.06 4334.72
-928.67 2338.61 4335.73
-925.44 2341.17 4337.52
-925.455 2341.12 4337.87
-925.443 2341.09 4338.17
-925.684 2341 4337.33
-925.325 2341.17 4338.32
-925.106 2341.35 4338.24
-925.092 2341.31 4338.48
-925.066 2341.28 4338.63
-925.036 2341.25 4338.78
-925.011 2341.21 4338.95
-925.007 2341.16 4339.13
-924.846 2341.27 4339
-924.847 2341.22 4339.19
-924.776 2341.2 4339.32
-924.766 2341.15 4339.51
-924.782 2341.07 4339.71
-924.659 2341.08 4339.91
-924.634 2341.14 4339.7
-924.546 2341.11 4339.94
-924.467 2340.77 4341.35
-924.525 2340.85 4341.06
-924.461 2340.83 4341.13
-924.463 2341.07 4340.3
-924.437 2341.03 4340.47
-924.379 2340.99 4340.61
-924.476 2340.92 4340.83
-924.419 2341.18 4339.87
-924.382 2341.15 4340.04
-929.832 2337.66 4334.55
-929.652 2337.8 4334.5
