-1065.65 2352.07 5292.4
-1066.54 2353.43 5292.35
-1066.63 2353.38 5292.5
-1065.6 2352.15 5292.29
-1067.48 2355.67 5291.65
-1067.53 2355.24 5292
-1066.48 2353.51 5292.22
-1067.06 2356.19 5290.98
-1064.47 2351.32 5291.98
-1064.22 2351.15 5291.97
-1076.44 2356.41 5303.05
-1077.4 2356.38 5302.67
-1078.53 2356.61 5301.69
-1080.21 2357.15 5299.87
-1080.83 2357.35 5299.1
-1082.26 2357.66 5297.99
-1075.32 2355.86 5304.72
-1075.79 2356.07 5304.06
-1076.37 2356.34 5303.24
-1074.94 2355.74 5305.29
-1075.4 2355.85 5304.72
-1074.09 2354.72 5306.8
-1074.54 2355.38 5305.98
-1074.81 2355.69 5305.51
-1073.45 2353.51 5308
-1073.7 2353.46 5307.94
-1073.54 2353.67 5307.85
-1073.61 2353.89 5307.66
-1074.06 2352.86 5308.12
-1073.94 2353.07 5308.07
-1073.88 2353.27 5307.98
-1073.88 2353.44 5307.87
-1074.18 2354.72 5306.79
-1082.98 2357.47 5298.08
-1082.68 2357.46 5298.26
-1082.73 2357.3 5298.48
-1082.74 2357.15 5298.72
-1082.8 2356.92 5299
-1082.19 2355.42 5301.69
-1081.22 2355.05 5302.96
-1082.8 2356.19 5300.08
-1080.84 2354.9 5303.41
-1122.82 2386.35 5233.36
-1121.92 2386.05 5232.97
-1122.4 2386.2 5233.19
-1122.99 2385.06 5234.79
-1123.05 2385.14 5234.79
-1122.81 2386.18 5233.63
-1122.96 2385.86 5234.04
-1122.93 2385.03 5234.76
-1122.76 2384.25 5235.31
-1122.62 2383.87 5235.57
-1122.52 2383.64 5235.78
-1122.45 2383.42 5236
-1120.43 2385.61 5232.35
-1119.64 2385.12 5232.5
-1120.73 2385.67 5232.53
-1121.3 2385.9 5232.63
-1121.54 2385.87 5232.88
-1120.81 2385.63 5232.68
-1082.62 2357.56 5298.06
-1082.08 2357.6 5298.27
-1091.43 2359.63 5270.79
-1093.16 2359.75 5269.2
-1093.06 2359.76 5269.13
-1090.72 2359.52 5271.88
-1088.61 2359.02 5274.07
-1089.35 2359.16 5273.39
-1090.38 2359.43 5272.21
-1090.78 2359.57 5271.58
-1088.18 2358.94 5274.39
-1087.93 2358.91 5274.71
-1087.67 2358.9 5275.06
-1087.43 2358.89 5275.38
-1087.21 2358.88 5275.71
-1087.01 2358.89 5276.05
-1086.5 2359.13 5277.4
-1086.7 2359.01 5276.71
-1086 2359.35 5278.7
-1085.25 2359.56 5280.35
-1084.59 2359.76 5281.41
-1085.04 2359.6 5280.56
-1084.24 2359.88 5281.58
-1083.98 2359.96 5281.76
-1083.66 2360.06 5281.83
-1083.38 2360.16 5281.87
-1083.24 2360.19 5281.95
-1084.41 2359.85 5281.23
-1082.94 2360.3 5281.87
-1082.88 2360.31 5281.94
-1082.61 2360.4 5281.89
-1082.57 2360.39 5281.97
-1082.25 2360.51 5281.88
-1082.16 2360.52 5281.93
-1082 2360.52 5282.03
-1082.13 2360.42 5282.27
-1079.8 2357.98 5285.88
-1080.02 2358.19 5285.63
-1079.57 2357.77 5286.28
-1079.19 2357.39 5286.95
-1080.33 2358.71 5285.04
-1079.18 2357.33 5287.13
-1078.79 2357.66 5286.87
-1078.82 2357.65 5286.78
-1078.73 2357.64 5286.86
-1078.37 2357.46 5287.68
-1078.24 2357.44 5287.93
-1078.13 2357.4 5288.23
-1078.53 2357.57 5287.19
-1078.44 2357.49 5287.46
-1078.66 2357.59 5287.03
-1078.55 2357.56 5287.13
-1078.01 2357.31 5288.78
-1077.97 2357.36 5288.59
-1077.63 2357.32 5289.54
-1077.37 2357.39 5290.06
-1077.82 2357.3 5289.1
-1076.61 2357.51 5290.91
-1075.58 2357.76 5290.89
-1075.18 2357.85 5290.92
-1074.86 2357.99 5290.64
-1074.51 2358.14 5290.36
-1081.91 2360.48 5282.22
-1081.83 2360.42 5282.41
-1081.75 2360.38 5282.57
-1080.01 2360.34 5283.06
-1080.03 2360.25 5283.22
-1080.78 2360.04 5283.49
-1080.92 2359.89 5283.68
-1080.23 2360.42 5282.92
-1080.79 2359.76 5283.85
-1080.54 2359.63 5284.03
-1080.64 2359.53 5284.16
-1081.31 2360.35 5282.87
-1080.6 2360.52 5282.63
-1080.42 2360.49 5282.76
-1081.47 2360.42 5282.58
-1080.56 2360.58 5282.44
-1097.09 2360.12 5264.6
-1097.67 2360.27 5264.05
-1099.78 2361.02 5261.21
-1098.47 2360.59 5262.84
-1096.51 2360.02 5265.03
-1095.84 2359.89 5265.6
-1095.29 2359.81 5266.33
-1094.24 2359.74 5267.62
-1094.7 2359.79 5266.82
-1103.75 2362.7 5255.68
-1103.51 2362.53 5255.92
-1104.64 2363.17 5255.31
-1104.42 2363 5255.51
-1104.81 2363.35 5255.08
-1104.22 2362.94 5255.5
-1103.97 2362.85 5255.49
-1103.22 2362.45 5255.93
-1105.19 2363.62 5254.98
-1102.42 2361.97 5256.87
-1102.7 2362.27 5256.07
-1102.55 2362.12 5256.43
-1102.92 2362.38 5255.92
-1101.23 2361.43 5259.14
-1102.22 2361.86 5257.39
-1102.33 2361.93 5257.04
-1102.11 2361.83 5257.56
-1101.92 2361.73 5257.99
-1101.58 2361.59 5258.5
-1106.57 2364.51 5254.43
-1107.72 2365.61 5253.77
-1109.1 2366.51 5253.08
-1108.7 2366.31 5253.18
-1108.23 2365.97 5253.44
-1109.45 2366.72 5252.84
-1115.05 2371.09 5247.81
-1114.85 2370.97 5247.8
-1114.76 2370.97 5247.72
-1114.59 2370.84 5247.73
-1115.65 2371.52 5247.68
-1115.31 2371.33 5247.69
-1115.82 2371.7 5247.57
-1116.05 2371.96 5247.43
-1116.19 2372.11 5247.38
-1113.72 2370.06 5248.09
-1113.44 2369.79 5248.26
-1113.13 2369.52 5248.47
-1112.86 2369.3 5248.65
-1112.03 2368.57 5249.66
-1112.6 2369.04 5248.87
-1112.39 2368.84 5249.2
-1112.72 2369.17 5248.76
-1111.61 2368.31 5250.05
-1110.78 2367.67 5251.28
-1109.8 2366.98 5252.42
-1109.4 2366.73 5252.69
-1114.17 2370.56 5247.76
-1114.4 2370.73 5247.72
-1113.91 2370.31 5247.89
-1120.23 2381.17 5243.36
-1120.28 2381.26 5243.14
-1120.54 2381.54 5242.61
-1120.34 2381.36 5242.9
-1120.76 2381.72 5242.31
-1120.17 2381.1 5243.58
-1120.13 2381.05 5243.83
-1120.24 2381.06 5243.97
-1120.2 2381 5244.21
-1121.21 2382.04 5241.61
-1121.94 2382.56 5239.88
-1121.89 2382.78 5238.06
-1121.86 2382.59 5238.64
-1120.91 2381.87 5242.02
-1120.18 2380.95 5244.45
-1120.17 2380.91 5244.67
-1120.3 2380.93 5244.84
-1120.27 2380.85 5245.03
-1120.29 2380.78 5245.16
-1120.17 2380.67 5245.2
-1120.13 2380.55 5245.24
-1120.06 2380.56 5245.22
-1120.03 2380.45 5245.27
-1120 2380.34 5245.35
-1119.96 2380.21 5245.46
-1119.94 2380.07 5245.61
-1119.99 2379.97 5245.78
-1121.96 2382.86 5237.25
-1121.87 2382.82 5237.45
-1121.75 2382.74 5237.68
-1122.13 2382.95 5236.71
-1122.04 2382.9 5236.91
-1121.93 2382.84 5237.11
-1122.29 2383.06 5236.36
-1122.24 2383.01 5236.56
-1122.4 2383.21 5236.25
-1119.88 2379.71 5245.86
-1119.83 2379.38 5245.98
-1119.76 2379 5246.1
-1119.62 2378.43 5246.26
-1119.66 2378.7 5246.16
-1118.35 2375.35 5246.7
-1118.89 2376.56 5246.57
-1118.15 2375.04 5246.69
-1117.97 2374.71 5246.75
-1117.79 2374.41 5246.79
-1119.37 2377.87 5246.31
-1117.57 2374.2 5246.72
-1117.39 2373.93 5246.75
-1117.14 2373.67 5246.7
-1116.75 2373.15 5246.74
-1116.89 2373.37 5246.69
-1116.6 2372.96 5246.78
-1116.52 2372.76 5246.93
-1116.36 2372.45 5247.13
-980.12 2342.63 5346.03
-979.948 2342.74 5345.31
-978.921 2343.05 5341.97
-979.469 2342.9 5343.77
-979.102 2342.93 5342.98
-980.098 2343 5344.16
-980.36 2342.97 5344.81
-979.236 2343.34 5339.78
-978.866 2343.63 5336.82
-978.328 2343.75 5334.63
-977.817 2343.79 5333.8
-978.906 2343.76 5335.02
-979.293 2343.59 5337.5
-977.649 2343.84 5332.25
-976.906 2343.97 5328.87
-976.644 2344.01 5328.4
-977.355 2343.95 5328.89
-977.89 2343.9 5329.88
-977.658 2343.92 5329.5
-976.302 2344.08 5327.87
-975.955 2344.31 5326.24
-976.288 2344.27 5326.23
-975.626 2344.52 5325.33
-972.373 2345.36 5325.05
-975.284 2344.73 5324.5
-974.149 2345.23 5323.2
-974.081 2345.07 5324.22
-995.705 2345.92 5357.89
-994.994 2345.84 5357.6
-996.256 2346.18 5357.73
-997.445 2346.68 5357.42
-997.291 2346.86 5357.02
-996.635 2346.86 5356.68
-996.953 2347.02 5356.53
-993.915 2345.61 5357.18
-994.428 2345.84 5357.17
-993.443 2345.45 5357.12
-993.283 2345.48 5356.87
-992.975 2345.3 5356.99
-992.04 2344.93 5356.73
-992.434 2345.11 5356.78
-991.516 2344.75 5356.43
-990.889 2344.5 5356.23
-989.952 2344.17 5355.7
-988.67 2343.67 5354.92
-986.276 2342.68 5353.47
-985.607 2342.54 5352.75
-983.745 2342.04 5351.35
-984.541 2342.35 5351.5
-983.98 2342.19 5351.26
-985.167 2342.5 5352.05
-983.181 2341.93 5351.01
-981.105 2342.05 5348.68
-980.863 2342.55 5347.19
-981.235 2342.14 5348.54
-981.991 2341.77 5350.15
-981.514 2342.1 5348.82
-981.385 2342.17 5348.56
-982.828 2341.92 5350.61
-982.291 2341.85 5350.2
-980.46 2342.66 5346.28
-1015.36 2342.12 5357.62
-1014.07 2342.72 5358.27
-1012.73 2343.23 5359.07
-1016.41 2342.46 5355.72
-1007.12 2345.63 5359.94
-1007.31 2346.27 5358.86
-1006.96 2346.28 5358.93
-1006.58 2346.06 5359.38
-1007.57 2346.17 5358.93
-1008.47 2346.1 5358.51
-1008.74 2345.97 5358.56
-1008.15 2346.12 5358.66
-1009.01 2345.95 5358.4
-1009.23 2345.86 5358.42
-1007.88 2346.17 5358.75
-1009.49 2345.89 5358.17
-1009.65 2345.43 5358.86
-1009.71 2345.91 5357.96
-1009.86 2345.37 5358.77
-1012.19 2343.42 5359.42
-1010.47 2345.02 5358.82
-1010.27 2345.22 5358.68
-1010.06 2345.32 5358.69
-1011.47 2343.97 5359.43
-1010.98 2344.6 5358.96
-1010.72 2344.88 5358.8
-1011.9 2343.88 5359.13
-1004.05 2346.63 5358.63
-999.47 2347.2 5357.08
-999.371 2347.07 5357.36
-999.133 2346.8 5357.82
-1000.35 2347.32 5356.95
-1001.75 2347.15 5357.51
-999.441 2347.37 5356.72
-1003.65 2347.04 5357.82
-1004.28 2346.91 5358.13
-1004.66 2346.85 5358.23
-1005.69 2346.48 5358.79
-1006.08 2346.4 5358.88
-1005.47 2346.67 5358.47
-1004.92 2346.71 5358.45
-1006.32 2346.21 5359.16
-998.666 2346.85 5357.58
-998.076 2346.91 5357.2
-997.749 2347.18 5356.54
-997.515 2347.41 5356.01
-1013.82 2345.54 5352.4
-1016.97 2343.18 5353.77
-1017.16 2342.85 5354.19
-1016.69 2343.45 5353.57
-1016.05 2343.78 5353.77
-1014.08 2345.17 5353.43
-1014.29 2344.95 5353.74
-1012.67 2345.95 5353.75
-1012.73 2345.8 5354.08
-1012.63 2346.1 5353.28
-1014.81 2345.13 5351.18
-1013.66 2345.86 5351.1
-1013.77 2345.75 5351.47
-1013.68 2345.74 5351.84
-1014.72 2345.22 5350.55
-1014.66 2345.29 5349.89
-1012.57 2346.25 5352.71
-1016.8 2344.17 5346.35
-1016.64 2344.28 5346.8
-1016.29 2344.45 5347.24
-1016.02 2344.6 5347.73
-1015.59 2344.84 5348.47
-1015.77 2344.7 5347.68
-1015.31 2344.98 5348.68
-1014.95 2345.18 5348.83
-1014.55 2345.39 5349.36
-1018.25 2343.34 5343.2
-1017.42 2343.67 5343.83
-1017.08 2343.87 5344.48
-1016.75 2344.1 5345.39
-1017.68 2343.44 5342.83
-1018.49 2342.55 5339.37
-1018.21 2342.72 5339.86
-1018.49 2342.77 5340.42
-1016.92 2340.5 5328.77
-1016.91 2340.64 5329.58
-1018.02 2342.38 5338.13
-1017.13 2342.24 5336.65
-1017.5 2341.3 5333.06
-1017.07 2340.88 5330.99
-1016.88 2340.77 5330.32
-1016.89 2340.37 5327.94
-1018.29 2343.05 5341.57
-1018.19 2343.25 5342.5
-1018.05 2342.99 5340.96
-1016.71 2340.09 5325.41
-1014.85 2340.2 5320.45
-1015.22 2340.16 5321.89
-1015.37 2340.15 5322.67
-1016.45 2340.03 5323.89
-1015.4 2340.16 5323.22
-1016.44 2340.25 5326.49
-1012.6 2340.56 5318.17
-1008.25 2341.37 5312.14
-1007.52 2341.37 5312.62
-1009.02 2341.1 5314.41
-1006.14 2341.39 5313.56
-1005.93 2341.44 5312.98
-1004.77 2341.57 5312.26
-1010.12 2340.96 5315.91
-1010.29 2340.93 5316.57
-1014.34 2341.43 5311.63
-1013.29 2341.49 5311.16
-1012.28 2341.47 5310.94
-1011.48 2341.53 5310.65
-1017.2 2341.96 5311.81
-1016.77 2341.84 5311.81
-1019.63 2342.04 5313.2
-1015.52 2341.66 5311.62
-1015.7 2341.79 5311.37
-1014.33 2341.57 5311.28
-1010.17 2341.51 5310.69
-1009.06 2341.58 5310.62
-1008.87 2341.71 5310.13
-1010.02 2341.61 5310.29
-1005.88 2341.56 5311.73
-1006.98 2341.67 5310.77
-1004.04 2341.7 5311.47
-1004.54 2341.71 5311.3
-1007.21 2341.76 5310.36
-1023.73 2343.13 5312.81
-1022.08 2342.58 5313.43
-1022.83 2343.01 5312.74
-1026.13 2343.88 5311.57
-1024.33 2343.5 5312.11
-1029.78 2344.93 5310.17
-1028.84 2344.67 5310.39
-1029.43 2345.07 5309.8
-1027.84 2344.46 5310.57
-958.757 2348.34 5317.73
-958.382 2348.47 5315.75
-957.729 2348.68 5314.81
-959.57 2348.06 5319.5
-960.552 2347.79 5319.94
-961.491 2347.53 5320.26
-962.762 2346.86 5322.51
-962.185 2347.34 5320.7
-957.074 2348.93 5314.22
-955.534 2349.49 5313.81
-957.084 2349.02 5313.58
-956.638 2349.15 5313.67
-964.59 2345.81 5326.83
-964.543 2345.87 5326.14
-964.391 2345.94 5325.39
-964.814 2345.77 5327.41
-964.306 2346.02 5324.62
-965.228 2345.73 5327.79
-965.465 2345.7 5328.41
-965.206 2345.69 5329.35
-963.768 2346.29 5323.84
-964.075 2346.16 5324.1
-969.052 2345.54 5328.16
-966.862 2345.63 5328.56
-967.539 2345.63 5327.64
-969.685 2345.5 5327.84
-970.226 2345.54 5326.66
-970.851 2345.49 5326.12
-935.882 2355.75 5312
-936.127 2355.5 5311.78
-936.027 2355.62 5311.93
-935.603 2355.97 5311.89
-935.466 2356.13 5312.02
-935.738 2355.83 5311.81
-938.052 2354.65 5312.99
-937.956 2354.67 5312.91
-937.849 2354.71 5312.83
-937.741 2354.75 5312.79
-938.16 2354.61 5313.05
-937.739 2354.71 5312.54
-937.601 2354.75 5312.36
-937.157 2354.95 5312.27
-937.363 2354.85 5312.23
-936.625 2355.18 5312.01
-936.943 2355.04 5312.11
-936.761 2355.1 5311.89
-936.522 2355.25 5312.01
-936.438 2355.31 5312
-936.35 2355.38 5312.02
-936.218 2355.43 5311.75
-935.256 2356.38 5311.97
-935.094 2356.62 5312.01
-935.387 2356.22 5311.84
-934.957 2356.82 5311.98
-939.367 2354.4 5313.26
-939.658 2354.37 5313.41
-939.092 2354.44 5313.12
-938.39 2354.54 5313.15
-938.505 2354.5 5312.95
-938.73 2354.46 5312.86
-938.268 2354.57 5313.09
-942.916 2354.33 5313.7
-942.559 2354.3 5313.95
-940.856 2354.3 5313.68
-942.991 2354.35 5313.27
-943.229 2354.36 5312.8
-944.156 2354.42 5310.71
-944.227 2354.5 5310.03
-944.447 2354.66 5308.49
-944.291 2354.64 5308.95
-944.127 2354.63 5309.42
-943.225 2354.4 5312.37
-943.455 2354.42 5311.87
-943.701 2354.45 5311.32
-943.924 2354.48 5310.79
-944.954 2355.01 5305.63
-944.468 2355.65 5303.97
-944.16 2355.58 5304.82
-944.134 2354.96 5307.55
-944.122 2355.1 5306.92
-944.061 2355.33 5306
-953.496 2350.39 5312.14
-949.345 2351.98 5309.2
-949.016 2352.21 5308.61
-948.857 2352.47 5307.74
-948.586 2352.89 5306.45
-948.041 2353.43 5305.23
-948.278 2353.41 5304.92
-950.019 2351.76 5309.44
-945.772 2354.59 5305.73
-946.703 2354.38 5304.38
-945.21 2355.18 5304.45
-951.491 2351.13 5311.02
-971.293 2345.53 5325.16
-972.095 2345.56 5324.01
-917.195 2376.42 5292.58
-917.767 2375.24 5292.06
-918.442 2373.6 5289.79
-919.076 2372.17 5287.96
-919.545 2371.12 5286.92
-919.414 2371.38 5286.91
-931.541 2361.9 5300.85
-931.32 2362.15 5299.94
-931.26 2362.28 5298.97
-930.32 2363.41 5298.17
-932.384 2361.26 5302.65
-929.331 2364.64 5297.14
-929.366 2364.65 5296.64
-928.638 2365.43 5296.52
-929.072 2364.97 5296.55
-920.361 2369.76 5285.46
-920.507 2369.57 5285.13
-920.295 2369.79 5284.69
-920.202 2369.9 5284.82
-921.117 2369.36 5287.74
-920.808 2369.41 5286.85
-920.677 2369.46 5285.58
-920.846 2369.34 5285.97
-923.27 2369.14 5292.85
-924.67 2368.53 5294.07
-923.688 2368.88 5292.81
-922.489 2369.03 5290.36
-922.128 2369.06 5289.48
-921.679 2369.15 5288.58
-921.161 2369.2 5287.38
-926.151 2367.59 5295.03
-925.803 2367.82 5294.57
-925.493 2368.07 5294.85
-925.177 2368.29 5294.76
-926.913 2367.03 5295.08
-926.564 2367.28 5294.79
-927.515 2366.56 5294.9
-927.817 2366.29 5295.24
-928.454 2365.63 5296.01
-928.303 2365.81 5295.42
-919.686 2370.69 5285.96
-919.868 2370.43 5285.91
-920.045 2370.08 5285.1
-919.942 2370.2 5285.06
-920.121 2370 5284.61
-933.926 2360.1 5307.38
-934.019 2360.01 5307.05
-933.819 2360.19 5306.63
-933.88 2360.06 5307.85
-933.866 2360.14 5306.22
-933.813 2360.18 5305.72
-933.717 2360.25 5305.16
-933.426 2360.48 5304.53
-934.832 2356.99 5311.83
-934.739 2357.11 5311.83
-934.646 2357.23 5311.69
-934.317 2357.75 5311.44
-934.453 2357.52 5311.47
-934.593 2357.31 5311.52
-934.134 2358.16 5311.39
-933.959 2358.62 5311.27
-934.076 2358.87 5310.29
-934.032 2359.27 5309.67
-934.12 2358.33 5311.02
-934.119 2359.23 5309.52
-934.243 2359.1 5309.37
-934.165 2359.38 5309.12
-934.129 2359.52 5308.7
-934.082 2359.67 5308.31
-934.027 2359.84 5307.93
-1078.19 2353.23 5305.6
-1077.74 2352.93 5305.85
-1077.49 2352.64 5306.19
-1078.11 2353.21 5305.59
-1077.25 2352.43 5306.51
-1076.98 2352.28 5306.75
-1080.19 2354.54 5303.98
-1078.85 2353.79 5305.01
-1079.58 2354.3 5304.39
-1079.94 2354.51 5304.1
-1080.53 2354.75 5303.66
-1076.73 2352.24 5306.8
-1076.61 2352.29 5306.76
-1076.35 2352.24 5306.82
-1075.98 2352.34 5307.15
-1075.84 2352.36 5307.45
-1075.07 2352.43 5307.91
-1074.23 2352.71 5308.1
-1029.72 2346.94 5306.62
-1029.37 2345.96 5308.21
-1029.94 2345.97 5308.34
-1057.94 2353.33 5290.37
-1057.89 2353.18 5290.55
-1058.13 2352.99 5290.66
-1058.05 2353.47 5290.11
-1058.3 2353.61 5289.86
-1058.11 2352.82 5290.85
-1058.54 2354 5289.37
-1058.58 2353.78 5289.69
-1058.54 2353.95 5289.49
-1058.74 2354.3 5289.08
-1058.2 2352.52 5291.09
-1059.7 2354.91 5288.59
-1059.41 2354.73 5288.79
-1059.02 2354.42 5289.03
-1059.36 2354.64 5288.92
-1059.77 2354.95 5288.66
-1058.37 2352.07 5291.46
-1060.09 2350.24 5292.9
-1060.07 2350.28 5292.76
-1059.05 2351.08 5292.26
-1060.23 2350.28 5292.44
-1060.11 2350.34 5292.45
-1059.16 2351.06 5292.16
-1061.78 2350.04 5291.96
-1061.63 2350.04 5291.93
-1061.53 2350.04 5291.93
-1061.84 2350.11 5291.89
-1061.89 2350.33 5291.78
-1062.02 2350.55 5291.64
-1061.33 2350.01 5291.87
-1061.4 2350.09 5291.82
-1061.19 2350.03 5291.89
-1062.71 2350.5 5291.76
-1062.56 2350.37 5291.8
-1062.84 2350.51 5291.76
-1062.42 2350.34 5291.8
-1061.1 2350.02 5292
-1060.9 2350.11 5292.06
-1060.7 2350.16 5292.13
-1060.8 2350.15 5291.97
-1063.91 2351.05 5291.84
-1063.63 2350.95 5291.75
-1063.41 2350.86 5291.73
-1063.22 2350.71 5291.75
-1063.02 2350.61 5291.75
-1060.46 2350.28 5292.12
-1060.31 2350.25 5292.5
-1065.12 2351.6 5292.2
-1064.86 2351.45 5292.14
-1065.07 2352 5291.96
-1060.26 2354.98 5288.74
-1060.63 2355.06 5288.76
-1065.23 2351.82 5292.12
-1060.9 2355.11 5288.86
-1067.1 2355.87 5291.26
-1067.17 2355.37 5291.61
-1067.17 2354.85 5291.95
-1066.39 2353.49 5292.13
-1065.42 2352.18 5292.06
-1066.73 2356.03 5290.92
-1066.28 2355.62 5290.89
-1064.57 2351.8 5291.72
-1064.15 2351.21 5291.84
-1064.63 2351.56 5291.88
-1077.46 2356.36 5302.71
-1078.8 2356.62 5301.61
-1080.55 2357.22 5299.65
-1075.92 2356.08 5304.02
-1076.5 2356.33 5303.24
-1077.51 2356.34 5302.75
-1075.32 2355.79 5304.97
-1075.53 2355.86 5304.67
-1074.6 2355.4 5306.01
-1074.48 2355.22 5306.18
-1074.8 2355.66 5305.63
-1075.16 2355.75 5305.21
-1073.7 2353.59 5307.85
-1073.79 2353.93 5307.57
-1073.8 2353.74 5307.7
-1074.32 2354.82 5306.66
-1074.15 2352.93 5308.02
-1074.07 2353.14 5307.96
-1074.02 2353.34 5307.87
-1074.01 2353.52 5307.74
-1073.89 2353.6 5307.76
-1082.23 2357.51 5298.38
-1082.26 2357.38 5298.59
-1082.32 2357.25 5298.79
-1082.28 2357.14 5299.01
-1082.49 2356.93 5299.21
-1081.89 2355.39 5301.87
-1081.01 2355.08 5303.03
-1082.6 2356.15 5300.25
-1080.67 2354.93 5303.42
-1121.86 2385.86 5233.21
-1122.24 2386.02 5233.34
-1122.73 2384.25 5235.3
-1122.87 2385.7 5234.12
-1122.58 2386.02 5233.65
-1122.76 2385.75 5234.02
-1122.88 2385 5234.75
-1122.64 2384.13 5235.36
-1122.58 2383.89 5235.53
-1122.42 2383.46 5235.94
-1122.49 2383.7 5235.7
-1122.35 2383.26 5236.15
-1118.56 2384.44 5233.03
-1119.88 2385.19 5232.6
-1120.06 2385.31 5232.53
-1119.11 2384.68 5232.99
-1120.24 2385.3 5232.74
-1121.04 2385.64 5232.82
-1121.39 2385.68 5233.03
-1120.44 2385.31 5232.91
-1091.5 2359.69 5270.56
-1093.21 2359.77 5268.8
-1088.68 2359.04 5273.9
-1089.33 2359.16 5273.32
-1090.04 2359.35 5272.55
-1090.63 2359.55 5271.65
-1091.22 2359.69 5270.74
-1088.08 2358.94 5274.35
-1087.85 2358.91 5274.67
-1087.64 2358.9 5274.96
-1087.39 2358.89 5275.28
-1087.19 2358.88 5275.61
-1086.92 2358.9 5276.04
-1086.38 2359.15 5277.44
-1085.99 2359.34 5278.52
-1086.62 2359.02 5276.67
-1085.85 2359.37 5278.64
-1084.79 2359.68 5280.73
-1085.74 2359.39 5278.69
-1084 2359.97 5281.55
-1084.18 2359.94 5281.17
-1083.76 2360.04 5281.7
-1083.52 2360.12 5281.73
-1083.2 2360.24 5281.66
-1083.16 2360.23 5281.88
-1084.38 2359.87 5280.85
-1082.58 2360.43 5281.71
-1082.88 2360.36 5281.54
-1082.59 2360.48 5281.34
-1082.31 2360.52 5281.67
-1082.23 2360.53 5281.76
-1081.98 2360.62 5281.69
-1081.96 2360.61 5281.79
-1081.81 2360.62 5281.83
-1081.77 2360.58 5281.97
-1079.48 2357.83 5286.11
-1080.07 2358.81 5284.94
-1079.71 2358.18 5285.64
-1080.19 2358.76 5284.99
-1079.31 2357.72 5286.43
-1079.02 2357.69 5286.6
-1078.78 2357.8 5286.52
-1078.6 2357.65 5286.91
-1078.57 2357.88 5286.46
-1078.47 2357.86 5286.58
-1078.24 2357.51 5287.58
-1078.1 2357.48 5287.9
-1078 2357.44 5288.19
-1077.93 2357.41 5288.45
-1078.35 2357.55 5287.29
-1078.43 2357.68 5286.93
-1078.29 2357.66 5287.06
-1077.8 2357.34 5288.91
-1077.75 2357.39 5288.76
-1077.55 2357.36 5289.39
-1077.29 2357.41 5289.97
-1076.49 2357.55 5290.71
-1075.58 2357.82 5290.54
-1075.21 2357.92 5290.45
-1075.07 2358.03 5290.11
-1074.8 2358.12 5290.03
-1081.68 2360.51 5282.23
-1081.73 2360.54 5282.1
-1081.58 2360.47 5282.39
-1078.14 2360.11 5283.59
-1077.95 2360.15 5283.51
-1078.79 2360.08 5283.57
-1080.32 2359.92 5283.68
-1079.32 2360.05 5283.57
-1079.08 2360.55 5282.68
-1080.35 2359.76 5283.86
-1080.1 2359.58 5284.11
-1079.52 2360.7 5282.34
-1080.77 2360.67 5282.1
-1080.69 2360.62 5282.29
-1079.8 2360.79 5282
-1079.46 2360.78 5282.11
-1097.17 2360.17 5264.32
-1097.73 2360.31 5263.81
-1100.34 2361.2 5260.42
-1098.57 2360.67 5262.45
-1096.23 2359.99 5265.08
-1096.78 2360.12 5264.56
-1095.79 2359.92 5265.35
-1095.3 2359.83 5266.04
-1094.24 2359.77 5267.31
-1094.69 2359.82 5266.52
-1103.49 2362.58 5255.78
-1103.71 2362.74 5255.55
-1104.5 2363.09 5255.39
-1104.66 2363.25 5255.16
-1104.77 2363.39 5254.95
-1105.06 2363.58 5254.88
-1104.06 2362.91 5255.45
-1104.27 2362.99 5255.45
-1103.86 2362.85 5255.41
-1103.17 2362.49 5255.8
-1106.47 2364.49 5254.37
-1102.41 2362.01 5256.71
-1102.68 2362.3 5255.97
-1102.89 2362.41 5255.81
-1102.53 2362.17 5256.27
-1101.2 2361.46 5259
-1102.24 2361.91 5257.17
-1102.32 2361.98 5256.86
-1102.03 2361.83 5257.57
-1101.83 2361.72 5258.03
-1102.16 2361.88 5257.3
-1101.37 2361.55 5258.63
-1107.91 2365.78 5253.54
-1107.49 2365.48 5253.79
-1109.03 2366.51 5252.95
-1108.56 2366.27 5253.06
-1108.31 2366.07 5253.27
-1114.99 2371.13 5247.71
-1114.89 2371.13 5247.63
-1114.7 2371 5247.61
-1114.51 2370.88 5247.61
-1115.52 2371.52 5247.58
-1115.18 2371.32 5247.6
-1115.8 2371.79 5247.44
-1116.05 2372.09 5247.28
-1116.22 2372.29 5247.2
-1113.66 2370.07 5248.02
-1113.4 2369.82 5248.18
-1113.17 2369.59 5248.37
-1112.87 2369.36 5248.55
-1112.01 2368.6 5249.54
-1112.41 2368.88 5249.06
-1112.71 2369.21 5248.67
-1112.58 2369.08 5248.79
-1111.59 2368.35 5249.91
-1110.7 2367.69 5251.19
-1110.75 2367.69 5251.23
-1109.77 2367.05 5252.27
-1109.44 2366.83 5252.49
-1109.11 2366.61 5252.67
-1108.95 2366.49 5252.86
-1114.09 2370.55 5247.69
-1114.31 2370.76 5247.59
-1113.85 2370.33 5247.81
-1120.15 2381.19 5243.25
-1120.08 2381.11 5243.42
-1120.13 2381.23 5243.09
-1120.63 2381.68 5242.3
-1120.39 2381.5 5242.6
-1120.18 2381.33 5242.87
-1120.03 2381.04 5243.69
-1119.97 2380.97 5243.91
-1120.08 2380.99 5244.07
-1120.05 2380.93 5244.31
-1121.01 2381.96 5241.55
-1121.78 2382.39 5239.7
-1121.64 2382.32 5239.61
-1121.73 2382.63 5238.18
-1121.65 2382.5 5238.62
-1120.74 2381.81 5241.96
-1120.03 2380.88 5244.55
-1120.01 2380.82 5244.76
-1120.16 2380.86 5244.87
-1120.1 2380.77 5244.96
-1120.14 2380.73 5245.1
-1120.04 2380.61 5245.17
-1119.95 2380.44 5245.25
-1119.93 2380.5 5245.21
-1119.89 2380.33 5245.28
-1119.86 2380.24 5245.33
-1119.83 2380.12 5245.44
-1119.8 2379.99 5245.57
-1119.86 2379.91 5245.72
-1121.84 2382.79 5237.3
-1121.77 2382.75 5237.48
-1121.6 2382.62 5237.98
-1121.64 2382.68 5237.64
-1122.17 2382.96 5236.49
-1122.06 2382.9 5236.64
-1122.01 2382.87 5236.81
-1121.92 2382.83 5236.99
-1121.8 2382.76 5237.18
-1122.2 2383.07 5236.29
-1119.73 2379.71 5245.73
-1119.73 2379.44 5245.86
-1119.7 2379.14 5245.98
-1119.6 2378.83 5246.04
-1119.54 2378.48 5246.17
-1118.24 2375.32 5246.58
-1118.85 2376.64 5246.47
-1117.98 2374.85 5246.63
-1117.76 2374.5 5246.67
-1119.29 2377.88 5246.22
-1117.51 2374.23 5246.61
-1117.3 2373.92 5246.65
-1117.06 2373.71 5246.56
-1116.91 2373.47 5246.6
-1116.69 2373.19 5246.64
-1116.53 2372.94 5246.74
-1116.4 2372.65 5246.94
-980.354 2342.85 5345.34
-979.553 2343.23 5341.22
-979.471 2343.34 5340.03
-979.844 2343.07 5343.11
-979.602 2343.09 5342.39
-980.279 2343.12 5343.62
-980.689 2343.15 5344.32
-980.85 2343.09 5344.91
-979.648 2343.61 5337.81
-979.435 2343.77 5335.61
-978.979 2343.86 5332.35
-978.445 2343.85 5332.03
-978.312 2343.89 5330.3
-979.675 2343.87 5333.71
-979.893 2343.8 5335.95
-977.105 2344.13 5326.76
-977.278 2344.03 5327.78
-976.652 2344.17 5326.65
-977.94 2344.02 5328.05
-977.769 2344.09 5327.19
-978.352 2343.99 5328.54
-976.594 2344.58 5324.28
-976.406 2344.71 5323.67
-976.893 2344.49 5324.54
-976.02 2344.9 5322.83
-974.643 2345.31 5322
-972.639 2345.71 5322.23
-995.563 2346.12 5357.41
-994.904 2346.1 5357.03
-996.273 2346.83 5356.54
-995.854 2346.75 5356.43
-996.99 2347.48 5355.65
-996.179 2347.49 5355.23
-996.444 2347.58 5355.19
-993.588 2345.62 5356.85
-994.002 2345.85 5356.76
-994.414 2346.11 5356.62
-993.385 2345.7 5356.48
-993.056 2345.44 5356.7
-992.677 2345.27 5356.68
-991.885 2344.95 5356.39
-992.22 2345.13 5356.37
-991.32 2344.79 5355.99
-990.992 2344.62 5356.02
-990.217 2344.33 5355.6
-987.868 2343.39 5354.14
-989.15 2343.93 5354.87
-986.037 2342.67 5353.05
-985.662 2342.64 5352.54
-983.452 2342.06 5350.95
-984.49 2342.47 5351.17
-984.092 2342.32 5351.08
-985.102 2342.57 5351.74
-983.561 2342.22 5350.68
-981.218 2342.69 5347.06
-980.798 2342.73 5346.39
-981.67 2342.11 5348.91
-981.567 2342.77 5347.16
-982.599 2341.99 5350.16
-983.112 2342.07 5350.56
-981.852 2342.16 5348.96
-980.681 2342.9 5345.51
-1014.05 2342.83 5358.12
-1015.85 2342.63 5356.15
-1016.19 2342.57 5355.8
-1012.5 2343.49 5358.98
-1016.94 2342.97 5354.27
-1007.75 2346.37 5358.41
-1007.48 2346.47 5358.32
-1006.99 2346.46 5358.57
-1006.57 2346.29 5358.99
-1008.78 2346.16 5358.17
-1008.68 2346.27 5357.98
-1008.36 2346.21 5358.3
-1009.07 2346.14 5358
-1008.03 2346.34 5358.26
-1009.33 2346.06 5357.96
-1009.7 2346.17 5357.44
-1009.56 2346.28 5357.3
-1010.03 2346 5357.53
-1009.94 2346.15 5357.24
-1010.59 2345.72 5357.63
-1010.3 2345.87 5357.57
-1011.58 2344.49 5358.55
-1011.21 2344.61 5358.72
-1011.01 2345.53 5357.47
-1011.33 2345.24 5357.58
-1011.96 2344.36 5358.36
-1012.27 2343.79 5358.86
-998.743 2347.32 5356.63
-998.777 2347.13 5357.05
-1000.77 2347.45 5356.75
-999.686 2347.5 5356.46
-1002.68 2347.23 5357.37
-998.771 2347.59 5356.06
-998.423 2347.53 5356.04
-1004.41 2347.11 5357.4
-1004.85 2347.04 5357.61
-1005.18 2347 5357.73
-1005.38 2346.89 5358.02
-1006.05 2346.65 5358.39
-1006.31 2346.47 5358.72
-1005.92 2346.81 5357.97
-998.099 2347.21 5356.6
-997.757 2347.56 5355.77
-997.399 2347.73 5355.3
-997.03 2347.68 5355.27
-1016.63 2343.26 5354.05
-1016.03 2343.62 5354.16
-1014.15 2344.92 5354.08
-1014.21 2344.76 5354.39
-1012.82 2345.63 5354.39
-1012.37 2346.16 5353.68
-1012.37 2346 5354.16
-1012.39 2345.82 5354.63
-1012.26 2346.35 5353.07
-1013.58 2345.94 5350.62
-1012.71 2346.42 5351.56
-1012.48 2346.65 5350.84
-1012.48 2346.44 5352.08
-1013.67 2345.94 5349.67
-1013.53 2346 5350.12
-1013.59 2346.01 5349.19
-1012.16 2346.52 5352.45
-1016.51 2344.27 5346.1
-1016.27 2344.4 5346.48
-1016.08 2344.5 5346.78
-1015.92 2344.59 5347.08
-1015.47 2344.85 5347.86
-1015.79 2344.63 5346.79
-1015.55 2344.76 5347.11
-1015.08 2345.08 5348.18
-1014.46 2345.49 5348.68
-1013.44 2346.13 5348.78
-1016.9 2343.72 5343.18
-1017.23 2343.56 5342.76
-1016.63 2343.94 5344.12
-1016.36 2344.19 5345.11
-1017.37 2343.38 5342.1
-1017.07 2343.5 5342.28
-1017.82 2343.23 5341.92
-1017.89 2342.9 5340.36
-1017.8 2342.58 5338.79
-1016.17 2340.55 5328.33
-1016.25 2340.41 5327.52
-1016.18 2340.7 5329.21
-1016.83 2342.45 5337.27
-1017.13 2341.53 5333.7
-1016.33 2341.15 5331.37
-1016.08 2340.92 5330.22
-1017.54 2343.17 5341.25
-1017.6 2342.86 5339.86
-1016.28 2340.09 5324.66
-1013.67 2340.39 5319.82
-1014.25 2340.29 5321.01
-1014.39 2340.29 5321.98
-1015.35 2340.19 5323.89
-1014.27 2340.33 5322.79
-1016 2340.19 5325.38
-1011.42 2340.74 5317.48
-1005.03 2341.57 5312.02
-1007.89 2341.19 5314.75
-1005.17 2341.46 5313.61
-1003.66 2341.63 5312.56
-1003.54 2341.66 5312.23
-1002.8 2341.74 5311.98
-1002.58 2341.8 5311.66
-1008.2 2341.15 5315.62
-1010.18 2340.94 5316.92
-1008.47 2341.12 5316.39
-1013.63 2341.58 5311.03
-1012.48 2341.67 5310.45
-1011.97 2341.65 5310.4
-1011.09 2341.64 5310.25
-1010.18 2341.69 5310.04
-1015.83 2341.98 5311.01
-1017.11 2342.21 5311.2
-1016.18 2342.17 5310.78
-1018.98 2342.2 5312.44
-1021.37 2342.58 5313.09
-1014.27 2341.69 5310.95
-1014.53 2341.81 5310.77
-1013.3 2341.72 5310.58
-1008.72 2341.84 5309.69
-1007.29 2341.86 5309.92
-1007.07 2341.97 5309.56
-1008.42 2342.05 5309.12
-1009.09 2341.85 5309.56
-1002.96 2341.79 5311.44
-1004.04 2341.83 5310.8
-1002.37 2342 5310.51
-1002.05 2341.95 5310.9
-1004.28 2341.88 5310.45
-1023.36 2343.32 5312.24
-1021.99 2342.9 5312.64
-1022.39 2343.28 5311.99
-1026.07 2344.05 5311.16
-1024.43 2343.82 5311.42
-1023.71 2343.6 5311.72
-1028.28 2344.83 5309.9
-1028.9 2345.11 5309.56
-1027.58 2344.65 5310.09
-1026.14 2344.25 5310.74
-958.992 2348.31 5317.05
-958.749 2348.4 5315.4
-958.279 2348.53 5314.74
-957.533 2348.76 5314.43
-959.506 2348.18 5317.56
-960.384 2347.91 5319.08
-961.366 2347.67 5319.34
-962.059 2347.55 5319.37
-963.038 2346.83 5322.26
-962.58 2347.36 5320.14
-955.463 2349.6 5313.15
-957.089 2349.13 5312.86
-957.454 2348.85 5313.91
-955.737 2349.58 5312.76
-964.866 2345.78 5326.73
-964.714 2345.91 5325.25
-964.91 2345.83 5325.9
-964.659 2345.98 5324.45
-965.276 2345.74 5327.09
-964.481 2346.14 5323.8
-965.828 2345.68 5327.86
-965.768 2345.71 5327.22
-963.323 2346.84 5321.92
-963.982 2346.36 5323.3
-968.903 2345.59 5327.24
-967.263 2345.67 5326.86
-969.712 2345.58 5326.65
-970.205 2345.58 5325.8
-935.852 2355.69 5311.64
-936.086 2355.48 5311.48
-935.987 2355.54 5311.43
-935.994 2355.58 5311.65
-935.685 2355.85 5311.58
-935.52 2356.05 5311.75
-938.176 2354.56 5312.76
-938.068 2354.6 5312.69
-937.964 2354.63 5312.62
-937.856 2354.67 5312.55
-938.29 2354.52 5312.79
-937.822 2354.65 5312.32
-937.691 2354.68 5312.07
-937.49 2354.77 5312.07
-937.165 2354.92 5311.98
-937.316 2354.83 5311.84
-936.481 2355.22 5311.72
-936.577 2355.16 5311.63
-936.951 2355 5311.81
-936.745 2355.07 5311.57
-936.378 2355.29 5311.65
-936.309 2355.35 5311.72
-936.175 2355.4 5311.46
-935.186 2356.47 5311.81
-935.318 2356.29 5311.65
-935.058 2356.65 5311.73
-935.459 2356.11 5311.55
-934.929 2356.84 5311.74
-939.7 2354.34 5313.16
-939.404 2354.39 5313.02
-939.062 2354.41 5312.81
-938.381 2354.51 5312.89
-938.572 2354.45 5312.61
-938.469 2354.47 5312.68
-938.723 2354.42 5312.52
-942.479 2354.32 5313.42
-942.111 2354.28 5313.68
-940.859 2354.27 5313.47
-940.058 2354.3 5313.11
-942.925 2354.38 5312.82
-942.52 2354.35 5313
-944.033 2354.56 5310.1
-944.136 2354.83 5308.19
-944.036 2354.77 5308.77
-943.898 2354.73 5309.36
-943.221 2354.49 5311.77
-942.968 2354.44 5312.29
-943.45 2354.51 5311.32
-943.699 2354.55 5310.77
-943.831 2354.63 5310.13
-943.796 2356.4 5301.95
-945.281 2355.99 5300.78
-944.901 2356.34 5299.86
-943.558 2356.12 5303.63
-943.716 2355.16 5307.35
-943.702 2355.33 5306.61
-943.379 2355.95 5304.58
-953.5 2350.48 5311.82
-949.464 2351.97 5309.04
-949.177 2352.28 5308.07
-949.031 2352.52 5307.27
-948.765 2352.92 5306.02
-948.498 2353.48 5304.4
-950.069 2351.78 5309.23
-951.592 2351.19 5310.63
-917.719 2375.31 5291.07
-918.503 2373.35 5288.72
-919.054 2372.13 5287.29
-919.338 2371.45 5286.47
-919.547 2370.92 5285.82
-931.769 2361.64 5299.91
-931.97 2361.49 5300.79
-931.635 2361.84 5299.17
-930.497 2363.27 5297.54
-931.578 2362.01 5298.2
-932.596 2361.07 5302.68
-930.544 2363.32 5296.85
-929.622 2364.42 5296.17
-928.867 2365.22 5296.16
-929.24 2364.87 5295.87
-920.422 2369.64 5284.66
-920.764 2369.32 5284.91
-920.643 2369.41 5284.52
-920.392 2369.74 5284.16
-920.545 2369.55 5284.27
-920.264 2369.91 5284.01
-920.997 2369.24 5286.57
-920.934 2369.22 5285.28
-921.078 2369.15 5285.76
-922.79 2368.91 5290.59
-923.803 2368.59 5291.81
-924.725 2368.3 5292.94
-925.054 2368.26 5293.87
-922.466 2368.91 5289.84
-922.125 2368.91 5288.92
-921.721 2369.01 5288.18
-921.332 2369.05 5287.15
-921.235 2369.06 5286.31
-926.166 2367.56 5294.5
-925.384 2368.03 5293.89
-925.731 2367.81 5293.93
-927.219 2366.77 5294.45
-926.672 2367.18 5294.21
-927.843 2366.28 5294.44
-928.258 2365.91 5294.72
-928.807 2365.34 5295.4
-928.715 2365.47 5294.77
-919.796 2370.44 5285.35
-919.694 2370.62 5285.18
-920.036 2370.14 5284.2
-919.855 2370.35 5284.68
-919.949 2370.26 5284.13
-920.153 2370.05 5283.85
-933.998 2359.97 5307.52
-934.137 2359.88 5307.35
-934.243 2359.78 5307.02
-934.057 2359.96 5306.57
-934.089 2359.92 5306.06
-933.981 2360.01 5305.51
-933.852 2360.13 5304.97
-933.483 2360.41 5304.29
-934.732 2357.12 5311.65
-934.843 2356.95 5311.54
-934.444 2357.51 5311.21
-934.281 2357.86 5311.15
-934.549 2357.37 5311.33
-934.669 2357.2 5311.45
-934.273 2358.58 5310.04
-934.262 2358.26 5310.61
-934.284 2358.83 5309.61
-934.3 2357.97 5310.87
-934.422 2358.69 5309.44
-934.388 2358.99 5309.15
-934.251 2359.33 5308.8
-934.189 2359.53 5308.3
-934.123 2359.71 5307.91
-934.087 2359.85 5307.55
-914.853 2377.1 5267.22
-914.096 2377.65 5265.81
-1077.42 2352.77 5306.12
-1077.29 2352.59 5306.35
-1077.81 2353.12 5305.72
-1078.64 2353.84 5305
-1078.75 2353.81 5305
-1077.09 2352.42 5306.62
-1076.87 2352.37 5306.71
-1080.29 2354.73 5303.74
-1079.71 2354.48 5304.2
-1080.07 2354.73 5303.83
-1076.8 2352.46 5306.66
-1076.55 2352.38 5306.71
-1076.26 2352.32 5306.8
-1075.89 2352.41 5307.12
-1075.7 2352.44 5307.48
-1075.09 2352.44 5307.81
-1074.35 2352.78 5307.99
-1075.15 2352.5 5307.7
-1029.11 2346.05 5307.97
-1028.21 2345.14 5309.31
-1058.3 2353.32 5290.24
-1058.3 2353.09 5290.47
-1058.33 2352.73 5290.79
-1058.47 2352.7 5290.71
-1058.43 2353.48 5290.02
-1058.64 2353.54 5289.91
-1058.36 2352.45 5291.03
-1058.75 2354.08 5289.32
-1058.8 2353.58 5289.86
-1058.72 2353.9 5289.54
-1058.9 2354.21 5289.21
-1058.54 2351.96 5291.43
-1059.91 2354.78 5288.87
-1059.46 2354.42 5289.15
-1059.19 2354.33 5289.22
-1059.84 2354.56 5289.06
-1059.24 2351.05 5292.07
-1060.39 2350.29 5292.08
-1060.19 2350.38 5292.21
-1061.71 2350.17 5291.8
-1061.66 2350.1 5291.85
-1061.56 2350.09 5291.82
-1061.9 2350.17 5291.84
-1061.78 2350.24 5291.75
-1061.87 2350.62 5291.57
-1062.26 2350.29 5291.81
-1061.25 2350.18 5291.71
-1061.15 2350.17 5291.72
-1061.39 2350.19 5291.71
-1061.04 2350.13 5291.79
-1062.68 2350.48 5291.72
-1062.53 2350.45 5291.71
-1062.84 2350.59 5291.67
-1062.12 2350.92 5291.39
-1060.94 2350.12 5291.86
-1060.61 2350.25 5291.89
-1060.85 2350.19 5291.75
-1060.7 2350.25 5291.75
-1063.85 2351.11 5291.73
-1063.6 2351.04 5291.64
-1063.41 2350.89 5291.67
-1063.2 2350.8 5291.65
-1063.02 2350.69 5291.67
-1064.94 2351.58 5292.06
-1064.75 2351.54 5291.95
-1060.41 2354.91 5288.87
-1060.68 2354.91 5288.96
-1065.12 2351.9 5291.97
-1061.23 2355.18 5288.97
-1060.91 2354.96 5289.05
-1066.82 2355.34 5291.38
-1066.66 2355.58 5291.13
-1066.91 2354.87 5291.73
-1066.3 2353.47 5292.06
-1065.56 2352.46 5292.03
-1065.11 2352.02 5291.92
-1066.42 2355.61 5291.05
-1066.23 2355.82 5290.86
-1063.96 2351.1 5291.75
-1064.49 2351.51 5291.78
-1064.31 2351.51 5291.69
-1064.67 2351.59 5291.82
-1078.93 2356.58 5301.65
-1080.77 2357.26 5299.57
-1080.79 2357.2 5299.71
-1076.05 2356.08 5303.98
-1076.76 2356.34 5303.14
-1077.86 2356.3 5302.68
-1079.12 2356.55 5301.63
-1075.81 2355.93 5304.41
-1074.82 2355.61 5305.74
-1075.25 2355.74 5305.22
-1075.65 2355.83 5304.73
-1074 2354.01 5307.42
-1074.44 2354.85 5306.6
-1073.96 2353.73 5307.63
-1074.89 2355.54 5305.78
-1074.31 2352.96 5307.91
-1074.19 2353.18 5307.86
-1074.13 2353.41 5307.76
-1074.2 2353.56 5307.62
-1074.09 2353.67 5307.61
-1080.87 2357.17 5299.76
-1080.94 2357.13 5299.81
-1081.3 2357.08 5299.69
-1082.27 2356.88 5299.43
-1081.69 2355.39 5301.92
-1081.11 2355.26 5302.63
-1080.77 2355.13 5303.09
-1082.41 2356.14 5300.35
-1080.44 2354.92 5303.51
-1121.81 2385.71 5233.38
-1122.25 2385.85 5233.6
-1122.75 2384.97 5234.71
-1122.61 2385.76 5233.92
-1122.62 2384.92 5234.68
-1122.63 2384.2 5235.3
-1122.49 2383.8 5235.59
-1122.37 2383.51 5235.87
-1122.25 2383.27 5236.08
-1118.14 2384.11 5233.47
-1119.64 2384.92 5232.95
-1119.98 2385.13 5232.82
-1118.55 2384.29 5233.42
-1120.04 2385.06 5233.01
-1120.8 2385.39 5233.03
-1121.04 2385.4 5233.17
-1121.5 2385.55 5233.33
-1120.22 2385.08 5233.11
-1092.78 2359.79 5269.05
-1093.97 2359.75 5267.64
-1089.26 2359.15 5273.28
-1088.63 2359.03 5273.86
-1090.06 2359.37 5272.43
-1091.16 2359.72 5270.67
-1090.6 2359.56 5271.54
-1092.68 2359.8 5268.97
-1088.17 2358.97 5274.15
-1087.77 2358.91 5274.52
-1087.71 2358.91 5274.73
-1087.45 2358.9 5275.08
-1087.2 2358.87 5275.41
-1087.11 2358.87 5275.62
-1086.94 2358.87 5275.9
-1086.71 2358.95 5276.16
-1086.27 2359.17 5277.48
-1086.43 2359.07 5276.89
-1084.8 2359.66 5280.34
-1085.67 2359.39 5278.64
-1083.92 2360.02 5281.2
-1084.13 2359.98 5280.77
-1083.69 2360.1 5281.31
-1083.44 2360.18 5281.4
-1083.2 2360.29 5281.17
-1082.78 2360.46 5281.01
-1084.42 2359.83 5280.46
-1082.26 2360.59 5281.26
-1082.46 2360.6 5280.7
-1082.29 2360.64 5280.86
-1081.94 2360.65 5281.53
-1082.02 2360.66 5281.29
-1081.33 2360.9 5280.9
-1081.78 2360.68 5281.65
-1081.14 2360.87 5281.29
-1081.09 2360.83 5281.51
-1079.16 2357.83 5286.24
-1079.48 2358.01 5285.82
-1079.92 2358.83 5284.92
-1079.69 2358.81 5284.96
-1078.8 2357.91 5286.29
-1078.59 2358.01 5286.21
-1078.33 2357.86 5286.68
-1078.41 2358.07 5286.22
-1078.28 2358.08 5286.3
-1078.22 2358.05 5286.41
-1078.04 2357.54 5287.68
-1077.89 2357.52 5288
-1077.81 2357.47 5288.29
-1077.74 2357.43 5288.56
-1078.08 2357.61 5287.37
-1078.15 2357.85 5286.81
-1078.07 2357.69 5287.1
-1077.57 2357.37 5289.11
-1077.53 2357.41 5288.92
-1077.22 2357.44 5289.68
-1077.19 2357.43 5289.91
-1076.4 2357.6 5290.47
-1075.58 2357.87 5290.2
-1075.48 2357.94 5289.9
-1075.13 2358.11 5289.57
-1075.37 2358.03 5289.63
-1074.75 2358.28 5289.27
-1081.02 2360.77 5281.74
-1080.89 2360.72 5281.92
-1078.23 2359.83 5284.03
-1079.1 2359.85 5283.85
-1079.65 2359.75 5283.92
-1078.97 2360.65 5282.51
-1079.62 2359.46 5284.27
-1079.94 2360.86 5281.75
-1079.56 2360.87 5281.8
-1079.31 2360.87 5281.86
-1079.13 2360.79 5282.13
-1097.44 2360.27 5263.88
-1100.38 2361.24 5260.22
-1098.42 2360.65 5262.49
-1096.39 2360.07 5264.73
-1096.89 2360.18 5264.27
-1095.18 2359.85 5265.85
-1096.19 2360.06 5264.74
-1095.59 2359.92 5265.32
-1094.24 2359.8 5266.9
-1094.61 2359.84 5266.26
-1103.43 2362.6 5255.66
-1103.63 2362.76 5255.43
-1104.53 2363.15 5255.27
-1104.65 2363.29 5255.07
-1104.76 2363.43 5254.86
-1104.99 2363.59 5254.75
-1106.34 2364.46 5254.32
-1104.08 2362.94 5255.41
-1104.35 2363.07 5255.33
-1103.84 2362.86 5255.37
-1103.11 2362.52 5255.66
-1102.4 2362.06 5256.53
-1102.67 2362.32 5255.89
-1102.87 2362.43 5255.74
-1102.51 2362.21 5256.11
-1102.23 2361.95 5257
-1102.3 2362.02 5256.69
-1102 2361.85 5257.49
-1101.75 2361.72 5258.01
-1102.12 2361.9 5257.23
-1101.31 2361.56 5258.58
-1100.47 2361.28 5259.95
-1108.05 2365.92 5253.33
-1107.62 2365.63 5253.6
-1108.24 2366.09 5253.1
-1108.66 2366.37 5252.85
-1114.85 2371.18 5247.53
-1115.13 2371.36 5247.5
-1114.64 2371.04 5247.51
-1114.45 2370.93 5247.5
-1115.46 2371.56 5247.48
-1115.61 2371.73 5247.37
-1115.85 2371.97 5247.26
-1116.07 2372.25 5247.11
-1116.23 2372.43 5247.04
-1113.58 2370.06 5247.97
-1113.31 2369.79 5248.14
-1113.08 2369.57 5248.34
-1112.82 2369.36 5248.49
-1112.06 2368.67 5249.37
-1112.4 2368.92 5248.94
-1112.69 2369.23 5248.6
-1112.56 2369.09 5248.73
-1111.74 2368.49 5249.61
-1111.39 2368.27 5249.96
-1110.65 2367.71 5251.13
-1109.69 2367.1 5252.15
-1109.32 2366.87 5252.37
-1108.96 2366.61 5252.59
-1114.11 2370.64 5247.59
-1114.28 2370.83 5247.47
-1113.7 2370.25 5247.79
-1113.92 2370.48 5247.66
-1120.03 2381.16 5243.23
-1119.95 2381.09 5243.38
-1119.96 2381.05 5243.54
-1119.98 2381.2 5243.07
-1120.45 2381.61 5242.35
-1120.19 2381.43 5242.62
-1120.01 2381.27 5242.89
-1119.87 2380.97 5243.73
-1119.83 2380.9 5244.02
-1119.93 2380.91 5244.17
-1119.9 2380.86 5244.4
-1120.82 2381.89 5241.49
-1121.48 2382.25 5239.74
-1121.53 2382.5 5238.45
-1121.4 2382.23 5239.6
-1120.51 2381.71 5242.07
-1120.65 2381.81 5241.59
-1119.88 2380.8 5244.63
-1119.83 2380.7 5244.76
-1119.95 2380.72 5244.87
-1119.98 2380.66 5245.01
-1119.9 2380.56 5245.09
-1119.81 2380.38 5245.24
-1119.8 2380.32 5245.27
-1119.82 2380.46 5245.18
-1119.75 2380.21 5245.3
-1119.72 2380.13 5245.34
-1119.69 2380.02 5245.42
-1119.67 2379.88 5245.57
-1121.73 2382.72 5237.38
-1121.49 2382.58 5237.8
-1121.43 2382.51 5238.14
-1121.6 2382.65 5237.53
-1122.09 2382.94 5236.44
-1121.98 2382.85 5236.6
-1121.92 2382.82 5236.79
-1121.85 2382.78 5236.98
-1121.73 2382.71 5237.11
-1121.68 2382.69 5237.3
-1122.08 2383.04 5236.28
-1119.58 2379.61 5245.64
-1119.59 2379.36 5245.77
-1119.56 2379.05 5245.9
-1119.5 2378.71 5246.02
-1119.43 2378.39 5246.12
-1118.13 2375.23 5246.51
-1118.69 2376.6 5246.31
-1118.78 2376.65 5246.38
-1117.88 2374.8 5246.54
-1117.65 2374.47 5246.55
-1119.16 2377.77 5246.16
-1117.37 2374.2 5246.48
-1117.27 2373.99 5246.55
-1117.1 2373.87 5246.45
-1116.88 2373.61 5246.44
-1116.78 2373.42 5246.51
-1116.64 2373.23 5246.56
-1116.51 2373.02 5246.65
-1116.38 2372.75 5246.81
-980.144 2343.37 5340.84
-980.064 2343.55 5338.91
-980.381 2343.26 5342.7
-980.224 2343.29 5341.85
-980.704 2343.26 5343.46
-981.103 2343.29 5344.16
-981.308 2343.25 5344.82
-980.213 2343.79 5336.52
-980.418 2343.94 5333.84
-979.784 2343.94 5331.21
-979.009 2343.95 5329.5
-979.647 2343.99 5329.28
-978.835 2343.99 5328.52
-980.593 2344.04 5330.79
-980.868 2343.97 5334.62
-977.352 2344.44 5324.55
-977.747 2344.23 5325.91
-977.94 2344.46 5324.16
-978.448 2344.21 5326.19
-978.477 2344.37 5324.79
-978.769 2344.13 5326.96
-977.712 2344.86 5321.82
-977.153 2344.97 5321.59
-976.597 2345.21 5320.65
-978.211 2344.78 5321.93
-975.01 2345.49 5320.55
-995.404 2346.73 5356.19
-995.028 2346.76 5355.89
-995.849 2347.45 5355.13
-995.455 2347.47 5354.87
-996.556 2347.75 5354.91
-995.816 2347.65 5354.69
-995.567 2347.59 5354.67
-996.024 2347.76 5354.58
-993.692 2345.85 5356.48
-994.059 2346.1 5356.33
-994.807 2346.84 5355.58
-994.604 2346.81 5355.47
-993.111 2345.62 5356.37
-993.751 2346.08 5356.09
-993.472 2345.96 5356.07
-992.673 2345.35 5356.41
-991.72 2344.99 5356
-992.217 2345.21 5356.1
-990.869 2344.72 5355.52
-990.312 2344.45 5355.38
-988.946 2343.91 5354.45
-987.16 2343.16 5353.48
-985.821 2342.78 5352.34
-985.57 2342.74 5352.05
-983.92 2342.39 5350.68
-984.944 2342.65 5351.31
-984.387 2342.55 5350.85
-983.4 2342.33 5350.23
-983.027 2342.16 5350.22
-981.347 2342.93 5346.29
-980.973 2342.9 5345.93
-981.843 2342.82 5347.23
-981.782 2343.02 5346.5
-982.242 2342.33 5348.92
-982.034 2342.21 5349.02
-981.987 2342.79 5347.46
-981.171 2343.1 5345.3
-1014.17 2343.09 5357.59
-1012.9 2343.5 5358.54
-1015.48 2342.9 5356.16
-1016.58 2343.11 5354.49
-1015.75 2343.5 5354.9
-1007.88 2346.57 5357.84
-1007.42 2346.63 5357.96
-1006.55 2346.54 5358.55
-1006.87 2346.6 5358.26
-1009.01 2346.32 5357.67
-1008.86 2346.42 5357.51
-1008.56 2346.35 5357.85
-1008.25 2346.4 5357.93
-1009.33 2346.32 5357.43
-1009.85 2346.31 5356.9
-1009.67 2346.42 5356.79
-1010.29 2346.09 5357.02
-1010.09 2346.26 5356.76
-1010.59 2345.95 5357.09
-1010.97 2345.77 5357.03
-1011.71 2345.12 5357.31
-1011.56 2345.39 5356.97
-1012.02 2344.91 5357.33
-1012.36 2344.35 5357.9
-998.076 2347.43 5356.14
-998.011 2347.68 5355.58
-1001.28 2347.5 5356.55
-999.731 2347.66 5356.12
-998.687 2347.74 5355.7
-1003.52 2347.26 5357.01
-998.065 2347.93 5354.94
-997.899 2348 5354.66
-1004.95 2347.19 5356.91
-1005.32 2347.14 5357.06
-1005.57 2347.08 5357.27
-1005.79 2346.95 5357.6
-1006.29 2346.68 5358.22
-1006.24 2346.84 5357.74
-997.73 2347.8 5355.22
-997.31 2347.91 5354.85
-996.822 2347.9 5354.74
-1015.94 2343.55 5354.5
-1014.35 2344.55 5354.71
-1012.91 2345.46 5354.73
-1012.95 2345.3 5355.11
-1012.46 2345.62 5355.1
-1012.05 2346.43 5353.31
-1012.13 2346.23 5353.9
-1012.14 2346.05 5354.41
-1012.17 2345.86 5354.91
-1011.92 2346.63 5352.62
-1012.25 2346.84 5350.08
-1012.13 2346.76 5351.2
-1011.98 2346.93 5350.49
-1012.07 2346.7 5351.77
-1012.34 2346.82 5349.42
-1012.11 2346.98 5348.84
-1011.87 2346.78 5351.98
-1016.23 2344.37 5345.84
-1016.11 2344.43 5345.98
-1015.95 2344.51 5346.17
-1015.11 2345.04 5347.62
-1015.53 2344.73 5346.38
-1015.79 2344.57 5346.03
-1015.02 2345.08 5347.08
-1014.46 2345.47 5347.95
-1013.32 2346.2 5348.37
-1013.32 2346.19 5348
-1011.95 2347.09 5348.15
-1016.42 2343.79 5342.85
-1016.68 2343.62 5342.28
-1016.2 2344.05 5343.92
-1016.02 2344.37 5345.19
-1017.01 2343.35 5341.5
-1016.7 2343.53 5341.91
-1016.77 2342.63 5337.95
-1015.45 2340.53 5327.4
-1015.68 2340.33 5326.16
-1015.35 2340.79 5328.81
-1016.8 2341.87 5334.85
-1016.3 2341.35 5332.23
-1015.32 2341.38 5331.17
-1015.41 2341.04 5329.95
-1017.28 2343.07 5340.48
-1017.05 2342.78 5338.83
-1015.3 2340.23 5324.54
-1012.02 2340.65 5318.72
-1012.25 2340.62 5319.72
-1012.48 2340.59 5320.65
-1014.14 2340.38 5323.43
-1012.67 2340.58 5321.51
-1015.11 2340.31 5325.02
-1004.93 2341.46 5313.95
-1002.76 2341.66 5313.12
-1002.14 2341.73 5312.82
-1001.81 2341.77 5312.59
-1001.56 2341.82 5312.38
-1001.39 2341.86 5312.1
-1001.58 2341.93 5311.35
-1001.25 2341.91 5311.77
-1005.25 2341.42 5314.87
-1005.15 2341.43 5314.48
-1010.54 2340.89 5317.45
-1009.24 2341.09 5317.32
-1007.83 2341.18 5316.26
-1004.94 2341.46 5315.13
-1011.93 2341.89 5309.77
-1011.28 2341.83 5309.8
-1010.6 2341.8 5309.77
-1009.86 2341.9 5309.5
-1009.01 2342 5309.19
-1014.69 2341.98 5310.47
-1016.23 2342.37 5310.38
-1017.09 2342.44 5310.69
-1019.19 2342.45 5312.03
-1015.1 2342.2 5310.23
-1021.21 2342.91 5312.24
-1013.53 2341.83 5310.37
-1013.91 2341.93 5310.29
-1012.36 2341.99 5309.68
-1006.71 2342.06 5309.28
-1004.36 2341.96 5310.05
-1004.06 2342.09 5309.55
-1008.05 2342.26 5308.62
-1006.21 2342.15 5309.06
-1002.35 2342.1 5310.03
-1001.34 2342.14 5310.19
-1001.14 2342.08 5310.56
-1000.95 2342.04 5310.98
-1002.39 2342.19 5309.62
-1022.9 2343.56 5311.59
-1021.85 2343.27 5311.79
-1022.45 2343.71 5311.16
-1024.18 2344.03 5310.96
-1023.51 2343.86 5311.16
-1026.05 2344.43 5310.36
-1027.52 2344.96 5309.48
-959.075 2348.34 5315.29
-958.763 2348.46 5314.46
-958.055 2348.62 5314.45
-959.999 2348.09 5317.28
-961.321 2347.77 5318.48
-962.727 2347.47 5319.28
-962.314 2347.58 5318.78
-963.171 2347.27 5320.05
-956.974 2349.29 5312.23
-957.416 2349.1 5312.48
-957.541 2348.91 5313.37
-957.913 2348.7 5314.04
-955.665 2349.73 5312.18
-953.506 2350.58 5311.45
-965.282 2345.77 5326.43
-964.975 2345.89 5324.92
-965.247 2345.81 5325.63
-965.023 2345.97 5324.18
-964.934 2346.07 5323.68
-965.979 2345.74 5326.4
-964.473 2346.31 5323.02
-963.73 2346.79 5321.72
-967.477 2345.71 5326.11
-969.167 2345.65 5325.91
-969.83 2345.7 5325
-970.257 2345.8 5323.82
-935.891 2355.62 5311.37
-935.791 2355.71 5311.36
-936.091 2355.46 5311.25
-936.001 2355.54 5311.23
-935.918 2355.63 5311.18
-935.689 2355.83 5311.28
-935.586 2355.96 5311.5
-938.285 2354.48 5312.51
-938.175 2354.52 5312.46
-938.073 2354.55 5312.38
-937.96 2354.59 5312.35
-938.397 2354.46 5312.52
-937.926 2354.58 5312.12
-937.636 2354.65 5311.61
-937.512 2354.73 5311.78
-937.804 2354.6 5311.88
-937.09 2354.92 5311.65
-937.23 2354.84 5311.52
-936.392 2355.23 5311.4
-936.519 2355.15 5311.3
-936.896 2354.99 5311.45
-936.704 2355.06 5311.29
-936.291 2355.3 5311.29
-936.243 2355.34 5311.4
-936.171 2355.41 5311.19
-935.189 2356.45 5311.6
-935.411 2356.16 5311.36
-935.283 2356.32 5311.4
-935.122 2356.53 5311.43
-934.983 2356.74 5311.5
-935.565 2355.97 5311.26
-939.856 2354.33 5312.95
-939.395 2354.35 5312.71
-939.009 2354.38 5312.48
-938.632 2354.4 5312.28
-938.519 2354.42 5312.38
-938.747 2354.37 5312.19
-942.11 2354.32 5313.05
-942.03 2354.3 5313.32
-941.002 2354.25 5313.23
-940.11 2354.27 5312.85
-942.609 2354.38 5312.64
-942.199 2354.35 5312.79
-943.695 2355.05 5307.9
-943.699 2354.93 5308.4
-943.666 2354.81 5309.26
-943.671 2354.9 5308.65
-943.253 2354.59 5311.03
-943.001 2354.54 5311.58
-942.677 2354.44 5312.15
-943.512 2354.6 5310.68
-943.593 2354.72 5309.92
-943.288 2356.69 5301.51
-944.317 2356.69 5299.37
-942.758 2356.71 5302.38
-943.26 2355.51 5306.52
-943.146 2355.41 5307
-942.921 2356.14 5304.53
-949.443 2352.13 5308.38
-949.243 2352.53 5306.93
-948.963 2352.98 5305.52
-949.949 2351.86 5308.9
-951.566 2351.27 5310.21
-917.635 2375.45 5289.95
-918.326 2373.69 5288.63
-918.968 2372.19 5286.52
-919.196 2371.69 5286.18
-919.427 2371.15 5285.61
-919.625 2370.8 5284.89
-932.137 2361.27 5299.7
-931.947 2361.55 5298.71
-932.715 2360.94 5302.39
-932.415 2361.06 5300.62
-931.931 2361.7 5297.65
-931.278 2362.51 5296.97
-930.135 2363.95 5295.53
-929.667 2364.49 5295.17
-929.126 2365.07 5294.99
-929.44 2364.82 5294.46
-920.981 2369.1 5284.56
-920.838 2369.22 5284.25
