-1011.96 2256.37 3031.68
-1011.75 2256.18 3032.08
-1011.84 2256.28 3031.87
-1011.66 2256.19 3032.06
-1009.37 2256.18 3030.2
-1010.1 2256.42 3030.32
-1009.92 2256.38 3030.16
-1010.19 2256.4 3030.57
-1010.32 2256.39 3030.75
-1010.45 2256.38 3030.94
-1010.75 2256.42 3031.15
-1010.6 2256.39 3031.07
-1011.17 2256.44 3031.31
-1010.98 2256.45 3031.19
-1009.25 2256.67 3013.52
-1008.71 2256.24 3015.16
-1008.18 2255.8 3016.82
-1019.26 2258.14 3006.3
-1019.61 2258.33 3005.27
-1019.75 2258.57 3003.68
-1012.39 2256.64 3028.9
-1012.15 2256.67 3028.82
-1012.26 2256.66 3028.94
-1012.03 2256.69 3028.8
-1011.7 2256.74 3028.78
-1011.84 2256.73 3028.85
-1011.97 2256.71 3028.95
-1012.22 2256.74 3029.9
-1012.34 2256.66 3029.11
-1012.3 2256.68 3029.31
-1012.21 2256.71 3029.48
-1012.12 2256.74 3029.63
-1012.1 2256.76 3029.82
-1011.07 2256.67 3028.57
-1011.23 2256.69 3028.59
-1011.4 2256.7 3028.61
-1011.56 2256.74 3028.79
-1010.67 2256.55 3028.07
-1010.9 2256.63 3028.42
-1010.52 2256.54 3028.27
-1009.01 2255.88 3023.95
-1009.34 2256.07 3026.08
-1009.85 2256.36 3027.79
-1010.04 2256.4 3027.78
-1010.35 2256.52 3028.37
-1007.59 2255.45 3018.24
-1007.44 2255.4 3018.48
-1007.73 2255.54 3017.89
-1007.91 2255.66 3017.39
-1007.71 2255.48 3019.42
-1007.53 2255.42 3019
-1008.06 2255.55 3020.49
-1008.26 2255.58 3021.33
-1008.35 2255.65 3022.29
-1007.75 2255.49 3019.84
-1020.12 2258.79 3002.3
-1020.74 2258.92 3001.66
-1021.58 2259.28 3000.18
-1023.08 2259.48 2999.25
-1023.14 2259.89 2997.22
-1034.81 2256.67 3007.42
-1034.61 2256.71 3007.53
-1034.36 2256.76 3007.6
-1033.98 2256.87 3007.6
-1033.85 2256.92 3007.59
-1034.14 2256.81 3007.63
-1033.35 2257.08 3007.68
-1033.13 2257.15 3007.81
-1033.52 2257.04 3007.49
-1033.71 2256.98 3007.45
-1031.17 2258.29 3007.13
-1031.13 2258.39 3006.8
-1030.98 2258.55 3006.44
-1031.98 2257.84 3007.42
-1031.97 2257.88 3007.25
-1030.7 2258.79 3006.04
-1030.8 2258.91 3005.52
-1030.88 2258.7 3006.06
-1030.83 2259.14 3004.76
-1031.39 2259.2 3003.92
-1032.01 2257.83 3007.53
-1031.72 2259.45 3002.79
-1030.98 2259.67 3002.97
-1030.96 2259.72 3002.73
-1030.93 2259.75 3002.62
-1031.7 2259.53 3002.55
-1031.69 2259.58 3002.39
-1032.68 2257.38 3007.73
-1033.03 2257.2 3007.79
-1032.96 2257.24 3007.7
-1032.6 2257.46 3007.56
-1030.62 2259.83 3002.55
-1030.9 2259.77 3002.45
-1030.45 2259.87 3002.49
-1030.32 2259.91 3002.34
-1030.21 2259.95 3002.14
-1030.09 2260 3001.9
-1035.63 2256.58 3007.45
-1035.29 2256.62 3007.39
-1034.93 2256.66 3007.3
-1041.38 2257.02 3004.03
-1041.39 2257.12 3003.87
-1041.3 2257.03 3003.99
-1041.24 2256.99 3004.1
-1041.23 2256.92 3004.29
-1041.17 2256.89 3004.38
-1041.17 2256.82 3004.58
-1041.12 2256.78 3004.69
-1041.05 2256.69 3005
-1041.01 2256.65 3005.17
-1041.08 2256.74 3004.82
-1040.38 2256.46 3006.07
-1040.8 2256.53 3005.74
-1040.6 2256.5 3005.86
-1040.15 2256.42 3006.24
-1040.08 2256.41 3006.38
-1039.14 2256.53 3006.81
-1038.17 2256.63 3007
-1036.94 2256.57 3007.35
-1040.93 2256.56 3005.55
-1040.97 2256.6 3005.37
-1041.31 2257.23 3003.7
-1041.22 2257.23 3003.74
-1040.98 2257.32 3003.73
-1041.06 2257.26 3003.78
-1041.12 2257.31 3003.68
-1038.5 2258.78 3002.16
-1038.85 2258.69 3002.14
-1038.07 2258.54 3003.08
-1039.67 2258.1 3003.01
-1040.07 2257.67 3003.65
-1040.42 2257.6 3003.58
-1040.23 2257.5 3003.86
-1040.35 2257.5 3003.76
-1040.55 2257.52 3003.61
-1040.64 2257.43 3003.7
-1040.75 2257.38 3003.74
-1040.83 2257.41 3003.66
-1040.9 2257.38 3003.68
-1040.68 2257.33 3003.85
-1037.79 2257.36 3005.58
-1037.71 2257.2 3005.84
-1037.96 2257.87 3004.68
-1037.93 2257.42 3005.49
-1037.63 2257.03 3006.12
-1036.42 2257 3006.32
-1037.31 2256.97 3006.29
-1034.74 2257.12 3006.13
-1034.91 2256.94 3006.42
-1035.32 2256.93 3006.42
-1035.59 2256.99 3006.31
-1030.34 2260 3001.42
-1030.55 2259.94 3001.74
-1030.25 2259.98 3001.75
-1031.56 2259.71 3001.88
-1031.59 2259.67 3002.03
-1030.65 2259.89 3002
-1030.7 2259.85 3002.2
-1030.85 2259.81 3002.26
-1033.07 2259.08 3002.39
-1033.27 2258.95 3002.61
-1033.46 2258.81 3002.86
-1031.65 2259.63 3002.2
-1032.42 2259.45 3001.88
-1032.88 2259.21 3002.19
-1032.63 2259.34 3002.01
-1033.67 2258.55 3003.33
-1033.95 2257.95 3004.6
-1034.24 2257.34 3005.86
-1034.45 2257.26 3005.95
-1052.17 2265.14 2978.08
-1052.08 2265.55 2977.62
-1052.29 2265.93 2976.79
-1053.11 2265.22 2977.49
-1054.06 2265.15 2976.34
-1052.64 2265.28 2977.82
-1054.82 2266.18 2974.19
-1054.55 2266.03 2974.71
-1055.41 2266.34 2973.27
-1056.02 2266.57 2972.4
-1056.36 2266.77 2971.76
-1056.23 2266.72 2971.97
-1056.48 2267.07 2970.96
-1056.4 2267.03 2971.14
-1056.41 2266.94 2971.35
-1056.35 2266.87 2971.56
-1055.7 2267.71 2970.39
-1055.91 2267.66 2970.38
-1055.34 2267.77 2970.53
-1054.69 2267.63 2971.06
-1056.26 2267.34 2970.69
-1054.11 2267 2973.02
-1054.59 2267.22 2971.9
-1054.69 2267.44 2971.4
-1053.13 2266.69 2974.36
-1052.65 2266.39 2975.13
-1052.52 2266.15 2975.71
-1052.55 2266.23 2975.41
-1052.47 2266.08 2976.16
-1052.38 2265.97 2976.66
-987.185 2254.19 3027.24
-987.588 2254.06 3027.07
-988.014 2253.94 3026.91
-988.33 2253.8 3027
-988.798 2253.64 3026.94
-986.836 2254.37 3027.14
-992.547 2252.79 3025.88
-993.219 2252.58 3026.1
-990.877 2253.13 3026.56
-989.287 2253.51 3026.77
-990.8 2253.15 3026.42
-985.895 2254.86 3027.08
-986.221 2254.69 3026.97
-986.527 2254.54 3026.93
-982.927 2256.98 3027.82
-982.998 2256.92 3027.81
-982.511 2257.28 3028.05
-982.309 2257.4 3028.15
-981.82 2257.67 3028.41
-982.053 2257.54 3028.26
-981.506 2257.8 3028.46
-981.347 2257.87 3028.58
-981.328 2257.89 3028.77
-981.646 2257.74 3028.33
-981.196 2257.94 3029.01
-981.03 2257.98 3029.22
-980.782 2258.03 3029.38
-980.6 2258.07 3029.47
-979.626 2258.21 3029.53
-978.809 2258.34 3029.55
-978.535 2258.42 3029.6
-978.214 2258.57 3029.79
-978.145 2258.62 3029.85
-978.023 2258.67 3029.87
-978.225 2258.49 3029.6
-978.151 2258.53 3029.64
-978.163 2258.48 3029.58
-983.979 2256.16 3027.57
-983.164 2256.81 3027.62
-985.229 2255.27 3027.25
-984.883 2255.5 3027.28
-983.907 2256.21 3027.37
-985.416 2255.15 3027.17
-985.564 2255.06 3027.09
-977.982 2258.73 3029.96
-977.954 2258.83 3030.18
-977.837 2258.96 3030.29
-977.844 2258.86 3030.14
-977.848 2258.76 3029.93
-977.873 2258.8 3030.05
-977.754 2259.04 3030.34
-977.749 2259.15 3030.52
-977.778 2259.41 3030.94
-977.693 2259.25 3030.63
-977.678 2259.49 3030.98
-973.938 2263.94 3032.3
-974.005 2263.88 3032.26
-973.855 2264 3032.32
-974.052 2263.76 3031.9
-973.927 2263.83 3031.8
-973.962 2263.85 3032.02
-974.3 2263.66 3032.21
-974.165 2263.7 3031.99
-973.941 2264.07 3032.97
-973.844 2264.08 3032.63
-973.758 2264.06 3032.3
-976.333 2261.97 3032.84
-976.612 2261.22 3032.22
-976.738 2260.51 3031.38
-976.794 2260.21 3031.01
-976.931 2260.01 3030.92
-977.091 2259.85 3030.88
-977.523 2259.58 3030.96
-977.347 2259.68 3030.91
-977.202 2259.67 3030.75
-976.175 2262.03 3032.69
-975.967 2262.31 3032.84
-975.617 2262.72 3032.97
-975.651 2262.56 3032.73
-975.078 2263.02 3032.53
-975.366 2262.77 3032.61
-974.624 2263.46 3032.37
-974.745 2263.39 3032.48
-974.501 2263.52 3032.25
-974.379 2263.59 3032.14
-974.883 2263.21 3032.42
-974.776 2264.5 3036.37
-974.971 2264.48 3036.76
-974.636 2264.46 3035.88
-974.706 2264.36 3035.55
-974.259 2264.31 3034.61
-973.821 2264.27 3033.67
-973.844 2264.13 3033.01
-973.788 2264.19 3033.2
-983.419 2259.74 3039.39
-994.597 2252.15 3024.46
-995.107 2251.91 3023.87
-993.881 2252.39 3025.44
-995.406 2251.77 3023.18
-995.578 2251.63 3022.44
-995.737 2251.52 3022.08
-995.788 2251.41 3021.3
-995.865 2251.01 3019.47
-996.066 2250.66 3017.82
-995.936 2250.68 3017.77
-996.286 2250.51 3017.21
-996.168 2250.53 3017.19
-996.402 2250.34 3016.01
-996.316 2250.36 3015.98
-996.225 2250.38 3015.92
-996.235 2250.41 3016.28
-996.22 2250.44 3016.53
-998.563 2250.47 3014.96
-998.005 2250.31 3014.43
-997.875 2250.29 3014.33
-998.424 2250.42 3014.55
-998.247 2250.36 3014.15
-998.169 2250.34 3014.3
-997.653 2250.25 3014.07
-997.507 2250.22 3013.82
-997.761 2250.26 3013.83
-997.247 2250.19 3013.77
-997.369 2250.2 3013.79
-997.135 2250.2 3013.77
-997.023 2250.21 3013.84
-996.805 2250.25 3014.7
-996.9 2250.23 3013.92
-996.465 2250.31 3015.45
-996.651 2250.28 3014.97
-1008.97 2256.12 3028.13
-1008.73 2256.03 3027.72
-1008.25 2255.77 3026.37
-1008 2255.58 3023.81
-1009.67 2256.36 3029.08
-1009.58 2256.33 3028.65
-1009.3 2256.23 3028.18
-1007.51 2255.36 3021.15
-1007.21 2255.25 3020.81
-1006.83 2255.12 3020.35
-1007.62 2255.41 3021.68
-1006.57 2255.02 3020.07
-1009.65 2256.31 3029.98
-1009.8 2256.37 3029.88
-1009.89 2256.41 3029.77
-1009.97 2256.46 3029.5
-1010.12 2256.49 3029.68
-1006.14 2254.79 3021.76
-1006.07 2254.76 3020.68
-1006.27 2254.88 3019.98
-1000 2251.05 3017.13
-999.724 2250.91 3016.06
-999.404 2250.76 3015.51
-1001.51 2251.93 3020.51
-1000.89 2251.55 3018.87
-1000.12 2251.1 3017.01
-998.963 2250.57 3015.13
-999.111 2250.63 3015
-998.7 2250.51 3014.86
-998.835 2250.55 3014.76
-1003.61 2253.3 3022.43
-1004.8 2254.05 3022.35
-1005.39 2254.41 3021.98
-1005.74 2254.59 3021.54
-1002.07 2252.27 3020.69
-896.142 2318.63 2982.15
-895.626 2318.64 2983.06
-934.642 2275.38 3040.31
-934.477 2275.42 3040.24
-934.37 2275.42 3040
-934.286 2275.44 3039.77
-934.217 2275.46 3039.55
-934.14 2275.5 3039.33
-934.031 2275.56 3039.16
-933.639 2275.85 3038.75
-933.954 2275.63 3038.93
-933.885 2275.71 3038.68
-933.76 2275.78 3038.69
-933.654 2275.88 3038.5
-933.565 2275.95 3038.33
-933.508 2276 3038.13
-933.471 2276.04 3037.91
-933.357 2276.17 3037.53
-933.457 2276.08 3037.63
-933.14 2276.42 3037.09
-933.008 2276.53 3037.07
-933.253 2276.33 3037.12
-932.76 2276.86 3036.58
-934.736 2275.37 3040.58
-932.383 2277.47 3035.22
-932.157 2278.14 3033.22
-932.164 2277.94 3034.02
-931.229 2279.08 3032.58
-932.049 2278.35 3032.67
-930.343 2279.78 3032.83
-929.054 2280.59 3033.34
-928.734 2280.52 3034.49
-928.448 2280.5 3035.26
-928.592 2280.87 3033.55
-927.434 2281.04 3035.49
-926.473 2281.5 3035.9
-930.039 2280.03 3032.76
-929.726 2280.27 3032.65
-929.327 2280.5 3032.89
-926.29 2281.6 3035.93
-926.082 2281.7 3036.04
-925.923 2281.84 3035.9
-925.667 2282.24 3035.26
-925.409 2282.63 3034.66
-924.507 2283.24 3027.18
-924.728 2283 3027.6
-924.96 2282.83 3027.75
-925.088 2282.73 3027.93
-925.326 2282.65 3030.67
-925.534 2282.62 3031.51
-925.85 2282.54 3032.29
-925.234 2282.58 3029.19
-925.339 2282.52 3029
-925.292 2282.54 3028.76
-925.264 2282.58 3028.45
-925.215 2282.64 3028.15
-925.507 2282.54 3030.61
-925.372 2282.52 3029.54
-925.419 2282.48 3029.21
-925.476 2282.64 3034.5
-925.707 2282.5 3034.46
-925.992 2282.4 3034.11
-925.929 2282.37 3034.36
-926.86 2281.97 3033.53
-926.908 2281.98 3033.29
-926.895 2282.01 3033.08
-926.872 2282.04 3032.92
-926.825 2282.07 3032.78
-926.895 2282.03 3032.59
-926.864 2282.04 3032.43
-926.813 2282.06 3032.22
-911.436 2292.94 3021.95
-911.506 2292.88 3022
-911.413 2292.96 3021.86
-911.782 2292.65 3022.32
-911.721 2292.7 3022.25
-911.66 2292.75 3022.18
-911.599 2292.81 3022.11
-911.585 2292.82 3022.04
-911.916 2292.55 3022.45
-911.854 2292.59 3022.37
-911.987 2292.5 3022.4
-912.068 2292.47 3022.32
-912.363 2292.33 3022.37
-912.519 2292.27 3022.39
-912.321 2292.35 3022.3
-912.298 2292.37 3022.21
-912.233 2292.4 3022.17
-912.15 2292.43 3022.26
-914.427 2291.74 3021.58
-914.506 2291.7 3021.7
-913.117 2292.08 3022.37
-913.086 2292.09 3022.26
-913.872 2291.91 3021.88
-913.968 2291.89 3021.96
-913.143 2292.08 3022.15
-912.892 2292.15 3022.35
-912.557 2292.26 3022.32
-914.704 2291.68 3020.86
-914.588 2291.71 3021.03
-914.912 2291.61 3020.34
-914.727 2291.73 3020.41
-914.613 2291.76 3020.56
-914.56 2291.76 3020.75
-914.549 2291.71 3021.2
-914.398 2291.77 3021.32
-914.417 2291.75 3021.44
-915.122 2291.53 3019.94
-914.918 2291.64 3020.11
-915.076 2291.63 3019.72
-915.055 2291.71 3019.47
-915.025 2291.81 3019.21
-922.105 2285.67 3020.61
-923.025 2285.23 3020.51
-920.867 2287.29 3017.32
-921.626 2286.03 3020.14
-921.455 2286.19 3019.9
-921.22 2286.35 3019.8
-921.428 2286.49 3018.98
-921.192 2286.67 3018.89
-920.991 2286.77 3018.94
-921.127 2286.97 3017.95
-921.123 2287.1 3017.32
-921.873 2285.86 3020.32
-922.031 2285.75 3020.44
-925.699 2283.8 3020.11
-928.014 2281.46 3025.89
-924.801 2284.51 3018.99
-924.155 2284.76 3019.77
-924.297 2284.75 3019.33
-924.081 2285.07 3018.37
-923.786 2285.22 3018.52
-927.602 2281.66 3026.3
-927.184 2281.9 3026.34
-926.884 2282.08 3026.31
-924.565 2283.31 3026.8
-924.947 2283.39 3025.82
-924.804 2283.18 3026.75
-925.476 2283.11 3025.76
-925.653 2282.89 3026.09
-925.833 2282.71 3026.3
-925.895 2282.62 3026.55
-923.852 2284.87 3019.96
-911.345 2293.08 3021.73
-911.332 2293.13 3021.63
-911.394 2293 3021.78
-911.255 2293.31 3021.4
-911.32 2293.17 3021.52
-911.292 2293.24 3021.45
-911.249 2293.35 3021.3
-911.21 2293.42 3021.25
-911.225 2293.47 3021.13
-911.267 2293.55 3020.97
-911.836 2293.79 3019.98
-911.72 2293.58 3020.36
-911.596 2293.54 3020.53
-911.806 2293.67 3020.16
-911.905 2293.69 3020.01
-911.904 2293.57 3020.16
-911.946 2293.48 3020.21
-912.483 2293.6 3019.46
-912.831 2293.71 3018.9
-912.036 2293.42 3020.18
-911.398 2293.56 3020.72
-911.459 2293.49 3020.73
-911.321 2293.54 3020.86
-914.869 2292.12 3018.68
-914.988 2291.93 3018.93
-913.539 2293.14 3018.87
-913.854 2292.93 3018.76
-914.112 2292.75 3018.68
-914.383 2292.58 3018.54
-913.332 2293.31 3018.89
-912.947 2293.58 3018.93
-913.062 2293.46 3018.99
-913.165 2293.34 3019.07
-914.559 2292.36 3018.73
-903.63 2309.94 2997.39
-903.883 2309.76 2997.36
-903.868 2309.8 2997.16
-903.863 2309.85 2996.9
-903.732 2309.76 2997.66
-903.905 2309.86 2996.6
-902.963 2309.95 2998.44
-903.64 2309.66 2998.04
-903.133 2309.78 2998.59
-903.834 2309.55 2997.97
-903.719 2309.49 2998.28
-903.877 2309.25 2998.49
-903.995 2309.05 2998.62
-904.284 2308.83 2998.49
-904.64 2308.52 2998.41
-895.31 2318.37 2984.06
-895.41 2318.25 2984.1
-895.376 2318.17 2984.3
-895.393 2318.32 2984.02
-895.18 2318 2985.17
-895.197 2317.96 2985.29
-895.287 2318.01 2984.96
-895.34 2318.08 2984.62
-895.49 2318.11 2984.29
-895.495 2318.14 2984.22
-895.499 2318.16 2984.14
-895.355 2318.02 2984.79
-895.41 2318.05 2984.61
-898.389 2316.84 2985.15
-898.136 2316.93 2984.09
-897.691 2317.13 2987.74
-898.218 2316.93 2985.78
-897.107 2317.35 2988.07
-897.64 2317.17 2987.4
-897.383 2317.25 2987.76
-896.527 2317.51 2987.38
-895.814 2317.7 2986.94
-895.708 2317.74 2987.03
-898.101 2317.01 2983.12
-898.095 2316.99 2983.62
-895.428 2317.78 2986.53
-895.66 2317.72 2986.7
-895.365 2317.78 2986.26
-895.301 2317.81 2986.02
-895.263 2317.84 2985.84
-895.223 2317.88 2985.66
-895.194 2317.92 2985.47
-904.326 2309.57 2996.1
-904.144 2309.65 2996.56
-941.117 2274.81 3042.28
-940.995 2274.82 3042.44
-941.14 2274.78 3041.66
-941.065 2274.81 3041.86
-940.876 2274.82 3042.59
-935.321 2276.85 3030.45
-934.061 2277.43 3029.82
-936.71 2276.06 3031.76
-935.552 2276.7 3030.9
-937.244 2275.75 3032.29
-936.806 2275.95 3032.15
-937.501 2275.64 3032.54
-933.682 2277.52 3030.46
-938.177 2275.37 3033.38
-937.864 2275.44 3033.26
-937.71 2275.55 3032.84
-941.026 2274.79 3041.2
-940.989 2274.79 3040.81
-940.929 2274.8 3040.29
-940.594 2274.96 3038.74
-940.146 2275.16 3037.49
-939.987 2275.21 3037.09
-939.147 2275.3 3035.87
-939.101 2275.29 3035.62
-940.87 2274.83 3039.79
-938.387 2275.33 3034.08
-938.032 2275.4 3033.57
-938.207 2275.37 3033.81
-938.36 2275.36 3034.83
-938.288 2275.37 3034.42
-937.18 2275.19 3043.31
-938.207 2275.05 3043.36
-937.778 2275.07 3043.17
-937.429 2275.1 3043.07
-937.233 2275.14 3043.12
-940.592 2274.85 3042.78
-939.346 2274.95 3043.06
-937.895 2275.02 3042.97
-938.025 2274.98 3042.72
-946.061 2269.11 3034.67
-945.888 2268.97 3033.39
-944.817 2269.11 3029.01
-945.602 2268.83 3031.47
-944.544 2268.82 3026.75
-944.715 2268.53 3026.29
-944.593 2268.49 3025.29
-947.15 2268.57 3036.59
-946.765 2268.71 3035.87
-946.369 2268.86 3034.94
-948.838 2267.55 3038.03
-948.208 2267.83 3037.25
-947.729 2268.11 3036.78
-947.405 2268.3 3036.49
-943.705 2269.11 3022.36
-943.858 2269.05 3023.29
-944.66 2268.29 3024.41
-942.888 2269.76 3020.79
-933.136 2277.75 3030.74
-932.826 2277.95 3030.41
-932.435 2278.26 3029.96
-933.36 2277.62 3030.98
-932.086 2278.52 3029.76
-931.607 2278.88 3029.25
-936.852 2275.17 3042.71
-936.323 2275.21 3042.34
-935.915 2275.23 3042.13
-934.876 2275.35 3040.78
-935.103 2275.31 3041.14
-935.397 2275.24 3041.36
-935.714 2275.18 3041.72
-974.725 2264.57 3036.71
-974.451 2264.65 3036.49
-958.489 2266.01 3048.38
-958.389 2266.03 3048.41
-958.315 2266.04 3048.47
-958.112 2266.08 3048.33
-959.998 2265.56 3049.21
-959.749 2265.6 3049.11
-959.305 2265.72 3049.11
-958.617 2265.98 3048.37
-959.527 2265.64 3049.03
-958.768 2265.94 3048.26
-959.542 2266.19 3047.03
-957.711 2266.33 3046.17
-957.918 2266.27 3046.48
-958.164 2266.25 3046.57
-958.48 2266.22 3046.83
-958.76 2266.21 3047.03
-959.04 2266.2 3047.12
-959.227 2266.2 3047.14
-959.388 2266.21 3047.05
-961.63 2266.11 3047.4
-961.008 2266.08 3047.45
-960.102 2265.94 3047.64
-960.241 2265.98 3047.55
-961.441 2265.8 3048.06
-960.936 2265.8 3048.05
-957.347 2266.43 3045.51
-957.32 2266.41 3045.81
-957.43 2266.38 3045.99
-957.202 2266.4 3044.99
-957.278 2266.44 3045.33
-960.813 2265.67 3048.31
-960.856 2265.74 3048.17
-960.557 2265.65 3048.36
-960.008 2265.9 3047.76
-960.402 2265.65 3048.4
-960.213 2265.65 3048.45
-960.106 2265.65 3048.54
-960.115 2265.62 3048.67
-960.187 2265.57 3048.88
-959.956 2265.6 3048.9
-959.978 2265.57 3049.05
-953.193 2265.79 3036.44
-953.235 2265.71 3035.81
-952.994 2265.89 3037.49
-953.376 2265.85 3040.14
-953.229 2265.86 3039.02
-953.044 2265.86 3038.92
-953.305 2265.87 3039.89
-953.571 2265.81 3040.58
-953.435 2265.81 3040.53
-952.859 2265.87 3038.88
-954.112 2265.85 3041.53
-955.05 2266 3042.74
-955.92 2266.2 3043.84
-953.675 2265.81 3040.84
-956.306 2266.27 3044.43
-956.661 2266.34 3044.83
-956.994 2266.39 3045.03
-953.975 2265.03 3033.57
-955.873 2264.24 3032.52
-953.595 2265.24 3033.95
-953.238 2265.57 3035.07
-953.164 2265.53 3034.69
-953.117 2265.45 3034.22
-957.239 2263.66 3031.89
-957.837 2263.4 3031.52
-953.066 2265.67 3035.4
-958.205 2263.29 3031.33
-959.684 2262.86 3030.21
-959.85 2262.81 3029.98
-959.279 2262.9 3030.09
-958.784 2262.98 3030.16
-958.383 2263.06 3030.25
-958.102 2263.23 3030.92
-958.153 2263.16 3030.61
-958.003 2263.13 3030.2
-960.029 2262.77 3029.8
-960.384 2262.71 3029.71
-960.177 2262.74 3029.69
-960.554 2262.68 3029.64
-963.684 2263.08 3029.92
-962.885 2262.88 3029.56
-963.182 2262.95 3029.53
-967.55 2264 3031.8
-968.284 2264.15 3031.91
-966.786 2263.84 3031.45
-964.781 2263.37 3030.36
-963.616 2263.07 3029.63
-961.925 2262.75 3029.07
-961.679 2262.74 3028.98
-961.413 2262.73 3029.08
-961.141 2262.71 3029.21
-960.854 2262.7 3029.32
-960.576 2262.7 3029.41
-962.289 2262.77 3029.22
-962.11 2262.76 3029.14
-962.511 2262.8 3029.3
-974.299 2264.65 3036.2
-974.203 2264.59 3035.79
-973.648 2264.57 3034.88
-971.983 2264.75 3031.85
-971.855 2264.77 3031.78
-972.229 2264.67 3032.14
-972.112 2264.71 3031.99
-972.339 2264.63 3032.3
-972.44 2264.6 3032.35
-972.569 2264.56 3032.47
-972.691 2264.52 3032.52
-973.134 2264.46 3033.15
-972.955 2264.47 3032.83
-972.799 2264.49 3032.54
-973.238 2264.49 3033.75
-973.297 2264.44 3033.42
-971.801 2264.78 3031.55
-971.656 2264.77 3031.45
-971.517 2264.76 3031.35
-971.345 2264.74 3031.36
-971.245 2264.73 3031.4
-971.371 2264.74 3031.23
-970.758 2264.68 3031.34
-970.951 2264.71 3031.35
-970.537 2264.64 3031.32
-970.415 2264.58 3031.52
-970.072 2264.48 3031.68
-970.217 2264.54 3031.5
-971.065 2264.73 3031.31
-971.144 2264.73 3031.25
-968.775 2264.28 3031.81
-969.109 2264.37 3031.58
-969.541 2264.43 3031.54
-950.127 2267.08 3039.58
-949.341 2267.33 3038.54
-950.477 2266.92 3039.92
-950.989 2266.74 3040.6
-951.289 2266.59 3040.88
-955.082 2266.92 3046.29
-955.253 2266.97 3046.67
-955.027 2266.85 3046.04
-954.734 2266.91 3045.78
-954.616 2266.88 3045.56
-953.637 2266.99 3044.67
-952.288 2266.65 3042.66
-952.541 2266.76 3043.13
-952.058 2266.49 3042.07
-951.88 2266.52 3041.82
-951.601 2266.52 3041.34
-957.377 2266.29 3047.27
-957.078 2266.41 3047.06
-956.855 2266.52 3046.95
-956.899 2266.49 3047.08
-956.086 2266.74 3046.77
-955.561 2266.86 3046.61
-955.856 2266.72 3046.46
-955.741 2266.74 3046.44
-955.645 2266.8 3046.51
-955.431 2266.9 3046.61
-955.26 2266.87 3046.37
-956.389 2266.67 3046.87
-956.211 2266.71 3046.78
-956.638 2266.61 3046.92
-956.4 2266.67 3046.75
-1011.81 2256.65 3030.72
-1011.84 2256.68 3030.58
-1011.7 2256.64 3030.82
-1011.83 2256.6 3030.96
-1011.83 2256.56 3031.1
-1012.13 2256.76 3030.04
-1012.01 2256.76 3030.14
-1011.92 2256.74 3030.26
-1011.89 2256.71 3030.42
-1011.64 2256.3 3031.85
-1011.63 2256.36 3031.72
-1011.73 2256.29 3031.86
-1011.61 2256.42 3031.57
-1011.35 2256.44 3031.38
-1011.5 2256.46 3031.4
-1011.73 2256.54 3031.17
-1011.87 2256.49 3031.32
-1011.87 2256.44 3031.46
-1011.84 2256.41 3031.57
-1011.85 2256.37 3031.69
-1010.25 2256.47 3030.19
-1010.25 2256.45 3030.44
-1010.37 2256.49 3030.31
-1010.12 2256.45 3030.06
-1010.37 2256.44 3030.6
-1010.47 2256.43 3030.79
-1010.6 2256.44 3030.91
-1010.74 2256.46 3031.01
-1010.9 2256.48 3031.04
-1011.32 2256.53 3031.14
-1011.13 2256.47 3031.21
-1011.11 2256.5 3031.09
-1009.06 2256.66 3013.52
-1008.58 2256.2 3015.21
-1007.94 2255.74 3016.93
-1008.43 2256.15 3015.31
-1017.95 2258.24 3005.72
-1012.1 2256.7 3029.02
-1012.22 2256.68 3029.11
-1011.68 2256.77 3029.04
-1011.78 2256.75 3029.01
-1011.89 2256.74 3029.09
-1012.02 2256.72 3029.18
-1012.15 2256.71 3029.27
-1012.07 2256.73 3029.41
-1011.99 2256.76 3029.56
-1011.96 2256.78 3029.75
-1012 2256.78 3029.97
-1011.04 2256.68 3028.8
-1011.22 2256.7 3028.82
-1011.38 2256.72 3028.81
-1011.54 2256.75 3029.03
-1010.84 2256.64 3028.66
-1010.7 2256.62 3028.79
-1008.84 2255.85 3024.2
-1009.12 2256.02 3026.17
-1009.6 2256.29 3027.64
-1009.94 2256.42 3028.31
-1010.21 2256.49 3028.48
-1010.57 2256.59 3028.9
-1007.48 2255.47 3017.95
-1007.34 2255.36 3018.71
-1007.33 2255.41 3018.15
-1007.64 2255.57 3017.56
-1007.51 2255.41 3019.36
-1007.96 2255.53 3020.64
-1008.03 2255.54 3021.6
-1008.44 2255.72 3023.22
-1007.59 2255.42 3019.98
-1019.9 2259.25 3000.18
-1021.94 2259.67 2998.37
-1021.4 2259.75 2997.79
-1034.69 2256.7 3007.35
-1034.51 2256.73 3007.46
-1034.32 2256.77 3007.48
-1034 2256.87 3007.47
-1033.85 2256.93 3007.43
-1034.15 2256.81 3007.51
-1033.26 2257.13 3007.61
-1033.35 2257.11 3007.44
-1033.57 2257.04 3007.35
-1033.7 2257 3007.29
-1031.97 2257.91 3007.06
-1031.98 2257.97 3006.83
-1031.92 2258.04 3006.6
-1031.16 2258.56 3006.11
-1032.82 2257.34 3007.45
-1032.77 2257.39 3007.32
-1032.83 2257.37 3007.16
-1030.93 2258.79 3005.69
-1031.58 2259.14 3003.85
-1031.19 2258.9 3005.01
-1031.19 2258.66 3005.72
-1031.78 2259.38 3002.9
-1032.56 2259.17 3002.66
-1032.57 2259.22 3002.46
-1032.65 2259.26 3002.27
-1032.42 2259.36 3002.2
-1032.89 2257.29 3007.59
-1033.13 2257.19 3007.54
-1030.5 2259.89 3002.25
-1030.42 2259.93 3002.03
-1036.74 2256.59 3007.29
-1035.56 2256.63 3007.28
-1035.16 2256.66 3007.22
-1034.83 2256.69 3007.2
-1041.3 2257.13 3003.83
-1041.22 2257.11 3003.9
-1041.16 2257.07 3004
-1041.17 2256.98 3004.19
-1041.11 2256.86 3004.49
-1041.09 2256.95 3004.29
-1041.06 2256.81 3004.64
-1041.02 2256.75 3004.82
-1040.98 2256.71 3004.99
-1040.95 2256.66 3005.17
-1040.34 2256.46 3006.04
-1040.82 2256.54 3005.66
-1040.58 2256.51 3005.81
-1039.26 2256.55 3006.62
-1039.22 2256.54 3006.7
-1040.15 2256.44 3006.17
-1038.22 2256.66 3006.91
-1040.9 2256.63 3005.33
-1040.88 2256.59 3005.47
-1041.15 2257.19 3003.83
-1040.91 2257.25 3003.85
-1040.99 2257.19 3003.89
-1041.07 2257.14 3003.92
-1038.66 2258.66 3002.36
-1038.94 2258.56 3002.44
-1038.25 2258.5 3003.07
-1039.64 2258.02 3003.24
-1040.03 2257.59 3003.84
-1039.92 2257.63 3003.78
-1040.49 2257.41 3003.83
-1040.36 2257.35 3004.02
-1040.25 2257.31 3004.21
-1040.59 2257.31 3003.92
-1040.76 2257.26 3003.91
-1040.83 2257.29 3003.83
-1040.68 2257.23 3004.01
-1037.99 2257.27 3005.68
-1037.89 2257.14 3005.92
-1038.09 2257.87 3004.66
-1038.21 2257.41 3005.39
-1038.23 2257.32 3005.55
-1037.66 2256.94 3006.27
-1037.95 2257.02 3006.11
-1036.47 2256.93 3006.45
-1037.33 2256.91 3006.41
-1034.63 2257.07 3006.29
-1034.86 2256.94 3006.46
-1035.26 2256.86 3006.57
-1035.05 2256.87 3006.57
-1035.6 2256.93 3006.43
-1033.11 2258.99 3002.64
-1032.91 2259.12 3002.43
-1033.3 2258.85 3002.88
-1033.54 2258.6 3003.32
-1033.84 2257.94 3004.67
-1034.11 2257.32 3005.96
-1034.46 2257.09 3006.32
-1052.22 2265.54 2977.62
-1052.87 2265.35 2977.62
-1053.23 2265.19 2977.3
-1054.09 2265.27 2976.2
-1052.59 2265.4 2977.77
-1055.3 2266.4 2973.23
-1054.64 2266.29 2974.21
-1054.45 2266.12 2974.66
-1055.74 2266.63 2972.45
-1055.98 2266.74 2972.08
-1056.16 2266.86 2971.72
-1056.04 2267.29 2970.94
-1056.24 2266.99 2971.36
-1055.59 2267.64 2970.64
-1054.99 2267.75 2970.8
-1054.68 2266.72 2973.12
-1053.31 2266.7 2974.3
-1055.19 2266.83 2972.34
-1054.89 2267.22 2971.71
-1055.05 2267.44 2971.28
-1052.78 2266.32 2975.12
-1052.65 2266.12 2975.56
-1052.6 2266.05 2975.99
-1052.48 2265.98 2976.54
-987.271 2254.17 3027.08
-987.683 2254.05 3026.93
-988.053 2253.95 3026.78
-988.421 2253.79 3026.86
-988.952 2253.63 3026.68
-986.906 2254.33 3027
-992.465 2252.84 3025.53
-993.115 2252.63 3025.62
-990.523 2253.25 3026.18
-990.759 2253.17 3026.3
-992.275 2252.91 3025.29
-986 2254.81 3026.89
-985.627 2255.04 3026.95
-986.314 2254.65 3026.78
-986.672 2254.46 3026.79
-982.847 2257.04 3027.58
-982.625 2257.18 3027.57
-982.622 2257.18 3027.8
-982.322 2257.37 3027.91
-982.135 2257.48 3028.01
-981.774 2257.69 3028.2
-981.913 2257.61 3028.05
-981.495 2257.81 3028.23
-981.373 2257.86 3028.38
-981.211 2257.92 3028.49
-981.18 2257.94 3028.69
-981.134 2257.96 3028.89
-981.599 2257.77 3028.11
-980.933 2257.99 3029.1
-980.69 2258.04 3029.34
-979.553 2258.19 3029.37
-979.499 2258.2 3029.44
-978.685 2258.33 3029.42
-978.619 2258.37 3029.51
-978.461 2258.41 3029.49
-978.039 2258.58 3029.66
-977.982 2258.63 3029.73
-977.841 2258.66 3029.68
-977.856 2258.71 3029.81
-978.07 2258.48 3029.45
-977.98 2258.53 3029.5
-978.158 2258.45 3029.42
-983.152 2256.82 3027.41
-984.822 2255.53 3027.07
-985.118 2255.35 3027.05
-983.871 2256.24 3027.18
-983.014 2256.92 3027.27
-985.299 2255.24 3026.96
-977.743 2258.92 3030.13
-977.758 2258.82 3029.96
-977.751 2258.76 3029.82
-977.648 2259 3030.17
-977.644 2259.11 3030.35
-977.61 2259.34 3030.7
-977.577 2259.23 3030.48
-977.509 2259.42 3030.74
-973.851 2263.92 3031.99
-973.766 2263.99 3032
-973.684 2264.05 3032.01
-973.998 2263.76 3031.67
-973.901 2263.84 3031.63
-973.816 2263.91 3031.76
-973.806 2263.91 3031.6
-974.231 2263.64 3031.92
-974.1 2263.69 3031.73
-973.751 2264.14 3032.68
-973.686 2264.12 3032.34
-973.59 2264.11 3032.01
-976.473 2261.31 3032.16
-976.354 2261.32 3031.97
-976.612 2260.63 3031.35
-976.694 2260.18 3030.78
-976.797 2260.03 3030.76
-976.918 2259.9 3030.74
-977.052 2259.76 3030.69
-977.364 2259.53 3030.74
-977.236 2259.51 3030.56
-977.075 2259.62 3030.53
-976.235 2261.37 3031.82
-976.001 2262.05 3032.45
-975.753 2262.3 3032.44
-975.385 2262.64 3032.39
-975.495 2262.44 3032.22
-975.177 2262.84 3032.33
-975.004 2263.02 3032.28
-974.479 2263.46 3031.99
-974.587 2263.4 3032.09
-974.708 2263.34 3032.22
-974.356 2263.52 3031.88
-974.237 2263.58 3031.73
-974.831 2263.19 3032.18
-974.614 2264.6 3036.46
-974.093 2264.38 3034.62
-974.014 2264.43 3034.73
-974.457 2264.5 3035.69
-973.682 2264.35 3033.74
-973.704 2264.26 3033.37
-973.688 2264.2 3032.86
-973.636 2264.24 3033.02
-994.735 2252.06 3023.96
-994.348 2252.23 3024.19
-994.126 2252.31 3024.85
-995.07 2251.9 3023.29
-993.488 2252.51 3025.23
-995.305 2251.77 3022.68
-995.637 2251.47 3021.36
-995.539 2251.58 3021.94
-995.726 2251.09 3019.6
-995.809 2250.72 3017.74
-996.036 2250.55 3017.08
-995.916 2250.57 3017.01
-996.146 2250.47 3016.65
-996.028 2250.49 3016.62
-996.416 2250.32 3015.35
-996.324 2250.34 3015.45
-996.172 2250.38 3015.63
-996.316 2250.35 3015.15
-996.095 2250.4 3015.76
-996.039 2250.43 3015.99
-998.553 2250.46 3014.48
-997.915 2250.29 3013.9
-998.032 2250.31 3013.98
-998.315 2250.38 3014
-998.115 2250.34 3013.57
-998.063 2250.32 3013.74
-997.59 2250.23 3013.58
-997.345 2250.22 3013.41
-997.437 2250.22 3013.34
-997.794 2250.27 3013.49
-997.644 2250.24 3013.32
-997.095 2250.24 3013.33
-997.235 2250.23 3013.43
-996.997 2250.24 3013.37
-996.909 2250.24 3013.43
-996.761 2250.25 3014.29
-996.78 2250.24 3013.68
-996.803 2250.25 3013.42
-996.591 2250.29 3014.86
-1009.03 2256.12 3027.68
-1008.34 2255.76 3025.63
-1008.62 2255.86 3025.89
-1008.33 2255.69 3023.59
-1007.82 2255.5 3022.19
-1010.06 2256.49 3029.25
-1010 2256.46 3028.89
-1009.81 2256.4 3028.49
-1009.59 2256.32 3028.07
-1009.3 2256.2 3027.62
-1007.49 2255.37 3020.33
-1007.18 2255.26 3020.14
-1006.93 2255.17 3019.88
-1006.79 2255.13 3019.52
-1007.91 2255.5 3020.97
-1006.56 2255.03 3019.44
-1010.2 2256.49 3029.94
-1010.25 2256.51 3029.81
-1010.28 2256.54 3029.55
-1010.34 2256.54 3029.69
-1005.69 2254.58 3020.38
-1005.97 2254.73 3019.85
-1006.26 2254.88 3019.36
-999.903 2251 3015.92
-999.655 2250.89 3015.3
-999.325 2250.73 3014.91
-1001.35 2251.82 3018.97
-1000.32 2251.21 3017.4
-1000.32 2251.19 3016.23
-1000.11 2251.1 3015.81
-998.945 2250.58 3014.6
-999.043 2250.62 3014.46
-998.667 2250.49 3014.36
-998.727 2250.52 3014.14
-1003.37 2253.11 3021.42
-1004.65 2253.97 3021.41
-1005.02 2254.21 3020.84
-1005.35 2254.4 3020.65
-1001.93 2252.19 3019.28
-895.655 2318.57 2983.13
-896.127 2318.52 2982.38
-934.54 2275.38 3040.04
-934.806 2275.33 3040.37
-934.707 2275.34 3040.11
-934.449 2275.39 3039.76
-934.375 2275.41 3039.52
-934.307 2275.43 3039.26
-934.222 2275.47 3039.07
-934.107 2275.53 3038.94
-934.001 2275.64 3038.7
-933.778 2275.82 3038.43
-933.888 2275.76 3038.35
-933.697 2275.89 3038.19
-933.654 2275.94 3037.98
-933.628 2275.97 3037.73
-933.593 2276.01 3037.49
-933.332 2276.34 3036.8
-933.445 2276.2 3037.07
-933.56 2276.14 3036.93
-932.942 2276.73 3036.47
-933.115 2276.58 3036.46
-933.21 2276.55 3036.3
-932.613 2277.26 3035.32
-932.344 2278.08 3032.89
-932.336 2277.9 3033.69
-932.716 2277.23 3035.14
-931.097 2279.23 3032.28
-931.958 2278.49 3032.27
-932.267 2278.23 3032.29
-928.717 2280.86 3033.26
-928.301 2280.8 3034.51
-928.197 2281.1 3033.73
-927.325 2281.2 3035.22
-928.205 2281.17 3033.42
-926.555 2281.5 3035.72
-926.429 2281.6 3035.68
-929.84 2280.21 3032.33
-930.175 2279.96 3032.37
-929.522 2280.44 3032.4
-929.124 2280.69 3032.76
-926.176 2281.71 3035.83
-925.965 2282.02 3035.35
-925.677 2282.44 3034.69
-924.792 2283.06 3027.21
-924.995 2282.88 3027.45
-925.253 2282.71 3027.57
-925.373 2282.62 3027.7
-925.411 2282.58 3027.9
-925.897 2282.48 3031.89
-926.861 2282.01 3031.92
-925.575 2282.4 3028.76
-925.601 2282.38 3028.98
-925.489 2282.47 3028.58
-925.497 2282.49 3028.32
-925.399 2282.56 3028.16
-925.805 2282.4 3030.68
-925.602 2282.39 3029.27
-925.689 2282.37 3029.61
-926.463 2282 3029.04
-926.497 2281.98 3028.8
-925.924 2282.29 3034.64
-927.048 2281.84 3033.69
-926.911 2281.86 3034
-926.203 2282.13 3034.51
-928.159 2281.27 3033.11
-928.059 2281.38 3032.8
-927.907 2281.47 3032.59
-928.095 2281.37 3032.27
-928.118 2281.36 3032.01
-927.978 2281.41 3031.7
-927.971 2281.39 3031.22
-911.483 2292.91 3021.91
-911.554 2292.85 3021.95
-911.47 2292.93 3021.79
-911.858 2292.6 3022.29
-911.793 2292.65 3022.25
-911.728 2292.7 3022.18
-911.665 2292.75 3022.11
-911.654 2292.77 3022.02
-911.621 2292.81 3021.92
-911.919 2292.55 3022.35
-911.992 2292.51 3022.28
-912.084 2292.47 3022.2
-912.47 2292.3 3022.24
-912.381 2292.33 3022.15
-912.31 2292.37 3022.08
-912.241 2292.41 3022.04
-912.171 2292.43 3022.13
-913.752 2291.95 3021.69
-913.818 2291.93 3021.78
-912.879 2292.16 3022.24
-913.036 2292.11 3022.06
-912.916 2292.15 3022.15
-912.681 2292.22 3022.18
-914.498 2291.76 3020.91
-914.365 2291.8 3021.04
-914.394 2291.78 3021.17
-914.785 2291.73 3020.2
-914.462 2291.84 3020.42
-914.423 2291.84 3020.53
-914.411 2291.83 3020.68
-914.341 2291.83 3020.88
-913.679 2291.98 3021.47
-913.71 2291.97 3021.58
-914.877 2291.73 3019.88
-914.691 2291.82 3020.05
-914.853 2291.82 3019.64
-914.845 2291.9 3019.4
-914.827 2291.99 3019.16
-922.86 2285.37 3020.12
-922.54 2285.71 3019.56
-921.736 2286.03 3019.92
-921.703 2286.28 3019.08
-922.027 2286.06 3019.12
-921.882 2286.42 3018.24
-921.611 2286.63 3018.08
-921.365 2286.82 3017.92
-921.376 2286.88 3017.44
-922.773 2285.5 3019.82
-925.872 2283.71 3019.73
-924.989 2284.41 3018.68
-927.902 2281.41 3026.58
-924.166 2285.06 3017.87
-923.777 2285.1 3018.99
-923.677 2285.03 3019.53
-922.851 2286.05 3016.98
-922.84 2286.02 3017.37
-922.914 2285.9 3017.88
-927.455 2281.65 3026.77
-927 2281.97 3026.54
-927.094 2281.88 3026.75
-926.178 2282.37 3026.93
-926.025 2282.5 3026.73
-925.004 2283.01 3026.95
-925.138 2282.89 3027.11
-925.247 2282.78 3027.3
-911.374 2293.05 3021.68
-911.36 2293.09 3021.58
-911.444 2292.97 3021.7
-911.286 2293.27 3021.35
-911.355 2293.12 3021.48
-911.323 2293.19 3021.42
-911.284 2293.3 3021.26
-911.243 2293.38 3021.21
-911.281 2293.45 3021.04
-911.688 2293.46 3020.51
-911.813 2293.55 3020.29
-911.543 2293.42 3020.71
-911.821 2293.44 3020.39
-911.856 2293.36 3020.45
-912.584 2293.54 3019.45
-912.155 2293.36 3020.14
-912.685 2293.46 3019.45
-911.963 2293.34 3020.35
-911.341 2293.45 3020.92
-911.404 2293.37 3020.91
-914.705 2292.16 3018.95
-913.647 2292.97 3019.01
-913.301 2293.2 3019.13
-913.428 2293.08 3019.18
-913.821 2292.81 3019.05
-914.028 2292.69 3018.99
-914.28 2292.57 3018.81
-912.758 2293.38 3019.49
-912.807 2293.28 3019.58
-912.835 2293.19 3019.68
-914.437 2292.37 3019
-903.925 2309.62 2997.63
-904.099 2309.53 2997.38
-904.137 2309.42 2997.61
-904.116 2309.57 2997.12
-904.104 2309.63 2996.86
-903.993 2309.41 2997.92
-903.95 2309.32 2998.22
-904.129 2309.08 2998.35
-904.487 2308.83 2998.15
-904.198 2309.11 2998.16
-895.75 2318.43 2983.2
-895.496 2318.22 2984.03
-895.697 2318.53 2983.13
-895.305 2317.98 2985.01
-895.246 2317.93 2985.31
-895.325 2317.95 2985.09
-895.429 2317.97 2984.83
-895.429 2318 2984.75
-895.54 2318.07 2984.34
-895.526 2318.1 2984.29
-896.04 2318.16 2983.41
-895.943 2318.23 2983.38
-895.863 2318.3 2983.32
-895.516 2318.02 2984.53
-895.567 2318.05 2984.37
-898.078 2316.97 2984.44
-897.911 2317.08 2983.97
-897.87 2317.1 2984.3
-898.055 2317.01 2986.05
-897.934 2317.06 2984.74
-896.608 2317.47 2987.22
-897.308 2317.28 2987.48
-897.554 2317.19 2986.89
-897.895 2317.08 2986.12
-895.889 2317.66 2986.8
-897.766 2317.19 2982.84
-897.95 2317.08 2982.94
-897.843 2317.14 2983.32
-897.871 2317.13 2983.59
-895.58 2317.72 2986.43
-895.793 2317.67 2986.57
-895.468 2317.74 2986.04
-895.593 2317.71 2986.19
-895.464 2317.75 2985.83
-895.345 2317.8 2985.75
-895.309 2317.84 2985.59
-895.302 2317.87 2985.42
-904.32 2309.46 2996.64
-940.948 2274.83 3042.03
-940.766 2274.84 3042.16
-940.967 2274.81 3041.4
-940.9 2274.84 3041.61
-940.499 2274.83 3042.43
-934.202 2277.33 3030.4
-936.333 2276.24 3031.76
-935.359 2276.76 3031.17
-934.233 2277.26 3031.01
-937.078 2275.78 3032.51
-936.404 2276.16 3032.09
-936.7 2275.96 3032.41
-937.323 2275.68 3032.76
-933.847 2277.42 3030.92
-933.497 2277.52 3031.3
-937.628 2275.52 3033.35
-937.793 2275.45 3033.61
-937.533 2275.58 3033.05
-940.87 2274.81 3040.78
-940.839 2274.82 3041
-940.812 2274.82 3040.26
-940.466 2275 3038.69
-939.957 2275.21 3037.26
-939.09 2275.3 3035.98
-940.776 2274.84 3039.75
-938.143 2275.39 3034.14
-937.931 2275.43 3033.88
-938.218 2275.38 3035.05
-938.151 2275.4 3034.68
-937.493 2275.05 3042.84
-937.045 2275.11 3042.66
-939.276 2274.91 3042.66
-939.219 2274.93 3042.85
-937.543 2275.02 3042.62
-937.4 2275 3042.31
-937.829 2274.96 3042.38
-946.204 2268.68 3033.55
-944.983 2268.76 3028.41
-945.852 2268.54 3031.32
-945.172 2268.56 3028.3
-944.965 2268.28 3026.3
-944.915 2268.15 3025.35
-947.04 2268.46 3035.87
-946.631 2268.58 3034.86
-948.572 2267.57 3037.33
-948.081 2267.77 3036.71
-947.733 2267.95 3036.31
-947.343 2268.17 3035.82
-943.78 2268.96 3021.51
-944.672 2268.17 3023.49
-944.949 2267.99 3024.4
-942.943 2269.67 3020
-943.88 2268.8 3020.87
-929.952 2280.08 3029.25
-929.429 2280.46 3029.59
-928.941 2280.68 3027.96
-932.918 2277.84 3031.15
-933.124 2277.72 3031.42
-932.627 2278.06 3030.92
-932.22 2278.39 3030.72
-933.257 2277.61 3031.71
-931.784 2278.71 3030.23
-930.256 2279.91 3029.96
-930.573 2279.68 3030.39
-936.537 2275.15 3042.24
-936.103 2275.16 3041.97
-934.966 2275.3 3040.53
-935.171 2275.27 3040.83
-935.563 2275.18 3041.15
-935.877 2275.14 3041.56
-974.347 2264.57 3035.85
-957.73 2266.22 3047.39
-957.606 2266.24 3047.32
-957.544 2266.25 3047.36
-959.707 2265.62 3048.94
-958.684 2265.98 3048.26
-957.868 2266.19 3047.46
-958.855 2265.94 3048.17
-959.031 2265.9 3048.24
-958.07 2266.19 3047.35
-957.845 2266.21 3047.28
-957.632 2266.32 3046.28
-958.059 2266.21 3046.8
-958.236 2266.21 3046.79
-957.804 2266.27 3046.55
-958.589 2266.19 3047.07
-958.875 2266.18 3047.26
-959.079 2266.16 3047.32
-959.311 2266.1 3047.43
-959.402 2266.13 3047.3
-957.253 2266.43 3045.68
-957.229 2266.42 3045.97
-957.366 2266.38 3046.09
-957.17 2266.44 3045.48
-959.903 2265.86 3047.89
-959.815 2265.83 3048.03
-959.703 2265.81 3048.15
-959.568 2265.83 3048.19
-959.938 2265.65 3048.61
-959.898 2265.64 3048.73
-959.749 2265.64 3048.8
-952.808 2265.82 3036.12
-952.701 2265.91 3037.18
-952.525 2265.92 3038.76
-952.686 2265.89 3038.87
-953.259 2265.83 3040.44
-953.181 2265.87 3039.85
-953.015 2265.87 3039.9
-953.134 2265.84 3040.32
-953.456 2265.8 3040.76
-952.83 2265.87 3039.89
-953.781 2265.82 3041.27
-954.133 2265.88 3041.76
-954.957 2266.01 3042.74
-955.826 2266.2 3043.93
-956.212 2266.27 3044.51
-956.508 2266.33 3044.86
-956.724 2266.39 3045.25
-956.909 2266.4 3045.23
-953.608 2265.09 3033.39
-955.059 2264.47 3032.51
-953.085 2265.33 3033.67
-952.884 2265.64 3035.06
-952.843 2265.58 3034.6
-952.593 2265.57 3034.16
-957.363 2263.53 3031.52
-956.522 2263.85 3031.68
-957.796 2263.33 3031.15
-952.539 2265.82 3035.87
-959.491 2262.85 3029.91
-959.564 2262.82 3029.65
-959.236 2262.87 3029.73
-958.901 2262.93 3029.9
-958.371 2263.03 3029.97
-958.021 2263.08 3029.83
-957.643 2263.3 3030.82
-957.798 2263.22 3030.48
-957.578 2263.22 3030.16
-957.659 2263.16 3029.81
-959.951 2262.76 3029.43
-959.756 2262.79 3029.52
-960.172 2262.74 3029.45
-960.352 2262.72 3029.43
-962.812 2262.88 3029.26
-962.972 2262.96 3029.01
-963.296 2263.02 3029.23
-967.365 2263.99 3031.51
-966.833 2263.86 3031.27
-968.088 2264.15 3031.63
-965.182 2263.48 3030.4
-963.746 2263.13 3029.43
-961.847 2262.78 3028.71
-961.532 2262.77 3028.7
-961.258 2262.76 3028.78
-961.043 2262.74 3028.94
-960.791 2262.72 3029.06
-960.578 2262.72 3029.16
-960.371 2262.74 3029.19
-962.23 2262.8 3028.86
-962.033 2262.79 3028.78
-962.467 2262.82 3029.02
-973.763 2264.53 3034.82
-973.327 2264.5 3033.82
-972.059 2264.72 3031.78
-971.908 2264.77 3031.68
-971.984 2264.75 3031.63
-972.329 2264.63 3032.12
-972.192 2264.68 3031.94
-972.48 2264.58 3032.26
-972.591 2264.55 3032.32
-972.697 2264.51 3032.35
-973.216 2264.43 3033.06
-973.036 2264.45 3032.77
-972.861 2264.46 3032.44
-972.752 2264.49 3032.27
-973.393 2264.4 3033.3
-973.417 2264.47 3033.72
-971.911 2264.77 3031.53
-971.86 2264.78 3031.41
-971.731 2264.78 3031.36
-971.601 2264.77 3031.25
-971.475 2264.76 3031.17
-971.236 2264.74 3031.23
-971.37 2264.75 3031.06
-971.278 2264.75 3031.08
-970.97 2264.75 3031.2
-970.709 2264.7 3031.2
-970.335 2264.6 3031.29
-970.48 2264.66 3031.14
-969.945 2264.5 3031.47
-970.133 2264.56 3031.29
-971.074 2264.76 3031.15
-971.181 2264.76 3031.08
-968.602 2264.27 3031.57
-968.772 2264.35 3031.37
-969.143 2264.4 3031.38
-969.505 2264.46 3031.32
-949.54 2267.16 3038.53
-948.793 2267.41 3037.38
-950.526 2266.84 3039.81
-949.808 2267.03 3038.73
-950.915 2266.69 3040.28
-951.054 2266.59 3040.31
-951.45 2266.49 3040.94
-955.163 2266.77 3046.01
-954.859 2266.83 3045.74
-953.829 2266.81 3044.51
-953.689 2266.91 3044.55
-954.662 2266.78 3045.4
-952.499 2266.59 3042.8
-952.253 2266.49 3042.35
-952.829 2266.74 3043.39
-952.091 2266.38 3041.89
-951.894 2266.42 3041.63
-951.717 2266.46 3041.41
-957.306 2266.32 3047.09
-957.091 2266.41 3046.98
-956.863 2266.52 3046.82
-956.645 2266.61 3046.8
-956.702 2266.58 3046.71
-955.999 2266.72 3046.52
-955.362 2266.81 3046.29
-955.467 2266.76 3046.26
-955.808 2266.6 3046.17
-955.674 2266.62 3046.11
-955.571 2266.7 3046.22
-956.177 2266.7 3046.59
-956.432 2266.64 3046.63
-956.225 2266.66 3046.47
-1011.66 2256.67 3030.68
-1011.73 2256.7 3030.53
-1011.68 2256.6 3030.98
-1011.55 2256.63 3030.84
-1011.89 2256.78 3030.11
-1011.77 2256.76 3030.23
-1011.77 2256.73 3030.36
-1011.75 2256.39 3031.66
-1011.62 2256.45 3031.47
-1011.73 2256.43 3031.54
-1011.4 2256.49 3031.27
-1011.59 2256.38 3031.55
-1011.5 2256.51 3031.25
-1011.61 2256.53 3031.19
-1011.74 2256.49 3031.33
-1011.61 2256.56 3031.05
-1011.76 2256.45 3031.46
-1010.48 2256.53 3030.15
-1010.29 2256.49 3030.09
-1010.43 2256.48 3030.49
-1010.56 2256.54 3030.28
-1010.55 2256.48 3030.68
-1010.69 2256.49 3030.81
-1010.87 2256.53 3030.88
-1011.07 2256.56 3030.9
-1011.35 2256.51 3031.14
-1011.22 2256.54 3031.01
-1008.93 2256.63 3013.4
-1007.66 2255.62 3017.26
-1008.25 2256.04 3015.62
-1008.65 2256.52 3013.63
-1011.65 2256.77 3029.27
-1011.8 2256.77 3029.25
-1011.94 2256.75 3029.32
-1011.86 2256.77 3029.49
-1011.87 2256.8 3029.94
-1011.83 2256.79 3029.7
-1010.91 2256.66 3028.96
-1011.07 2256.69 3029.09
-1011.21 2256.7 3029.07
-1011.38 2256.73 3029.07
-1011.51 2256.75 3029.28
-1010.79 2256.64 3029.11
-1008.86 2255.94 3026.05
-1010.2 2256.51 3028.86
-1010.47 2256.58 3029.04
-1010.67 2256.62 3029.26
-1007.42 2255.5 3017.67
-1007.22 2255.34 3018.39
-1007.27 2255.33 3018.99
-1007.25 2255.43 3017.85
-1007.39 2255.36 3019.55
-1034.63 2256.73 3007.21
-1034.47 2256.75 3007.34
-1034.24 2256.79 3007.37
-1034.07 2256.84 3007.37
-1033.9 2256.92 3007.32
-1033.76 2256.98 3007.21
-1033.48 2257.09 3007.23
-1033.25 2257.17 3007.35
-1033.59 2257.09 3007.08
-1032.76 2257.45 3006.99
-1031.91 2258.12 3006.36
-1032.83 2257.47 3006.81
-1031.87 2258.25 3006.01
-1033.04 2257.24 3007.45
-1033.05 2257.26 3007.31
-1033.02 2257.28 3007.19
-1033.16 2257.26 3007.04
-1033.02 2257.33 3006.99
-1031.19 2258.79 3005.34
-1031.81 2259.09 3003.76
-1032.56 2259.1 3002.91
-1031.52 2258.83 3004.76
-1031.91 2258.91 3004.08
-1031.86 2258.38 3005.61
-1031.42 2258.72 3005.22
-1032.87 2259.02 3002.82
-1032.89 2259.07 3002.61
-1036.75 2256.62 3007.18
-1035.57 2256.7 3007.12
-1035.21 2256.7 3007.1
-1034.89 2256.71 3007.11
-1041.09 2257.04 3004.1
-1041.03 2256.91 3004.44
-1041.01 2257 3004.25
-1040.98 2256.86 3004.6
-1040.94 2256.8 3004.77
-1040.91 2256.75 3004.96
-1040.86 2256.71 3005.13
-1040.46 2256.48 3005.9
-1040.78 2256.58 3005.56
-1040.59 2256.54 3005.69
-1039.32 2256.54 3006.53
-1038.44 2256.73 3006.71
-1038.19 2256.69 3006.83
-1040.17 2256.46 3006.06
-1040.81 2256.68 3005.29
-1040.84 2257.19 3003.98
-1040.93 2257.13 3004.03
-1041.01 2257.08 3004.07
-1039.03 2258.46 3002.77
-1038.42 2258.44 3003.18
-1038.69 2258.39 3003.2
-1039.61 2257.95 3003.46
-1039.97 2257.5 3004.07
-1040.34 2257.23 3004.33
-1040.51 2257.26 3004.07
-1040.42 2257.23 3004.24
-1040.29 2257.2 3004.41
-1040.61 2257.2 3004.12
-1040.76 2257.16 3004.08
-1040.69 2257.14 3004.2
-1038.18 2257.14 3005.88
-1038.24 2257.25 3005.69
-1038.2 2257.81 3004.75
-1038.37 2257.4 3005.36
-1038.4 2257.29 3005.54
-1038.41 2257.22 3005.67
-1037.45 2256.88 3006.43
-1037.84 2256.91 3006.31
-1038.23 2257.01 3006.1
-1036.5 2256.87 3006.56
-1034.7 2256.95 3006.52
-1034.89 2256.87 3006.63
-1035.64 2256.88 3006.54
-1035.16 2256.83 3006.65
-1035.63 2256.83 3006.66
-1033.08 2258.94 3002.85
-1033.39 2258.67 3003.29
-1033.58 2258.06 3004.57
-1033.7 2258 3004.61
-1034.33 2257.07 3006.41
-1033.89 2257.45 3005.79
-1034.14 2257.16 3006.3
-1034.51 2256.97 3006.55
-1052.31 2265.64 2977.53
-1052.44 2265.91 2976.8
-1052.85 2265.46 2977.55
-1053.28 2265.29 2977.18
-1054.07 2265.38 2976.12
-1052.41 2265.7 2977.39
-1054.23 2266.58 2973.95
-1053.92 2266.48 2974.43
-1054.35 2265.95 2974.98
-1055.72 2266.79 2972.13
-1055.87 2266.9 2971.81
-1056.02 2266.99 2971.53
-1055.82 2267.24 2971.17
-1055.3 2267.61 2970.88
-1052.96 2266.35 2975.02
-1055.33 2266.9 2972.12
-1055.45 2267.04 2971.78
-1055.61 2267.18 2971.44
-1052.76 2266.06 2975.55
-1052.72 2266 2975.93
-1052.63 2265.97 2976.33
-987.123 2254.24 3026.92
-987.593 2254.09 3026.85
-987.992 2253.99 3026.67
-988.424 2253.81 3026.69
-990.413 2253.3 3026.02
-988.972 2253.66 3026.45
-992.918 2252.72 3025.19
-992.074 2253 3024.99
-992.746 2252.8 3024.81
-986.093 2254.77 3026.7
-985.725 2254.99 3026.82
-985.383 2255.2 3026.79
-986.456 2254.57 3026.61
-986.882 2254.36 3026.71
-982.295 2257.38 3027.35
-982.293 2257.38 3027.6
-982.674 2257.15 3027.31
-982.071 2257.51 3027.67
-981.86 2257.64 3027.75
-981.704 2257.72 3027.92
-981.451 2257.84 3027.99
-981.326 2257.89 3028.01
-981.343 2257.87 3028.19
-981.224 2257.92 3028.29
-981.005 2257.98 3028.66
-981.161 2257.96 3028.43
-980.952 2257.99 3028.87
-981.53 2257.81 3027.85
-980.697 2258.02 3029.11
-980.667 2258.03 3029.27
-979.583 2258.17 3029.25
-979.52 2258.18 3029.31
-978.56 2258.32 3029.3
-978.486 2258.37 3029.39
-978.211 2258.42 3029.36
-977.851 2258.6 3029.54
-977.725 2258.65 3029.55
-977.74 2258.71 3029.69
-977.9 2258.5 3029.34
-977.984 2258.46 3029.3
-977.797 2258.55 3029.38
-978.031 2258.43 3029.25
-984.715 2255.6 3026.86
-983.876 2256.24 3026.97
-984.893 2255.5 3026.8
-983.072 2256.89 3027.03
-985.081 2255.39 3026.74
-977.658 2258.88 3029.98
-977.662 2258.8 3029.83
-977.645 2258.75 3029.7
-977.548 2258.95 3029.98
-977.537 2259.05 3030.14
-977.537 2259.15 3030.3
-977.482 2259.32 3030.54
-977.452 2259.23 3030.36
-977.381 2259.41 3030.57
-973.726 2263.98 3031.76
-973.637 2264.05 3031.77
-973.559 2264.11 3031.81
-973.895 2263.83 3031.47
-974.002 2263.74 3031.52
-973.793 2263.92 3031.44
-973.709 2263.99 3031.59
-973.697 2264 3031.43
-974.117 2263.65 3031.59
-973.613 2264.18 3032.36
-973.595 2264.21 3032.56
-973.501 2264.18 3032.03
-973.468 2264.18 3031.82
-976.493 2260.66 3031.19
-976.575 2260.23 3030.64
-976.702 2260.03 3030.58
-976.776 2259.9 3030.57
-976.924 2259.76 3030.55
-977.248 2259.39 3030.38
-977.116 2259.47 3030.36
-976.939 2259.6 3030.34
-976.101 2261.43 3031.66
-976.381 2260.7 3031.03
-975.819 2262.07 3032.16
-975.636 2262.18 3032.02
-975.268 2262.65 3032.13
-975.401 2262.4 3031.96
-975.091 2262.85 3032.09
-974.929 2263.02 3032.03
-974.427 2263.41 3031.68
-974.348 2263.47 3031.67
-974.555 2263.35 3031.84
-974.656 2263.29 3031.93
-974.24 2263.54 3031.55
-974.136 2263.61 3031.46
-974.773 2263.18 3031.95
-973.593 2264.36 3033.6
-973.869 2264.49 3034.76
-973.505 2264.44 3033.77
-973.576 2264.3 3033.18
-973.526 2264.27 3032.7
-973.468 2264.32 3032.86
-994.759 2252.02 3023.44
-994.479 2252.15 3023.76
-994.005 2252.35 3024.06
-993.813 2252.41 3024.65
-994.986 2251.91 3022.79
-993.269 2252.59 3024.89
-995.31 2251.69 3022.06
-995.444 2251.52 3021.21
-995.583 2251.17 3019.72
-995.669 2250.81 3017.94
-995.759 2250.64 3017.14
-995.791 2250.57 3016.69
-995.882 2250.51 3016.46
-995.753 2250.55 3016.23
-995.977 2250.45 3016.11
-995.875 2250.47 3016.03
-996.534 2250.29 3014.59
-996.435 2250.32 3014.84
-996.24 2250.36 3014.99
-996.351 2250.33 3014.4
-996.102 2250.39 3015.24
-995.988 2250.42 3015.45
-998.439 2250.42 3013.96
-997.898 2250.29 3013.43
-998.245 2250.37 3013.56
-997.994 2250.33 3013.23
-998.173 2250.38 3013.22
-998.121 2250.41 3012.95
-997.458 2250.24 3013.06
-997.066 2250.26 3012.92
-997.169 2250.26 3012.88
-997.191 2250.28 3012.65
-997.776 2250.31 3012.96
-997.654 2250.27 3012.98
-997.379 2250.29 3012.56
-996.824 2250.28 3012.62
-996.738 2250.28 3012.7
-996.637 2250.28 3012.74
-996.528 2250.29 3012.74
-996.664 2250.26 3014.12
-996.625 2250.26 3013.48
-996.546 2250.28 3013.05
-1010.3 2256.55 3029.29
-1007.23 2255.3 3019.62
-1007.03 2255.22 3019.39
-1006.75 2255.15 3018.92
-1006.85 2255.17 3018.98
-1006.61 2255.1 3018.82
-1010.43 2256.54 3029.91
-1010.49 2256.57 3029.78
-1010.48 2256.58 3029.59
-1005.7 2254.59 3019.57
-1005.44 2254.45 3019.88
-1005.96 2254.73 3019.23
-1006.27 2254.93 3018.75
-999.883 2251.02 3015.12
-999.479 2250.83 3014.62
-999.121 2250.65 3014.22
-1000.74 2251.46 3017.3
