-907.919 2320.22 4582.6
-907.184 2320.68 4581.65
-906.374 2321.1 4580.89
-909.57 2320.08 4582.67
-910.799 2319.77 4583.19
-928.579 2305.82 4644.76
-928.519 2305.81 4644.78
-928.414 2305.85 4644.76
-928.471 2305.84 4644.76
-928.351 2305.87 4644.75
-946.912 2311.35 4638.79
-946.844 2311.2 4638.92
-946.711 2311.1 4639.02
-946.769 2310.92 4639.16
-944.678 2308.93 4641.06
-944.88 2308.98 4640.98
-944.488 2308.89 4641.17
-944.293 2308.8 4641.33
-944.103 2308.68 4641.51
-943.906 2308.62 4641.65
-943.69 2308.6 4641.75
-946.617 2310.99 4639.12
-946.551 2310.85 4639.24
-946.385 2310.63 4639.46
-946.421 2310.84 4639.26
-945.706 2309.62 4640.41
-945.519 2309.51 4640.51
-945.161 2309.21 4640.76
-946.031 2310.03 4640.05
-946.22 2310.55 4639.55
-941.022 2312.81 4638.82
-941.14 2313 4638.56
-941.116 2312.73 4638.89
-940.656 2311.13 4640.64
-940.724 2310.64 4641.32
-940.717 2310.47 4641.53
-940.849 2310.88 4640.92
-940.917 2311.04 4640.69
-940.911 2310.71 4641.15
-940.672 2311.44 4640.3
-940.799 2311.93 4639.76
-941.181 2312.61 4639
-940.988 2309.94 4642.03
-941.615 2309.56 4641.95
-940.996 2310.02 4641.91
-940.825 2310.18 4641.81
-940.939 2310.33 4641.58
-941.24 2313.24 4638.28
-941.192 2313.35 4638.14
-932.824 2310.86 4642.65
-932.437 2310.48 4643.15
-932.347 2310.41 4643.22
-932.255 2310.34 4643.28
-932.157 2310.29 4643.33
-932.089 2310.22 4643.4
-932.075 2310.16 4643.48
-932.017 2310.06 4643.58
-931.975 2309.97 4643.66
-931.972 2309.85 4643.76
-931.972 2309.72 4643.86
-932.058 2309.67 4643.93
-932.039 2309.54 4644.03
-932.131 2309.51 4644.06
-932.217 2309.48 4644.11
-932.504 2310.62 4643.04
-932.428 2310.55 4643.09
-932.576 2310.69 4642.98
-932.732 2310.88 4642.72
-932.692 2310.82 4642.83
-932.638 2310.76 4642.92
-942.766 2308.83 4641.88
-942.496 2309 4641.83
-942.294 2309.14 4641.84
-942.191 2309.16 4641.94
-943.242 2308.65 4641.87
-943.089 2308.74 4641.85
-942.876 2308.82 4641.85
-943.402 2308.67 4641.79
-932.21 2309.3 4644.25
-932.166 2309.4 4644.16
-932.207 2308.5 4645.05
-932.238 2309.19 4644.37
-932.265 2309.08 4644.49
-932.235 2308.75 4644.81
-932.229 2308.97 4644.61
-932.165 2308.77 4644.75
-932.142 2308.54 4644.97
-931.062 2307.19 4645.15
-931.33 2307.41 4645.25
-931.811 2307.93 4645.25
-932.061 2308.32 4645.11
-930.669 2306.93 4644.97
-930.883 2307.09 4645.05
-929.536 2306.21 4644.59
-929.793 2306.43 4644.63
-929.601 2306.33 4644.55
-929.209 2305.97 4644.56
-929.112 2305.91 4644.56
-929.398 2306.16 4644.52
-928.989 2305.83 4644.66
-929.047 2305.91 4644.57
-928.982 2305.9 4644.59
-928.958 2305.87 4644.63
-928.866 2305.83 4644.69
-928.923 2305.83 4644.67
-928.802 2305.83 4644.7
-930.386 2306.82 4644.81
-930.196 2306.68 4644.77
-929.894 2306.56 4644.6
-930.074 2306.66 4644.67
-930.556 2306.92 4644.87
-928.743 2305.83 4644.71
-928.633 2305.83 4644.73
-928.685 2305.84 4644.72
-946.763 2311.64 4638.5
-946.684 2311.7 4638.39
-946.727 2311.83 4638.16
-946.614 2311.78 4638.26
-946.705 2311.9 4638.05
-946.813 2311.54 4638.63
-946.601 2311.95 4637.96
-946.517 2312.02 4637.85
-957.011 2307.83 4643.71
-957.119 2308.37 4643.54
-957.087 2307.86 4643.67
-957.254 2308.54 4643.42
-957.568 2308.41 4643.31
-957.841 2308.48 4643.12
-958.225 2308.4 4642.9
-958.455 2308.57 4642.79
-958.895 2308.71 4642.6
-961.398 2306.58 4642.64
-961.255 2306.5 4642.74
-961.198 2306.54 4642.77
-959.633 2306.2 4643.17
-960.391 2306.27 4643.07
-961.014 2306.52 4642.88
-960.329 2306.35 4643.06
-961.098 2306.61 4642.8
-958.791 2306.66 4643.25
-959.076 2306.57 4643.21
-958.876 2306.69 4643.22
-959.264 2306.49 4643.18
-959.445 2306.38 4643.17
-958.32 2306.3 4643.44
-958.547 2306.76 4643.28
-958.656 2306.83 4643.23
-958.479 2306.67 4643.31
-958.417 2306.59 4643.35
-958.375 2306.45 4643.39
-958.249 2306.28 4643.46
-957.928 2306.44 4643.5
-957.76 2306.51 4643.56
-958.123 2306.35 4643.46
-957.367 2307.09 4643.61
-957.18 2307.89 4643.61
-961.369 2306.78 4642.59
-960.163 2308.2 4642.39
-961.089 2307.4 4642.5
-961.158 2307.16 4642.57
-961.3 2307.02 4642.58
-974.113 2305.61 4605.68
-973.818 2305.65 4606.18
-973.602 2305.71 4606.65
-974.772 2305.45 4604.98
-976.332 2305.07 4603.88
-978.87 2304.57 4602.87
-977.426 2304.64 4602.74
-980.141 2305.06 4605.12
-980.555 2304.78 4604.49
-980.584 2304.67 4604
-980.554 2304.59 4603.66
-980.386 2304.58 4603.52
-979.918 2304.62 4603.46
-980.119 2304.6 4603.49
-973.392 2305.71 4606.74
-973.196 2305.68 4606.84
-972.987 2305.65 4607.02
-972.735 2305.59 4607.16
-972.408 2305.51 4607.16
-971.849 2305.39 4607.07
-970.797 2305.15 4607.71
-971.667 2305.35 4606.86
-970 2305.05 4608.69
-969.073 2305 4609.69
-969.253 2305.01 4609.42
-969.452 2305.04 4609.12
-969.669 2305.05 4608.79
-968.946 2305.02 4609.98
-968.838 2305.01 4609.9
-966.98 2305.54 4610.04
-965.889 2305.96 4610.67
-964.44 2306.42 4610.83
-963.94 2306.61 4611.38
-964.03 2306.55 4610.97
-967.944 2305.25 4610.07
-967.477 2305.38 4610.02
-968.716 2305 4609.79
-968.61 2305.05 4609.95
-968.464 2305.09 4609.94
-968.294 2305.14 4609.9
-968.117 2305.19 4609.84
-952.841 2308.65 4612.32
-951.629 2309.36 4613.2
-951.285 2309 4611.95
-951.647 2308.34 4610.09
-952.004 2308.48 4610.88
-962.873 2306.91 4611.68
-959.72 2307.27 4612.76
-961.707 2307.07 4612.11
-960.296 2307.21 4612.63
-957.394 2307.34 4612.07
-962.389 2306.92 4611.47
-952.3 2308.09 4609.8
-951.834 2308.03 4609.14
-952.225 2307.89 4608.85
-956.362 2307.56 4612.23
-955.203 2307.69 4611.56
-953.642 2307.72 4609.41
-952.385 2307.81 4608.53
-963.508 2306.79 4611.75
-963.124 2306.82 4611.44
-979.85 2306.98 4613.12
-980.815 2305.29 4606.99
-981.187 2305.13 4607.03
-981.012 2305.2 4606.96
-980.581 2305.31 4606.84
-980.792 2305.24 4606.84
-980.532 2305.29 4606.74
-980.277 2305.2 4606.05
-980.536 2304.98 4605.46
-980.483 2304.93 4605.08
-980.486 2305.22 4606.55
-980.478 2305.17 4606.29
-980.514 2305.25 4606.64
-980.017 2306.76 4611.62
-980.417 2306.18 4610.07
-980.305 2306.22 4610.01
-979.864 2306.98 4612.82
-980.025 2306.8 4612.02
-980.938 2305.48 4608.16
-981.069 2305.43 4608.3
-981.146 2305.21 4607.4
-980.177 2306.03 4615.35
-980.35 2305.98 4614.79
-980.311 2306.08 4614.68
-980.299 2306.16 4614.52
-980.342 2306.2 4614.18
-980.355 2306.27 4613.9
-980.492 2306.25 4613.11
-980.433 2306.33 4613.01
-980.017 2306.79 4613.08
-979.956 2306.87 4613
-980.162 2306.65 4612.46
-980.22 2306.59 4612.53
-980.404 2306.37 4612.71
-980.817 2305.98 4611.36
-980.739 2306.05 4611.31
-980.725 2306.06 4611.15
-983.099 2302.95 4611.58
-981.069 2304.25 4615.8
-980.482 2305.16 4616.02
-981.391 2304.62 4613.93
-980.26 2305.8 4615.54
-980.431 2305.53 4615.46
-982.523 2303.81 4611.53
-981.239 2305.1 4613.25
-981.134 2305.07 4613.75
-984.48 2302.8 4607.77
-984.448 2302.67 4608.01
-984.642 2301.99 4608.57
-984.348 2302.68 4608.22
-984.301 2302.61 4608.47
-984.338 2302.28 4608.93
-984.518 2302.08 4608.76
-984.138 2302.47 4609.16
-983.923 2302.58 4609.57
-983.653 2302.74 4610.09
-983.356 2302.73 4611.19
-984.907 2302.63 4607.12
-984.716 2302.81 4607.14
-984.59 2302.89 4607.26
-984.436 2303.03 4607.34
-984.4 2303.02 4607.51
-984.36 2303.01 4607.66
-984.828 2302.78 4607.02
-985.094 2302.48 4606.96
-984.985 2302.59 4607.02
-1025.43 2305.68 4581.87
-1025.35 2305.64 4581.79
-1025.15 2305.41 4581.63
-1025.21 2305.5 4581.68
-1025.27 2305.58 4581.72
-1025.53 2305.83 4581.91
-1025.02 2305.25 4581.53
-1025 2305.17 4581.55
-1025.07 2305.34 4581.57
-1024.95 2305.02 4581.58
-1024.95 2305.09 4581.55
-1024.89 2304.96 4581.57
-1024.84 2304.88 4581.56
-1024.84 2304.81 4581.58
-1024.8 2304.81 4581.56
-1024.74 2304.78 4581.55
-1024.66 2304.78 4581.48
-1024.59 2304.77 4581.44
-1024.52 2304.76 4581.38
-1024.47 2304.75 4581.36
-1024.38 2304.79 4581.2
-1024.34 2304.76 4581.21
-1009.17 2300.63 4594.76
-1009 2300.54 4594.75
-1009.3 2300.68 4594.76
-1008.86 2300.44 4594.74
-1008.72 2300.3 4594.74
-1009.77 2300.91 4594.77
-1010.21 2301.55 4594.69
-1009.5 2300.72 4594.77
-1009.41 2300.65 4594.79
-1008.49 2300.11 4594.72
-1008.61 2300.3 4594.69
-1008.38 2300.09 4594.68
-1007.11 2300.33 4594.55
-1007.04 2300.37 4594.51
-1006.97 2300.37 4594.59
-1007.2 2300.38 4594.45
-1007.24 2300.45 4594.38
-1007.13 2300.44 4594.41
-1006.84 2300.36 4594.7
-1006.9 2300.35 4594.64
-1006.6 2300.4 4594.92
-1006.56 2300.34 4595.06
-1006.53 2300.25 4595.22
-1006.63 2300.46 4594.82
-1006.71 2300.5 4594.67
-1006.62 2300.53 4594.74
-1006.43 2300.31 4595.25
-1006.34 2300.34 4595.32
-1006.22 2300.36 4595.44
-1006.21 2300.45 4595.33
-1006.07 2300.43 4595.56
-1006.06 2300.51 4595.43
-1007.55 2300.62 4594.17
-1007.6 2300.64 4594.16
-1007.49 2300.64 4594.16
-1007.43 2300.64 4594.17
-1007.37 2300.61 4594.21
-1007.29 2300.66 4594.19
-1007.22 2300.65 4594.21
-1008.04 2300.53 4594.4
-1008.01 2300.55 4594.38
-1007.97 2300.55 4594.38
-1007.92 2300.76 4594.25
-1007.87 2300.73 4594.25
-1008.08 2300.48 4594.42
-1008.22 2300.01 4594.66
-1008.3 2300.2 4594.6
-1008.21 2300.25 4594.55
-1008.17 2300.27 4594.53
-1008.13 2300.39 4594.47
-1008.11 2300.64 4594.36
-1007.61 2300.76 4594.1
-1007.79 2300.91 4594.09
-1007.75 2300.84 4594.12
-1007.7 2300.83 4594.1
-1007.64 2300.84 4594.06
-1005.94 2300.53 4595.59
-1005.88 2300.53 4595.69
-1005.82 2300.55 4595.79
-1005.76 2300.58 4595.9
-1005.63 2300.66 4595.97
-1012 2304.12 4593.71
-1011.96 2304.11 4593.77
-1011.9 2304.13 4593.61
-1012.4 2304.01 4594.08
-1012.25 2304.04 4594.01
-1012.25 2304.03 4594.06
-1011.92 2304.1 4593.83
-1011.91 2304.09 4593.89
-1012.04 2304.07 4593.92
-1012.14 2304.06 4593.96
-1012.36 2304 4594.1
-1012.45 2303.96 4594.14
-1012.32 2303.98 4594.12
-1012.39 2303.95 4594.16
-1012.64 2303.6 4594.82
-1012.46 2303.91 4594.24
-1012.41 2303.87 4594.34
-1012.3 2303.94 4594.18
-1012.6 2303.57 4594.9
-1012.6 2303.3 4595.11
-1012.44 2303.21 4595.16
-1012.53 2303.29 4595.14
-1012.33 2303.27 4595.22
-1012.4 2303.29 4595.19
-1012.03 2302.91 4595.16
-1012.26 2303.27 4595.24
-1012.18 2303.21 4595.23
-1012.11 2303.07 4595.19
-1011.65 2302.63 4594.99
-1011.47 2302.74 4594.86
-1011.94 2302.88 4595.13
-1011.76 2302.67 4595.05
-1011.84 2303.02 4595.03
-1011.76 2302.9 4595
-1011.2 2303.07 4594.54
-1011.08 2303.07 4594.46
-1010.97 2303.05 4594.37
-1010.79 2303.18 4594.17
-1010.19 2303.27 4594.02
-1010.24 2303.32 4593.98
-1010.35 2301.99 4594.6
-1010.52 2302.68 4594.42
-1010.12 2303.2 4594.05
-1010.14 2303.09 4594.12
-1011.31 2303.07 4594.61
-1013.3 2303.97 4590.92
-1013.6 2303.78 4590.46
-1013.93 2303.66 4589.65
-1014.02 2303.6 4589.71
-1014.36 2303.46 4588.59
-1013.09 2304.04 4591.16
-1012.97 2304.06 4591.16
-1012.8 2304.08 4591.48
-1012.34 2304.13 4592.09
-1012.48 2304.12 4591.79
-1012.65 2304.1 4591.53
-1012.15 2304.15 4592.28
-1011.98 2304.18 4592.29
-1011.89 2304.19 4592.51
-1011.84 2304.18 4592.62
-1011.72 2304.15 4592.62
-1011.71 2304.15 4592.74
-1011.68 2304.14 4592.87
-1011.73 2304.15 4593.03
-1011.85 2304.09 4593.24
-1014.52 2303.49 4587.58
-1014.41 2303.5 4587.99
-1011.69 2304.13 4593.23
-1011.75 2304.11 4593.39
-1011.67 2304.21 4593.42
-1014.99 2303.41 4586.49
-1015.05 2303.39 4586.37
-1014.55 2303.54 4586.77
-1014.66 2303.51 4586.64
-1014.49 2303.57 4586.89
-1014.41 2303.55 4587.37
-1015.13 2303.37 4586.2
-1015.39 2303.56 4584.75
-1015.26 2303.53 4584.98
-1015.29 2303.48 4585.28
-1015.16 2303.44 4585.55
-1015.11 2303.4 4585.85
-1015.37 2303.71 4584.14
-1015.25 2303.59 4584.63
-1015.23 2303.64 4584.35
-1024.07 2304.69 4581.29
-1023.99 2304.63 4581.41
-1024.17 2304.73 4581.19
-1024.24 2304.78 4581.09
-1023.8 2304.58 4581.53
-1023.96 2304.66 4581.35
-1023.86 2304.64 4581.4
-1023.19 2305.01 4581.63
-1022.35 2305.4 4581.76
-1022.31 2305.33 4581.83
-1021.74 2305.22 4581.89
-1021.62 2305.14 4581.99
-1021.86 2305.14 4582
-1021.54 2305.06 4582.11
-988.517 2302.73 4603.45
-988.466 2302.5 4603.77
-988.252 2302.68 4603.66
-987.774 2302.49 4604.14
-987.412 2302.5 4604.39
-987.202 2302.29 4604.78
-987.95 2302.71 4603.77
-986.612 2301.11 4606.41
-986.522 2301.14 4606.46
-986.812 2301.71 4605.71
-986.692 2301.78 4605.76
-986.959 2301.68 4605.62
-987.096 2301.62 4605.55
-986.4 2301.92 4605.91
-986.261 2301.92 4606.07
-986.12 2301.91 4606.25
-985.981 2301.91 4606.42
-985.849 2301.91 4606.58
-985.926 2301.47 4606.93
-985.806 2301.52 4607.04
-986.998 2302.27 4604.96
-985.57 2301.94 4606.9
-985.444 2301.96 4607.05
-985.284 2302.27 4606.88
-985.183 2302.4 4606.88
-1005.35 2300.88 4595.98
-1005.14 2301.16 4595.78
-1004.72 2301.68 4595.51
-1004.04 2302.54 4595.02
-1004.56 2301.91 4595.34
-1004.22 2302.49 4594.86
-1004.18 2302.68 4594.57
-1004.79 2303.61 4592.4
-1004.96 2303.59 4592.27
-1005.11 2303.55 4592.2
-1005.19 2303.72 4591.84
-1005.25 2303.54 4592.09
-1005.26 2303.84 4591.5
-1005.29 2303.71 4591.71
-1003.24 2303.76 4593.86
-1004.24 2302.77 4594.31
-1003.48 2303.8 4593.53
-1003.97 2303.63 4593.26
-1004.38 2303.48 4593.06
-1004.68 2303.28 4593.03
-987.72 2305.42 4596.86
-987.64 2305.68 4595.08
-987.478 2305.39 4597.49
-987.312 2305.31 4598.15
-987.081 2305.23 4598.75
-986.632 2305.06 4599.82
-986.872 2305.11 4599.37
-986.236 2304.47 4601.38
-985.456 2304.16 4602.45
-985.211 2304.04 4602.85
-986.35 2304.6 4601
-989.908 2305.04 4590.95
-989.977 2305.13 4590.4
-989.674 2305.07 4591.39
-989.933 2305.32 4589.84
-989.819 2305.92 4588.36
-989.945 2305.92 4588.19
-989.462 2305.1 4591.78
-987.238 2306.24 4592.31
-987.313 2306.12 4592.8
-987.35 2306.3 4591.91
-987.875 2305.95 4592.13
-988.094 2305.68 4592.78
-987.559 2306.28 4591.58
-987.411 2306.6 4590.91
-988.84 2305.36 4592.28
-987.216 2306.09 4593.03
-985.601 2303.61 4603.92
-985.981 2303.58 4603.73
-986.428 2303.5 4603.59
-986.923 2303.27 4603.59
-985.226 2303.82 4603.56
-985.244 2303.7 4603.91
-985.146 2303.75 4603.85
-985.298 2303.63 4604.06
-988.219 2302.93 4603.29
-987.806 2303.16 4603.16
-984.959 2303.95 4603.21
-984.869 2303.89 4603.49
-984.897 2303.86 4603.65
-985.049 2303.84 4603.61
-1005.42 2303.83 4591.26
-1005.52 2303.81 4591.15
-1005.51 2303.88 4591
-1005.5 2303.95 4590.84
-1005.36 2303.81 4591.4
-1005.61 2303.94 4590.75
-1005.63 2304 4590.58
-1005.65 2304.07 4590.43
-1005.66 2304.13 4590.27
-1005.66 2304.15 4590.1
-1005.59 2304.18 4589.61
-1005.53 2304.21 4589.36
-1005.66 2304.15 4589.81
-1005.77 2304.1 4590.03
-1005.48 2304.24 4589.12
-1005.4 2304.28 4588.89
-1005.42 2304.27 4588.69
-989.828 2306.66 4586.53
-989.438 2306.89 4586.37
-988.776 2307.05 4587.02
-987.622 2307.15 4588.83
-987.324 2306.75 4590.56
-987.211 2306.65 4591
-986.372 2306.96 4590.89
-986.441 2306.91 4591
-986.337 2306.45 4592.61
-986.812 2306.13 4593.41
-986.965 2306.09 4593.4
-987.168 2306.04 4593.45
-986.418 2306.26 4593.24
-986.735 2306.11 4593.59
-986.536 2307.69 4587.79
-986.575 2307.61 4588.25
-986.44 2307.53 4588.91
-986.294 2306.99 4590.85
-986.281 2307.76 4587.47
-986.23 2307.89 4586.27
-986.141 2307.8 4587.11
-997.658 2306.24 4578.8
-997.979 2306.12 4578.8
-998.264 2306.02 4578.86
-997.454 2306.34 4578.43
-997.348 2306.43 4578.17
-997.625 2306.27 4578.53
-997.304 2306.56 4577.55
-997.458 2306.44 4577.78
-997.355 2306.61 4577.18
-995.591 2307.48 4576.47
-996.471 2307.16 4576.47
-994.504 2308.28 4575.64
-994.935 2307.88 4576.09
-995.459 2307.63 4576.18
-996.855 2306.85 4576.94
-997.451 2306.65 4576.86
-997.235 2306.78 4576.73
-996.768 2306.94 4576.73
-1005.3 2304.16 4587.6
-1005.36 2304.22 4588.04
-1005.45 2304.24 4588.45
-1005.31 2304 4586.68
-1005.37 2304.05 4587.15
-1005.29 2303.9 4586.08
-1005.19 2303.87 4585.69
-1001.72 2304.41 4581.64
-1001.45 2304.6 4581.68
-1000.16 2305.11 4580.54
-1000.66 2304.88 4580.87
-1001.19 2304.55 4580.84
-1000.79 2304.71 4580.47
-1001.84 2304.08 4580.73
-1003.08 2303 4579.62
-1002.96 2302.98 4579.35
-1003.47 2303.19 4580.82
-1003.29 2302.96 4579.83
-1003.89 2303.44 4582.22
-1004.12 2303.67 4583.18
-1004.51 2303.76 4584.1
-1005.22 2303.6 4584.68
-999.438 2305.46 4580.13
-998.847 2305.69 4579.45
-998.671 2305.76 4579.25
-999.194 2305.55 4579.71
-998.486 2305.88 4579.05
-1005.5 2300.76 4595.93
-1051.55 2320.71 4449.46
-844.023 2480.96 4455.75
-843.289 2470.16 4465.48
-842.793 2468.71 4467.95
-842.717 2467.59 4468.04
-842.617 2466.92 4468.62
-843.177 2469.36 4465.66
-843.529 2470.38 4463.93
-843.881 2478.99 4455.84
-843.843 2477.23 4455.9
-843.743 2471.1 4462.36
-843.783 2471.87 4461.88
-843.827 2472.99 4461.11
-843.683 2470.69 4462.93
-843.867 2474.3 4459.19
-843.863 2475.6 4456.06
-842.486 2465.37 4470.3
-842.523 2466.04 4469.73
-842.575 2466.4 4469.13
-841.993 2459.7 4485.56
-841.846 2459.4 4486.08
-841.668 2459.02 4486.87
-841.139 2458.5 4488.54
-841.171 2458.66 4488.5
-842.667 2459.98 4482.18
-842.536 2459.67 4483.03
-842.858 2460.06 4481.12
-842.285 2459.49 4484.27
-842.417 2459.15 4483.84
-842.068 2459.47 4485.11
-842.866 2460.95 4480.21
-842.793 2462.02 4479.71
-842.824 2462.23 4478.9
-842.755 2462.75 4477.63
-842.624 2463.44 4475.78
-842.612 2463.41 4472.73
-842.955 2460.31 4480.21
-842.56 2463.7 4471.63
-842.513 2464.11 4470.77
-842.514 2464.57 4470.01
-843.129 2447.98 4503.76
-843.87 2446.75 4503.66
-843.879 2446.56 4504.41
-844.642 2445.42 4502.99
-842.872 2448.95 4501.3
-842.31 2450.46 4499.71
-845.164 2444.51 4502.07
-845.829 2443.23 4500.71
-841.465 2452.3 4498.92
-841.879 2451.5 4498.92
-840.857 2453.4 4497.85
-840.429 2454.02 4496.28
-840.262 2454.27 4495.31
-840.159 2454.45 4494.85
-840.065 2454.62 4494.57
-839.97 2454.79 4494.34
-839.9 2454.96 4494.09
-839.881 2455.07 4493.85
-839.86 2455.26 4493.48
-839.916 2455.14 4493.46
-839.867 2455.37 4493.15
-839.833 2456.5 4492.38
-839.888 2456.81 4492.23
-839.951 2457.05 4492.08
-840.408 2457.74 4490.73
-841.103 2458.27 4488.6
-840.196 2457.37 4491.35
-840.1 2457.13 4491.56
-839.902 2455.48 4492.74
-839.918 2455.67 4492.51
-839.95 2455.86 4492.27
-839.905 2456.05 4492.24
-839.878 2456.28 4492.16
-840.905 2435.12 4533.78
-841.012 2435.14 4533.63
-841.164 2435.12 4533.46
-841.176 2435.21 4533.33
-840.464 2434.98 4535.7
-840.49 2435 4535.33
-840.597 2434.83 4536.03
-840.53 2434.95 4535.16
-840.547 2435 4534.88
-840.578 2434.97 4534.74
-840.627 2434.95 4534.52
-840.785 2434.61 4536.9
-840.912 2434.42 4537.28
-841.47 2433.74 4538.44
-840.757 2434.69 4536.37
-840.714 2435.04 4534.09
-840.726 2434.92 4534.28
-840.862 2435.05 4533.91
-843.262 2432.71 4533.25
-843.064 2433.12 4532.93
-843.369 2432.39 4534.07
-842.664 2433.69 4532.92
-842.856 2433.38 4532.99
-842.946 2431.99 4537.7
-842.883 2431.73 4538.57
-843.352 2432.19 4535.14
-842.855 2432.18 4537.55
-842.796 2431.55 4539.3
-844.898 2427.77 4537.98
-845 2427.24 4538.44
-844.465 2428.41 4538.43
-843.969 2429.14 4539
-843.284 2430.52 4539.26
-842.976 2430.99 4539.61
-842.701 2431.47 4539.84
-842.288 2434.44 4532.6
-842.135 2434.71 4532.57
-842.355 2434.18 4532.78
-842.204 2434.42 4532.74
-842.423 2434.03 4532.94
-841.604 2435.04 4532.96
-841.621 2434.97 4533.02
-841.638 2434.91 4533.08
-841.653 2434.83 4533.14
-845.3 2426.62 4538.63
-845.085 2426.9 4538.75
-843.082 2424.77 4555.81
-843.288 2424.72 4555.28
-843.042 2424.39 4556.26
-843.12 2423.92 4556.46
-842.395 2421.4 4559.26
-842.505 2421.64 4558.91
-842.108 2421.36 4559.84
-841.962 2421.44 4560.13
-842.306 2421.15 4559.58
-843.07 2423.39 4556.97
-842.798 2422.63 4557.93
-842.758 2421.41 4558.61
-842.041 2421.17 4560.18
-842.448 2431.88 4540
-842.025 2432.92 4539.47
-842.298 2432.3 4539.7
-843.808 2428.26 4540.77
-843.956 2427.72 4541.17
-844.011 2427.43 4541.66
-843.463 2429.53 4540.1
-844.528 2426.09 4547.19
-844.266 2426.61 4545.34
-844.18 2426.81 4543.51
-844.077 2427.16 4542.13
-844.202 2426.85 4542.68
-843.9 2404 4590.65
-844.528 2403.09 4591.46
-844.744 2402.92 4591.49
-844.08 2403.95 4590.58
-843.647 2404.69 4589.82
-843.569 2404.89 4589.54
-843.696 2404.78 4589.63
-844.192 2404.04 4590.35
-844.365 2404.09 4590.15
-844.554 2404.45 4589.52
-845.569 2424.92 4542.49
-845.254 2425.3 4542.75
-845.816 2424.77 4541.7
-846.568 2424.48 4539.76
-845.626 2425.25 4540.87
-846.437 2424.86 4539.19
-846.073 2425.42 4538.96
-844.469 2426.26 4545.39
-844.628 2426.01 4545.04
-844.996 2425.61 4543.05
-844.795 2425.94 4542.69
-844.579 2426.19 4543.19
-845.673 2425.88 4539.08
-845.457 2426.26 4538.88
-848.152 2417.13 4550.82
-848.221 2416.32 4551.19
-848.138 2416.62 4551.16
-847.641 2418.02 4551.32
-847.937 2417.24 4551.16
-846.237 2420.1 4553.15
-846.689 2419.36 4552.62
-847.618 2415.66 4552.51
-847.645 2415.49 4552.53
-847.606 2415.84 4552.45
-847.414 2415.96 4552.72
-845.535 2420.67 4554.32
-844.574 2421.97 4555.11
-843.844 2423.1 4555.57
-843.599 2423.78 4555.5
-843.435 2424.29 4555.34
-846.298 2414.77 4555.1
-846.268 2414.94 4555.08
-846.68 2415.35 4554.18
-846.467 2415.16 4554.64
-846.25 2415.12 4555.03
-846.069 2414.75 4555.52
-846.071 2414.63 4555.62
-845.187 2415.86 4556.8
-845.479 2415.4 4556.42
-845.37 2415.63 4556.5
-845.665 2415.13 4556.15
-845.828 2414.93 4555.93
-844.94 2416.24 4557.17
-844.13 2417.27 4558.62
-842.905 2419.56 4559.67
-845.914 2414.8 4555.87
-842.448 2420.49 4559.87
-842.226 2420.86 4560.04
-873.374 2357.92 4575.93
-872.949 2355.75 4576.89
-873.946 2356.94 4575.57
-873.202 2354.51 4576.92
-874.757 2358.14 4574.5
-873.724 2353.15 4576.73
-874.783 2350.29 4576.01
-876.883 2347.84 4573.83
-877.376 2347.98 4573.08
-876.548 2349.03 4573.95
-877.91 2347.93 4572.37
-874.177 2351.99 4576.42
-874.692 2350.99 4576
-877.016 2347.33 4573.84
-876.964 2347.01 4574.06
-877.703 2346.28 4573.34
-877.66 2345.68 4573.72
-878.359 2345.68 4572.69
-876.305 2340.83 4579.19
-876.349 2342.75 4577.8
-876.523 2341.08 4578.67
-876.86 2344.36 4575.89
-878.137 2344.52 4573.76
-877.973 2345.08 4573.63
-876.305 2340.26 4579.61
-876.791 2338.1 4580.88
-876.995 2337.51 4581.22
-876.893 2338.5 4580.2
-876.953 2338.13 4580.52
-876.615 2339.5 4579.7
-876.892 2338.83 4579.83
-877.025 2337.13 4581.66
-877.286 2336.55 4581.93
-877.826 2334.92 4583.22
-878.159 2334.29 4583.55
-877.559 2335.93 4582.25
-877.754 2335.38 4582.65
-878.551 2333.71 4583.72
-878.82 2333.26 4584.06
-879.209 2332.64 4584.46
-879.596 2331.98 4585.16
-879.608 2332.09 4584.78
-889.373 2326.55 4622.52
-889.446 2326.38 4622.43
-889.53 2326.19 4622.32
-889.441 2326.31 4622.54
-1011.47 2307.91 4564.97
-1009.41 2308.68 4563.25
-1009.62 2308.62 4563.37
-1009.11 2308.79 4563.02
-1008.76 2308.86 4562.82
-1010.03 2308.4 4563.73
-1010.29 2308.36 4563.89
-1009.45 2308.49 4563.47
-1009.62 2308.43 4563.57
-1010.3 2308.24 4564.07
-1010.56 2308.2 4564.24
-1011.07 2308.06 4564.64
-1011.21 2307.85 4564.9
-1010.73 2308.12 4564.42
-1008.02 2309.01 4562.5
-1007.84 2309.21 4562.19
-1008.28 2308.94 4562.64
-1007.41 2309.75 4561.26
-1007.63 2309.58 4561.53
-1007.13 2309.84 4561.15
-1007.56 2309.44 4561.79
-1008.52 2308.88 4562.78
-1019.85 2308 4561.98
-1020.3 2307.7 4561.65
-1021.12 2307.2 4561.6
-1022.63 2306.14 4560.69
-1019.61 2308.07 4561.62
-1019.26 2308.29 4561.78
-1018.92 2308.5 4561.89
-1017.46 2309.1 4559.51
-1018.08 2308.87 4560.68
-1017.35 2309.18 4558.57
-1017.08 2309.29 4558.01
-1016.96 2309.34 4557.75
-1016.96 2309.33 4557.49
-1014.76 2310.58 4549.71
-1015.04 2310.62 4548.33
-1014.84 2310.53 4550.7
-1014.92 2310.34 4552.62
-1016.7 2310.03 4553.8
-1016.53 2310.11 4553.39
-1016.13 2310.2 4552.96
-1016.97 2310.01 4553.87
-1014.83 2310.75 4546.13
-1014.37 2310.78 4547.79
-1017.07 2309.87 4554.51
-1017.22 2310.02 4553.81
-1017.26 2309.83 4554.66
-1016.98 2309.34 4557.17
-1017.14 2309.38 4556.74
-1017.16 2309.57 4555.88
-1017.34 2309.44 4556.26
-1017.35 2309.73 4555.07
-1008.47 2312.35 4549.46
-1009.16 2312.24 4548.9
-1010.98 2311.53 4550.5
-1012.18 2311.24 4549.41
-1012.54 2311.27 4547.43
-1013.1 2311.12 4547.35
-1014.4 2310.85 4545.53
-1014.07 2310.95 4545.12
-1013.74 2311.07 4544.67
-1018.51 2308.72 4561.6
-1006.37 2310.02 4560.98
-1006.69 2309.87 4561.16
-1024.65 2304.48 4555
-1024.5 2304.46 4555.3
-1024.36 2304.47 4555.54
-1024.24 2304.47 4555.78
-1024.13 2304.48 4555.98
-1024.03 2304.52 4556.19
-1023.92 2304.58 4556.41
-1023.81 2304.66 4556.51
-1023.7 2304.74 4556.57
-1023.57 2304.82 4556.71
-1025.11 2304.48 4554.15
-1025.03 2304.51 4554.21
-1024.94 2304.51 4554.39
-1024.86 2304.53 4554.52
-1024.77 2304.5 4554.77
-1023.46 2305 4557.24
-1023.47 2305.06 4557.82
-1023.47 2304.91 4556.86
-1023.39 2305.11 4558.18
-1023.43 2305.15 4558.63
-1023.28 2305.39 4559.39
-1025.49 2304.55 4553.2
-1025.36 2304.53 4553.42
-1025.45 2304.55 4553.21
-1025.27 2304.51 4553.69
-1025.2 2304.49 4553.94
-1025.55 2304.66 4552.95
-1025.52 2304.65 4552.94
-1025.5 2304.61 4553.04
-1040.51 2308.92 4542.72
-1040.34 2308.94 4543.04
-1040.4 2308.93 4542.86
-1041.84 2309.06 4541.1
-1041.71 2308.98 4541.24
-1041.73 2309.01 4541.16
-1041.55 2308.9 4541.35
-1041.61 2308.95 4541.24
-1041.48 2308.87 4541.45
-1041.38 2308.85 4541.54
-1041.3 2308.85 4541.67
-1041.24 2308.86 4541.79
-1041.18 2308.87 4541.9
-1042 2309.14 4540.98
-1041.88 2309.1 4541.01
-1041.13 2308.88 4542.03
-1041.06 2308.89 4542.17
-1040.94 2308.89 4542.14
-1040.89 2308.89 4542.21
-1040.84 2308.89 4542.28
-1040.75 2308.89 4542.38
-1040.67 2308.9 4542.48
-1040.59 2308.91 4542.58
-1042.75 2309.56 4540.55
-1042.62 2309.46 4540.62
-1042.46 2309.38 4540.66
-1042.36 2309.33 4540.73
-1042.28 2309.28 4540.8
-1042.16 2309.24 4540.82
-1042.07 2309.19 4540.89
-1042.87 2309.65 4540.49
-1042.99 2309.74 4540.44
-1043.08 2309.81 4540.36
-1038.28 2310.58 4551.1
-1038.46 2310.52 4550.89
-1038.79 2310.45 4550.58
-1038.09 2310.64 4551.35
-1037.81 2310.64 4552.43
-1037.12 2310.71 4553.42
-1039.2 2310.34 4549.67
-1039.47 2310.12 4548.54
-1040.09 2309.31 4544.61
-1039.71 2309.65 4546.09
-1039.84 2309.59 4545.87
-1040.09 2308.99 4543.21
-1040.21 2308.96 4543.08
-1040.04 2309.15 4543.85
-1036.56 2310.82 4552.93
-1036.07 2310.98 4552.42
-1035.99 2311.05 4551.93
-1034.61 2312 4548.7
-1034.52 2312.01 4548.68
-1035.92 2311.15 4551.46
-1035.06 2311.6 4550.24
-1034.38 2312.07 4548.31
-1034.28 2312.09 4548.15
-1034.51 2312.09 4548.13
-1033.86 2312.14 4547.64
-1033.63 2312.21 4547.14
-1033.43 2312.21 4547.13
-1034.26 2312.18 4547.42
-1034.09 2312.18 4547.36
-1033.86 2312.2 4547.21
-1032.07 2312.15 4545.5
-1032.83 2312.26 4546.38
-1032.44 2312.21 4545.9
-1033.16 2312.29 4546.64
-1030.32 2311.72 4543.72
-1031.46 2312.02 4544.49
-1032 2312.16 4544.91
-1031.72 2312.09 4544.38
-1030.34 2311.73 4543.42
-1028.65 2311.25 4542.41
-1028.59 2311.2 4542.8
-1027.92 2311.03 4542.49
-1027.62 2310.9 4542.87
-1027.28 2310.74 4543.21
-1025.72 2305.02 4552.07
-1025.69 2304.96 4552.13
-1025.66 2304.9 4552.17
-1025.65 2304.89 4552.44
-1025.62 2304.83 4552.56
-1025.82 2305.15 4551.41
-1025.79 2305.1 4551.62
-1025.76 2305.05 4551.7
-1026.02 2305.21 4550.92
-1025.85 2305.15 4551.12
-1025.73 2304.98 4551.74
-1025.6 2304.78 4552.64
-1025.57 2304.74 4552.73
-1025.54 2304.7 4552.82
-1028.96 2309.67 4549.08
-1029.17 2309.64 4549.45
-1029.48 2309.59 4549.99
-1029.38 2309.37 4550.28
-1029.48 2309.24 4550.65
-1027.45 2309.43 4547.34
-1027.67 2309.43 4547.62
-1027.99 2309.51 4547.95
-1028 2309.4 4548.16
-1028.28 2309.47 4548.42
-1028.68 2309.54 4548.91
-1028.4 2309.42 4548.7
-1027.05 2309.94 4545.71
-1026.97 2310.29 4544.78
-1027.01 2310.44 4544.38
-1027.07 2310.61 4543.62
-1026.91 2310.52 4543.84
-1026.93 2310.12 4545.15
-1026.88 2309.94 4545.6
-1027.19 2309.66 4546.67
-1026.98 2309.68 4546.44
-1027.01 2309.61 4546.63
-1027.34 2309.57 4546.97
-1027.18 2309.55 4546.89
-1026.96 2309.84 4545.89
-1026.89 2309.75 4546.08
-1026.84 2309.66 4546.29
-1027.33 2309.46 4547.19
-1029.09 2308.62 4551.21
-1028.37 2307.65 4551.53
-1028.01 2307.28 4551.62
-1027.37 2306.79 4551.36
-1027.69 2307.06 4551.42
-1027.02 2306.48 4551.33
-1026.91 2306.39 4551.12
-1026.63 2306.16 4550.97
-1026.38 2305.95 4550.76
-1026.42 2305.72 4550.4
-1026.54 2305.57 4550.24
-1026.49 2305.43 4550.35
-1026.23 2305.31 4550.52
-1026.28 2305.45 4550.41
-1023.19 2307.87 4581.14
-1022.95 2307.73 4581.09
-1013.76 2303.65 4584.46
-1014.09 2303.67 4584.15
-1014.27 2303.68 4584.13
-1014.44 2303.69 4584.11
-1014.63 2303.71 4584.05
-1009.52 2300.96 4571.27
-1009.62 2301.05 4571.14
-1009.35 2300.87 4571.23
-1009.2 2300.76 4571.49
-1009.26 2300.82 4571.34
-1009.09 2300.66 4571.73
-1009.11 2300.72 4571.57
-1009.82 2301.58 4570.44
-1009.74 2301.39 4570.64
-1009.66 2301.18 4570.89
-1008.92 2300.5 4572.77
-1008.96 2300.51 4572.2
-1008.91 2300.48 4572.35
-1008.86 2300.45 4572.53
-1009 2300.54 4572.01
-1009.02 2300.6 4571.81
-1009.9 2301.77 4570.23
-1011.49 2302.83 4581.12
-1011.65 2302.97 4581.84
-1008.85 2300.45 4572.9
-1008.83 2300.44 4573.11
-1008.84 2300.45 4573.33
-1008.88 2300.48 4573.57
-1008.79 2300.45 4573.86
-1008.8 2300.44 4573.62
-1010.39 2301.98 4578.4
-1009.35 2301.05 4576
-1009.03 2300.76 4575.14
-1008.8 2300.49 4574.16
-1008.82 2300.54 4574.5
-1010.96 2302.46 4580.01
-1012.09 2303.24 4582.56
-1012.13 2303.35 4583.06
-1011.74 2303.07 4582.27
-1012.64 2303.51 4583.9
-1012.25 2303.43 4583.72
-1012.74 2303.54 4584.46
-1013.01 2303.59 4584.64
-1013.18 2303.62 4584.75
-1013.29 2303.63 4584.84
-1014.71 2303.67 4584.25
-1014.89 2303.66 4584.3
-1015.05 2303.64 4584.38
-1022.07 2306.64 4581.15
-1022.21 2306.9 4581.11
-1021.89 2306.45 4581.22
-1022.36 2307.17 4581.06
-1021.76 2306.19 4581.35
-1021.64 2305.95 4581.46
-1021.59 2305.73 4581.56
-1021.5 2305.51 4581.65
-1021.78 2305.28 4581.82
-1021.51 2305.35 4581.72
-1021.86 2305.36 4581.76
-1022.52 2307.35 4581.08
-1022.67 2307.5 4581.1
-1011.15 2303.82 4568.59
-1012.05 2305.9 4567.31
-1011.48 2304.9 4567.74
-1011.01 2303.86 4568.38
-1011.89 2306.08 4567
-1011.28 2304.95 4567.52
-1011.43 2307.71 4565.15
-1011.68 2307.42 4565.58
-1011.36 2307.48 4565.35
-1011.93 2307.27 4565.88
-1011.76 2307.04 4566
-1011.67 2306.7 4566.24
-1011.82 2306.58 4566.45
-1011.8 2306.21 4566.77
-1010.08 2301.95 4570.09
-1010.96 2303.4 4568.93
-1010.77 2303.11 4569.1
-1010.85 2303.07 4569.26
-1010.77 2302.84 4569.46
-1010.67 2302.63 4569.66
-1010.22 2302.19 4569.81
-1010.39 2302.36 4569.72
-1010.04 2302.02 4569.93
-1024.56 2308.6 4581.63
-1024.76 2308.71 4581.69
-1024.87 2308.77 4581.68
-1024.95 2308.75 4581.71
-1025.24 2308.73 4581.71
-1025.03 2308.69 4581.74
-1025.35 2308.68 4581.73
-1025.55 2308.75 4581.69
-1025.71 2308.8 4581.74
-1025.93 2308.53 4581.89
-1026.18 2307.73 4581.97
-1025.99 2306.84 4581.89
-1025.83 2306.55 4581.88
-1025.65 2306.19 4581.88
-1023.35 2307.91 4581.23
-1023.53 2307.98 4581.32
-1024.13 2308.28 4581.51
-1023.9 2308.14 4581.44
-1023.72 2308.03 4581.42
-1024.39 2308.44 4581.62
-1046.29 2319.81 4537.47
-1046.05 2319.73 4537.48
-1045.81 2319.64 4537.5
-1045.58 2319.55 4537.46
-1047.01 2319.97 4537.65
-1047.12 2319.98 4537.61
-1047.24 2319.94 4537.68
-1046.74 2319.95 4537.7
-1046.83 2319.94 4537.72
-1046.55 2319.88 4537.61
-1046.9 2319.93 4537.7
-1046.31 2319.79 4537.57
-1047.33 2319.84 4537.81
-1047.61 2319.62 4538
-1047.44 2319.75 4537.93
-1048.02 2319.22 4538.2
-1048.13 2319.23 4538.27
-1047.73 2319.46 4538.05
-1047.88 2319.28 4538.12
-1048.11 2318.43 4538.5
-1048.23 2318.5 4538.56
-1048.1 2318.7 4538.39
-1048.21 2318.13 4538.75
-1048.09 2317.62 4538.93
-1047.54 2316.64 4538.97
-1046.69 2315.61 4538.78
-1029.63 2311.58 4534.28
-1030.08 2311.55 4534.68
-1030.43 2311.55 4535.11
-1034.21 2312.1 4538.2
-1034.68 2312.15 4538.38
-1035.09 2312.16 4538.68
-1035.4 2312.16 4538.87
-1035.55 2312.14 4538.91
-1035.71 2312.12 4538.98
-1035.79 2312.09 4538.96
-1035.89 2312.06 4538.96
-1035.99 2312.02 4538.92
-1036.03 2312.03 4538.98
-1036.14 2312.06 4538.93
-1036.12 2312.1 4538.85
-1036.29 2312.13 4538.89
-1036.4 2312.19 4538.86
-1036.43 2312.24 4538.79
-1031.47 2311.64 4536.12
-1031.97 2311.71 4536.4
-1032.87 2311.89 4537.57
-1033.59 2312.02 4538.57
-1033.85 2312.05 4538.36
-1030.6 2311.54 4535.5
-1030.9 2311.58 4535.76
-1031.15 2311.61 4536.16
-1036.61 2312.32 4538.77
-1036.57 2312.36 4538.69
-1036.7 2312.43 4538.65
-1036.65 2312.46 4538.56
-1036.57 2312.49 4538.48
-1036.68 2312.55 4538.44
-1036.77 2312.62 4538.4
-1036.82 2312.7 4538.35
-1036.95 2312.88 4538.36
-1037.04 2313.04 4538.33
-1037.01 2313.14 4538.21
-1037.04 2313.28 4538.14
-1037.05 2313.64 4537.88
-1037.03 2313.49 4537.97
-1037.18 2313.46 4538.15
-1042.81 2313.57 4496.87
-1043.31 2313.7 4496.33
-1043.12 2313.64 4496.51
-1042.92 2313.6 4496.67
-1042.27 2313.66 4497.41
-1042.52 2313.61 4497.15
-1044.71 2314.22 4495.05
-1044.55 2314.1 4495.15
-1044.41 2314.06 4495.27
-1044.29 2314.01 4495.39
-1044.8 2314.34 4495
-1045.22 2314.84 4495
-1045.05 2314.68 4494.97
-1045.41 2314.97 4494.97
-1044.9 2314.51 4494.93
-1043.82 2313.91 4495.68
-1043.98 2313.96 4495.59
-1044.14 2313.99 4495.47
-1043.63 2313.84 4495.79
-1043.45 2313.77 4496.04
-1023.01 2310.96 4536.97
-1022.55 2311.03 4536.57
-1021.46 2311.23 4535.16
-1020.58 2311.27 4535.09
-1019.88 2311.87 4528.91
-1019.16 2311.61 4532.17
-1019.41 2311.35 4534.83
-1019.5 2311.71 4530.85
-1019.61 2311.81 4529.59
-1020.29 2311.84 4527.52
-1028.31 2311.6 4535.36
-1029.55 2311.56 4534.94
-1027 2311.43 4536.88
-1027.59 2311.49 4536.74
-1024.39 2311.18 4536.42
-1025.14 2311.11 4537.07
-1025.41 2311.03 4537.72
-1026.46 2311.29 4537.38
-1023.55 2310.74 4538.26
-1024.18 2310.8 4538.23
-1023.32 2310.7 4538.49
-1020.23 2311.62 4521.04
-1020.53 2311.6 4519.7
-1020.19 2311.62 4518.88
-1020.59 2311.77 4525.95
-1019.91 2311.75 4523.63
-1020.26 2311.65 4518.21
-1020.54 2311.67 4517.68
-1022.02 2311.82 4515.71
-1020.6 2311.71 4516.91
-1021.35 2311.74 4516.19
-1022.62 2311.97 4514.84
-1024.16 2312.13 4513.92
-1028.08 2313.59 4505.19
-1028.06 2313.62 4505.68
-1028.05 2313.62 4506.09
-1028.08 2313.61 4506.44
-1028.07 2313.59 4506.8
-1029.1 2313.51 4507.57
-1027.94 2313.59 4507.09
-1029.19 2313.19 4508.82
-1029.14 2313.32 4508.36
-1028.98 2313.42 4508.01
-1029.13 2313.01 4509.45
-1028.97 2312.73 4510.41
-1029.97 2312.9 4499.5
-1030.87 2312.87 4499.33
-1031.54 2312.85 4498.95
-1034.81 2313.24 4498.48
-1032.06 2312.85 4498.48
-1032.74 2312.92 4498.1
-1025.61 2313.34 4503.86
-1025.75 2313.13 4501.51
-1027.74 2313.11 4500.66
-1028.73 2313.03 4500.31
-1025.26 2313.43 4505
-1027.06 2313.65 4505.74
-1025.22 2313.47 4505.55
-1026.54 2312.27 4513.2
-1027.91 2312.33 4512.09
-1026.76 2312.29 4512.93
-1028.29 2312.43 4511.53
-1037.79 2313.59 4498.72
-1036.65 2313.48 4498.41
-1041.41 2313.59 4498.2
-1041.17 2313.57 4498.37
-1040.22 2313.66 4497.81
-1040.02 2313.66 4498.07
-1042 2313.66 4497.62
-1041.85 2313.63 4497.84
-1041.55 2313.59 4498.01
-1038.94 2313.64 4498.15
-1037.98 2313.59 4498.45
-1045.68 2315.27 4494.85
-1046.33 2316.09 4494.48
-1046.68 2317.18 4493.34
-1046.79 2317.11 4493.57
-1046.69 2316.89 4493.77
-1046.66 2316.65 4494.06
-1046.53 2317.24 4493.06
-1046.4 2317.31 4492.81
-1046.33 2317.38 4492.59
-1046.25 2317.44 4492.37
-1046.12 2317.45 4492.23
-1046.46 2317.51 4491.24
-1046.36 2317.5 4491.51
-1046.07 2317.49 4491.75
-1045.97 2317.47 4492
-1046.04 2317.46 4492.12
-1046.67 2317.21 4486.74
-1046.71 2317.32 4487.41
-1046.68 2317.4 4487.95
-1046.58 2317.56 4489.18
-1046.72 2317.6 4489.5
-1046.58 2317.47 4488.61
-1046.56 2317.55 4489.91
-1046.35 2317.5 4490.29
-1046.56 2317.11 4485.81
-1046.14 2316.56 4483.55
-1044.7 2315.65 4481.27
-1045.2 2316.02 4482.1
-1046.26 2317.52 4491.03
-1046.47 2317.52 4491.05
-1046.06 2317.48 4490.57
-1046.08 2317.49 4490.77
-1046.17 2317.51 4490.99
-1044.06 2315.32 4480.3
-1043.9 2315.23 4480.03
-1043.85 2315.17 4479.45
-1043.81 2315.1 4478.76
-1043.7 2315.02 4478.1
-1043.65 2315.02 4477.8
-1043.5 2315.01 4477.47
-1043.33 2314.98 4477.26
-1042.86 2316.37 4474.57
-1042.96 2316.4 4474.69
-1042.56 2316.14 4474.48
-1042.72 2316.22 4474.64
-1042.95 2316.05 4475.01
-1042.85 2316.15 4474.87
-1043.24 2315.71 4475.79
-1042.89 2315.73 4475.32
-1043.41 2315.56 4476.25
-1043.36 2315.49 4476.32
-1043.23 2315.54 4476.02
-1043.38 2315.42 4476.52
-1043.29 2315.41 4476.37
-1043.3 2315.2 4476.79
-1043.25 2315.31 4476.55
-1043.17 2315.08 4476.83
-1043.18 2314.97 4477.08
-1043.06 2314.99 4476.89
-1042.76 2315.63 4475.36
-1042.67 2315.55 4475.39
-1041.62 2315.69 4473.06
-1041.42 2315.56 4472.94
-1041.09 2315.53 4471.77
-1041.15 2315.51 4472.22
-1041.25 2315.52 4472.78
-1041.66 2315.66 4473.33
-1041.9 2315.79 4473.62
-1042.08 2315.85 4474.02
-1042.33 2315.98 4474.33
-1040.81 2315.43 4467.43
-1040.9 2315.35 4465.69
-1041.2 2315.51 4464.77
-1040.71 2315.5 4469.47
-1040.85 2315.54 4470.24
-1040.66 2315.35 4467.73
-1040.84 2315.49 4471.05
-1040.93 2315.48 4471.56
-1048.45 2320 4455.52
-1050.88 2320.73 4452.61
-1049.57 2320.19 4453.34
-1050.36 2320.28 4451.49
-1050.71 2320.38 4450.84
-1051.06 2320.56 4450.56
-1047.73 2319.67 4455.56
-1051.29 2320.63 4450.04
-1046.89 2319.32 4456.47
-1046.4 2319.07 4456.89
-1047.28 2319.51 4455.95
-1042.36 2316.26 4462.9
-1041.64 2315.8 4463.71
-1043.8 2317.26 4461.39
-1045.98 2318.83 4457.46
-1045.51 2318.54 4458.23
-1045.04 2318.17 4459.17
-1043.73 2317.23 4460.98
-1042.49 2317.85 4538.29
-1042.71 2317.95 4538.25
-1043.42 2318.41 4538.05
-1043.02 2318.18 4538.21
-1041.84 2317.53 4538.49
-1042.07 2317.63 4538.43
-1042.22 2317.69 4538.41
-1043.73 2318.6 4537.95
-1040.59 2316.84 4538.13
-1040.22 2316.64 4537.99
-1039.83 2316.44 4537.83
-1040.97 2317.04 4538.29
-1037.78 2314.48 4537.72
-1037.45 2314.08 4537.85
-1037.26 2313.78 4537.98
-1038.54 2315.31 4537.67
-1038.04 2314.64 4537.86
-1039.5 2316.22 4537.76
-1041.35 2317.21 4538.47
-1041.7 2317.41 4538.57
-1045.02 2319.29 4537.53
-1045.33 2319.45 4537.45
-1045.08 2319.29 4537.57
-1044.41 2318.97 4537.78
-1043.86 2318.65 4538.01
-1043.2 2309.91 4540.3
-1043.34 2310.03 4540.24
-1043.61 2310.27 4540.13
-1043.45 2310.14 4540.17
-1044.3 2310.83 4540.11
-1044.07 2310.63 4540.08
-1044.19 2310.75 4540.06
-1043.92 2310.52 4540.07
-1043.91 2310.48 4540.14
-1043.76 2310.39 4540.08
-1044.75 2311.32 4540.05
-1044.51 2311.07 4540.04
-1044.62 2311.21 4539.98
-1044.4 2310.95 4540.07
-1044.92 2311.54 4540.1
-1045.1 2311.92 4539.79
-1046.24 2314.12 4539.11
-1046 2313.63 4539.19
-1045.68 2313.07 4539.33
-1045.33 2312.44 4539.55
-1046.43 2314.73 4539.09
-1046.48 2315.2 4538.89
-926.031 2312.77 4645.11
-926.183 2313.05 4645
-926.359 2313.2 4644.87
-926.634 2313.33 4644.65
-926.525 2313.23 4644.75
-926.817 2313.16 4644.53
-926.874 2313.31 4644.47
-931.166 2312.2 4642.27
-931.198 2312.29 4642.15
-930.943 2312.28 4642.4
-931.076 2312.19 4642.38
-931.57 2312.12 4641.96
-931.685 2312.07 4641.9
-931.792 2312.03 4641.83
-931.822 2312.12 4641.67
-931.346 2312.1 4642.2
-931.484 2312.03 4642.13
-931.646 2311.98 4642.04
-927.144 2313.34 4644.3
-927.442 2313.36 4644.14
-927.406 2313.53 4644.14
-927.662 2313.63 4643.98
-927.83 2313.7 4643.86
-928.263 2313.72 4643.55
-928.901 2313.65 4643.15
-929.279 2313.4 4643
-929.776 2312.89 4642.89
-930.032 2312.86 4642.75
-930.3 2312.66 4642.6
-930.568 2312.53 4642.44
-930.742 2312.49 4642.34
-931.903 2312 4641.75
-931.986 2312.03 4641.61
-932.104 2311.89 4641.66
-932.192 2311.78 4641.71
-927.662 2306.85 4644.41
-927.601 2306.93 4644.42
-927.73 2306.77 4644.39
-927.551 2307.04 4644.43
-927.523 2307.18 4644.44
-927.505 2307.34 4644.44
-927.351 2307.73 4644.6
-927.24 2307.91 4644.71
-927.132 2308.11 4644.82
-927.062 2308.07 4644.87
-927.467 2307.55 4644.49
-928.295 2305.97 4644.68
-928.293 2306.02 4644.62
-928.262 2306.06 4644.6
-928.244 2306.12 4644.55
-928.223 2306.17 4644.5
-928.199 2306.23 4644.45
-928.179 2306.29 4644.4
-928.15 2306.34 4644.36
-928.122 2306.34 4644.37
-928.058 2306.4 4644.34
-928.088 2306.41 4644.32
-927.994 2306.5 4644.3
-927.957 2306.62 4644.3
-927.875 2306.67 4644.33
-927.817 2306.79 4644.34
-928.336 2305.92 4644.71
-926.252 2310.84 4645.09
-926.006 2311.97 4645.15
-926.721 2309.2 4644.96
-926.646 2309.63 4644.92
-926.421 2310.65 4644.99
-926.915 2308.61 4644.97
-926.812 2308.89 4644.98
-926.996 2308.32 4644.95
-932.736 2310.97 4642.56
-932.652 2311.06 4642.49
-932.574 2311.16 4642.38
-932.484 2311.33 4642.16
-932.485 2311.23 4642.31
-944.155 2312.37 4637.75
-944.351 2312.24 4637.88
-944.596 2312.27 4637.71
-944.747 2312.34 4637.49
-944.083 2312.29 4637.97
-944.912 2312.29 4637.57
-945.153 2312.32 4637.42
-943.866 2312.36 4637.98
-945.387 2312.27 4637.5
-946.021 2312.04 4637.84
-945.782 2312.1 4637.8
-945.419 2312.19 4637.71
-946.412 2312.06 4637.78
-946.154 2311.98 4637.92
-946.32 2311.99 4637.9
-941.549 2313.43 4637.83
-941.799 2313.4 4637.76
-942.023 2313.37 4637.69
-942.358 2313.18 4637.79
-943.099 2312.69 4638.01
-943.074 2312.77 4637.9
-941.321 2313.44 4637.94
-932.409 2311.4 4642.09
-932.232 2311.67 4641.8
-932.347 2311.5 4641.98
-932.264 2311.57 4641.91
-935.672 2310.96 4608.52
-935.764 2310.91 4608.55
-935.446 2311.12 4608.49
-935.634 2310.95 4608.39
-935.563 2311 4608.38
-935.492 2311.05 4608.35
-937.247 2310.78 4608.8
-937.063 2310.79 4608.78
-939.06 2311.08 4609.58
-939.859 2311.25 4609.69
-938.892 2311.04 4609.43
-937.536 2310.82 4608.66
-937.347 2310.8 4608.7
-938.378 2310.95 4608.97
-938.094 2310.91 4608.81
-938.598 2310.99 4609.13
-938.833 2311.03 4609.28
-937.892 2310.89 4608.6
-937.645 2310.85 4608.55
-936.965 2310.79 4608.66
-936.783 2310.79 4608.62
-936.595 2310.79 4608.56
-936.402 2310.8 4608.46
-936.191 2310.8 4608.41
-936.008 2310.81 4608.38
-935.82 2310.83 4608.37
-940.275 2311.33 4609.14
-941.059 2311.38 4607.1
-940.896 2311.41 4607.29
-940.734 2311.45 4607.47
-940.585 2311.43 4608.2
-940.639 2311.46 4607.8
-940.359 2311.37 4608.76
-941.204 2311.35 4606.89
-941.328 2311.32 4606.72
-941.393 2311.29 4606.56
-941.544 2311.2 4606.18
-941.312 2311.27 4606.23
-943.054 2310.85 4607.51
-942.611 2310.93 4607.01
-942.238 2311.02 4606.64
-941.923 2311.08 4606.27
-941.678 2311.15 4606.08
-947.7 2310.17 4611.71
-947.601 2310.01 4611.13
-949.227 2309.83 4612.3
-947.011 2309.86 4609.92
-946.643 2309.66 4608.76
-945.09 2310.1 4607.93
-944.589 2310.14 4607.27
-944.074 2310.48 4607.75
-912.23 2319.4 4584.05
-934.888 2311.52 4608.93
-933.504 2313.22 4607.96
-933.525 2313.3 4607.8
-933.497 2313.49 4607.52
-934.729 2311.69 4608.84
-933.825 2312.66 4608.54
-934.427 2312.02 4608.76
-934.615 2311.83 4608.72
-933.895 2312.64 4608.43
-933.887 2313.77 4606.02
-934.487 2313.59 4605.32
-935.108 2313.47 4604.72
-936.034 2313.04 4604.33
-936.429 2312.67 4604.41
-936.768 2312.61 4604.23
-937.058 2312.6 4604.12
-937.285 2312.52 4604.22
-937.556 2312.52 4604.07
-937.922 2312.37 4604.16
-938.101 2312.25 4604.38
-933.717 2313.59 4606.82
-938.458 2312.09 4604.46
-938.258 2312.13 4604.51
-938.699 2312.04 4604.39
-938.731 2312.06 4604.12
-940.034 2311.64 4603.76
-940.192 2311.57 4603.8
-940.157 2311.6 4604.14
-940.174 2311.56 4603.56
-939.058 2311.95 4604.15
-939.325 2311.88 4603.91
-939.515 2311.84 4603.82
-939.739 2311.79 4603.86
-940.078 2311.65 4604.21
-940.254 2311.52 4603.35
-939.83 2311.67 4602.02
-940.363 2311.44 4603.1
-937.126 2312.99 4596.85
-938.429 2312.21 4598.72
-939.605 2311.65 4600.68
-939.842 2311.61 4601.59
-939.222 2311.78 4599.55
-937.038 2313.06 4595.07
-917.161 2321.78 4578.68
-916.681 2321.81 4578.75
-916.567 2321.26 4579.97
-915.943 2320.76 4581.2
-915.081 2320.46 4581.89
-913.649 2319.9 4583.09
-915.941 2321.16 4580.26
-916.15 2321.89 4578.69
-935.149 2311.36 4608.69
-935.368 2311.18 4608.51
-882.107 2329.55 4585.88
-881.527 2330.07 4585.56
-879.906 2331.79 4584.69
-881.277 2330.45 4585.02
-880.816 2330.91 4584.79
-880.566 2331.32 4584.25
-880.256 2331.63 4584.2
-879.935 2331.89 4584.32
-882.238 2329.59 4585.41
-892.502 2322.9 4588.1
-891.011 2323.11 4588.74
-892.189 2323.28 4587.54
-893.896 2322.86 4587.19
-890.518 2323.16 4589.05
-890.323 2323.57 4588.35
-894.369 2323.01 4586.53
-889.729 2324.56 4587.03
-890.402 2324.29 4586.88
-889.985 2324.91 4586.11
-887.791 2325.77 4587.03
-888.382 2325.6 4586.56
-888.54 2325.96 4585.64
-889.158 2325.76 4585.32
-885.497 2326.69 4588.06
-884.463 2327.74 4586.71
-883.573 2328.72 4585.32
-886.576 2326.23 4587.66
-885.887 2326.63 4587.66
-882.871 2329.23 4585.1
-882.519 2329.47 4585.12
-883.193 2329.02 4585.07
-887.101 2326.29 4586.77
-902.335 2321.91 4580.87
-900.17 2322.4 4581.48
-900.8 2322.25 4581.24
-899.4 2322.55 4581.86
-901.197 2322.45 4580.63
-901.883 2322.25 4580.55
-898.434 2322.9 4582.11
-895.298 2322.97 4585.7
-895.367 2323.64 4584.08
-896.4 2323.87 4582.27
-894.184 2323.73 4585.12
-911.822 2319.76 4583.17
-904.656 2321.57 4580.43
-904.1 2321.48 4580.79
-903.839 2321.71 4580.41
-903.035 2321.95 4580.34
-903.654 2322.04 4579.86
-905.774 2321.5 4580.13
-905.473 2321.79 4579.61
-908.476 2320.74 4581.31
-907.521 2321.22 4580.36
-906.687 2321.56 4579.79
-909.991 2320.56 4581.56
-911.325 2320.2 4582.22
-928.583 2305.87 4644.71
-928.525 2305.85 4644.73
-928.464 2305.88 4644.72
-928.4 2305.9 4644.71
-946.743 2311.4 4638.75
-946.654 2311.27 4638.87
-946.515 2311.2 4638.93
-944.729 2309.04 4640.96
-944.917 2309.08 4640.89
-944.253 2308.89 4641.28
-944.503 2308.99 4641.1
-944.07 2308.77 4641.46
-943.823 2308.72 4641.6
-943.55 2308.7 4641.71
-946.454 2311.05 4639.08
-946.263 2310.83 4639.28
-946.294 2310.98 4639.13
-945.885 2310 4640.1
-945.725 2310.02 4640.11
-945.404 2309.49 4640.54
-945.202 2309.36 4640.65
-946.038 2310.51 4639.63
-946.077 2310.85 4639.31
-941.284 2312.93 4638.61
-941.418 2313.16 4638.31
-941.415 2312.78 4638.75
-940.902 2311.34 4640.36
-940.992 2310.51 4641.36
-941.111 2310.78 4641
-941.176 2310.92 4640.78
-941.148 2311.24 4640.42
-941.182 2310.61 4641.15
-940.948 2311.83 4639.82
-941.412 2312.46 4639.09
-941.444 2312.61 4638.93
-941.689 2309.59 4641.84
-941.024 2310.14 4641.74
-941.775 2309.63 4641.74
-941.262 2310.18 4641.57
-941.18 2310.34 4641.45
-941.446 2313.33 4638.05
-932.328 2310.48 4643.15
-932.236 2310.41 4643.21
-932.139 2310.37 4643.25
-932.055 2310.31 4643.3
-932 2310.25 4643.36
-931.972 2310.18 4643.44
-931.979 2310.11 4643.52
-931.894 2310.03 4643.59
-931.889 2309.9 4643.7
-931.887 2309.77 4643.81
-931.88 2309.65 4643.91
-931.968 2309.61 4643.95
-931.934 2309.51 4644.03
-931.963 2309.42 4644.11
-932.063 2309.42 4644.13
-932.378 2310.62 4643.05
-932.464 2310.68 4643
-932.305 2310.54 4643.11
-932.537 2310.77 4642.93
-932.649 2310.94 4642.66
-932.61 2310.85 4642.82
-942.631 2308.97 4641.8
-942.409 2309.12 4641.75
-943.239 2308.76 4641.77
-943.045 2308.86 4641.75
-942.895 2308.89 4641.78
-942.712 2308.98 4641.77
-932.103 2309.33 4644.21
-932.133 2309.22 4644.3
-932.142 2309.12 4644.39
-932.124 2309 4644.5
-932.058 2308.54 4644.9
-932.037 2308.65 4644.77
-931.985 2308.72 4644.65
-931.992 2308.33 4645.03
-931.072 2307.28 4645.09
-931.295 2307.45 4645.18
-931.725 2307.9 4645.2
-930.944 2307.23 4645
-930.749 2307.11 4644.9
-929.727 2306.46 4644.54
-929.579 2306.4 4644.47
-929.415 2306.22 4644.5
-929.207 2306.01 4644.54
-929.107 2305.95 4644.55
-929.049 2305.94 4644.54
-928.995 2305.94 4644.55
-928.935 2305.94 4644.55
-928.915 2305.9 4644.6
-928.884 2305.87 4644.64
-928.823 2305.87 4644.65
-928.763 2305.87 4644.66
-930.504 2306.96 4644.79
-930.347 2306.9 4644.7
-930.243 2306.78 4644.72
-930.016 2306.7 4644.59
-929.883 2306.66 4644.5
-929.743 2306.55 4644.48
-930.175 2306.8 4644.63
-928.705 2305.87 4644.67
-928.645 2305.88 4644.68
-946.63 2311.56 4638.61
-946.549 2311.65 4638.48
-946.494 2311.73 4638.35
-946.548 2311.87 4638.11
-946.439 2311.8 4638.22
-946.432 2311.94 4637.98
-957.263 2308.36 4643.5
-957.538 2308.24 4643.34
-957.803 2308.26 4643.17
-958.09 2308.26 4642.99
-958.248 2308.28 4642.91
-958.36 2308.29 4642.89
-958.754 2308.65 4642.69
-959.84 2308.32 4642.46
-961.309 2306.63 4642.67
-961.201 2306.66 4642.73
-960.191 2306.47 4643.05
-959.582 2306.36 4643.14
-960.933 2306.6 4642.9
-960.798 2306.75 4642.89
-960.947 2306.74 4642.84
-961.068 2306.78 4642.76
-959.166 2306.66 4643.16
-958.972 2306.74 4643.19
-958.793 2306.86 4643.2
-959.402 2306.54 4643.14
-958.306 2306.43 4643.41
-958.485 2306.82 4643.28
-958.551 2306.9 4643.24
-958.62 2306.98 4643.2
-958.414 2306.73 4643.31
-958.355 2306.59 4643.36
-958.178 2306.47 4643.42
-957.565 2307.17 4643.47
-957.471 2307.13 4643.54
-957.948 2306.61 4643.42
-957.276 2307.86 4643.55
-961.206 2306.8 4642.67
-960.988 2307.34 4642.57
-959.944 2308.2 4642.49
-961.021 2307.11 4642.66
-961.061 2306.94 4642.7
-973.74 2305.58 4605.73
-973.968 2305.52 4605.23
-973.54 2305.64 4606.18
-974.495 2305.37 4604.6
-976.026 2305.04 4603.68
-977.335 2304.57 4602.46
-977.984 2304.34 4601.79
-979.136 2304.46 4602.46
-980.11 2304.47 4602.82
-977.826 2304.32 4601.63
-980.883 2304.66 4604.52
-980.877 2304.57 4604.03
-980.854 2304.53 4603.68
-980.824 2304.47 4603.2
-980.634 2304.46 4602.97
-980.368 2304.48 4602.95
-973.329 2305.64 4606.29
-973.112 2305.62 4606.48
