-1536.000000 2244.899902 5192.899902 
-1535.099976 2245.300049 5192.689941 
-1534.900024 2246.500000 5193.910156 
-1534.400024 2247.399902 5194.609863 
-1534.800049 2249.600098 5197.299805 
-1535.199951 2251.600098 5199.799805 
-1537.500000 2256.500000 5207.089844 
-1351.000000 2362.399902 5194.609863 
-1350.500000 2363.300049 5195.310059 
-1349.699951 2363.600098 5195.100098 
-1350.699951 2367.000000 5199.799805 
-1341.699951 2361.800049 5187.589844 
-1339.699951 2360.000000 5184.109863 
-1338.000000 2358.600098 5181.399902 
-1337.199951 2358.899902 5181.089844 
-1336.500000 2359.399902 5181.310059 
-1336.000000 2360.300049 5182.100098 
-1334.300049 2359.100098 5179.500000 
-1333.800049 2359.899902 5180.120117 
-1333.099976 2360.500000 5180.299805 
-1332.099976 2360.399902 5179.500000 
-1331.500000 2361.000000 5179.810059 
-1331.000000 2361.800049 5180.390137 
-1329.599976 2360.899902 5178.410156 
-1329.199951 2361.899902 5179.410156 
-1328.800049 2363.000000 5180.390137 
-1328.300049 2363.899902 5181.209961 
-1327.199951 2363.699951 5180.209961 
-1326.900024 2364.800049 5181.310059 
-1325.800049 2364.699951 5180.509766 
-1324.300049 2363.699951 5178.310059 
-1323.400024 2363.800049 5177.799805 
-1322.300049 2363.699951 5176.910156 
-1321.800049 2364.500000 5177.490234 
-1321.800049 2366.000000 5179.290039 
-1321.300049 2366.800049 5179.899902 
-1319.699951 2365.800049 5177.700195 
-1318.000000 2364.500000 5174.990234 
-1316.800049 2364.000000 5173.609863 
-1316.099976 2364.600098 5173.890137 
-1315.099976 2364.600098 5173.189941 
-1314.699951 2365.699951 5174.290039 
-1314.099976 2366.399902 5174.709961 
-1312.699951 2365.600098 5172.790039 
-1311.599976 2365.399902 5171.910156 
-1310.800049 2365.800049 5171.810059 
-1309.800049 2365.800049 5171.200195 
-1309.199951 2366.300049 5171.390137 
-1308.500000 2366.500000 5171.109863 
-1307.500000 2366.500000 5170.500000 
-1306.500000 2366.300049 5169.589844 
-1306.000000 2367.199951 5170.290039 
-1305.099976 2367.399902 5170.009766 
-1304.199951 2367.399902 5169.399902 
-1303.400024 2367.699951 5169.310059 
-1302.400024 2367.699951 5168.609863 
-1301.699951 2368.300049 5168.790039 
-1300.900024 2368.600098 5168.609863 
-1300.099976 2368.899902 5168.399902 
-1299.300049 2369.100098 5168.209961 
-1298.400024 2369.199951 5167.790039 
-1297.500000 2369.300049 5167.299805 
-1296.800049 2369.800049 5167.390137 
-1296.000000 2370.100098 5167.209961 
-1295.099976 2370.300049 5166.899902 
-1294.199951 2370.500000 5166.589844 
-1293.500000 2371.000000 5166.689941 
-1292.699951 2371.300049 5166.500000 
-1291.900024 2371.600098 5166.410156 
-1291.199951 2372.100098 5166.500000 
-1290.300049 2372.199951 5165.979980 
-1289.599976 2372.699951 5166.109863 
-1288.699951 2372.699951 5165.500000 
-1288.000000 2373.100098 5165.500000 
-1287.199951 2373.300049 5165.410156 
-1286.400024 2373.899902 5165.500000 
-1285.500000 2374.000000 5165.100098 
-1284.699951 2374.300049 5165.009766 
-1283.900024 2374.600098 5164.700195 
-1283.000000 2374.800049 5164.490234 
-1282.500000 2375.600098 5165.009766 
-1281.599976 2375.800049 5164.700195 
-1280.699951 2375.800049 5164.089844 
-1280.099976 2376.399902 5164.490234 
-1279.300049 2376.699951 5164.310059 
-1278.400024 2376.899902 5163.910156 
-1277.599976 2377.300049 5163.910156 
-1276.699951 2377.300049 5163.390137 
-1276.000000 2377.800049 5163.390137 
-1275.199951 2378.000000 5163.209961 
-1274.400024 2378.600098 5163.390137 
-1273.599976 2378.800049 5163.089844 
-1272.900024 2379.199951 5163.089844 
-1272.099976 2379.399902 5162.899902 
-1271.400024 2379.899902 5163.089844 
-1270.500000 2380.199951 5162.810059 
-1269.599976 2380.399902 5162.509766 
-1268.900024 2380.800049 5162.600098 
-1268.199951 2381.300049 5162.600098 
-1267.300049 2381.500000 5162.290039 
-1266.599976 2381.899902 5162.419922 
-1265.699951 2382.100098 5162.109863 
-1265.099976 2382.899902 5162.600098 
-1264.300049 2383.100098 5162.290039 
-1263.599976 2383.600098 5162.509766 
-1262.800049 2383.899902 5162.290039 
-1261.900024 2384.100098 5162.109863 
-1261.099976 2384.399902 5161.899902 
-1260.599976 2385.199951 5162.509766 
-1259.800049 2385.500000 5162.290039 
-1259.099976 2385.899902 5162.419922 
-1258.199951 2386.199951 5162.200195 
-1257.500000 2386.600098 5162.200195 
-1256.599976 2386.800049 5161.899902 
-1256.099976 2387.500000 5162.419922 
-1255.300049 2387.899902 5162.509766 
-1254.599976 2388.399902 5162.509766 
-1253.699951 2388.399902 5161.990234 
-1252.900024 2388.800049 5161.899902 
-1252.300049 2389.399902 5162.290039 
-1251.300049 2389.399902 5161.709961 
-1250.900024 2390.399902 5162.600098 
-1250.099976 2390.600098 5162.290039 
-1249.400024 2391.300049 5162.689941 
-1248.199951 2391.100098 5161.799805 
-1247.500000 2391.399902 5161.799805 
-1246.800049 2391.899902 5161.799805 
-1246.099976 2392.399902 5161.990234 
-1245.099976 2392.300049 5161.189941 
-1244.599976 2393.199951 5161.990234 
-1244.099976 2393.800049 5162.509766 
-1243.099976 2393.899902 5161.899902 
-1242.500000 2394.500000 5162.290039 
-1241.699951 2394.699951 5161.990234 
-1240.599976 2394.699951 5161.290039 
-1240.099976 2395.500000 5161.899902 
-1239.400024 2395.899902 5161.990234 
-1238.599976 2396.300049 5161.899902 
-1237.599976 2396.399902 5161.500000 
-1237.099976 2397.100098 5161.990234 
-1236.199951 2397.199951 5161.589844 
-1235.599976 2397.800049 5161.990234 
-1234.900024 2398.300049 5162.109863 
-1234.000000 2398.300049 5161.589844 
-1233.199951 2398.600098 5161.500000 
-1232.699951 2399.500000 5162.200195 
-1231.699951 2399.500000 5161.589844 
-1230.800049 2399.800049 5161.290039 
-1230.099976 2400.100098 5161.290039 
-1229.300049 2400.500000 5161.290039 
-1228.800049 2401.199951 5161.799805 
-1227.800049 2401.000000 5161.009766 
-1227.199951 2401.699951 5161.410156 
-1226.300049 2401.699951 5160.890137 
-1225.500000 2402.199951 5161.009766 
-1224.699951 2402.399902 5160.709961 
-1224.000000 2402.800049 5160.709961 
-1223.099976 2403.100098 5160.609863 
-1732.900024 2101.100098 5195.399902 
-1732.599976 2102.000000 5196.109863 
-1731.699951 2102.199951 5195.500000 
-1731.099976 2102.899902 5195.709961 
-1730.199951 2103.300049 5195.399902 
-1729.400024 2103.699951 5195.100098 
-1728.699951 2104.300049 5195.100098 
-1728.099976 2105.000000 5195.310059 
-1727.400024 2105.500000 5195.310059 
-1726.800049 2106.199951 5195.500000 
-1726.099976 2106.800049 5195.500000 
-1725.099976 2107.000000 5194.790039 
-1724.599976 2107.899902 5195.399902 
-1723.599976 2108.199951 5194.790039 
-1723.400024 2109.199951 5195.709961 
-1722.800049 2109.899902 5195.890137 
-1721.500000 2109.699951 5194.609863 
-1721.099976 2110.699951 5195.310059 
-1720.400024 2111.199951 5195.310059 
-1720.000000 2111.899902 5195.589844 
-1719.199951 2112.199951 5195.310059 
-1718.699951 2112.800049 5195.500000 
-1718.000000 2113.300049 5195.399902 
-1717.300049 2113.699951 5195.100098 
-1716.500000 2114.100098 5195.009766 
-1715.800049 2114.399902 5194.700195 
-1715.000000 2114.600098 5194.209961 
-1714.400024 2115.199951 5194.299805 
-1713.800049 2115.800049 5194.399902 
-1713.199951 2116.399902 5194.609863 
-1712.300049 2116.600098 5194.000000 
-1711.699951 2117.100098 5194.000000 
-1711.099976 2117.600098 5194.000000 
-1710.400024 2118.199951 5194.000000 
-1709.599976 2118.399902 5193.600098 
-1708.900024 2119.000000 5193.689941 
-1708.400024 2119.699951 5194.000000 
-1707.699951 2120.100098 5193.790039 
-1706.800049 2120.399902 5193.390137 
-1705.699951 2120.399902 5192.410156 
-1705.099976 2121.000000 5192.500000 
-1704.800049 2121.899902 5193.109863 
-1703.800049 2122.000000 5192.500000 
-1703.099976 2122.500000 5192.410156 
-1702.400024 2123.000000 5192.200195 
-1702.000000 2123.800049 5192.810059 
-1701.300049 2124.300049 5192.810059 
-1700.400024 2124.500000 5192.200195 
-1699.800049 2125.100098 5192.410156 
-1699.400024 2126.000000 5192.990234 
-1698.599976 2126.399902 5192.689941 
-1697.900024 2126.899902 5192.689941 
-1696.900024 2127.000000 5191.890137 
-1696.199951 2127.600098 5191.990234 
-1695.699951 2128.399902 5192.290039 
-1695.099976 2129.000000 5192.500000 
-1694.300049 2129.399902 5192.290039 
-1693.599976 2129.800049 5192.109863 
-1692.900024 2130.199951 5191.890137 
-1692.300049 2130.800049 5192.109863 
-1691.800049 2131.600098 5192.410156 
-1691.000000 2131.899902 5192.109863 
-1690.500000 2132.600098 5192.410156 
-1689.800049 2133.100098 5192.410156 
-1689.000000 2133.399902 5191.990234 
-1688.599976 2134.100098 5192.410156 
-1687.599976 2134.199951 5191.709961 
-1686.900024 2134.800049 5191.799805 
-1686.400024 2135.500000 5191.990234 
-1685.699951 2136.000000 5191.990234 
-1685.199951 2136.699951 5192.200195 
-1684.300049 2136.899902 5191.799805 
-1684.000000 2137.800049 5192.500000 
-1683.199951 2138.300049 5192.410156 
-1682.699951 2139.000000 5192.689941 
-1682.199951 2139.699951 5192.990234 
-1681.599976 2140.300049 5193.109863 
-1680.500000 2140.399902 5192.290039 
-1680.099976 2141.300049 5192.899902 
-1679.400024 2141.699951 5192.810059 
-1678.599976 2142.199951 5192.689941 
-1677.800049 2142.500000 5192.410156 
-1677.400024 2143.399902 5192.899902 
-1677.099976 2144.399902 5193.689941 
-1676.099976 2144.399902 5192.899902 
-1675.199951 2144.699951 5192.500000 
-1674.699951 2145.600098 5193.109863 
-1674.000000 2146.000000 5192.899902 
-1673.199951 2146.399902 5192.689941 
-1672.599976 2147.000000 5192.810059 
-1671.900024 2147.500000 5192.810059 
-1671.300049 2148.100098 5192.899902 
-1670.599976 2148.600098 5192.810059 
-1670.000000 2149.199951 5192.899902 
-1669.300049 2149.699951 5192.899902 
-1668.599976 2150.199951 5192.899902 
-1668.300049 2151.100098 5193.600098 
-1667.199951 2151.100098 5192.689941 
-1667.099976 2152.300049 5193.790039 
-1666.500000 2152.899902 5194.000000 
-1665.599976 2153.199951 5193.509766 
-1665.000000 2153.800049 5193.790039 
-1664.400024 2154.500000 5193.910156 
-1663.699951 2154.899902 5193.790039 
-1663.000000 2155.399902 5193.790039 
-1662.500000 2156.000000 5194.000000 
-1661.900024 2156.800049 5194.399902 
-1661.400024 2157.399902 5194.609863 
-1660.699951 2157.899902 5194.490234 
-1660.000000 2158.399902 5194.490234 
-1659.400024 2158.899902 5194.609863 
-1658.699951 2159.399902 5194.490234 
-1658.199951 2160.199951 5195.009766 
-1657.300049 2160.500000 5194.490234 
-1656.800049 2161.199951 5194.879883 
-1655.900024 2161.500000 5194.490234 
-1655.300049 2162.100098 5194.609863 
-1654.699951 2162.600098 5194.609863 
-1654.400024 2163.600098 5195.399902 
-1653.400024 2163.800049 5194.879883 
-1652.800049 2164.399902 5195.009766 
-1652.400024 2165.199951 5195.500000 
-1651.500000 2165.399902 5195.100098 
-1650.900024 2166.000000 5195.189941 
-1650.000000 2166.300049 5194.790039 
-1649.400024 2166.899902 5194.879883 
-1648.800049 2167.500000 5195.100098 
-1648.300049 2168.300049 5195.500000 
-1647.500000 2168.699951 5195.310059 
-1646.900024 2169.199951 5195.310059 
-1646.500000 2170.100098 5196.109863 
-1645.800049 2170.399902 5195.799805 
-1645.000000 2170.899902 5195.709961 
-1644.400024 2171.500000 5195.799805 
-1643.699951 2172.000000 5195.709961 
-1643.199951 2172.800049 5196.200195 
-1642.099976 2172.699951 5195.189941 
-1641.500000 2173.399902 5195.500000 
-1640.900024 2174.000000 5195.589844 
-1640.000000 2174.300049 5195.189941 
-1639.800049 2175.300049 5196.200195 
-1638.800049 2175.399902 5195.500000 
-1638.099976 2175.899902 5195.399902 
-1637.400024 2176.399902 5195.399902 
-1636.900024 2177.100098 5195.799805 
-1636.300049 2177.800049 5195.890137 
-1635.500000 2178.100098 5195.589844 
-1634.599976 2178.399902 5195.189941 
-1633.900024 2178.800049 5195.100098 
-1633.699951 2180.000000 5196.200195 
-1632.599976 2180.100098 5195.500000 
-1631.900024 2180.500000 5195.399902 
-1631.500000 2181.399902 5195.890137 
-1630.800049 2181.800049 5195.890137 
-1630.300049 2182.600098 5196.410156 
-1629.199951 2182.600098 5195.500000 
-1628.800049 2183.500000 5196.109863 
-1628.099976 2184.100098 5196.200195 
-1627.199951 2184.300049 5195.709961 
-1626.300049 2184.500000 5195.100098 
-1625.699951 2185.300049 5195.500000 
-1624.800049 2185.600098 5195.100098 
-1624.199951 2186.100098 5195.189941 
-1623.400024 2186.500000 5194.879883 
-1622.900024 2187.199951 5195.310059 
-1622.000000 2187.399902 5194.790039 
-1621.400024 2188.100098 5195.100098 
-1620.599976 2188.399902 5194.790039 
-1619.500000 2188.500000 5194.000000 
-1618.599976 2188.800049 5193.600098 
-1618.199951 2189.600098 5194.089844 
-1617.300049 2190.000000 5193.910156 
-1617.000000 2191.000000 5194.700195 
-1616.400024 2191.500000 5194.790039 
-1615.300049 2191.500000 5193.790039 
-1614.500000 2191.800049 5193.509766 
-1612.800049 2191.000000 5191.310059 
-1612.000000 2191.399902 5191.100098 
-1611.400024 2192.000000 5191.310059 
-1610.400024 2192.000000 5190.490234 
-1609.599976 2192.600098 5190.490234 
-1608.599976 2192.600098 5189.700195 
-1607.699951 2192.800049 5189.209961 
-1598.199951 2203.500000 5193.299805 
-1598.400024 2205.300049 5195.399902 
-1597.800049 2205.800049 5195.589844 
-1597.199951 2206.600098 5195.890137 
-1596.300049 2206.800049 5195.399902 
-1595.800049 2207.600098 5195.890137 
-1594.800049 2207.699951 5195.189941 
-1594.800049 2209.199951 5196.899902 
-1593.599976 2209.100098 5195.799805 
-1593.500000 2210.500000 5197.299805 
-1591.699951 2209.399902 5194.700195 
-1589.699951 2208.199951 5191.709961 
-1583.599976 2210.100098 5188.990234 
-1543.800049 2239.500000 5190.609863 
-1543.500000 2240.699951 5191.709961 
-1543.099976 2241.500000 5192.290039 
-1542.300049 2241.899902 5192.109863 
-1541.800049 2242.899902 5192.810059 
-1541.199951 2243.500000 5192.990234 
-1540.199951 2243.500000 5192.200195 
-1539.199951 2243.500000 5191.500000 
-1538.599976 2244.199951 5191.799805 
-1537.599976 2244.300049 5191.100098 
-1536.500000 2244.199951 5190.189941 
-1535.500000 2244.300049 5189.509766 
-1535.099976 2245.300049 5190.399902 
-1534.099976 2245.399902 5189.609863 
-1533.199951 2247.199951 5191.009766 
-1342.900024 2367.300049 5192.500000 
-1334.500000 2354.100098 5171.390137 
-1335.099976 2356.899902 5174.990234 
-1341.300049 2369.699951 5194.209961 
-1337.800049 2365.199951 5186.620117 
-1334.800049 2361.699951 5180.509766 
-1332.400024 2359.300049 5176.089844 
-1331.599976 2359.600098 5175.899902 
-1332.099976 2362.100098 5179.200195 
-1331.300049 2362.399902 5178.890137 
-1329.300049 2360.399902 5175.200195 
-1330.000000 2363.399902 5179.290039 
-1329.300049 2363.800049 5179.410156 
-1326.500000 2360.699951 5173.799805 
-1327.699951 2364.500000 5179.109863 
-1327.900024 2366.600098 5181.700195 
-1326.800049 2366.399902 5180.700195 
-1325.599976 2366.000000 5179.410156 
-1325.099976 2366.800049 5180.120117 
-1320.500000 2369.000000 5179.600098 
-1318.800049 2367.699951 5177.000000 
-1318.199951 2368.300049 5177.310059 
-1317.400024 2368.800049 5177.399902 
-1318.900024 2373.300049 5183.810059 
-1318.300049 2373.899902 5183.990234 
-1314.699951 2369.100098 5175.899902 
-1312.300049 2366.600098 5171.390137 
-1311.699951 2367.399902 5171.910156 
-1310.500000 2367.000000 5170.680176 
-1310.000000 2367.699951 5171.200195 
-1309.199951 2367.899902 5170.810059 
-1308.400024 2368.000000 5170.500000 
-1307.400024 2368.000000 5169.799805 
-1306.699951 2368.600098 5170.100098 
-1305.900024 2368.800049 5169.799805 
-1304.900024 2368.699951 5169.009766 
-1304.099976 2369.000000 5168.919922 
-1303.300049 2369.399902 5168.790039 
-1302.300049 2369.399902 5168.089844 
-1301.699951 2370.000000 5168.490234 
-1300.800049 2370.100098 5168.089844 
-1299.900024 2370.300049 5167.689941 
-1299.199951 2370.699951 5167.689941 
-1298.300049 2370.699951 5167.109863 
-1297.500000 2371.100098 5166.990234 
-1296.599976 2371.199951 5166.689941 
-1295.699951 2371.399902 5166.290039 
-1294.900024 2371.699951 5166.109863 
-1294.099976 2372.199951 5166.200195 
-1293.400024 2372.600098 5166.200195 
-1292.500000 2372.699951 5165.799805 
-1291.699951 2373.000000 5165.500000 
-1291.000000 2373.600098 5165.799805 
-1290.300049 2373.800049 5165.589844 
-1289.199951 2373.600098 5164.609863 
-1288.599976 2374.199951 5164.890137 
-1287.800049 2374.399902 5164.700195 
-1287.000000 2374.899902 5164.700195 
-1286.099976 2375.199951 5164.609863 
-1285.400024 2375.600098 5164.490234 
-1284.300049 2375.399902 5163.609863 
-1283.800049 2376.300049 5164.399902 
-1282.900024 2376.300049 5163.790039 
-1282.000000 2376.600098 5163.509766 
-1281.199951 2376.800049 5163.299805 
-1280.699951 2377.600098 5163.910156 
-1279.699951 2377.500000 5163.209961 
-1279.000000 2378.100098 5163.509766 
-1278.099976 2378.100098 5162.810059 
-1277.300049 2378.399902 5162.689941 
-1276.599976 2379.000000 5162.899902 
-1275.900024 2379.399902 5162.899902 
-1275.000000 2379.500000 5162.509766 
-1274.199951 2379.899902 5162.509766 
-1273.400024 2380.199951 5162.290039 
-1272.699951 2380.600098 5162.419922 
-1271.900024 2380.899902 5162.200195 
-1271.000000 2381.199951 5161.990234 
-1270.099976 2381.399902 5161.589844 
-1269.300049 2381.600098 5161.410156 
-1268.699951 2382.199951 5161.799805 
-1268.000000 2382.699951 5161.899902 
-1267.099976 2382.899902 5161.500000 
-1266.300049 2383.300049 5161.500000 
-1265.599976 2383.899902 5161.799805 
-1264.800049 2384.100098 5161.500000 
-1264.199951 2384.699951 5161.899902 
-1263.400024 2385.000000 5161.589844 
-1262.500000 2385.199951 5161.410156 
-1261.800049 2385.500000 5161.290039 
-1261.000000 2385.899902 5161.290039 
-1260.199951 2386.100098 5161.009766 
-1259.400024 2386.500000 5161.009766 
-1258.699951 2387.000000 5161.189941 
-1257.900024 2387.300049 5160.890137 
-1257.199951 2387.800049 5161.189941 
-1256.400024 2388.100098 5161.009766 
-1255.800049 2388.899902 5161.589844 
-1254.800049 2388.800049 5160.709961 
-1254.000000 2389.100098 5160.709961 
-1253.500000 2389.699951 5161.100098 
-1252.699951 2390.100098 5161.009766 
-1251.900024 2390.600098 5161.100098 
-1251.099976 2390.800049 5160.890137 
-1250.400024 2391.300049 5161.100098 
-1249.599976 2391.699951 5161.009766 
-1248.699951 2392.000000 5160.799805 
-1248.099976 2392.500000 5161.009766 
-1247.199951 2392.500000 5160.490234 
-1246.699951 2393.500000 5161.290039 
-1245.599976 2393.199951 5160.310059 
-1245.000000 2393.800049 5160.609863 
-1244.199951 2394.199951 5160.609863 
-1243.400024 2394.300049 5160.189941 
-1242.699951 2394.899902 5160.490234 
-1241.800049 2395.000000 5160.100098 
-1241.199951 2395.800049 5160.709961 
-1240.300049 2395.800049 5160.100098 
-1239.699951 2396.500000 5160.490234 
-1238.900024 2396.899902 5160.490234 
-1238.099976 2397.199951 5160.490234 
-1237.400024 2397.600098 5160.490234 
-1236.599976 2397.899902 5160.310059 
-1236.000000 2398.500000 5160.609863 
-1235.099976 2398.800049 5160.399902 
-1234.300049 2399.000000 5160.189941 
-1233.500000 2399.300049 5160.189941 
-1233.000000 2400.100098 5160.799805 
-1232.099976 2400.300049 5160.399902 
-1231.000000 2400.100098 5159.609863 
-1230.300049 2400.500000 5159.609863 
-1229.500000 2400.899902 5159.609863 
-1228.800049 2401.300049 5159.609863 
-1228.099976 2401.800049 5159.700195 
-1227.500000 2402.199951 5159.910156 
-1226.500000 2402.199951 5159.209961 
-1225.800049 2402.699951 5159.390137 
-1225.000000 2403.000000 5159.299805 
-1224.199951 2403.199951 5159.000000 
-1223.500000 2403.699951 5159.299805 
-1733.199951 2101.500000 5193.689941 
-1732.800049 2102.199951 5194.089844 
-1732.000000 2102.699951 5193.910156 
-1731.199951 2103.100098 5193.689941 
-1730.599976 2103.800049 5193.790039 
-1729.599976 2103.899902 5193.109863 
-1729.000000 2104.600098 5193.390137 
-1728.400024 2105.300049 5193.509766 
-1727.400024 2105.600098 5192.990234 
-1727.000000 2106.399902 5193.509766 
-1726.199951 2107.000000 5193.390137 
-1725.400024 2107.399902 5193.209961 
-1724.699951 2107.899902 5193.109863 
-1723.800049 2108.300049 5192.689941 
-1723.400024 2109.199951 5193.299805 
-1722.900024 2110.000000 5193.790039 
-1722.000000 2110.300049 5193.209961 
-1721.400024 2111.000000 5193.509766 
-1720.500000 2111.300049 5193.109863 
-1719.900024 2111.800049 5193.109863 
-1719.400024 2112.399902 5193.209961 
-1718.900024 2113.100098 5193.600098 
-1718.099976 2113.399902 5193.209961 
-1717.500000 2113.899902 5193.209961 
-1716.800049 2114.399902 5193.209961 
-1715.800049 2114.399902 5192.200195 
-1715.000000 2114.699951 5191.890137 
-1714.699951 2115.600098 5192.689941 
-1714.000000 2116.000000 5192.410156 
-1713.300049 2116.600098 5192.500000 
-1712.599976 2116.899902 5192.200195 
-1711.900024 2117.300049 5192.109863 
-1711.300049 2117.800049 5192.109863 
-1710.599976 2118.399902 5192.109863 
-1709.699951 2118.600098 5191.500000 
-1709.300049 2119.500000 5192.109863 
-1708.599976 2119.899902 5191.890137 
-1707.800049 2120.300049 5191.709961 
-1707.000000 2120.600098 5191.189941 
-1706.300049 2121.100098 5191.189941 
-1705.699951 2121.699951 5191.410156 
-1705.099976 2122.300049 5191.500000 
-1704.300049 2122.699951 5191.310059 
-1703.500000 2123.100098 5191.009766 
-1702.800049 2123.500000 5190.799805 
-1702.400024 2124.199951 5191.189941 
-1701.900024 2125.000000 5191.709961 
-1701.000000 2125.300049 5191.189941 
-1700.300049 2125.699951 5191.100098 
-1699.699951 2126.399902 5191.189941 
-1699.000000 2126.899902 5191.100098 
-1698.400024 2127.500000 5191.410156 
-1697.400024 2127.699951 5190.609863 
-1696.800049 2128.399902 5190.890137 
-1696.199951 2129.100098 5191.189941 
-1695.400024 2129.399902 5190.799805 
-1694.900024 2130.100098 5191.189941 
-1694.199951 2130.600098 5191.100098 
-1693.400024 2130.899902 5190.799805 
-1692.900024 2131.600098 5191.100098 
-1692.099976 2132.100098 5190.890137 
-1691.599976 2132.699951 5191.100098 
-1691.000000 2133.300049 5191.189941 
-1690.300049 2133.600098 5190.890137 
-1689.599976 2134.100098 5190.890137 
-1689.000000 2134.699951 5191.009766 
-1688.400024 2135.300049 5191.100098 
-1687.699951 2135.699951 5191.009766 
-1687.000000 2136.300049 5191.100098 
-1686.300049 2136.800049 5191.009766 
-1685.800049 2137.399902 5191.189941 
-1685.199951 2138.000000 5191.410156 
-1684.699951 2138.699951 5191.709961 
-1684.000000 2139.199951 5191.589844 
-1683.300049 2139.800049 5191.589844 
-1682.699951 2140.500000 5191.890137 
-1682.199951 2141.100098 5192.109863 
-1681.300049 2141.300049 5191.589844 
-1680.699951 2142.100098 5191.890137 
-1680.099976 2142.600098 5191.890137 
-1679.400024 2143.100098 5191.890137 
-1678.800049 2143.699951 5191.990234 
-1678.000000 2144.199951 5191.890137 
-1677.500000 2144.899902 5192.290039 
-1676.800049 2145.300049 5192.109863 
-1676.000000 2145.699951 5191.890137 
-1675.500000 2146.600098 5192.290039 
-1674.599976 2146.800049 5191.890137 
-1674.099976 2147.500000 5192.200195 
-1673.500000 2148.100098 5192.290039 
-1672.599976 2148.399902 5191.890137 
-1672.099976 2149.100098 5192.200195 
-1671.599976 2149.899902 5192.689941 
-1670.800049 2150.199951 5192.290039 
-1670.199951 2150.899902 5192.600098 
-1669.500000 2151.300049 5192.500000 
-1669.199951 2152.300049 5193.209961 
-1668.400024 2152.600098 5192.810059 
-1667.800049 2153.300049 5193.209961 
-1667.300049 2153.899902 5193.390137 
-1666.500000 2154.399902 5193.209961 
-1665.900024 2155.000000 5193.299805 
-1665.400024 2155.800049 5193.910156 
-1664.699951 2156.300049 5193.790039 
-1663.900024 2156.600098 5193.509766 
-1663.699951 2157.600098 5194.299805 
-1662.800049 2157.800049 5193.790039 
-1662.199951 2158.399902 5194.000000 
-1661.500000 2158.899902 5194.000000 
-1661.000000 2159.600098 5194.209961 
-1660.400024 2160.199951 5194.399902 
-1659.699951 2160.699951 5194.399902 
-1659.199951 2161.500000 5194.790039 
-1658.199951 2161.600098 5194.089844 
-1657.599976 2162.300049 5194.299805 
-1657.099976 2163.000000 5194.700195 
-1656.099976 2163.100098 5194.089844 
-1655.900024 2164.199951 5194.879883 
-1655.199951 2164.699951 5195.009766 
-1654.300049 2164.899902 5194.490234 
-1653.500000 2165.199951 5194.089844 
-1653.000000 2166.000000 5194.609863 
-1652.199951 2166.399902 5194.299805 
-1651.599976 2166.899902 5194.399902 
-1651.000000 2167.600098 5194.609863 
-1650.599976 2168.399902 5195.189941 
-1649.599976 2168.500000 5194.490234 
-1649.199951 2169.500000 5195.189941 
-1648.400024 2169.800049 5194.879883 
-1647.800049 2170.399902 5195.009766 
-1647.199951 2171.000000 5195.189941 
-1646.699951 2171.699951 5195.500000 
-1646.000000 2172.199951 5195.589844 
-1645.300049 2172.699951 5195.399902 
-1644.500000 2173.100098 5195.310059 
-1643.800049 2173.500000 5195.009766 
-1642.599976 2173.399902 5194.000000 
-1642.000000 2174.000000 5194.209961 
-1641.599976 2174.899902 5194.790039 
-1640.400024 2174.800049 5193.790039 
-1640.000000 2175.600098 5194.209961 
-1639.400024 2176.300049 5194.490234 
-1639.199951 2177.300049 5195.500000 
-1638.400024 2177.699951 5195.189941 
-1638.000000 2178.699951 5196.009766 
-1637.199951 2178.899902 5195.589844 
-1636.400024 2179.399902 5195.500000 
-1635.400024 2179.500000 5194.700195 
-1634.900024 2180.199951 5195.189941 
-1634.400024 2180.899902 5195.500000 
-1633.500000 2181.300049 5195.100098 
-1633.300049 2182.300049 5196.009766 
-1632.699951 2182.899902 5196.200195 
-1631.900024 2183.399902 5196.200195 
-1631.599976 2184.300049 5196.810059 
-1630.699951 2184.600098 5196.500000 
-1630.000000 2185.199951 5196.500000 
-1629.599976 2186.100098 5197.200195 
-1628.699951 2186.300049 5196.689941 
-1627.599976 2186.300049 5195.709961 
-1626.800049 2186.699951 5195.589844 
-1626.099976 2187.199951 5195.500000 
-1625.500000 2187.800049 5195.709961 
-1624.699951 2188.199951 5195.500000 
-1624.000000 2188.699951 5195.500000 
-1623.000000 2188.699951 5194.700195 
-1622.300049 2189.199951 5194.609863 
-1620.099976 2187.800049 5191.310059 
-1618.400024 2187.000000 5189.089844 
-1615.300049 2188.699951 5188.379883 
-1600.199951 2206.300049 5195.589844 
-1599.199951 2206.399902 5195.009766 
-1598.800049 2207.199951 5195.500000 
-1597.699951 2207.199951 5194.700195 
-1598.300049 2209.600098 5197.689941 
-1596.099976 2208.000000 5194.209961 
-1596.400024 2209.899902 5196.500000 
-1595.199951 2209.800049 5195.500000 
-1594.300049 2210.000000 5195.009766 
-1594.400024 2211.699951 5196.899902 
-1592.099976 2210.000000 5193.209961 
-1543.300049 2240.399902 5188.810059 
-1542.699951 2241.000000 5189.089844 
-1541.800049 2241.300049 5188.600098 
-1540.699951 2241.100098 5187.589844 
-1540.900024 2242.899902 5189.700195 
-1539.599976 2242.699951 5188.509766 
-1538.800049 2242.899902 5188.109863 
-1334.699951 2359.800049 5175.899902 
-1339.800049 2370.500000 5191.890137 
-1330.800049 2358.199951 5171.290039 
-1336.099976 2369.300049 5187.990234 
-1318.599976 2343.100098 5145.390137 
-1322.000000 2354.300049 5161.009766 
-1327.900024 2366.699951 5179.500000 
-1330.400024 2372.800049 5188.290039 
-1331.699951 2377.000000 5194.089844 
-1326.800049 2380.300049 5194.790039 
-1323.599976 2376.300049 5187.899902 
-1324.800049 2380.199951 5193.390137 
-1325.900024 2387.600098 5202.910156 
-1316.000000 2371.600098 5177.399902 
-1313.000000 2367.800049 5170.899902 
-1312.000000 2367.899902 5170.410156 
-1311.199951 2368.199951 5170.100098 
-1310.800049 2369.100098 5170.990234 
-1310.099976 2369.500000 5170.990234 
-1309.199951 2369.600098 5170.500000 
-1308.199951 2369.500000 5169.799805 
-1307.300049 2369.500000 5169.189941 
-1306.599976 2370.000000 5169.399902 
-1305.900024 2370.500000 5169.399902 
-1305.000000 2370.699951 5169.189941 
-1304.199951 2371.000000 5168.919922 
-1303.300049 2371.100098 5168.490234 
-1302.300049 2371.199951 5167.910156 
-1301.500000 2371.399902 5167.689941 
-1300.599976 2371.500000 5167.209961 
-1300.099976 2372.199951 5167.689941 
-1299.199951 2372.399902 5167.390137 
-1298.300049 2372.399902 5166.689941 
-1297.300049 2372.300049 5165.979980 
-1296.500000 2372.800049 5166.109863 
-1295.699951 2373.100098 5165.890137 
-1294.900024 2373.600098 5165.890137 
-1294.199951 2374.000000 5165.890137 
-1293.300049 2374.100098 5165.500000 
-1292.500000 2374.500000 5165.500000 
-1291.599976 2374.699951 5165.100098 
-1290.900024 2375.100098 5165.189941 
-1289.900024 2374.899902 5164.310059 
-1289.300049 2375.500000 5164.490234 
-1288.400024 2375.500000 5164.089844 
-1287.599976 2376.000000 5164.089844 
-1286.800049 2376.500000 5164.220215 
-1286.000000 2376.699951 5163.910156 
-1285.000000 2376.600098 5163.089844 
-1284.500000 2377.500000 5163.790039 
-1283.500000 2377.399902 5163.089844 
-1282.800049 2377.899902 5163.299805 
-1282.000000 2378.199951 5163.209961 
-1281.300049 2378.800049 5163.299805 
-1280.300049 2378.600098 5162.509766 
-1279.599976 2379.199951 5162.810059 
-1278.800049 2379.500000 5162.600098 
-1278.000000 2379.800049 5162.419922 
-1277.300049 2380.100098 5162.419922 
-1276.400024 2380.300049 5161.990234 
-1275.500000 2380.500000 5161.709961 
-1274.800049 2381.000000 5161.799805 
-1274.000000 2381.199951 5161.500000 
-1273.199951 2381.600098 5161.589844 
-1272.400024 2381.800049 5161.189941 
-1271.699951 2382.500000 5161.709961 
-1270.599976 2382.199951 5160.609863 
-1270.000000 2382.899902 5161.100098 
-1269.199951 2383.100098 5160.799805 
-1268.400024 2383.500000 5160.709961 
-1267.599976 2383.800049 5160.490234 
-1266.800049 2384.199951 5160.609863 
-1266.000000 2384.500000 5160.490234 
-1265.400024 2385.100098 5160.709961 
-1264.599976 2385.500000 5160.709961 
-1263.900024 2386.000000 5160.799805 
-1263.099976 2386.199951 5160.609863 
-1262.300049 2386.500000 5160.490234 
-1261.699951 2387.100098 5160.709961 
-1260.599976 2387.000000 5160.000000 
-1259.900024 2387.500000 5160.189941 
-1259.300049 2388.100098 5160.490234 
-1258.400024 2388.300049 5160.189941 
-1257.699951 2388.800049 5160.310059 
-1256.900024 2389.100098 5160.100098 
-1256.199951 2389.500000 5160.189941 
-1255.400024 2389.899902 5160.189941 
-1254.599976 2390.100098 5159.910156 
-1254.000000 2390.699951 5160.189941 
-1253.199951 2391.100098 5160.189941 
-1252.300049 2391.199951 5159.790039 
-1251.500000 2391.600098 5159.700195 
-1250.800049 2392.000000 5159.790039 
-1250.000000 2392.399902 5159.700195 
-1249.300049 2393.000000 5160.000000 
-1248.599976 2393.500000 5160.189941 
-1247.699951 2393.600098 5159.790039 
-1247.000000 2394.000000 5159.790039 
-1246.099976 2394.100098 5159.390137 
-1245.500000 2394.899902 5159.910156 
-1244.699951 2395.000000 5159.490234 
-1243.800049 2395.100098 5159.000000 
-1243.199951 2395.800049 5159.490234 
-1242.300049 2395.899902 5159.209961 
-1241.599976 2396.500000 5159.390137 
-1240.699951 2396.699951 5159.089844 
-1240.099976 2397.300049 5159.490234 
-1239.199951 2397.500000 5159.089844 
-1238.599976 2398.100098 5159.390137 
-1237.699951 2398.199951 5159.000000 
-1237.099976 2398.899902 5159.490234 
-1236.199951 2399.000000 5159.089844 
-1235.599976 2399.600098 5159.390137 
-1234.599976 2399.600098 5158.810059 
-1233.900024 2400.100098 5159.000000 
-1233.099976 2400.300049 5158.689941 
-1232.400024 2400.899902 5159.000000 
-1231.500000 2401.000000 5158.509766 
-1230.699951 2401.199951 5158.299805 
-1229.900024 2401.600098 5158.299805 
-1229.199951 2402.100098 5158.509766 
-1228.500000 2402.399902 5158.390137 
-1227.699951 2402.699951 5158.299805 
-1227.000000 2403.100098 5158.299805 
-1226.000000 2403.000000 5157.589844 
-1225.500000 2403.899902 5158.299805 
-1224.500000 2403.800049 5157.589844 
-1223.800049 2404.199951 5157.709961 
-1732.900024 2102.399902 5191.990234 
-1732.400024 2103.100098 5192.200195 
-1731.500000 2103.500000 5191.890137 
-1730.800049 2104.000000 5191.890137 
-1729.900024 2104.300049 5191.410156 
-1729.500000 2105.199951 5191.890137 
-1729.000000 2106.000000 5192.410156 
-1728.000000 2106.300049 5191.890137 
-1727.199951 2106.800049 5191.709961 
-1726.400024 2107.199951 5191.500000 
-1725.699951 2107.800049 5191.500000 
-1724.900024 2108.300049 5191.310059 
-1724.199951 2108.899902 5191.310059 
-1723.599976 2109.500000 5191.500000 
-1723.199951 2110.300049 5191.890137 
-1722.300049 2110.600098 5191.500000 
-1721.699951 2111.399902 5191.890137 
-1720.800049 2111.699951 5191.310059 
-1720.099976 2112.100098 5191.189941 
-1719.599976 2112.699951 5191.410156 
-1719.000000 2113.199951 5191.410156 
-1718.199951 2113.500000 5191.009766 
-1717.599976 2114.000000 5191.100098 
-1716.900024 2114.500000 5190.890137 
-1716.000000 2114.699951 5190.490234 
-1715.599976 2115.399902 5190.890137 
-1715.099976 2116.000000 5191.009766 
-1714.099976 2116.300049 5190.490234 
-1713.800049 2117.100098 5191.009766 
-1713.099976 2117.600098 5191.009766 
-1712.400024 2117.899902 5190.609863 
-1711.500000 2118.100098 5190.189941 
-1710.800049 2118.600098 5190.089844 
-1710.099976 2119.100098 5190.000000 
-1709.400024 2119.600098 5190.000000 
-1708.699951 2120.100098 5189.910156 
-1708.099976 2120.600098 5189.790039 
-1707.400024 2121.100098 5189.790039 
-1706.900024 2121.800049 5190.189941 
-1706.300049 2122.399902 5190.310059 
-1705.699951 2123.000000 5190.310059 
-1704.800049 2123.300049 5189.910156 
-1704.199951 2123.899902 5190.000000 
-1703.500000 2124.300049 5189.910156 
-1702.900024 2124.800049 5189.910156 
-1702.300049 2125.399902 5190.000000 
-1701.599976 2126.000000 5190.000000 
-1700.900024 2126.500000 5189.910156 
-1700.199951 2127.100098 5190.000000 
-1699.400024 2127.399902 5189.700195 
-1699.099976 2128.300049 5190.310059 
-1698.000000 2128.399902 5189.609863 
-1697.500000 2129.199951 5190.000000 
-1696.800049 2129.800049 5190.000000 
-1696.099976 2130.300049 5189.910156 
-1695.599976 2131.000000 5190.310059 
-1694.800049 2131.300049 5189.910156 
-1694.099976 2131.699951 5189.790039 
-1693.500000 2132.399902 5190.000000 
-1692.800049 2132.899902 5190.000000 
-1692.300049 2133.600098 5190.189941 
-1691.699951 2134.100098 5190.310059 
-1691.000000 2134.600098 5190.189941 
-1690.400024 2135.100098 5190.189941 
-1689.500000 2135.300049 5189.790039 
-1689.199951 2136.199951 5190.490234 
-1688.300049 2136.500000 5190.000000 
-1687.800049 2137.300049 5190.490234 
-1687.099976 2137.800049 5190.310059 
-1686.699951 2138.600098 5190.799805 
-1686.099976 2139.199951 5191.009766 
-1685.599976 2139.899902 5191.310059 
-1684.800049 2140.300049 5191.009766 
-1683.900024 2140.500000 5190.609863 
-1683.400024 2141.300049 5190.890137 
-1682.800049 2141.899902 5191.189941 
-1682.099976 2142.399902 5191.009766 
-1681.599976 2143.199951 5191.500000 
-1680.800049 2143.600098 5191.189941 
-1680.199951 2144.100098 5191.310059 
-1679.699951 2144.800049 5191.589844 
-1679.000000 2145.399902 5191.589844 
-1678.099976 2145.699951 5191.189941 
-1677.699951 2146.500000 5191.709961 
-1676.699951 2146.699951 5191.189941 
-1676.400024 2147.699951 5191.890137 
-1675.300049 2147.699951 5191.009766 
-1675.000000 2148.600098 5191.709961 
-1674.500000 2149.399902 5192.109863 
-1673.699951 2149.699951 5191.890137 
-1673.000000 2150.300049 5191.890137 
-1672.500000 2151.000000 5192.200195 
-1671.800049 2151.500000 5192.200195 
-1671.099976 2152.000000 5192.200195 
-1670.500000 2152.500000 5192.200195 
-1670.000000 2153.199951 5192.500000 
-1669.400024 2153.899902 5192.689941 
-1668.500000 2154.199951 5192.290039 
-1668.199951 2155.100098 5192.990234 
-1667.599976 2155.800049 5193.299805 
-1666.900024 2156.300049 5193.209961 
-1666.400024 2157.000000 5193.600098 
-1665.699951 2157.500000 5193.509766 
-1664.800049 2157.800049 5193.109863 
-1664.699951 2158.899902 5194.209961 
-1663.800049 2159.199951 5193.689941 
-1663.099976 2159.600098 5193.600098 
-1662.199951 2159.800049 5193.209961 
-1662.000000 2160.899902 5194.089844 
-1661.300049 2161.500000 5194.209961 
-1660.699951 2162.000000 5194.299805 
-1660.199951 2162.699951 5194.609863 
-1659.300049 2163.100098 5194.209961 
-1658.599976 2163.600098 5194.299805 
-1658.000000 2164.100098 5194.299805 
-1657.099976 2164.399902 5193.910156 
-1656.500000 2164.899902 5193.910156 
-1655.800049 2165.399902 5193.910156 
-1654.599976 2165.300049 5192.689941 
-1653.000000 2164.600098 5190.700195 
-1651.599976 2164.100098 5188.990234 
-1650.500000 2164.100098 5188.109863 
-1650.199951 2165.100098 5188.899902 
-1650.699951 2167.199951 5191.589844 
-1650.400024 2168.199951 5192.410156 
-1649.400024 2168.399902 5191.799805 
-1648.699951 2168.800049 5191.709961 
-1647.500000 2168.600098 5190.399902 
-1647.300049 2169.800049 5191.589844 
-1647.199951 2171.000000 5192.899902 
-1647.300049 2172.500000 5194.490234 
-1647.000000 2173.500000 5195.310059 
-1646.099976 2173.800049 5195.009766 
-1644.900024 2173.600098 5193.689941 
-1643.300049 2172.899902 5191.709961 
-1640.900024 2171.100098 5187.709961 
-1640.699951 2172.300049 5188.899902 
-1640.599976 2173.600098 5190.310059 
-1639.599976 2173.699951 5189.609863 
-1638.800049 2176.899902 5192.290039 
-1639.000000 2178.399902 5194.089844 
-1638.400024 2179.100098 5194.299805 
-1637.599976 2179.500000 5194.209961 
-1636.300049 2179.300049 5192.899902 
-1635.900024 2180.100098 5193.390137 
-1635.599976 2181.199951 5194.399902 
-1634.800049 2181.500000 5194.000000 
-1634.599976 2182.800049 5195.310059 
-1634.699951 2184.199951 5196.899902 
-1634.000000 2184.699951 5196.899902 
-1633.099976 2184.899902 5196.290039 
-1632.800049 2186.000000 5197.299805 
-1632.000000 2186.300049 5196.899902 
-1631.300049 2186.899902 5196.990234 
-1630.800049 2187.600098 5197.390137 
-1629.900024 2188.000000 5197.109863 
-1628.800049 2188.000000 5196.200195 
-1627.900024 2188.199951 5195.709961 
-1627.400024 2188.899902 5196.109863 
-1626.500000 2189.100098 5195.500000 
-1625.599976 2189.399902 5195.100098 
-1624.000000 2188.600098 5192.990234 
-1623.099976 2188.899902 5192.600098 
-1621.599976 2188.199951 5190.609863 
-1599.699951 2205.600098 5192.109863 
-1597.800049 2204.399902 5189.209961 
-1601.400024 2210.899902 5199.189941 
-1600.599976 2211.100098 5198.790039 
-1599.000000 2211.899902 5198.399902 
-1594.199951 2208.300049 5190.700195 
-1315.300049 2370.199951 5172.910156 
-1312.599976 2367.100098 5167.390137 
-1313.400024 2370.500000 5172.000000 
-1314.400024 2374.000000 5176.910156 
-1312.199951 2371.699951 5172.700195 
-1311.300049 2371.600098 5171.910156 
-1310.000000 2370.899902 5170.200195 
-1309.300049 2371.500000 5170.500000 
-1308.099976 2371.000000 5169.189941 
-1307.599976 2371.800049 5169.709961 
-1307.099976 2372.600098 5170.410156 
-1306.099976 2372.600098 5169.799805 
-1305.099976 2372.699951 5169.189941 
-1304.300049 2372.899902 5168.919922 
-1303.199951 2372.800049 5168.089844 
-1302.400024 2373.100098 5167.910156 
-1301.599976 2373.300049 5167.600098 
-1300.800049 2373.600098 5167.509766 
-1300.099976 2373.899902 5167.390137 
-1299.099976 2373.899902 5166.589844 
-1298.099976 2373.800049 5165.890137 
-1297.400024 2374.399902 5166.109863 
-1296.500000 2374.699951 5165.890137 
-1295.500000 2374.699951 5165.410156 
-1294.800049 2375.199951 5165.500000 
-1294.099976 2375.699951 5165.589844 
-1293.199951 2375.699951 5165.100098 
-1292.300049 2375.800049 5164.609863 
-1291.599976 2376.399902 5164.799805 
-1290.599976 2376.199951 5164.000000 
-1290.000000 2376.800049 5164.310059 
-1289.000000 2376.800049 5163.609863 
-1288.199951 2377.199951 5163.609863 
-1287.300049 2377.399902 5163.299805 
-1286.599976 2377.899902 5163.299805 
-1285.800049 2378.000000 5162.990234 
-1285.000000 2378.500000 5162.990234 
-1284.199951 2378.800049 5162.899902 
-1283.500000 2379.300049 5162.990234 
-1282.699951 2379.500000 5162.689941 
-1281.900024 2379.699951 5162.509766 
-1281.099976 2380.199951 5162.600098 
-1280.199951 2380.199951 5161.990234 
-1279.500000 2380.800049 5162.290039 
-1278.699951 2381.000000 5161.899902 
-1277.699951 2380.899902 5161.290039 
-1276.900024 2381.300049 5161.189941 
-1276.099976 2381.699951 5161.189941 
-1275.500000 2382.300049 5161.500000 
-1274.599976 2382.300049 5160.890137 
-1273.699951 2382.500000 5160.609863 
-1273.000000 2383.000000 5160.709961 
-1272.199951 2383.399902 5160.709961 
-1271.099976 2383.199951 5159.790039 
-1270.599976 2384.000000 5160.490234 
-1269.800049 2384.199951 5160.189941 
-1269.000000 2384.500000 5159.910156 
-1268.199951 2384.899902 5159.910156 
-1267.400024 2385.300049 5159.910156 
-1266.500000 2385.500000 5159.609863 
-1265.900024 2386.000000 5159.790039 
-1265.199951 2386.500000 5159.910156 
-1264.400024 2386.800049 5159.700195 
-1263.599976 2387.199951 5159.700195 
-1262.900024 2387.699951 5160.000000 
-1262.199951 2388.199951 5160.000000 
-1261.300049 2388.300049 5159.609863 
-1260.500000 2388.600098 5159.390137 
-1259.699951 2389.000000 5159.390137 
-1259.000000 2389.399902 5159.390137 
-1258.199951 2389.699951 5159.299805 
-1257.400024 2390.000000 5159.209961 
-1256.699951 2390.500000 5159.299805 
-1256.099976 2391.199951 5159.790039 
-1255.300049 2391.399902 5159.609863 
-1254.400024 2391.500000 5159.000000 
-1253.699951 2391.899902 5159.209961 
-1252.599976 2391.800049 5158.299805 
-1252.099976 2392.699951 5159.089844 
-1251.300049 2393.000000 5158.910156 
-1250.400024 2393.199951 5158.689941 
-1249.699951 2393.899902 5159.000000 
-1249.000000 2394.199951 5159.000000 
-1248.199951 2394.500000 5158.910156 
-1247.400024 2394.800049 5158.689941 
-1246.500000 2394.899902 5158.200195 
-1246.000000 2395.699951 5158.810059 
-1245.099976 2395.800049 5158.390137 
-1244.400024 2396.300049 5158.600098 
-1243.599976 2396.600098 5158.509766 
-1242.800049 2396.899902 5158.390137 
-1242.000000 2397.199951 5158.109863 
-1241.199951 2397.600098 5158.200195 
-1240.500000 2398.000000 5158.200195 
-1239.599976 2398.199951 5157.899902 
-1238.900024 2398.800049 5158.200195 
-1238.099976 2399.100098 5157.990234 
-1237.599976 2399.899902 5158.600098 
-1236.599976 2399.699951 5157.810059 
-1236.099976 2400.500000 5158.390137 
-1235.000000 2400.300049 5157.500000 
-1234.500000 2401.100098 5158.200195 
-1233.500000 2401.100098 5157.589844 
-1232.800049 2401.600098 5157.709961 
-1231.800049 2401.699951 5157.290039 
-1231.099976 2402.100098 5157.290039 
-1230.199951 2402.300049 5157.009766 
-1229.599976 2402.899902 5157.290039 
-1228.800049 2403.100098 5157.100098 
-1228.099976 2403.500000 5157.100098 
-1227.300049 2403.800049 5157.009766 
-1226.400024 2403.800049 5156.399902 
-1225.800049 2404.500000 5156.799805 
-1224.900024 2404.699951 5156.589844 
-1223.900024 2404.500000 5155.700195 
-1733.199951 2102.699951 5190.189941 
-1732.800049 2103.500000 5190.700195 
-1731.800049 2103.800049 5190.189941 
-1731.099976 2104.300049 5190.000000 
-1730.599976 2105.100098 5190.490234 
-1729.699951 2105.399902 5190.000000 
-1729.300049 2106.399902 5190.700195 
-1728.400024 2106.699951 5190.310059 
-1727.599976 2107.100098 5190.000000 
-1726.699951 2107.500000 5189.609863 
-1726.199951 2108.300049 5190.000000 
-1725.500000 2108.899902 5190.089844 
-1724.699951 2109.500000 5190.000000 
-1724.099976 2110.100098 5190.089844 
-1723.500000 2110.699951 5190.189941 
-1722.599976 2111.100098 5189.910156 
-1722.000000 2111.800049 5190.089844 
-1721.300049 2112.199951 5190.000000 
-1720.599976 2112.699951 5189.910156 
-1720.000000 2113.100098 5189.700195 
-1719.199951 2113.500000 5189.609863 
-1718.599976 2114.000000 5189.609863 
-1717.900024 2114.500000 5189.390137 
-1717.300049 2115.000000 5189.509766 
-1716.599976 2115.399902 5189.299805 
-1716.099976 2116.000000 5189.509766 
-1715.400024 2116.500000 5189.390137 
-1714.699951 2117.000000 5189.299805 
-1714.099976 2117.500000 5189.390137 
-1713.599976 2118.100098 5189.609863 
-1712.900024 2118.500000 5189.299805 
-1712.199951 2119.000000 5189.299805 
-1711.199951 2119.100098 5188.600098 
-1710.500000 2119.600098 5188.379883 
-1710.099976 2120.399902 5188.990234 
-1709.199951 2120.699951 5188.600098 
-1708.699951 2121.300049 5188.689941 
-1708.000000 2121.800049 5188.689941 
-1707.300049 2122.300049 5188.600098 
-1706.699951 2122.899902 5188.689941 
-1706.300049 2123.699951 5189.299805 
-1705.400024 2124.000000 5188.899902 
-1704.800049 2124.699951 5188.990234 
-1704.000000 2125.000000 5188.600098 
-1703.400024 2125.500000 5188.689941 
-1702.800049 2126.100098 5188.899902 
-1702.199951 2126.699951 5188.990234 
-1701.500000 2127.300049 5188.990234 
-1700.900024 2128.000000 5189.209961 
-1700.300049 2128.500000 5189.209961 
-1699.599976 2129.000000 5189.209961 
-1698.699951 2129.300049 5188.810059 
-1698.000000 2129.899902 5188.810059 
-1697.300049 2130.399902 5188.810059 
-1696.900024 2131.300049 5189.299805 
-1696.400024 2132.000000 5189.700195 
-1695.400024 2132.100098 5188.990234 
-1694.900024 2132.800049 5189.209961 
-1694.300049 2133.300049 5189.299805 
-1693.599976 2133.800049 5189.209961 
-1692.900024 2134.300049 5189.209961 
-1692.300049 2134.899902 5189.299805 
-1691.699951 2135.399902 5189.299805 
-1691.000000 2135.800049 5189.089844 
-1690.300049 2136.300049 5189.089844 
-1689.800049 2137.000000 5189.299805 
-1689.000000 2137.399902 5189.209961 
-1688.400024 2138.000000 5189.299805 
-1688.199951 2139.100098 5190.310059 
-1687.500000 2139.500000 5190.089844 
-1687.000000 2140.300049 5190.609863 
-1686.400024 2140.899902 5190.609863 
-1685.599976 2141.199951 5190.399902 
-1684.800049 2141.600098 5190.000000 
-1684.199951 2142.399902 5190.399902 
-1683.500000 2142.800049 5190.310059 
-1682.800049 2143.199951 5190.089844 
-1682.400024 2144.199951 5190.890137 
-1681.699951 2144.699951 5190.799805 
-1681.000000 2145.199951 5190.799805 
-1680.300049 2145.600098 5190.609863 
-1679.800049 2146.399902 5191.009766 
-1679.199951 2147.100098 5191.310059 
-1678.500000 2147.500000 5191.009766 
-1677.900024 2148.100098 5191.310059 
-1677.099976 2148.600098 5191.100098 
-1676.400024 2149.100098 5191.009766 
-1675.599976 2149.399902 5190.700195 
-1675.300049 2150.500000 5191.709961 
-1674.599976 2150.899902 5191.589844 
-1674.000000 2151.500000 5191.709961 
-1673.300049 2152.100098 5191.709961 
-1672.699951 2152.699951 5191.799805 
-1672.000000 2153.100098 5191.589844 
-1671.500000 2153.899902 5192.109863 
-1670.800049 2154.300049 5191.990234 
-1670.300049 2155.000000 5192.290039 
-1669.400024 2155.399902 5191.990234 
-1668.900024 2156.100098 5192.290039 
-1668.400024 2156.800049 5192.600098 
-1667.900024 2157.600098 5193.109863 
-1667.199951 2158.100098 5193.109863 
-1666.900024 2159.100098 5193.910156 
-1665.800049 2159.000000 5192.810059 
-1665.199951 2159.600098 5192.990234 
-1664.900024 2160.500000 5193.689941 
-1664.000000 2160.800049 5193.299805 
-1663.099976 2161.000000 5192.810059 
-1662.800049 2161.899902 5193.509766 
-1662.300049 2162.699951 5193.910156 
-1661.500000 2163.000000 5193.600098 
-1660.800049 2163.500000 5193.600098 
-1660.000000 2164.000000 5193.390137 
-1659.000000 2164.100098 5192.689941 
-1657.900024 2164.000000 5191.709961 
-1656.500000 2163.600098 5190.089844 
-1645.400024 2170.000000 5187.899902 
-1646.699951 2173.100098 5192.290039 
-1645.699951 2173.199951 5191.500000 
-1644.300049 2172.800049 5190.000000 
-1635.199951 2177.800049 5187.990234 
-1634.900024 2178.800049 5188.899902 
-1633.699951 2178.500000 5187.500000 
-1633.500000 2179.699951 5188.689941 
-1634.800049 2183.000000 5193.209961 
-1635.900024 2185.800049 5197.109863 
-1635.199951 2186.300049 5197.299805 
-1634.099976 2186.300049 5196.410156 
-1633.599976 2187.000000 5196.689941 
-1632.900024 2187.600098 5196.689941 
-1632.000000 2187.800049 5196.290039 
-1631.699951 2188.800049 5196.990234 
-1630.800049 2189.100098 5196.589844 
-1630.000000 2189.600098 5196.589844 
-1629.199951 2189.899902 5196.200195 
-1628.300049 2190.199951 5195.890137 
-1626.900024 2189.600098 5194.089844 
-1623.900024 2187.100098 5188.990234 
-1317.599976 2381.500000 5185.390137 
-1313.900024 2376.399902 5177.000000 
-1311.699951 2374.000000 5172.700195 
-1310.099976 2372.899902 5170.290039 
-1309.400024 2373.500000 5170.589844 
-1308.599976 2373.600098 5170.200195 
-1307.900024 2374.000000 5170.200195 
-1307.000000 2374.199951 5169.890137 
-1306.099976 2374.399902 5169.490234 
-1305.099976 2374.300049 5168.790039 
-1304.400024 2374.800049 5168.919922 
-1303.400024 2374.899902 5168.399902 
-1302.500000 2374.800049 5167.600098 
-1301.699951 2375.100098 5167.509766 
-1300.800049 2375.300049 5167.109863 
