3818.59 -3064.56 929.03 
3820.05 -3059.67 926.141 
3819.13 -3062.57 928.774 
3819.39 -3061.75 926.045 
3820.41 -3057.69 926.373 
3819.42 -3061.27 928.528 
3820.36 -3057.01 926.882 
3818.45 -3063.13 930.707 
3819.49 -3059.96 928.789 
3819.8 -3058.7 921.469 
3819.93 -3058.78 923.06 
3818.96 -3063.15 925.601 
3820.85 -3055.13 923.212 
3820.26 -3055.02 927.084 
3818.98 -3060.5 929.996 
3819.39 -3058.3 929.123 
3820.48 -3055.01 926.623 
3821.06 -3053.99 923.902 
3821.18 -3052.75 924.42 
3821.32 -3051.41 924.198 
3821.08 -3054 921.525 
3820.3 -3056.31 919.617 
3821.3 -3052.76 919.504 
3822.14 -3049.1 920.824 
3822.23 -3048.81 919.983 
3820.19 -3053.76 926.961 
3820.06 -3052.94 926.955 
3818.88 -3058.6 929.992 
3821.11 -3050.61 924.94 
3821.37 -3050.47 924.248 
3822.25 -3048.47 921.493 
3822.41 -3047.32 921.718 
3822.49 -3046.25 921.998 
3820.78 -3053.6 916.813 
3822.26 -3048.82 919.26 
3821.95 -3049.86 918.031 
3823.07 -3045.53 919.902 
3823.34 -3044.76 919.203 
3823.09 -3045.64 918.833 
3821.11 -3048.77 924.788 
3820.51 -3050.02 925.811 
3819.45 -3053.4 927.911 
3822.15 -3045.84 922.935 
3822.09 -3045.02 923.115 
3822.51 -3045.28 922.192 
3823.38 -3044.45 920.232 
3823.48 -3043.75 920.531 
3823.52 -3043.11 920.636 
3821.13 -3051.63 915.515 
3822.87 -3046.55 918.476 
3822.6 -3047.49 917.419 
3823.77 -3043.32 919.495 
3824.04 -3042.46 918.907 
3823.82 -3043.31 918.625 
3823.58 -3044.14 918.148 
3820.23 -3049.28 926.057 
3821.42 -3045.4 924.133 
3822.57 -3043.06 922.506 
3821.05 -3044.49 924.401 
3823.36 -3042.89 921.089 
3823.88 -3042.72 919.544 
3823.79 -3041.76 920.028 
3821.73 -3049.62 915.941 
3823.25 -3045.24 917.755 
3824.08 -3041.94 918.952 
3824.13 -3041.44 918.866 
3824.03 -3042.49 918.193 
3823.64 -3043.63 917.822 
3820.41 -3043.87 924.894 
3822.34 -3042.31 922.671 
3823.17 -3041.57 921.547 
3821.86 -3041.72 923.077 
3823.59 -3041.54 920.761 
3823.91 -3041.44 919.61 
3823.66 -3040.85 920.545 
3822.12 -3048.29 916.225 
3823.1 -3045.02 917.078 
3823.64 -3043.15 917.644 
3820.88 -3041.77 924.032 
3822.65 -3041.24 922.108 
3822.98 -3040.54 921.654 
3823.43 -3040.66 921.131 
3821.9 -3040.65 922.831 
3822.39 -3040.55 922.284 
3823.6 -3040.26 920.457 
3822.08 -3047.87 915.754 
3823.9 -3041.82 917.747 
3824.05 -3040.76 919.18 
3824.01 -3040.35 918.869 
3824.06 -3040.81 918.538 
3824.08 -3041.3 918.126 
3820.86 -3040.5 923.687 
3822.69 -3039.93 921.805 
3823.15 -3039.98 921.262 
3822.18 -3039.93 922.328 
3821.82 -3040.05 922.698 
3823.35 -3039.74 920.614 
3821.55 -3048.14 914.063 
3822.44 -3046.37 916.057 
3823.51 -3042.71 917.186 
3823.99 -3040.16 919.426 
3821.26 -3039.87 923.119 
3822.44 -3039.32 921.887 
3822.87 -3039.36 921.395 
3821.99 -3039.38 922.311 
3823.58 -3039.54 920.049 
3822.41 -3045.79 915.703 
3823.59 -3041.95 917.15 
3823.95 -3040.54 917.893 
3823.78 -3041.06 917.503 
3824.02 -3040.23 918.313 
3824.12 -3039.73 918.955 
3821.55 -3039.35 922.682 
3819.1 -3039.15 924.747 
3822.74 -3038.87 921.382 
3822.36 -3038.84 921.761 
3821.94 -3038.85 922.124 
3823.14 -3038.96 920.676 
3821.75 -3046.27 913.937 
3822.61 -3044.76 915.715 
3823.81 -3039.14 919.498 
3823.56 -3038.93 919.888 
3821.52 -3038.85 922.475 
3819.64 -3038.87 924.15 
3821.91 -3038.36 921.915 
3821.44 -3038.3 922.227 
3819.78 -3038.41 923.808 
3820.1 -3038.11 923.35 
3820.06 -3037.65 923.077 
3823.02 -3038.33 920.653 
3821.71 -3045.32 913.011 
3821.82 -3045.23 913.729 
3822.78 -3043.94 915.767 
3822.78 -3043.44 915.55 
3823.53 -3041.36 916.979 
3824.09 -3039.73 918.418 
3824.02 -3039.25 918.784 
3822.68 -3038.15 921.011 
3822.32 -3038.05 921.395 
3821.6 -3037.84 921.848 
3820.11 -3037.24 922.748 
3821.65 -3037.4 921.521 
3820.14 -3036.89 922.39 
3820.15 -3036.35 921.752 
3823.31 -3038.32 920.138 
3821.69 -3044.66 912.634 
3821.79 -3044.47 913.345 
3823.71 -3040.52 917.245 
3823.56 -3038.31 919.558 
3823.79 -3038.69 919.228 
3821.62 -3036.83 920.802 
3820.36 -3036.17 921.246 
3822.21 -3037.44 920.968 
3823.03 -3037.81 920.235 
3822.63 -3037.67 920.66 
3822.82 -3042.68 915.398 
3823.92 -3039.97 917.582 
3823.85 -3038.81 918.604 
3823.53 -3038.3 918.804 
3821.9 -3036.7 920.275 
3821.56 -3043.97 912.973 
3821.79 -3043.66 913.642 
3822.8 -3042.07 915.479 
3823.34 -3040.82 916.736 
3823.81 -3039.42 917.837 
3823.66 -3038.82 918.141 
3823.32 -3037.83 919.633 
3820.53 -3036 920.587 
3822.33 -3037.18 920.405 
3821.34 -3044.09 912.303 
3823.49 -3039.75 917.213 
3823.52 -3039.3 917.439 
3823.34 -3037.87 919.005 
3822.45 -3037 919.877 
3822.88 -3037.35 919.705 
3821.48 -3043.22 913.342 
3821.12 -3043.45 912.662 
3821.91 -3042.94 914.034 
3823.42 -3038.82 917.65 
3823.37 -3038.38 918.077 
3823.11 -3037.86 918.342 
3823 -3037.49 918.797 
3822.06 -3036.65 919.76 
3820.75 -3035.95 920.088 
3821.1 -3042.83 913.319 
3822.34 -3041.48 915.394 
3823.06 -3039.52 916.907 
3823.1 -3038.95 917.175 
3822.76 -3037.11 919.12 
3821.43 -3042.62 913.92 
3822.91 -3038.37 917.457 
3822.6 -3038.61 917.093 
3822.88 -3037.93 917.763 
3822.7 -3037.26 918.443 
3822.16 -3036.66 919.2 
3820.89 -3035.96 919.42 
3822.09 -3040.87 915.465 
3820.75 -3042.14 913.705 
3822.34 -3036.95 918.624 
3820.71 -3041.68 914.037 
3821.74 -3040.42 915.5 
3822.13 -3038.98 916.556 
3822.37 -3037.86 917.488 
3822.08 -3038.41 916.929 
3822.43 -3037.32 917.989 
3820.88 -3036.59 918.079 
3820.81 -3036.94 917.637 
3820.81 -3036.1 918.805 
3821.95 -3037.54 917.535 
3820.3 -3040.89 914.453 
3821.29 -3039.99 915.52 
3820.98 -3039.52 915.693 
3820.81 -3038.81 916.119 
3820.84 -3037.68 916.972 
3820.81 -3038.2 916.563 
