3495.25 -2769.74 2010.88
3494.93 -2769.8 2011.38
3494.84 -2769.27 2010.37
3495.21 -2769.24 2009.89
3495.55 -2769.18 2009.39
3496.29 -2769.7 2009.05
3495.87 -2769.21 2008.92
3494.52 -2769.33 2010.83
3494.22 -2769.47 2011.23
3493.92 -2769.68 2011.59
3493.56 -2769.84 2011.98
3495.85 -2769.08 2008.36
3496.21 -2769.53 2008.4
3494.6 -2768.14 2008.41
3494.15 -2768.23 2008.92
3495.09 -2768.9 2009.35
3494.97 -2768.07 2008.07
3495.47 -2768.79 2008.72
3495.09 -2767.7 2007.21
3493.53 -2768.31 2009.44
3493.03 -2769.85 2012.11
3492.45 -2769.99 2012.35
3492.81 -2768.5 2009.89
3496.27 -2769.45 2007.88
3495.88 -2768.84 2007.71
3495.24 -2767.48 2006.63
3493.96 -2766.71 2006.28
3493.36 -2766.86 2006.74
3494.58 -2766.97 2006.32
3494.04 -2766.12 2005.03
3492.78 -2766.95 2007.18
3491.75 -2770.11 2012.49
3492.24 -2768.17 2009.35
3491.9 -2768.59 2010.02
3491.42 -2768.83 2010.39
3495.92 -2768.6 2007.07
3494.32 -2766.04 2004.56
3495.36 -2767.22 2006.03
3493.53 -2766.09 2005.24
3493.39 -2766.32 2005.74
3492.76 -2766.43 2006.12
3491.93 -2766.58 2006.55
3490.85 -2770.35 2012.67
3490.75 -2768.96 2010.47
3489.83 -2770.61 2012.66
3491.42 -2766.91 2007.01
3490.84 -2767.14 2007.25
3487.82 -2771.32 2012.6
3485.51 -2771.99 2011.59
3486.9 -2771.11 2011.43
3496.92 -2770.74 2006.21
3496.49 -2769.67 2006.9
3496.13 -2768.92 2006.73
3495.42 -2767.17 2005.52
3493.22 -2765.05 2002.51
3493.75 -2765.12 2002.26
3492.76 -2765.3 2003.18
3492.42 -2765.48 2003.58
3491.83 -2765.53 2003.76
3491.23 -2765.68 2004.18
3490.03 -2769.13 2010.45
3489.36 -2767 2006.46
3488.7 -2770.54 2011.96
3489.16 -2769.26 2010.25
3490.52 -2765.9 2004.57
3489.98 -2765.98 2004.59
3489.18 -2765.96 2004.27
3487.7 -2770.08 2010.46
3485.6 -2771.3 2010.55
3486.53 -2770.13 2009.56
3482.92 -2772.49 2009.76
3496.17 -2769.03 2006.21
3494.22 -2765.42 2002.37
3493.23 -2764.66 2000.94
3492.7 -2764.65 2001.2
3492.3 -2764.91 2001.77
3491.56 -2764.9 2001.99
3490.71 -2763.83 2000.32
3492.3 -2763.71 1999.42
3489.86 -2763.97 2000.61
3489.29 -2764.02 2000.66
3488.09 -2767.14 2006.16
3485.92 -2765.27 2001.86
3487.74 -2768.75 2008.55
3488.7 -2764.14 2000.76
3488 -2764.32 2000.86
3486.66 -2764.25 2000.3
3485.93 -2768.56 2007.01
3484.54 -2770.92 2009.08
3484.57 -2769.42 2007.27
3482.48 -2771.83 2008.71
3496.64 -2770.1 2005.92
3495.61 -2767.08 2004.77
3493.8 -2764.89 2000.54
3491.65 -2763.54 1999.56
3490.94 -2763.55 1999.8
3490.71 -2762.49 1998.24
3493.25 -2764.91 2000.35
3492.79 -2763.9 1999.05
3492.21 -2762.94 1998.09
3489.96 -2762.46 1998.04
3489.23 -2762.78 1998.48
3485.49 -2766.99 2004.63
3484.4 -2765.96 2002.54
3482.52 -2764.18 1998.84
3481.26 -2764.79 1999.51
3487.74 -2763.39 1999.22
3486.61 -2763.49 1999
3482.96 -2766.94 2003.44
3482.24 -2767.23 2003.5
3483.13 -2770.56 2007.69
3481.47 -2767.65 2003.68
3481.46 -2771.27 2007.32
3480.87 -2771.88 2007.67
3480.12 -2773.33 2008.55
3496.4 -2769.65 2005.46
3493.64 -2765.11 1999.78
3491.68 -2762.5 1997.95
3490.6 -2762.21 1997.6
3492.11 -2762.32 1997.2
3492.48 -2762.9 1997.57
3489.39 -2762.15 1997.34
3490.15 -2762.08 1997.2
3488.09 -2762.9 1998.38
3481.45 -2765.77 2001.15
3483.03 -2763.67 1997.92
3480.23 -2763.9 1997.67
3479.82 -2763.66 1996.92
3480.17 -2764.58 1998.77
3486 -2763.14 1997.97
3480.37 -2765.51 2000.33
3479.77 -2765.99 2000.75
3481.1 -2768.66 2004.55
3479.38 -2766.81 2001.64
3479.58 -2770.05 2004.96
3480.11 -2768.91 2004.24
3479.8 -2772.31 2007.28
3478.9 -2770.09 2004.55
3479.09 -2773.1 2007.42
3478.49 -2773.95 2007.74
3496.3 -2769.42 2004.89
3495.72 -2767.4 2004.35
3494.43 -2765.74 2001.86
3494.94 -2769.38 1999.7
3494.66 -2768.61 1997.27
3493.27 -2764.16 1998.61
3492.9 -2763.32 1997.61
3491.63 -2762.06 1997.28
3490.79 -2762 1997.09
3492.2 -2762.17 1996.7
3492.57 -2762.57 1996.82
3492.85 -2763.03 1997.19
3489.66 -2761.89 1996.97
3490.41 -2761.86 1996.78
3488.31 -2762.45 1997.58
3488.76 -2762.12 1997.15
3481.77 -2763.36 1996.71
3479.34 -2764.01 1997.57
3478.69 -2763.66 1996.45
3479.1 -2763.1 1995.34
3478.32 -2763.1 1995.2
3479.5 -2764.61 1998.62
3486.08 -2762.82 1997.28
3471.21 -2773.19 1994.38
3470.54 -2773.23 1993.49
3478.97 -2764.95 1998.85
3478.61 -2765.53 1999.48
3478.32 -2766.13 2000.1
3478.69 -2767.44 2001.9
3478.44 -2770.61 2004.74
3478.05 -2767.68 2001.7
3477.95 -2771.36 2005.1
3477.73 -2773.89 2007.08
3477.44 -2771.32 2004.68
3477.09 -2774.37 2006.5
3496.17 -2770.21 2003.5
3495.22 -2766.9 2003.18
3493.9 -2765.71 2000.26
3495.12 -2769.62 2001.27
3494.73 -2769.09 2000.8
3494.69 -2768.93 1999.9
3494.91 -2769.15 1999.01
3494.14 -2767.22 1995.87
3494.2 -2767.3 1997.19
3494.04 -2766.71 1996.5
3493.55 -2764.62 1998.19
3493.72 -2765.68 1999.53
3493.34 -2763.34 1997.02
3491.31 -2761.79 1996.61
3491.83 -2761.85 1996.58
3481.8 -2763.08 1995.94
3478.69 -2764.2 1997.49
3478.16 -2763.66 1996.14
3477.79 -2763.15 1994.87
3478.71 -2762.7 1994
3478.14 -2762.59 1993.75
3477.6 -2762.72 1993.61
3476.27 -2774.84 2005.41
3471.59 -2773.12 1994.72
3471.05 -2772.7 1993.75
3470.41 -2772.98 1992.93
3478.09 -2764.81 1997.95
3477.58 -2765.39 1998.47
3477.72 -2766.31 1999.87
3477.53 -2768.14 2001.79
3477.16 -2766.74 1999.82
3476.96 -2768.28 2001.44
3477.04 -2771.67 2004.57
3476.66 -2768.85 2001.64
3476.65 -2772.27 2004.58
3495.76 -2769.39 2003.08
3494.1 -2766.14 2000.62
3493.86 -2766.29 1999.87
3494.64 -2768.59 2000.98
3494.21 -2767.38 1998.53
3494.22 -2767.7 1998.98
3493.95 -2766.15 1997.73
3493.83 -2765.82 1996.41
3493.49 -2763.95 1996.95
3493.28 -2762.92 1996.7
3492.75 -2762.43 1996.33
3492.14 -2762 1996.11
3490.12 -2761.47 1996.32
3490.58 -2761.52 1996.07
3486.42 -2762.53 1996.86
3483.75 -2762.97 1996.1
3481.3 -2762.91 1995.36
3488.58 -2761.85 1996.63
3489.46 -2761.47 1996.35
3477.77 -2763.9 1996.39
3477.44 -2763.41 1995.14
3477.09 -2763.1 1993.97
3477.03 -2762.89 1993.2
3479.02 -2762.4 1993.21
3478.19 -2762.24 1992.72
3477.49 -2762.4 1992.68
3477.07 -2762.6 1992.4
3476.16 -2771.71 2003.46
3472.34 -2772.92 1995.46
3471.85 -2772.53 1994.41
3470.83 -2772.47 1993.08
3477.08 -2765.64 1998.36
3477.21 -2764.53 1996.88
3476.63 -2766.73 1999.22
3476.29 -2767.57 1999.87
3476.22 -2769.11 2001.38
3475.95 -2767.88 1999.62
3495.54 -2768.86 2002.92
3494.93 -2767.09 2002.5
3494.23 -2766.69 2000.9
3494.92 -2768.72 2001.56
3494.21 -2767.78 1999.48
3494.54 -2767.67 2001.42
3494.32 -2767.7 2000.41
3493.71 -2765.16 1996.98
3493.58 -2764.56 1996.87
3493.91 -2766.22 1995.85
3493.68 -2765.11 1996.34
3491.5 -2761.66 1996.07
3492.65 -2762.18 1995.63
3481.22 -2762.75 1994.82
3486.59 -2762.36 1996.35
3476.78 -2762.73 1991.98
3478.53 -2762.09 1992.29
3479.49 -2762.16 1992.63
3477.45 -2762.13 1991.83
3476.87 -2762.49 1991.36
3475.73 -2772.2 2003.05
3475.63 -2769.18 2000.55
3473.31 -2773.09 1997.28
3472.34 -2772.15 1994.82
3471.92 -2771.76 1993.61
3471.55 -2771.93 1993.31
3470.58 -2772.43 1992.43
3471.35 -2771.83 1992.56
3476.83 -2763.75 1995.01
3476.32 -2766.17 1997.99
3476.65 -2765.23 1997.29
3476.46 -2764.39 1995.65
3475.6 -2768.27 1999.4
3475.94 -2766.48 1997.73
3496.35 -2765.79 2003.18
3496.22 -2765.87 2003.73
3495.14 -2768.01 2002.53
3493.69 -2763.79 1996.35
3493.67 -2763.04 1996.3
3493.19 -2762.4 1995.98
3490.95 -2761.39 1995.51
3492.1 -2761.82 1995.52
3489.89 -2761.43 1995.86
3490.39 -2761.41 1995.55
3484.76 -2762.82 1995.37
3483.64 -2762.78 1995.21
3488.7 -2761.56 1996.06
3476.59 -2763.23 1993.75
3476.54 -2762.78 1992.51
3476.69 -2762.53 1990.8
3481.49 -2762.47 1993.89
3479.21 -2762.1 1992.13
3477.86 -2761.94 1990.97
3477.05 -2762.13 1990.8
3475.32 -2772.28 2002.12
3475.23 -2767.94 1998.27
3475.09 -2769.45 1999.29
3474.78 -2772.23 2000.36
3473.86 -2772.53 1997.94
3472.86 -2771.64 1995.41
3472.39 -2771.18 1993.86
3472.13 -2771.02 1992.96
3471.16 -2771.76 1991.97
3471.55 -2771.42 1991.91
3476.2 -2763.89 1994.37
3475.9 -2765.14 1995.74
3475.94 -2764.36 1994.62
3475.81 -2763.83 1993.61
3475.62 -2766.61 1997.29
3475.35 -2765.62 1995.2
3495.68 -2765.73 2003.08
3493.88 -2765.82 1995.52
3493.88 -2764.83 1995.7
3491.52 -2761.52 1995.44
3492.43 -2761.99 1995.11
3492.96 -2762.31 1995.21
3485.01 -2762.68 1994.96
3486.94 -2762.09 1995.76
3476.25 -2762.73 1991.73
3478.43 -2761.94 1991.19
3477.03 -2762 1990.08
3476.55 -2762.36 1990.12
3477.9 -2761.87 1990.35
3474.96 -2767.64 1996.9
3474.88 -2766.43 1995.19
3474.19 -2770.41 1997.35
3473.81 -2769.41 1995.39
3472.72 -2770.44 1993.76
3471.94 -2770.86 1992.2
3472.34 -2770.1 1992.8
3471.03 -2771.7 1991.46
3471.44 -2771.37 1991.41
3471.8 -2770.79 1991.6
3475.88 -2763.39 1992.84
3475.32 -2764.84 1994.06
3475 -2765.18 1993.75
3495.46 -2765.86 2003.53
3493.9 -2763 1995.85
3493.3 -2762.83 1995.4
3489.4 -2761.53 1995.31
3488.87 -2761.57 1995.5
3484.1 -2762.55 1994.56
3484.91 -2762.47 1994.45
3485.6 -2762.49 1994.75
3481.94 -2762.37 1993.49
3475.99 -2762.77 1991.16
3475.95 -2762.67 1990.63
3479.53 -2762.03 1991.43
3478.7 -2761.92 1990.5
3474.37 -2766.74 1994.26
3474.6 -2765.63 1993.27
3473.54 -2768.46 1993.7
3472.01 -2770.01 1992.18
3473.33 -2768.08 1992.79
3472.13 -2769.93 1991.62
3475.67 -2763.27 1991.95
3474.99 -2764.55 1992.79
3475.3 -2763.86 1992.35
3474.7 -2764.86 1992.47
3494.11 -2764.84 1995.05
3494.11 -2767.01 1993.52
3491.92 -2761.8 1994.96
3493.22 -2762.73 1994.8
3487.31 -2762.01 1995.32
3486.02 -2762.29 1994.53
3489.9 -2761.41 1995.19
3487.78 -2761.95 1994.86
3485.47 -2762.35 1994.12
3484.47 -2762.58 1994.17
3475.72 -2762.73 1990.16
3482.21 -2762.26 1992.8
3479.25 -2762.03 1990.75
3476.81 -2762.11 1989.43
3477.44 -2761.96 1989.45
3476.21 -2762.39 1989.45
3474.14 -2765.96 1992.39
3474.29 -2765.26 1991.75
3473.09 -2768.07 1992.04
3472.96 -2767.9 1991.29
3473.87 -2765.75 1990.96
3470.83 -2771.88 1990.52
3471.37 -2771.43 1990.82
3471.78 -2770.88 1990.92
3472.23 -2769.9 1991.13
3475.45 -2763.24 1991.22
3474.74 -2764.41 1991.83
3475.12 -2763.77 1991.57
3494.3 -2766.93 1993.02
3493.95 -2766.55 1993.95
3493.93 -2763.19 1995.29
3492.68 -2762.3 1994.66
3486.29 -2762.19 1993.95
3475.47 -2763.08 1990.69
3478.11 -2761.84 1989.58
3479.75 -2762.02 1990.71
3472.08 -2770.26 1990.75
3472.34 -2769.68 1990.59
3472.97 -2767.75 1990.66
3473.91 -2765.37 1990.61
3474.54 -2764.4 1991.1
3474.91 -2763.77 1990.85
3474.23 -2764.87 1990.87
3493.91 -2765.88 1993.99
3493.95 -2764.5 1994.6
3493.83 -2766.47 1993.4
3493.74 -2763.33 1994.78
3490.39 -2761.46 1994.98
3491.45 -2761.61 1994.93
3493.4 -2763.12 1994.38
3488.25 -2761.91 1994.49
3486.88 -2762.27 1993.81
3485.83 -2762.44 1993.59
3484.8 -2762.65 1993.58
3482.67 -2762.24 1992.25
3475.33 -2763.06 1990.21
3475.45 -2762.86 1989.73
3479.4 -2762.08 1990.08
3478.84 -2761.98 1989.47
3477.09 -2762.09 1988.9
3476.45 -2762.28 1988.86
3475.78 -2762.55 1988.99
3471.23 -2771.64 1989.75
3471.71 -2771.01 1990.29
3472.97 -2767.57 1990.14
3474.04 -2764.93 1990.21
3474.61 -2764.08 1990.56
3474.86 -2763.52 1990.02
3493.77 -2766.72 1992.97
3492.22 -2762.18 1994.46
3492.82 -2762.82 1994.26
3493.64 -2764.2 1994.03
3485.25 -2762.67 1993.28
3486.05 -2762.6 1993.13
3477.86 -2762.02 1988.95
3482.84 -2762.29 1991.73
3475.99 -2762.47 1988.5
3471.97 -2770.5 1989.84
3472.23 -2769.94 1989.73
3473.68 -2765.68 1989.79
3474.17 -2764.56 1989.78
3474.42 -2764.12 1989.89
3493.78 -2765.39 1993.67
3493.73 -2765.89 1993.31
3490.98 -2761.64 1994.72
3488.67 -2762.09 1994.15
3491.72 -2761.95 1994.44
3492.33 -2762.63 1994.14
3486.54 -2762.38 1993.31
3484.98 -2762.67 1992.85
3475.36 -2762.89 1988.97
3479.79 -2762.14 1989.6
3479.2 -2762.08 1988.94
3478.17 -2762.14 1988.55
3477.04 -2762.22 1988.38
3476.51 -2762.35 1988.36
3471.7 -2770.97 1989.62
3473.01 -2767.44 1989.51
3474.03 -2764.83 1989.35
3475.02 -2763.25 1989.32
3474.59 -2763.91 1989.15
3487.15 -2762.44 1993.42
3492.85 -2763.25 1993.97
3485.19 -2762.71 1992.32
3482.61 -2762.36 1991.07
3475.58 -2762.78 1988.31
3478.78 -2762.09 1988.55
3477.7 -2762.29 1988.24
3471.74 -2771.5 1989.04
3473.6 -2765.77 1989.02
3493.61 -2765.35 1993.17
3493.68 -2766.07 1992.84
3489.04 -2762.28 1993.85
3486.79 -2762.54 1992.88
3492.33 -2763.06 1993.83
3490.91 -2761.98 1994.24
3493.25 -2764.2 1993.62
3486.2 -2762.66 1992.54
3475.11 -2763.15 1988.52
3480.33 -2762.4 1989.26
3479.98 -2762.41 1988.73
3478.6 -2762.42 1988.09
3476.32 -2762.53 1987.9
3477.12 -2762.35 1987.89
3471.93 -2770.54 1989.01
3471.9 -2770.02 1989.24
3472.28 -2769.17 1989.23
3473.02 -2767.41 1989.01
3473.98 -2764.92 1988.6
3474.61 -2763.9 1988.38
3493.37 -2766.83 1992.5
3491.52 -2762.3 1994.04
3482.88 -2762.66 1990.44
3475.65 -2762.91 1987.77
3480.53 -2762.74 1988.67
3479.26 -2762.41 1988.14
3477.87 -2762.54 1987.75
3472.05 -2770.86 1988.5
3473.56 -2766.04 1988.49
3474.3 -2764.54 1988.17
3492.54 -2763.61 1993.56
3487.56 -2762.76 1993.13
3485.52 -2762.88 1991.77
3491.66 -2762.81 1993.71
3489.48 -2762.67 1993.41
3475.08 -2763.27 1987.87
3476.08 -2762.82 1987.51
3477.37 -2762.68 1987.36
3480.22 -2762.75 1988.23
3482.92 -2762.91 1989.97
3478.4 -2762.74 1987.4
3476.64 -2762.7 1987.44
3472.23 -2770.35 1988.26
3472.28 -2769.97 1988.59
3472.39 -2769.5 1988.82
3473.85 -2765.49 1988.16
3472.45 -2771.14 1987.95
3474.76 -2763.72 1987.9
3492.87 -2766.49 1992.49
3492.58 -2766.88 1992.19
3492.76 -2764.44 1993.25
3486.59 -2763.04 1992.28
3486.07 -2763.07 1991.85
3490.93 -2762.49 1993.71
3487.56 -2763.13 1992.7
3481.18 -2763.09 1988.32
3479.7 -2762.93 1987.54
3479.15 -2762.86 1987.42
3477.8 -2762.95 1986.99
3477.06 -2762.97 1987.02
3473.16 -2767.94 1988.22
3473.77 -2765.97 1987.92
3472.86 -2770.61 1987.67
3474.21 -2764.96 1987.81
3492.17 -2766.57 1992.26
3492.45 -2766.04 1992.53
3492.96 -2765.83 1992.68
3490.95 -2767.41 1991.39
3485.51 -2763.15 1991.34
3491.78 -2763.52 1993.44
3489.46 -2763.11 1993.03
3487.03 -2763.44 1992.16
3476.22 -2763.13 1987.12
3475.67 -2763.44 1987.18
3480.25 -2763.05 1987.59
3480.72 -2763.15 1987.78
3483.01 -2763.36 1989.4
3478.61 -2763 1986.89
3473.23 -2768.36 1987.91
3474.45 -2764.25 1987.78
3490.59 -2767.03 1991.51
3492.41 -2764.75 1993.04
3491.95 -2764.95 1992.85
3489.49 -2768.57 1990.25
3486.52 -2763.45 1991.86
3491.07 -2763.23 1993.32
3487.51 -2763.5 1992.34
3487.98 -2763.57 1992.53
3475.23 -2763.84 1987.25
3475.92 -2763.65 1986.79
3481.21 -2763.49 1987.62
3479.5 -2763.2 1986.99
3480.12 -2763.37 1987.12
3478.28 -2763.53 1986.48
3477.49 -2763.39 1986.59
3476.65 -2763.3 1986.77
3473.48 -2770.86 1987.13
3473.24 -2770.23 1987.5
3473.61 -2768.41 1987.5
3473.98 -2768.31 1987.17
3474.04 -2766.19 1987.45
3474.23 -2765.4 1987.49
3490.33 -2765.72 1992.09
3489 -2768.26 1990.34
3491.29 -2763.71 1993.18
3489.95 -2764.09 1992.67
3488.68 -2769.14 1989.6
3485.78 -2763.75 1991.02
3483.32 -2763.79 1989.12
3486.36 -2763.83 1991.4
3487.38 -2763.92 1992.07
3486.77 -2764.06 1991.58
3474.84 -2764.31 1987.37
3480.93 -2763.75 1987.11
3480.37 -2763.74 1986.8
3478.95 -2763.47 1986.55
3473.76 -2770.2 1987.04
3474.1 -2770.8 1986.79
3474.43 -2766.01 1987.19
3474.69 -2764.8 1987.32
3474.63 -2765.4 1987.17
3488.86 -2766.21 1991.45
3488.15 -2768.89 1989.65
3488.03 -2768.42 1989.94
3488.21 -2764.54 1992.08
3485.38 -2764.06 1990.47
3486.45 -2764.27 1991.15
3475.39 -2764.43 1986.85
3481.73 -2764.06 1987.42
3479.72 -2763.62 1986.64
3480.6 -2764.16 1986.48
3477.65 -2763.99 1986.2
3478.11 -2764.18 1986.06
3478.83 -2764.06 1986.16
3476.55 -2763.86 1986.49
3474.86 -2770.71 1986.39
3474.33 -2770.06 1986.7
3487.88 -2764.87 1991.72
3487.12 -2768.89 1989.25
3488.02 -2766.28 1990.98
3487.4 -2768.19 1989.85
3483.52 -2764.23 1988.82
3487.29 -2764.66 1991.58
3486.75 -2764.69 1991.17
3485.99 -2764.51 1990.68
3475.13 -2764.87 1986.93
3475.89 -2764.47 1986.54
3481.5 -2764.36 1986.94
3480.94 -2764.55 1986.36
3479.57 -2764.12 1986.23
3477.47 -2764.46 1986.08
3476.98 -2764.32 1986.24
3475.52 -2770.77 1986.03
3474.61 -2768.26 1986.72
3475.14 -2768.19 1986.4
3474.93 -2765.77 1986.83
3484.54 -2770.84 1986.21
3485.75 -2770.03 1987.56
3484.06 -2771.12 1985.69
3486.9 -2768.38 1989.45
3487.47 -2766.47 1990.7
3486.95 -2765.24 1991.06
3486.37 -2764.98 1990.75
3485.51 -2764.75 1990.23
3475.54 -2765.04 1986.54
3476.49 -2764.73 1986.29
3482.16 -2764.5 1987.36
3480.4 -2764.59 1986.06
3480.74 -2764.96 1985.93
3481.26 -2764.96 1986.26
3478.28 -2764.8 1985.86
3479.15 -2764.51 1985.87
3479.89 -2764.67 1985.9
3476.03 -2770.64 1985.8
3477.81 -2770.79 1985.19
3476.63 -2770.36 1985.58
3478.51 -2771.05 1984.91
3479.1 -2771.16 1984.69
3475.47 -2765.91 1986.38
3484.32 -2770.36 1986.38
3483.97 -2770.63 1986.07
3485.62 -2769.12 1988.06
3486.93 -2766.68 1990.36
3483.56 -2764.67 1988.53
3485.41 -2765.22 1989.95
3476.2 -2765.27 1986.24
3477.07 -2765.21 1985.99
3476.61 -2765.53 1986.05
3481.91 -2764.71 1986.94
3480.07 -2765.29 1985.62
3478.36 -2765.3 1985.74
3479.35 -2764.98 1985.69
3475.83 -2768.27 1986.07
3476.27 -2768.65 1985.86
3477.26 -2768.3 1985.55
3477.74 -2768.64 1985.38
3476.69 -2768.17 1985.75
3478.93 -2770.57 1984.88
3480.51 -2771.58 1984.62
3479.81 -2771.38 1984.62
3479.57 -2770.66 1984.82
3483.49 -2770.68 1985.75
3484.32 -2769.48 1986.77
3486.49 -2766.72 1990.07
3486.02 -2766.56 1989.81
3485.32 -2767.31 1988.83
3483.69 -2765.25 1988.28
3477.01 -2765.87 1985.83
3480.85 -2765.47 1985.71
3481.49 -2765.74 1985.82
3482.17 -2765.62 1986.41
3480.21 -2765.82 1985.43
3477.42 -2765.58 1985.79
3478.86 -2765.26 1985.69
3478.19 -2765.88 1985.62
3478.78 -2765.8 1985.55
3479.38 -2765.65 1985.49
3481.49 -2771.48 1984.57
3482.88 -2771.35 1985.12
3477.37 -2766.37 1985.65
3478.59 -2768.88 1985.15
3478.24 -2767.17 1985.36
3480.21 -2771.07 1984.73
3480.24 -2770.49 1984.87
3479.37 -2768.66 1985.07
3481.25 -2771.07 1984.74
3483.71 -2770.08 1986.1
3483.92 -2769.37 1986.34
3484.86 -2767.45 1988.35
3483.85 -2765.74 1988.15
3482.54 -2765.62 1986.76
3481.1 -2766.02 1985.6
3481.33 -2766.47 1985.49
3482.36 -2766.47 1986.05
3481.97 -2766.17 1985.89
3480.58 -2766.25 1985.34
3478.06 -2766.47 1985.49
3478.57 -2766.3 1985.45
3479.21 -2766.31 1985.34
3482.06 -2771.31 1984.72
3481.63 -2770.71 1984.85
3482.47 -2770.9 1985.02
3480.81 -2770.58 1984.83
3480.02 -2768.62 1985
3483.05 -2770.32 1985.55
3483.38 -2767.87 1986.5
3483.13 -2768.24 1985.96
3484.01 -2766.33 1987.97
3483.78 -2767.43 1987.18
3482.88 -2766.25 1986.73
3482.03 -2766.73 1985.73
3482.18 -2768.4 1985.39
3480.65 -2766.92 1985.22
3479.92 -2766.51 1985.24
3480.83 -2768.84 1984.94
3481.66 -2770.21 1984.93
3483.18 -2769.84 1985.76
3481.19 -2767.02 1985.28
3481.82 -2768.91 1985.14
3482.53 -2769.97 1985.34
