3340.96 -2912.41 159.292
3341.1 -2912.37 159.862
3340.91 -2912.69 158.675
3341.22 -2912.11 160.351
3340.73 -2911.71 158.354
3340.76 -2911.42 159.091
3340.95 -2911.4 159.86
3343.66 -2906.82 160.265
3343.79 -2906.4 159.184
3342.92 -2907.65 161.229
3341.26 -2911.04 160.816
3340.75 -2911.95 157.204
3340.91 -2912.55 154.678
3340.68 -2910.94 157.881
3340.72 -2911.13 156.774
3340.76 -2910.75 159.191
3340.68 -2910.64 158.426
3340.89 -2910.64 159.839
3342.25 -2910.59 162.302
3342.25 -2909.95 162.086
3342.89 -2908.22 161.764
3342.64 -2908.86 161.958
3343.6 -2907.11 160.837
3343.34 -2906.69 159.595
3343.17 -2906.53 158.792
3343.59 -2906.27 158.228
3344.07 -2905.95 157.319
3342.5 -2907.75 160.819
3341.48 -2910.68 161.282
3340.83 -2911.66 154.338
3341.03 -2912.12 149.16
3341.15 -2910.56 160.609
3340.72 -2910.14 157.34
3340.75 -2910.53 156.522
3340.82 -2911 153.758
3340.73 -2910.1 158.218
3341.78 -2910.06 161.557
3341.47 -2910.16 161.17
3344.21 -2905.55 155.164
3342.41 -2908.45 161.443
3342.12 -2909.08 161.546
3343.11 -2907.24 160.565
3342.84 -2907.11 159.913
3342.74 -2906.99 159.305
3343.11 -2906.34 157.337
3342.87 -2906.6 158.198
3343.61 -2906.07 156.871
3342.11 -2908.36 160.901
3340.99 -2911.28 149.018
3341.35 -2912.42 143.204
3340.97 -2910.14 159.96
3340.79 -2909.53 157.233
3340.8 -2909.86 155.894
3340.82 -2910.41 154.25
3341 -2910.51 148.786
3340.86 -2909.84 158.948
3340.94 -2909.8 159.441
3341.28 -2909.93 160.71
3341.74 -2909.26 161.144
3343.64 -2905.75 154.787
3344.32 -2905.17 151.594
3342.67 -2906.83 158.612
3343.24 -2905.94 154.493
3342.81 -2906.42 156.68
3342.6 -2906.7 157.592
3342.36 -2907.41 159.833
3342.25 -2907.71 160.246
3341.25 -2911.39 143.9
3341.62 -2911.91 137.947
3340.89 -2909.38 156.122
3340.9 -2909.65 153.402
3340.93 -2910.18 151.119
3341.21 -2910.1 145.662
3341.39 -2911 142.446
3340.92 -2909.27 158.209
3341.43 -2909.32 160.589
3344.16 -2905.18 150.496
3345.4 -2904.17 146.809
3341.65 -2908.8 160.576
3342.24 -2907.32 159.226
3342.43 -2906.91 158.127
3342.18 -2907.18 158.493
3343 -2905.99 153.307
3344.12 -2905.11 149.206
3342.64 -2906.44 155.772
3342.29 -2906.82 156.884
3341.79 -2908.17 160.025
3341.92 -2907.83 159.584
3341.13 -2909.45 159.893
3341.75 -2911.14 137.219
3341.05 -2908.74 157.521
3340.98 -2909.19 153.658
3341.17 -2909.19 148.763
3341.41 -2909.75 143.929
3341.67 -2910.49 139.635
3341.07 -2909.16 159.062
3345.37 -2904.02 144.625
3342.19 -2907.01 157.659
3342.86 -2906.06 152.136
3343.94 -2905.17 148.133
3345.21 -2904.11 143.558
3342.45 -2906.52 154.729
3342.06 -2906.93 156.073
3341.8 -2907.77 159.017
3341.9 -2910.83 134.318
3341.09 -2908.64 156.539
3341.07 -2908.73 154.035
3341.21 -2908.86 149.612
3341.57 -2909.21 143.576
3341.87 -2909.96 138.565
3341.14 -2908.75 158.597
3341.36 -2908.73 159.722
3341.96 -2907.14 157.153
3341.83 -2907.4 157.688
3342.92 -2906 150.191
3343.91 -2905.15 146.216
3345.02 -2904.24 142.666
3342.3 -2906.58 153.269
3342.06 -2910.21 133.445
3341.3 -2908.2 157.863
3341.14 -2908.37 154.696
3341.37 -2908.35 149.481
3341.49 -2908.71 145.919
3342.02 -2908.85 140.76
3342.07 -2909.47 137.877
3341.42 -2908.15 158.71
3341.69 -2907.49 156.611
3342.9 -2906.08 148.204
3344.16 -2905.07 143.583
3345.11 -2904.19 140.946
3342.56 -2906.44 148.4
3341.82 -2907.15 153.973
3342.28 -2909.65 131.825
3342.02 -2910.95 127.013
3341.36 -2908.03 156.821
3341.29 -2908.06 155.073
3341.37 -2908.09 151.255
3341.78 -2907.69 147.359
3341.82 -2908.25 144.8
3342.46 -2908.4 138.718
3342.38 -2908.95 135.592
3341.62 -2907.52 155.378
3343.77 -2905.54 143.506
3344.86 -2904.54 139.2
3345.45 -2903.83 137.669
3342.19 -2906.82 149.275
3343.33 -2906.04 143.825
3341.74 -2907.34 151.97
3342.54 -2909.27 129.196
3342.09 -2910.96 124.662
3341.54 -2907.74 151.734
3341.91 -2907.3 147.99
3342.41 -2907.34 143.983
3342.36 -2907.9 142.212
3342.99 -2907.69 135.695
3342.84 -2908.32 131.834
3344.44 -2905.12 139.003
3345.24 -2904.18 134.945
3342.19 -2906.94 147.395
3343.12 -2906.4 143.436
3344.06 -2905.72 138.472
3342.55 -2909.76 125.226
3342.98 -2906.8 142.432
3343.19 -2907.13 138.568
3343.67 -2906.82 131.829
3343.13 -2908.21 127.338
3345.18 -2904.31 132.88
3343.91 -2906.16 136.144
3344.75 -2905.01 133.081
3344.37 -2905.83 129.928
3343.72 -2907.3 126.221
3345.07 -2904.82 129.171
