3350.52 -2852.75 979.123
3350.2 -2852.78 984.458
3350.02 -2852.92 981.979
3350.12 -2852.93 980.532
3350.16 -2853.2 975.455
3349.45 -2853.58 976.137
3349.6 -2853.33 983.93
3349.35 -2853.45 981.237
3349.07 -2853.78 976.843
3349.69 -2853.76 987.705
3349.02 -2853.83 982.544
3351.49 -2852.28 968.527
3351.05 -2852.48 971.885
3350.07 -2853.05 972.76
3349.62 -2853.29 972.619
3349.04 -2853.68 972.902
3348.61 -2854.11 979.558
3348.41 -2854.28 976.387
3348.42 -2854.09 972.566
3349.2 -2854.33 987.252
3348.05 -2854.58 977.268
3347.99 -2854.71 978.82
3350.81 -2852.74 967.385
3349.74 -2853.02 970.262
3349.05 -2853.44 970.785
3348.18 -2854.34 973.33
3348.54 -2853.86 970.49
3348.46 -2854.4 982.003
3348.93 -2854.84 987.474
3348.11 -2854.79 981.242
3347.75 -2854.93 977.875
3347.85 -2854.74 974.558
3348.72 -2855.49 987.825
3350.26 -2853.14 966.512
3350.82 -2853.27 960.652
3349.24 -2853.35 969.389
3348.61 -2853.79 969.337
3348.12 -2854.26 969.832
3348.11 -2855.07 982.145
3347.54 -2855.08 977.072
3347.76 -2854.82 974.01
3348.09 -2854.32 970.826
3348.33 -2856.29 986.388
3348.36 -2855.91 985.589
3348.28 -2855.49 984.12
3348.16 -2855.23 982.854
3350.79 -2853.52 955.944
3350.5 -2853.29 963.495
3350.09 -2853.78 959.38
3349.51 -2853.61 966.494
3348.94 -2854.06 966.476
3348 -2854.46 969.252
3348.44 -2854.48 966.805
3347.32 -2855.5 978.442
3347.15 -2855.43 976.104
3347.71 -2854.88 973.47
3348.13 -2857.02 984.867
3347.6 -2856.11 981.329
3347.69 -2856.35 981.893
3347.62 -2856.64 981.476
3347.37 -2855.81 979.686
3350.57 -2853.69 955.34
3350.08 -2853.6 963.441
3349.7 -2854.04 959.864
3349.56 -2854.18 957.25
3349.65 -2853.9 963.535
3348.9 -2854.67 964.035
3346.99 -2855.82 976.553
3347.62 -2854.99 972.493
3347.34 -2855.32 973.504
3347.85 -2854.72 970.176
3347.72 -2857.18 981.969
3347.26 -2856.78 979.67
3347.06 -2856.15 977.779
3347.07 -2856.5 978.383
3347.01 -2856.67 977.813
3350.47 -2853.83 954.654
3349.22 -2854.44 960.083
3348.07 -2854.95 967.175
3348.61 -2855.04 960.514
3347.59 -2855.15 969.844
3347.41 -2857.43 980.18
3347.09 -2857.19 978.278
3346.99 -2856.72 977.201
3346.95 -2856.55 976.6
3348.92 -2854.73 957.348
3349.19 -2854.59 956.498
3349.82 -2854.34 954.686
3350.78 -2854.03 952.695
3348.56 -2855.15 964.227
3348.45 -2855.16 957.671
3348.28 -2855.35 958.16
3347.06 -2855.89 973.615
3346.97 -2856.18 974.348
3347.89 -2855.43 967.297
3347.21 -2857.75 977.837
3346.74 -2856.9 975.798
3348.66 -2855.02 956.836
3350.84 -2854.12 952.142
3348.27 -2855.52 960.727
3348.31 -2855.68 964.495
3347.07 -2856.03 972.323
3347.16 -2855.78 970.177
3346.65 -2857.36 976.139
3346.97 -2857.61 976.48
3347.13 -2858.1 976.317
3347.06 -2856.63 972.785
3347.04 -2856.11 970.795
3348.75 -2855.08 956.005
3348.02 -2855.79 958.279
3348.2 -2855.49 956.96
3348.06 -2855.98 961.067
3348.39 -2855.4 956.372
3348.13 -2856.12 964.821
3347.59 -2856.23 967.457
3347.3 -2858.59 976.111
3347.04 -2857.17 973.33
3347.33 -2857.85 973.563
3347.43 -2856.68 967.836
3347.53 -2857.21 968.166
3349.59 -2854.74 954.181
3350.55 -2854.54 951.931
3348.62 -2855.38 955.518
3348.01 -2856.41 961.445
3348 -2856.56 962.052
3348.04 -2856.74 965.337
3347.88 -2856.35 958.428
3347.68 -2857.63 968.934
3347.85 -2858.1 968.903
3347.99 -2857.5 965.635
3347.98 -2856 957.23
3347.99 -2855.86 956.608
3348.2 -2855.83 955.758
3349.36 -2855.14 953.914
3347.81 -2856.88 958.682
3347.86 -2857.11 962.411
3347.91 -2856.4 957.535
3348.04 -2858.37 966.112
3347.67 -2857.77 962.611
3347.61 -2858.18 962.936
3350.48 -2854.8 951.481
3347.84 -2856.85 957.757
3347.82 -2857.59 958.984
3347.87 -2856.42 956.835
3347.92 -2858.18 959.497
3347.81 -2858.5 960.145
3347.84 -2856.18 956.176
3348.03 -2856.27 955.542
3349.45 -2855.46 953.267
3347.8 -2857.67 957.611
3347.93 -2858.27 957.764
3348.05 -2858.78 958.022
3348.3 -2856.57 954.824
3350.52 -2854.97 950.983
3347.79 -2857.16 956.821
3347.83 -2857.71 956.992
3347.94 -2858.23 957.039
3347.81 -2856.89 955.91
3348.09 -2858.86 957.181
3349.51 -2855.88 952.939
3349.54 -2856.58 952.956
3347.86 -2857.33 956.324
3347.98 -2858.22 956.408
3347.76 -2857.35 955.444
3348.33 -2857.35 954.608
3349.79 -2856.81 952.577
3348.04 -2858 955.801
3348.26 -2858.72 955.71
3348.3 -2858.06 954.877
