3846.41 -3000.14 309.81
3846.88 -2997.83 308.278
3846.68 -2999.24 307.103
3846.33 -2997.26 313.062
3846.67 -2997.72 310.984
3847.17 -2995.71 309.6
3847.64 -2994.21 307.92
3847.92 -2992.73 308.966
3846.94 -2997.63 306.167
3846.01 -2991.45 317.635
3846.69 -2992.84 314.575
3847.46 -2992.92 311.708
3847.49 -2993.65 310.741
3848.35 -2990.81 309.833
3846.27 -2999.22 304.277
3845.82 -2998.66 302.635
3847.86 -2993.26 307.271
3849.04 -2988.47 308.593
3848.93 -2988.83 307.907
3849.45 -2986.77 309.315
3847.3 -2995.06 305.998
3846.74 -2987.63 317.483
3847.66 -2988.17 314.892
3848.5 -2987.5 312.909
3848.91 -2987.49 311.354
3846.33 -2985.92 318.988
3849.83 -2984.98 310.069
3846.83 -2996.07 304.825
3844.96 -2992.05 298.655
3845.47 -2995.01 300.911
3846.38 -2995.95 303.419
3848.47 -2990.38 307.055
3850.59 -2983.45 307.743
3850.92 -2982.32 308.451
3849.79 -2985.47 306.959
3851.58 -2979.94 308.997
3847.79 -2992.18 306.062
3846.24 -2984.5 319.656
3848.65 -2982.82 315.312
3849.17 -2983.04 313.904
3849.91 -2982.36 312.243
3850.51 -2981.81 310.963
3850.98 -2981.28 310.009
3848.39 -2981.97 316.168
3852.35 -2976.83 309.612
3847.71 -2991.69 305.242
3845.01 -2989.66 298.698
3845.24 -2990.05 299.549
3845.9 -2994.17 301.789
3847.04 -2993.03 304.056
3849.13 -2987.39 306.306
3851.75 -2979.36 307.517
3852.3 -2977.67 307.888
3852.5 -2976.92 308.434
3851.16 -2980.89 306.865
3853.08 -2974.68 309.284
3846.18 -2983.16 320.007
3848.23 -2981.13 316.849
3850.85 -2977.15 312.975
3851.01 -2977.66 312.319
3851.45 -2977.12 311.639
3851.92 -2976.41 311.079
3852.29 -2976.17 310.449
3850.54 -2976.76 313.707
3852.96 -2974.1 310.142
3849.01 -2986.74 305.388
3848.12 -2988.72 304.408
3845.79 -2990.88 300.906
3845.14 -2985.96 298.777
3846.89 -2991.51 303.088
3850.31 -2982.67 305.895
3852.65 -2975.93 306.962
3852.96 -2975.11 307.385
3853.17 -2974.42 308.036
3853.22 -2974.28 308.614
3852.21 -2977.22 306.695
3853.6 -2972.5 309.034
3853.49 -2972.3 309.518
3846.32 -2981.66 319.861
3845.24 -2980.95 321.432
3848.33 -2979.91 317.077
3850.49 -2975.48 314.253
3851.6 -2973.34 313.274
3852.11 -2972.51 312.608
3851.94 -2974 312.301
3852.41 -2973.39 311.567
3852.67 -2973.68 310.884
3851.85 -2972.12 313.296
3853.52 -2971.32 310.014
3849.54 -2983.16 304.746
3851.14 -2979.59 305.934
3848.32 -2985.97 303.685
3845.73 -2986.77 300.086
3847.1 -2988.28 302.395
3853.1 -2974.12 306.917
3853.35 -2973.56 307.598
3853.55 -2972.88 308.232
3853.73 -2971.82 308.748
3852.65 -2975.07 306.359
3854.03 -2969.73 309.163
3854.08 -2969.14 309.456
3846.5 -2979.91 319.545
3848.34 -2978.69 317.265
3845.57 -2979.3 320.807
3850.46 -2974.31 314.662
3852.1 -2971.19 313.172
3852.81 -2970.01 312.255
3852.89 -2971.07 311.607
3853.45 -2968.77 311.434
3853.51 -2970.36 310.571
3853.02 -2968.74 312.275
3854.04 -2968.58 309.986
3850.18 -2980.14 304.582
3851.84 -2976.94 305.83
3848.42 -2983.48 303.029
3846.66 -2985.2 301.082
3845.56 -2982.81 299.041
3853.36 -2972.79 307.026
3853.66 -2972.13 307.751
3853.88 -2970.7 308.238
3854.02 -2969.64 308.606
3854.08 -2968.92 308.845
3852.93 -2973.52 306.31
3854.05 -2968.03 309.174
3853.97 -2967.63 309.67
3848.1 -2977.23 317.538
3846.6 -2977.9 319.298
3850.39 -2973.48 314.977
3845.52 -2977.61 320.575
3852.32 -2970.39 313.068
3845.07 -2975.86 320.564
3842.94 -2965.79 319.407
3841.18 -2962.79 321.183
3839.67 -2958.35 321.716
3853.04 -2967.95 312.3
3853.41 -2967.73 311.694
3853.74 -2968.85 310.836
3853.71 -2966.95 311.232
3853.79 -2967.44 310.909
3853.92 -2967.94 310.505
3853.37 -2966.79 311.81
3853.93 -2967.13 310.024
3839.06 -2955.53 321.635
3838.61 -2953.89 321.434
3850.73 -2977.94 304.557
3852.23 -2974.93 305.601
3848.38 -2981.28 302.429
3846.54 -2982.63 300.435
3845.94 -2980.25 299.073
3853.51 -2970.99 307.059
3853.75 -2970.05 307.567
3853.85 -2968.98 307.808
3853.95 -2968.34 308.09
3854.06 -2967.74 308.427
3854.08 -2967.27 308.773
3853.12 -2971.98 306.315
3854.11 -2966.61 309.136
3854.16 -2965.97 309.469
3848.39 -2974.74 316.983
3850.34 -2972.79 315.149
3847.21 -2975.61 318.224
3846.07 -2976.49 319.622
3852.48 -2969.66 313.005
3852.97 -2967.37 312.409
3845.66 -2975.17 319.668
3844.67 -2972.38 319.452
3844.15 -2967.89 318.088
3842.74 -2963 318.733
3840.79 -2959.43 320.399
3839.96 -2955.89 320.228
3853.32 -2966.16 312.033
3853.71 -2966.2 311.524
3853.98 -2965.3 310.947
3853.98 -2965.83 310.624
3853.96 -2966.47 310.332
3853.79 -2965.15 311.682
3854.2 -2965.34 309.838
3839.25 -2954.04 320.261
3838.73 -2952.04 319.756
3851.2 -2976.07 304.553
3852.53 -2973.32 305.55
3848.95 -2979.06 302.549
3847.03 -2980.28 300.49
3846.82 -2978.49 299.841
3846.11 -2977.06 298.96
3853.43 -2969.75 306.722
3853.53 -2968.23 306.972
3853.69 -2967.62 307.369
3853.87 -2967 307.899
3854 -2966.47 308.379
3854.12 -2965.62 309.011
3853.15 -2970.59 306.197
3854.18 -2964.77 309.708
3849.67 -2972.4 315.775
3851.42 -2970.89 314.216
3847.45 -2974.14 317.601
3846.47 -2975.02 318.776
3845.15 -2972.42 318.918
3846.07 -2974.23 318.773
3844.52 -2967.79 317.61
3843.48 -2963.22 317.757
3841.89 -2958.39 318.501
3840.92 -2956.35 319.023
3840.24 -2954.64 319.081
3854 -2964.63 311.124
3854.16 -2964.34 310.461
3853.84 -2963.76 310.923
3839.49 -2953.15 319.195
3839.19 -2951.68 318.542
3838.64 -2950.32 318.371
3838.43 -2948.98 317.204
3851.62 -2974.23 304.575
3852.66 -2972.06 305.509
3850.43 -2975.71 303.502
3848.19 -2978.05 301.437
3846.86 -2976.25 299.692
3848.11 -2976.36 301.117
3853.23 -2968.24 306.291
3853.52 -2966.72 306.944
3853.77 -2965.72 307.676
3853.93 -2965.24 308.428
3854.04 -2964.97 308.994
3852.93 -2970.03 305.801
3853.02 -2967.7 305.982
3854.04 -2963.96 309.612
3848.7 -2972.61 316.479
3851.89 -2969.24 313.817
3852.67 -2968.28 312.924
3846.75 -2973.57 317.946
3852.7 -2965.83 312.584
3852.97 -2965.38 312.348
3853.32 -2964.58 311.908
3845.41 -2971.62 318.252
3845.94 -2971.71 317.799
3844.79 -2966.69 316.978
3844.18 -2963.04 316.772
3843.19 -2958.72 316.888
3842.35 -2956.64 317.185
3841.49 -2955.26 317.731
3842.03 -2954.78 316.642
3840.2 -2953.2 318.137
3854.04 -2963.33 310.036
3853.61 -2962.64 310.819
3840.04 -2952.04 317.259
3839.43 -2950.84 317.164
3839.37 -2950.03 316.25
3839.47 -2949.61 315.295
3839.02 -2948.52 314.548
3852.32 -2971.84 305.018
3850.93 -2973.76 303.683
3847.76 -2974.48 300.589
3846.65 -2974.02 299.469
3850.54 -2972.98 303.201
3846.02 -2973.17 298.822
3853.51 -2965.62 306.958
3853.6 -2964.61 307.4
3853.66 -2963.78 307.594
3853.8 -2964.36 308.013
3853.92 -2964.54 308.595
3853.97 -2964.13 309.047
3852.71 -2969.53 305.458
3852.8 -2967.03 305.72
3853.31 -2965.03 306.629
3854.01 -2962.9 309.242
3847.94 -2972.54 316.917
3851.36 -2969.02 314.111
3847.58 -2972.16 317.027
3852.6 -2964.69 312.336
3853.24 -2963.52 311.512
3846.31 -2970.86 317.227
3845.21 -2965.4 316.218
3844.96 -2961.71 315.585
3844.45 -2959.27 315.529
3843.62 -2957.56 315.929
3843.04 -2956.15 316.027
3841.58 -2953.61 316.372
3843.75 -2956.03 315.015
3843.38 -2955.27 314.972
3853.96 -2962 309.802
3853.28 -2961.76 310.537
3853.99 -2961.97 309.171
3841.17 -2952.55 315.845
3840.27 -2951.3 315.928
3840.27 -2950.84 315.245
3839.91 -2949.88 314.255
3840.43 -2950.8 314.66
3839.45 -2948.91 313.406
3852.22 -2970.75 304.819
3845.27 -2971.74 298.27
3845.83 -2972.16 298.816
3847.52 -2972.89 300.371
3850.02 -2972.35 302.623
3846.48 -2972.66 299.416
3852.01 -2969.45 304.577
3853.41 -2963.72 306.957
3853.52 -2962.93 307.118
3853.73 -2963.11 307.751
3853.63 -2962.34 307.299
3853.84 -2963.47 308.37
3853.99 -2963.18 308.766
3852.51 -2967.82 305.259
3852.76 -2965.23 305.769
3853.11 -2964.36 306.279
3853.25 -2963.08 306.532
3850.71 -2968.93 314.468
3852.19 -2965.7 312.875
3852.27 -2964.3 312.38
3847.44 -2969.75 316.234
3850.13 -2968.66 314.723
3852.53 -2963.65 312.026
3853.01 -2962.63 311.306
3845.81 -2965.06 315.619
3845.85 -2961.12 314.643
3845.42 -2959.46 314.635
3844.76 -2958.35 314.935
3844.27 -2957.27 315.004
3842.93 -2954.48 314.939
3844.87 -2957.08 314.201
3844.52 -2956.28 314.104
3844.12 -2955.54 314.075
3853.95 -2961.41 309.271
3853.61 -2960.95 309.623
3853.02 -2960.91 310.253
3853.92 -2961.06 308.548
3842.73 -2953.82 314.466
3841.68 -2952.55 314.827
3841.6 -2952.2 314.334
3840.23 -2950.26 313.551
3840.61 -2950.9 314.056
3841.56 -2951.93 313.839
3839.26 -2948.61 312.193
3840.03 -2949.82 312.727
3845.6 -2971.18 298.907
3845.26 -2970.64 298.728
3846.09 -2971.5 299.294
3844.16 -2968.11 298.75
3850.02 -2971.17 302.587
3847.99 -2971.55 300.795
3846.8 -2971.65 299.862
3851.82 -2967.91 304.424
3852.37 -2966.32 305.194
3853.36 -2962.31 306.735
3853.45 -2961.73 306.939
3853.85 -2962.47 308.045
3853.77 -2961.81 307.574
3854.03 -2961.58 308.372
3852.71 -2963.55 305.727
3851.83 -2965.32 312.964
3851.91 -2963.8 312.389
3852.11 -2962.93 311.957
3850.06 -2966.73 314.142
3846.87 -2965.31 315.06
3852.48 -2962.65 311.616
3852.69 -2962.12 311.23
3846.74 -2961.62 314.086
3846.77 -2959.81 313.542
3845.76 -2958.61 314.016
3845.31 -2957.87 314.126
3843.86 -2954.94 313.85
3845.55 -2957.1 313.497
3845.86 -2957.71 313.534
3845.1 -2956.31 313.442
3844.85 -2955.69 313.29
3852.65 -2961.29 310.743
3853.73 -2960.65 308.873
3853.45 -2960.19 308.963
3852.52 -2960.54 310.347
3852.72 -2960.3 309.946
3853.63 -2960.31 308.367
3842.96 -2953.53 313.576
3843.65 -2954.36 313.509
3842.84 -2953.26 313.168
3840.94 -2950.99 312.976
3841.34 -2951.54 313.434
3842.6 -2952.89 312.826
3839.98 -2949.69 311.663
3839.55 -2949.19 310.432
3840.75 -2950.67 312.032
3845.35 -2969.88 299.2
3845.8 -2970.31 299.388
3846.32 -2970.6 299.705
3849.83 -2969.87 302.479
3851.52 -2966.67 304.217
3847.57 -2970.58 300.592
3852.25 -2965.1 305.13
3853.24 -2961.34 306.639
3853.59 -2961.26 307.247
3853.4 -2960.81 306.96
3853.89 -2961.29 307.808
3853.87 -2960.79 307.968
3853.02 -2961.82 306.231
3852.49 -2962.97 305.489
3851.36 -2963.64 312.578
3851.64 -2962.59 312.071
3851.99 -2961.88 311.523
3851.51 -2961.7 311.696
3849.17 -2964.63 313.809
3848.96 -2962.82 313.29
3852.14 -2961.37 311.127
3849.36 -2961.45 312.626
3849.57 -2960.56 312.138
3847.06 -2959.03 312.985
3846.54 -2958.4 313.208
3846.64 -2957.8 312.84
3846.04 -2956.99 312.931
3846.96 -2958.28 312.765
3845.8 -2956.35 312.745
3845.64 -2955.8 312.548
3852.1 -2960.61 310.688
3853.35 -2959.75 308.578
3852.9 -2959.75 309.188
3852.34 -2959.92 309.989
3851.96 -2959.81 310.302
3853.46 -2959.66 308.065
3843.9 -2954.24 312.809
3844.56 -2955.05 312.803
3843.57 -2953.71 312.499
3842.21 -2952.27 312.121
3842.44 -2952.61 312.437
3840.8 -2950.73 311.014
3840.42 -2950.36 310.092
3840.16 -2950.17 308.591
3841.97 -2951.94 311.617
3844.57 -2967.6 299.528
3845.49 -2969.15 299.597
3846.03 -2969.6 299.808
3846.97 -2970.04 300.25
3849.13 -2969.34 301.961
3851.14 -2966.07 303.946
3851.97 -2964.54 304.885
3853.08 -2960.38 306.466
3853.48 -2960.41 307.281
3853.59 -2960.14 307.722
3852.87 -2960.95 306.086
3852.72 -2961.37 305.825
3852.29 -2962.47 305.282
3851.38 -2960.87 311.293
3849.64 -2959.85 311.762
3851.45 -2960.25 310.886
3849.63 -2959.25 311.46
3846.98 -2957.57 312.4
3849.57 -2958.68 311.216
3849.51 -2958.21 310.992
3846.72 -2957.06 312.313
3846.49 -2956.51 312.211
3846.28 -2955.97 312.084
3851.34 -2959.36 310.435
3853.09 -2959.32 308.465
3852.8 -2959.28 308.893
3851.79 -2959.19 310.048
3852.19 -2959.3 309.676
3851.19 -2958.73 310.152
3844.69 -2954.74 311.954
3845.2 -2955.17 312.064
3844.44 -2954.34 311.65
3843.28 -2953.24 311.507
3841.41 -2951.53 309.966
3841.72 -2951.7 310.839
3840.98 -2951.22 309.1
3840.58 -2950.91 307.973
3842.94 -2952.91 311.214
3844.78 -2967.09 299.963
3844.29 -2964.89 300.642
3845.68 -2968.52 299.958
3846.49 -2969.13 300.248
3848.08 -2969.41 301.104
3850.61 -2965.88 303.568
3851.68 -2963.99 304.642
3853.24 -2959.99 307.015
3852.81 -2959.86 306.31
3853.24 -2959.21 307.78
3852.61 -2960.54 305.887
3852.1 -2961.97 305.134
3849.16 -2957.58 310.769
3848.88 -2957.02 310.558
3852.58 -2958.7 308.562
3852.05 -2958.75 309.383
3851.68 -2958.69 309.771
3845.36 -2954.91 311.491
3844.33 -2954.17 311.157
3843.88 -2953.69 311.07
3842.62 -2952.64 310.69
3842.46 -2952.56 310.164
3841.79 -2952.02 309.354
3841.3 -2951.71 308.506
3840.92 -2951.57 307.577
3840.85 -2951.98 306.492
3845.18 -2966.97 300.324
3846.1 -2967.92 300.446
3847.32 -2968.91 300.768
3850.01 -2966.03 303.118
3844.06 -2962.17 302.138
3851.45 -2963.4 304.463
3842.03 -2956.14 305.184
3841.47 -2955.26 305
3841.19 -2953.32 305.923
3852.84 -2959.44 306.644
3853.05 -2959.35 307.235
3852.39 -2959.92 305.916
3852.16 -2960.8 305.515
3846.36 -2955.52 311.452
3851.06 -2958.06 309.613
3852.24 -2958.3 308.643
3852.87 -2958.8 307.716
3846.11 -2955.07 311.005
3844.68 -2954.47 310.826
3845.36 -2954.79 310.836
3843.46 -2953.28 310.425
3842.68 -2952.99 309.666
3842.11 -2952.62 308.884
3841.58 -2952.34 308.086
3841.22 -2952.28 307.184
3844.19 -2953.99 310.362
3841.32 -2952.88 306.642
3845.73 -2966.43 300.877
3845.03 -2964.89 301.249
3844.68 -2963.63 301.732
3847.05 -2967.85 300.958
3846.53 -2966.67 301.148
3849.34 -2966.34 302.619
3843.79 -2960.63 303.273
3842.66 -2956.83 305.441
3842 -2953.98 306.713
3842.42 -2954.43 306.92
3841.59 -2953.65 306.35
3852.51 -2959.06 306.417
3851.96 -2960.13 305.592
3851.53 -2961.52 304.841
3848.69 -2956.44 310.222
3850.88 -2957.54 309.198
3851.48 -2958.03 309.225
3851.87 -2957.92 308.685
3851.43 -2957.69 308.758
3852.43 -2958.31 308.094
3848.51 -2956.01 309.911
3843.26 -2953.52 309.549
3843.84 -2953.93 309.704
3842.85 -2953.4 309.084
3842.26 -2953.1 308.397
3841.73 -2952.91 307.558
3844.84 -2954.62 310.151
3841.85 -2953.39 307.095
3845.49 -2964.71 301.604
3846.21 -2965.12 301.716
3845.09 -2963.57 302.013
3844.75 -2962.34 302.558
3849.34 -2965.38 302.866
3848.81 -2965.22 302.659
3846.98 -2965.79 301.722
3850.97 -2962.4 304.387
3843.33 -2957.4 305.56
3842.84 -2955 307.002
3843.22 -2955.46 307.031
3842.33 -2953.83 307.431
3842.72 -2954.29 307.495
3852.59 -2958.77 306.827
3852.11 -2959.21 306.047
3851.85 -2959.55 305.758
3851.37 -2960.83 305.025
3850.76 -2957.16 308.752
3846.16 -2954.87 310.359
3845.46 -2954.75 310.156
3844.34 -2954.45 309.739
3843.33 -2953.82 309.023
3842.81 -2953.62 308.546
3842.27 -2953.42 307.892
3845.59 -2963.72 302.18
3846.29 -2963.88 302.304
3847 -2964.72 302.169
3844.67 -2961.34 303.304
3843.73 -2957.95 305.425
3849 -2964.36 302.998
3850.79 -2961.89 304.442
3843.54 -2955.84 306.891
3843.87 -2956.27 306.742
3843.13 -2954.78 307.545
3843.51 -2955.21 307.536
3842.73 -2953.89 308.025
3843.14 -2954.36 308.045
3852.09 -2958.72 306.295
3852.54 -2958.38 307.475
3851.3 -2959.94 305.336
3852.14 -2957.89 307.688
3851.33 -2957.46 308.324
3843.2 -2954.05 308.528
3843.79 -2954.19 309.135
3846.23 -2955.1 309.66
3845.74 -2963 302.671
3846.99 -2963.62 302.645
3846.3 -2963.01 302.837
3848.94 -2963.81 303.145
3848.83 -2963.12 303.349
3845.4 -2962.03 303.113
3850.51 -2961.47 304.48
3843.86 -2955.6 307.398
3843.54 -2954.79 308.068
3843.93 -2955.13 308.036
3843.58 -2954.44 308.567
3852.16 -2958.29 306.788
3851.46 -2958.99 305.889
3851.19 -2959.49 305.527
3850.84 -2960.16 305.099
3851.53 -2957.44 307.792
3848.42 -2955.94 309.178
3850.42 -2956.82 308.501
3844.88 -2954.9 309.431
3846.97 -2962.83 303.056
3848.66 -2962.52 303.537
3846.09 -2962.24 303.281
3850.34 -2960.96 304.649
3845.13 -2960.68 304.043
3844.45 -2958.36 305.508
3844.61 -2956.81 306.707
3844.61 -2956.23 307.206
3844.38 -2955.35 308.169
3844.78 -2955.74 307.874
3843.96 -2954.85 308.503
3851.74 -2958.24 306.483
3851.34 -2958.53 306.112
3851.02 -2957.14 307.91
3844.4 -2954.85 309.027
3845.44 -2955.13 309.223
3848.3 -2956.07 308.594
3846.59 -2955.4 309.169
3850.15 -2956.72 308.012
3848.45 -2962.02 303.705
3848.1 -2961.49 303.938
3846.7 -2962.11 303.445
3849.81 -2960.77 304.632
3846.17 -2961.01 304.037
3844.85 -2958.16 305.794
3844.83 -2955.43 308.44
3845.29 -2956.07 307.733
3851.85 -2957.88 307.063
3851.3 -2957.99 306.526
3850.82 -2959.01 305.672
3850.52 -2959.39 305.367
3849.84 -2960.07 304.928
3845.94 -2955.43 308.913
3845.45 -2959.15 305.2
3848.02 -2960.68 304.388
3846.12 -2959.86 304.771
3847.81 -2959.96 304.806
3845.25 -2957.65 306.278
3845.63 -2957.32 306.618
3845.64 -2956.85 307.054
3845.35 -2956.52 307.307
3845.34 -2955.55 308.517
3845.86 -2956.06 307.939
3845.83 -2956.42 307.538
3850.78 -2958.06 306.247
3850.74 -2958.53 305.926
3851.37 -2957.46 307.254
3850.01 -2959.32 305.334
3846.52 -2955.74 308.624
3850.55 -2957.06 307.52
3845.62 -2958.1 306.023
3846 -2958.6 305.673
3847.61 -2959.19 305.339
3849.43 -2959.14 305.429
3846.1 -2957.14 306.871
3846.09 -2957.73 306.378
3846.41 -2956.03 308.143
3846.41 -2956.6 307.511
3850.25 -2958.38 305.991
3850.56 -2957.72 306.567
3849.96 -2958.76 305.717
3848.27 -2956.31 308.138
3847.57 -2958.47 305.872
3849.38 -2958.62 305.789
3847.94 -2957.35 306.837
3847.83 -2958.06 306.209
3848.34 -2956.59 307.675
3850.86 -2957.42 307.061
3850.06 -2957.76 306.539
3849.97 -2956.99 307.429
3849.33 -2958.19 306.14
3849.75 -2957.34 306.926
