3430.58 -2792.91 1092.23
3431.01 -2792.43 1091.06
3430.42 -2792.64 1091.45
3431.62 -2792.36 1091.08
3431.12 -2792.72 1091.89
3430.08 -2793.14 1092.52
3429.87 -2792.77 1091.4
3429.57 -2793.16 1092.19
3430.18 -2792.45 1090.66
3431.33 -2792.18 1090.46
3429.1 -2793.14 1091.49
3429.11 -2793.43 1092.35
3429.22 -2792.95 1090.86
3431.95 -2792.21 1090.66
3431.73 -2792.03 1089.97
3432 -2791.91 1089.36
3432.24 -2792.03 1089.87
3430.48 -2792.26 1090.02
3431.19 -2792.03 1089.67
3429.59 -2792.67 1090.31
3428.74 -2793.26 1090.97
3428.65 -2793.47 1091.46
3431.8 -2791.83 1088.76
3432.52 -2791.96 1089.41
3432.09 -2791.76 1088.31
3428.52 -2793.32 1090.29
3428.35 -2793.61 1090.99
3430.63 -2792.06 1089.22
3431.27 -2791.88 1088.77
3430 -2792.31 1089.63
3429.95 -2792.24 1089.1
3429.42 -2792.55 1089.37
3432.59 -2791.81 1088.5
3431.88 -2791.75 1087.74
3432.78 -2792.22 1090.01
3432.81 -2791.77 1087.89
3427.47 -2794.65 1091.9
3428.84 -2792.92 1089.58
3428.46 -2793.29 1089.66
3430.57 -2792.01 1088.44
3431.35 -2791.81 1087.83
3429.67 -2792.38 1088.41
3429.25 -2792.62 1088.68
3432.56 -2791.71 1087.24
3432.5 -2791.6 1086.36
3431.97 -2791.71 1086.62
3433.38 -2791.83 1087.97
3427.04 -2794.77 1090.28
3427.18 -2794.49 1088.92
3427.22 -2794.75 1091.2
3428.82 -2792.88 1088.92
3428.4 -2793.3 1088.9
3427.21 -2794.38 1087.73
3428.84 -2792.87 1087.99
3427.35 -2794.26 1086.82
3427.76 -2794 1085.86
3431.14 -2791.89 1086.69
3430.65 -2791.99 1087.18
3429.59 -2792.45 1087.48
3432.64 -2791.6 1085.27
3432.14 -2791.7 1085.3
3432.96 -2791.65 1084.86
3433.39 -2791.72 1086.96
3433.2 -2791.67 1086.43
3433.21 -2791.65 1085.4
3429.1 -2792.88 1086.53
3428.44 -2793.78 1083.64
3431.26 -2792 1085.13
3430.82 -2792.11 1085.41
3431.73 -2791.88 1084.7
3429.99 -2792.35 1085.99
3429.53 -2792.63 1086.2
3430.41 -2792.2 1085.7
3433.26 -2791.73 1084.17
3432.38 -2791.79 1083.55
3433.11 -2791.84 1082.99
3433.58 -2791.74 1084.82
3433.55 -2791.77 1083.55
3429.29 -2793.24 1083.23
3428.12 -2794.47 1078.99
3431.29 -2792.32 1082.09
3430.86 -2792.44 1082.4
3431.69 -2792.21 1081.81
3432.15 -2792.19 1081.15
3430.4 -2792.59 1082.75
3429.85 -2792.89 1083.04
3429.12 -2793.8 1078.16
3433.47 -2791.94 1082.25
3432.87 -2792.11 1081.41
3429.7 -2793.47 1077.95
3430.91 -2793.04 1077.11
3430.12 -2793.31 1077.46
3431.49 -2792.94 1076.65
