3550.87 -2761.57 1145.44 
3550.48 -2761.5 1144.69 
3550.05 -2761.52 1144.28 
3549.37 -2761.64 1143.66 
3551.36 -2761.52 1145.34 
3551.08 -2761.39 1144.65 
3550.8 -2761.34 1144.02 
3550.03 -2761.42 1142.62 
3548.01 -2761.68 1137.39 
3550.14 -2761.29 1138.2 
3550.86 -2761.3 1142.85 
3550.59 -2761.28 1140.2 
3548.24 -2761.72 1134.5 
3550.53 -2761.31 1133.93 
3551.18 -2761.21 1134.98 
3552.07 -2761.61 1145.68 
3551.99 -2761.39 1144.76 
3551.65 -2761.29 1143.9 
3551.26 -2761.28 1143.27 
3551.28 -2761.21 1139.06 
3551.54 -2761.34 1128.07 
3552.05 -2761.25 1128.85 
3551.91 -2761.52 1122.56 
3551.78 -2761.2 1133.37 
3552.7 -2761.17 1128.34 
3551.52 -2761.25 1140.44 
3551.66 -2761.27 1141.67 
3552.15 -2761.15 1134.62 
3552.52 -2761.44 1122.43 
3553.77 -2761.46 1116.63 
3552.99 -2761.14 1129.83 
3553.24 -2761.27 1124.33 
3553.14 -2761.41 1122 
3552.17 -2761.38 1144.29 
3551.84 -2761.28 1142.19 
3552.69 -2761.26 1136.72 
3552.51 -2761.18 1135.61 
3553.22 -2761.12 1131.12 
3554.12 -2761.42 1117.24 
3555.17 -2761.3 1114.11 
3553.74 -2761.65 1112.87 
3553.49 -2761.2 1126.89 
3554.3 -2761.46 1120.95 
3554.2 -2761.48 1120.28 
3552.52 -2761.58 1144.87 
3552.78 -2761.34 1137.91 
3553.74 -2761.27 1133.63 
3553.56 -2761.16 1131.85 
3553.88 -2761.21 1128.01 
3555.56 -2761.26 1114.49 
3554.19 -2761.66 1111.98 
3555.45 -2761.33 1113.22 
3552.65 -2761.82 1145.74 
3553.93 -2761.35 1122.9 
3555.06 -2761.57 1120.26 
3555.27 -2761.4 1117.34 
3552.44 -2761.4 1142.38 
3553.26 -2761.4 1137.1 
3554.18 -2761.19 1131.09 
3555.94 -2761.27 1113.6 
3554.31 -2761.76 1111.06 
3555.55 -2761.41 1112.52 
3554.46 -2761.82 1110.51 
3555.92 -2761.45 1117.3 
3556.05 -2761.23 1114.7 
3553.83 -2761.55 1137.25 
3554.47 -2761.41 1133.57 
3554.5 -2761.3 1127.86 
3554.22 -2761.38 1123.43 
3553.31 -2761.9 1143.98 
3555.13 -2761.58 1121.17 
3556.59 -2761.29 1115.26 
3556.41 -2761.24 1114.03 
3553.92 -2761.64 1137.74 
3552.84 -2761.58 1143.05 
3553.36 -2761.68 1140.1 
3554.72 -2761.35 1131.61 
3556.37 -2761.32 1113 
3555.82 -2761.47 1111.95 
3554.88 -2761.96 1109.77 
3555.65 -2762.13 1134.66 
3555.85 -2761.76 1119.99 
3556.47 -2761.49 1117.04 
3554.45 -2761.72 1136.71 
3554.99 -2761.57 1133.98 
3554.52 -2761.86 1137.27 
3555.02 -2761.51 1127.94 
3556.27 -2761.42 1112.18 
3555.41 -2762.07 1109.31 
3555.87 -2762.06 1133.37 
3555.37 -2761.68 1121.89 
3557.1 -2761.35 1115.42 
3556.99 -2761.27 1114.59 
3557.03 -2761.29 1113.48 
3555.12 -2761.53 1132.7 
3555.19 -2761.56 1128.6 
3554.95 -2761.57 1123.88 
3557.05 -2761.38 1112.7 
3556.08 -2761.64 1111.3 
3555.68 -2761.82 1132.41 
3555.75 -2761.92 1130.66 
3556.8 -2761.65 1117.56 
3556.18 -2761.94 1120.36 
3557.31 -2761.35 1114.12 
3555.43 -2761.69 1133.21 
3555.28 -2761.52 1131.32 
3555.33 -2761.7 1127.02 
3555.55 -2761.82 1123.93 
3555.76 -2761.87 1122.25 
3557.17 -2761.52 1112.15 
3556.76 -2761.69 1111.23 
3555.96 -2762.17 1109.26 
3555.67 -2761.86 1128.93 
3557.48 -2761.47 1115.07 
3557.56 -2761.59 1112.59 
3555.52 -2761.78 1128 
3555.57 -2761.91 1125.17 
3557.22 -2761.69 1111.62 
3556.52 -2762.2 1109.48 
3558.64 -2762.21 1113.76 
3557.98 -2762.03 1112.49 
3557.84 -2761.98 1111.95 
3557.66 -2761.61 1115.52 
3557.6 -2761.51 1114.56 
3557.6 -2761.54 1113.36 
3557.77 -2761.56 1113.86 
3557.41 -2761.98 1117.56 
3558.11 -2761.94 1113.21 
3557.97 -2761.75 1115.15 
3558.29 -2761.91 1114.61 
3558.06 -2761.92 1115.68 
