3390.76 -2826.57 2806.24
3390.05 -2825.53 2802.97
3389.49 -2826.09 2803.19
3391.26 -2825.91 2805.54
3390.11 -2825.23 2802.31
3389.39 -2826.79 2804.32
3388.9 -2826.89 2803.52
3389.51 -2825.49 2802.04
3389.08 -2825.99 2802.3
3392.4 -2825.39 2805.28
3390.76 -2824.85 2802.1
3388.63 -2826.86 2803.01
3388.61 -2827.31 2803.67
3388.92 -2826.4 2802.77
3389.57 -2825.24 2801.41
3390.05 -2825.05 2801.59
3389.05 -2825.67 2801.47
3391.07 -2824.7 2800.96
3392.22 -2824.39 2801.2
3391.67 -2824.55 2801.22
3391.71 -2824.63 2802.17
3392.1 -2824.28 2799.75
3392.65 -2824.31 2800.59
3388.24 -2827.36 2803.05
3388.36 -2827.92 2803.42
3389.76 -2825.09 2800.64
3389.05 -2825.56 2800.74
3388.72 -2825.93 2801.18
3390.72 -2824.68 2800.36
3391.28 -2824.48 2799.94
3391.75 -2824.4 2800.34
3391.66 -2824.36 2799.13
3392.7 -2824.18 2797.2
3388.42 -2826.56 2801.79
3388.29 -2826.99 2802.21
3390.3 -2824.79 2799.99
3389.84 -2825.05 2799.99
3389.37 -2825.33 2800.04
3388.53 -2825.95 2800.45
3388.3 -2826.23 2800.95
3388.72 -2825.83 2799.79
3390.76 -2824.61 2799.58
3391.21 -2824.49 2798.9
3392.26 -2824.28 2796.31
3387.92 -2827.65 2801.89
3387.9 -2828.09 2802.49
3388.15 -2826.77 2801.2
3387.95 -2827.26 2801.07
3390.25 -2824.86 2799.45
3389.75 -2825.1 2799.4
3389.29 -2825.35 2799.37
3388.13 -2826.58 2800.4
3388.78 -2825.82 2799.24
3391.69 -2824.46 2796.31
3387.75 -2828.1 2801.52
3387.98 -2827.12 2800.42
3387.75 -2827.72 2800.26
3390.62 -2824.69 2798.68
3389.55 -2825.25 2798.88
3388.28 -2826.44 2799.53
3388.1 -2826.89 2799.7
3387.61 -2828.18 2800.57
3387.53 -2828.25 2799.79
3387.8 -2827.69 2799.52
3391.17 -2824.58 2796.42
3390.32 -2824.81 2798.16
3389.59 -2825.29 2798.28
3388.51 -2826.18 2799
3389.17 -2825.57 2798.38
3392.41 -2824.38 2793.13
3388.22 -2826.91 2799.08
3391.15 -2824.64 2795.92
3390.62 -2824.99 2795.98
3389.66 -2825.22 2797.71
3388.4 -2826.7 2798.59
3388.18 -2827.15 2798.56
3387.75 -2827.92 2799
3392.04 -2824.53 2793.58
3391.56 -2824.83 2793.75
3391.14 -2825.05 2794.35
3389.18 -2825.62 2797.62
3388.8 -2826.11 2798.07
3390.09 -2825.39 2796.12
3388.45 -2826.89 2797.79
3387.91 -2827.72 2798.3
3388.11 -2827.47 2797.88
3389.08 -2826.23 2797.3
3389.76 -2825.83 2796.27
3390.81 -2825.51 2794.51
3387.9 -2827.95 2797.74
3388.72 -2826.98 2797.16
3388.46 -2827.43 2797.09
3389.52 -2826.5 2796.14
