3502.59 -2765.74 2144.66
3503.43 -2765.51 2143.04
3504.01 -2765.17 2141.77
3501.51 -2766.03 2146.36
3501.1 -2766.26 2146.95
3502.92 -2765.5 2143.34
3503.42 -2765.37 2142.52
3503.82 -2765.21 2140.46
3501.41 -2765.64 2145.79
3499.71 -2767.34 2148.44
3500.6 -2766.06 2146.79
3497.34 -2768.96 2151.51
3501.47 -2765.48 2145.26
3501.95 -2765.63 2144.84
3503.55 -2765.09 2141.5
3503.84 -2765.3 2139.56
3500.57 -2765.66 2146.2
3500.11 -2765.88 2146.65
3497.19 -2768.75 2150.99
3495.45 -2769.22 2152.14
3492.14 -2770.05 2154.73
3491.92 -2769.65 2154.06
3500.83 -2765.21 2145.43
3502.32 -2765.49 2143.81
3502.7 -2765.14 2142.68
3503.75 -2765.39 2139.06
3503.48 -2764.98 2139.8
3499.03 -2767.16 2148.92
3499.53 -2765.51 2146.6
3495.38 -2768.34 2151.54
3491.56 -2769.25 2153.3
3492.14 -2768.84 2152.59
3489.37 -2769.99 2155.91
3489.06 -2769.77 2155.54
3489.31 -2769.44 2154.9
3501.68 -2765.43 2144.22
3501.06 -2765.23 2144.83
3500.38 -2764.99 2145.4
3502.8 -2764.87 2141.88
3503.7 -2765.53 2138.47
3503.26 -2764.92 2140.38
3503.14 -2764.9 2141.19
3499.85 -2765.05 2145.83
3498.21 -2767.14 2149.36
3498.2 -2765.47 2147.63
3498.72 -2764.77 2146.02
3492.98 -2767.5 2151.18
3490.76 -2768.14 2152.07
3488.63 -2769.28 2154.23
3489.04 -2768.89 2153.41
3488.87 -2769.94 2156.41
3488.07 -2769.98 2155.9
3488.05 -2769.67 2155.09
3501.56 -2765.27 2143.76
3501.88 -2765.17 2143.37
3502.18 -2765 2142.79
3503.28 -2765.07 2138.8
3499.63 -2764.66 2145.47
3494.83 -2766.87 2149.64
3496.92 -2762.98 2145.05
3495.71 -2763.82 2146.1
3498.5 -2764.23 2145.6
3491.49 -2765.44 2148.55
3488.76 -2766.71 2150.45
3488.11 -2767.95 2152.2
3487.3 -2768.73 2153.44
3486.91 -2769.44 2154.62
3487.45 -2770.22 2156.44
3487.71 -2770.33 2156.99
3486.42 -2770.34 2156.42
3486.72 -2769.88 2155.48
3500.56 -2764.91 2144.47
3502.04 -2764.75 2142.33
3499.97 -2764.67 2144.92
3502.39 -2764.6 2141.6
3503.37 -2765.61 2138.07
3502.89 -2764.72 2140.74
3503.01 -2764.59 2139.54
3499.33 -2764.28 2145.22
3494.46 -2763.12 2145.52
3497.79 -2762.71 2144.61
3496.28 -2761.28 2143.36
3496.97 -2760.98 2142.96
3498.33 -2762.79 2144.59
3490.47 -2763.78 2146.52
3493.72 -2762.46 2144.8
3486.38 -2765.63 2149.14
3486.21 -2768.03 2152.52
3485.82 -2769.07 2154.04
3485.58 -2769.67 2155.03
3486.33 -2770.55 2157.05
3485.19 -2770.33 2156.25
3485.2 -2770.64 2156.94
3500.02 -2764.38 2144.49
3500.7 -2764.62 2143.96
3501.21 -2764.58 2143.3
3501.52 -2764.49 2142.64
3503.02 -2765.22 2138.19
3499.33 -2763.8 2145.02
3495.86 -2760.99 2143.03
3497.01 -2760.17 2142.05
3497.5 -2760.05 2141.76
3497.81 -2761.14 2142.91
3491.95 -2762.19 2144.34
3494.23 -2760.91 2142.87
3495.62 -2760.57 2142.57
3487.18 -2763.23 2145.54
3482.27 -2764.31 2146.88
3484.11 -2766.45 2150.16
3484.86 -2768.66 2153.27
3484.39 -2769.56 2154.52
3483.97 -2770.23 2155.65
3485.21 -2770.92 2157.69
3483.87 -2770.79 2156.76
3483.77 -2771.3 2157.78
3499.74 -2763.82 2144.48
3500.99 -2764.13 2143.1
3501.6 -2764.08 2141.99
3503.05 -2765.81 2137.52
3502.06 -2764.32 2141.02
3502.62 -2764.5 2140.04
3502.83 -2764.7 2138.73
3496.63 -2759.8 2141.67
3497.32 -2759.17 2140.68
3499.05 -2762.31 2144.04
3498.24 -2760.94 2142.59
3492.3 -2761.3 2143.12
3495.34 -2759.93 2141.76
3496.14 -2759.66 2141.5
3488.02 -2762.11 2143.76
3482.03 -2763.38 2145.44
3480.01 -2764.58 2147.26
3479.15 -2763.91 2146.46
3481.32 -2765.99 2149.18
3483.8 -2768.12 2152.36
3483.3 -2769.44 2154
3482.99 -2770.26 2155.1
3483.16 -2770.62 2156.17
3482.83 -2771.22 2157.08
3500.43 -2763.64 2143.44
3500.05 -2763.69 2143.98
3501.18 -2763.79 2142.43
3500.76 -2763.48 2142.9
3501.65 -2763.72 2141.49
3481.67 -2771.16 2156.12
3480.21 -2771.75 2155.8
3479.33 -2772.09 2155.55
3478.56 -2772.5 2155.45
3502.61 -2764.33 2139.25
3501.74 -2763.46 2140.99
3502.7 -2765.34 2137.73
3502.68 -2765.93 2136.94
3496.45 -2758.79 2140.28
3498.33 -2760.12 2141.34
3498.06 -2759.49 2140.34
3497.53 -2758.96 2140.1
3496.73 -2758.62 2139.88
3499.45 -2762.1 2143.63
3493.39 -2760.38 2142.04
3495.32 -2759.12 2140.75
3492.14 -2760.52 2141.98
3487.45 -2761.85 2143.13
3482.02 -2762.86 2144.42
3478.56 -2763.44 2145.69
3477.98 -2764 2146.61
3478.7 -2764.55 2147.19
3477.49 -2763.48 2145.89
3480.08 -2766.04 2149.02
3481.88 -2768.42 2152.32
3482.2 -2769.31 2153.59
3481.81 -2770.15 2154.5
3482.17 -2770.58 2155.49
3499.75 -2761.89 2143.21
3501.26 -2763.45 2141.91
3480.93 -2770.86 2155.21
3478.14 -2772.21 2154.8
3477.18 -2772.58 2154.38
3476.32 -2773.1 2153.99
3479.97 -2771.34 2155.17
3479.08 -2771.87 2155.08
3501.96 -2763.79 2140.4
3502.16 -2764.26 2140.21
3502.56 -2764.63 2138.13
3496.2 -2758.4 2139.59
3498.1 -2759.12 2139.87
3497.4 -2758.63 2139.67
3498.95 -2760.84 2142.18
3495.36 -2758.49 2139.91
3489.54 -2761.04 2141.95
3487.21 -2761.45 2142.13
3483.49 -2762.14 2143.18
3492.95 -2759.84 2141.13
3479.1 -2763 2144.75
3477.48 -2763.06 2145.23
3477.4 -2764.02 2146.52
3477.98 -2764.55 2147.1
3476.85 -2763.29 2145.5
3479.42 -2766.4 2149.36
3480.7 -2768.61 2152.22
3481.04 -2769.54 2153.43
3480.74 -2770.44 2154.45
3499.96 -2761.98 2142.53
3501.31 -2763.14 2141.47
3499.32 -2760.66 2141.43
3477.35 -2771.81 2153.78
3478.01 -2771.23 2153.71
3478.68 -2771.08 2153.99
3476.54 -2772.3 2153.56
3475.91 -2772.57 2153.26
3479.59 -2770.97 2154.47
3501.64 -2762.94 2140.61
3502.43 -2764.12 2138.61
3502.4 -2765.12 2137.28
3502.37 -2765.52 2136.93
3502.35 -2764.7 2137.6
3495.73 -2758.21 2139.31
3496.08 -2758.06 2138.95
3498.83 -2759.69 2140.35
3497.98 -2758.75 2139.54
3496.9 -2758.32 2139.22
3497.65 -2758.38 2139.11
3494.87 -2758.58 2140.03
3489.46 -2760.64 2141.02
3492.84 -2759.61 2140.69
3487.35 -2761.1 2141.2
3483.48 -2761.7 2142.03
3478.77 -2762.66 2144.07
3477.29 -2762.78 2144.56
3476.73 -2763.68 2146.06
3477.32 -2764.66 2147.16
3478.56 -2766.42 2149.27
3476.44 -2763.08 2145
3479.28 -2769.11 2152.06
3479.91 -2770.04 2153.48
3500.97 -2762.95 2141.86
3499.22 -2759.96 2140.66
3477.18 -2770.68 2152.64
3476.6 -2771.26 2152.86
3477.6 -2770.41 2152.45
3478.39 -2770.24 2152.64
3476.06 -2771.62 2152.78
3475.47 -2772.68 2152.99
3475.62 -2771.93 2152.67
3475 -2772.58 2152.68
3474.59 -2772.63 2152.37
3501.68 -2762.89 2140.08
3501.78 -2763.26 2139.71
3501.97 -2763.76 2139.72
3502.12 -2763.94 2139.07
3501.23 -2762.54 2140.95
3502.16 -2765.7 2136.25
3499.01 -2759.4 2139.84
3498.78 -2759.02 2139.53
3498.49 -2758.67 2139.26
3496.88 -2758.09 2138.74
3496.63 -2757.87 2138.32
3497.66 -2758.18 2138.58
3494.96 -2758.22 2139.21
3495.33 -2757.97 2138.67
3489.09 -2760.61 2140.54
3490.82 -2760.09 2140.56
3487.52 -2760.92 2140.42
3484.08 -2761.33 2141.03
3478.91 -2762.39 2143.25
3478.18 -2762.41 2143.19
3477.18 -2762.65 2143.94
3476.57 -2764.39 2146.71
3476.09 -2763.46 2145.7
3476.9 -2765.02 2147.49
3477.97 -2766.49 2149.22
3476.66 -2762.77 2144.07
3475.86 -2763.25 2145.12
3477.75 -2767.5 2150.05
3500.26 -2761.97 2141.88
3499.76 -2760.72 2141.02
3499.76 -2760.22 2140.38
3500.49 -2761.78 2141.34
3499.77 -2759.88 2139.95
3476.86 -2768.78 2150.87
3476.23 -2768.3 2150.17
3475.79 -2768.76 2150.38
3475.21 -2768.82 2150.15
3477.54 -2769.35 2151.49
3476.86 -2767.34 2149.62
3474.72 -2768.99 2150.06
3474.37 -2769.4 2150.28
3474.93 -2771.95 2151.97
3474.38 -2772.63 2151.51
3474.15 -2773.64 2150.89
3474.26 -2773.16 2151.17
3501.37 -2762.28 2140.43
3501.87 -2763.45 2139.15
3501.99 -2763.54 2138.55
3502.22 -2763.97 2137.97
3500.74 -2761.56 2140.75
3502.22 -2764.63 2136.98
3502.1 -2765.15 2136.44
3495.81 -2757.87 2138.51
3497.12 -2757.91 2138.2
3494.12 -2758.55 2139.4
3492.78 -2759.23 2139.84
3487.67 -2760.8 2139.78
3484.35 -2761.09 2140.28
3481.32 -2761.6 2141.19
3477.02 -2762.58 2143.38
3478.26 -2762.27 2142.48
3481.57 -2761.32 2140.46
3475.9 -2764.21 2146.42
3476.13 -2764.81 2147.07
3476.93 -2765.93 2148.39
3475.69 -2763.03 2144.35
3475.25 -2763.5 2145.21
3500.21 -2760.42 2140.11
3499.61 -2759.39 2139.54
3475.38 -2765.79 2147.87
3474.86 -2765.95 2147.73
3474.26 -2766.49 2147.62
3475.75 -2765.25 2147.45
3474.09 -2766.92 2147.87
3473.9 -2769.36 2150
3474.23 -2772.78 2150.71
3474.32 -2772.22 2150.82
3473.65 -2769.31 2149.3
3473.97 -2773.6 2150.17
3474.09 -2773.09 2150.31
3473.78 -2774.13 2149.79
3473.56 -2774.67 2149.26
3473.34 -2775.33 2148.51
3500.99 -2761.37 2140.15
3501.07 -2761.54 2139.39
3501.14 -2761.76 2138.78
3501.99 -2764.01 2137.29
3501.87 -2765.39 2135.81
3499.4 -2758.98 2139.26
3498.32 -2758.46 2138.63
3497.21 -2757.75 2137.73
3497.7 -2758.01 2137.91
3494.66 -2758.01 2138.52
3494.1 -2758.25 2138.67
3490.17 -2760.24 2140.08
3492.65 -2759.09 2139.3
3488.96 -2760.54 2139.92
3488.36 -2760.62 2139.44
3487.25 -2760.78 2139.23
3478.28 -2762.13 2141.76
3476.82 -2762.57 2142.91
3476.29 -2762.72 2143.6
3480.69 -2761.43 2140.62
3481.97 -2761.06 2139.79
3475.37 -2764.18 2146.14
3475.2 -2763.8 2145.64
3475.56 -2764.71 2146.76
3475.09 -2763.3 2144.52
3500.15 -2760.08 2139.64
3475.18 -2765.23 2147.07
3474.67 -2765.41 2146.95
3474.21 -2765.83 2147.12
3473.89 -2765.71 2146.69
3473.87 -2766.25 2147
3473.56 -2767.14 2147.53
3474.1 -2772.32 2150.18
3473.58 -2769.83 2149.16
3473.1 -2767.43 2147.23
3473.77 -2773.57 2149.44
3473.9 -2773.06 2149.63
3473.93 -2772.47 2149.69
3473.58 -2774.13 2149.03
3473.25 -2775.82 2146.05
3473.28 -2775.34 2147.48
3500.48 -2760.53 2139.4
3500.58 -2760.55 2138.75
3500.7 -2760.65 2138.14
3501.29 -2762.13 2138.17
3501.93 -2764.31 2136.45
3501.72 -2764.81 2135.85
3496.09 -2757.76 2138.11
3499.39 -2758.67 2138.83
3498.33 -2758.23 2137.7
3489.35 -2760.36 2139.47
3487.33 -2760.74 2138.64
3484.5 -2760.8 2138.94
3484.51 -2760.92 2139.47
3478.31 -2762.02 2141.12
3481.02 -2761.25 2140.28
3477.27 -2762.35 2141.68
3474.91 -2764.25 2145.91
3475.08 -2764.73 2146.49
3474.68 -2763.73 2145.16
3500.09 -2759.88 2139.18
3499.87 -2759.46 2138.97
3474.26 -2765.26 2146.49
3473.9 -2765.11 2146.09
3473.61 -2765.53 2146.27
3473.36 -2766.29 2146.41
3473.31 -2769.77 2148.63
3473.02 -2767.34 2146.55
3473.69 -2773.03 2148.93
3473.58 -2773.64 2148.65
3473.61 -2772.29 2148.95
3473.13 -2769.69 2148.07
3473.45 -2774.32 2148.27
3473.34 -2774.77 2147.65
3473.44 -2775.78 2145.22
3473.33 -2775.14 2146.7
3500.42 -2760.09 2138.51
3500.55 -2760.22 2137.92
3500.75 -2760.82 2137.49
3501.49 -2762.66 2137.68
3501.43 -2762.97 2136.86
3501.6 -2764.34 2136.01
3501.4 -2764.87 2135.41
3501.2 -2763.29 2135.81
3498.79 -2758.52 2138.3
3497.94 -2757.99 2137.42
3496.69 -2757.7 2137.58
3494.27 -2758.05 2138.17
3495.23 -2757.85 2138.06
3493.63 -2758.34 2138.28
3490.51 -2760.05 2139.28
3488.51 -2760.55 2138.57
3482.28 -2760.83 2138.92
3479.94 -2761.4 2139.95
3480.87 -2761.11 2139.45
3481.47 -2761.04 2139.54
3478.06 -2762 2140.52
3476.11 -2762.61 2142.69
3475.51 -2762.85 2143.51
3474.4 -2764.1 2145.36
3474.14 -2763.79 2144.71
3473.38 -2765.31 2145.79
3473.8 -2764.72 2145.59
3472.9 -2767.06 2145.96
3472.93 -2766.13 2145.82
3473.37 -2772.29 2148.26
3473.54 -2773.16 2148.25
3473.45 -2773.93 2147.92
3472.87 -2769.97 2147.46
3472.81 -2767.62 2146.01
3473.37 -2774.1 2147.29
3473.35 -2774.6 2146.84
3473.42 -2775.19 2145.75
3473.38 -2774.7 2146.03
3500.23 -2759.66 2138.27
3500.79 -2761.31 2136.82
3500.75 -2761.74 2136.23
3500.75 -2763.6 2135.03
3500.53 -2765.2 2133.46
3499.89 -2759.18 2138.44
3499.47 -2758.83 2138.34
3497.49 -2757.87 2137.19
3496.11 -2757.71 2137.55
3495.61 -2757.76 2137.65
3492.13 -2759.14 2138.52
3489.51 -2760.25 2138.82
3490.45 -2760 2138.7
3488.32 -2760.64 2137.94
3487.2 -2760.71 2137.76
3484.47 -2760.72 2138.18
3482.36 -2760.75 2138.38
3481.73 -2760.89 2138.81
3481.11 -2760.96 2138.72
3477.29 -2762.25 2140.79
3479.83 -2761.3 2139.32
3475 -2763.14 2143.82
3474.69 -2763.35 2144.16
3473.74 -2764.3 2145.01
3473.26 -2764.94 2145.2
3472.87 -2765.36 2145.02
3472.68 -2766.57 2145.22
3473.33 -2772.48 2147.69
3473.46 -2773.4 2147.63
3473.39 -2773.57 2146.83
3473.38 -2774.1 2146.37
3473.64 -2775.22 2145.01
3473.52 -2774.73 2145.34
3473.81 -2775.34 2144.35
3473.4 -2774.19 2145.71
3473.9 -2775.36 2143.83
3474.07 -2775.64 2143.01
3500.23 -2759.71 2137.75
3499.78 -2759.33 2137.93
3500.42 -2759.97 2137.3
3500.58 -2760.5 2136.99
3500.51 -2760.87 2136.46
3500.4 -2761.7 2135.65
3500.38 -2763.66 2134.22
3499.93 -2764.94 2132.33
3500.03 -2763.28 2133.87
3495.09 -2757.87 2137.53
3498.01 -2757.96 2136.9
3498.68 -2758.36 2137.29
3499.08 -2758.77 2137.64
3487.66 -2760.77 2137.4
3489.16 -2760.39 2137.98
3484.72 -2760.73 2137.56
3482.47 -2760.68 2137.84
3481.85 -2760.79 2138.2
3480.59 -2761.03 2138.71
3481.22 -2760.9 2138.14
3479.24 -2761.47 2139.07
3475.47 -2762.79 2142.5
3474.73 -2763.14 2143.16
3473.95 -2763.7 2144.16
3473.2 -2764.74 2144.58
3472.79 -2765.26 2144.5
3472.63 -2765.93 2144.58
3473.32 -2772.74 2147.2
3472.69 -2769.86 2146.21
3472.75 -2770.03 2146.71
3472.54 -2767.9 2145.45
3473.27 -2772.63 2146.68
3473.38 -2773.6 2146.07
3473.7 -2774.78 2144.63
3473.57 -2774.24 2144.97
3473.77 -2774.89 2144.09
3473.43 -2773.72 2145.4
3473.86 -2774.91 2143.54
3499.78 -2759.35 2137.37
3500.11 -2760.22 2136.34
3500.11 -2760.78 2135.79
3499.87 -2761.55 2134.81
3499.93 -2760.96 2135.35
3499.84 -2764.54 2132.74
3496.95 -2757.75 2136.98
3496.43 -2757.72 2137
3498.49 -2758.25 2136.78
3494.02 -2758.13 2137.6
3489.74 -2760.18 2138.19
3490.37 -2759.97 2138.06
3491.95 -2759.21 2137.91
3488.99 -2760.49 2137.45
3488.34 -2760.71 2137.25
3487.32 -2760.85 2137.04
3481.98 -2760.74 2137.7
3480.68 -2761 2138.08
3481.42 -2760.87 2137.61
3476.69 -2762.4 2140.64
3480.13 -2761.1 2138.33
3474.29 -2763.34 2143.42
3473.52 -2764.21 2144.36
3473.04 -2764.7 2144.08
3472.44 -2767.37 2144.82
3472.36 -2766.78 2144.4
3472.59 -2765.4 2143.79
3472.49 -2765.93 2144.08
3472.72 -2770.36 2145.66
3473.34 -2772.96 2145.68
3473.64 -2774.33 2144.37
3473.71 -2774.43 2143.87
3474.01 -2775.01 2142.93
3474.5 -2775.11 2142.23
3500.15 -2759.61 2136.84
3499.6 -2760.34 2135.53
3499.53 -2762.7 2133.62
3499.51 -2764.4 2132.38
3499.69 -2759.92 2136.1
3495.43 -2757.75 2137.08
3494.56 -2757.99 2137.03
3497.93 -2758.19 2136.35
3499 -2758.79 2136.73
3499.38 -2759.15 2136.97
3493.41 -2758.46 2137.56
3484.74 -2760.81 2136.97
3489.47 -2760.36 2137.52
3490.19 -2760.13 2137.44
3482.52 -2760.77 2137.07
3477.83 -2762.05 2139.06
3475.79 -2762.71 2141.34
3479.43 -2761.37 2138.37
3475.01 -2763.16 2142.05
3474.33 -2763.32 2142.74
3473.67 -2763.68 2143.56
3473.47 -2764.04 2143.87
3472.75 -2764.91 2143.62
3472.2 -2766.64 2143.83
3472.43 -2765.84 2143.46
3472.4 -2768.19 2144.64
3472.36 -2767.58 2144.18
3473.19 -2772.38 2145.23
3472.66 -2770.38 2144.92
3473.57 -2773.84 2144.15
3473.47 -2773.33 2144.57
3473.66 -2774 2143.6
3473.82 -2774.14 2143.04
3474.94 -2774.75 2141.55
3499.24 -2760.35 2135.12
3499.37 -2760.94 2134.71
3499.14 -2759.71 2135.72
3496.86 -2757.96 2136.46
3496.14 -2757.9 2136.56
3495.28 -2757.96 2136.61
3493.94 -2758.32 2137
3498.39 -2758.66 2136.18
3491.98 -2759.34 2137.16
3489.03 -2760.67 2136.87
3488.45 -2760.81 2136.72
3487.54 -2760.93 2136.57
3481.83 -2760.83 2137.05
3482.83 -2760.84 2136.63
3480.49 -2761.05 2137.22
3481.16 -2760.99 2136.97
3477.38 -2762.26 2139.18
3478.68 -2761.67 2138.21
3479.85 -2761.25 2137.84
3473.07 -2764.43 2143.47
3472.7 -2765.25 2143.19
3472.18 -2767.45 2143.69
3472.46 -2768.53 2144.06
3473.53 -2773.48 2143.79
3473.14 -2772.32 2144.4
3472.61 -2770.38 2144.23
3474.07 -2774.34 2142.5
3474.58 -2774.39 2141.85
3475.28 -2774.42 2140.95
3499.23 -2759.31 2136.35
3499.02 -2762.45 2133.24
3499.08 -2764.47 2131.77
3499.01 -2763.79 2132.13
3497.15 -2758.27 2136.07
3496.29 -2758.09 2136.12
3494.85 -2758.2 2136.3
3493.54 -2758.57 2136.82
3495.56 -2758.24 2135.91
3497.65 -2758.69 2135.62
3490.2 -2760.28 2136.79
3492.02 -2759.45 2136.64
3482 -2760.9 2136.45
3476.77 -2762.51 2139.59
3475.18 -2763.24 2141.04
3479.91 -2761.34 2137.19
3474.41 -2763.35 2142.08
3473.79 -2763.58 2142.93
3473.95 -2763.46 2142.44
3473.36 -2764.02 2143.3
3473.53 -2773.12 2143.44
3473.22 -2772.3 2143.68
3473.01 -2771.9 2143.95
3472.57 -2770.3 2143.67
3473.73 -2773.29 2142.91
3474.84 -2773.94 2141.36
3473.92 -2773.47 2142.41
3475.81 -2774.11 2140.07
3498.69 -2759.65 2135.29
3498.78 -2760.11 2134.92
3498.7 -2760.54 2134.47
3498.86 -2761.07 2134.19
3498.75 -2759.35 2135.69
3493.88 -2758.57 2136.34
3497.07 -2758.6 2135.54
3498.09 -2758.95 2135.58
3489.84 -2760.59 2136.41
3489.11 -2760.82 2136.38
3488.6 -2761 2136.19
3487.93 -2761.08 2136.15
3485.11 -2760.95 2136.41
3482.54 -2761.02 2136.15
3481.5 -2761.07 2136.39
3483.08 -2761.03 2136.08
3480.83 -2761.2 2136.55
3478.26 -2762.04 2137.87
3479.37 -2761.53 2137.48
3475.32 -2763.27 2140.47
3474.61 -2763.38 2141.55
3472.41 -2766.38 2143.24
3473.05 -2764.65 2142.91
3472.66 -2765.87 2142.97
3473.65 -2772.52 2142.96
3472.96 -2770.63 2143.13
3472.67 -2769.05 2143.37
3472.58 -2767.92 2143.28
3474.42 -2773.57 2141.72
3475.18 -2773.55 2140.72
3474.11 -2772.86 2141.99
3476.47 -2773.69 2139.37
3498.59 -2762.24 2133
3498.74 -2764.05 2131.75
3496.34 -2758.55 2135.43
3496.89 -2758.97 2135.07
3494.92 -2758.48 2135.7
3493.66 -2758.81 2135.96
3495.37 -2758.75 2135.2
3497.4 -2759.2 2134.97
3491.82 -2759.77 2136.07
3490.27 -2760.62 2135.99
3482.19 -2761.26 2135.85
3480.35 -2761.38 2136.59
3477.27 -2762.52 2138.55
3476.1 -2763.05 2139.39
3479.61 -2761.72 2136.89
3473.86 -2763.74 2141.9
3473.51 -2763.95 2142.61
3472.73 -2765.57 2142.52
3472.87 -2764.96 2142.51
3473.29 -2764.33 2142.26
3472.56 -2767.04 2143.08
3472.64 -2766.61 2142.57
3473.38 -2770.83 2142.56
3472.83 -2768.89 2142.81
3473.83 -2770.81 2141.79
3474.72 -2773.09 2141.17
3475.77 -2773.24 2139.99
3474.52 -2772.45 2141.33
3477.17 -2772.92 2138.57
3498.33 -2760.13 2134.58
3498.2 -2759.61 2134.96
3498.17 -2760.81 2133.9
3495.94 -2758.81 2135.13
3494.2 -2758.85 2135.38
3493.7 -2759.05 2135.33
3497.65 -2759.62 2134.66
3496.75 -2759.38 2134.58
3491.78 -2760.02 2135.59
3489.2 -2761.02 2135.77
3488.67 -2761.22 2135.67
3487.64 -2761.33 2135.68
3485.19 -2761.13 2135.95
3482.64 -2761.34 2135.56
3481.24 -2761.38 2136.06
3478.08 -2762.36 2137.5
3478.9 -2761.82 2137.27
3475.11 -2763.54 2140.06
3479.9 -2761.82 2136.43
3474.1 -2763.74 2141.35
3472.7 -2766.08 2142.35
3472.71 -2766.72 2142
3473.1 -2768.6 2142.07
3472.88 -2767.61 2142.44
3474.13 -2770.78 2141.35
3473.78 -2768.8 2140.97
3473.42 -2768.18 2141.45
3475.18 -2772.69 2140.52
3476.28 -2772.77 2139.52
3474.53 -2770.83 2140.73
3478.07 -2771.85 2137.25
3476.87 -2772.01 2138.64
3479.29 -2771.68 2135.87
3498.39 -2764.29 2131.23
3498.42 -2763.61 2131.79
3495.5 -2759.13 2134.71
3496.21 -2759.41 2134.5
3496.55 -2759.68 2134.17
3494.41 -2759.17 2134.86
3494.95 -2759.17 2134.72
3493.32 -2759.5 2135.01
3497.83 -2760.12 2134.26
3490.39 -2760.82 2135.47
3489.73 -2761.02 2135.47
3489.1 -2761.3 2135.29
3483.19 -2761.55 2135.25
3481.81 -2761.54 2135.63
3476.37 -2763.28 2138.71
3479.35 -2762.09 2136.56
3480.53 -2761.7 2136.1
3474.48 -2763.73 2140.71
3475.9 -2763.63 2138.92
3473.51 -2764.29 2141.74
3473.05 -2765.29 2141.75
3473.1 -2765.83 2141.54
3473.23 -2766.32 2141.28
3473.11 -2767.28 2141.84
3474 -2767.85 2140.48
3474.43 -2768.32 2140.02
3473.71 -2767.03 2140.85
3475.05 -2771.08 2140.1
3475.49 -2770.43 2139.38
3476.67 -2769.79 2137.89
3477.41 -2769.69 2137.23
3476.02 -2770.15 2138.64
3478.02 -2769.59 2136.56
3479.79 -2771.18 2135.47
3478.43 -2769.27 2136.12
3482.31 -2769.5 2133.95
3481.12 -2770.52 2134.64
3488.87 -2767.32 2132.23
3498.14 -2762.03 2132.88
3496.06 -2759.75 2134.03
3494.82 -2759.53 2134.32
3491.86 -2760.35 2135
3495.35 -2759.46 2134.33
3497.7 -2760.5 2133.86
3496.98 -2760.19 2133.8
3488.09 -2761.47 2135.24
3485.6 -2761.38 2135.52
3481.32 -2761.69 2135.65
3482.76 -2761.83 2135.08
3482.2 -2761.88 2135.14
3478.44 -2762.42 2137.04
3477.55 -2762.85 2137.62
3473.69 -2764.43 2141.18
3476.6 -2763.49 2138.19
3495.07 -2764.9 2131.02
3494.47 -2765.2 2131
3473.36 -2764.93 2141.49
3474.24 -2764.25 2140.45
3473.65 -2765.63 2140.88
3474.74 -2767.39 2139.52
3474.36 -2766.97 2139.93
3475.24 -2767.53 2138.93
3474.05 -2766.31 2140.27
3475.77 -2768.32 2138.36
3476.22 -2767.58 2137.9
3476.93 -2767.13 2137.13
3480.33 -2770.54 2135.09
3478.84 -2768.93 2135.81
3477.47 -2766.57 2136.57
3481.43 -2769.67 2134.44
3480.73 -2769.91 2134.83
3492.84 -2765.79 2131.7
3492.91 -2765.13 2131.99
3486.5 -2767.52 2132.75
3485.62 -2767.53 2133.06
3491.36 -2765.68 2132.32
3494.3 -2764.92 2131.4
3498.05 -2764.43 2130.79
3497.78 -2763.57 2131.54
3496.43 -2760.19 2133.65
3494 -2759.56 2134.54
3493.39 -2759.92 2134.45
3494.71 -2759.88 2133.95
3497.65 -2761.94 2132.73
3490.21 -2761.14 2134.99
3489.63 -2761.47 2134.75
3488.59 -2761.73 2134.87
3485.65 -2761.68 2135.08
3483.46 -2761.96 2134.87
3480.04 -2762.29 2135.89
3478.89 -2762.51 2136.55
3495.65 -2764.81 2130.84
3473.68 -2765 2140.97
3474.51 -2764.42 2139.98
3475.2 -2764.27 2139.36
3474.11 -2765.78 2140.28
3475.07 -2766.76 2139.07
3475.76 -2766.75 2138.27
3474.49 -2766.48 2139.77
3476.55 -2766.64 2137.44
3477.11 -2766.08 2136.92
3479.48 -2768.69 2135.41
3477.88 -2765.99 2136.22
3480.92 -2767.34 2134.6
3480.45 -2767.75 2134.84
3480.15 -2768.36 2135.02
3482.78 -2768.18 2133.89
3481.43 -2766.83 2134.41
3483.56 -2767.69 2133.64
3484.38 -2767.62 2133.38
3494.28 -2764.26 2131.77
3493.08 -2764.55 2132.18
3486.79 -2767.01 2132.86
3489.86 -2765.24 2132.87
3485.99 -2766.63 2133.16
3492.27 -2763.83 2132.74
3494.85 -2764.4 2131.42
3495.52 -2760 2133.77
3496.78 -2760.56 2133.49
3491.75 -2760.71 2134.58
3494.14 -2760.03 2133.97
3493.13 -2760.27 2134.15
3487.64 -2761.94 2134.8
3481.45 -2762.16 2135.18
3480.69 -2762.21 2135.58
3478.11 -2762.84 2136.99
3479.49 -2762.51 2136.07
3476.59 -2763.97 2137.9
3474.35 -2765.13 2139.98
3474.7 -2765.54 2139.52
3474.92 -2764.84 2139.39
3475.69 -2764.6 2138.6
3474.9 -2765.95 2139.26
3475.8 -2766.23 2138.2
3476.5 -2766.01 2137.48
3476.99 -2765.41 2137.07
3477.5 -2765.22 2136.57
3478.81 -2766.45 2135.67
3478.33 -2765.52 2135.98
3479.75 -2765.07 2135.09
3479.2 -2765.72 2135.41
3482.17 -2766.31 2134.17
3480.57 -2765.13 2134.74
3482.82 -2765.75 2133.99
3484.59 -2766.81 2133.42
3484.63 -2765.34 2133.63
3494.68 -2763.83 2131.82
3493.74 -2762.59 2132.64
3487.94 -2765.72 2133.02
3489.23 -2765.42 2132.93
3489.27 -2763.77 2133.51
3489.99 -2763.18 2133.61
3490.96 -2762.84 2133.53
3485.22 -2765.26 2133.53
3492.38 -2762.2 2133.29
3497.25 -2763.79 2131.21
3496.15 -2760.62 2133.33
3495.55 -2760.48 2133.35
3496.87 -2761.82 2132.64
3497.07 -2763.39 2131.58
3494.32 -2760.47 2133.51
3495.05 -2760.45 2133.33
3489.04 -2762.12 2134.4
3488.19 -2762.11 2134.61
3483.16 -2762.39 2134.58
3483.85 -2762.26 2134.59
3485.77 -2762.15 2134.6
3482.52 -2762.35 2134.75
3477.32 -2763.4 2137.44
3495.97 -2764.47 2131.04
3496.18 -2764.63 2130.6
3475.33 -2765.19 2138.79
3475.71 -2765.43 2138.33
3476.12 -2764.7 2138.04
3478.11 -2764.82 2136.18
3478.91 -2765.13 2135.58
3479.47 -2764.68 2135.26
3480.29 -2764.6 2134.9
3481.12 -2764.74 2134.55
3483.57 -2765.46 2133.82
3482.2 -2764.13 2134.29
3481.61 -2764.34 2134.43
3483.31 -2763.32 2134.26
3482.68 -2763.61 2134.3
3494.39 -2762.3 2132.53
3493.53 -2761.53 2133.11
3485.67 -2764.82 2133.56
3488.65 -2764.31 2133.41
3485.95 -2764.23 2133.69
3488.1 -2763.53 2133.8
3488.94 -2763.16 2133.82
3489.8 -2762.71 2133.84
3492.22 -2761.7 2133.57
3495.4 -2764.06 2131.43
3493.82 -2760.7 2133.47
3493.31 -2760.64 2133.71
3491.97 -2761.08 2134.01
3490.12 -2761.57 2134.44
3489.63 -2762.11 2134.24
3480.97 -2762.57 2135.15
3480.36 -2762.71 2135.37
3479.08 -2762.87 2136.07
3479.69 -2762.81 2135.72
3478.52 -2763.12 2136.39
3476.98 -2764.09 2137.39
3476.44 -2764.78 2137.65
3476.42 -2765.33 2137.6
3477.31 -2764.47 2136.97
3478.02 -2764.29 2136.34
3478.68 -2764.45 2135.8
3479.26 -2764.17 2135.47
3480.05 -2764.15 2135.08
3482.73 -2762.83 2134.5
3495.3 -2763.64 2131.69
3495 -2762.1 2132.47
3494.2 -2761.08 2133.09
3485.82 -2763.71 2133.87
3487.96 -2762.83 2134.11
3486.03 -2762.86 2134.2
3488.78 -2762.57 2134.1
3490.58 -2762.11 2133.97
3497 -2764.61 2130.45
3496.65 -2763.75 2131.36
3496.59 -2764.19 2131.07
3496.08 -2761.76 2132.56
3496.29 -2763.11 2131.82
3478.11 -2763.44 2136.62
3477.62 -2763.75 2136.95
3478.82 -2763.33 2136.04
3478.58 -2763.93 2135.99
3480.89 -2763.84 2134.81
3481.72 -2763.63 2134.55
3481.99 -2762.78 2134.72
3483.78 -2762.82 2134.32
3496 -2763.97 2131.31
3495.91 -2763.56 2131.59
3481.38 -2763.06 2134.85
3480.41 -2763.21 2135.18
3479.83 -2763.47 2135.37
