3796.54 -2958.16 3250.62
3798.17 -2963.58 3251.6
3797.9 -2962.16 3251.27
3797.86 -2960.66 3250.23
3796.3 -2957.24 3249.85
3800.24 -2972.46 3249.5
3798.44 -2965.16 3251.62
3797.95 -2959.38 3248.82
3797.31 -2958.19 3248.79
3799.31 -2964.01 3248.46
3799.02 -2962.46 3248.44
3798.68 -2961.53 3248.72
3798.76 -2960.2 3247.49
3795.81 -2956.3 3249.55
3797.13 -2957.08 3247.86
3801.54 -2976.57 3247.14
3802.59 -2971.68 3243.44
3801.89 -2969.3 3244.38
3799.6 -2967.54 3249.29
3798.28 -2958.16 3246.72
3798.88 -2958.96 3246.04
3800.93 -2963.43 3244.1
3801.25 -2965.45 3244.35
3800.48 -2962.06 3244.37
3799.81 -2960.75 3245.19
3800.44 -2958.7 3242.52
3793.39 -2951.07 3242.19
3794.03 -2949.25 3237.34
3796.69 -2956.23 3247.69
3795.74 -2955.8 3248.78
3798.14 -2956.92 3245.7
3802.22 -2978.28 3245.08
3803.24 -2973.39 3241.91
3803.68 -2967.66 3239.43
3804.09 -2969.32 3238.92
3803.06 -2965.83 3240.2
3799.7 -2957.48 3243.16
3800.63 -2957.12 3241.2
3802.85 -2962.71 3239.3
3802.17 -2960.69 3239.9
3801.46 -2959.04 3240.53
3801.78 -2956.73 3238.68
3794.46 -2948.85 3233.7
3794.53 -2948.89 3234.57
3794.43 -2949.1 3235.83
3794.57 -2949.4 3236.68
3794.31 -2949.62 3237.62
3796.78 -2955.88 3246.94
3797.84 -2956.32 3245.6
3795.91 -2955.34 3247.73
3794.3 -2954.1 3247.2
3799.83 -2956.77 3242.49
3799.67 -2956.28 3242.44
3803.59 -2975.1 3240.96
3802.96 -2978.44 3242.47
3802.26 -2981.69 3245.04
3804.61 -2970.72 3237.75
3804.79 -2967.54 3236.47
3804.11 -2965.04 3237.06
3805 -2968.6 3236.29
3800.99 -2954.82 3239.26
3801.51 -2954.88 3238.24
3803.6 -2961.83 3236.78
3802.94 -2959.79 3237.62
3802.36 -2958.17 3238.21
3802 -2954.7 3237.1
3802.22 -2955.69 3237.09
3794.24 -2951.48 3241.88
3794.88 -2950.02 3227.97
3794.35 -2950.19 3238.66
3794.89 -2949.69 3236.95
3795 -2949.41 3235.5
3794.67 -2949.99 3237.79
3799.24 -2955.96 3242.86
3797.67 -2955.67 3245.28
3796.83 -2954.95 3245.51
3794.53 -2953.59 3245.74
3800.77 -2954.18 3239.07
3800.49 -2953.73 3238.98
3804.43 -2973.47 3238.4
3803.63 -2977.52 3240.2
3802.89 -2980.38 3242.41
3805.33 -2970.56 3235.7
3805.48 -2968.9 3234.99
3805.41 -2967.32 3234.54
3804.7 -2965.25 3235.34
3801.4 -2954.1 3238.05
3801.88 -2954.2 3237.1
3804.15 -2961.23 3234.75
3803.46 -2959.16 3235.79
3802.81 -2956.97 3236.23
3802.54 -2954.81 3235.98
3802.71 -2955.5 3235.88
3794.93 -2951.42 3241
3794.87 -2949.18 3233.16
3794.84 -2949.26 3232.05
3795.11 -2949.24 3234.3
3794.86 -2949.59 3229.85
3795.03 -2950.48 3226.92
3795.31 -2950.85 3239.26
3795.16 -2949.99 3237.3
3795.48 -2950.56 3238.34
3795.24 -2951.07 3225.83
3798.81 -2955.09 3242.77
3800.07 -2954.13 3239.98
3795.41 -2953.47 3244.41
3798.27 -2954.1 3242.48
3801.13 -2953.59 3237.96
3800.34 -2952.97 3238.38
3800.93 -2953.07 3237.69
3804.92 -2972.91 3236.85
3803.92 -2977.72 3239.01
3802.83 -2981.15 3240.89
3805.72 -2970.29 3234.39
3805.78 -2968.96 3233.93
3805.8 -2967.55 3233.39
3805.51 -2966 3233.21
3804.97 -2964.86 3234.12
3801.78 -2953.69 3237.06
3802.32 -2954.12 3236.08
3804.51 -2961.47 3233.29
3803.84 -2958.73 3234.04
3803.33 -2957.2 3234.86
3803.16 -2956.05 3234.79
3802.96 -2955.06 3234.77
3802.68 -2954.43 3235.16
3795.66 -2952.33 3242.01
3794.97 -2949.47 3230.79
3795.21 -2949.32 3233.68
3795.5 -2950.2 3229.02
3795.66 -2950.66 3227.79
3797.42 -2951.61 3239.31
3797.59 -2951.19 3238.25
3796.06 -2950.38 3237.48
3795.46 -2949.96 3236.58
3795.62 -2949.78 3235.55
3798 -2950.86 3237.24
3795.9 -2951.75 3225.26
3799.91 -2953.41 3239.48
3797.88 -2953.11 3241.52
3799.62 -2952.63 3239.02
3801.61 -2953.19 3236.89
3800.14 -2952.45 3238.1
3800.79 -2952.55 3237.33
3801.45 -2952.77 3236.65
3805.16 -2972.88 3236.13
3804.19 -2977.19 3237.73
3802.43 -2982.96 3240.08
3803.48 -2979.62 3238.02
3805.87 -2970.8 3233.75
3806.02 -2968.93 3232.99
3806.08 -2969.66 3232.81
3806 -2967.7 3232.4
3805.77 -2966.46 3232.4
3805.2 -2964.36 3232.51
3802.12 -2953.4 3236.06
3802.43 -2953.69 3235.23
3804.49 -2960.09 3231.98
3803.95 -2958.02 3232.74
3803.47 -2956.69 3233.74
3803.25 -2955.31 3233.54
3802.79 -2954.1 3234.25
3803.05 -2954.51 3233.53
3797.94 -2952.09 3239.92
3795.5 -2949.5 3232.62
3795.57 -2949.61 3231.55
3795.8 -2949.63 3234.54
3795.63 -2950.06 3229.94
3795.99 -2950.56 3228.84
3795.89 -2951.13 3226.75
3796.31 -2951.19 3227.39
3799.24 -2951.46 3237.5
3799.29 -2951.84 3238.31
3799.36 -2951.24 3236.99
3796.06 -2950.19 3236.96
3798.05 -2950.63 3236.67
3796.02 -2950.03 3236.28
3796.17 -2949.9 3235.47
3796.09 -2951.57 3225.83
3795.8 -2951.99 3224.67
3796.35 -2951.97 3225.24
3799.95 -2952.01 3237.84
3801.92 -2952.95 3235.94
3805.41 -2972.71 3235
3804.96 -2974.32 3235.1
3802.6 -2982.36 3237.99
3803.93 -2978.22 3236.48
3805.96 -2971.21 3233.04
3806.17 -2969.87 3232.15
3806.1 -2968.45 3232.03
3805.82 -2966.62 3231.74
3805.96 -2967.43 3231.38
3805.29 -2964.49 3231.72
3802.23 -2953.17 3235.14
3802.52 -2953.41 3234.39
3804.48 -2960 3231.23
3803.93 -2957.39 3231.83
3803.55 -2956.15 3232.71
3803.24 -2954.77 3232.52
3802.89 -2954 3232.9
3802.71 -2953.57 3233.58
3795.79 -2949.92 3230.8
3795.88 -2949.63 3233.72
3796.31 -2949.79 3234.7
3796.12 -2950.34 3229.9
3796.5 -2950.92 3228.62
3796.57 -2951.58 3226.53
3798.23 -2951.67 3228.3
3798.21 -2951.93 3227.5
3799.93 -2951.74 3237.39
3800.2 -2951.54 3236.68
3799.86 -2951.2 3236.39
3799.33 -2950.83 3236.17
3797.78 -2950.26 3235.84
3797.89 -2950.13 3235.23
3796.58 -2951.86 3225.75
3797.8 -2952.56 3225.51
3797.71 -2952.76 3225.05
3795.31 -2959.33 3219.65
3795.34 -2960.59 3218.81
3795.56 -2960.23 3219.32
3795.79 -2961.75 3218.45
3795.89 -2961.45 3218.86
3795.85 -2962.53 3217.88
3800.73 -2951.89 3236.72
3801.18 -2952.07 3236.18
3801.46 -2952.18 3235.58
3801.79 -2952.39 3234.91
3805.69 -2972.32 3233.24
3804.93 -2974.44 3233.58
3802.16 -2983.83 3236.99
3803.48 -2979.57 3235.94
3806.13 -2970.7 3231.93
3806.11 -2968.74 3231.55
3806.13 -2969.53 3231.32
3805.65 -2965.87 3231.12
3806.04 -2968.15 3230.91
3805.84 -2966.89 3230.77
3804.83 -2962.22 3230.97
3804.02 -2957.77 3231
3803.66 -2956.32 3231.33
3803.52 -2955.78 3231.99
3803.02 -2954.33 3232.04
3803.3 -2954.98 3231.56
3802.63 -2953.47 3232.69
3802.76 -2953.79 3231.86
3796.1 -2949.94 3231.22
3796.38 -2950.23 3230.59
3796.39 -2949.78 3232.55
3796.41 -2949.76 3233.29
3796.51 -2949.78 3234.03
3796.38 -2949.87 3231.89
3797.9 -2950.08 3234.58
3796.65 -2950.64 3229.71
3798.3 -2951.34 3229.36
3798.09 -2952.16 3226.76
3797.86 -2952.35 3226.03
3800.06 -2952.29 3228.64
3800.11 -2951.85 3229.79
3799.64 -2952.48 3227.62
3800.46 -2951.41 3236.04
3799.38 -2950.68 3235.65
3799.42 -2950.52 3235.15
3799.46 -2950.39 3234.65
3795.04 -2953.24 3222.67
3795.38 -2952.66 3223.34
3796.11 -2952.42 3224.14
3795.93 -2952.67 3223.73
3797.54 -2953.19 3224.2
3799.49 -2953.02 3226.2
3799.36 -2953.28 3225.52
3799.53 -2952.75 3226.87
3795.49 -2958.67 3220.13
3795.92 -2959.63 3220.06
3796 -2961.06 3219.34
3796.18 -2960.55 3219.87
3796.35 -2962.29 3219.04
3796.37 -2962.93 3218.73
3796.46 -2961.9 3219.47
3796.44 -2963.72 3218.19
3796.6 -2964.72 3217.65
3802.17 -2952.7 3234.11
3801.53 -2951.95 3234.75
3801.87 -2952.25 3234.14
3805.59 -2972.75 3232.58
3805.94 -2971.47 3231.91
3804.92 -2974.55 3232.34
3803.43 -2979.23 3234.56
3802.11 -2983.07 3235.57
3806.08 -2970.21 3230.87
3806.06 -2968.92 3230.55
3805.39 -2964.92 3230.73
3805.94 -2967.77 3230.46
3805.73 -2966.47 3230.4
3804.42 -2960.24 3230.17
3804.08 -2958.29 3230.33
3802.33 -2952.94 3233.22
3803.77 -2956.77 3230.63
3803.45 -2955.54 3230.93
3802.99 -2954.38 3231.15
3802.52 -2953.36 3231.72
3802.6 -2953.67 3230.96
3797.97 -2950.67 3231.04
3797.84 -2950.07 3233.26
3797.78 -2950.13 3232.71
3797.85 -2950.04 3233.87
3797.68 -2950.23 3232.15
3799.26 -2950.34 3234.18
3798.13 -2950.98 3230.33
3799.58 -2951.27 3230.86
3800.62 -2952.46 3228.94
3800.19 -2952.67 3227.82
3800.26 -2951.41 3231.18
3800.46 -2951.2 3235.43
3800.88 -2951.47 3235.31
3799.93 -2950.87 3235.41
3800.08 -2950.73 3234.78
3799.83 -2950.57 3234.17
3795.43 -2954.22 3222.21
3797.27 -2953.76 3223.43
3799.29 -2953.59 3225.01
3799.19 -2953.93 3224.45
3799.97 -2953.31 3226.15
3799.87 -2953.6 3225.56
3800.14 -2953.02 3226.97
3795.19 -2957.1 3220.7
3795.31 -2955.46 3221.53
3796.08 -2958.09 3220.77
3796.34 -2958.89 3220.62
3796.55 -2960.23 3220.37
3796.75 -2959.45 3220.72
3796.62 -2961.45 3219.91
3796.86 -2961.08 3220.31
3797.83 -2967.71 3218.67
3796.87 -2963.63 3219.36
3796.87 -2962.96 3219.67
3797.02 -2964.62 3219.07
3796.99 -2962.5 3220.09
3797.37 -2965.96 3218.9
3802.1 -2952.54 3233.42
3801.25 -2951.55 3234.62
3801.53 -2951.77 3234.1
3801.77 -2952.05 3233.68
3805.5 -2972.89 3231.83
3805.83 -2971.63 3231.29
3804.83 -2974.33 3231.35
3803.54 -2978.2 3232.82
3802.12 -2981.71 3233.4
3805.98 -2970.51 3230.31
3806.01 -2969.45 3230.13
3805.96 -2968.4 3230.02
3805.12 -2963.85 3230.27
3805.84 -2967.38 3230.08
3804.1 -2959.03 3229.55
3803.85 -2957.44 3229.98
3802.13 -2952.68 3232.56
3803.59 -2956.21 3230.33
3803.23 -2955.06 3230.59
3802.82 -2954.3 3230.34
3802.48 -2953.73 3230.06
3797.82 -2950.42 3231.68
3799.14 -2950.71 3232.03
3799.6 -2950.99 3231.66
3799.28 -2950.48 3233.17
3799.32 -2950.42 3233.68
3799.2 -2950.59 3232.61
3800.97 -2952.27 3230.03
3800.72 -2951.64 3231.26
3800.8 -2952.78 3228.3
3801.13 -2952.65 3229.22
3800.73 -2953.09 3227.52
3800.22 -2951.13 3232.05
3800.56 -2951.04 3234.84
3800.4 -2950.84 3234.21
3799.89 -2950.68 3233.58
3796.99 -2955.4 3222.29
3797.01 -2954.72 3222.65
3797.08 -2954.16 3223.03
3798.96 -2954.28 3223.96
3798.66 -2954.6 3223.49
3799.67 -2954.19 3224.58
3799.73 -2953.86 3225.08
3800.63 -2953.38 3226.79
3800.51 -2953.66 3226.19
3800.34 -2953.93 3225.57
3797.38 -2956.72 3221.92
3797.07 -2956.23 3221.97
3798.18 -2957.48 3222.11
3798.09 -2956.91 3222.21
3798.26 -2958.04 3222.02
3797.33 -2960.8 3220.86
3797.3 -2959.99 3220.95
3797.27 -2962.16 3220.55
3797.57 -2961.9 3221.01
3798.6 -2969.53 3219.54
3798.04 -2966.02 3220.71
3798.26 -2967.26 3220.49
3797.77 -2964.62 3220.76
3798.42 -2968.32 3220.12
3798.14 -2964.61 3221.37
3801.82 -2952.15 3232.98
3801.47 -2951.64 3233.56
3805.13 -2973.19 3230.79
3805.62 -2972.1 3230.89
3805.84 -2970.94 3230.07
3803.93 -2976.36 3231.24
3801.88 -2980.92 3231.5
3805.91 -2969.82 3229.68
3805.92 -2968.81 3229.53
3805.84 -2967.81 3229.63
3804.95 -2963.3 3229.89
3805.67 -2966.66 3229.67
3803.8 -2957.51 3229.46
3803.59 -2956.47 3229.8
3801.93 -2952.46 3232
3802.12 -2952.8 3231.59
3802.22 -2953.07 3231.11
3803.29 -2955.4 3230.06
3802.9 -2954.71 3229.71
3802.15 -2953.22 3230.22
3802.57 -2954.18 3229.32
3799.62 -2950.84 3232.3
3799.7 -2950.73 3232.9
3801.15 -2951.96 3231.19
3800.77 -2951.41 3232.17
3801.44 -2952.64 3229.93
3800.22 -2951.01 3232.67
3800.91 -2951.24 3234.12
3800.5 -2950.96 3233.73
3798.65 -2955.2 3223.14
3799.36 -2954.59 3223.99
3800.13 -2954.5 3224.66
3800.25 -2954.2 3225.15
3801.08 -2953.57 3227.05
3800.88 -2954.22 3225.8
3799.41 -2955.79 3223.3
3799.89 -2956.72 3223.33
3798.12 -2961.39 3221.57
3798.94 -2959.19 3222.32
3800.26 -2957.01 3223.56
3798.55 -2964.53 3221.95
3798.84 -2964.15 3222.38
3799.19 -2970.95 3220.04
3799.29 -2969.04 3221.68
3799.38 -2970.29 3221.1
3799.3 -2970.68 3220.58
3799.53 -2968.87 3222.19
3799.89 -2968.75 3222.72
3804.72 -2973.71 3229.97
3805.22 -2972.5 3229.83
3805.66 -2971.44 3229.8
3805.78 -2970.31 3229.36
3803.61 -2976.17 3230.05
3801.46 -2979.31 3228.48
3805.8 -2969.33 3229.11
3805.8 -2968.34 3229.08
3805.71 -2967.44 3229.26
3805 -2963.82 3229.6
3805.53 -2966.69 3229.19
3804.03 -2960.06 3228.8
3803.64 -2957.43 3228.91
3803.53 -2957.73 3228.43
3803.48 -2956.52 3229.13
3803.26 -2955.64 3229.42
3801.72 -2952.4 3231.5
3802.92 -2955.06 3229.01
3802.14 -2953.47 3229.42
3802.57 -2954.52 3228.62
3801.22 -2951.72 3232.09
3800.68 -2951.19 3233
3801.41 -2953.18 3228.32
3801.64 -2952.92 3229.51
3801.64 -2952.63 3230.53
3801.49 -2953.47 3227.82
3799.41 -2955.06 3223.68
3799.83 -2954.81 3224.17
3800.73 -2954.5 3225.29
3801.35 -2954.17 3226.46
3801.28 -2954.53 3225.88
3799.93 -2955.75 3223.64
3800.45 -2956.45 3223.83
3799.39 -2959.35 3222.7
3799.14 -2963.24 3222.67
3799.74 -2960.01 3223.03
3800.57 -2957.58 3223.74
3800.73 -2957.12 3223.93
3800.9 -2956.59 3224.21
3799.95 -2966.57 3223.47
3801.21 -2964.71 3224.83
3799.89 -2971.34 3221.73
3800.2 -2971.07 3222.26
3799.76 -2971.7 3221.23
3800.72 -2970.94 3222.9
3800.44 -2968.86 3223.3
3804.38 -2973.65 3229.04
3805.08 -2972.09 3228.94
3805.62 -2970.88 3229.1
3805.62 -2969.94 3228.78
3802.41 -2976.8 3227.86
3800.28 -2978.54 3224.64
3805.66 -2968.85 3228.66
3805.61 -2967.77 3228.81
3805.08 -2964.48 3229.34
3805.42 -2967.07 3228.69
3803.95 -2960.53 3228.46
3803.35 -2957.84 3227.89
3803.34 -2956.67 3228.45
3803.18 -2956.82 3227.91
3803.16 -2955.8 3228.68
3802.81 -2955.27 3228.3
3802.09 -2953.71 3228.72
3802.26 -2954.17 3228.33
3802.45 -2954.77 3227.94
3800.22 -2955.5 3224
3800.48 -2955.11 3224.45
3801.63 -2954.18 3226.92
3800.76 -2956.01 3224.26
3801.07 -2958.34 3224.26
3800.69 -2961.83 3224.12
3801.24 -2957.65 3224.44
3801.28 -2957.07 3224.51
3801.17 -2956.11 3224.65
3801.5 -2956.67 3224.87
3801.57 -2965.62 3225.13
3801.01 -2968.53 3223.95
3802.54 -2963.47 3226.15
3803.14 -2964.64 3226.63
3799.97 -2972.66 3221.19
3800.14 -2972.36 3221.82
3800.45 -2971.72 3222.39
3801.03 -2971.46 3223.04
3801.42 -2970.88 3223.54
3804.22 -2973.28 3228.32
3802.02 -2976.15 3226.36
3805.31 -2971.05 3228.59
3804.61 -2972.17 3228.12
3805.5 -2969.3 3228.28
3805.35 -2970.28 3228.31
3800.17 -2976.17 3222.13
3800.43 -2977.15 3223.67
3805.49 -2968.22 3228.38
3805.3 -2967.75 3228.13
3804.84 -2964.75 3228.7
3803.85 -2960.99 3228.15
3803.16 -2958 3227.41
3803 -2956.97 3227.37
3803.02 -2955.99 3228.02
3802.82 -2956.12 3227.43
3802.67 -2955.45 3227.71
3802.14 -2954.42 3227.61
3802.27 -2954.93 3227.29
3800.91 -2955.1 3224.85
3801.92 -2954.64 3226.82
3801.77 -2954.96 3226.1
3801.38 -2955.22 3225.34
3801.8 -2960.59 3225.16
3801.8 -2958.26 3225.08
3801.85 -2957.47 3225.19
3801.7 -2956.24 3225.24
3801.46 -2955.69 3225.15
3802.16 -2957.05 3225.69
3802.28 -2967.47 3225.2
3803.53 -2966.65 3226.35
3802.71 -2969.21 3224.91
3802.42 -2960.81 3225.93
3803.24 -2963.9 3226.92
3803.84 -2966.13 3226.8
3800.21 -2973.12 3221.53
3800.52 -2972.82 3222.17
3801.34 -2971.77 3223.38
3802.9 -2970.49 3224.85
3800.18 -2974.66 3221.41
3802.42 -2974.74 3226.08
3800.8 -2975.98 3223.64
3804.87 -2971.14 3227.86
3802.97 -2973.52 3226.22
3805.34 -2968.8 3227.9
3805.2 -2969.86 3227.84
3800.38 -2975.46 3222.39
3805.04 -2967.22 3227.87
3805.12 -2968.42 3227.59
3803.68 -2961.34 3227.77
3802.99 -2958.34 3226.95
3802.82 -2957.29 3226.88
3802.64 -2956.36 3226.83
3802.49 -2955.55 3227.2
3802.37 -2955.81 3226.66
3802.13 -2955.19 3226.66
3801.88 -2955.47 3225.93
3802.34 -2958.13 3225.84
3802.8 -2960.43 3226.42
3802.03 -2956 3225.9
3802.38 -2956.7 3226.2
3802.65 -2957.79 3226.39
3804.05 -2968.15 3226.2
3803.47 -2963.44 3227.28
3804.08 -2965.86 3227.15
3804.37 -2967.87 3226.59
3800.25 -2973.88 3221.42
3800.61 -2973.67 3222.36
3801.21 -2972.33 3223.21
3801.16 -2973.19 3223.37
3803.08 -2971.25 3225.23
3803.21 -2970.71 3225.25
3804.56 -2969.23 3226.55
3804.33 -2968.82 3226.24
3800.52 -2974.61 3222.44
3801.03 -2974.98 3223.66
3804.84 -2970.41 3227.41
3802.99 -2972.32 3225.53
3802.83 -2973.06 3225.72
3805.05 -2969.35 3227.41
3804.87 -2967.79 3227.35
3804.46 -2965.18 3227.92
3804.88 -2968.81 3227.06
3803.08 -2960.08 3226.89
3803.82 -2963.08 3227.76
3801.12 -2974.12 3223.58
3804.65 -2969.86 3226.91
