3399.51 -2814.99 3546.08
3397.71 -2815.58 3544.69
3399.03 -2815.11 3543.63
3397.77 -2815.57 3544.11
3396.77 -2815.91 3544.95
3396.68 -2816.05 3545.63
3398.28 -2815.64 3547.89
3392.46 -2816.91 3541.9
3399.7 -2815.02 3542.58
3398.96 -2815.21 3543.11
3395.38 -2816.43 3543.1
3395.81 -2816.48 3542.69
3395.92 -2816.5 3545.81
3392.04 -2817.27 3542.46
3396.07 -2816.68 3546.63
3392.4 -2816.83 3541.16
3390.36 -2817.22 3540.23
3398.92 -2815.33 3542.47
3396.52 -2816.3 3542.43
3393.27 -2816.67 3541.28
3395.56 -2816.97 3546.82
3391.6 -2817.72 3542.97
3390.4 -2817.12 3539.74
3389.16 -2817.18 3539.5
3390.11 -2817.65 3540.97
3389.35 -2817.39 3540.03
3395.18 -2817.22 3547.2
3388.52 -2817.04 3538.96
3388.18 -2816.72 3538.62
3389.35 -2816.91 3539.01
3399.24 -2815.63 3541.51
3397.24 -2815.99 3541.72
3395.1 -2816.33 3541.71
3391.28 -2816.98 3539.77
3389.98 -2818 3541.37
3388.6 -2817.4 3539.54
3394.32 -2817.88 3547.46
3391.28 -2818.1 3543.21
3399.85 -2815.75 3540.91
3398.01 -2816.11 3541.28
3396.57 -2816.33 3541.18
3388.84 -2816.56 3538.61
3396.03 -2821.09 3535.82
3387.92 -2817.01 3538.97
3389.8 -2818.37 3541.75
3389.37 -2818.09 3540.82
3393.84 -2818.73 3548.39
3387.69 -2816.48 3538.45
3398.66 -2816.29 3540.76
3397.09 -2816.59 3540.81
3394.92 -2816.48 3541.18
3395.66 -2816.54 3540.96
3390.05 -2817.06 3538.8
3395.11 -2821.89 3534.44
3394.48 -2821.83 3535.57
3394.26 -2821.81 3536.29
3394.91 -2821.43 3536.63
3396.61 -2820.44 3536.84
3389.55 -2818.73 3542.02
3387.82 -2817.55 3539.39
3387.39 -2816.86 3538.9
3391.01 -2818.61 3543.69
3392.72 -2819.47 3547.05
3393.49 -2819.78 3550.52
3399.24 -2818.49 3538.02
3399.17 -2816.61 3540.17
3398.06 -2816.75 3540.4
3396.52 -2816.96 3540.55
3392.38 -2816.99 3539.72
3391.79 -2817.01 3539.57
3395.24 -2816.69 3540.72
3388.32 -2816.44 3538.15
3389.45 -2816.95 3538.44
3390.58 -2817.43 3538.71
3387.25 -2816.22 3538.28
3394.42 -2822.34 3534.21
3393.82 -2822.2 3535.47
3393.47 -2822.16 3536.01
3394.49 -2821.47 3537.05
3390.47 -2819.06 3543.58
3389.06 -2819.01 3541.82
3388.95 -2818.8 3541.3
3388.56 -2817.88 3540.15
3386.92 -2816.57 3538.72
3390.91 -2821.21 3546.88
3391.48 -2821.64 3549.65
3386.95 -2816.19 3537.77
3386.76 -2816.06 3538.24
3396.24 -2820.22 3537.57
3398.63 -2817.87 3539.08
3398.4 -2817.23 3539.74
3397.35 -2817.26 3540.07
3392.78 -2817.24 3539.54
3387.81 -2816.41 3537.86
3388.78 -2816.81 3538.06
3389.88 -2817.31 3538.34
3391 -2817.71 3538.59
3393.63 -2822.66 3533.74
3393.48 -2822.55 3535.33
3394.05 -2821.93 3537.03
3393.6 -2822.2 3536.81
3393.03 -2822.44 3536.15
3389.24 -2819.21 3542.4
3389.95 -2820.75 3544.27
3388.55 -2818.74 3540.86
3388.43 -2819.15 3541.19
3387.06 -2817.3 3539.17
3388.53 -2822.77 3544.13
3389.08 -2823.5 3547.3
3389.25 -2824.86 3551.46
3394.29 -2821.34 3537.59
3397.74 -2818.72 3538.7
3395.59 -2820.22 3538.09
3397.74 -2817.95 3539.25
3396.93 -2817.95 3539.48
3395.96 -2817.46 3539.98
3394.69 -2817.27 3540.01
3389.24 -2817.18 3537.98
3390.36 -2817.69 3538.25
3391.43 -2817.96 3538.49
3387.08 -2816.47 3537.18
3393.82 -2822.28 3531.12
3393 -2822.74 3533.79
3392.82 -2822.61 3535.37
3392.55 -2822.59 3536.25
3393.07 -2822.37 3536.99
3389.65 -2820.21 3543.67
3388.83 -2820.11 3542.7
3388.1 -2821.8 3542.72
3388.24 -2820.08 3542
3388.01 -2818.62 3540.46
3386.74 -2817.43 3538.6
3386.33 -2817.15 3537.79
3386.33 -2816.35 3538
3388.03 -2823.54 3544.23
3387.78 -2822.74 3542.48
3388.37 -2824.82 3548.73
3386.33 -2816.56 3537.32
3386.68 -2816.77 3536.78
3386.8 -2827.44 3552.92
3397.37 -2819.05 3538.56
3394.65 -2820.95 3538.03
3397.04 -2818.51 3538.87
3396.25 -2817.97 3539.45
3393.05 -2817.74 3539.29
3387.96 -2816.96 3537.64
3388.8 -2817.27 3537.74
3389.67 -2817.59 3537.89
3391.57 -2822.77 3531.25
3392.38 -2822.84 3534.38
3391.23 -2822.9 3532.07
3391.99 -2822.61 3535.16
3392.05 -2822.62 3535.79
3393.57 -2822.06 3537.49
3392.53 -2822.52 3537.11
3391.99 -2822.63 3536.78
3387.84 -2821.49 3542.18
3387.73 -2819.97 3541.28
3387.71 -2820.99 3541.65
3387.69 -2818.32 3540.07
3387.31 -2817.8 3539.55
3387.02 -2817.93 3539.06
3386.25 -2817.65 3537.54
3387.6 -2823.88 3544.16
3387.33 -2822.87 3542.11
3387.94 -2822.12 3541.88
3387.65 -2825.3 3548.24
3385.78 -2827.74 3551.98
3393.96 -2821.47 3538.03
3396.75 -2818.93 3538.72
3395.77 -2820.09 3538.55
3396.23 -2818.55 3539.02
3394.9 -2817.87 3539.54
3395.72 -2818.19 3539.34
3391.01 -2818.3 3538.01
3391.9 -2818.37 3538.36
3389.69 -2823.13 3529.23
3389.27 -2823.19 3530.14
3390.74 -2823.05 3532.56
3390.65 -2823.03 3533.33
3391.34 -2822.69 3535
3391.53 -2822.73 3536.24
3393.03 -2822.28 3537.77
3390.96 -2822.71 3536.1
3388.67 -2823.39 3529.19
3387.49 -2819.49 3540.71
3386.74 -2818.13 3538.54
3387.11 -2824.15 3544.06
3386.88 -2823.06 3541.79
3387.18 -2822.78 3541.42
3387.85 -2821.51 3541.39
3386.6 -2826.19 3549.1
3386.04 -2817.03 3537.31
3386 -2816.97 3536.78
3384.08 -2828.67 3551.94
3393.38 -2821.84 3538.27
3393.33 -2818.21 3539.08
3387.26 -2817.2 3537.31
3388.11 -2817.51 3537.42
3388.99 -2817.86 3537.52
3389.79 -2818.2 3537.63
3390.39 -2818.25 3537.77
3388.6 -2823.34 3530.94
3388.21 -2823.54 3529.86
3390.06 -2823.06 3533.33
3388.13 -2823.38 3531.22
3390.71 -2822.75 3535.04
3392.39 -2822.46 3537.81
3391.71 -2822.57 3537.23
3389.81 -2822.54 3535.94
3389.14 -2822.47 3535.3
3387.52 -2820.18 3540.78
3387.74 -2820.84 3540.93
3386.43 -2818.23 3538.06
3386.15 -2818.17 3537.43
3387.14 -2819.6 3540.19
3386.59 -2824.55 3544.29
3386.52 -2822.98 3541
3386.3 -2823.86 3542.48
3387.09 -2822.68 3540.79
3387.79 -2822.44 3541.02
3387.86 -2821.36 3540.89
3385.59 -2825.01 3544.84
3384.91 -2827.19 3549.57
3386.25 -2817.52 3536.81
3381.34 -2829.03 3549.89
3382.18 -2830.47 3553.08
3394.28 -2821.1 3538.75
3392.8 -2822.13 3538.48
3395.08 -2820.21 3539.13
3395.74 -2818.87 3539.38
3394.66 -2818.49 3539.39
3389.98 -2818.9 3537.52
3390.09 -2820.5 3537.32
3389.83 -2820.92 3537.23
3391.36 -2819.52 3537.92
3390.01 -2821.78 3537.34
3392.17 -2819.26 3538.42
3387.78 -2823.64 3530.36
3387.36 -2823.84 3529.24
3387.24 -2823.65 3530.36
3389.06 -2822.99 3533.46
3390.01 -2822.71 3534.73
3389.48 -2822.66 3534.66
3390.56 -2822.58 3536.71
3388.27 -2822.18 3536.03
3388.41 -2822.5 3534.93
3387.22 -2822.1 3535.43
3387.69 -2822.07 3535.79
3386.69 -2824.1 3528.86
3387.65 -2820.64 3540.42
3385.82 -2817.99 3537.09
3386.14 -2823 3540.35
3385.95 -2823.49 3541.41
3386.7 -2822.74 3540.23
3383.66 -2823.95 3541.75
3387.52 -2822.39 3540.25
3387.16 -2822.44 3539.77
3387.99 -2821.76 3540.32
3384.1 -2826.13 3546.53
3382.55 -2824.84 3542.86
3382.29 -2827.26 3547.37
3386 -2817.2 3536.33
3387.44 -2817.84 3537.14
3378 -2830.72 3550.01
3375.29 -2830.71 3547.82
3380.19 -2827.73 3546.42
3378.59 -2832.57 3553.21
3377.28 -2835.68 3556.51
3393.83 -2821.38 3538.75
3393.05 -2821.82 3538.89
3392.22 -2822.37 3538.5
3393.52 -2818.74 3539
3393.36 -2819.57 3539.16
3394.44 -2819.19 3539.56
3388.73 -2818.63 3537.3
3389.63 -2819.29 3537.4
3389.24 -2822.08 3536.98
3390.46 -2821.82 3537.92
3389.94 -2822.4 3537.34
3390.79 -2821.88 3538.47
3387.39 -2823.35 3531.69
3386.64 -2823.86 3529.64
3388.53 -2822.98 3533.44
3388 -2822.91 3533.51
3390.86 -2822.6 3537.16
3387.51 -2821.96 3536.42
3386.66 -2821.82 3534.69
3386.78 -2821.77 3535.77
3387.23 -2821.94 3535.94
3385.7 -2820.7 3535.42
3386.26 -2818.66 3538.91
3386.81 -2819.77 3539.72
3387.14 -2820.34 3540.09
3385.57 -2818.45 3537.32
3385.55 -2823.15 3540.48
3385.76 -2822.87 3539.83
3386.33 -2822.8 3539.77
3383.85 -2823.5 3540.85
3381.51 -2823.43 3539.57
3381.12 -2824.21 3540.64
3387.84 -2821.17 3540.03
3379.87 -2826.64 3544.04
3385.71 -2817.62 3536.3
3385.57 -2818.09 3535.84
3386.42 -2818.25 3536.87
3386.94 -2818.49 3536.95
3386.62 -2818.92 3536.82
3388.21 -2819.19 3537.12
3374.06 -2832.3 3549.49
3372.72 -2831.9 3547.62
3377.68 -2829.16 3546.8
3372.98 -2831.05 3545.85
3371.11 -2831.6 3545.24
3374.42 -2834.27 3552.31
3374.23 -2837.12 3555.61
3391.2 -2822.52 3538
3394.42 -2820.39 3539.71
3393.7 -2821.24 3539.39
3392.47 -2821.5 3539.31
3393.18 -2821.2 3539.82
3389.3 -2820.64 3537.14
3389.19 -2819.95 3537.22
3389.8 -2822.44 3536.86
3390.46 -2822.43 3538.06
3390.07 -2822.49 3538.74
3386.24 -2823.6 3530.51
3386.73 -2823.38 3531.41
3387.36 -2823.21 3532.28
3386.04 -2824 3529.59
3388.83 -2822.3 3536.15
3388.06 -2822.08 3536.52
3386.89 -2822.9 3533.01
3384.99 -2820.24 3534.96
3385.09 -2820.71 3534.79
3386.91 -2821.89 3536.48
3385.78 -2824.24 3529.15
3385.68 -2824.47 3528.65
3385.11 -2824.83 3528.25
3384.33 -2823.08 3540.11
3384.08 -2822.5 3539.16
3385.23 -2822.45 3538.93
3383.99 -2822.04 3538.45
3387.16 -2822.34 3539.25
3386.42 -2822.62 3539.14
3382.44 -2823.04 3538.78
3381.69 -2823.11 3538.06
3380.91 -2823.49 3538.72
3380.46 -2824.2 3539.85
3379.38 -2826.31 3542.48
3387.71 -2822.1 3539.22
3388.05 -2821.88 3539.61
3387.14 -2822.24 3538.76
3378 -2828.37 3544.33
3385.72 -2818.31 3536.71
3386.12 -2818.67 3536.74
3387.45 -2819.35 3536.94
3386.81 -2819.46 3536.79
3388.44 -2820.55 3536.98
3371.47 -2833.39 3548.67
3370.72 -2832.36 3546.54
3369.87 -2831.98 3544.68
3377.08 -2829.17 3545.85
3372.69 -2830.63 3544.39
3369.92 -2831.28 3543
3369.27 -2831.78 3543.3
3372.33 -2835.01 3551.44
3373.14 -2838.44 3556.11
3371.72 -2836.39 3552.4
3392.16 -2822.16 3539.1
3391.37 -2822.47 3538.49
3394.04 -2820.41 3540.18
3393.3 -2820.8 3540.43
3391.57 -2822.16 3539.56
3388.63 -2821.94 3536.84
3390.8 -2822.46 3538.52
3390.26 -2822.52 3539.22
3385.81 -2823.42 3531.02
3385.39 -2823.67 3530.54
3386.5 -2823.23 3531.9
3385.45 -2824.12 3529.65
3384.94 -2823.9 3530.13
3386.42 -2822.9 3532.76
3386.06 -2821.73 3534.33
3384.42 -2820.98 3534.56
3386.1 -2821.64 3536.11
3385.1 -2820.84 3535.6
3384.31 -2820.45 3535.1
3386.35 -2821.9 3536.68
3385.27 -2824.36 3528.99
3384.68 -2824.69 3528.74
3384.41 -2825.06 3528.35
3385.73 -2818.98 3538.65
3386.44 -2820 3539.26
3385.48 -2818.74 3537.96
3386.77 -2820.42 3539.58
3387.35 -2820.76 3539.8
3382.25 -2822.36 3537.7
3383.81 -2821.7 3537.7
3382.53 -2821.56 3537.11
3386.26 -2822.53 3538.66
3381.29 -2823.08 3537.52
3382.12 -2822.71 3537.27
3380.53 -2823.46 3537.73
3379.83 -2824.36 3539.13
3378.95 -2826.19 3541.24
3377.03 -2828.39 3542.09
3387.68 -2821.95 3538.36
3387.16 -2822.13 3538.27
3376.44 -2828.9 3542.62
3385.73 -2818.99 3536.78
3387.57 -2820.38 3536.83
3386.98 -2819.96 3536.76
3370.16 -2834.03 3548.01
3369.68 -2832.83 3545.97
3369.14 -2832.44 3544.51
3368.59 -2832.19 3543.13
3376.38 -2829.2 3544.21
3372.71 -2830.11 3542.79
3369.84 -2830.89 3541.91
3368.75 -2831.53 3542.06
3368.89 -2831.03 3541.04
3371.69 -2838.49 3554.57
3369.8 -2835.15 3548.96
3371.57 -2839.82 3555.68
3391.32 -2822.43 3539.05
3391.34 -2822.32 3540.03
3389.06 -2822.26 3537.48
3391.05 -2822.49 3539.61
3384.6 -2822.62 3532.44
3385.88 -2823.2 3531.66
3383.89 -2822.96 3531.91
3383.63 -2823.4 3531.14
3387.86 -2822.02 3537
3387.13 -2821.9 3537.06
3388.34 -2822.1 3537.41
3386.4 -2822.07 3537.16
3385.35 -2822.21 3533.5
3383.74 -2820.84 3534.96
3384.48 -2821.07 3535.79
3383.69 -2821.17 3534.41
3384.89 -2824.19 3529.47
3384.11 -2824.84 3528.72
3387.6 -2821.28 3539.54
3385.21 -2819.02 3538.28
3385.57 -2819.13 3537.56
3383.87 -2821.53 3537.1
3382.86 -2821.26 3536.63
3382.65 -2821.99 3536.69
3386.66 -2822.32 3538.19
3381.53 -2822.82 3536.86
3380.73 -2823.19 3536.81
3382.17 -2822.47 3536.44
3379.83 -2823.84 3537.09
3379.64 -2824.22 3538.1
3378.25 -2826.05 3539.28
3378.22 -2826.64 3540.5
3376.35 -2828.29 3540.69
3375.38 -2828.9 3540.56
3387.2 -2822 3537.75
3374.91 -2829.29 3541.77
3386.14 -2819.56 3536.74
3385.89 -2819.33 3537.12
3387.68 -2821.4 3536.74
3368.88 -2833.54 3545.87
3368.53 -2833.03 3544.67
3368.07 -2832.73 3543.39
3368.06 -2832.17 3542.5
3368.29 -2831.51 3541.59
3371.91 -2830.07 3541.14
3369.31 -2830.72 3540.56
3368.7 -2830.91 3540.17
3368.2 -2831.17 3540.04
3370.38 -2838.29 3552.79
3368.96 -2835.1 3547.87
3368.09 -2834.41 3545.9
3370.8 -2840.94 3555.65
3370.31 -2840.15 3554.14
3383.9 -2825.73 3527.81
3383.8 -2826.27 3527.19
3383.68 -2825.44 3528.17
3384.97 -2822.47 3532.8
3383.87 -2821.56 3534.14
3383.64 -2822.15 3533.52
3383.48 -2823.69 3530.69
3383.27 -2822.63 3532.63
3387.82 -2821.99 3537.65
3383.61 -2821.08 3535.4
3383.33 -2821.58 3534.17
3384.39 -2824.22 3529.56
3383.87 -2824.44 3529.35
3383.55 -2824.98 3528.69
3385.9 -2820.11 3538.71
3386.73 -2820.69 3539.16
3385.81 -2819.54 3537.85
3383.09 -2821.57 3536.2
3382.8 -2822.04 3536.11
3384.1 -2821.35 3536.23
3381.44 -2822.79 3535.97
3380.64 -2823.2 3536.01
3379.75 -2823.8 3536.59
3382.1 -2822.44 3535.47
3378.25 -2825.44 3537
3378.37 -2825.49 3537.96
3376.36 -2827.71 3539.14
3375.6 -2828.24 3538.83
3374.29 -2829.23 3539.76
3374.92 -2828.65 3538.45
3373.34 -2829.59 3539.81
3386.37 -2820 3537.04
3386.16 -2819.91 3537.64
3387.15 -2820.98 3536.87
3367.23 -2834.07 3544.14
3367.38 -2833.34 3543.32
3367.43 -2832.74 3542.45
3367.71 -2831.99 3541.61
3367.64 -2831.59 3540.22
3371.16 -2830.12 3539.78
3369.2 -2830.55 3539.81
3367.72 -2831.35 3539.78
3369.15 -2837.38 3550.46
3366.88 -2836.11 3545.9
3366.23 -2835.53 3544.32
3369.93 -2842.4 3555.54
3369.34 -2841.71 3554.11
3368.72 -2839.41 3551.55
3388.65 -2822.24 3537.8
3382.74 -2823.21 3531.58
3382.76 -2822.84 3532.32
3383.16 -2821.67 3534.87
3383.02 -2822.06 3533.85
3383.13 -2824.05 3530.14
3382.02 -2823.72 3530.97
3383.01 -2824.34 3529.73
3383.13 -2825.37 3528.45
3387.55 -2821.61 3538.98
3387.15 -2820.97 3539.23
3386.03 -2819.94 3538.14
3382.73 -2822.13 3535.53
3383.31 -2821.48 3535.59
3381.33 -2822.81 3535.04
3380.43 -2823.36 3535.05
3379.62 -2823.94 3535.55
3377.83 -2825.63 3535.28
3377.98 -2825.59 3536.19
3381.72 -2822.63 3534.68
3382.38 -2822.3 3534.92
3375.95 -2827.77 3537.65
3375.84 -2827.6 3536.16
3375.24 -2828.22 3536.97
3373.71 -2829.18 3538.11
3374.58 -2828.63 3537.14
3388.17 -2822.04 3538.26
3372.82 -2829.62 3538.51
3386.79 -2820.7 3537.46
3386.58 -2820.58 3537.95
3365.8 -2834.93 3542.93
3366.54 -2833.79 3542.44
3366.86 -2832.94 3541.62
3367.31 -2832 3540.67
3366.75 -2832.7 3540.92
3367.21 -2831.78 3539.85
3371.24 -2829.9 3538.82
3369.28 -2830.27 3539.18
3368.42 -2830.52 3539.31
3367.91 -2830.96 3539.41
3367.39 -2831.48 3539.42
3366.79 -2837.27 3546.92
3364.94 -2837.29 3544.36
3364.26 -2836.81 3542.92
3368.99 -2844.01 3555.31
3368.34 -2843.32 3553.64
3367.76 -2842.71 3552.2
3367.7 -2840.95 3550.95
3365.83 -2838.87 3546.81
3383.39 -2826.14 3527.58
3383.59 -2826.61 3526.8
3383.11 -2825.8 3528.02
3382.41 -2822.72 3532.84
3381.98 -2823.32 3531.72
3382.82 -2822.14 3534.63
3382.54 -2822.35 3533.7
3381.96 -2823.97 3530.53
3382.73 -2824.66 3529.4
3381.57 -2824.41 3530.05
3382.41 -2824.98 3529.16
3382.23 -2825.36 3528.85
3386.36 -2820.46 3538.48
3380.63 -2823.35 3534.28
3379.54 -2824.04 3534.34
3377.72 -2825.66 3534.46
3375.49 -2827.69 3534.68
3382.03 -2822.51 3534.24
3381.09 -2823.17 3534.01
3375 -2828.18 3535.64
3374.46 -2828.56 3535.9
3373.09 -2829.45 3536.88
3373.78 -2829.03 3536.46
3371.08 -2829.89 3537.93
3387.08 -2821.07 3537.85
3387.45 -2821.56 3537.64
3386.76 -2820.86 3538.53
3364.67 -2835.49 3541.3
3363.24 -2837.45 3541.29
3365.93 -2833.97 3541.48
3365.89 -2833.61 3540.71
3366.75 -2832.34 3540.16
3366.04 -2833.07 3540
3366.86 -2832.06 3539.5
3368.48 -2830.48 3538.68
3368.96 -2830.34 3538.33
3367.59 -2831.28 3538.73
3367.08 -2831.83 3538.77
3364.38 -2838.46 3544.65
3363.03 -2838.5 3542.66
3362.76 -2839.17 3543.45
3361.92 -2839.31 3541.49
3367.07 -2844.96 3552.95
3366.65 -2844.81 3552.04
3366.2 -2843.64 3550.46
3364.62 -2840.95 3546.69
3363.04 -2840.02 3544.62
3381.66 -2822.9 3533
3381.57 -2823.26 3532.2
3381.3 -2823.7 3531.39
3381.38 -2824.17 3530.55
3381.17 -2824.82 3529.72
3380.95 -2824.6 3530.12
3380.83 -2825.27 3529.51
3381.99 -2825.75 3528.56
3380.9 -2825.65 3529.17
3388.19 -2822.03 3538.83
3379.73 -2823.98 3533.63
3380.28 -2823.72 3533.41
3377.57 -2825.78 3533.79
3377.77 -2825.66 3533.19
3375.25 -2827.86 3533.94
3374.78 -2828.25 3534.53
3373.91 -2828.85 3535.16
3371.25 -2829.96 3537
3373.01 -2829.39 3535.73
3387.36 -2821.51 3538.37
3364.09 -2835.63 3539.74
3362.31 -2838.06 3539.77
3361.17 -2839.59 3540.59
3364.94 -2834.29 3539.53
3366.27 -2832.69 3539.64
3365.15 -2833.87 3539.02
3366.58 -2832.35 3538.97
3368.6 -2830.53 3537.86
3368.18 -2830.74 3538.12
3370.75 -2830.13 3536.72
3367.77 -2831.11 3538.09
3367.29 -2831.61 3538.05
3366.76 -2832.14 3538.2
3361.59 -2840.07 3542.37
3361.8 -2840.43 3543.64
3360.85 -2840.12 3540.91
3366.33 -2847.24 3553.63
3365.84 -2846.21 3551.74
3363.86 -2842.34 3546.84
3365.53 -2845.09 3550.37
3362.08 -2841.07 3545.01
3382.87 -2826.29 3527.71
3383.15 -2826.92 3527.06
3380.91 -2823.53 3532.24
3380.83 -2823.87 3531.51
3380.73 -2824.22 3530.85
3381.07 -2823.31 3533.1
3380.59 -2824.93 3529.99
3380.26 -2824.8 3530.44
3380.21 -2825.6 3529.59
3380.06 -2825.31 3530
3379.21 -2824.44 3532.69
3379.72 -2824.11 3532.61
3380.47 -2823.73 3532.81
3375.18 -2827.9 3533.19
3377.13 -2826.27 3532.67
3374.72 -2828.22 3533.45
3373.92 -2828.75 3533.98
3372.74 -2829.49 3534.64
3370.57 -2830.27 3536.26
3362.5 -2837.14 3538.1
3361.18 -2838.86 3538.9
3360.36 -2839.97 3539.72
3360.13 -2840.37 3540
3362.24 -2837.14 3537.38
3364.47 -2834.58 3538.11
3361.74 -2837.57 3537.02
3366.27 -2832.68 3538.48
3367.95 -2831.06 3537.62
3368.41 -2830.82 3537.38
3367.56 -2831.41 3537.47
3367.02 -2831.89 3537.52
3366.41 -2832.49 3537.61
3360.68 -2840.77 3541.85
3361.08 -2841.19 3543.56
3365.39 -2847.98 3552.42
3364.93 -2847.08 3550.76
3361.61 -2842.17 3545.51
3363.24 -2843.46 3546.66
3364.75 -2845.94 3549.75
3360.82 -2841.76 3543.95
3381.56 -2826.29 3528.34
3381.31 -2826.79 3528.19
3382.59 -2826.99 3527.45
3382.92 -2827.46 3527.01
3380.51 -2826.06 3529.06
3380.3 -2824.09 3531.55
3380.45 -2823.85 3532.17
3380.18 -2824.36 3531.06
3379.75 -2825.13 3530.42
3379.63 -2825.7 3529.93
3379.24 -2825.57 3530.33
3379.09 -2824.67 3532.08
3379.79 -2824.17 3532.09
3374.85 -2828.17 3532.5
3374.31 -2828.51 3533.08
3375.07 -2828.02 3532
3372.89 -2829.38 3533.7
3370.46 -2830.39 3535.69
3360.52 -2838.98 3537.46
3359.8 -2839.94 3538.05
3359.61 -2840.35 3538.46
3359.47 -2840.74 3538.91
3360.06 -2839.27 3536.91
3359.82 -2839.35 3536.43
3364.75 -2834.31 3537.27
3368.44 -2831.05 3536.78
3367.53 -2831.59 3536.96
3366.45 -2832.55 3536.89
3364.8 -2834.32 3536.72
3360.15 -2841.5 3541.96
3359.72 -2841.24 3540.55
3359.29 -2841.16 3539.27
3364.27 -2848.55 3550.47
3363.57 -2846.81 3548.54
3363.73 -2847.94 3549.17
3360.87 -2842.46 3544.43
3362.52 -2844.35 3546.36
3359.79 -2842.08 3541.63
3379.96 -2826.3 3529.2
3378.41 -2827.43 3529.43
3380.4 -2827.24 3528.46
3382.02 -2827.45 3527.53
3382.89 -2828.2 3527.01
3379.7 -2824.61 3531.21
3378.88 -2825.44 3530.81
3378.23 -2826.84 3529.96
3377.74 -2826.82 3530.34
3377.36 -2826.81 3530.73
3377 -2826.42 3532.05
3373.42 -2829.12 3532.77
3374.18 -2828.69 3531.97
3370.58 -2830.43 3535.06
3359.48 -2839.91 3537.03
3359.23 -2840.32 3537.23
3359.06 -2840.71 3537.56
3358.92 -2841.1 3538
3359.38 -2839.85 3536.52
3361.75 -2837.39 3536.36
3360.1 -2838.99 3536.19
3359.46 -2839.52 3535.67
3368.58 -2831.2 3535.96
3367.35 -2831.88 3536.52
3366.8 -2832.38 3536.39
3364.84 -2834.41 3536.21
3361.67 -2837.42 3535.47
3359.45 -2841.85 3540.52
3359.12 -2841.78 3539.27
3358.72 -2841.62 3538.14
3363.43 -2850.28 3549.94
3363.05 -2849.25 3548.32
3362.7 -2847.78 3547.52
3361.65 -2844.3 3545.66
3361.45 -2845.24 3545.46
3359.72 -2842.75 3541.53
3360.56 -2843.08 3543.81
3359.22 -2842.42 3540.53
3374.96 -2830.35 3529.71
3374.75 -2829.97 3530.02
3376 -2830.26 3529.27
3379.26 -2827.94 3528.76
3381.98 -2828.02 3527.26
3381 -2827.73 3528.04
3382.41 -2828.27 3527.39
3382.65 -2828.76 3527.27
3379.03 -2825 3531.48
3377.05 -2826.82 3531.18
3374.42 -2829.53 3530.59
3373.51 -2829.83 3531.04
3373.39 -2829.49 3531.54
3374.69 -2828.42 3531.64
3370.81 -2830.42 3534.39
3370.82 -2830.5 3533.83
3371.42 -2830.29 3533.1
3358.89 -2840.63 3536.87
3358.42 -2841.45 3537.11
3359.06 -2840.16 3536.08
3359.94 -2839.04 3535.63
3359.52 -2839.43 3535
3358.95 -2840.14 3535.04
3359.88 -2839.04 3535.07
3367.75 -2831.73 3535.98
3368.72 -2831.34 3535.21
3367 -2832.33 3535.92
3359.91 -2838.98 3534.5
3358.89 -2842.43 3539.15
3358.53 -2842.29 3537.99
3358.22 -2842.04 3537.05
3362.64 -2851.08 3548.17
3362.25 -2848.67 3546.69
3362.29 -2850.2 3546.86
3361.03 -2845.67 3544.82
3360.1 -2843.63 3542.25
3359.08 -2843.05 3540.67
3358.68 -2842.99 3539.23
3382.67 -2831.04 3527.04
3373.83 -2831.61 3529.6
3372.68 -2831.79 3530.12
3372.43 -2831.41 3530.42
3376.15 -2831.81 3528.44
3375.2 -2832.91 3528.33
3378.54 -2828.89 3528.73
3381.28 -2828.31 3527.57
3381.83 -2828.55 3527.13
3379.97 -2828.63 3528.32
3372.86 -2829.68 3531.93
3371.6 -2831.2 3531.26
3370.37 -2831.38 3532.4
3369 -2832.56 3532.65
3369.6 -2831.62 3533.11
3368.61 -2831.7 3534.52
3368.04 -2831.74 3535.35
3369.23 -2831.54 3533.91
3358.61 -2840.94 3536.29
3358.21 -2841.75 3536.3
3359.36 -2839.69 3534.24
3359.02 -2840.1 3534.22
3365.45 -2834.08 3535.49
3367.38 -2832.07 3535.63
3363.6 -2836.06 3535.05
3361.45 -2837.69 3534.64
3360.04 -2838.98 3533.88
3358.32 -2842.95 3537.82
3358.09 -2842.6 3537.13
3358.03 -2842.23 3535.89
3361.63 -2849.36 3545.46
3360.79 -2846.35 3544.05
3361.72 -2850.94 3545.61
3359.62 -2844.02 3541.49
3358.7 -2843.32 3539.63
3374.46 -2833.3 3528.55
3372.57 -2832.38 3529.95
3369.98 -2833.26 3531.25
3369.42 -2833.13 3531.71
3369.26 -2832.78 3532.13
3376.97 -2831.49 3528.33
3376.01 -2834.29 3527.27
3376.5 -2833.74 3527.43
3375.31 -2834.66 3527.49
3378.47 -2829.97 3528.42
3381.18 -2830.57 3527.41
3380.21 -2830.38 3527.6
3379.65 -2831.07 3527.66
3381.85 -2830.72 3527.51
3368.63 -2832.01 3533.92
3368.13 -2833.45 3532.73
3366.97 -2833.89 3533.58
3366.59 -2833.91 3533.98
3365.75 -2835.19 3533.51
3366.23 -2833.97 3534.38
3367.81 -2832.03 3535
3358.64 -2840.81 3535.59
3358.37 -2841.27 3535.36
3358.18 -2841.74 3535.49
3358.62 -2840.75 3534.47
3359.57 -2839.57 3533.75
3359.35 -2840.03 3533.28
3358.93 -2840.51 3533.56
3360.29 -2839 3533.2
3359.8 -2839.4 3533.22
3357.91 -2843.21 3537.01
3357.91 -2842.73 3536.22
3357.88 -2842.69 3535.16
3358.02 -2842.21 3534.97
3361.48 -2852.11 3544.65
3361.31 -2850.36 3544.15
3360.56 -2846.92 3543.11
3359.17 -2844.45 3540.62
3358.57 -2843.4 3538.57
3373.71 -2833.41 3528.95
3374.51 -2834.82 3527.93
3373.21 -2833.77 3529.13
3367.82 -2834.92 3532.01
3367.28 -2834.94 3532.41
3377.91 -2831.4 3528.11
3376.86 -2832.96 3527.67
3375.72 -2834.9 3527.1
3377.16 -2833.75 3527.24
3376.56 -2834.26 3527.13
3374.98 -2835.2 3527.39
3379.36 -2831.71 3527.55
3380.95 -2832.2 3527.63
3381.54 -2832.23 3527.44
3380.49 -2832.53 3527.64
3365.01 -2835.63 3533.74
3365.08 -2835.97 3533.11
3364.27 -2836.2 3533.9
3358.32 -2841.4 3534.4
3358.52 -2841.1 3534.03
3359.07 -2840.55 3532.94
3358.62 -2841.17 3533.4
3361.78 -2837.76 3533.94
3360.25 -2839.34 3532.59
3359.65 -2839.99 3532.5
3357.84 -2843.3 3535.94
3357.9 -2843.99 3536.67
3357.98 -2842.71 3534.47
3357.9 -2843.27 3534.9
3358.13 -2842.27 3534.28
3361.19 -2853.63 3542.9
3361.11 -2851.36 3543.06
3361.04 -2852.7 3542.24
3360.23 -2847.23 3542.18
3358.99 -2845 3539.95
3358.28 -2843.85 3537.52
3358.69 -2844.51 3538.57
3371.69 -2833.75 3530.09
3368.74 -2834.8 3531.53
3373.61 -2834.86 3528.55
3367.48 -2835.73 3531.83
3366.88 -2835.96 3532.05
3367.97 -2835.48 3531.66
3366.54 -2835.72 3532.34
3366.13 -2835.55 3532.69
3379.05 -2832.35 3527.32
3378.67 -2832.66 3527.56
3376.29 -2834.76 3526.84
3375.43 -2835.4 3526.97
3378.89 -2833.48 3527.33
3378.68 -2833.84 3526.92
3377.09 -2834.2 3526.78
3375.01 -2835.74 3527.03
3374.58 -2835.57 3527.47
3364.18 -2836.56 3533.41
3364.78 -2836.95 3532.33
3362.11 -2837.89 3533.24
3359.36 -2840.75 3532.07
3358.86 -2841.12 3532.67
3358.48 -2841.57 3533.07
3360.63 -2839.46 3532.05
3360.16 -2839.86 3531.94
3357.91 -2843.87 3535.67
3358.04 -2844.75 3536.78
3357.97 -2844.53 3535.83
3358.09 -2842.78 3533.83
3357.97 -2843.26 3534.11
3357.99 -2844.04 3534.81
3360.78 -2853.43 3540.14
3360.8 -2854.52 3539.18
3360.78 -2851.48 3541.52
3360.01 -2847.92 3541.47
3360.66 -2852.2 3540.28
3359.54 -2847.48 3540.29
3358.43 -2845.02 3537.58
3358.83 -2845.8 3538.57
3373.88 -2835.62 3528.05
3370.74 -2834.13 3530.57
3371.59 -2836.39 3529.76
3371.67 -2837.06 3529.57
3369.36 -2835.17 3531.18
3368.46 -2835.57 3531.41
3367.37 -2836.3 3531.62
3366.88 -2836.44 3531.77
3366.05 -2836.32 3532.18
3366.34 -2836.68 3531.87
3365.49 -2836.21 3532.55
3376.92 -2834.68 3526.41
3376.42 -2835.18 3526.27
3375.78 -2835.51 3526.54
3375.44 -2835.9 3526.49
3374.99 -2836.35 3526.49
3374.62 -2836.24 3527.06
3374.24 -2836.33 3527.39
3362.41 -2838.11 3532.57
3362.71 -2838.31 3532.01
3364.55 -2837.58 3531.91
3361.01 -2839.51 3531.61
3359.25 -2841.4 3531.53
3359.05 -2841.88 3531.39
3358.81 -2841.73 3532.06
3358.44 -2842.29 3532.6
3360.44 -2840.13 3531.3
3360.07 -2840.5 3531.28
3359.74 -2841 3531.12
3359.51 -2841.5 3530.99
3358.05 -2845.29 3536
3358.3 -2845.63 3536.88
3358.06 -2844.9 3535.06
3358.19 -2843.03 3533.13
3358.01 -2843.7 3533.75
3358.04 -2844.4 3534.1
3360.39 -2852.88 3538.02
3360.38 -2853.94 3536.62
3359.72 -2848.8 3539.66
3359.7 -2849.49 3538.62
3358.7 -2846.3 3537.62
3371.9 -2837.66 3529.18
3373.51 -2836.38 3528.07
3370.93 -2836.2 3530.19
3370.48 -2839.13 3529.95
3370.56 -2839.64 3529.66
3369.49 -2837.18 3530.74
3370.14 -2836.68 3530.58
3368.93 -2837.5 3530.86
3367.84 -2836.36 3531.35
3367.32 -2836.81 3531.46
3365.38 -2837.34 3531.81
3365.81 -2837.48 3531.59
3367.73 -2837.12 3531.3
3375.91 -2835.97 3525.97
3375.48 -2836.45 3525.92
3375 -2836.96 3525.88
3374.58 -2836.75 3526.6
3362.79 -2839.28 3530.85
3360.9 -2839.88 3531.2
3362.9 -2838.75 3531.38
3360.98 -2840.21 3530.79
3361.43 -2839.99 3530.75
3359.33 -2842.08 3530.7
3358.89 -2842.33 3531.2
3358.74 -2842.33 3531.68
3358.54 -2842.96 3531.83
3360.18 -2840.81 3530.86
3359.96 -2841.24 3530.61
3359.78 -2841.69 3530.45
3358.25 -2846.07 3536.07
3358.13 -2845.75 3535.09
3358.64 -2847.05 3536.57
3358.16 -2845.24 3533.85
3358.31 -2843.39 3532.38
3358.14 -2843.85 3532.74
3358.22 -2844.99 3532.7
3359.48 -2849.77 3537.13
3360.07 -2852.81 3535.54
3360.05 -2853.51 3534.2
3359.85 -2853.18 3532.39
3371.03 -2839.59 3529.14
3372.15 -2838.17 3528.68
3370.16 -2840.07 3529.91
3369.75 -2839.27 3530.29
3370.41 -2840.56 3529.32
3367.29 -2837.44 3531.22
3366.53 -2837.47 3531.38
3364.77 -2838.19 3531.23
3365.25 -2838 3531.28
3368.31 -2838.2 3530.95
3374.17 -2837.07 3526.8
3373.5 -2837.19 3527.49
3361.13 -2841.65 3529.06
3362.23 -2843.14 3527.17
3360.58 -2840.91 3530.34
3359.1 -2842.97 3530.19
3359.5 -2842.74 3529.64
3358.68 -2843.43 3530.92
3358.45 -2844.07 3531.61
3360.09 -2841.96 3529.72
3358.36 -2847.07 3534.93
3358.15 -2846.99 3533.79
3359.04 -2849.56 3534.06
3359.27 -2849.89 3535.49
3358.08 -2846.63 3532.64
3358.3 -2845.06 3531.98
3358.15 -2846.54 3531.89
3359.81 -2852.37 3533.27
3359.73 -2852.81 3531.01
3359.52 -2851.92 3531.64
3371.06 -2840.04 3528.85
3369.92 -2840.8 3529.58
3369.61 -2840.02 3530.24
3369.16 -2839.62 3530.48
3366.88 -2837.8 3531.11
3366.03 -2837.88 3531.25
3364.61 -2838.66 3530.96
3363.16 -2839.63 3530.37
3374.4 -2837.43 3526.18
3373.54 -2837.6 3527.16
3372.34 -2838.69 3528.04
3362.25 -2843.74 3526.6
3361.08 -2842.91 3527.92
3363.19 -2844.04 3525.97
3363.34 -2844.45 3525.58
3360.47 -2842.6 3528.66
3359.19 -2843.61 3529.56
3359.58 -2843.64 3528.95
3360.05 -2843.16 3528.58
3358.97 -2844.12 3529.69
3358.75 -2844.17 3530.26
3358.63 -2844.36 3530.77
3358.54 -2844.9 3530.73
3358.95 -2849.46 3532.64
3358.78 -2849.03 3531.14
3358.78 -2849.18 3531.78
3358.89 -2848.71 3530.5
3358.42 -2845.26 3531.16
3358.33 -2846.42 3531.16
3359.07 -2848.66 3529.83
3359.52 -2851.61 3530.29
3359.59 -2851.06 3529.42
3359.72 -2851.35 3528.59
3369.55 -2841.13 3529.75
3367.9 -2838.93 3530.88
3366.52 -2838.22 3531.03
3368.74 -2840.08 3530.5
3362.97 -2840.18 3529.99
3363.86 -2839.33 3530.59
3362.16 -2842.3 3528.03
3369.16 -2840.44 3530.34
3374.05 -2838.09 3525.96
3373.54 -2838.01 3526.79
3363.05 -2843.46 3526.73
3363.41 -2844.78 3525.2
3362.25 -2844.18 3526.23
3359.81 -2844.16 3528.25
3360.52 -2843.49 3527.8
3359.32 -2844.54 3528.87
3358.98 -2845.21 3529.42
3359.29 -2845.51 3528.76
3358.74 -2845.05 3529.99
3358.56 -2846.32 3530.31
3358.78 -2846.29 3529.76
3361.03 -2843.38 3527.47
3359.22 -2848.75 3529.32
3359.93 -2851.13 3528.01
3369.21 -2841.56 3529.94
3365.58 -2838.41 3531.06
3362.93 -2843 3527.33
3363.96 -2839.98 3530.19
3363.62 -2843.63 3526.49
3363.16 -2845.26 3524.92
3364.1 -2844.52 3524.99
3364.06 -2844.05 3525.9
3363.68 -2844.73 3524.76
3360.67 -2844.24 3527.13
3360.1 -2845.01 3527.51
3359.82 -2845.14 3527.91
3359.59 -2845.54 3528.2
3359.06 -2846.49 3529.13
3359.32 -2846.43 3528.6
3359.61 -2846.44 3528.01
3359.46 -2848.69 3528.5
3359.75 -2848.66 3527.91
3361.84 -2845.07 3525.92
3360.28 -2850.84 3527.25
3360.92 -2851.13 3525.73
3360.65 -2850.59 3526.56
3361.25 -2851.27 3524.95
3361.78 -2851.05 3524.36
3369.02 -2841.17 3530.19
3369.18 -2841.93 3529.59
3367.35 -2839.43 3530.83
3366.09 -2838.8 3530.96
3365.34 -2838.81 3530.87
3364.76 -2839.41 3530.57
3363.41 -2840.76 3529.53
3362.56 -2841.78 3528.52
3363.54 -2843.3 3527.02
3363.91 -2840.44 3529.8
3363.56 -2845.23 3524.51
3364.28 -2844.88 3523.99
3364.87 -2844.87 3523.53
3361.51 -2846.02 3525.78
3360.94 -2847.52 3526.15
3361.13 -2846.85 3526
3360.49 -2847.84 3526.65
3360.07 -2848.52 3527.31
3360.27 -2848.18 3526.95
3362.97 -2845.92 3524.81
3360.94 -2850.18 3525.98
3361.25 -2850.42 3525.28
3362.28 -2850.71 3523.7
3361.67 -2850.23 3524.81
3362.15 -2849.79 3524.29
3368.65 -2841.9 3529.95
3368.05 -2840.43 3530.56
3368.36 -2841.2 3530.26
3364.59 -2840.01 3530.17
3362.75 -2842.31 3527.98
3364.57 -2844.05 3525.89
3364.42 -2843.79 3526.4
3364.34 -2845.58 3523.41
3364.92 -2844.28 3524.83
3365.39 -2844.46 3523.85
3365.64 -2845.13 3522.7
3363.64 -2845.84 3524.02
3364.36 -2846.05 3523.07
3362.47 -2846.93 3524.71
3362.22 -2847.37 3524.86
3361.82 -2849.06 3524.93
3362.05 -2848.13 3524.9
3361.5 -2849.43 3525.28
3361.13 -2849.55 3525.7
3363.73 -2849.03 3522.34
3362.81 -2849.37 3523.56
3364.65 -2848.24 3521.47
3362.5 -2848.65 3524.27
3365.62 -2847.51 3520.82
3367.97 -2841.96 3530
3368.53 -2842.4 3529.61
3367 -2839.89 3530.68
3365.56 -2839.46 3530.59
3365.27 -2839.83 3530.36
3364.51 -2840.54 3529.76
3364.15 -2840.88 3529.53
3363.16 -2841.9 3528.47
3364.11 -2843.48 3526.94
3363.34 -2842.68 3527.64
3365.43 -2845.74 3522.27
3365.51 -2846.4 3521.71
3365.92 -2845.43 3522.05
3365.17 -2844.3 3525.41
3366.11 -2844.49 3523.05
3366.11 -2844.32 3523.65
3364.45 -2846.68 3522.57
3363.18 -2847.18 3523.95
3362.7 -2847.66 3524.34
3363.17 -2846.54 3524.14
3363.98 -2846.99 3523.05
3363.97 -2847.81 3522.74
3363.28 -2848.27 3523.51
3367.38 -2840.94 3530.43
3366.49 -2840.36 3530.49
3365.19 -2840.33 3530.09
3364.2 -2841.35 3529.15
3363.92 -2841.76 3528.77
3363.56 -2842.33 3528.13
3364.01 -2842.99 3527.58
3364.96 -2844.06 3526.32
3364.74 -2843.67 3527.05
3365.75 -2844.32 3524.53
3367.61 -2842.29 3529.85
3367.87 -2842.86 3529.36
3367.49 -2841.46 3530.25
3366.02 -2840.68 3530.29
3366.8 -2841.43 3530.24
3365.65 -2841.37 3529.84
3365.31 -2841.98 3529.39
3363.98 -2842.2 3528.44
3364.4 -2842.9 3527.92
3366.9 -2844.01 3523.66
3365.45 -2844.1 3526.18
3365.82 -2843.58 3527.75
3365.85 -2844.28 3525.15
3366.47 -2844.11 3524.18
3367.1 -2841.96 3530
3367.23 -2842.65 3529.56
3366.54 -2841.96 3529.88
3366.44 -2842.42 3529.55
3365.42 -2842.7 3528.77
3365.6 -2843.28 3528.19
3367.05 -2843.97 3524.15
3366.01 -2843.86 3527.25
3366.43 -2843.48 3528.42
3366.85 -2843.62 3528.13
3366.36 -2844.07 3524.91
3365.91 -2844.1 3525.72
3366.29 -2843.99 3526.67
3367.27 -2843.15 3529.1
3366.57 -2842.9 3529.15
3367.11 -2843.87 3525.56
3367.78 -2843.88 3526.75
3367.05 -2843.92 3527.57
3366.61 -2843.96 3526.13
