3611.04 -2768.25 3362.31
3609.5 -2767.36 3361.54
3612.22 -2767.5 3361.35
3610.64 -2766.76 3359.89
3608.83 -2765.26 3359.43
3606.8 -2768.24 3362.73
3607.69 -2765.51 3361.12
3607.37 -2764.21 3359.64
3613.38 -2766.47 3359.61
3613.01 -2766.15 3358.25
3610.87 -2766.26 3358.95
3607.47 -2763.82 3357.69
3606.05 -2763.15 3358.18
3605.77 -2767.55 3362.46
3602.58 -2768.96 3364.27
3603.5 -2768.56 3363.42
3605.79 -2764.79 3361.64
3605.25 -2763.66 3360.13
3604.06 -2762.83 3358.85
3600.08 -2769.4 3366.96
3598.14 -2768.78 3367.6
3601.56 -2768.82 3364.85
3613.98 -2766.38 3358.64
3613.73 -2766.02 3357.34
3611.36 -2765.79 3357.71
3613.16 -2765.54 3356.92
3608.09 -2764.31 3357.04
3614.61 -2766.61 3359.13
3604.36 -2762.88 3356.94
3602.22 -2762.86 3358.08
3601.83 -2763.06 3359.04
3604.62 -2767.34 3362.59
3602.04 -2768.61 3363.91
3601.13 -2768.5 3364.05
3602.74 -2767.31 3362.67
3603.07 -2764.75 3360.75
3602.34 -2764.08 3360.15
3601.02 -2763.56 3359.97
3600.51 -2764.07 3360.71
3600.08 -2769.04 3366.34
3597.88 -2768.12 3366.96
3597.64 -2768.32 3367.72
3597.65 -2767.61 3367.1
3599.47 -2768.36 3365.92
3600.21 -2768.15 3364.01
3614.51 -2765.86 3356.84
3615.13 -2766.02 3356.89
3613.94 -2765.32 3356.4
3611.71 -2765.2 3356.81
3608.54 -2764.23 3356.16
3613.46 -2764.89 3356.05
3605.6 -2763.01 3356.16
3615.64 -2766.31 3357.72
3602.56 -2761.76 3356.57
3600.72 -2762.05 3358.21
3599.87 -2762.54 3360.47
3598.89 -2763.3 3361.53
3601.58 -2767.25 3362.6
3601 -2766.97 3362.55
3600.34 -2766.83 3362.61
3599.83 -2764.77 3361.87
3598.24 -2764.05 3363
3597.78 -2766.07 3365.67
3598.11 -2766.63 3365.78
3597.17 -2768.1 3367.88
3597.55 -2767.04 3366.91
3599.16 -2767.08 3365.22
3599.56 -2766.16 3362.88
3614.49 -2765.38 3355.94
3615.01 -2765.67 3356.02
3614.17 -2765.02 3355.37
3612.01 -2764.6 3355.99
3608.86 -2763.89 3355.25
3606.14 -2762.72 3355.3
3612.01 -2764.24 3355.33
3613.73 -2764.57 3355.23
3603.2 -2761.1 3355.08
3615.75 -2765.97 3356.37
3600.7 -2761.45 3357.45
3599.77 -2761.82 3359.51
3598.62 -2762.47 3361.36
3598.25 -2763.18 3362.15
3597.7 -2763.9 3363.52
3597.41 -2764.43 3364.44
3597.3 -2767.3 3367.54
3596.63 -2767.83 3367.97
3597.42 -2765.9 3366.15
3596.56 -2768.29 3367.71
3614.74 -2765.34 3355.31
3615.52 -2765.68 3355.68
3614.68 -2764.54 3354.45
3614.87 -2764.94 3354.69
3609.23 -2763.67 3354.63
3606.65 -2762.34 3354.48
3604.14 -2760.7 3353.02
3609.95 -2763.77 3354.36
3614.14 -2764.14 3354.41
3602.9 -2760.46 3353.98
3601.81 -2760.99 3356.06
3616.23 -2765.97 3356.14
3599.72 -2760.96 3358.05
3599.32 -2761.85 3359.88
3597.91 -2762.3 3361.8
3597.69 -2763.15 3362.81
3597.32 -2763.79 3363.88
3596.86 -2767.02 3367.63
3596.14 -2767.58 3368.04
3615.45 -2765.39 3355.05
3615.02 -2764.05 3353.72
3615.22 -2764.44 3353.99
3609.03 -2763.34 3354.28
3606.92 -2762.16 3353.9
3605.06 -2760.58 3351.98
3603.72 -2760.26 3352.38
3612.3 -2764.22 3354.75
3609.63 -2763.4 3354
3602.57 -2760.04 3353.19
3601.97 -2760.44 3354.96
3600.42 -2760.87 3356.9
3616.1 -2765.7 3355.37
3616.67 -2765.97 3355.62
3599.17 -2760.99 3358.68
3598.56 -2761.81 3360.47
3597.31 -2762.94 3363.07
3595.79 -2767.97 3367.6
3597.2 -2765.98 3366.86
3596.98 -2764.96 3365.63
3596.36 -2766.91 3367.79
3595.79 -2766.99 3368.04
3615.62 -2765.12 3354.46
3616.15 -2765.44 3354.73
3615.77 -2764.75 3353.87
3607 -2761.97 3353.37
3607.16 -2761.86 3352.87
3608.87 -2762.91 3353.73
3605.55 -2760.71 3351.64
3604.72 -2760.3 3351.55
3603.37 -2759.99 3352.1
3610.68 -2763.9 3354.18
3610.32 -2763.62 3353.82
3613.55 -2764.18 3353.99
3614.33 -2764.04 3353.38
3601.77 -2759.91 3353.76
3602.35 -2759.74 3352.28
3600.63 -2760.61 3356.17
3599.27 -2760.65 3358.05
3616.79 -2765.94 3354.94
3598.45 -2761.45 3359.93
3597.55 -2762.03 3361.52
3596.93 -2763.37 3363.93
3596.91 -2764.08 3364.63
3595.38 -2767.42 3367.76
3596.62 -2766 3367.19
3595.3 -2766.99 3368.16
3616.1 -2765.21 3354.11
3615.11 -2763.92 3353.08
3615.66 -2764.46 3353.4
3606 -2760.95 3351.47
3607.35 -2761.79 3352.38
3606.43 -2761.04 3351.23
3608.56 -2762.53 3353.22
3604.83 -2760.13 3350.98
3603.6 -2759.9 3351.49
3612.19 -2764.2 3353.82
3609.72 -2763.26 3353.31
3610.29 -2763.64 3353.31
3601.66 -2759.56 3352.38
3600.85 -2760.2 3355.32
3601.17 -2759.7 3353.76
3602.5 -2759.62 3351.43
3599.57 -2760.49 3357.38
3598.29 -2761.06 3359.41
3616.44 -2765.74 3354.42
3617.52 -2766.29 3355.64
3597.09 -2762.42 3362.63
3596.83 -2762.92 3363.61
3595.24 -2768.08 3367.18
3595.95 -2766.03 3367.35
3596.6 -2764.92 3366.16
3616.18 -2765.02 3353.59
3614.22 -2764.11 3352.89
3615.55 -2764.18 3352.91
3616.2 -2764.79 3353.12
3605.99 -2760.72 3350.94
3607.48 -2761.67 3351.87
3609.16 -2762.94 3353.02
3605.56 -2760.37 3350.7
3605.16 -2760.09 3350.49
3603.79 -2759.81 3350.82
3604.54 -2759.93 3350.47
3612.32 -2763.9 3353.39
3611.23 -2763.89 3353.7
3610.83 -2763.92 3353.34
3613.75 -2764.17 3353.14
3601.66 -2759.4 3351.42
3600.34 -2760.1 3355.48
3602.56 -2759.5 3350.76
3616.32 -2765.5 3353.75
3617.12 -2766 3354.29
3617.44 -2766.16 3354.73
3616.77 -2765.83 3353.85
3597.27 -2761.69 3361
3596.58 -2764.13 3365.09
3594.81 -2767.58 3367.41
3594.74 -2767.18 3367.72
3595.4 -2766.06 3367.44
3616.48 -2765.26 3353.09
3615.11 -2764.03 3352.54
3616.14 -2764.55 3352.66
3605.88 -2760.35 3350.26
3606.98 -2760.97 3350.72
3606.67 -2760.72 3350.37
3606.23 -2760.36 3349.89
3605.47 -2760.05 3350.05
3603.48 -2759.66 3350.44
3609.92 -2763.51 3352.31
3609.47 -2763.2 3352.5
3610.54 -2763.79 3352.44
3601.69 -2759.28 3350.64
3600.92 -2759.52 3352.77
3597.82 -2760.74 3359.13
3618.2 -2766.51 3355.28
3617.92 -2766.32 3354.53
3616.87 -2765.93 3353.17
3596.83 -2762.28 3362.11
3596.51 -2762.62 3363.05
3596.38 -2763.4 3364.53
3594.64 -2768.13 3366.75
3595.92 -2765.02 3366.38
3596.27 -2764.26 3365.6
3616.6 -2764.99 3352.6
3614.58 -2764.35 3352.48
3613.65 -2764.34 3352.43
3612.47 -2763.57 3352.68
3605.76 -2760.01 3349.6
3607.82 -2761.63 3351.46
3606.17 -2760.06 3349.27
3608.84 -2762.61 3352.62
3604.79 -2759.87 3349.88
3603.12 -2759.51 3350.12
3603.9 -2759.64 3349.81
3611.31 -2763.83 3352.93
3610.24 -2763.69 3351.96
3602.12 -2759.29 3350.17
3601.05 -2759.4 3351.76
3600.27 -2759.64 3354.07
3599.46 -2760 3356.26
3618.84 -2766.73 3354.89
3617.41 -2766.32 3353.01
3617.67 -2766.37 3353.52
3617.97 -2766.42 3353.96
3616.67 -2765.65 3352.78
3617.12 -2766.01 3352.69
3596.2 -2763.13 3363.99
3594.49 -2767.6 3366.99
3594.85 -2766.09 3367.48
3615.64 -2764.43 3352.22
3615.08 -2764.5 3352.17
3614.24 -2764.47 3351.99
3613.61 -2764.43 3351.93
3616.27 -2764.9 3352.15
3607.03 -2760.47 3349.61
3607.34 -2760.75 3350.01
3605.34 -2759.84 3349.24
3602.68 -2759.35 3349.86
3603.26 -2759.43 3349.56
3609.5 -2763.3 3351.95
3611 -2763.85 3351.87
3601.02 -2759.34 3351.19
3600.19 -2759.48 3352.63
3598.97 -2760.11 3356.77
3618.06 -2767.22 3355.09
3618.48 -2766.84 3354.34
3618.5 -2766.77 3353.78
3617.95 -2766.69 3352.83
3617.63 -2766.4 3352.53
3618.22 -2766.73 3353.3
3616.71 -2765.45 3352.32
3596.73 -2761.31 3360.46
3595.95 -2763.74 3365.1
3593.46 -2768.52 3364.99
3594.33 -2768.63 3365.61
3594.1 -2768.26 3366.18
3594.02 -2767.86 3366.58
3594.34 -2766.76 3367.44
3595.19 -2765.04 3366.49
3595.64 -2764.34 3365.81
3615.64 -2772.85 3348.15
3616.37 -2769.55 3355.65
3617.39 -2767.47 3354.86
3614.55 -2764.6 3351.41
3612.47 -2763.89 3352.1
3611.52 -2763.71 3352.08
3606.5 -2759.74 3348.77
3605.77 -2759.79 3348.8
3606.85 -2760.13 3349.01
3606.98 -2759.49 3348.68
3608.83 -2762.61 3352.11
3604.35 -2759.62 3349.15
3610.37 -2763.74 3351.45
3602.25 -2759.24 3349.56
3600.98 -2759.28 3350.65
3601.41 -2759.25 3350.12
3600.31 -2759.42 3351.72
3599.59 -2759.57 3353.29
3599.49 -2759.76 3354.69
3598.3 -2760.34 3357.47
3618.09 -2767.2 3353.98
3618.56 -2767.1 3353.22
3618.49 -2767.05 3352.65
3618.14 -2766.8 3352.34
3616.95 -2766.16 3352.01
3597.44 -2760.76 3358.73
3596.34 -2761.51 3360.81
3596.21 -2762.11 3361.7
3595.88 -2762.81 3362.78
3595.72 -2762.94 3363.27
3595.69 -2763.59 3364.66
3593.45 -2768.42 3364.46
3592.64 -2768.04 3361.68
3593.58 -2767.32 3366.81
3593.87 -2766.77 3367.2
3594.24 -2766.06 3367.35
3616.56 -2769.96 3354.32
3616.45 -2769.79 3355.02
3617.03 -2767.69 3354.45
3616.69 -2771.55 3353.21
3616.8 -2771.73 3352.57
3615.91 -2772.65 3348.88
3616.35 -2765.35 3351.75
3615.67 -2764.77 3351.85
3615.13 -2764.67 3351.47
3614 -2764.62 3351.16
3613.43 -2764.58 3351.04
3608.23 -2761.61 3350.97
3607.73 -2760.54 3349.34
3607.46 -2760.23 3349.01
3606.63 -2759.14 3348.41
3609.08 -2763.04 3351.86
3604.86 -2759.68 3348.83
3602.8 -2759.29 3349.24
3603.95 -2759.47 3348.89
3603.26 -2759.34 3348.95
3609.9 -2763.67 3351.17
3609.54 -2763.41 3351.45
3611.56 -2763.98 3351.43
3601.74 -2759.21 3349.29
3600.52 -2759.28 3350.39
3600.21 -2759.37 3351.16
3599.86 -2759.46 3352.06
3599.14 -2759.69 3353.77
3598.81 -2759.97 3355.97
3617.73 -2767.54 3353.58
3616.72 -2765.83 3351.7
3596.71 -2761.11 3359.8
3595.91 -2762.57 3362.3
3598.24 -2760.26 3356.85
3595.47 -2763.19 3363.65
3594.05 -2768.37 3364.43
3593.45 -2768.07 3362.74
3592.95 -2767.46 3359.83
3594.45 -2768.44 3364.78
3594.97 -2768.53 3365.25
3594.13 -2768.12 3365.45
3593.33 -2767.57 3366.06
3593.29 -2766.73 3367.08
3615.21 -2772.54 3347.54
3615.43 -2772.2 3348.24
3614.82 -2772.83 3346.6
3616.71 -2770.1 3353.77
3616.8 -2767.97 3353.94
3616.46 -2768.59 3353.81
3616.85 -2770.22 3353.24
3616.82 -2772.15 3351.51
3614.88 -2764.72 3350.89
3614.36 -2764.7 3350.63
3612.41 -2764.17 3351.62
3615.81 -2765.07 3351.35
3616.14 -2765.46 3351.26
3606.07 -2759.55 3348.42
3608.83 -2762.64 3351.55
3610.81 -2763.86 3351.13
3602.13 -2759.19 3348.96
3600.78 -2759.23 3349.9
3601.04 -2759.2 3349.45
3601.63 -2759.17 3348.8
3617.44 -2767.77 3353.16
3617.9 -2767.57 3352.49
3616.78 -2766.66 3351.79
3595.76 -2762.32 3361.83
3595.17 -2763.43 3364.03
3595.12 -2764.21 3365.42
3594.05 -2768.11 3363.37
3593.58 -2767.51 3360.89
3593.25 -2767.65 3365.55
3592.94 -2767.24 3365.94
3593.47 -2765.75 3367.09
3594.42 -2764.9 3366.39
3614.12 -2772.65 3345.78
3614.44 -2772.31 3346.49
3616.71 -2768.82 3353.13
3616.72 -2772.29 3350.93
3617.14 -2770.23 3352.39
3616.6 -2772.45 3350.36
3616.92 -2769.13 3352.67
3616.11 -2772.3 3349.33
3615.72 -2771.98 3348.78
3613.67 -2764.4 3350.56
3612.36 -2764.33 3351.12
3615.77 -2765.38 3350.69
3605.4 -2759.59 3348.5
3608.41 -2761.66 3350.46
3604.51 -2759.45 3348.36
3603.6 -2759.31 3348.51
3602.88 -2759.26 3348.57
3610.11 -2763.82 3350.7
3609.15 -2763.16 3351.13
3608.84 -2762.65 3351.03
3611.24 -2764.1 3350.99
3600.49 -2759.22 3349.39
3601.1 -2759.15 3348.65
3600.02 -2759.26 3349.22
3599.61 -2759.36 3350.57
3599.31 -2759.5 3351.98
3599.38 -2759.42 3351.13
3597.8 -2760.51 3357.19
3617.01 -2767.88 3352.92
3617.11 -2767.38 3351.99
3616.57 -2766.09 3351.09
3616.65 -2766.91 3351.22
3616.77 -2767.49 3351.53
3595.03 -2763.01 3362.99
3595.28 -2762.82 3362.59
3595.04 -2764.03 3364.84
3594.76 -2764.47 3365.69
3593.93 -2766.89 3355.64
3594.49 -2768.16 3363.72
3594.08 -2767.55 3361.57
3594.91 -2768.29 3364.11
3593.73 -2767.26 3358.92
3595.36 -2768.37 3364.75
3594.15 -2767.85 3364.91
3592.66 -2766.48 3367
3614.8 -2772.12 3347.16
3615.01 -2771.76 3347.82
3617.26 -2770.47 3351.47
3617.18 -2769.1 3351.87
3617.18 -2770.78 3351.03
3615.56 -2771.27 3348.64
3616.17 -2765.86 3350.62
3615.15 -2765.04 3350.44
3607.69 -2760.08 3348.5
3608.04 -2760.47 3348.84
3606.85 -2759.64 3348.16
3602.39 -2759.19 3348.43
3609.5 -2763.5 3350.79
3608.43 -2761.75 3349.92
3600.28 -2759.22 3348.64
3599.53 -2759.34 3349.35
3598.69 -2759.83 3353.22
3616.99 -2767.86 3352.12
3616.67 -2767.36 3350.94
3617.05 -2768 3351.56
3616.77 -2767.85 3350.96
3595.85 -2761.75 3360.57
3594.66 -2763.5 3363.93
3593.7 -2767.18 3353.72
3594.64 -2767.81 3362.7
3594.27 -2767.21 3359.74
3595.12 -2768.12 3363.6
3594.43 -2766.79 3356.34
3594.28 -2766.91 3353.45
3592.77 -2767.27 3365.18
3593.92 -2764.94 3366.04
3594.45 -2764.45 3365.28
3615.17 -2771.07 3348.15
3613.26 -2772.5 3345.52
3613.7 -2772.29 3345.93
3614.32 -2771.74 3346.87
3613.99 -2771.69 3346.45
3616.47 -2771.93 3350.04
3617.63 -2769.16 3351.33
3616.32 -2771.5 3349.75
3615.92 -2771.21 3349.15
3615.98 -2766.1 3350.13
3614.69 -2765.17 3349.93
3614.29 -2764.64 3350.08
3615.59 -2765.57 3350.23
3615.46 -2765.87 3349.82
3604.98 -2759.7 3348.06
3606.09 -2759.51 3347.77
3605.57 -2759.68 3347.91
3603.9 -2759.31 3348.09
3610.83 -2764.09 3350.64
3609.79 -2763.75 3350.31
3609.08 -2763.07 3350.63
3600.63 -2759.28 3348.17
3599.08 -2759.53 3349.91
3599.4 -2759.41 3348.86
3598.86 -2759.72 3351.45
3598.79 -2759.66 3350.72
3598.61 -2759.87 3352.64
3597.67 -2760.65 3356.54
3616.45 -2766.7 3350.4
3617.5 -2768.38 3351.3
3617.15 -2768.24 3350.69
3595.02 -2763.08 3362.23
3595.29 -2762.67 3361.85
3594.59 -2764.11 3364.53
3594.79 -2767.48 3361.75
3594.69 -2767.06 3359.04
3595.39 -2767.93 3363.01
3595.58 -2768.27 3364.03
3594.44 -2766.77 3352.75
3593.99 -2767.28 3351.82
3592.48 -2766.96 3364.78
3594.08 -2767.52 3364.43
3592.32 -2765.93 3365.61
3592.68 -2765.72 3366.46
3593.98 -2764.67 3365.34
3614.59 -2771.25 3347.47
3615 -2770.61 3348.02
3614.17 -2771.2 3347
3617.02 -2770.83 3350.32
3617.13 -2770.44 3349.71
3616.84 -2770.16 3349.14
3616.23 -2769.92 3348.87
3615.39 -2770.61 3348.46
3615.11 -2765.5 3349.94
3614.22 -2765.14 3349.57
3613.68 -2764.31 3350
3612.35 -2764.36 3350.38
3606.42 -2759.89 3347.81
3603.27 -2759.28 3348.05
3601.76 -2759.15 3348.08
3601.12 -2759.21 3348.02
3610.25 -2764.06 3350.13
3609.36 -2763.35 3350.21
3608.9 -2762.77 3350.12
3599.93 -2759.47 3348.02
3599.05 -2759.55 3349.23
3598.05 -2760.42 3354.92
3598.4 -2760.06 3351.76
3596.56 -2761.19 3358.84
3616.53 -2767.31 3350.32
3616.64 -2767.84 3350.33
3617.84 -2768.62 3350.99
3617.47 -2768.61 3350.38
3595.33 -2762.34 3361.05
3594.22 -2763.44 3363.36
3594.6 -2763.36 3362.49
3595.07 -2767.31 3361.33
3595.15 -2766.97 3359.54
3595.14 -2766.35 3356.17
3594.79 -2766.24 3354.73
3594.62 -2766.65 3352.15
3591.96 -2766.15 3364.74
3593.38 -2764.81 3364.77
3594 -2764.46 3364.75
3594.21 -2764.08 3364.08
3615.62 -2769.68 3348.62
3615.11 -2769.49 3348.19
3614.59 -2770.48 3347.59
3613.11 -2771.96 3345.86
3612.39 -2772.4 3345.71
3612.96 -2771.44 3346.25
3613.6 -2770.91 3346.53
3614.2 -2770.64 3347.15
3618.04 -2769.33 3350.73
3617.87 -2769.03 3350.25
3617.18 -2769.02 3349.67
3616.45 -2769.11 3349.1
3616.23 -2766.76 3349.93
3615.77 -2766.48 3349.56
3614.73 -2765.71 3349.37
3615.2 -2766.09 3349.43
3607.28 -2760.31 3348.26
3606.84 -2760.14 3347.95
3604.94 -2759.85 3347.46
3602.62 -2759.26 3347.81
3610.69 -2764.31 3350.15
3609.52 -2763.75 3349.88
3599.29 -2759.56 3348.32
3600.53 -2759.5 3347.71
3598.54 -2759.8 3349.89
3598.63 -2759.84 3348.94
3598.32 -2760.04 3350.85
3597.99 -2760.5 3354.4
3616.25 -2767.41 3349.64
3616.63 -2768.29 3349.97
3594.84 -2763.26 3361.75
3593.97 -2763.85 3363.63
3594.81 -2766.12 3352.98
3595.67 -2766.96 3359.85
3596.16 -2768.21 3363.61
3595.86 -2767.71 3362.37
3595.76 -2767.22 3361.07
3594.7 -2766.56 3351.27
3595.57 -2767.85 3363.7
3594.29 -2767.4 3363.98
3592.45 -2766.24 3364.02
3592.88 -2765.02 3363.93
3616 -2768.72 3348.91
3615.55 -2768.43 3348.65
3613.03 -2770.93 3346.56
3610.66 -2772.37 3345.9
3612.17 -2771.98 3346.05
3612.51 -2771.23 3346.47
3614.65 -2769.33 3347.81
3613.89 -2769.17 3347.47
3614 -2765.54 3349.15
3613.52 -2764.8 3349.62
3615.3 -2766.71 3349.15
3608.01 -2760.54 3348.32
3605.65 -2760.07 3347.46
3603.56 -2759.54 3347.56
3610.03 -2764.4 3349.75
3608.46 -2761.91 3349.32
3609.05 -2763.27 3349.76
3599.73 -2759.7 3347.56
3600.06 -2759.86 3347.2
3598.59 -2759.94 3348.42
3599.04 -2759.79 3347.94
3598.05 -2760.16 3350.19
3597.86 -2760.48 3351.36
3616.24 -2768.15 3349.22
3595.02 -2762.78 3360.89
3594.07 -2763.7 3362.95
3596.99 -2768.25 3345.64
3595.53 -2765.85 3355.49
3595.07 -2766 3352.24
3596.2 -2767.08 3360.67
3596.13 -2766.92 3359.04
3596.33 -2767.96 3363.06
3596.19 -2767.51 3361.83
3594.85 -2766.35 3350.64
3594.92 -2767.42 3363.22
3594.08 -2767.18 3363.57
3593.12 -2764.86 3363.15
3593.69 -2764.27 3363.63
3615.78 -2768.01 3348.88
3604.98 -2771.09 3346.41
3613.4 -2768.89 3347.52
3610.56 -2771.99 3346.24
3608.62 -2771.11 3346.92
3612 -2771.5 3346.42
3610.5 -2771.52 3346.62
3611.93 -2770.83 3346.85
3612.52 -2769.05 3347.44
3614.13 -2767.06 3348.46
3614.54 -2767.7 3348.31
3615.26 -2767.84 3348.6
3615.76 -2767.19 3349.19
3614.29 -2765.98 3348.87
3614.69 -2766.36 3348.94
3612.21 -2764.64 3349.83
3613.28 -2765.21 3349.31
3615.27 -2767.3 3348.83
3608.45 -2760.81 3348.53
3605.03 -2760.34 3347.29
3606.08 -2760.41 3347.51
3602.42 -2759.66 3347.51
3601.89 -2759.35 3347.53
3600.92 -2759.58 3347.31
3601.41 -2759.43 3347.36
3610.4 -2764.81 3349.64
3599.23 -2760.11 3347.13
3598.07 -2760.19 3349.61
3598.03 -2760.31 3349.01
3597.8 -2760.45 3350.64
3597.75 -2760.91 3353.94
3596.28 -2761.76 3358.58
3594.31 -2763.75 3361.9
3594.6 -2763.47 3361.22
3597.27 -2767.99 3345.2
3595.75 -2765.32 3354.57
3595.27 -2765.61 3351.75
3596.81 -2767.07 3360.55
3596.58 -2767.38 3361.49
3596.43 -2766.4 3357.82
3596.56 -2767.7 3362.5
3595.04 -2766.32 3349.69
3595.13 -2765.84 3350.67
3592.42 -2766.12 3363.21
3592.72 -2766.05 3362.8
3594.8 -2767.19 3362.72
3593.39 -2764.66 3362.51
3604.06 -2771.28 3345.94
3607.37 -2770.77 3347.11
3604.7 -2770.62 3346.71
3603.69 -2770.67 3346.41
3613.5 -2766.61 3348.36
3612.99 -2766.92 3348.2
3610.35 -2771.05 3346.96
3612.31 -2768.41 3347.73
3611.91 -2768.93 3347.61
3610.27 -2770.42 3347.25
3614.77 -2767.05 3348.66
3614.15 -2766.5 3348.55
3613.67 -2765.78 3348.82
3606.91 -2760.69 3347.92
3603.75 -2760.09 3347.31
3605.6 -2760.71 3347.37
3609.21 -2764.04 3349.59
3609.93 -2764.9 3349.32
3608.56 -2763.09 3349.33
3599.77 -2760.21 3346.87
3598.14 -2760.41 3348.07
3597.94 -2760.49 3348.54
3598.48 -2760.28 3347.59
3597.74 -2760.61 3349.73
3597.45 -2760.95 3350.98
3594.97 -2763.19 3360.35
3596.18 -2762.37 3358.02
3594.06 -2763.98 3362.28
3596.98 -2767.81 3344.33
3596.26 -2764.15 3354.61
3595.44 -2765.31 3350.8
3595.62 -2764.96 3351.94
3597.42 -2767.11 3360.75
3596.24 -2764.95 3357.62
3594.98 -2766.94 3362.12
3595.24 -2765.75 3349.74
3595.42 -2766.02 3349.11
3596.58 -2767.72 3345.79
3592.99 -2765.12 3361.96
3593.45 -2764.68 3361.75
3593.77 -2764.31 3362
3603.1 -2771.03 3345.88
3602.68 -2771.09 3345.59
3606.29 -2770.42 3347.16
3607.26 -2770.1 3347.51
3603.04 -2770.42 3346.29
3613.41 -2766.15 3348.54
3612.61 -2766.32 3348.48
3608.38 -2770.4 3347.35
3611.25 -2766.33 3348.56
3610.82 -2768.38 3347.9
3608.76 -2769.77 3347.58
3608.13 -2769.81 3347.65
3611.45 -2765.87 3348.72
3612.84 -2765.5 3349.04
3611.9 -2764.99 3349.37
3607.44 -2760.97 3348.1
3604.91 -2760.9 3347.18
3606.41 -2760.93 3347.62
3600.39 -2760.18 3346.87
3601.12 -2759.96 3346.93
3609.44 -2764.53 3349.29
3610.44 -2765.2 3349.32
3608.78 -2763.84 3349.41
3608.1 -2762.12 3348.81
3599.07 -2760.52 3346.67
3599.54 -2760.7 3346.44
3598.41 -2760.71 3347.04
3597.64 -2760.76 3349.22
3597.54 -2761.29 3353.35
3594.58 -2763.7 3360.72
3595.73 -2762.84 3358.62
3597.06 -2762.49 3355.44
3594.11 -2764.04 3361.48
3597.31 -2767.52 3344.81
3596.7 -2767.41 3345.02
3595.54 -2763.36 3358.5
3596.42 -2763.41 3355.84
3596.85 -2763.03 3355.22
3596.91 -2762.53 3352.66
3596.46 -2763.19 3352.15
3596.09 -2763.91 3350.19
3596.18 -2763.68 3351.05
3595.99 -2766.89 3361.44
3594.54 -2763.92 3359.84
3593.9 -2764.44 3359.71
3593.08 -2765.89 3361.44
3592.72 -2765.97 3362.03
3595.53 -2765.43 3349.38
3595.7 -2766.05 3348.47
3596.21 -2764.34 3348.66
3596.1 -2764.03 3349.26
3593.49 -2764.79 3360.95
3593.88 -2764.34 3360.75
3602.19 -2771.06 3345.48
3602.03 -2770.6 3345.78
3605.26 -2769.95 3347.18
3607.16 -2769.53 3347.7
3603.95 -2769.97 3346.94
3603.48 -2769.91 3346.62
3602.38 -2770.22 3346.24
3612.59 -2765.86 3348.71
3610.25 -2766.46 3348.6
3610.25 -2765.97 3348.8
3610.28 -2768.15 3348.05
3608.46 -2769.3 3347.83
3603.63 -2760.73 3347.09
3602.39 -2760.28 3347.13
3601.67 -2759.94 3347.06
3605.72 -2761.23 3347.38
3608.71 -2764.36 3349.17
3598.53 -2761.16 3346.41
3599.17 -2761.11 3346.24
3597.85 -2760.87 3347.83
3597.49 -2761.13 3348.66
3597.39 -2761.11 3350.05
3597.17 -2761.6 3351.09
3597.04 -2767.35 3343.92
3597.01 -2767.08 3344.53
3597.26 -2761.95 3353.19
3597 -2761.98 3350.49
3597.19 -2761.56 3350.27
3596.94 -2762.13 3349.13
3596.97 -2762.03 3349.73
3593.69 -2765.73 3360.62
3593.75 -2765.42 3359.74
3594.51 -2765.27 3358.77
3596.88 -2765.24 3357.82
3593.21 -2765.04 3360.54
3595.94 -2765.89 3347.95
3596.92 -2762.41 3348.7
3597 -2762.47 3348.14
3596.39 -2766.77 3346.92
3601.62 -2770.96 3345.08
3601.38 -2770.31 3345.66
3606.4 -2769.57 3347.54
3607.46 -2769.1 3347.89
3602.95 -2769.74 3346.55
3601.88 -2770.03 3346.14
3609.69 -2766.34 3348.73
3609.36 -2768.17 3348.2
3608.65 -2768.04 3348.26
3606.82 -2761.36 3347.87
3606.22 -2761.47 3347.6
3604.45 -2761.39 3347.06
3605.34 -2761.54 3347.27
3599.9 -2761.2 3346.32
3600.48 -2761.1 3346.49
3609.23 -2765.03 3348.92
3609.82 -2765.54 3348.94
3608.23 -2763.4 3348.95
3598.86 -2761.55 3346.03
3597.83 -2761.23 3347.19
3598.05 -2761.36 3346.74
3597.18 -2761.59 3349.37
3596.49 -2766.94 3345.05
3596.07 -2766.05 3347.35
3596.32 -2764.76 3347.97
3596.94 -2762.85 3347.68
3597.15 -2761.92 3348.46
3597.24 -2762 3347.65
3596.13 -2766.79 3345.62
3601.06 -2770.64 3344.84
3600.82 -2770.03 3345.54
3605.47 -2769.05 3347.53
3604.24 -2769.24 3347.19
3606.78 -2769.15 3347.75
3603.58 -2769.25 3346.89
3602.15 -2769.67 3346.41
3601.36 -2769.69 3346.07
3609.24 -2766.75 3348.57
3607.76 -2762.31 3348.45
3603.47 -2761.33 3346.94
3602.08 -2760.94 3346.8
3601.24 -2760.92 3346.67
3605.7 -2762.02 3347.41
3599.57 -2761.63 3345.98
3600.45 -2761.59 3346.34
3608.58 -2765.08 3348.83
3608.93 -2765.55 3348.76
3608.18 -2764.04 3348.83
3598.22 -2761.57 3346.29
3597.49 -2761.52 3347.78
3597.66 -2761.7 3347.03
3597.37 -2767.04 3344.17
3597.35 -2766.56 3344.53
3596.48 -2764.73 3347.42
3597.19 -2762.4 3347.24
3596.36 -2765.98 3346.4
3596.5 -2766.36 3345.65
3600.54 -2769.63 3345.73
3600.59 -2770.15 3344.91
3604.53 -2768.81 3347.33
3606.28 -2768.71 3347.75
3605.49 -2768.5 3347.65
3607.53 -2768.12 3348.15
3600.83 -2769.31 3346.05
3608.71 -2766.44 3348.53
3600.52 -2770.4 3344.18
3602.07 -2761.45 3346.63
3601.01 -2761.52 3346.44
3605.2 -2762.08 3347.24
3599.3 -2762 3345.77
3600.03 -2762.07 3346.06
3608.24 -2765.44 3348.69
3608.21 -2765.98 3348.55
3607.94 -2763.67 3348.58
3608 -2764.6 3348.77
3598.08 -2762.05 3346.1
3598.57 -2762.24 3345.77
3597.69 -2762.32 3346.47
3597 -2766.43 3344.93
3597 -2766.07 3345.31
3596.95 -2763.39 3347.27
3596.7 -2765.85 3345.95
3596.66 -2764.78 3346.82
3599.56 -2769.54 3344.26
3599.41 -2769.29 3344.77
3599.47 -2768.8 3345.57
3607.12 -2767.82 3348.12
3606.74 -2767.43 3348.08
3608.19 -2767.02 3348.38
3602.08 -2768.98 3346.57
3602.95 -2768.79 3346.97
3599.92 -2768.4 3345.9
3599.74 -2769.85 3343.62
3604.29 -2761.9 3347.07
3606.52 -2762 3347.72
3607.35 -2762.6 3348.12
3599.41 -2762.49 3345.74
3598.86 -2762.65 3345.59
3607.64 -2765.22 3348.55
3597.89 -2762.64 3345.96
3597.43 -2762.7 3346.72
3597.59 -2763.19 3345.99
3597.47 -2766.11 3344.76
3597.05 -2763.63 3346.78
3598.64 -2768.87 3343.8
3598.55 -2768.75 3344.34
3598.87 -2769.09 3343.29
3598.42 -2768.59 3344.92
3598.68 -2768.33 3345.29
3606.24 -2767.25 3347.97
3603.45 -2768.19 3347.14
3601.45 -2768.42 3346.46
3602.43 -2768.37 3346.85
3599.1 -2767.95 3345.53
3601.72 -2762.22 3346.36
3600.92 -2762.49 3346.11
3602.77 -2761.85 3346.69
3605.02 -2762.7 3347.23
3605.73 -2762.66 3347.45
3599.26 -2762.98 3345.62
3598.62 -2763.31 3345.39
3599.8 -2762.94 3345.77
3607.56 -2765.77 3348.44
3607.6 -2764.15 3348.4
3598.1 -2763.21 3345.65
3597.05 -2764.7 3346.03
3597.55 -2767.96 3343.31
3597.1 -2765.63 3345.53
3598.35 -2767.94 3345.14
3604.93 -2767.05 3347.6
3602.34 -2767.72 3346.83
3601.77 -2767.98 3346.63
3600.35 -2767.45 3345.96
3599.38 -2767.53 3345.6
3598.55 -2768.78 3342.87
3600.27 -2764.24 3345.82
3599.79 -2764.26 3345.64
3603.73 -2762.42 3346.95
3600.34 -2762.84 3345.93
3607.01 -2763.2 3347.97
3598.35 -2764.25 3345.15
3597.81 -2764.43 3345.1
3598.88 -2764.1 3345.28
3607.14 -2765.15 3348.31
3597.38 -2764.57 3345.6
3597.62 -2767.47 3343.75
3597.79 -2766.76 3344.33
3597.39 -2765.52 3345.05
3598.15 -2768.4 3344.38
3598.24 -2768.49 3343.76
3598.03 -2768.05 3344.76
3598.54 -2767.44 3345.2
3602.49 -2767.05 3346.88
3604.73 -2766.45 3347.52
3606.78 -2765.54 3348.14
3600.79 -2766.68 3346.07
3599.59 -2766.72 3345.47
3598.82 -2767.01 3345.35
3599.23 -2765.86 3345.47
3601.61 -2763.85 3346.32
3602.27 -2764.13 3346.55
3604.2 -2763.4 3347.07
3604.73 -2763.29 3347.19
3599.85 -2765.68 3345.7
3598.72 -2765.66 3345.14
3605.66 -2763.17 3347.48
3598.03 -2765.57 3344.88
3603.66 -2764.89 3347.03
3601.69 -2765.84 3346.43
3605.2 -2764.58 3347.49
3601.23 -2766.14 3346.21
3598.87 -2766.32 3345.32
3606.36 -2763.74 3347.79
3598.04 -2767.75 3343.55
3597.99 -2766.19 3344.6
3598.24 -2767.46 3344.69
3598.04 -2767.89 3344.21
3598.49 -2766.39 3344.97
3598.07 -2767.21 3344.07
3598.47 -2766.86 3344.8
