3386.44 -2831.03 757.053
3385.96 -2831.13 756.715
3387.48 -2830.51 756.964
3386.99 -2830.7 756.914
3386.86 -2829.64 754.923
3385.69 -2831.05 756.23
3384.69 -2832.26 757.5
3387.55 -2829.29 754.869
3388.2 -2829.98 756.38
3388.99 -2828.87 753.879
3388.28 -2828.89 754.036
3386.26 -2829.76 754.356
3386.73 -2829.33 753.915
3387.34 -2828.99 754.027
3384.13 -2832.43 757.044
3388.33 -2828.67 753.2
3389 -2828.63 753.088
3387.74 -2828.68 753.251
3387.1 -2829.02 753.531
3385.11 -2831.2 755.629
3383.65 -2832.78 757.131
3384.77 -2831.33 755.227
3388.43 -2828.52 752.589
3389.3 -2828.52 752.399
3387.87 -2828.55 752.58
3387.23 -2828.81 752.94
3385.83 -2829.88 753.678
3386.26 -2829.56 753.421
3386.64 -2829.23 753.139
3383.65 -2832.62 756.39
3388.72 -2828.46 752.032
3388.2 -2828.49 752.09
3389.37 -2828.4 751.356
3387.66 -2828.51 751.966
3386.77 -2829.01 752.384
3387.1 -2828.73 751.952
3383.28 -2832.96 756.156
3384.44 -2831.52 754.697
3385.35 -2830.23 752.94
3385.86 -2829.77 752.594
3388.64 -2828.46 751.306
3387.98 -2828.52 751.173
3389.82 -2828.35 749.582
3387.36 -2828.59 751.37
3386.22 -2829.43 752.368
3386.54 -2829.1 751.928
3386.78 -2828.94 751.283
3387.03 -2828.84 750.822
3382.92 -2833.38 756.064
3384.06 -2831.88 754.261
3385.14 -2830.54 752.399
3386.04 -2829.56 751.555
3389.18 -2828.36 750.216
3388.43 -2828.49 749.696
3390.56 -2828.25 744.338
3390.13 -2828.3 745.157
3387.54 -2828.71 749.863
3386.47 -2829.19 750.611
3386.99 -2829.06 749.051
3387.43 -2828.85 748.816
3385.01 -2830.81 751.612
3385.48 -2830.26 751.348
3385.83 -2829.9 751.055
3386.21 -2829.92 748.232
3386.33 -2829.68 748.664
3389.84 -2828.32 746.374
3389.69 -2828.33 745.794
3389.26 -2828.36 746.915
3389.35 -2828.51 743.278
3388.86 -2828.5 745.674
3390.23 -2828.35 742.332
3390.79 -2828.41 740.432
3388.17 -2828.71 745.528
3387.17 -2829.18 746.398
3387.9 -2828.9 744.533
3387.86 -2829.08 743.138
3383.7 -2832.41 753.92
3384.61 -2831.41 751.321
3385.22 -2831.13 748.643
3385.57 -2830.67 748.675
3387.22 -2829.59 742.592
3387.39 -2829.38 743.275
3389.79 -2828.44 742.718
3390.33 -2828.44 740.032
3389.36 -2828.66 740.718
3389.92 -2828.6 738.763
3390.73 -2828.52 738.138
3388.93 -2828.77 741.47
3388.49 -2828.9 741.889
3387.84 -2829.38 740.843
3388.62 -2829.19 738.186
3383.62 -2832.66 753.244
3384.78 -2831.75 748.51
3385.78 -2831.22 742.68
3386.26 -2830.6 742.478
3386.64 -2830.19 742.513
3387.84 -2829.91 737.027
3387.23 -2830.48 736.974
3389.48 -2828.88 737.273
3389.93 -2828.77 736.478
3390.13 -2828.77 735.965
3389.05 -2829.05 737.53
3388.84 -2829.45 735.206
3389.45 -2829.13 735.029
3383.4 -2833.09 753.045
3384.27 -2832.51 748.411
3385.31 -2831.96 742.305
3386.55 -2831.25 736.91
3386.17 -2831.61 737.423
3386.88 -2830.83 737.046
3388.95 -2829.53 733.975
3388.49 -2829.89 733.796
3388.03 -2830.27 733.497
3387.61 -2830.74 733.303
3390.97 -2828.69 735.177
3390.17 -2828.79 734.927
3389.91 -2828.93 733.828
3383.78 -2833.28 747.817
3384.78 -2832.74 742.403
3385.91 -2832.14 736.717
3387.23 -2831.21 732.907
3386.87 -2831.7 732.69
3389.32 -2829.27 731.04
3388.96 -2829.56 730.614
3388.54 -2829.94 730.287
3388.16 -2830.33 729.736
3391.23 -2828.6 734.14
3390.52 -2828.7 733.935
3390.04 -2828.79 731.114
3390.61 -2828.42 731.299
3386.66 -2832.05 732.074
3386.51 -2832.38 731.269
3387.84 -2830.7 729.267
3387.59 -2831.06 728.521
3390.01 -2828.86 725.289
3390.26 -2828.62 726.193
3389.56 -2829.25 725.277
3390.66 -2828.32 725.891
3389.19 -2829.61 724.816
3388.8 -2829.99 724.526
3391.1 -2828.23 731.945
3390.93 -2828.14 726.626
3391.66 -2827.71 726.455
3387.4 -2831.37 728.029
3387.19 -2831.79 727.448
3388.57 -2830.28 724.056
3388.39 -2830.55 723.608
3390.71 -2828.35 722.145
3390.15 -2828.8 721.788
3390.48 -2828.5 721.189
3391.31 -2827.89 722.216
3391.08 -2828.06 721.451
3389.54 -2829.4 721.684
3392.36 -2827.57 729.393
3391.76 -2827.69 729.216
3391.53 -2827.77 723.169
3391.93 -2827.53 722.134
3387.99 -2831.21 722.836
3389.04 -2829.98 721.161
3390.98 -2827.81 718.278
3390.3 -2828.34 718.468
3390.65 -2827.99 717.918
3389.76 -2828.82 718.266
3391.71 -2827.6 721.199
3391.71 -2827.3 718.423
3389.3 -2829.33 718.109
3392.62 -2827.38 726.135
3392.34 -2827.37 723.48
3392.48 -2826.82 718.438
3392.88 -2827.03 721.512
3393.25 -2826.46 718.551
3388.2 -2831.23 720.832
3388.56 -2830.58 720.69
3388.43 -2830.89 720.228
3388.87 -2829.83 717.489
3391.82 -2826.77 714.73
3391.36 -2827.09 714.559
3390.78 -2827.58 715.075
3390.23 -2828.09 714.622
3392.13 -2826.96 717.967
3392.3 -2826.42 714.25
3389.74 -2828.57 715.27
3389.56 -2828.77 714.673
3392.89 -2827.12 722.63
3392.91 -2826.12 714.739
3393.37 -2825.87 714.262
3393.6 -2826.38 719.002
3388.12 -2831.54 720.186
3388.54 -2830.51 717.281
3389.15 -2829.32 714.105
3392.11 -2826.48 712.22
3392.9 -2825.96 710.824
3391.37 -2827.04 712.508
3392.26 -2826.41 710.167
3390.99 -2827.38 712.15
3390.16 -2828.18 713.191
3390.77 -2827.67 711.453
3393.4 -2825.62 710.039
3389.79 -2828.67 712.536
3394.02 -2826.41 719.944
3394.48 -2826.38 720.315
3395.76 -2825.53 715.848
3393.55 -2825.57 710.906
3393.98 -2825.31 710.373
3394.43 -2825.06 709.928
3394.14 -2825.62 714.67
3388.41 -2831.08 717.085
3388.89 -2829.77 714.212
3388.9 -2830.07 713.505
3389.4 -2829.17 712.53
3389.7 -2828.89 711.644
3392.94 -2825.94 708.954
3393.38 -2825.6 708.644
3392.18 -2826.53 709.297
3392.9 -2826.01 708.106
3390.67 -2827.9 710.569
3391.79 -2826.99 708.628
3394.04 -2825.22 708.727
3390.47 -2828.21 710.193
3395.07 -2825.52 715.587
3394.67 -2825.56 715.26
3396.58 -2824.75 711.138
3394.57 -2824.93 708.572
3395.07 -2824.7 708.665
3395.03 -2824.86 710.26
3388.37 -2831.62 717.129
3388.69 -2830.8 713.577
3389.34 -2829.49 711.916
3389.34 -2829.86 711.056
3389.13 -2830.26 711.672
3389.62 -2829.28 710.528
3390.2 -2828.84 709.238
3393.96 -2825.28 707.631
3393.2 -2825.79 707.521
3392.53 -2826.41 707.559
3391.55 -2827.29 708.134
3392.3 -2826.7 707.219
3394.62 -2824.88 707.811
3391.2 -2827.74 707.974
3390.9 -2828.23 707.885
3396.04 -2824.75 710.946
3395.83 -2824.67 710.463
3397.55 -2824.41 709.26
3396.85 -2824.35 709.086
3395.05 -2824.67 707.965
3395.5 -2824.45 708.04
3395.75 -2824.44 708.983
3388.43 -2831.93 716.435
3388.87 -2831.02 712.219
3389.66 -2829.65 709.768
3389.85 -2829.82 708.813
3389.47 -2830.4 709.769
3390.23 -2829.2 708.406
3390.71 -2828.72 707.519
3394.18 -2825.17 706.989
3393.72 -2825.48 706.972
3393.29 -2825.79 706.967
3392.77 -2826.31 706.832
3391.91 -2827.12 707.06
3392.5 -2826.64 706.498
3394.99 -2824.7 707.41
3394.81 -2824.82 706.788
3391.55 -2827.61 706.903
3391.21 -2828.25 706.74
3397.12 -2824.22 708.221
3396.26 -2824.32 708.546
3396.43 -2824.24 708.012
3397.62 -2824.17 708.156
3395.65 -2824.38 707.43
3388.98 -2831.08 711.468
3389.42 -2830.85 709.486
3390.34 -2829.38 707.694
3389.9 -2830.05 708.306
3390.7 -2829.11 706.924
3390.93 -2828.82 706.584
3394.25 -2825.18 706.486
3393.77 -2825.52 706.424
3392.89 -2826.3 706.317
3392.19 -2827.13 706.177
3392.63 -2826.7 705.955
3395.28 -2824.58 706.99
3391.84 -2827.67 705.968
3391.49 -2828.35 705.801
3396.78 -2824.2 707.63
3397.6 -2824.17 707.63
3395.76 -2824.36 706.925
3389.37 -2831.29 709.063
3389.81 -2830.86 707.983
3390.26 -2829.91 707.094
3390.58 -2829.74 706.414
3391.05 -2828.98 706.115
3394.76 -2824.98 705.976
3393.44 -2825.82 706.189
3394 -2825.48 705.869
3392.37 -2827.18 705.563
3395.24 -2824.74 706.123
3392.06 -2827.72 705.3
3391.47 -2828.74 705.452
3391.81 -2828.25 705.203
3396.74 -2824.21 707.018
3396.27 -2824.27 706.794
3397.63 -2824.16 707.06
3395.78 -2824.41 706.418
3390.26 -2830.63 706.682
3390.87 -2829.55 705.956
3390.92 -2829.78 705.5
3394.54 -2825.18 705.48
3393.64 -2825.83 705.692
3393.31 -2826.24 705.392
3392.97 -2826.75 705.049
3397.4 -2824.14 706.584
3390.42 -2830.98 705.792
3393.8 -2825.89 705.178
3394.26 -2825.72 704.804
3393.4 -2826.53 704.764
3392.4 -2827.64 704.785
3392.84 -2827.17 704.684
3395.24 -2824.96 705.327
3395.78 -2824.6 705.731
3391.68 -2829.01 704.813
3391.28 -2829.7 704.944
3391.95 -2828.55 704.664
3392.24 -2828.1 704.521
3396.9 -2824.24 706.434
3396.23 -2824.4 706.008
3390.85 -2830.67 705.036
3391.38 -2830.03 704.51
3394.85 -2825.26 704.986
3394.3 -2825.96 704.365
3393.16 -2827.17 704.206
3393.61 -2826.63 704.312
3391.67 -2829.45 704.512
3397.96 -2824.29 706.242
3395.58 -2825.15 704.668
3393.05 -2827.6 703.955
3395.93 -2824.82 705.029
3396.41 -2824.48 705.484
3392.19 -2828.98 703.971
3392.48 -2828.45 703.89
3397.19 -2824.3 705.847
3395.09 -2825.42 704.518
3394.63 -2826.07 704.002
3394.09 -2826.78 703.699
3393.65 -2827.27 703.665
3392.09 -2829.49 703.806
3392.41 -2829.22 703.525
3392.96 -2828.18 703.574
3397.75 -2824.34 705.454
3395.65 -2825.44 704.194
3395.29 -2825.83 703.944
3396.44 -2825.1 704.386
3394.64 -2826.66 703.411
3393.44 -2827.87 703.382
3396.78 -2824.76 704.816
3397.12 -2824.4 705.28
3392.8 -2829.1 703.12
3392.9 -2828.6 703.262
3395.4 -2826.21 703.629
3396.09 -2825.55 703.951
3394.01 -2827.45 703.243
3394.45 -2827.14 703.161
3396.9 -2825.19 704.125
3395.08 -2826.87 703.133
3394.17 -2827.89 702.936
