3693.76 -2800.02 1344.54
3693.79 -2799.56 1340.03
3693.07 -2799.81 1345.49
3693.26 -2799.42 1340.81
3691.21 -2798.5 1337.61
3691.74 -2798.88 1339.44
3694.97 -2801.1 1348.49
3695.13 -2800.82 1344.05
3694.8 -2800.65 1344.48
3695.37 -2800.95 1343.38
3696.31 -2802.25 1342.83
3696.21 -2801.29 1338.8
3696.09 -2801.35 1340.21
3696.41 -2802.07 1340.86
3696.38 -2801.49 1337.79
3694.05 -2800.29 1345.38
3694.6 -2799.9 1340.18
3694.09 -2799.53 1338.53
3692.41 -2798.65 1336.35
3692.53 -2798.51 1335.2
3689.44 -2796.91 1334.41
3690.08 -2797.9 1336.98
3689.05 -2796.66 1333.68
3686.27 -2795.4 1335.52
3695.38 -2801.43 1347.05
3695.86 -2801.22 1341.72
3694.68 -2800.29 1342.65
3694.37 -2800.66 1347.17
3695.07 -2800.08 1339.61
3695.46 -2800.28 1339.31
3696.49 -2801.87 1338.64
3696.46 -2801.69 1336.91
3695.94 -2800.78 1338.6
3696 -2801.63 1342.82
3696.12 -2800.98 1337.86
3696.26 -2801.24 1337.07
3696.3 -2801.45 1336.35
3695.67 -2801.44 1344.38
3694.73 -2799.72 1338.16
3694.15 -2799.39 1336.76
3693.45 -2798.97 1335.66
3691.39 -2797.79 1333.23
3688.87 -2796.57 1332.92
3695.02 -2799.79 1337.56
3694.71 -2799.65 1336.81
3695.42 -2799.99 1337.18
3696.34 -2801.68 1335.8
3695.81 -2800.46 1337.26
3696.11 -2800.92 1336.48
3696.15 -2801.04 1335.79
3694.14 -2799.27 1335.59
3693.11 -2798.72 1334.3
3691.13 -2797.64 1332.29
3688.73 -2796.6 1330.75
3694.91 -2799.74 1336.22
3695.46 -2800.01 1336.1
3695.79 -2800.43 1335.99
3695.98 -2800.79 1335.23
3696.01 -2801.08 1334.81
3696.14 -2801.56 1334.9
3693.67 -2798.94 1334.23
3691.99 -2798.15 1332.54
3689.54 -2796.99 1330.4
3694.76 -2799.52 1334.95
3695.22 -2799.89 1335.08
3694.91 -2799.64 1334.44
3695.6 -2800.31 1335.05
3695.78 -2800.71 1334.48
3695.67 -2800.8 1333.95
3695.97 -2801.49 1334.24
3692.56 -2798.44 1332.72
3690.1 -2797.3 1330.21
3694.34 -2799.28 1333.84
3693.15 -2798.72 1332.93
3695.28 -2800.13 1334.02
3695.4 -2800.5 1333.59
3695.64 -2801.07 1333.51
3690.53 -2797.57 1330.09
3693.61 -2798.95 1332.95
3691.06 -2797.86 1330.23
3694.77 -2799.73 1333.33
3694 -2799.26 1332.85
3695.07 -2800.13 1333.37
3694.79 -2800.33 1332.39
3695.16 -2800.67 1332.75
3695.49 -2801.15 1333.02
3691.52 -2798.11 1330.33
3689.77 -2797.54 1327.84
3694.61 -2799.84 1332.7
3691.99 -2798.39 1330.54
3690.42 -2797.92 1328.21
3692.62 -2798.96 1330.56
3693.1 -2799.49 1330.49
