3677.58 -2782.37 390.305
3677.14 -2782.11 390.494
3677.41 -2782.35 391.823
3676.96 -2782.17 392.111
3676.73 -2782.09 387.719
3676.6 -2781.84 390.57
3676.51 -2782 392.303
3676.23 -2781.77 388.547
3676.08 -2781.94 384.078
3676.09 -2781.71 391.249
3675.62 -2781.5 388.844
3675.35 -2781.59 383.748
3676.12 -2782.13 380.958
3675.38 -2781.44 390.343
3675.63 -2781.63 392.155
3674.76 -2781.34 383.508
3674.8 -2781.21 387.259
3675.75 -2781.8 378.742
3676.59 -2782.08 376.431
3677.06 -2782.43 378.446
3677.01 -2782.11 371.887
3677.71 -2782.51 372.395
3678.72 -2782.95 368.996
3677.64 -2782.33 369.126
3678.4 -2782.77 367.994
3675.09 -2781.39 391.015
3674.27 -2781.05 387.538
3674.25 -2781.13 383.474
3675.2 -2781.57 378.969
3676.44 -2781.83 371.656
3676.05 -2781.71 372.638
3676.73 -2781.86 368.837
3677.17 -2782.11 368.008
3677.98 -2782.6 367.157
3674.41 -2781.17 390.154
3674.38 -2781.49 393.91
3673.88 -2780.96 383.775
3673.81 -2780.89 386.758
3674.61 -2781.33 379.64
3675.52 -2781.62 375.601
3675.98 -2781.51 368.764
3675.53 -2781.47 371.383
3676.3 -2781.7 367.722
3676.59 -2781.9 367.205
3677.21 -2782.3 366.605
3673.85 -2781.04 389.867
3674.22 -2781.19 379.206
3675.18 -2781.21 368.78
3675.44 -2781.31 367.682
3675.69 -2781.51 366.903
3676.06 -2781.77 366.349
3676.64 -2782.21 365.665
3673.15 -2780.85 388.542
3673.29 -2780.78 383.686
3673.93 -2781.15 378.402
3674.59 -2781.41 374.841
3673.2 -2780.68 386.3
3674.6 -2781.24 371.445
3674.54 -2781.07 368.837
3674.64 -2781.09 367.547
3674.84 -2781.24 366.649
3675.13 -2781.44 365.982
3675.39 -2781.72 365.301
3672.77 -2780.69 386.74
3674.03 -2781.31 374.772
3673.89 -2780.93 368.576
3674.08 -2780.99 367.444
3674.15 -2781.1 366.405
3674.38 -2781.29 365.7
3674.58 -2781.52 365.076
3672.74 -2780.81 383.503
3673.22 -2781.08 378.309
3673.72 -2781.1 371.554
3673.34 -2780.84 368.632
3672.96 -2781.09 377.74
3673.31 -2780.86 367.509
3673.65 -2780.93 367.093
3673.89 -2781.15 365.74
3674.01 -2781.38 365.003
3672.91 -2780.99 370.983
3672.76 -2780.79 368.44
3673.2 -2780.91 366.575
3673.34 -2781.03 365.755
3672.39 -2780.8 367.483
3672.69 -2780.88 366.613
