3786.82 -2928.53 2595.92
3787.04 -2928.8 2595.24
3787.19 -2928.88 2594.32
3786.39 -2927.34 2594.49
3786.74 -2927.49 2593.13
3785.65 -2925.77 2591.44
3784.57 -2923.5 2585.96
3783.98 -2921.93 2582.14
3787.65 -2929.94 2592.81
3787.41 -2929.06 2592.52
3787.3 -2928.87 2593.25
3786.75 -2927.27 2591.84
3786.78 -2927.18 2590.63
3785.74 -2925.61 2590.34
3786.15 -2926.31 2591.58
3786.24 -2926.23 2590.64
3786.21 -2925.81 2588.5
3787.68 -2930.27 2589.57
3787.3 -2928.66 2588.35
3784.82 -2923.56 2585.48
3784.12 -2921.7 2580.52
3783.5 -2921.09 2579.95
3783.19 -2920.65 2579.02
3783.69 -2920.71 2577.56
3787.12 -2927.99 2588.9
3786.82 -2927.13 2589.04
3786.66 -2926.49 2585.56
3786.26 -2925.6 2586.67
3786.3 -2925.5 2585.11
3785.49 -2924.4 2586.26
3784.89 -2923.16 2583.73
3785.52 -2924.02 2584.46
3785.46 -2923.62 2582.33
3787.03 -2927.97 2584.94
3786.91 -2927.97 2582.71
3786.89 -2928.68 2580.57
3786.57 -2926.24 2583.11
3786.45 -2926.08 2580.21
3783.98 -2920.59 2575.62
3783.73 -2920.25 2574.99
3782.93 -2920.27 2577.87
3782.71 -2920.05 2577.22
3783.2 -2919.76 2574.82
3783.47 -2919.62 2572.78
3786.12 -2924.91 2582.24
3786.02 -2924.65 2579.49
3785.55 -2923.66 2581.23
3785.57 -2923.55 2579.33
3784.82 -2922.47 2580.77
3784.33 -2921.34 2577.62
3784.8 -2922.11 2578.38
3784.88 -2922.03 2576.65
3786.46 -2926.45 2577.94
3786.49 -2927.15 2576.32
3786.42 -2927.96 2574.16
3785.96 -2924.63 2576.43
3785.83 -2924.69 2573.46
3783.96 -2920.18 2572.68
3783.75 -2919.86 2572.04
3783.56 -2919.56 2571.56
3782.5 -2919.71 2576.11
3782.81 -2919.36 2574.06
3782.66 -2919.03 2573.06
3783.29 -2919.35 2571.99
3783.06 -2919.08 2568.75
3785.49 -2923.27 2576.29
3785.4 -2923.12 2573.62
3785.06 -2922.32 2576.04
3785.05 -2922.2 2573.81
3784.35 -2920.98 2575.19
3784.34 -2920.74 2572.82
3784.48 -2920.98 2572.21
3785.98 -2925.73 2572.35
3785.91 -2926.62 2569.89
3785.26 -2923.1 2570.67
3785.4 -2924.35 2568.41
3784.97 -2923.13 2566.35
3784.05 -2920.2 2571.56
3783.48 -2919.39 2568.28
3783.59 -2919.52 2567.78
3783.11 -2919.1 2567.55
3782.29 -2919.4 2575
3782.49 -2918.87 2572.25
3782.74 -2918.92 2571.3
3782.13 -2918.61 2568.66
3782.63 -2918.81 2567.18
3782.56 -2918.8 2568.27
3782.34 -2918.69 2567.59
3782.65 -2918.55 2562.61
3784.86 -2921.87 2570.92
3784.79 -2922.03 2568.2
3784.6 -2921.22 2571.61
3784.4 -2920.98 2568.33
3783.98 -2920.14 2568.2
3784.09 -2920.4 2567.17
3785.32 -2925.17 2565.84
3784.57 -2921.97 2564.39
3784.74 -2923.39 2562.13
3784.32 -2922.1 2559.27
3783.05 -2918.81 2561.83
3782.23 -2918.8 2571.76
3781.83 -2918.48 2567.76
3782.12 -2918.57 2567.12
3781.59 -2917.99 2562.38
3782.46 -2918.38 2562.1
3782.25 -2918.16 2561.12
3781.97 -2918.06 2561.63
3782.23 -2917.91 2558.02
3784.33 -2921.1 2565.4
3784.18 -2920.96 2562.06
3783.85 -2920.15 2562.31
3783.52 -2919.46 2562.31
3783.56 -2919.55 2560.97
3784.76 -2924.56 2559.38
3784.07 -2921.14 2558.68
3784.37 -2923.3 2555.74
3783.8 -2921.56 2553.22
3784 -2922.49 2552.39
3782.61 -2918.24 2557.31
3782.87 -2918.5 2557.87
3781.76 -2917.9 2561.17
3781.06 -2917.22 2557.77
3781.78 -2917.63 2557.97
3781.59 -2917.51 2556.39
3781.43 -2917.4 2557.37
3781.97 -2917.75 2555.38
3783.74 -2920.08 2559.2
3783.7 -2920.53 2556.23
3783.32 -2919.42 2556.66
3783.35 -2920.85 2550.42
3782.48 -2918.39 2553.97
3782.26 -2918.2 2553.46
3782.17 -2917.98 2554.54
3782.71 -2918.55 2554.96
3781.24 -2917.34 2555.16
3781.39 -2917.49 2553.78
3781.83 -2917.87 2552.52
3781.51 -2917.77 2551.68
3781.01 -2917.7 2549.83
3783.32 -2919.97 2554.09
3782.87 -2919.78 2549.8
3782.9 -2919.36 2552.54
3782.7 -2919.05 2552.05
3783.02 -2920.33 2548.4
3782.42 -2918.87 2550.51
3782.07 -2918.68 2549.22
3781.75 -2918.19 2550.01
3782.55 -2919.57 2547.54
3782.3 -2919.37 2546.77
