3542.43 -2771.86 554.122 
3531.57 -2769.44 565.023 
3531.52 -2770.84 558.802 
3529.27 -2770.54 557.041 
3525.4 -2770.78 556.004 
3525.9 -2769.31 552.519 
3532.98 -2770.66 559.42 
3532.58 -2770.82 558.976 
3533.57 -2770.08 559.739 
3535.14 -2770.64 560.408 
3536.29 -2771.31 560.014 
3538.51 -2772.32 558.529 
3537.8 -2772.01 559.008 
3534.42 -2770.14 560.058 
3536.17 -2768.93 565.557 
3543.57 -2771.61 552.548 
3545.36 -2771.76 550.546 
3531.26 -2768.75 563.319 
3531.48 -2769.06 564.241 
3530.33 -2770.6 557.62 
3527.73 -2768.95 552.855 
3526.66 -2768.66 551.688 
3523.83 -2771.23 557.004 
3524.62 -2770.6 554.974 
3525.01 -2768.76 550.769 
3526.2 -2768.02 550.012 
3533.32 -2770.29 559.294 
3533.24 -2770.73 558.949 
3532.2 -2770.69 558.287 
3532.86 -2770.81 558.553 
3531.37 -2770.58 557.967 
3535.97 -2770.82 560.11 
3536.87 -2771.19 559.421 
3537.58 -2771.56 558.96 
3539.53 -2772.04 557.29 
3538.23 -2771.83 558.45 
3535.5 -2770.36 559.986 
3535.43 -2769.99 559.597 
3535.6 -2766.63 565.307 
3535.38 -2766.44 564.883 
3544.53 -2771.47 551.238 
3541.74 -2771.41 554.422 
3544.95 -2771.16 550.381 
3545.5 -2770.89 549.299 
3529.52 -2769.96 555.785 
3528.2 -2768.21 551.956 
3527.63 -2767.78 550.648 
3527.04 -2767.8 550.151 
3523.08 -2770.94 555.952 
3524.18 -2770.05 553.219 
3524.78 -2768.26 549.476 
3525.66 -2767.97 549.439 
3533.61 -2770.43 558.733 
3533.33 -2770.77 558.381 
3530.21 -2770.06 556.271 
3533.87 -2769.61 559.418 
3536.4 -2770.55 559.474 
3535.9 -2770.07 559.308 
3537.9 -2771.35 558.537 
3538.63 -2771.45 557.868 
3534.71 -2769.73 559.71 
3535.84 -2769.68 558.999 
3543.44 -2771.05 552.178 
3541 -2771.28 555.166 
3545.91 -2770.15 547.669 
3545.39 -2769.95 548.525 
3543.98 -2770.71 551.268 
3544.95 -2770.49 549.789 
3545.88 -2768.87 546.051 
3545.43 -2768.45 546.935 
3544.46 -2767.15 543.682 
3528.88 -2768.57 553.184 
3528.71 -2767.72 551.483 
3528.38 -2767.41 550.565 
3527.87 -2767.48 550.175 
3522.63 -2770.88 555.152 
3522.91 -2771.56 556.802 
3523.82 -2769.58 551.925 
3525.11 -2767.86 548.926 
3524.58 -2768.08 548.875 
3524.11 -2768.27 549.374 
3526.91 -2767.52 549.33 
3533.86 -2769.94 558.731 
3533.36 -2770.34 558.104 
3532.86 -2770.43 557.77 
3532.07 -2770.28 557.429 
3531.27 -2770.19 557.165 
3534.64 -2769.2 559.249 
3536.86 -2770.49 559.037 
3536.34 -2770.12 559.036 
3537.29 -2770.65 558.774 
3537.89 -2770.8 558.382 
3539.71 -2771.26 556.605 
3535.29 -2769.28 559.033 
3536.23 -2768.01 565.495 
3534.92 -2757.43 563.882 
3535.67 -2757.51 565.894 
3535.14 -2756.82 565.427 
3541.93 -2770.65 553.657 
3545.88 -2768.61 545.228 
3545.12 -2768.19 547.405 
3544.76 -2767.87 547.853 
3544.48 -2767.84 548.329 
3544.72 -2769.37 549.199 
3543.9 -2767.47 549.017 
3544.15 -2769.96 550.469 
3542.86 -2769.88 552.008 
3544 -2766.04 547.816 
3544.43 -2766.37 547.264 
3544.69 -2766.51 546.787 
3542.99 -2765.31 548.864 
3544.2 -2766.07 545.812 
3544.71 -2766.66 545.256 
3544.05 -2766.85 543.784 
3542.68 -2764.55 546.758 
3530.36 -2769.57 555.322 
3529.03 -2767.96 552.32 
3529.19 -2767.16 550.687 
3529.51 -2767.49 551.646 
3527.78 -2767.33 549.563 
3522.3 -2771.27 555.844 
3522.28 -2772.38 557.222 
3521.7 -2773.18 558.061 
3523.31 -2769.48 551.587 
3524.01 -2768.14 548.828 
3523.44 -2768.25 549.369 
3526.12 -2767.44 548.793 
3526.99 -2767.27 548.769 
3534.19 -2769.2 559.014 
3533.67 -2769.47 558.338 
3533.2 -2769.68 557.88 
3532.52 -2770.03 557.368 
3536.76 -2769.83 558.998 
3537.57 -2770.22 558.471 
3538.45 -2770.49 557.647 
3539.25 -2770.74 556.842 
3540.56 -2770.78 555.384 
3534.7 -2768.7 559.14 
3535.63 -2768.82 559.242 
3512.46 -2772.96 558.395 
3512.98 -2773.11 559.346 
3537.55 -2758 567.394 
3537.71 -2758.15 566.512 
3537.33 -2757.52 566.892 
3536.97 -2756.73 566.59 
3534.62 -2758.07 562.057 
3535.31 -2758.15 563.872 
3535.9 -2758.22 565.538 
3544.75 -2766.53 546.102 
3542 -2764.75 550.085 
3541.35 -2764.56 551.043 
3541 -2764.55 551.667 
3543.34 -2767.32 549.799 
3543.45 -2768.75 550.566 
3540.85 -2764.81 552.117 
3541.75 -2769.65 553.334 
3542.54 -2764.7 548.966 
3541.43 -2764.03 550.385 
3543.48 -2765.28 547.977 
3543.8 -2765.46 547.554 
3540.41 -2763.5 551.983 
3543.8 -2765.51 546.746 
3542.73 -2764.44 547.343 
3543.65 -2766.3 544.326 
3541.78 -2763.9 547.01 
3541.04 -2763.11 548.327 
3529.97 -2768.79 554.024 
3529.72 -2767.91 553.124 
3529.64 -2767.64 552.38 
3530.87 -2769.55 555.583 
3530.01 -2766.97 550.976 
3529.64 -2766.91 550.415 
3530.23 -2767.06 551.652 
3528.92 -2767.02 549.935 
3528.41 -2767.03 549.421 
3522.25 -2770.96 554.551 
3521.92 -2771.29 555.391 
3521.98 -2772.16 556.546 
3521.66 -2772.95 557.564 
3520.69 -2773.84 558.232 
3522.83 -2769.6 551.82 
3525.11 -2767.5 548.225 
3524.57 -2767.75 548.146 
3524.06 -2768.03 548.189 
3523.41 -2768.03 548.836 
3522.82 -2768.4 549.571 
3527.62 -2767.1 548.606 
3526.42 -2767.36 548.223 
3528.2 -2766.9 548.842 
3533.69 -2768.92 558.481 
3533.1 -2769.19 557.854 
3532 -2769.75 557.144 
3531.46 -2769.67 556.744 
3534.28 -2768.46 559.331 
3534.73 -2768.02 559.345 
3536.46 -2769.43 559.117 
3537.29 -2769.76 558.729 
3536.21 -2768.98 559.262 
3537.81 -2769.69 558.123 
3538.4 -2769.99 557.526 
3538.99 -2770.27 557.005 
3539.91 -2770.53 556.051 
3535.57 -2768.24 559.418 
3536.05 -2768.51 559.416 
3535.86 -2766.27 564.912 
3513.02 -2772.75 558.738 
3513.42 -2772.58 559.022 
3513.43 -2773.12 559.79 
3538.08 -2758.65 567.525 
3537.16 -2757.28 565.484 
3536.54 -2755.96 565.483 
3537.92 -2758.05 565.71 
3537.64 -2757.69 565.027 
3535 -2758.83 561.956 
3534.43 -2758.6 559.632 
3534.68 -2759.13 559.668 
3535.62 -2758.93 563.566 
3537.7 -2762.17 557.449 
3536.09 -2758.96 565.051 
3535.88 -2758.1 566.497 
3535.98 -2758.83 565.932 
3535.87 -2758.66 566.84 
3536.04 -2759.93 566.821 
3535.96 -2759.14 567.162 
3536.27 -2760.06 567.269 
3540.05 -2763.45 552.756 
3539.71 -2763.56 553.646 
3539.55 -2763.9 554.203 
3542.18 -2766.44 550.96 
3542.07 -2768.03 551.958 
3540.27 -2764.99 553.322 
3539.38 -2764.02 554.69 
3540.53 -2769.6 554.889 
3540.63 -2763.28 551.313 
3542.08 -2764.16 549.076 
3539.76 -2763.11 553.217 
3542.27 -2764.08 548.176 
3541.07 -2763.07 548.955 
3543.01 -2765.51 545.146 
3541 -2763.24 547.629 
3540.27 -2762.43 548.85 
3540.27 -2762.32 549.607 
3530.46 -2768.67 554.22 
3530.29 -2767.74 553.266 
3530.22 -2767.31 552.437 
3529.77 -2766.74 549.892 
3530.18 -2766.65 550.369 
3530.54 -2766.82 552.145 
3530.53 -2766.62 551.525 
3529.27 -2766.77 549.41 
3528.9 -2766.71 548.921 
3521.65 -2772.08 556.071 
3521.43 -2772.83 557.114 
3522.47 -2770 552.786 
3523.46 -2768.28 548.089 
3522.44 -2769.12 550.919 
3528.11 -2766.79 548.361 
3525.49 -2767.56 547.637 
3533.71 -2768.56 558.96 
3533.71 -2768.4 559.507 
3532.9 -2768.76 558.053 
3532.98 -2768.42 558.615 
3532.42 -2769.09 557.315 
3534.06 -2767.96 559.722 
3534.76 -2767.33 559.59 
3537.02 -2769.39 559.074 
3536.72 -2769 559.322 
3537.53 -2769.28 558.439 
3539.49 -2770.12 556.604 
3535.83 -2767.6 559.64 
3535.4 -2767.17 559.692 
3536.28 -2768.09 559.575 
3536.21 -2769.23 565.149 
3535.64 -2768.06 565.062 
3536.14 -2766.51 565.324 
3512.85 -2772.61 558.228 
3512.53 -2773.01 557.891 
3513.43 -2772.28 558.487 
3514.39 -2771.55 558.49 
3514.4 -2771.93 558.907 
3514.47 -2772.29 559.279 
3513.58 -2773.6 559.882 
3514.49 -2773.01 559.658 
3514.94 -2773.19 559.943 
3536.27 -2761.17 566.777 
3536.84 -2760.44 567.709 
3536.71 -2761.82 567.008 
3538.1 -2758.47 566.575 
3538.43 -2758.02 564.712 
3537.83 -2757.63 563.923 
3536.73 -2756.57 563.76 
3537.15 -2757.1 563.577 
3537.24 -2757.21 562.858 
3535.41 -2759.64 561.889 
3535.18 -2760.15 559.809 
3534.93 -2759.65 559.714 
3536.01 -2759.74 563.448 
3535.81 -2759.65 557.988 
3538.05 -2761.99 556.859 
3538.52 -2762.59 556.647 
3538.07 -2762.83 557.407 
3535.63 -2759.11 557.821 
3535.49 -2758.65 557.652 
3538.18 -2761.58 556.365 
3536.23 -2759.65 564.644 
3541.53 -2763.55 549.227 
3539.49 -2763.36 554.113 
3541.23 -2766.81 552.504 
3540.82 -2768.28 553.901 
3540.07 -2765.35 553.869 
3539.11 -2763.92 555.47 
3539.78 -2769.39 555.835 
3540.33 -2762.9 551.544 
3540.84 -2763.1 550.668 
3540.01 -2762.84 552.129 
3539.5 -2762.86 553.775 
3540.71 -2762.8 549.995 
3543.49 -2766.72 543.388 
3542.04 -2764.68 545.897 
3539.84 -2761.98 549.744 
3540.02 -2762.04 550.251 
3530.75 -2768.22 554.095 
3531.14 -2768.79 555.132 
3530.65 -2767.14 552.883 
3530.87 -2767.55 553.672 
3531.61 -2769.02 556.07 
3530.8 -2766.52 552.662 
3529.82 -2766.51 549.135 
3521.45 -2771.22 554.922 
3521.73 -2770.37 554.003 
3521.23 -2772.62 556.553 
3520.48 -2773.53 557.552 
3524.51 -2767.8 547.428 
3523.7 -2768.12 547.463 
3522.9 -2767.99 548.613 
3522.26 -2768.61 549.895 
3528.5 -2766.59 548.088 
3527.7 -2766.99 547.907 
3526.28 -2767.37 547.471 
3525.19 -2767.62 547.056 
3529.67 -2766.33 548.558 
3533.26 -2768.1 560.062 
3533.04 -2768.06 559.21 
3532.65 -2768.1 558.855 
3531.91 -2768.98 556.667 
3532.14 -2768.62 557.624 
3533.96 -2767.39 560.056 
3534.99 -2766.83 559.727 
3538.06 -2769.2 557.67 
3538.59 -2769.47 557.269 
3539.22 -2769.6 556.864 
3536.06 -2767.14 559.788 
3535.49 -2766.5 559.894 
3536.47 -2767.52 559.538 
3536.36 -2768.43 565.238 
3536.06 -2769.71 564.982 
3535.8 -2766.19 564.399 
3515.44 -2773.38 560.173 
3516.03 -2773.59 560.303 
3513.27 -2772.11 557.925 
3514.21 -2771.38 558.033 
3515.09 -2770.83 558.22 
3514.95 -2770.65 557.76 
3515.2 -2771.22 558.661 
3515.35 -2771.64 559.02 
3515.97 -2771.58 559.034 
3537.15 -2762.27 567.278 
3537.73 -2762.68 567.709 
3537.76 -2761.46 568.24 
3537.1 -2763.53 566.704 
3536.55 -2763.21 566.229 
3536.32 -2762.1 566.325 
3538.27 -2759.33 567.457 
3538.23 -2759.05 566.301 
3538.35 -2758.41 565.706 
3537.63 -2757.83 562.87 
3537.81 -2758.09 562.288 
3537.35 -2757.34 562.178 
3536.93 -2756.74 562.245 
3536.56 -2756.45 562.445 
3537.17 -2756.91 561.61 
3536.76 -2759.7 556.794 
3535.84 -2760.44 561.882 
3535.47 -2760.72 559.916 
3537.6 -2762.59 557.915 
3536.37 -2760.49 563.473 
3538.65 -2762.07 556.057 
3536.19 -2761.28 566.148 
3536.02 -2760.11 566.171 
3536.05 -2759.81 565.557 
3536.31 -2760.54 564.177 
3540.47 -2762.58 550.668 
3539.34 -2763.31 554.69 
3539.12 -2763.33 555.405 
3540.29 -2766.97 554.091 
3539.96 -2768.23 554.983 
3539.4 -2764.83 555.046 
3539.08 -2763.32 555.911 
3539.08 -2762.82 555.792 
3539.45 -2768.74 555.966 
3539.68 -2762.56 552.718 
3540.25 -2762.43 551.194 
3539.32 -2762.83 554.425 
3540.45 -2763.05 547.867 
3539.71 -2762.18 549.29 
3543.01 -2766.26 544.231 
3541.49 -2764.29 546.261 
3539.96 -2762.04 550.995 
3531.22 -2768.15 554.682 
3531.65 -2768.52 555.7 
3530.97 -2766.92 553.353 
3531.41 -2767.35 554.664 
3532.15 -2766.06 555.378 
3532.05 -2768.35 556.547 
3530.82 -2766.27 551.074 
3530.42 -2766.27 549.772 
3530.81 -2766.17 550.244 
3531.96 -2765.44 552.706 
3532.05 -2765.28 551.903 
3532.29 -2765.37 553.911 
3521.14 -2771.7 555.462 
3520.72 -2773.07 556.862 
3518.69 -2775.57 559.303 
3519.93 -2773.83 557.769 
3524.15 -2767.94 546.979 
3522.96 -2767.95 547.831 
3521.5 -2769.94 553.162 
3522.3 -2768.19 549.054 
3521.86 -2768.86 550.598 
3526.04 -2767.4 546.906 
3524.79 -2767.8 546.546 
3530.4 -2766.23 548.89 
3532.85 -2767.81 560.528 
3532.69 -2767.66 559.84 
3532.2 -2768.33 558.149 
3532.32 -2767.69 559.209 
3532.28 -2768.09 557.279 
3532.31 -2767.78 558.022 
3533.41 -2767.16 560.533 
3534.46 -2766.6 560.094 
3535.11 -2766.06 559.974 
3537.08 -2768.56 558.984 
3536.81 -2768.23 559.325 
3537.5 -2768.52 558.372 
3538 -2768.67 557.666 
3537.79 -2768.27 557.922 
3538.98 -2768.67 556.601 
3536.04 -2766.39 559.749 
3536.49 -2766.7 559.296 
3535.59 -2765.94 560.049 
3536.51 -2767.55 565.416 
3518.11 -2775.67 559.185 
3516.27 -2772 559.371 
3516.63 -2772.53 559.432 
3514.02 -2771.09 557.298 
3514.9 -2770.39 557.256 
3515.39 -2770.11 557.268 
3515.77 -2771.04 558.592 
3515.68 -2770.64 558.22 
3516.28 -2771.05 558.651 
3516.61 -2770.79 558.376 
3537.78 -2763.87 567.268 
3538.37 -2762.82 568.3 
3536.63 -2764.29 565.85 
3537.14 -2764.63 566.296 
3536.49 -2763.6 565.783 
3536.35 -2762.54 565.94 
3538.66 -2763.43 568.325 
3538.32 -2758.93 565.371 
3538.71 -2758.5 564.586 
3538.13 -2758.51 562.239 
3537.67 -2757.69 561.209 
3538.23 -2758.61 560.272 
3538 -2758.35 559.656 
3537.35 -2757.17 560.898 
3537.05 -2756.68 560.996 
3536.22 -2758.84 556.84 
3538.54 -2761.35 555.714 
3536.97 -2759.38 556.253 
3536.21 -2761.25 561.715 
3536.52 -2762.15 559.35 
3537.53 -2763.05 558.36 
3536.54 -2761.31 562.899 
3536.21 -2760.64 564.678 
3536.44 -2761.37 563.451 
3539.57 -2766.77 554.959 
3539.46 -2767.73 555.424 
3539.1 -2767.87 555.957 
3539.94 -2762.35 551.729 
3539.65 -2762.14 552.183 
3539.32 -2762.32 553.579 
3539.22 -2762.28 554.315 
3539.75 -2762.46 548.769 
3539.32 -2761.73 550.32 
3539.12 -2761.89 549.744 
3539.7 -2761.69 550.696 
3539.7 -2761.86 551.544 
3531.84 -2767.84 555.679 
3532.3 -2767.64 556.747 
3532.22 -2765.77 554.933 
3532.88 -2765.71 556.628 
3534.03 -2764.74 557.386 
3532.42 -2767.49 557.35 
3531.13 -2766.04 550.646 
3530.76 -2766.2 549.292 
3531.27 -2765.91 550.151 
3534.08 -2764.48 555.856 
3534.07 -2764.23 554.579 
3532.32 -2764.93 551.041 
3533.53 -2764.01 551.972 
3533.27 -2763.99 551.211 
3534.06 -2764.64 556.479 
3520.96 -2771.34 554.969 
3520.63 -2772.21 556.133 
3520.85 -2770.88 554.509 
3521 -2770.19 554.013 
3523.54 -2767.92 546.708 
3522.92 -2767.76 547.345 
3520.89 -2769.82 553.663 
3522.29 -2767.87 548.615 
3521.47 -2768.43 550.217 
3521.06 -2769.57 552.76 
3529.18 -2766.37 547.757 
3528.24 -2766.67 547.359 
3526.99 -2767.19 546.958 
3525.42 -2767.6 546.187 
3524.65 -2767.99 546.059 
3532.46 -2767.43 560.998 
3532.42 -2767.24 560.212 
3532.43 -2767.07 559.603 
3532.53 -2766.93 558.713 
3533.51 -2766.52 560.682 
3534.4 -2766.03 560.394 
3535.24 -2765.24 560.199 
3537.08 -2767.89 558.896 
3536.84 -2766.96 558.951 
3537.61 -2767.8 558.127 
3538.09 -2767.92 557.464 
3537.9 -2767.41 557.641 
3538.58 -2768.22 556.826 
3538.69 -2767.64 556.317 
3536.46 -2765.04 559.606 
3535.9 -2765.12 559.902 
3536.95 -2765.12 559.333 
3516.59 -2771.39 558.89 
3517.58 -2774.85 559.093 
3517.99 -2774.78 558.767 
3517.01 -2774.03 560.446 
3516.7 -2771.95 559.06 
3514.86 -2770.08 556.677 
3514.45 -2769.75 554.902 
3512.86 -2772.3 557.527 
3512.45 -2772.61 557.378 
3512.28 -2773.82 556.92 
3515.39 -2770.39 557.755 
3516.19 -2770.42 558.088 
3509.3 -2774 545.398 
3537.49 -2765.07 566.447 
3538.13 -2764.21 567.433 
3536.7 -2765.04 565.597 
3536.86 -2765.92 565.453 
3538.49 -2760.63 567.78 
3538.29 -2760.44 567.058 
3538.82 -2761.63 568.11 
3538.66 -2761.6 567.495 
3538.88 -2762.27 568.158 
3538.62 -2762.17 567.561 
3538.18 -2759.92 566.289 
3538.57 -2759.01 562.922 
3538.83 -2759.45 561.623 
3538.67 -2759.22 563.368 
3538.46 -2758.9 561.719 
3538.59 -2759.2 560.145 
3537.72 -2757.98 559.213 
3538.56 -2759.7 559.03 
3538.31 -2759.35 558.773 
3537.31 -2757.27 559.307 
3538.33 -2760.86 555.368 
3538.88 -2761.78 555.476 
3538.94 -2761.8 554.896 
3536.62 -2762.09 561.634 
3536.85 -2762.96 559.468 
3536.66 -2762.19 562.285 
3536.14 -2761.21 565.563 
3536.33 -2761.44 564.004 
3536.53 -2762.09 562.977 
3539.07 -2762.28 555.791 
3539.03 -2766.78 555.376 
3538.94 -2765.04 555.844 
3539.08 -2762.38 556.428 
3538.57 -2766.79 555.703 
3539.44 -2762.08 552.653 
3539.11 -2762.54 555.357 
3541.95 -2766.23 544.625 
3539.95 -2763.19 547.712 
3539.26 -2762.62 548.49 
3539.41 -2761.67 551.929 
3533.15 -2766 557.18 
3533.14 -2766.13 557.775 
3534.48 -2764.49 557.412 
3532.38 -2764.74 550.262 
3531.24 -2765.98 549.58 
3532.47 -2764.62 549.689 
3534.77 -2764.16 556.727 
3534.92 -2764 556.275 
3534.92 -2763.81 555.156 
3534.26 -2763.45 552.069 
3533.7 -2763.62 551.158 
3533.38 -2763.7 550.416 
3520.52 -2771.69 555.446 
3520.24 -2772.45 556.419 
3520.19 -2772.84 556.813 
3520.43 -2771.04 554.9 
3520.61 -2770.45 554.368 
3524.16 -2768.01 546.218 
3523.1 -2767.7 546.527 
3522.37 -2767.6 547.804 
3521.53 -2767.95 549.383 
3520 -2767.84 551.064 
3529.89 -2766.36 547.97 
3530.49 -2766.29 548.307 
3526.55 -2767.35 546.356 
3525.2 -2767.92 545.681 
3531.2 -2766.1 548.929 
3531.47 -2765.74 549.187 
3532.89 -2766.82 560.355 
3533.79 -2766.11 560.187 
3533.25 -2766.47 559.677 
3532.69 -2766.72 559.242 
3533.25 -2766.09 558.448 
3533.76 -2765.77 558.75 
3537.37 -2767.45 558.429 
3537.02 -2766.52 558.702 
3537.68 -2767.03 557.988 
3538.03 -2766.94 557.153 
3538.35 -2767.13 556.515 
3538.09 -2766.56 556.765 
3537.88 -2765.78 558.096 
3538.27 -2766.36 556.031 
3536 -2764.72 559.564 
3537.09 -2764.02 559.431 
3536.57 -2764.39 559.459 
3536.36 -2766.15 565.004 
3519.43 -2773.48 557.44 
3518.28 -2773.76 558.978 
3518.75 -2773.54 558.563 
3518.93 -2772.93 558.614 
3518.94 -2773.16 558.129 
3517.79 -2773.81 559.829 
3518.44 -2772.69 559.207 
3517.16 -2771.12 558.317 
3517.04 -2771.61 558.645 
3513.64 -2771.3 556.851 
3514.79 -2769.37 554.657 
3514.36 -2769.08 553.1 
3512.13 -2773.17 556.592 
3511.79 -2773.46 555.371 
3515.23 -2769.18 554.87 
3515.46 -2769.69 556.518 
3510.87 -2771.89 551.562 
3510.72 -2771.88 551.031 
3515.75 -2768.86 554.596 
3516.04 -2769.43 556.463 
3516 -2769.23 555.971 
3516.13 -2769.98 557.414 
3516.79 -2770.28 557.872 
3517.25 -2770.21 557.658 
3516.92 -2769.91 557.415 
3509.28 -2773.44 546.2 
3511.18 -2773 544.66 
3510.57 -2772.95 545.586 
3537.77 -2764.53 566.795 
3537.1 -2765.51 565.747 
3538.37 -2763.59 567.711 
3536.41 -2763.37 565.129 
3536.27 -2762.25 565.332 
3538.53 -2763.05 567.867 
3538.36 -2761.01 566.754 
3538.15 -2760.35 565.926 
3538.46 -2761.71 566.95 
3538.21 -2759.82 565.467 
3538.89 -2759.72 559.867 
3539.05 -2761.03 558.696 
3538.99 -2759.73 560.632 
3538.93 -2759.98 559.335 
3537.6 -2758.79 557.212 
3538.1 -2759.65 557.375 
3538.63 -2760.41 557.751 
3536.64 -2758.97 555.981 
3536.86 -2763.04 561.101 
3537.46 -2763.6 558.803 
3536.72 -2762.86 561.95 
3538.95 -2761.67 556.104 
3539.07 -2764.65 556.442 
3539.1 -2763.84 556.178 
3538.64 -2765.53 556.178 
3540.79 -2764.39 546.246 
3539.33 -2763 547.974 
3538.88 -2762.12 549.228 
3538.67 -2762.44 548.662 
3539.35 -2761.5 551.29 
3538.81 -2761.64 550.769 
3538.6 -2761.71 550.088 
3534.37 -2764.87 557.735 
3535.01 -2764.38 557.661 
3534.81 -2764.77 558.017 
3533.57 -2763.43 549.881 
3535.47 -2763.61 556.567 
3535.07 -2763.98 557.138 
3535.64 -2763.44 556.128 
3535.5 -2762.95 553.083 
3536.01 -2763.1 555.178 
3535.08 -2762.76 551.577 
3534.36 -2763.12 551.179 
3533.86 -2763.31 550.433 
3519.77 -2772.46 556.805 
3520.22 -2770.6 554.702 
3520.08 -2771.11 555.326 
3523.52 -2767.85 546.08 
3522.51 -2767.43 547.028 
3520.14 -2770.12 554.338 
3519.44 -2769.17 553.975 
3520.23 -2767.01 549.537 
3521.59 -2767.64 548.819 
3519.14 -2767.96 552.25 
3518.98 -2766.3 549.635 
3519.22 -2766.09 549.122 
3521.76 -2767.42 548.247 
3529.15 -2766.47 547.108 
3528.05 -2766.89 546.68 
3525.62 -2768 545.306 
3526.36 -2767.72 545.489 
3524.73 -2768.09 545.158 
3524.26 -2767.99 545.528 
3531.68 -2765.4 548.832 
3534.73 -2765.4 559.731 
3534.28 -2765.54 558.95 
3534.95 -2764.92 558.474 
3537.58 -2766.03 558.428 
3537.53 -2763.8 559.686 
3538.2 -2765.22 557.885 
3538.28 -2766.06 556.513 
3537.73 -2763.21 559.931 
3538.76 -2765.15 556.967 
3536.93 -2763.69 560.853 
3537.06 -2764.26 560.039 
3536.29 -2766.03 564.459 
3519.42 -2772.93 557.249 
3518.99 -2773.15 557.593 
3518.34 -2772.4 558.804 
3518.2 -2772.11 558.361 
3518.93 -2772.66 557.964 
3517.43 -2770.73 557.859 
3513.63 -2770.7 555.38 
3513.88 -2769.37 552.832 
3514.16 -2768.64 552.077 
3515.03 -2768.65 553.074 
3514.84 -2768.24 552.029 
3512.18 -2772.62 556.126 
3515.59 -2768.19 552.662 
3511.13 -2771.94 552.05 
3516.06 -2768.09 552.831 
3516.33 -2768.64 554.371 
3516.52 -2769.49 556.743 
3516.61 -2769.17 556.114 
3511.33 -2773.55 543.378 
3510.35 -2772.82 546.631 
3511.58 -2772.69 544.419 
3511.27 -2772.54 545.412 
3510.87 -2772.57 546.311 
3536.57 -2764.48 565.086 
3536.76 -2766.4 565.241 
3538.15 -2762.38 566.713 
3538.32 -2762.79 567.326 
3538.12 -2763.48 567.218 
3538.23 -2761.16 566.203 
3538.66 -2759.74 563.689 
3538.2 -2761.66 566.391 
3539.02 -2760.6 558.166 
3539.05 -2762.38 557.447 
3538.95 -2761.71 557.514 
3537.34 -2759.53 555.379 
3536.98 -2759.03 555.16 
3537.74 -2759.85 556.005 
3538.36 -2760.41 556.863 
3538.74 -2760.78 557.33 
3536.82 -2759.13 554.488 
3536.27 -2758.54 555.896 
3538.04 -2760.53 555.07 
3538.8 -2761.97 554.274 
3536.8 -2763.46 561.534 
3536.2 -2761.91 564.711 
3536.38 -2762.43 563.723 
3536.57 -2763.16 562.704 
3539.11 -2763.38 556.548 
3539.1 -2762.82 556.668 
3538.95 -2761.86 556.647 
3538.84 -2764.67 557.321 
3539.02 -2761.95 553.345 
3540.9 -2766.2 544.972 
3540.28 -2764.57 546.297 
3538.68 -2763.24 547.607 
3538.37 -2762 549.297 
3538.29 -2762.61 548.374 
3537.91 -2762.24 548.754 
3537.95 -2761.83 549.746 
3539.02 -2761.57 552.588 
3538.95 -2761.45 552.049 
3535.63 -2763.71 557.355 
3532.57 -2764.43 549.069 
3533.68 -2763.26 549.355 
3534.04 -2763.02 549.862 
3536.19 -2763.03 556.333 
3535.87 -2763.32 556.902 
3535.98 -2762.49 552.58 
3536.67 -2762.58 554.572 
3535.66 -2762.3 551.197 
3535.1 -2762.55 550.865 
3534.36 -2762.94 550.44 
3519.83 -2771.71 556.097 
3519.81 -2770.37 554.899 
3519.67 -2771.25 555.87 
3523.37 -2767.76 545.598 
3522.69 -2767.48 546.224 
3521.89 -2767.19 547.48 
3519.08 -2769.37 554.757 
3518.25 -2769.09 555.3 
3520.35 -2766.74 549.038 
3519.52 -2765.97 548.685 
3520.56 -2766.61 548.572 
3518.67 -2768.48 553.639 
3518.87 -2767.03 550.872 
3529.82 -2766.48 547.297 
3529.08 -2766.69 546.4 
3527.46 -2767.28 545.965 
3529.72 -2766.54 546.75 
3531.25 -2766.27 548.339 
3525.61 -2768.24 544.739 
3526.16 -2768.1 544.911 
3526.92 -2767.78 545.191 
3525.13 -2768.25 544.59 
3531.57 -2765.84 548.391 
3535.35 -2765.02 559.308 
3537.93 -2763.93 558.928 
3537.41 -2763.7 560.196 
3536.71 -2764.02 559.013 
3536.07 -2769.24 564.617 
3536.32 -2768.84 564.788 
3536.12 -2766.8 564.094 
3518.11 -2771.71 557.856 
3519.15 -2772.15 557.009 
3513.24 -2771.04 555.068 
3513.4 -2769.6 552.428 
3513.73 -2768.8 551.768 
3513.95 -2768.45 551.486 
3513.83 -2767.56 550.381 
3514.52 -2768.19 551.566 
3514.28 -2767.3 550.376 
3515.37 -2767.95 551.979 
3512.35 -2771.7 554.096 
3511.79 -2772.32 553.847 
3511.63 -2771.39 551.963 
3511.39 -2771.41 550.93 
3511.73 -2771.05 551.373 
3511.14 -2771.66 550.432 
3516.28 -2767.66 552.118 
3516.99 -2768.43 554.047 
3517 -2769.64 556.996 
3517.09 -2769.09 555.908 
3511.89 -2773.08 543.4 
3510.82 -2772.27 547.131 
3511.67 -2772.16 545.209 
3512.02 -2772.34 544.225 
3536.69 -2765.65 565.025 
3536.64 -2765.1 564.806 
3536.64 -2767.03 565.111 
3536.31 -2762.86 564.656 
3536.53 -2764.51 564.441 
3536.43 -2763.8 564.537 
3537.88 -2762.09 565.937 
3537.69 -2763.86 566.478 
3538.11 -2760.93 565.555 
3537.96 -2761.61 565.732 
3539 -2761.2 559.321 
3537.37 -2759.75 554.698 
3536.74 -2759.06 553.81 
3537.43 -2759.79 553.941 
3537.74 -2760.13 554.535 
3538.4 -2761.92 555.4 
3538.43 -2761.86 554.677 
3538.56 -2761.11 554.848 
3536.95 -2763.52 558.534 
3536.43 -2762.98 563.405 
3536.62 -2763.67 562.418 
3538.66 -2764.31 557.749 
3538.42 -2763.85 558.317 
3538.98 -2764.21 557.117 
3538.8 -2761.37 556.519 
3538.02 -2763.48 559.133 
3540.36 -2766.19 545.07 
3538.19 -2763.41 547.355 
3538 -2762.92 547.912 
3537.66 -2762.6 548.234 
3537.43 -2762.02 548.929 
3538.54 -2761.41 551.395 
3538.25 -2761.51 550.608 
3538.77 -2761.57 553.092 
3536.35 -2763.04 557.148 
3536.57 -2762.76 556.607 
3535.79 -2763.95 557.863 
3534.1 -2762.87 549.384 
3536.93 -2762.44 556.044 
3536.67 -2762.38 553.699 
3536.99 -2762.38 555.062 
3519.41 -2771.72 556.461 
3518.93 -2770.27 556.029 
3519.01 -2769.68 555.456 
3518.64 -2770.64 556.587 
3523.66 -2767.96 544.936 
3524.3 -2768.25 544.29 
3523.36 -2767.86 544.361 
3523.16 -2767.67 545.098 
3522.52 -2767.31 545.584 
3522.02 -2767.01 546.641 
3521.03 -2766.41 547.544 
3518.41 -2769.65 556.019 
3517.76 -2769.4 556.167 
3519.8 -2765.82 548.222 
3518.36 -2766.14 549.678 
3518.64 -2765.7 548.844 
3519.17 -2765.53 548.21 
3530.7 -2766.42 547.803 
3529.73 -2766.75 545.973 
3528.31 -2767.27 546.06 
3525.66 -2768.4 544.247 
3526.62 -2768.25 544.535 
3527.42 -2768 544.926 
3533.67 -2763.23 548.798 
3535.59 -2764.47 558.436 
3535.46 -2764.79 558.855 
3535.9 -2764.57 558.962 
3537.93 -2762.65 560.204 
3536.92 -2764.52 560.64 
3536.8 -2764.15 561.465 
3536.4 -2768.25 564.7 
3536.22 -2765.63 564.13 
3536.23 -2768.9 564.269 
3511.06 -2771.78 549.406 
3518.28 -2771.14 557.282 
3513.11 -2769.66 552.022 
3513.48 -2768.71 551.31 
3513.4 -2767.55 550.067 
3513.14 -2766.32 548.765 
3513.35 -2765.93 548.372 
3514.6 -2766.69 549.944 
3512.44 -2770.27 551.748 
3512.06 -2770.56 551.363 
3511.29 -2771.48 549.843 
3511.45 -2771.15 550.357 
3515.4 -2766.51 550.149 
3516.89 -2767.74 552.44 
3516.77 -2766.77 550.863 
3517.31 -2769.44 556.476 
3517.7 -2768.44 553.993 
3517.7 -2769.83 556.813 
3517.67 -2769.06 555.588 
3512.42 -2772.71 543.302 
3511.39 -2772.03 546.117 
3512.02 -2771.89 544.654 
3512.32 -2772.18 543.652 
3511.44 -2771.69 546.923 
3537.14 -2764.73 565.646 
3536.64 -2766.68 564.683 
3537.73 -2762.79 566.063 
3537.91 -2763.14 566.68 
3538.47 -2760.42 564.109 
3539.11 -2759.83 561.9 
3538.99 -2760.51 560.414 
3538.85 -2761.34 557.101 
3539.03 -2763.1 557.366 
3537.73 -2760.1 555.483 
3538.04 -2760.16 556.351 
3538.65 -2760.93 556.836 
3538.17 -2761.94 555.968 
3536.5 -2763.52 563.051 
3538.26 -2760.76 554.573 
3538.05 -2762.96 559.508 
3538.33 -2763.18 558.866 
3538.49 -2761.5 560.489 
3538.92 -2763.61 557.389 
3538.67 -2761.68 559.901 
3538.32 -2760.75 555.977 
3538.25 -2762 560.366 
3539.47 -2764.56 546.412 
3537.53 -2763.04 547.672 
3537.59 -2763.47 547.257 
3536.93 -2762.28 548.572 
3536.87 -2762.61 548.086 
3537.2 -2761.93 549.374 
3538.34 -2761.61 551.876 
3537.61 -2761.66 550.252 
3538.41 -2761.71 553.552 
3538.27 -2761.68 552.957 
3538.16 -2761.67 552.364 
3537.04 -2762.42 556.92 
3536.84 -2762.83 557.366 
3536.26 -2763.5 557.724 
3534.86 -2762.59 550.029 
3536.16 -2762.04 552.01 
3536.15 -2761.88 551.201 
3535.93 -2761.98 550.74 
3535.4 -2762.31 550.406 
3523.93 -2768.27 543.75 
3524.58 -2768.53 543.479 
3523.76 -2768.25 543.142 
3523.16 -2767.91 543.444 
3522.46 -2767.3 545.029 
3521.06 -2766.22 546.684 
3520.41 -2765.85 547.428 
3519.78 -2765.58 547.767 
3518.22 -2768.42 553.871 
3518.17 -2767.04 551.112 
3518.3 -2765.43 548.488 
3530.47 -2766.55 546.821 
3530.36 -2766.62 546.276 
3530.24 -2766.8 545.811 
3529.75 -2767.18 545.511 
3528.83 -2767.44 545.826 
3526.79 -2768.58 544.028 
3526.29 -2768.67 543.718 
3527.27 -2768.45 544.276 
3528.32 -2768.06 544.975 
3525.48 -2768.75 543.216 
3526.02 -2768.82 543.293 
3532.3 -2764.58 548.1 
3533.46 -2763.59 548.354 
3531.65 -2765.36 547.908 
3533.85 -2763.18 548.24 
3536.27 -2763.98 558.462 
3537.67 -2763.21 560.58 
3536.46 -2767.75 564.603 
3536.28 -2768.43 564.103 
3513.05 -2769.08 551.167 
3514.33 -2765.87 548.774 
3514.5 -2765.51 548.405 
3514.01 -2765.53 548.243 
3512.64 -2769.76 551.353 
3514.81 -2765.75 548.87 
3511.75 -2770.77 550.774 
3516.07 -2766.55 550.426 
3515.49 -2765.73 549.124 
3517.31 -2766.9 551.049 
3516.64 -2765.72 549.149 
3516.13 -2765.87 549.35 
3517.26 -2765.72 549.185 
3513.04 -2772.54 542.619 
3512.12 -2771.63 545.132 
3511.9 -2771.45 545.894 
3511.6 -2771.67 546.411 
3512.21 -2771.7 544.101 
3512.79 -2772.01 543.298 
3511.63 -2771.34 547.699 
3536.62 -2766.39 564.271 
3536.61 -2765.6 563.813 
3537.78 -2762.49 565.64 
3537.98 -2761.73 565.156 
3537.42 -2763.62 565.917 
3537.18 -2764.13 565.601 
3538.79 -2760.49 562.539 
3538.93 -2760.32 561.765 
3538.29 -2760.98 564.319 
3536.54 -2758.84 554.874 
3537.97 -2762.05 554.882 
3538.13 -2761.87 554.053 
3537.92 -2762.08 555.418 
3536.48 -2764.5 563.824 
3536.38 -2763.69 563.765 
3536.67 -2764.38 562.104 
3536.77 -2764.79 561.222 
3538.71 -2761.03 560.677 
3539.56 -2766.09 545.264 
3537.09 -2763.23 547.446 
3537.07 -2763.64 547.077 
3536.71 -2762.97 547.652 
3536.55 -2762.12 549.03 
3537.8 -2761.56 551.454 
3537.9 -2761.83 553.3 
3537.47 -2762.11 556.81 
3537.38 -2762.19 556.185 
3534.39 -2762.62 548.989 
3534.81 -2762.46 549.538 
3537.19 -2762.23 554.38 
3536.88 -2762.03 552.876 
3524.28 -2768.54 542.886 
3524.88 -2768.72 542.84 
3521.47 -2766.6 544.819 
3521.58 -2766.86 543.903 
3523.75 -2768.39 542.242 
3522.29 -2767.61 541.862 
3521.34 -2766.39 545.405 
3520.2 -2765.41 546.528 
3519.97 -2765.54 547.28 
3519.34 -2765.22 547.402 
3517.63 -2765.94 549.543 
3517.86 -2765.55 548.882 
3518.74 -2765.19 547.866 
3518 -2765.11 548.005 
3531.35 -2766.38 547.739 
3531.14 -2766.5 547.282 
3531.07 -2766.6 546.79 
3529.52 -2767.65 545.184 
3526.5 -2768.95 543.163 
3527.03 -2768.85 543.549 
3527.58 -2768.75 543.837 
3528.15 -2768.58 544.155 
3529.1 -2768.21 544.637 
3525.76 -2768.98 542.756 
3533.09 -2763.87 547.888 
3531.31 -2765.36 547.461 
3536.68 -2763.36 557.975 
3537.93 -2762.67 560.751 
3537.37 -2763.93 560.75 
3536.51 -2767.27 564.415 
3536.28 -2766.39 563.673 
3511.49 -2771.28 549.065 
3511.55 -2771.38 548.446 
3511.62 -2770.95 549.681 
3512.83 -2768.98 550.722 
3512.79 -2767.98 549.834 
3512.78 -2766.71 548.741 
3512.7 -2766.04 548.155 
3515.05 -2765.24 548.352 
3512.49 -2769.42 550.719 
3512.06 -2770.17 550.678 
3511.82 -2770.52 550.25 
3512.12 -2769.86 550.141 
3515.55 -2765.22 548.483 
3516.13 -2765.53 548.871 
3516.8 -2765.4 548.696 
3517.41 -2765.34 548.589 
3514.85 -2772.99 540.332 
3512.42 -2771.35 544.698 
3512.25 -2771.2 545.592 
3512.01 -2771.16 546.586 
3512.65 -2771.52 543.857 
3513.19 -2771.61 543.066 
3512.1 -2770.83 547.64 
3538.09 -2761.5 564.481 
3537.5 -2763.12 565.621 
3537.48 -2762.67 564.965 
3538.43 -2761.22 563.013 
3537.8 -2762.03 556.408 
3537.54 -2762.23 555.119 
3536.46 -2764.07 563.215 
3537.88 -2760.33 553.952 
3538.35 -2761.77 560.97 
3538.56 -2761.24 561.427 
3538.69 -2764.89 546.079 
3537.42 -2764.01 546.742 
3536.6 -2763.36 547.285 
3536.87 -2763.98 546.747 
3536.16 -2763.07 547.497 
3536.04 -2762.41 548.621 
3535.93 -2762.64 548.029 
3537.54 -2761.86 552.358 
3537.42 -2761.44 550.798 
3536.91 -2761.73 550.207 
3536.59 -2761.92 549.803 
3535.9 -2762.13 549.399 
3535.62 -2762.3 548.974 
3535.42 -2762.32 549.709 
3535.82 -2762.03 550.194 
3536.62 -2761.76 551.661 
3536.41 -2761.65 550.676 
3524.36 -2768.64 542.223 
3524.83 -2768.87 542.142 
3520.34 -2765.56 545.803 
3520.71 -2766.46 543.203 
3523.97 -2768.49 541.659 
3522.41 -2767.74 541.169 
3520.91 -2767.08 540.039 
3517.43 -2764.9 547.758 
3518.2 -2764.92 547.231 
3531.54 -2765.96 547.48 
3530.79 -2766.92 546.041 
3530.61 -2767.3 545.74 
3527.58 -2769.01 543.279 
3528.38 -2768.89 543.77 
3529.12 -2768.62 544.131 
3529.64 -2768.22 544.691 
3525.34 -2769.08 542.174 
3532.07 -2764.86 547.665 
3533.64 -2763.53 547.77 
3534.37 -2762.6 548.394 
3534.07 -2762.81 547.853 
3536.37 -2765.12 564.31 
3536.38 -2767.5 563.799 
3512.91 -2765.62 547.911 
3513.44 -2765.5 548.057 
3512.27 -2768.26 549.576 
3512.34 -2768.81 549.147 
3516.36 -2765.15 548.348 
3516.92 -2765.11 548.254 
3513.65 -2771.79 542.141 
3515.15 -2772.5 540.093 
3517.07 -2773.5 537.913 
3517.35 -2773.88 537.439 
3512.75 -2771.25 544.269 
3512.51 -2770.72 545.79 
3512.22 -2770.78 547.086 
3513.25 -2770.97 543.395 
3513.84 -2771.1 542.134 
3512.11 -2770.57 548.268 
3512.3 -2770.35 547.736 
3536.56 -2765.46 563.328 
3536.42 -2766.98 563.551 
3537.78 -2762.28 563.878 
3537.93 -2761.9 564.226 
3538.12 -2761.75 563.518 
3537.54 -2762.94 563.328 
3537.08 -2763.62 565.296 
3537.08 -2763.22 564.814 
3536.82 -2764.01 564.945 
3538.54 -2761.14 562.236 
3536.6 -2764.78 562.435 
3536.61 -2765.07 561.878 
3538.15 -2762.23 560.975 
3538.2 -2762.04 561.792 
3538.24 -2765.05 545.847 
3538.74 -2766.32 545.121 
3536.23 -2764.08 546.696 
3535.76 -2763.78 546.944 
3535.45 -2763.14 547.415 
3535.43 -2762.63 547.965 
3537.33 -2761.99 553.237 
3537.2 -2761.68 551.587 
3535.34 -2762.46 548.458 
3535 -2762.31 548.964 
3520.11 -2765.93 544.166 
3519.68 -2765.3 545.667 
3520.66 -2766.88 540.738 
3522.75 -2768.05 540.422 
3521.3 -2767.38 539.397 
3519.82 -2766.72 539.552 
3520.11 -2766.95 539.05 
3519.83 -2765.3 546.162 
3519.56 -2765.18 546.709 
3518.79 -2764.98 546.771 
3516.93 -2764.77 547.594 
3531.88 -2766.41 547.389 
3531.88 -2766.85 546.903 
3531.77 -2765.47 547.218 
3532.07 -2765.96 547.233 
3530.2 -2767.85 545.256 
3532.34 -2764.73 547.117 
3527.18 -2769.3 542.43 
3526.56 -2769.35 542.305 
3528.26 -2769.17 543.172 
3529.07 -2768.96 543.73 
3525.15 -2769.15 541.682 
3533.05 -2764.05 547.365 
3537.23 -2764.33 561.018 
3536.35 -2764.53 560.786 
3511.93 -2770.66 548.89 
3511.99 -2770.37 549.307 
3512.33 -2766.81 548.358 
3512.45 -2767.3 548.181 
3516.42 -2772.97 538.697 
3512.78 -2770.41 545.445 
3513.01 -2770.4 544.569 
3513.02 -2770.78 544.085 
3512.69 -2769.1 546.309 
3513.66 -2769.45 543.672 
3514.19 -2770.58 541.809 
3515.3 -2771.92 540.037 
3512.49 -2769.27 547.967 
3536.51 -2766.1 563.225 
3538 -2762.15 563.102 
3537.97 -2762.47 562.279 
3537.8 -2762.93 562.064 
3538.17 -2761.93 562.639 
3537.13 -2763.17 564.06 
3537.45 -2763.3 562.942 
3537.83 -2765.19 545.596 
3536.79 -2764.39 546.236 
3535.27 -2763.57 547.115 
3535.09 -2763.95 546.838 
3534.91 -2762.75 547.746 
3524.56 -2768.97 541.294 
3519.59 -2766.54 540.241 
3520.28 -2767.13 538.6 
3524.19 -2768.79 540.913 
3518.91 -2766.57 538.753 
3517.54 -2764.8 546.825 
3518.15 -2764.86 546.507 
3531.45 -2767.17 546.382 
3532.36 -2766.92 546.625 
3532.36 -2765.65 546.967 
3531.03 -2767.56 545.646 
3527.86 -2769.68 542.308 
3527.03 -2769.65 541.992 
3526.21 -2769.61 541.789 
3525.57 -2769.41 541.464 
3529.78 -2769.74 542.945 
3529.83 -2768.8 544.081 
3530.12 -2768.59 544.447 
3530.46 -2768.33 544.856 
3533.72 -2763.62 547.274 
3534.11 -2763.13 547.469 
3537.62 -2763.45 561.065 
3537.9 -2762.83 561.319 
3512.41 -2769.16 548.48 
3512.52 -2766.82 547.817 
3512.45 -2765.83 547.714 
3514.3 -2765.14 547.928 
3516.1 -2764.95 547.948 
3517.6 -2773.33 537.634 
3512.76 -2769.1 545.812 
3513.04 -2769.24 545.032 
3512.89 -2767.83 546.372 
3512.59 -2769.21 547.113 
3512.89 -2767.27 546.922 
3514.22 -2768.59 543.324 
3514.17 -2769.21 542.383 
3514.2 -2769.93 541.928 
3513.79 -2768.08 544.741 
3514.73 -2770.57 540.996 
3516.67 -2772.4 538.597 
3512.74 -2767.12 547.421 
3537.33 -2763.73 562.576 
3537.55 -2763.6 561.664 
3537.21 -2764.11 562.222 
3536.18 -2764.77 561.391 
3536.26 -2764.32 546.185 
3535.27 -2764.44 546.505 
3534.57 -2763.34 547.229 
3535.49 -2769.3 544.281 
3537.57 -2767 544.731 
3536.79 -2768.17 544.496 
3534.98 -2769.83 544.046 
3519.1 -2765.03 546.119 
3519.01 -2765.23 545.327 
3519.43 -2765.78 543.989 
3519.34 -2766.37 540.658 
3522.79 -2768.18 539.798 
3519.06 -2766.94 538.141 
3518.62 -2766.73 537.928 
3518.56 -2766.5 538.374 
3516.43 -2764.81 547.541 
3532.5 -2766.18 546.901 
3532.86 -2764.84 546.766 
3533.45 -2764.15 546.76 
3531.86 -2767.3 545.908 
3528.29 -2770.24 541.666 
3527.51 -2770.04 541.775 
3526.69 -2769.94 541.518 
3526.03 -2769.76 541.254 
3525.4 -2769.56 540.947 
3530.7 -2769.46 543.693 
3531.21 -2770.39 542.76 
3529.56 -2770.87 541.469 
3532.19 -2770.07 543.585 
3531.25 -2769.32 544.076 
3531.74 -2769.03 544.484 
3532.19 -2768.65 544.845 
3524.77 -2769.43 540.722 
3512.57 -2765.4 547.396 
3513.6 -2765.12 547.641 
3513.12 -2765.24 547.492 
3514.03 -2764.95 547.423 
3515.04 -2764.99 547.898 
3517.13 -2772.77 538.186 
3518.12 -2773.75 537.108 
3518.39 -2774.06 536.722 
3514.31 -2768.54 542.785 
3514.31 -2768.78 542.149 
3514.42 -2769.18 541.736 
3514.59 -2769.57 541.345 
3513.17 -2767.36 546.128 
3513.89 -2767.57 544.809 
3515.63 -2771.54 539.683 
3515 -2770.22 540.666 
3512.63 -2766.51 547.43 
3536.67 -2764.6 563.086 
3536.51 -2765.37 562.607 
3536.12 -2765.09 562.107 
3536.83 -2765.36 545.278 
3534.21 -2763.9 546.921 
3534.34 -2764.43 546.649 
3535.02 -2769.22 544.486 
3535.25 -2768.65 544.789 
3524.38 -2769.25 540.438 
3518.43 -2764.93 546.097 
3518.71 -2766.31 539.286 
3518.37 -2766.24 538.893 
3517.94 -2766.13 538.317 
3520.47 -2767.44 538.224 
3518.14 -2766.33 537.88 
3518.45 -2766.86 537.429 
3516.7 -2764.69 546.946 
3517.54 -2764.83 546.299 
3533.31 -2765.22 546.628 
3533.63 -2767.89 545.542 
3532.91 -2766.83 546.224 
3532.92 -2766.29 546.45 
3532.57 -2768.1 545.209 
3533.1 -2767.78 545.579 
3528.43 -2771.24 540.805 
3527.94 -2770.95 540.887 
3527.58 -2770.5 541.321 
3526.95 -2770.33 541.181 
3526.38 -2770.13 541.024 
3525.8 -2769.93 540.779 
3525.21 -2769.8 540.524 
3532.81 -2770.3 543.564 
3529.43 -2771.32 541.063 
3532.66 -2769.81 544.053 
3533.06 -2769.46 544.351 
3533.52 -2769.06 544.694 
3518.22 -2773.25 537.204 
3513.02 -2766.72 546.414 
3514.63 -2767.69 543.323 
3514.48 -2768.31 542.345 
3514.5 -2768.44 541.83 
3514.77 -2768.99 541.152 
3516 -2771.11 539.403 
3515.26 -2769.41 540.378 
3517.69 -2772.63 537.759 
3517.37 -2772.26 538.056 
3536.24 -2765.78 545.305 
3535.43 -2764.41 545.822 
3534.81 -2764.77 546.165 
3535.26 -2767.27 545.29 
3533.98 -2767.48 545.601 
3534.34 -2769.89 544.061 
3523.05 -2768.53 539.269 
3520.59 -2767.74 537.842 
3518.56 -2766.05 542.088 
3518.73 -2765.69 543.889 
3518.87 -2766.19 540.461 
3519.34 -2767.29 537.647 
3518.88 -2767.22 537.356 
3518.35 -2766.73 536.544 
3518.21 -2766.28 536.767 
3517.79 -2765.61 537.017 
3515.61 -2764.88 547.514 
3517.93 -2764.91 545.907 
3533.67 -2765.49 546.298 
3534.24 -2768.82 544.87 
3527.48 -2771.9 540.135 
3527.96 -2772.17 540.07 
3533.47 -2770.09 543.901 
3533.65 -2769.45 544.397 
3524.68 -2769.88 540.005 
3513.39 -2764.97 547.114 
3514.78 -2764.85 547.305 
3518.59 -2773.55 536.833 
3519.03 -2774.06 536.441 
3513.27 -2766.64 545.938 
3512.91 -2766.22 546.622 
3514.67 -2767.9 542.81 
3514.83 -2767.23 543.371 
3514.79 -2768.03 541.386 
3514.96 -2768.59 540.782 
3514.04 -2766.85 544.798 
3517.01 -2771.79 538.399 
3512.69 -2765.91 546.98 
3535.21 -2766.52 545.53 
3535.2 -2764.98 545.733 
3534.31 -2769.27 544.543 
3534.3 -2770.29 543.718 
3524.16 -2769.69 539.715 
3518.28 -2765.11 545.403 
3517.47 -2765.61 538.586 
3517.75 -2765.86 538.993 
3517.2 -2765.24 537.931 
3517.67 -2765.81 538.043 
3518.03 -2765.76 536.154 
3518.28 -2766.24 535.804 
3517.64 -2765.2 536.386 
3515.76 -2764.82 546.952 
3516.82 -2764.77 546.181 
3516.16 -2764.81 546.526 
3518.17 -2765.58 543.987 
3526.98 -2771.11 540.488 
3526.41 -2770.78 540.453 
3525.8 -2770.63 540.163 
3525.35 -2770.43 540.015 
3524.88 -2770.34 539.806 
3533.3 -2770.54 543.344 
3514.08 -2764.72 546.933 
3518.38 -2772.72 537.233 
3514.78 -2767.89 542.059 
3515.09 -2767.66 540.946 
3515.03 -2768.5 540.194 
3515.52 -2768.85 539.627 
3515.6 -2769.4 539.896 
3516.41 -2770.72 539.076 
3517.68 -2771.88 537.861 
3515.89 -2769.23 539.484 
3519.25 -2767.49 537.141 
3524.19 -2770.15 539.446 
3522.95 -2769.12 538.688 
3521.74 -2768.39 537.81 
3518.37 -2766.07 541.495 
3518.42 -2766.05 539.754 
3516.86 -2764.7 537.598 
3517.17 -2765.07 537.282 
3517.34 -2764.94 545.609 
3526.84 -2771.85 539.946 
3526.45 -2771.31 540.089 
3525.47 -2771.13 539.69 
3524.59 -2770.62 539.46 
3512.9 -2765.16 547 
3514.57 -2764.8 546.761 
3515.05 -2764.94 546.702 
3515.27 -2773.5 533.407 
3518.23 -2772.91 536.342 
3518.07 -2772.41 536.643 
3518.31 -2773.91 535.56 
3518.36 -2773.46 535.969 
3513.32 -2766.02 545.947 
3512.71 -2765.26 546.536 
3515.08 -2767.24 542.807 
3515.13 -2767.47 541.446 
3515.14 -2767.58 540.371 
3515.2 -2768.32 539.7 
3518.08 -2772.06 537.525 
3516.91 -2770.43 538.593 
3516.19 -2769.01 539.098 
3515.97 -2768.43 538.586 
3520.36 -2768.08 537.137 
3518.47 -2766.99 536.035 
3521.61 -2768.75 537.454 
3518.15 -2766.04 541.015 
3518.23 -2766.01 540.252 
3516.76 -2764.26 536.202 
3516.61 -2764.51 536.957 
3516.99 -2764.2 536.794 
3517.61 -2765.44 535.908 
3517.37 -2765.48 544.201 
3515.42 -2765.03 546.293 
3518.03 -2766.06 542.386 
3526.24 -2772.04 539.623 
3525.76 -2771.81 539.564 
3524.92 -2771.2 539.337 
3525.22 -2771.92 539.234 
3513.75 -2764.92 546.54 
3514.93 -2773.12 533.279 
3514.76 -2772.38 533.811 
3514.97 -2771.37 534.824 
3516.07 -2772.66 534.775 
3518.19 -2772.01 536.988 
3515.98 -2770.99 535.898 
3515.43 -2773.14 533.912 
3514.31 -2766.35 544.805 
3513.27 -2765.5 546.32 
3515.13 -2766.81 543.364 
3515.12 -2767.4 541.965 
3515.35 -2767.23 540.906 
3515.06 -2767.83 539.702 
3514.25 -2767.87 538.697 
3515.34 -2767.92 539.004 
3518.1 -2771.27 537.075 
3517.99 -2771.37 537.61 
3517.25 -2770.12 538.214 
3517.12 -2769.53 537.754 
3519.05 -2767.66 536.645 
3518.15 -2766.35 535.331 
3522.8 -2769.94 538.125 
3524.09 -2770.86 538.895 
3520.31 -2768.48 536.646 
3519.48 -2768 536.586 
3516.88 -2765.2 538.351 
3517.42 -2764.54 536.498 
3517.79 -2765.77 535.559 
3517.16 -2764.81 536.082 
3515.83 -2765 545.924 
3516.4 -2764.92 545.762 
3517.64 -2766.02 541.286 
3524.75 -2771.81 538.96 
3524.36 -2771.51 538.798 
3514.38 -2765.04 546.286 
3514.61 -2772.68 533.367 
3514.6 -2771.95 534.033 
3514.19 -2771.19 534.242 
3514.07 -2770.37 534.823 
3516.32 -2770.5 536.444 
3514.79 -2769.96 535.69 
3515.27 -2767.18 540.059 
3515.33 -2766.95 542.299 
3514.19 -2767.32 538.628 
3515.07 -2767.38 539.328 
3514.73 -2766.91 538.579 
3513.52 -2767.86 537.979 
3512.82 -2767.68 537.127 
3513.24 -2767.83 537.478 
3514.74 -2767.82 538.197 
3515.09 -2768.23 537.535 
3515.58 -2769.76 536.295 
3516.63 -2769.98 536.593 
3515.73 -2768.87 537.001 
3514.76 -2768.55 536.583 
3513.94 -2767.93 536.823 
3518.17 -2766.97 535.323 
3522.73 -2770.45 537.85 
3519.57 -2768.49 535.952 
3523.95 -2771.4 538.521 
3518.69 -2767.5 535.752 
3517.78 -2765.93 539.652 
3516.39 -2764.71 537.365 
3516.79 -2764.64 535.721 
3517.25 -2763.87 536.41 
3517.82 -2766.82 534.997 
3517.58 -2766.35 535.054 
3516.54 -2765.5 544.588 
3517.26 -2766.13 542.791 
3517.47 -2766.15 542.014 
3515.1 -2765.19 545.911 
3523.91 -2773.49 537.616 
3514.5 -2765.68 545.16 
3513.54 -2769.49 535.024 
3514.1 -2769.09 535.756 
3515.49 -2766.79 540.615 
3515.54 -2766.93 541.739 
3513.22 -2767.77 538.57 
3513.07 -2767.28 537.317 
3512.9 -2767.62 537.877 
3513.76 -2766.62 537.101 
3512.96 -2767.4 536.456 
3513.95 -2768.32 536.176 
3512.98 -2767.77 536.053 
3522.51 -2770.91 537.466 
3518.41 -2767.72 535.297 
3518.2 -2768.12 535.061 
3523.24 -2773.09 537.246 
3517.74 -2766.03 540.54 
3516.38 -2764.75 536.474 
3517.72 -2764.86 536.004 
3517.75 -2767.48 534.736 
3517.08 -2765.19 535.653 
3516.65 -2766.11 543.249 
3515.87 -2765.52 544.826 
3517.07 -2766.11 541.425 
3515.18 -2765.59 544.995 
3515.24 -2766.19 543.817 
3514.1 -2771.75 533.767 
3513.71 -2770.39 534.42 
3513.14 -2768.74 535.239 
3515.49 -2766.69 539.029 
3514.4 -2766.3 537.338 
3515.42 -2766.54 542.828 
3513.23 -2766.97 536.758 
3513.91 -2766.27 536.471 
3513.19 -2766.98 535.997 
3512.88 -2767.48 535.634 
3521.97 -2772.34 536.507 
3519.31 -2769.05 535.61 
3517.83 -2768.14 534.705 
3518.7 -2768.9 535.217 
3521.54 -2774.37 535.352 
3517.33 -2765.65 535.205 
3517.35 -2767.01 534.71 
3516.67 -2766.33 542.587 
3516.76 -2766.24 541.907 
3517.24 -2766.02 540.843 
3515.73 -2766.23 543.473 
3512.55 -2768.33 535.403 
3515.75 -2766.5 540.207 
3514.31 -2765.93 536.433 
3515.96 -2766.63 541.483 
3515.71 -2766.44 542.124 
3513.38 -2766.63 535.686 
3514.1 -2765.96 535.926 
3520.46 -2773.36 534.714 
3520.23 -2771.6 535.301 
3520.06 -2770.14 535.609 
3517.57 -2768.6 534.458 
3517.95 -2768.95 534.751 
3518.87 -2769.43 535.066 
3517.19 -2765.96 540.122 
3516.63 -2765.61 538.746 
3516.27 -2764.84 535.946 
3516.38 -2764.73 535.421 
3516.95 -2763.47 535.945 
3517.31 -2764.03 535.901 
3517 -2766.31 534.791 
3517.13 -2767.46 534.486 
3517.33 -2767.95 534.407 
3516 -2766.34 543.004 
3514.17 -2773.07 533.124 
3514.04 -2772.46 533.416 
3513.78 -2771.36 533.939 
3513.58 -2770.84 534.178 
3513.23 -2769.73 534.697 
3515.72 -2766.2 538.82 
3514.93 -2765.72 537.063 
3513.76 -2766.11 535.506 
3513.1 -2767 535.433 
3512.97 -2767.96 535.302 
3519.49 -2771.52 534.703 
3519.7 -2772.88 534.266 
3517.33 -2769.23 534.258 
3518.35 -2771.22 534.209 
3518.82 -2771.37 534.348 
3515.98 -2765.19 537.888 
3516 -2764.96 537.169 
3516.48 -2765.1 535.01 
3516.78 -2767 534.525 
3516.33 -2766.26 541.594 
3516.68 -2766.2 541.118 
3516.47 -2773.15 533.125 
3512.28 -2768.94 535.181 
3511.77 -2769.43 535.09 
3514.82 -2765.59 536.355 
3516.28 -2766.28 540.553 
3516.14 -2766.39 539.816 
3519.2 -2773.29 533.905 
3517.24 -2769.76 534.189 
3518.47 -2773.22 533.602 
3516.54 -2765.65 534.816 
3515.96 -2765.01 536.326 
3517.53 -2764.4 535.612 
3516.9 -2763.54 535.409 
3516.51 -2766.51 534.586 
3516.64 -2767.59 534.352 
3516.93 -2768.47 534.224 
3515.77 -2772.79 532.988 
3515.94 -2772.3 533.191 
3514 -2773.56 532.862 
3511.17 -2770.01 534.988 
3512.77 -2770.28 534.391 
3513.03 -2770.84 534.091 
3515.45 -2765.52 537.693 
3514.42 -2765.79 535.497 
3516.16 -2765.91 538.935 
3517.36 -2771.31 533.825 
3516.62 -2766.08 540.166 
3515.93 -2765.05 535 
3515.88 -2765.06 535.658 
3517.49 -2763.52 535.754 
3516.64 -2763.13 535.275 
3517.87 -2764.78 535.439 
3516.31 -2767.16 534.385 
3517.42 -2773.37 533.28 
3516.62 -2772.11 533.464 
3515.12 -2773.15 532.748 
3515.32 -2772.38 532.97 
3513.57 -2772.87 533.134 
3513.41 -2772.07 533.521 
3513.21 -2771.38 533.84 
3512.26 -2769.41 534.828 
3510.63 -2770.59 534.864 
3515.32 -2765.34 536.346 
3514.95 -2765.53 535.691 
3515.35 -2765.33 537.224 
3513.42 -2766.71 535.124 
3513.3 -2767.49 535.002 
3513.21 -2768.32 534.969 
3516.77 -2769.63 534.018 
3515.64 -2765.14 536.714 
3515.88 -2765.6 534.75 
3516.2 -2766.05 534.633 
3517.13 -2763.91 535.139 
3516 -2766.69 534.435 
3516.07 -2767.77 534.185 
3516.42 -2768.64 534.08 
3515.81 -2770.86 533.548 
3516.46 -2770.75 533.743 
3515.24 -2771.34 533.277 
3515.2 -2770.41 533.651 
3515.67 -2770.06 533.681 
3514.55 -2773.25 532.601 
3511.56 -2770.22 534.67 
3512 -2769.9 534.651 
3510.13 -2771.16 534.732 
3512.2 -2771.46 533.966 
3512.85 -2769.09 534.741 
3515.37 -2765.32 535.014 
3517.74 -2763.94 535.338 
3517.13 -2763.08 535.401 
3518.38 -2765.04 535.358 
3518.24 -2764.42 535.142 
3515.85 -2767.31 534.252 
3516.19 -2769.97 533.822 
3515.42 -2769.62 533.763 
3514.79 -2771.88 532.995 
3514.33 -2772.17 532.833 
3514.74 -2770.74 533.436 
3513.86 -2772.38 532.731 
3511.18 -2770.71 534.548 
3510.72 -2771.2 534.47 
3509.49 -2771.73 534.644 
3511.85 -2772.04 533.784 
3512.96 -2772.83 533.083 
3513.61 -2767.06 534.816 
3515.3 -2765.98 534.734 
3515.71 -2766.24 534.577 
3518.93 -2765.02 535.319 
3515.57 -2768.13 534.014 
3516.04 -2769.04 533.931 
3514.89 -2769.7 533.813 
3514.3 -2771.07 533.212 
3513.33 -2772.67 532.662 
3512.82 -2773.03 532.588 
3513.52 -2771.29 533.17 
3511.76 -2770.73 534.252 
3511.27 -2772.51 533.729 
3514.19 -2766.2 535.006 
3513.5 -2768.52 534.59 
3513.58 -2767.89 534.533 
3512.82 -2769.59 534.425 
3514.86 -2765.71 535.002 
3517.72 -2763.33 535.244 
3519.01 -2764.44 535.155 
3519.5 -2765.06 535.258 
3515.25 -2766.66 534.529 
3515.19 -2767.28 534.343 
3515.38 -2768.7 533.892 
3514.83 -2769.03 533.911 
3514.02 -2770.53 533.442 
3514.39 -2769.97 533.769 
3512.68 -2771.82 533.241 
3513.41 -2770.73 533.516 
3512.85 -2771.35 533.427 
3511.28 -2771.34 534.108 
3510.64 -2772.11 533.969 
3513.93 -2767.42 534.54 
3513.31 -2769.24 534.424 
3514.76 -2766.53 534.665 
3518.27 -2763.92 535.091 
3519.97 -2764.74 535.275 
3515.11 -2767.91 534.16 
3514.88 -2768.45 534.043 
3514.33 -2769.45 533.909 
3513.25 -2770.28 533.828 
3512.57 -2770.96 533.758 
3512.41 -2770.51 534.069 
3511.11 -2771.87 533.9 
3514.28 -2766.96 534.627 
3514.19 -2767.83 534.351 
3513.26 -2769.8 534.098 
3517.58 -2762.85 535.037 
3517.66 -2763.49 534.706 
3520.49 -2764.87 535.242 
3519.97 -2765.24 535.156 
3514.69 -2767.4 534.395 
3514.33 -2768.81 534.056 
3513.8 -2768.99 534.175 
3518.15 -2763.36 534.954 
3518.79 -2763.79 534.848 
3514.39 -2768.26 534.188 
3520.93 -2764.52 535.186 
3521.64 -2764.57 535.074 
3521.1 -2765.02 535.137 
3519.54 -2765.53 535.076 
3520.51 -2765.45 535.034 
3519.64 -2763.69 534.827 
3520.72 -2764.04 534.997 
3521.17 -2763.9 534.795 
3518.57 -2763.07 534.707 
3520.49 -2764.55 534.77 
3521.89 -2764.03 534.991 
3521.62 -2763.57 534.792 
3519.44 -2762.95 534.654 
3519.85 -2764.3 534.77 
3521.13 -2763.34 534.638 
3519.11 -2763.42 534.671 
3522.38 -2764.08 534.726 
3522.19 -2763.4 534.755 
3519.95 -2762.8 534.684 
3522.83 -2764.39 535.231 
