3409.39 -2800.23 1658.03
3409.96 -2800.01 1658.09
3407.91 -2800.46 1657.81
3408.58 -2800.36 1657.75
3409.95 -2799.59 1657.64
3410.56 -2799.36 1657.84
3407.99 -2800.16 1657.3
3408.56 -2799.88 1657.24
3409.12 -2799.65 1657.28
3408.5 -2799.47 1656.78
3407.95 -2799.75 1656.83
3409.63 -2796.76 1659.86
3407.52 -2799.46 1657.14
3409.09 -2799.24 1656.84
3409.68 -2799.01 1657.04
3407.83 -2799.42 1656.44
3408.39 -2799.1 1656.33
3409.01 -2798.62 1656.36
3408.31 -2797.48 1659.79
3408.84 -2796.75 1659.58
3410.27 -2796.55 1659.78
3409.62 -2796.19 1659.34
3408.92 -2795.8 1658.76
3411.22 -2796.53 1660.01
3411.81 -2796.57 1660.03
3398.26 -2800 1653.53
3412.32 -2796.46 1659.81
3411.26 -2798.96 1658.24
3410.32 -2798.75 1657.43
3410.95 -2798.47 1657.82
3411.54 -2798.19 1658.18
3408.21 -2798.81 1655.95
3409.72 -2798.28 1656.79
3407.16 -2797.79 1659.12
3407.53 -2797.13 1658.97
3408.24 -2796.6 1659.02
3408.44 -2796 1658.64
3410.32 -2796.08 1659.34
3409.7 -2795.77 1658.92
3407.34 -2794.88 1657.07
3405.26 -2795.06 1656.66
3411.1 -2796.08 1659.45
3411.76 -2796.23 1659.65
3404.76 -2799.87 1656.76
3407.89 -2798.9 1654.9
3397.97 -2799.81 1652.87
3397.67 -2799.86 1652.35
3412.08 -2797.63 1658.41
3407.21 -2798.94 1656.37
3407.58 -2798.82 1655.9
3410.23 -2798.15 1657.15
3410.85 -2797.84 1657.52
3408.54 -2798.28 1655.87
3409.37 -2797.86 1656.37
3409.88 -2797.57 1656.65
3406.54 -2797.24 1658.34
3406.39 -2797.78 1658.63
3406.95 -2796.48 1658.1
3407.8 -2796.03 1658.3
3408.44 -2794.81 1657.16
3406.69 -2794.33 1656.22
3403.99 -2794.17 1655.67
3404.29 -2793.75 1655.3
3403.35 -2794.51 1655.86
3402.84 -2794.85 1655.98
3409.35 -2794.77 1657.19
3411.68 -2795.93 1659.18
3407.22 -2798.55 1655.4
3407.78 -2798.39 1655.04
3406.68 -2798.58 1655.7
3399.58 -2799.73 1655.08
3397.72 -2799.46 1651.67
3398.69 -2799.7 1653.56
3397.99 -2799.37 1652.17
3398.57 -2799.35 1652.84
3412.16 -2795.9 1659
3411.36 -2797.68 1657.87
3406.42 -2798.51 1656.2
3410.4 -2797.34 1656.96
3411 -2797.18 1657.41
3405.22 -2797.41 1657.74
3405.66 -2797.09 1657.74
3405.93 -2796.5 1657.54
3404.78 -2795.85 1657.08
3404.17 -2796.3 1657.17
3406.04 -2793.77 1655.43
3406.7 -2793.77 1655.32
3404.69 -2793.5 1655.06
3403.52 -2794.03 1655.38
3403.83 -2793.57 1654.93
3402.83 -2794.23 1655.33
3402.48 -2795.3 1656.27
3402.27 -2794.26 1655.11
3402.11 -2794.76 1655.58
3407.55 -2793.68 1655.1
3410.27 -2794.81 1657.35
3408.57 -2793.54 1655.18
3410.78 -2794.82 1657.26
3408.47 -2797.95 1655.5
3407.97 -2798.42 1654.49
3400.96 -2799.13 1655.78
3396.63 -2801.35 1650.47
3397.06 -2800.26 1650.61
3396.9 -2800.63 1650.19
3397.33 -2799.68 1650.76
3397.91 -2799.04 1651.2
3399.15 -2799.55 1653.91
3398.49 -2798.78 1652
3398.79 -2798.66 1652.42
3412.02 -2795.68 1658.57
3412.01 -2796.93 1658.12
3403.81 -2797.96 1656.41
3403.82 -2797.88 1656.98
3411.53 -2797.02 1657.76
3409.07 -2797.67 1655.72
3403.14 -2796.87 1657.33
3402.66 -2797.02 1657.41
3403.7 -2796.5 1657.19
3401.99 -2796.17 1656.88
3402.07 -2795.66 1656.45
3405.21 -2793.28 1654.87
3406.09 -2793.28 1654.92
3404.28 -2793.25 1654.63
3403.1 -2793.76 1654.86
3403.52 -2793.34 1654.5
3402.51 -2793.84 1654.71
3401.72 -2795.17 1655.82
3401.8 -2794.65 1655.14
3407.38 -2793.06 1654.6
3409.4 -2793.54 1655.39
3408.41 -2792.83 1654.46
3409.99 -2793.71 1655.54
3408.24 -2797.85 1654.81
3399.62 -2799.29 1654.53
3396.33 -2802.31 1650.1
3397.12 -2799.97 1648.67
3397.26 -2799.55 1648.98
3397.46 -2799.04 1649.33
3397.75 -2798.36 1649.68
3398.09 -2797.99 1650.11
3398.29 -2797.71 1650.61
3398.46 -2797.42 1651.2
3398.58 -2797.23 1651.72
3398.81 -2798.38 1652.86
3398.43 -2797.23 1652.61
3398.81 -2798.61 1653.34
3396.06 -2803.12 1649.89
3412.89 -2796.42 1658.59
3413.09 -2795.79 1658.59
3411.29 -2794.85 1657.15
3412.53 -2795.61 1658.33
3412.43 -2796.59 1658.3
3402.74 -2797.76 1655.85
3402.26 -2797.05 1656.05
3402.71 -2797.2 1656.61
3409.74 -2797.39 1656.06
3402.08 -2797.3 1657.61
3400.42 -2796.62 1656.66
3400.89 -2796.45 1656.73
3401.38 -2795.96 1656.48
3401.42 -2795.53 1656.04
3405.2 -2792.91 1654.41
3406.16 -2792.87 1654.52
3403.82 -2792.99 1654.13
3403.25 -2793.12 1654.1
3402.7 -2793.5 1654.32
3401.88 -2794.16 1654.56
3407.19 -2792.53 1654.1
3409.18 -2792.99 1654.64
3408.24 -2792.38 1653.82
3409.94 -2793.28 1654.93
3409.03 -2797.5 1655.22
3400.07 -2799.09 1655.07
3396.99 -2800.4 1648.27
3397.92 -2797.99 1647.43
3398.05 -2797.5 1648
3398.12 -2797.17 1648.52
3398.44 -2796.47 1648.94
3398.79 -2796.14 1649.93
3399.06 -2795.91 1650.78
3399.07 -2795.91 1651.34
3399.21 -2795.69 1651.88
3399.18 -2795.68 1652.42
3398.3 -2797.25 1653.1
3398.85 -2796.05 1653.15
3399.47 -2799.03 1653.88
3399.43 -2798.57 1653.62
3396.01 -2804.9 1646.39
3396.74 -2801.23 1648.07
3410.82 -2793.93 1655.73
3401.8 -2798.3 1655.45
3402.11 -2797.76 1655.41
3401.86 -2796.72 1656.26
3401.32 -2796.57 1655.63
3402.35 -2796.99 1656.89
3411.47 -2796.79 1657.29
3401.33 -2797.71 1657.93
3399.71 -2797.15 1657.17
3400.23 -2797.2 1657.2
3400.16 -2796.31 1656.17
3400.72 -2796 1656.18
3404.15 -2792.67 1653.69
3404.62 -2792.46 1653.48
3405.33 -2792.6 1653.94
3405.83 -2792.52 1653.96
3403.64 -2792.73 1653.68
3402.73 -2793.13 1653.88
3406.76 -2792.25 1653.61
3409.06 -2792.61 1653.94
3408.21 -2792.24 1653.33
3410.46 -2793.42 1655.05
3409.74 -2792.82 1654.17
3408.22 -2797.79 1654.29
3409.62 -2797.27 1655.54
3401.32 -2798.56 1655.39
3397.73 -2798.52 1646.85
3398.27 -2796.99 1647.69
3398.1 -2797.5 1647.01
3398.36 -2796.64 1648.28
3398.77 -2795.93 1648.69
3399.05 -2795.6 1649.55
3399.36 -2795.29 1650.47
3399.52 -2795.19 1651.42
3399.71 -2794.93 1652.33
3399.82 -2794.81 1652.92
3399.46 -2795.3 1653.15
3398.51 -2797.29 1653.61
3396.48 -2802.86 1647.8
3396.36 -2804.54 1645.89
3396.73 -2802.26 1646.79
3396.94 -2802.03 1646.23
3397.47 -2799.4 1646.41
3412.12 -2796.54 1657.69
3413.63 -2795.82 1658.54
3413.25 -2795.55 1658.04
3412.54 -2795.4 1657.86
3411.79 -2794.9 1657.1
3411.29 -2794.14 1655.97
3411 -2793.66 1655.32
3412.28 -2794.91 1656.99
3400.7 -2798.58 1654.95
3401.56 -2797.36 1655.09
3400.29 -2796.03 1655.69
3400.28 -2796.06 1655.09
3410.66 -2797.02 1656.58
3400.92 -2795.43 1655.52
3401.21 -2795.04 1655.15
3403.99 -2792.38 1653.17
3404.29 -2792.11 1652.74
3405.45 -2792.23 1653.39
3402.78 -2792.75 1653.4
3401.96 -2793.48 1653.89
3401.51 -2793.91 1654.11
3401.21 -2794.73 1654.6
3401.1 -2794.39 1654.13
3406.4 -2792.04 1653.16
3409.04 -2792.52 1653.21
3407.95 -2792.02 1652.92
3410.54 -2793.1 1654.55
3408.74 -2797.47 1654.66
3399.71 -2798.73 1654.21
3397.89 -2798.06 1646.32
3398.38 -2796.85 1647.08
3398.55 -2796.46 1647.54
3398.61 -2796.26 1648.02
3398.18 -2797.36 1646.44
3399.06 -2795.37 1648.55
3399.24 -2795.06 1649.18
3399.5 -2794.81 1649.86
3399.79 -2794.48 1650.48
3399.81 -2794.57 1651.06
3399.95 -2794.46 1651.86
3400.14 -2794.32 1652.58
3398.98 -2796.13 1653.78
3399.41 -2795.56 1653.65
3399.28 -2797.21 1653.89
3396.86 -2804.05 1645.42
3397.16 -2801.95 1645.74
3397.64 -2799.24 1645.94
3412.89 -2796.23 1658.01
3412.84 -2795.24 1657.46
3411.13 -2793.28 1654.86
3411.84 -2793.86 1655.67
3400.94 -2797.94 1654.58
3400.16 -2796.59 1654.62
3400.37 -2795.48 1655.28
3404.26 -2791.87 1652.19
3405.18 -2791.93 1652.8
3403.31 -2792.3 1652.8
3402.13 -2793.02 1653.32
3400.65 -2794.9 1654.56
3410.12 -2792.64 1653.71
3397.96 -2798.08 1645.82
3398.93 -2795.73 1647.77
3398.16 -2797.59 1645.81
3399.39 -2794.63 1648.7
3399.74 -2794.23 1649.63
3399.99 -2793.99 1650.21
3400.19 -2793.88 1650.9
3400.2 -2793.99 1651.49
3400.41 -2793.85 1652.22
3400.25 -2794.49 1653.39
3400.57 -2794.09 1653.1
3400.72 -2793.77 1652.7
3399.53 -2795.71 1654.3
3397.45 -2803.37 1644.6
3397.51 -2801.49 1645.23
3397.8 -2803.76 1643.71
3398.02 -2799.04 1645.07
3415.76 -2793.18 1652.01
3415.55 -2793.64 1651.55
3413.36 -2795.36 1657.59
3412.79 -2794.94 1656.95
3411.31 -2792.81 1654.21
3411.72 -2792.83 1654.56
3399.89 -2797.1 1654.18
3399.91 -2795.47 1654.74
3403.72 -2791.97 1652.21
3404.05 -2791.63 1651.51
3405.03 -2791.75 1652.26
3403.11 -2792.17 1652.36
3402.27 -2792.74 1652.92
3402.55 -2792.32 1652.28
3401.37 -2793.57 1653.47
3400.96 -2793.92 1653.54
3400.59 -2794.5 1653.89
3400.16 -2794.84 1653.96
3406.17 -2791.68 1652.3
3409.9 -2792.37 1653.26
3409.06 -2792.05 1652.6
3407.78 -2791.67 1652.25
3410.79 -2792.71 1653.89
3410.24 -2797.03 1655.93
3411.2 -2796.66 1656.49
3398.78 -2796.18 1646.66
3398.57 -2796.62 1646.2
3399.04 -2795.64 1647.25
3398.24 -2797.88 1645.28
3400.01 -2793.79 1649.42
3399.87 -2794 1648.93
3400.28 -2793.39 1649.99
3400.37 -2793.44 1650.54
3400.54 -2793.48 1651.57
3400.6 -2793.31 1651.07
3400.76 -2793.41 1652.07
3397.92 -2802.85 1644.09
3397.75 -2801.32 1644.79
3398.29 -2803.12 1643.39
3398.31 -2798.25 1644.81
3414.58 -2793.51 1651.45
3415.13 -2793.27 1651.89
3414.25 -2794.16 1650.83
3413.27 -2795.12 1657.11
3412.78 -2794.07 1655.9
3412.1 -2792.59 1654.1
3403.43 -2791.81 1651.66
3403.85 -2791.46 1650.99
3404.88 -2791.59 1651.67
3402.78 -2792.03 1651.86
3401.76 -2792.81 1652.56
3401.52 -2793.16 1653.05
3405.78 -2791.55 1651.82
3409.67 -2792.07 1652.78
3410.59 -2792.46 1653.49
3408.58 -2791.69 1652.27
3406.98 -2791.48 1651.83
3408.56 -2797.37 1653.93
3409.68 -2797.03 1655
3411.93 -2796.39 1656.88
3399.1 -2795.68 1646.72
3398.54 -2796.93 1645.64
3399.54 -2794.72 1647.69
3400.39 -2793.34 1648.97
3400.67 -2793.02 1650.55
3400.92 -2793.05 1651.66
3400.93 -2792.86 1651.06
3401.26 -2792.91 1652.1
3398.28 -2802.38 1643.82
3398.58 -2802.09 1643.54
3398.69 -2802.51 1643.26
3398.66 -2797.65 1644.63
3398.38 -2799.15 1644.36
3416.72 -2793.95 1653.52
3413.6 -2793.64 1650.99
3414.06 -2793.53 1651.37
3413.61 -2794.58 1650.34
3414.72 -2795.02 1651.77
3413.33 -2794.17 1655.86
3413.95 -2794.7 1656.3
3413.79 -2795.24 1657.25
3411.41 -2792.46 1653.43
3412.81 -2792.98 1654.52
3412.71 -2792.64 1653.87
3404.81 -2791.43 1651.1
3401.72 -2792.62 1652.05
3402.21 -2792.23 1651.83
3405.56 -2791.42 1651.29
3409.35 -2797.07 1654.59
3410.19 -2796.82 1655.28
3413.29 -2796.01 1657.58
3399.15 -2795.68 1646.18
3398.94 -2796.13 1645.72
3399.53 -2795.05 1646.94
3398.65 -2797.1 1645.18
3399.93 -2794.11 1648.08
3400.8 -2792.74 1649.33
3400.95 -2792.54 1650.05
3398.22 -2800.99 1644.08
3398.52 -2800.62 1643.79
3398.64 -2798.78 1644.04
3398.88 -2797.98 1644.05
3398.98 -2797.43 1644.25
3413.44 -2794.04 1650.63
3413.25 -2792.87 1651.27
3413.69 -2793.65 1655.13
3414.44 -2794.89 1656.47
3414.89 -2794.39 1655.66
3414.26 -2793.67 1654.88
3412.09 -2792.34 1653.23
3411.15 -2792.26 1653.04
3413.51 -2793.1 1654.26
3413.54 -2792.82 1653.63
3403.23 -2791.62 1651.12
3404.37 -2791.32 1650.71
3401.48 -2792.51 1651.55
3402.32 -2791.95 1651.3
3405.36 -2791.32 1650.81
3409.95 -2791.67 1652.3
3410.49 -2792.01 1652.73
3409.19 -2796.97 1654.06
3410.94 -2796.55 1655.7
3412.85 -2796.06 1656.93
3399.5 -2795.24 1646.32
3399.94 -2794.38 1647.45
3398.92 -2796.7 1644.92
3400.43 -2793.54 1648.22
3400.82 -2792.97 1648.56
3401.09 -2792.56 1648.78
3401.21 -2792.39 1650.53
3401.48 -2792.36 1651.07
3399.14 -2802.2 1642.75
3416.14 -2793.62 1653.41
3414.52 -2793.27 1651.97
3413.72 -2792.96 1651.59
3412.58 -2792.24 1651.36
3413.01 -2793.47 1650.77
3413.78 -2794.75 1651.1
3414.41 -2794.41 1651.83
3415.18 -2794.4 1652.51
3415.96 -2794.23 1653.36
3415.41 -2794.6 1655.78
3415.14 -2793.99 1654.89
3414.35 -2793.4 1654.25
3414.33 -2795.37 1657.39
3412.85 -2792.38 1653.08
3411.62 -2792.11 1652.77
3413.75 -2792.65 1653.01
3414.31 -2793.05 1653.55
3401.8 -2792.07 1650.73
3409.1 -2791.47 1651.98
3410.11 -2796.67 1654.65
3412.53 -2796.1 1656.5
3399.57 -2795.39 1645.84
3399.32 -2795.93 1645.33
3399.95 -2794.61 1646.79
3401.33 -2792.27 1649.17
3401.34 -2792.19 1649.69
3401.59 -2792.05 1650.21
3399.05 -2800.21 1643.13
3399.11 -2798.47 1643.56
3399.32 -2797.79 1643.6
3413.38 -2792.47 1651.89
3411.34 -2791.82 1651.35
3412.69 -2793.99 1650.29
3413 -2794.64 1650.16
3414 -2794.27 1651.55
3415.59 -2794.51 1655.28
3415.1 -2793.6 1654.1
3412.15 -2792.06 1652.58
3411.17 -2791.85 1652.29
3413.28 -2792.42 1652.6
3415.01 -2793.19 1653.31
3403.65 -2791.31 1650.53
3402.66 -2791.6 1650.41
3404.79 -2791.23 1650.15
3404.14 -2791.24 1650.27
3406.93 -2791.42 1651.26
3408.5 -2791.38 1651.67
3410.78 -2791.61 1651.89
3399.52 -2801.89 1642.46
3408.77 -2797.13 1653.39
3413.43 -2795.77 1656.63
3409.99 -2796.59 1654.08
3411.91 -2796.11 1655.45
3411.12 -2796.3 1654.85
3399.99 -2794.87 1646.12
3400.51 -2793.85 1647.4
3399.26 -2796.44 1644.51
3400.97 -2793.13 1647.98
3399.33 -2796.77 1644.12
3401.29 -2792.67 1648.23
3399.47 -2797.15 1643.67
3416.42 -2794.34 1654.54
3411.81 -2791.82 1651.68
3415.77 -2794.3 1653.89
3412.5 -2792.77 1650.93
3410.69 -2791.88 1651.09
3410.01 -2791.62 1651.3
3414.74 -2794.2 1652.66
3414.97 -2794.26 1653.19
3415.16 -2794.47 1654.64
3414.82 -2794.89 1655.72
3412.24 -2792 1652.08
3403.75 -2791.25 1649.95
3403.2 -2791.36 1650.01
3402.14 -2791.69 1650.05
3405.76 -2791.32 1650.44
3409.24 -2796.79 1653.54
3414.19 -2795.22 1656.11
3413.26 -2795.51 1655.65
3412.17 -2795.75 1654.79
3411.06 -2796.03 1654.03
3409.89 -2796.35 1653.27
3399.75 -2795.79 1645.04
3400.64 -2794.05 1646.91
3401.65 -2792.13 1648.68
3401.92 -2791.79 1649.46
3399.41 -2800.18 1642.72
3399.53 -2798.28 1643.17
3400.1 -2802.13 1641.94
3415.85 -2794.37 1654.42
3415.27 -2794.32 1653.75
3411.75 -2792.34 1650.91
3412.22 -2793.3 1650.48
3413.23 -2794.14 1651.31
3413.47 -2794.2 1651.89
3414.19 -2794.24 1652.56
3414.47 -2794.3 1653.13
3414.67 -2794.63 1654.73
3414.67 -2794.42 1653.99
3414.4 -2794.89 1655.27
3402.56 -2791.51 1649.67
3404.49 -2791.16 1649.65
3406.24 -2791.35 1650.27
3405.12 -2791.1 1649.67
3408.79 -2797.59 1649.45
3409.12 -2796.66 1653.04
3413.63 -2795.19 1655.28
3414.01 -2794.92 1654.95
3412.53 -2795.42 1654.4
3411.44 -2795.68 1653.61
3410.28 -2796.02 1652.91
3409.53 -2796.24 1652.47
3408.5 -2797.55 1648.82
3408.15 -2797.42 1648.12
3399.72 -2796.11 1644.64
3400.46 -2794.79 1645.89
3401.46 -2792.92 1647.52
3399.75 -2797.58 1643.2
3408.02 -2791.34 1650.93
3407.54 -2791.41 1650.28
3405.43 -2791.39 1649.07
3407.24 -2791.55 1649.86
3411.48 -2792.8 1650.51
3412.04 -2793.91 1650.09
3412.42 -2794.16 1650.76
3413.69 -2794.29 1652.54
3414.21 -2794.63 1654.23
3403.1 -2791.36 1649.5
3403.62 -2791.25 1649.41
3404.23 -2801.1 1642.29
3405.27 -2800.37 1643.04
3405.96 -2800 1643.47
3407.58 -2798.63 1645.85
3407.05 -2799.4 1644.74
3406.98 -2798.6 1645.1
3407.6 -2798.26 1646.38
3407.76 -2797.84 1647.04
3413.27 -2795.04 1654.39
3413.73 -2794.74 1654.07
3411.98 -2795.29 1653.3
3410.61 -2795.7 1652.51
3409.84 -2795.93 1652.06
3408.22 -2797.03 1648.58
3407.92 -2797.32 1647.62
3401.13 -2794.02 1646.42
3401.81 -2792.42 1647.91
3402.42 -2791.65 1648.96
3399.84 -2800.46 1642.36
3399.7 -2799 1642.67
3399.87 -2801.54 1642.08
3409.8 -2791.84 1650.89
3405.59 -2791.73 1648.71
3404.8 -2791.26 1649.04
3411.38 -2793.41 1650.15
3410.64 -2792.41 1650.59
3411.74 -2794.48 1650.79
3412.56 -2794.44 1651.79
3413.41 -2794.55 1653.12
3413.84 -2794.49 1653.37
3412.76 -2794.65 1652.65
3403.1 -2791.39 1648.97
3404.08 -2791.18 1649.1
3404.64 -2800.39 1642.78
3403.68 -2800.99 1642.35
3405.52 -2799.7 1643.41
3404.89 -2799.79 1643.07
3406.04 -2799.46 1643.75
3403.12 -2801.04 1642.19
3406.97 -2797.9 1645.78
3406.57 -2798.65 1644.79
3406.32 -2799.15 1644.11
3406.11 -2797.23 1645.43
3407.1 -2797.4 1646.51
3407.44 -2797.02 1647.27
3408.57 -2796.99 1649.44
3408.92 -2797.19 1650.07
3413.04 -2794.85 1653.57
3410.81 -2795.42 1652.05
3411.95 -2795.03 1652.55
3410.18 -2795.6 1651.68
3407.84 -2796.76 1647.92
3400.41 -2795.45 1645.08
3399.86 -2796.66 1643.91
3401.78 -2793.24 1646.99
3400.09 -2797.14 1643.31
3402.13 -2791.89 1648.51
3399.92 -2798.49 1642.68
3400.24 -2800.27 1641.86
3407.61 -2791.94 1649.73
3405 -2791.61 1648.52
3404.69 -2791.81 1648.14
3411.49 -2794.41 1650.25
3411.15 -2794.74 1650.68
3411.65 -2794.79 1651.5
3403.92 -2800.54 1642.59
3404.41 -2799.7 1642.86
3405.57 -2799.11 1643.67
3405.13 -2799.3 1643.33
3404.25 -2798.32 1643.33
3405.89 -2798.88 1644.07
3406.17 -2796.15 1646.43
3405.47 -2797.29 1644.82
3405.5 -2796.31 1645.55
3405.72 -2794.71 1646.97
3406.83 -2796.45 1647.19
3408.91 -2796.68 1652.55
3410.98 -2795.13 1651.5
3410.5 -2795.32 1651.31
3407.94 -2796.47 1648.33
3408.27 -2796.33 1649.06
3401.15 -2794.68 1645.75
3400.22 -2795.85 1644.69
3402.26 -2792.53 1647.52
3402.35 -2792.05 1648.06
3400.22 -2798 1642.73
3400.6 -2801.71 1641.69
3400.21 -2799.06 1642.31
3405.5 -2792.11 1648.36
3404.39 -2791.35 1648.58
3411.36 -2793.99 1649.89
3409.62 -2792.28 1650.52
3408.18 -2792.13 1649.95
3403.49 -2791.4 1648.64
3403.67 -2798.69 1643.02
3404.13 -2800.11 1642.78
3403.35 -2800.28 1642.52
3404.86 -2797.95 1643.88
3403.58 -2797.12 1643.68
3403.99 -2796.75 1644.06
3402.17 -2801.23 1641.87
3401.49 -2802.02 1641.78
3406.6 -2795.3 1647.6
3406.38 -2794.45 1647.82
3405.16 -2794.19 1646.76
3406.38 -2793.47 1648.19
3407.73 -2793.26 1649.17
3407.23 -2795.73 1648.22
3407.71 -2795.69 1648.66
3408.88 -2796.72 1650.24
3408.62 -2796.58 1649.74
3409.16 -2796.39 1652.15
3410.62 -2795.05 1650.68
3400.81 -2795.2 1645.27
3401.96 -2793.82 1646.38
3402.34 -2792.94 1647.11
3402.69 -2791.69 1648.47
3400.49 -2797.38 1643
3400.5 -2796.84 1643.52
3400.29 -2796.39 1644.02
3401.12 -2801.53 1641.75
3405.03 -2792.25 1647.93
3404.42 -2792.12 1647.66
3404.01 -2791.71 1648.15
3404.09 -2792.44 1647.31
3404.08 -2792.92 1646.92
3410.4 -2793.01 1650.23
3410.7 -2793.51 1650.02
3407.4 -2792.3 1649.42
3403.08 -2797.57 1643.33
3403.19 -2799.05 1642.73
3402.53 -2800.66 1642.08
3404.54 -2796.34 1644.67
3403.7 -2795.78 1644.71
3404.17 -2795.28 1645.3
3403.27 -2796.19 1644.25
3407.16 -2794.84 1648.64
3408 -2793.72 1649.41
3408.51 -2792.67 1649.85
3409.82 -2792.74 1650.28
3407.48 -2795.21 1648.76
3409 -2797.02 1650.82
3409.47 -2796.06 1651.7
3410.97 -2794.71 1650.21
3410.24 -2795.33 1650.88
3408.73 -2796.03 1650.04
3408.41 -2795.59 1649.43
3401.9 -2794.21 1646.03
3400.48 -2798.53 1642.35
3400.88 -2800.19 1641.53
3404.57 -2792.85 1647.26
3404.06 -2793.66 1646.42
3403.41 -2791.69 1648.14
3403.38 -2794.65 1645.46
3405.2 -2792.86 1647.66
3402.88 -2797.02 1643.57
3402.91 -2796.42 1643.96
3402.64 -2798.01 1642.96
3402.63 -2799.17 1642.36
3404.61 -2793.36 1646.93
3403.05 -2795.73 1644.54
3401.86 -2800.68 1641.83
3401.59 -2801.25 1641.81
3408.15 -2794.27 1649.46
3409.83 -2793.48 1650.02
3408.79 -2796.33 1650.75
3409.7 -2795.81 1651.31
3409.34 -2794.96 1649.79
3401.65 -2794.69 1645.57
3402.7 -2793.4 1646.6
3402.98 -2792.65 1647.19
3403 -2792.13 1647.65
3401.02 -2797.88 1642.65
3401.18 -2797.07 1643.03
3401.01 -2796.63 1643.48
3401 -2795.52 1644.72
3400.89 -2798.82 1642.17
3403.52 -2792.22 1647.46
3403.26 -2793.05 1646.82
3403.16 -2794.09 1645.9
3402.69 -2795.22 1644.86
3402.62 -2795.98 1644.19
3402.51 -2796.64 1643.64
3402.05 -2799.39 1642.08
3402.21 -2798.46 1642.55
3410.76 -2794.05 1649.84
3408.58 -2794.8 1649.54
3409.37 -2795.73 1650.66
3408.83 -2796.75 1651.27
3409.07 -2796.35 1651.57
3409.81 -2795.16 1650.07
3402.63 -2793.88 1646.19
3401.04 -2798.37 1642.43
3401.59 -2797.95 1642.73
3400.94 -2795.97 1644.18
3402.51 -2794.27 1645.81
3401.58 -2799.81 1641.69
3402.19 -2794.94 1645.15
3401.79 -2795.84 1644.27
3402.16 -2796.18 1643.9
3402.25 -2797.23 1643.19
3401.71 -2798.46 1642.5
3401.78 -2797.1 1643.04
3401.69 -2796.51 1643.53
