3595.54 -2762.02 3399.19
3599.38 -2757.96 3399.36
3598.33 -2757.38 3399.93
3595.36 -2757.45 3401.05
3591.52 -2756.29 3401.72
3590.84 -2757.25 3401.47
3593.77 -2757.53 3401.46
3583.7 -2757.11 3396.91
3579.86 -2755.73 3400.4
3581.41 -2756.28 3399.35
3581.96 -2756.46 3398.31
3579.6 -2755.49 3399.81
3579.35 -2755.26 3399.25
3580.18 -2755.53 3399.72
3580.72 -2755.4 3398.71
3587.23 -2758.82 3399.25
3586.49 -2758.86 3398.46
3585.45 -2758.85 3397.31
3584.39 -2757.82 3397.04
3584.49 -2758.3 3396.71
3581.83 -2755.99 3398.08
3581.14 -2755.66 3398.14
3583.39 -2756.9 3397.43
3590.45 -2757.98 3401.41
3595.48 -2759.98 3399.63
3596.56 -2758.58 3399.91
3593.66 -2758.46 3400.74
3591.83 -2758.17 3401.08
3591.34 -2757.48 3401.36
3594.14 -2761.99 3399.29
3580.27 -2762.18 3390.21
3578.62 -2759.05 3390.21
3577.39 -2757.22 3390.62
3576.09 -2755.71 3391.49
3575.53 -2755.47 3392.34
3575.86 -2755.65 3391.99
3575.14 -2756.96 3394.25
3574.99 -2756.55 3393.96
3574.81 -2755.87 3393.49
3574.4 -2758.05 3396.45
3574.76 -2757.58 3395.71
3574.57 -2757.18 3395.45
3574.37 -2756.77 3395.18
3574.71 -2756.79 3394.69
3572.88 -2759.09 3399.32
3572.33 -2758.89 3399.72
3570.36 -2758.15 3401.92
3568.86 -2757.92 3406.47
3572.87 -2758.68 3397.82
3573.33 -2758.68 3397.43
3573.91 -2758.3 3396.63
3600 -2759.3 3399.32
3599.39 -2759.11 3399.21
3598.9 -2758.92 3399.21
3597.34 -2760.27 3399.17
3594.93 -2761.6 3399.35
3596.82 -2757.42 3400.46
3598.95 -2757.73 3399.5
3599.97 -2758.27 3399.22
3594.84 -2757.46 3401.28
3592.88 -2756.94 3401.5
3591.54 -2756.79 3401.5
3594.31 -2757.87 3401.19
3583.88 -2757.55 3396.7
3582.93 -2756.8 3396.65
3583.42 -2757.22 3396.48
3578.45 -2755.58 3399.6
3579.26 -2755.92 3400.31
3580.54 -2756.07 3399.97
3576.66 -2755.18 3398.37
3582.28 -2756.6 3397.28
3576.4 -2754.84 3397.89
3578.63 -2754.83 3398.67
3576.07 -2754.46 3397.36
3580.01 -2755.38 3399.13
3581.48 -2755.87 3397.62
3580.85 -2755.57 3397.56
3580.42 -2755.31 3398.13
3585.92 -2759.03 3397.68
3581.98 -2756.16 3397.3
3582.93 -2756.68 3397.27
3595.98 -2760.16 3399.46
3597.65 -2758.5 3399.59
3596.19 -2758.28 3400.2
3597.87 -2758.06 3399.73
3592.14 -2757.77 3401.18
3593.11 -2758.11 3401.08
3580.6 -2762.9 3389.24
3579.85 -2761.25 3389.28
3576.74 -2756.22 3390.25
3576.21 -2755.56 3390.65
3575.68 -2754.87 3391.44
3575.97 -2755.22 3391.75
3574.5 -2755.91 3393.96
3574.97 -2755.09 3392.94
3574.16 -2756.38 3394.94
3572.3 -2758.84 3399.07
3570.55 -2758.33 3401.11
3568.65 -2757.42 3404.61
3568.45 -2758.04 3407.62
3568.25 -2758.65 3410.38
3572.26 -2758.75 3398.47
3588.31 -2759.23 3399.48
3599.77 -2758.78 3399.13
3598.43 -2758.54 3399.37
3598.35 -2758.04 3399.59
3596.69 -2757.87 3400.24
3594.91 -2757.98 3400.95
3586.65 -2758.95 3397.38
3587.37 -2759.26 3397.96
3577.46 -2755.7 3399.31
3580.62 -2756.14 3399.29
3575.57 -2754.75 3397.51
3581.44 -2756.36 3397.98
3575.25 -2754.28 3396.89
3579.57 -2755.22 3398.53
3581.3 -2755.85 3397.11
3580.65 -2755.53 3397.08
3580.16 -2755.24 3397.59
3588.22 -2759.46 3398.96
3587.34 -2759.2 3398.91
3586.46 -2759.2 3398.05
3585.06 -2758.65 3397.04
3585.16 -2759.18 3396.66
3584.6 -2758.72 3396.44
3584.08 -2758.44 3396.1
3592.36 -2757.35 3401.42
3580.09 -2762.09 3388.26
3578.03 -2758.19 3389.6
3575.58 -2754.54 3390.55
3575.35 -2754.49 3391.09
3575.59 -2754.95 3392.5
3576.11 -2754.97 3392.23
3575.23 -2754.66 3392.93
3574.37 -2757.55 3396.03
3574 -2755.97 3394.67
3570.66 -2758.49 3400.45
3568.71 -2757.41 3402.97
3571.44 -2758.72 3398.97
3568.15 -2757.43 3405.29
3572.22 -2758.59 3397.7
3572.74 -2758.39 3397.23
3573.38 -2758.27 3396.7
3573.96 -2757.83 3396.28
3583.27 -2757.58 3395.96
3582.41 -2756.74 3395.91
3575.77 -2755.06 3397.91
3576.94 -2755.75 3399.12
3579.92 -2756.26 3399.54
3580.62 -2756.2 3398.69
3574.93 -2753.78 3396.27
3581.84 -2756.54 3396.54
3574.5 -2753.52 3395.82
3577.9 -2754.35 3397.79
3578.78 -2754.71 3398
3580.99 -2755.84 3396.58
3579.79 -2755.11 3397.12
3579.22 -2754.88 3397.39
3579.4 -2755.05 3397.93
3585.72 -2759.36 3397.12
3583.59 -2758.11 3395.85
3582.46 -2756.54 3396.76
3580.48 -2763.37 3386.76
3578.43 -2759.22 3388.83
3576.86 -2756.48 3389.58
3575.24 -2754.02 3390.44
3575.08 -2754.05 3391.08
3575.79 -2754.28 3391.79
3575.36 -2753.98 3391.68
3575.92 -2754.57 3392.65
3574.13 -2757.22 3395.74
3574.19 -2755.42 3394.12
3574.58 -2754.81 3393.37
3571.54 -2758.74 3398.43
3570.04 -2758.34 3400.12
3567.78 -2757.87 3407.68
3567.66 -2758.45 3410.28
3586.02 -2758.75 3397.06
3575.9 -2755.61 3398.59
3575.01 -2755.2 3397.89
3574.68 -2754.78 3397.32
3578.52 -2756.32 3400.41
3579.42 -2756.38 3399.84
3580.74 -2756.26 3397.93
3574.42 -2754.4 3396.81
3573.98 -2754.03 3396.27
3581.29 -2756.39 3397.03
3577.67 -2754.14 3397.39
3575.42 -2753.84 3396.49
3574.04 -2753.1 3395.23
3580.2 -2755.44 3396.59
3580.58 -2755.7 3396.31
3578.54 -2754.49 3397.3
3584.53 -2759.26 3395.87
3584.96 -2759.54 3396.1
3583.76 -2758.64 3395.55
3581.64 -2756.32 3396.06
3582.89 -2756.95 3396.11
3580.45 -2764.21 3384.66
3579.69 -2762.04 3387.18
3576.5 -2756.26 3389.01
3575.62 -2754.62 3389.8
3579.89 -2765.29 3381.96
3574.98 -2753.62 3390.21
3574.86 -2753.53 3390.91
3574.89 -2753.64 3391.52
3576.2 -2754.42 3392.23
3575.42 -2753.5 3392.28
3575.09 -2754.35 3393.5
3576.12 -2754.18 3392.9
3575.52 -2754.22 3393.22
3573.89 -2756.79 3395.37
3574.25 -2754.73 3393.77
3573.52 -2755.84 3394.78
3568.14 -2757.34 3402.78
3567.51 -2757.35 3404.81
3570.58 -2758.62 3398.56
3566.85 -2759.42 3413.98
3571.65 -2758.74 3397.87
3571.79 -2758.62 3397.37
3572.45 -2758.37 3396.74
3573.4 -2757.83 3396.28
3583.16 -2758.03 3395.43
3582.8 -2757.5 3395.5
3582.31 -2757.22 3395.19
3582.58 -2757.69 3395.07
3581.88 -2756.64 3395.44
3575.38 -2755.62 3398.46
3576.35 -2756.09 3399.19
3574.13 -2754.75 3397.16
3574.4 -2755.13 3397.66
3576.94 -2756.27 3399.69
3579.69 -2756.43 3398.92
3579.18 -2756.54 3399.33
3580.77 -2756.33 3397.25
3580.16 -2756.42 3397.9
3573.55 -2753.61 3395.75
3581.15 -2756.41 3396.29
3574.04 -2752.77 3394.84
3573.39 -2752.84 3394.9
3574.57 -2753.11 3395.39
3579.83 -2755.34 3396.25
3580.87 -2756.01 3395.74
3579.12 -2754.83 3396.7
3579.35 -2755.05 3396.27
3587.92 -2759.67 3398.27
3588.66 -2759.78 3399.3
3587.63 -2759.59 3398.72
3586.51 -2759.69 3397.5
3588.42 -2759.93 3398.66
3585.49 -2759.7 3396.51
3584.1 -2759.18 3395.44
3579.66 -2762.58 3386.21
3577.51 -2758.3 3388.25
3575.32 -2754.8 3388.79
3575.18 -2754.19 3389.5
3574.71 -2753.48 3389.7
3574.65 -2753.13 3390.51
3574.65 -2753.13 3391.34
3574.72 -2753.22 3391.89
3575.96 -2753.97 3392.28
3575.43 -2754.64 3394.25
3575.68 -2754.42 3393.73
3573.65 -2756.37 3395.06
3574.7 -2754.57 3394.04
3573.36 -2755.37 3394.55
3571.04 -2758.78 3398.12
3568.12 -2757.4 3402.04
3567.35 -2757.13 3403.78
3567.09 -2757.46 3405.71
3569.66 -2758.35 3399.38
3567.13 -2757.73 3407.91
3567.06 -2758.19 3409.97
3571.23 -2758.78 3397.59
3571.86 -2758.52 3396.85
3572.8 -2758.24 3396.38
3574.81 -2755.53 3398.22
3575.52 -2756.26 3398.95
3573.54 -2754.76 3397.03
3573.38 -2754.41 3396.57
3573.07 -2753.98 3396.08
3577.8 -2756.52 3400.33
3578.68 -2756.64 3399.77
3579.59 -2756.54 3398.36
3579.03 -2756.67 3398.72
3580.05 -2756.54 3397.3
3573.36 -2753.22 3395.33
3572.91 -2753.51 3395.61
3573.56 -2752.45 3394.46
3572.97 -2752.56 3394.58
3579.89 -2755.49 3395.67
3579.44 -2755.22 3395.68
3578.79 -2754.77 3395.95
3578.91 -2754.93 3395.48
3575.02 -2753.25 3395.7
3575.68 -2753.44 3395.57
3584.62 -2759.74 3395.51
3583.39 -2758.82 3394.96
3579.56 -2763.22 3384.91
3578.45 -2760.45 3387.22
3578.99 -2765.17 3380.34
3576.42 -2756.87 3388.14
3574.92 -2754.81 3388
3574.87 -2754.11 3388.92
3574.46 -2753.53 3389.03
3574.44 -2752.78 3391.73
3574.59 -2752.82 3392.23
3575.34 -2753.15 3392.89
3576.24 -2754.53 3394.01
3576.48 -2754.27 3393.34
3575.71 -2754.92 3394.93
3575.04 -2754.84 3394.7
3573.53 -2754.74 3394.11
3568.19 -2757.37 3401.3
3567.35 -2757.17 3402.88
3566.69 -2757.1 3404.74
3566.86 -2757.55 3406.75
3570.1 -2758.64 3398.32
3571.31 -2758.67 3397.05
3573.59 -2757.5 3395.95
3585.56 -2758.67 3396.83
3582.97 -2758.3 3394.95
3581.21 -2756.52 3395.25
3581.53 -2756.67 3394.81
3581.91 -2756.96 3394.97
3574.97 -2756.4 3398.85
3574.56 -2756.12 3398.55
3572.83 -2754.51 3396.59
3573.9 -2755.46 3397.92
3576.41 -2756.51 3399.74
3575.64 -2756.64 3399.45
3579.55 -2756.64 3397.75
3580.51 -2756.55 3396.24
3579.94 -2756.67 3396.72
3572.85 -2752.99 3395.06
3572.41 -2753.23 3395.29
3572.79 -2752.19 3394.24
3579.43 -2755.36 3394.92
3579.62 -2755.55 3394.47
3580.17 -2755.84 3394.72
3580.72 -2756.13 3394.95
3578.33 -2754.56 3395.6
3578.49 -2754.83 3394.69
3574.76 -2752.8 3394.54
3576.48 -2753.74 3396.14
3575.43 -2753.4 3394.94
3577.44 -2754.06 3396.47
3578.58 -2754.52 3396.64
3586.93 -2759.44 3397.3
3588.79 -2760.15 3398.98
3587.6 -2760.05 3398.14
3585.5 -2760.03 3396.12
3584.09 -2759.72 3394.93
3583.67 -2759.29 3394.84
3579.22 -2763.64 3383.64
3578.6 -2761.46 3386.18
3577.97 -2760.1 3386.91
3574.57 -2754.09 3388.32
3574.27 -2753.99 3387.84
3574.21 -2753.62 3388.38
3574.17 -2752.96 3389.73
3574.16 -2752.7 3390.5
3575.87 -2753.53 3392.85
3574.85 -2752.77 3393.09
3577.05 -2754.77 3394.12
3576.63 -2754.86 3394.64
3577.48 -2754.5 3393.39
3578.15 -2754.77 3393.94
3575.96 -2755.21 3395.61
3573.53 -2757.09 3395.58
3575.31 -2755.1 3395.33
3573.02 -2754.99 3394.45
3574.29 -2754.88 3394.49
3570.52 -2758.82 3397.83
3567.41 -2757.26 3401.79
3566.71 -2757.06 3403.17
3566.16 -2756.92 3404.5
3566.49 -2757.44 3406.34
3566.48 -2757.73 3408.24
3569.04 -2757.96 3399.08
3567.76 -2756.79 3401.25
3566.16 -2758.28 3410.57
3565.53 -2759.53 3414.4
3570.76 -2758.84 3397.3
3571.86 -2758.45 3396.31
3572.88 -2757.88 3396.02
3586.19 -2759.13 3396.74
3580.79 -2756.55 3395.56
3573.93 -2755.87 3398.22
3574.34 -2756.56 3398.75
3575.07 -2756.75 3399.26
3572.34 -2754.11 3396.16
3573.23 -2755.23 3397.5
3572.54 -2754.88 3396.95
3573.4 -2755.63 3397.92
3576.95 -2756.71 3400.21
3578.11 -2756.92 3399.14
3578.76 -2756.84 3397.6
3579.24 -2756.74 3396.92
3578.28 -2756.94 3398.28
3579.53 -2756.61 3396.31
3572.39 -2752.76 3394.81
3571.93 -2752.9 3394.99
3573.31 -2751.98 3393.94
3572.59 -2751.85 3393.89
3574.2 -2752.34 3394.35
3573.81 -2752.08 3393.98
3579.03 -2755.27 3394.08
3577.83 -2754.42 3394.74
3576.36 -2753.75 3395.53
3575.24 -2753.06 3393.85
3574.69 -2752.55 3393.85
3577.91 -2754.26 3396.07
3586.71 -2760.18 3397.11
3583.28 -2759.11 3394.56
3582.92 -2758.59 3394.54
3578.77 -2763.33 3383.53
3578.26 -2761.69 3385.44
3577.67 -2760.36 3386.27
3576.03 -2757.09 3387.34
3578.48 -2764.8 3379.99
3574.55 -2754.82 3387.3
3574.2 -2754.22 3387.34
3574.01 -2753.15 3388.97
3573.91 -2752.45 3391.6
3574.13 -2752.54 3392.36
3576.25 -2753.82 3393.5
3577.03 -2754.1 3393.98
3577.42 -2754.26 3394.29
3575.69 -2753.35 3393.34
3577.41 -2755.18 3394.78
3576.7 -2755.23 3395.46
3576.17 -2755.49 3396.3
3575.59 -2755.37 3395.99
3574.64 -2755.15 3395.31
3569.53 -2758.65 3398.18
3566.74 -2757.22 3401.88
3566.05 -2757.06 3403.03
3565.89 -2757.24 3405.56
3565.6 -2756.95 3403.91
3565.8 -2757.6 3407.22
3565.86 -2757.88 3408.91
3567.27 -2756.59 3401.26
3565.61 -2758.35 3410.88
3570.01 -2758.85 3397.58
3571.27 -2758.6 3396.47
3572.34 -2758.28 3396.02
3579.73 -2756.3 3395.41
3573.48 -2756.15 3398.25
3573.62 -2756.55 3398.53
3571.95 -2753.44 3395.65
3572.05 -2754.5 3396.6
3572.69 -2755.65 3397.71
3577.55 -2756.98 3399.96
3575.8 -2756.89 3399.86
3575.31 -2757.04 3399.76
3574.81 -2757.09 3399.53
3577.75 -2756.54 3397.64
3577.44 -2756.68 3398.2
3578.14 -2756.42 3397.05
3577.23 -2756.85 3398.78
3579.15 -2756.36 3396.04
3572.08 -2752.4 3394.48
3572.07 -2751.95 3394.05
3572.91 -2751.89 3393.45
3572.21 -2751.74 3393.35
3578.2 -2755.48 3394.8
3578.84 -2755.77 3394.95
3579.31 -2756.05 3395.19
3577.69 -2754.23 3395.51
3577.43 -2754.17 3394.94
3575.81 -2753.56 3394.32
3576.84 -2753.94 3395.22
3584.76 -2760.26 3395.12
3584.3 -2760.15 3394.76
3583.86 -2759.88 3394.5
3578.41 -2763.64 3382.41
3578.12 -2762.33 3384.34
3577.49 -2761.27 3385.05
3577.02 -2760.15 3385.75
3575.83 -2757.39 3386.78
3574 -2754.4 3386.89
3574.3 -2755.02 3386.72
3575.26 -2757.04 3386.34
3573.65 -2753.47 3387.86
3573.59 -2753.74 3387.35
3573.77 -2753.28 3388.34
3573.64 -2752.54 3389.74
3573.64 -2752.41 3390.8
3574.23 -2752.44 3392.94
3577.84 -2765.01 3378.49
3574.41 -2752.4 3393.41
3576.88 -2755.7 3396.41
3576.66 -2755.84 3396.9
3577.94 -2755.78 3395.72
3577.51 -2755.53 3395.49
3573.15 -2756.11 3395.07
3573.25 -2756.64 3395.35
3574.22 -2757.13 3397.04
3574.08 -2756.88 3396.49
3574.79 -2755.36 3395.78
3575.3 -2755.55 3396.41
3575.71 -2755.74 3396.89
3569.21 -2758.83 3397.75
3566.19 -2757.14 3401.73
3565.47 -2757.14 3402.64
3565.25 -2757.26 3405.01
3565.29 -2757.62 3407.03
3565.2 -2757.1 3403.53
3565.12 -2758 3409.27
3568.57 -2757.87 3398.64
3567.61 -2756.09 3400.73
3566.6 -2756.5 3401.21
3564.49 -2759.21 3413.08
3570.27 -2758.91 3397.06
3570.7 -2758.76 3396.67
3573.08 -2757.49 3395.76
3584.11 -2757.99 3396.35
3578.17 -2756.03 3396.09
3572.98 -2756.37 3398.23
3574.26 -2757.03 3399.13
3571.46 -2752.92 3395.43
3571.6 -2753.79 3396.29
3571.48 -2753.26 3395.9
3572.25 -2755.32 3397.37
3571.78 -2754.77 3397.06
3571.56 -2752.64 3394.7
3576.77 -2757 3399.52
3576.59 -2756.21 3397.78
3576.33 -2756.33 3398.22
3576.37 -2756.55 3398.74
3576.81 -2756.07 3397.33
3576.3 -2756.75 3399.25
3572.58 -2751.85 3392.93
3573.2 -2752.09 3392.97
3586.64 -2760.49 3396.68
3587.75 -2760.52 3397.73
3585.76 -2759.11 3396.44
3587.41 -2759.87 3397.5
3585.4 -2760.46 3395.51
3585.08 -2759.16 3395.72
3584.59 -2758.83 3395.58
3578.03 -2763.73 3381.71
3577.75 -2762.8 3383.13
3577.37 -2761.88 3384.13
3576.64 -2761.4 3384.06
3576.64 -2760.82 3384.68
3576.14 -2759.89 3385
3577.91 -2764.38 3380.21
3573.8 -2754.6 3386.42
3574.04 -2755.25 3386.14
3574.91 -2757.01 3385.91
3573.37 -2753.92 3386.82
3573.55 -2752.84 3388.86
3573.38 -2752.27 3390.25
3573.52 -2752.37 3392
3576.11 -2755.86 3397.18
3573.04 -2755.66 3394.84
3574.7 -2757.21 3397.98
3569.59 -2758.96 3397.27
3565.56 -2757.02 3401.58
3565.01 -2757.23 3402.43
3564.71 -2757.62 3406.44
3564.81 -2757.32 3404.52
3564.53 -2757.87 3408.35
3564.67 -2757.37 3403.08
3564.58 -2758.65 3411.25
3571.38 -2758.51 3395.94
3571.83 -2758.33 3395.65
3572.42 -2757.83 3395.58
3572.39 -2756.47 3398.12
3573.4 -2757.22 3398.88
3572.98 -2757.07 3398.64
3571.08 -2752.66 3394.85
3571.35 -2754.05 3396.77
3572.02 -2755.99 3397.85
3571.61 -2755.35 3397.77
3571.21 -2752.37 3394.45
3576.57 -2757.13 3400.46
3573.84 -2757.34 3399.27
3575.92 -2756.12 3397.79
3575.62 -2756.51 3398.52
3571.36 -2752.01 3394.11
3571.61 -2751.71 3393.7
3571.95 -2751.74 3392.62
3571.75 -2751.6 3393.17
3572.56 -2751.92 3392.3
3573.57 -2752.46 3392.79
3588.36 -2760.28 3398.28
3588.83 -2760.58 3398.64
3586.65 -2759.61 3396.81
3585.02 -2758.79 3396.12
3577.4 -2763.42 3381.63
3577.05 -2762.54 3382.84
3576.54 -2761.88 3383.37
3575.95 -2761.06 3383.65
3575.63 -2759.88 3384.45
3577.59 -2764.09 3380.47
3574.73 -2757.3 3385.48
3573.9 -2755.59 3385.75
3573.28 -2753.09 3388.01
3573.18 -2753.27 3387.55
3573.18 -2754.09 3386.24
3573.32 -2754.5 3385.95
3573.08 -2752.3 3389.39
3573.12 -2752.16 3391.14
3573.07 -2752.18 3391.66
3577.3 -2764.59 3378.92
3574.54 -2756.49 3396.8
3574.33 -2756.28 3396.2
3573.26 -2757.26 3396.45
3573.73 -2757.35 3397.51
3574.55 -2757.36 3398.68
3575.24 -2757.24 3398.91
3574.1 -2757.4 3398.44
3573.98 -2755.4 3394.71
3568.56 -2758.85 3397.85
3568.84 -2759.02 3397.27
3564.58 -2757.46 3401.86
3565.06 -2757.32 3401.28
3564.2 -2757.71 3405.89
3564.15 -2757.88 3407.63
3564.33 -2757.51 3404.29
3564.23 -2758.33 3409.82
3563.93 -2757.8 3403.19
3564.02 -2757.73 3402.23
3563.6 -2759.67 3413.93
3567.79 -2757.36 3398.56
3566.91 -2756.1 3400.31
3565.62 -2757.08 3400.71
3569.92 -2759.1 3396.61
3570.66 -2758.7 3396.15
3572.9 -2757.33 3395.31
3572.85 -2756.85 3395.57
3572.8 -2756.93 3396.4
3572.09 -2757.01 3398.48
3570.84 -2752.75 3395.52
3570.84 -2752.92 3396.08
3570.9 -2753.31 3396.48
3571.52 -2754.91 3397.49
3571.2 -2754.3 3397.23
3575.94 -2757.28 3400.24
3575.04 -2756.69 3397.86
3574.9 -2756.46 3397.35
3573.19 -2757.5 3398.06
3575.27 -2756.02 3397.35
3575.43 -2756.25 3397.9
3570.84 -2752.09 3394.17
3571.37 -2751.7 3392.67
3571.74 -2751.77 3392.13
3587.64 -2760.92 3397.3
3586.79 -2761.11 3396.36
3588.55 -2760.83 3398.17
3586.12 -2761.12 3395.71
3585.22 -2760.91 3394.98
3584.51 -2760.73 3394.31
3576.54 -2762.92 3381.75
3576.96 -2763.45 3381.18
3576.16 -2762.24 3382.54
3575.76 -2761.48 3383.04
3575.12 -2760.97 3383.03
3575.31 -2760.51 3383.6
3575.22 -2759.9 3384.05
3574.57 -2757.61 3385.11
3577.1 -2764.03 3380.17
3573.57 -2755.1 3385.71
3573.87 -2756.01 3385.44
3573.17 -2752.68 3388.54
3572.85 -2751.96 3390.03
3576.92 -2764.67 3378.15
3576.75 -2764.22 3379.41
3574.5 -2755.79 3395.88
3573.24 -2757.41 3397.31
3568.02 -2758.99 3397.56
3568.98 -2759.18 3396.79
3569.41 -2759.22 3396.47
3564.19 -2757.65 3401.34
3564.64 -2757.64 3400.89
3563.78 -2757.83 3405.61
3563.66 -2758.11 3407.68
3563.79 -2758.37 3409.41
3563.63 -2757.89 3404.31
3563.15 -2759.74 3413.72
3562.23 -2758.39 3402.02
3562.47 -2758.28 3401.2
3566.27 -2756.7 3400.1
3565.02 -2757.62 3400.39
3570.11 -2759.12 3396.05
3572.17 -2757.71 3395.11
3572.41 -2756.28 3396.4
3572.71 -2757.19 3397.06
3576.5 -2764.89 3376.9
3576.47 -2764.49 3378.32
3571.65 -2756.55 3398.56
3571.39 -2755.71 3398.24
3572.86 -2757.6 3398.84
3572.7 -2757.46 3397.79
3570.53 -2752.57 3395.02
3570.31 -2752.35 3394.46
3570.77 -2753.61 3396.96
3571 -2755.24 3398.28
3571.04 -2754.77 3397.84
3570.87 -2751.87 3393.72
3570.41 -2752.09 3393.78
3571.07 -2751.8 3393.12
3571.06 -2751.84 3392.01
3571.86 -2751.65 3391.64
3572.52 -2751.83 3391.8
3572.38 -2751.69 3391.17
3586.3 -2759.59 3396.43
3588.51 -2761.34 3397.82
3587.71 -2761.48 3397.02
3587.24 -2762.07 3395.88
3585.64 -2759.45 3395.92
3585.02 -2761.87 3393.92
3587.5 -2763.06 3395.16
3587.4 -2763.58 3394.63
3576.15 -2762.98 3381.36
3575.77 -2762.37 3382.01
3576.53 -2763.5 3380.74
3575.41 -2761.8 3382.44
3574.83 -2759.92 3383.69
3574.6 -2760.29 3383.22
3574.82 -2761.52 3382.27
3574.48 -2760.84 3382.65
3574.79 -2759.16 3384.22
3574.08 -2757.64 3384.62
3572.86 -2752.84 3387.79
3572.79 -2753.04 3387.21
3572.82 -2753.47 3386.58
3572.77 -2754.1 3385.78
3572.82 -2752.32 3388.77
3572.64 -2752.01 3389.3
3576.16 -2763.8 3379.81
3567.09 -2757.44 3398.24
3565.83 -2757.16 3399.74
3568.14 -2759.27 3396.75
3567.72 -2759.2 3397.03
3563.31 -2758.27 3400.3
3562.84 -2758.29 3400.56
3563.1 -2758.06 3405.16
3563.15 -2758.29 3407.3
3562.83 -2759.53 3412.41
3562.54 -2759.36 3411.13
3558.4 -2759.09 3400.31
3558.06 -2759.39 3400.56
3558.4 -2759.11 3399.62
3564.91 -2757.84 3399.92
3570.35 -2758.98 3395.62
3570.87 -2758.57 3395.56
3571.27 -2758.39 3395.24
3571.66 -2758.06 3395.16
3572.65 -2756.98 3394.97
3572.39 -2757.28 3394.48
3572.1 -2755.87 3396.34
3572.27 -2756.37 3395.44
3572.05 -2756.19 3396.92
3576.05 -2764.48 3377.96
3575.87 -2764.07 3378.93
3571.23 -2756.24 3398.64
3572.17 -2756.87 3397.58
3571.76 -2756.23 3397.48
3570.21 -2752.6 3395.45
3570.25 -2752.82 3396.13
3570.33 -2753.05 3396.67
3570.78 -2754.19 3397.6
3569.83 -2752.4 3393.98
3570.66 -2752.03 3392.72
3571.41 -2751.69 3390.8
3570.99 -2751.79 3391.24
3571.83 -2751.56 3390.54
3572.32 -2751.67 3390.65
3587.17 -2760.36 3396.9
3587.68 -2762.13 3396.35
3586.52 -2760.24 3396.21
3585.94 -2760.23 3395.67
3586.87 -2761.78 3395.47
3585.92 -2761.76 3394.83
3586.76 -2763.68 3393.97
3586.44 -2762.67 3394.7
3575.79 -2763.13 3380.84
3575.46 -2762.63 3381.4
3575.19 -2762.14 3381.88
3574.52 -2759.36 3383.81
3574.26 -2761.34 3382.08
3574.68 -2761.99 3381.68
3572.49 -2753.49 3386.15
3573.01 -2754.95 3385.35
3573.37 -2755.79 3384.99
3575.54 -2763.4 3380.22
3565.55 -2757.54 3399.33
3568.67 -2759.43 3396.03
3568.14 -2759.44 3396.25
3569.12 -2759.41 3395.77
3560.18 -2759.17 3399.73
3561.73 -2758.62 3402.95
3562.39 -2758.56 3406.56
3562.08 -2759.42 3410.38
3554.95 -2759.23 3398.12
3554.69 -2759.15 3397.52
3554.06 -2760.23 3398.7
3554.47 -2759.18 3396.55
3563.38 -2758.51 3399.55
3561.39 -2759.11 3399.46
3569.81 -2759.41 3395.26
3570.5 -2758.91 3394.83
3571.79 -2757.7 3394.55
3571.72 -2755.44 3396.49
3575.22 -2764.57 3377.15
3575.41 -2764.27 3378.2
3575.29 -2763.72 3379.41
3570.84 -2755.75 3398.71
3571.62 -2755.69 3397.22
3569.98 -2752.89 3394.94
3570.46 -2754 3397.02
3570.25 -2753.38 3397.13
3570.53 -2754.62 3398.15
3570.5 -2755.09 3398.58
3570.25 -2752.2 3393.11
3569.74 -2752.48 3393.46
3570.87 -2751.85 3390.62
3571.91 -2751.52 3390.01
3588.59 -2761.92 3397.54
3587.33 -2760.82 3396.78
3588.08 -2762.1 3396.85
3575.21 -2762.95 3380.82
3574.92 -2762.56 3381.16
3573.84 -2760.31 3382.67
3573.95 -2759.36 3383.28
3573.59 -2757.74 3384.09
3573.83 -2761.07 3382.11
3574.16 -2761.8 3381.66
3574.45 -2762.32 3381.26
3572.56 -2752.48 3388.02
3572.49 -2752.63 3387.49
3572.38 -2752.78 3386.95
3572.37 -2752.05 3388.88
3575 -2763.27 3380.21
3566.48 -2757.81 3398
3567.06 -2759.34 3397.13
3567.71 -2759.64 3396.03
3567.39 -2759.6 3396.42
3558.18 -2759.27 3398.73
3560.12 -2759.52 3398.85
3557.94 -2759.35 3398.21
3554.59 -2759.42 3396.09
3561.17 -2758.89 3403.44
3557.54 -2759.93 3401.01
3561.14 -2759.82 3409.53
3560.62 -2759.36 3404.58
3560.07 -2760.96 3412.58
3553.11 -2759.82 3397.75
3553.51 -2759.24 3396.83
3552.98 -2761.21 3398.76
3553.73 -2763.74 3399.95
3553.99 -2762.91 3399.95
3553.77 -2763.7 3399.36
3553.22 -2762.37 3399.28
3553.61 -2759.13 3396.05
3554 -2759.5 3395.4
3570.15 -2759.27 3394.9
3570.33 -2758.92 3394.09
3569.98 -2759.22 3393.86
3571.22 -2758.07 3394.55
3571.71 -2755.94 3395.32
3572.17 -2757.09 3394
3574.5 -2764.58 3376.79
3574.7 -2764.26 3377.87
3574.94 -2763.94 3378.8
3574.77 -2763.57 3379.52
3571.09 -2755.33 3397.77
3570.35 -2753.82 3393.72
3569.43 -2753.16 3395.97
3570.39 -2753.67 3394.56
3569.27 -2753.47 3396.56
3571.3 -2755.57 3395.31
3570.93 -2754.56 3396.78
3569.81 -2753.7 3397.41
3570.68 -2754.52 3396.16
3571.46 -2756.19 3394.3
3570.32 -2752.14 3392.27
3570.55 -2752.01 3391.72
3569.9 -2752.46 3392.65
3570.6 -2752.04 3390.13
3571.1 -2751.75 3389.89
3571.92 -2751.67 3389.53
3574.71 -2762.94 3380.56
3573.91 -2762.11 3381.32
3572.53 -2754.65 3385.21
3572.28 -2754.21 3385.42
3572.16 -2753.7 3385.64
3572.92 -2755.49 3384.82
3566.25 -2758.17 3397.73
3563.9 -2758.57 3398.79
3567.3 -2759.97 3395.91
3567.38 -2760.35 3395.36
3568.15 -2759.88 3395.39
3566.54 -2759.83 3396.51
3568.86 -2759.86 3394.99
3555.18 -2759.32 3396.61
3558.52 -2759.43 3398.13
3555.12 -2759.58 3396.06
3555.74 -2759.62 3396.41
3554.61 -2759.74 3395.54
3554.37 -2760.22 3394.71
3557.17 -2760.62 3401.82
3555.77 -2760.28 3400.4
3554.74 -2761.02 3400.1
3554.5 -2760.59 3399.4
3559.41 -2760.73 3408.02
3558.94 -2761.34 3410.37
3557.26 -2761.65 3404.6
3552.88 -2760.44 3397.67
3553.49 -2761.52 3398.34
3553.88 -2763.05 3398.95
3554.28 -2763.23 3401.75
3553.65 -2764.22 3401.67
3553.53 -2764.3 3399.93
3554.26 -2763.97 3398.79
3561.42 -2759.28 3398.6
3569.72 -2759.5 3394.27
3569.32 -2759.81 3394.65
3570.73 -2758.48 3394.33
3570.2 -2758.86 3393.45
3569.57 -2759.4 3393.15
3571.42 -2757.73 3394.11
3571.8 -2757.29 3393.7
3573.91 -2764.64 3376.48
3574.08 -2764.28 3377.73
3574.44 -2763.96 3378.62
3569.88 -2753.32 3393.61
3570.67 -2754.6 3393.82
3570.53 -2754.67 3393.29
3569.95 -2753.22 3395.75
3569 -2753.84 3397.19
3570.5 -2754.02 3396
3570.92 -2755.21 3395.23
3571.63 -2756.92 3393.25
3569.43 -2752.83 3393.07
3569.99 -2752.48 3392
3570.43 -2752.28 3390.81
3570.8 -2751.97 3389.53
3570.36 -2752.26 3389.69
3571.34 -2751.85 3389.14
3574.09 -2762.81 3380.59
3573.37 -2760.51 3382.29
3573.56 -2759.82 3382.77
3573.47 -2761.8 3381.47
3573.26 -2761.09 3381.9
3573.56 -2762.57 3380.77
3572.1 -2752.18 3388.47
3572.1 -2753.02 3386.47
3572.97 -2757.6 3383.73
3574.3 -2763.37 3379.81
3565.14 -2758.8 3397.56
3563.35 -2758.8 3398.38
3567.43 -2760.81 3394.75
3566.41 -2762 3394.27
3568.01 -2760.55 3394.63
3566.43 -2760.29 3396
3564.87 -2759.2 3397.23
3566.01 -2759.96 3396.34
3568.61 -2760.25 3394.56
3560.64 -2759.79 3398.1
3559.19 -2759.73 3397.69
3556.31 -2759.95 3396.17
3555.8 -2759.93 3395.91
3555.2 -2760.46 3394.95
3554.91 -2760.08 3395.23
3554.55 -2760.65 3395.29
3553.99 -2760.36 3395.38
3555.29 -2763.22 3403.6
3556.67 -2762.26 3406.21
3557.02 -2762.25 3408.13
3552.55 -2759.98 3397.49
3553.27 -2760.55 3397.33
3553.25 -2760.38 3396.82
3552.86 -2759.26 3396.36
3553.42 -2759.27 3395.42
3552.99 -2759.26 3395.85
3553.9 -2761.52 3397.81
3554.66 -2763.81 3398.42
3553.89 -2764.29 3403.16
3555 -2763.49 3404.5
3553.34 -2764.49 3403.35
3553.08 -2764.62 3401.45
3554.15 -2764.12 3398.17
3553.82 -2759.9 3394.7
3561.46 -2759.58 3398.13
3555.3 -2763.26 3405.59
3569.12 -2759.85 3393.95
3569.02 -2759.89 3393.35
3569.89 -2758.99 3392.78
3568.96 -2759.91 3392.67
3570.44 -2758.42 3393.34
3570.92 -2758.03 3393.84
3573.58 -2764.34 3377.5
3573.86 -2764.01 3378.32
3574.01 -2763.69 3379.06
3570.06 -2754.1 3393.26
3570.78 -2754.97 3394.23
3570.96 -2755.59 3393.26
3570.63 -2754.47 3395.1
3571.05 -2755.68 3394.41
3571.25 -2756.32 3393.49
3569.53 -2752.86 3392.38
3570.05 -2752.54 3391.42
3569.67 -2752.91 3391.52
3571.44 -2752.03 3388.59
3573.64 -2763.05 3380.28
3573.14 -2762.78 3380.54
3571.96 -2752.3 3387.97
3562.12 -2759.55 3397.88
3566.14 -2761.89 3394.74
3565.23 -2763.15 3393.84
3565.01 -2763.51 3393.25
3566.6 -2762.2 3393.66
3566.95 -2761.98 3393.2
3565.73 -2761.66 3395.18
3565.21 -2759.68 3396.76
3563.33 -2760.05 3396.92
3562.42 -2759.87 3397.38
3568.02 -2760.97 3393.41
3560.78 -2760.04 3397.66
3555.95 -2760.48 3395.24
3555.72 -2762.29 3396.14
3554.16 -2760.68 3396.1
3553.61 -2760.36 3396.08
3552.76 -2760.22 3396.95
3553.79 -2760.65 3396.69
3554.43 -2761.81 3397.39
3555.03 -2763.7 3397.93
3554.05 -2764.14 3403.69
3553.38 -2764.19 3398.51
3554.13 -2764.25 3397.53
3554.92 -2763.7 3397.4
3553.43 -2760.06 3395.44
3561.42 -2760.15 3397.48
3568.36 -2760.6 3392.86
3568.39 -2760.48 3392.09
3569.22 -2759.51 3392.14
3570.19 -2758.49 3392.71
3568.47 -2760.26 3391.2
3571.18 -2757.44 3393.47
3573.12 -2764.56 3377.09
3573.48 -2763.84 3378.7
3573.51 -2763.64 3379.2
3573.56 -2763.37 3379.83
3569.59 -2753.59 3393.2
3571.31 -2756.67 3392.91
3569.9 -2752.78 3390.97
3569.5 -2753.16 3391.03
3570.14 -2752.64 3390.19
3570.24 -2752.29 3388.96
3570.8 -2752.19 3388.73
3571.25 -2752.28 3388.19
3572.95 -2763.08 3380.17
3572.69 -2758.02 3383.42
3572.96 -2761.91 3381.24
3572.85 -2762.41 3380.82
3571.83 -2752.42 3387.49
3571.66 -2753.17 3385.99
3571.76 -2754.28 3385.07
3571.74 -2753.84 3385.38
3572.35 -2755.41 3384.46
3564.54 -2763.77 3393.29
3564.15 -2764.78 3390.53
3563.99 -2764.77 3391.22
3564.81 -2764.28 3390.49
3565.42 -2763.68 3390.07
3564.65 -2762.76 3394.66
3564.7 -2761.31 3395.79
3563.12 -2761.83 3395.75
3563.82 -2761.42 3395.99
3561.84 -2760.42 3397.03
3566.14 -2762.86 3390.78
3566.77 -2762.2 3391.01
3560.82 -2760.22 3397.15
3559.4 -2760.08 3397.11
3557.29 -2760.38 3396.06
3556.95 -2760.8 3395.32
3556.25 -2762.02 3395.3
3557.11 -2762.16 3395.17
3555.29 -2762.1 3396.52
3556.03 -2763.38 3396.53
3556.54 -2763.26 3396.05
3554.9 -2762.03 3396.97
3552.02 -2760.2 3397.45
3553.05 -2760.04 3396.08
3552.38 -2759.37 3395.88
3552.91 -2759.39 3395.09
3553.28 -2759.61 3394.63
3552.66 -2764.75 3400.86
3553.36 -2764.17 3397.64
3552.2 -2764.85 3403.33
3554.22 -2764.24 3396.82
3555.01 -2763.9 3396.86
3567.36 -2761.52 3390.68
3567.68 -2761.02 3389.96
3570.65 -2757.99 3393.01
3569.76 -2758.79 3391.96
3569.16 -2759.4 3391.45
3568.64 -2759.95 3390.43
3568.14 -2760.45 3389.55
3571.14 -2757.45 3392.96
3571.34 -2764.97 3376.48
3572.14 -2764.75 3376.66
3572.95 -2763.95 3378.47
3572.2 -2764.22 3377.99
3572.82 -2763.71 3379.06
3569.98 -2754.65 3392.85
3570.94 -2756.51 3392.36
3569.19 -2753.3 3391.9
3570.08 -2752.72 3389.66
3570.19 -2752.64 3388.51
3570.81 -2752.55 3388.17
3571.32 -2752.45 3387.57
3572.41 -2763.01 3380.23
3572.5 -2763.38 3379.71
3572.67 -2760.47 3382.21
3572.73 -2761.45 3381.54
3571.73 -2752.72 3386.82
3571.31 -2753.44 3385.53
3564.41 -2763.59 3393.75
3563.43 -2764.93 3391.83
3563.47 -2765.32 3390.53
3563.16 -2766.99 3386.16
3563.71 -2766.67 3385.96
3564.15 -2765.11 3388.12
3564.87 -2764.46 3387.95
3563.94 -2763.17 3394.4
3563.87 -2762.58 3395.02
3563.28 -2763.41 3393.95
3562.07 -2762.1 3395.36
3562.41 -2763.18 3394.01
3561.42 -2760.73 3396.62
3565.35 -2763.68 3388.23
3566.11 -2762.7 3388.76
3560.3 -2760.45 3396.42
3559.86 -2760.24 3396.83
3557.86 -2760.4 3396.36
3557.54 -2760.93 3395.46
3557.07 -2763.27 3395.25
3555.71 -2763.49 3396.9
3551.87 -2759.42 3395.78
3552.53 -2764.66 3400.26
3553.09 -2764 3397.13
3554.75 -2764.14 3396.47
3553.82 -2764.07 3396.51
3555.52 -2763.69 3396.42
3567.11 -2761.55 3388.45
3567.66 -2760.84 3388.32
3570.55 -2757.88 3392.49
3569.23 -2759.18 3390.8
3568.84 -2759.64 3389.73
3568.46 -2760.03 3388.83
3570.22 -2758.05 3392.04
3569.65 -2758.23 3391.13
3568.05 -2760.3 3387.92
3570.96 -2757.24 3392.19
3570.55 -2764.93 3377.24
3571.31 -2764.58 3377.52
3572.28 -2763.79 3378.88
3571.62 -2764.1 3378.48
3569.11 -2753.5 3392.77
3570.48 -2756.12 3391.9
3569.09 -2753.53 3390.88
3568.99 -2753.6 3391.37
3569.72 -2753.02 3390.07
3569.41 -2753.27 3390.54
3569.3 -2753.33 3389.98
3570.17 -2752.87 3388.05
3570.78 -2752.65 3387.59
3571.26 -2752.55 3387.06
3572.18 -2757.98 3383.34
3572.19 -2761.19 3381.81
3572.34 -2761.99 3381.19
3572.16 -2762.46 3380.87
3571.98 -2762.86 3380.46
3571.28 -2753.06 3386.51
3571.73 -2754.84 3384.79
3563.35 -2764.56 3392.5
3562.71 -2766.64 3387.65
3562.81 -2765.48 3390.36
3565.19 -2764.43 3386.99
3563.07 -2763.78 3393.1
3562.9 -2764.3 3392.34
3561.41 -2763.62 3393.03
3562.21 -2763.81 3392.39
3560.35 -2761.61 3395.28
3559.89 -2763.3 3393.79
3565.54 -2763.55 3387.59
3566.26 -2762.45 3387.92
3558.64 -2761.12 3395.77
3558.09 -2761.06 3395.56
3557.95 -2762.17 3394.99
3557.74 -2763.12 3394.67
3556.05 -2763.56 3395.99
3556.5 -2763.54 3395.5
3551.49 -2760.44 3397.58
3552.44 -2760.03 3396
3552.7 -2759.57 3394.5
3552.85 -2763.82 3396.61
3555.01 -2764.02 3395.99
3554.19 -2764.07 3396.17
3559.06 -2761.45 3395.57
3567.19 -2761.45 3387.09
3567.66 -2760.6 3387.35
3570.41 -2757.56 3391.83
3569.09 -2759.26 3389.23
3568.77 -2759.58 3388.47
3568.63 -2759.66 3387.83
3569.95 -2757.81 3391.35
3569.23 -2758.64 3389.59
3569.35 -2757.98 3390.27
3568.39 -2759.76 3387.26
3570 -2764.89 3377.83
3570.57 -2764.6 3378.13
3571.08 -2764.23 3378.59
3571.4 -2763.92 3379.09
3571.75 -2763.64 3379.59
3530.26 -2766.67 3415.63
3529.49 -2766.82 3415.18
3530.91 -2766.5 3415.49
3568.98 -2753.89 3392.4
3570.5 -2756.31 3391.42
3568.81 -2753.82 3390.55
3569.81 -2752.82 3388.91
3570.13 -2752.72 3387.55
3570.73 -2752.53 3387.1
3571.59 -2763.26 3380.16
3571.87 -2761.63 3381.6
3571.49 -2762.72 3380.87
3571.05 -2753.35 3386.08
3571.71 -2755.31 3384.49
3562.52 -2765.1 3390.86
3562.03 -2765.97 3389.66
3565.94 -2765.35 3384.07
3565.94 -2765.95 3382.78
3565.75 -2764.24 3386
3562.02 -2764.83 3391.38
3559.32 -2763.9 3393.3
3561.17 -2764.85 3392
3559.48 -2762.23 3394.81
3558.83 -2762.26 3394.81
3558.49 -2762.96 3394.26
3566.15 -2762.9 3387.17
3557.59 -2763.46 3394.08
3557.2 -2763.46 3394.51
3551.86 -2760.35 3396.77
3552.07 -2760 3395.45
3551.67 -2759.36 3395.29
3550.87 -2759.98 3396.58
3552.16 -2764.47 3399.42
3551.68 -2764.88 3401.95
3553.11 -2763.72 3395.91
3552.62 -2763.63 3396.08
3555.61 -2763.88 3395.78
3555.36 -2764.33 3395.11
3555.16 -2763.86 3395.44
3553.62 -2763.81 3395.7
3567.22 -2761.95 3386.12
3567.82 -2760.76 3386.27
3568.02 -2759.97 3386.77
3570.39 -2757.12 3391.25
3569.19 -2758.93 3388.53
3569.01 -2759.08 3387.02
3569.03 -2758.95 3387.58
3569.33 -2758.3 3388.92
3569.56 -2757.45 3390.28
3569.32 -2757.74 3389.38
3568.86 -2759.27 3386.5
3568.85 -2765.21 3377.97
3570.1 -2764.62 3378.6
3570.59 -2764.37 3378.87
3570.93 -2764 3379.29
3569.76 -2764.53 3379.1
3569.16 -2764.81 3378.87
3571.15 -2763.7 3379.79
3531.88 -2766.29 3415.09
3532.32 -2766.23 3414.2
3530.63 -2766.44 3414.32
3529.96 -2766.57 3414.06
3528.71 -2766.89 3414.63
3529.25 -2766.67 3413.63
3531.06 -2766.39 3413.65
3568.54 -2753.96 3391.85
3568.42 -2754.04 3392.48
3569.1 -2754.33 3391.77
3568.4 -2754.2 3391.31
3568.98 -2753.65 3389.46
3568.51 -2754.15 3389.53
3569.36 -2753.29 3388.89
3569.81 -2752.98 3388.38
3568.89 -2753.9 3388.92
3571.11 -2763.38 3380.28
3571.09 -2763.04 3380.76
3571.69 -2758.09 3383.27
3571.53 -2762.16 3381.27
3571.03 -2762.72 3381.16
3571.22 -2754.51 3385
3571.15 -2754.07 3385.46
3561.59 -2765.68 3390.49
3567.18 -2765.57 3380.39
3567.54 -2765.13 3380.95
3567.01 -2764.45 3383.59
3567.64 -2764.4 3382.58
3567.61 -2764.76 3381.81
3566.35 -2763.29 3386.13
3566.84 -2763.74 3384.72
3560.87 -2765.54 3391.19
3560.53 -2764.72 3391.88
3558.99 -2764.31 3392.86
3557.98 -2763.64 3393.7
3558.74 -2764.6 3392.51
3556.62 -2763.63 3394.91
3552.03 -2759.79 3393.99
3551.59 -2760.28 3396.14
3551.19 -2760.56 3396.93
3550.72 -2760.73 3397.64
3550.55 -2760.58 3397.1
3551.7 -2764.22 3398.82
3555.92 -2763.83 3395.3
3555.49 -2763.79 3394.87
3554.1 -2763.88 3395.49
3554.6 -2763.82 3395.28
3568.12 -2760.78 3385.55
3567.57 -2762.21 3385.12
3568.48 -2759.74 3385.97
3569.42 -2758.34 3388.2
3569.36 -2758.33 3387.69
3569.37 -2758.46 3386.43
3569.39 -2758.36 3387
3569.5 -2757.73 3388.61
3569.45 -2757.25 3389.54
3570.27 -2756.82 3390.73
3569.13 -2758.95 3385.93
3568.28 -2765.27 3378.86
3570.38 -2764.29 3379.34
3569.23 -2764.58 3379.64
3569.96 -2764.25 3379.74
3568.51 -2765.12 3379.35
3532.03 -2766.62 3412.62
3532.33 -2766.54 3411.48
3533.34 -2765.52 3414.62
3530.19 -2766.46 3413
3530.69 -2766.49 3412.79
3529.56 -2766.48 3412.63
3528.51 -2766.73 3413.56
3527.59 -2766.97 3414.64
3528.93 -2766.53 3412.61
3531.27 -2766.8 3412.06
3568.02 -2754.54 3391.93
3569.35 -2754.53 3391.37
3570.16 -2756.07 3390.68
3568.09 -2754.55 3390.77
3568.25 -2754.4 3390.25
3568.44 -2754.46 3389.09
3569.25 -2753.67 3388.34
3570.25 -2752.89 3387.04
3570.47 -2753.23 3386.58
3570.61 -2763.01 3381.14
3571.47 -2761.24 3381.9
3570.84 -2753.92 3386.07
3560.92 -2765.93 3390.26
3568.02 -2765.02 3380.68
3567.8 -2765.41 3379.93
3568.26 -2764.7 3381.07
3568.33 -2763.84 3382.4
3567.95 -2763.5 3383.33
3568.5 -2764.3 3381.62
3567.69 -2762.96 3384.14
3560.26 -2765.96 3390.38
3560.16 -2765.37 3391.19
3557.06 -2763.79 3393.88
3556.66 -2763.74 3394.41
3551.24 -2760.22 3395.13
3550.93 -2760.49 3396.05
3551.13 -2759.38 3394.87
3551.2 -2764.71 3401.11
3553.05 -2763.51 3395.15
3552.36 -2763.35 3395.54
3554.87 -2763.71 3394.84
3553.48 -2763.57 3394.86
3554.06 -2763.71 3394.88
3568.77 -2759.75 3385.32
3568.42 -2760.7 3385.07
3568.06 -2761.82 3384.68
3570.18 -2756.57 3390.29
3569.67 -2757.68 3387.86
3569.67 -2757.73 3387.32
3569.46 -2758.22 3386
3569.62 -2757.77 3386.45
3569.71 -2757.25 3388.28
3569.76 -2756.74 3389.76
3569.66 -2757.02 3388.93
3570.42 -2764.02 3380.07
3568.52 -2764.86 3380.22
3569.24 -2764.37 3380.23
3522.74 -2768.08 3417.5
3532.01 -2767.09 3411.41
3532.54 -2766.03 3410.53
3532.16 -2766.41 3410.1
3531.73 -2766.89 3410.46
3534.18 -2764.61 3412.86
3530.09 -2766.5 3412.34
3530.68 -2766.69 3412.07
3528.3 -2766.58 3412.56
3527.48 -2766.79 3413.5
3525.16 -2767.18 3414.82
3525.4 -2766.87 3413.82
3531.12 -2766.94 3411.53
3567.84 -2754.81 3392.68
3567.71 -2754.97 3392.21
3569.46 -2755.08 3390.78
3567.72 -2754.92 3391.16
3567.8 -2754.86 3390.17
3568.03 -2754.68 3389.59
3568.07 -2755.06 3389.11
3569.73 -2753.09 3387.87
3568.8 -2754.39 3388.37
3571.02 -2761.93 3381.61
3570.99 -2761.43 3381.9
3570.57 -2762.53 3381.53
3571.07 -2755.3 3384.63
3571.14 -2758.26 3383.36
3568.15 -2762.94 3383.56
3568.91 -2763.94 3381.66
3568.23 -2762.12 3384.13
3560.31 -2766.55 3388.6
3559.59 -2765.87 3390.49
3558.06 -2764.97 3392.08
3556.1 -2763.99 3394.27
3551.31 -2760.04 3393.44
3550.08 -2760.57 3396.49
3550.77 -2759.48 3394.21
3551.22 -2763.9 3398.36
3555.27 -2763.86 3394.26
3555.64 -2763.98 3393.93
3554.33 -2763.63 3394.46
3569.06 -2759.58 3384.85
3569.4 -2758.62 3385.19
3568.61 -2760.84 3384.56
3569.76 -2755.95 3390.03
3569.8 -2757.24 3387.63
3569.81 -2757.19 3386.98
3569.77 -2756.54 3389.27
3569.85 -2756.56 3388.72
3570.24 -2763.83 3380.64
3569.53 -2764.11 3380.61
3570.17 -2763.46 3381.06
3518.97 -2768.14 3418.2
3522.22 -2766.76 3414.03
3520.45 -2766.7 3414.2
3517.44 -2768.18 3418.33
3531.19 -2767.24 3410.64
3531.3 -2767.42 3407.92
3531.09 -2767.8 3408.26
3531.58 -2767 3409.81
3532.47 -2765.91 3409.81
3531.53 -2767 3407.49
3535.16 -2763.34 3411.24
3533.27 -2765.1 3411.1
3528.61 -2766.46 3412.06
3529.19 -2766.52 3411.95
3529.63 -2766.64 3411.64
3527.66 -2766.6 3412.41
3526.66 -2766.83 3413.52
3525.51 -2766.76 3413.2
3522.7 -2766.32 3412.76
3523.05 -2766.19 3412.39
3530.45 -2767.13 3410.74
3541.2 -2760.92 3409.54
3540.61 -2760.91 3409.64
3567.42 -2755.36 3392.43
3567.47 -2755.22 3390.66
3568.57 -2755.56 3389.67
3568.35 -2755.02 3388.62
3569.29 -2753.89 3387.7
3569.62 -2753.48 3387.42
3569.97 -2753.4 3386.98
3570.1 -2753.85 3386.46
3570.12 -2763.02 3381.57
3570.93 -2758.9 3383.16
3570.83 -2754.99 3385.18
3570.78 -2754.49 3385.81
3569.16 -2764.06 3381.19
3569.1 -2763.53 3381.98
3568.71 -2763.42 3382.5
3568.53 -2762.94 3383.08
3568.57 -2762.15 3383.67
3569.4 -2763.66 3381.52
3559.11 -2766.03 3389.95
3556.75 -2764.35 3393.14
3556.41 -2764.11 3393.69
3550.27 -2760.56 3395.16
3550.37 -2760.61 3395.7
3550.6 -2760.37 3393.85
3551.23 -2760.13 3392.78
3549.26 -2759.2 3393.77
3549.63 -2760.58 3395.71
3555.27 -2763.85 3393.49
3556.09 -2764.18 3393.17
3556.06 -2763.68 3393.31
3553.7 -2763.42 3394.18
3553.05 -2763.05 3394.09
3552.56 -2763.14 3394.89
3542.19 -2760.82 3407.25
3543.14 -2760.94 3406.7
3543.65 -2760.95 3405.56
3569.33 -2759.29 3384.52
3569.59 -2757.73 3385.33
3569.73 -2757.32 3385.74
3569.8 -2757.14 3386.33
3569.92 -2756.55 3387.79
3568.82 -2755.79 3389.13
3538.12 -2761.45 3409.74
3538.53 -2761.24 3409.46
3519.09 -2766.73 3414.37
3519.94 -2765.58 3411.27
3519.13 -2765.62 3411.31
3517.96 -2766.87 3414.6
3515.78 -2768.12 3417.23
3530.67 -2768.16 3408.45
3532.28 -2765.68 3409.2
3531.52 -2766.87 3406.96
3535.52 -2762.8 3410.35
3534.4 -2762.66 3407.6
3534.14 -2763.18 3408.52
3534.18 -2764 3410.63
3532.91 -2764.79 3410.18
3528.78 -2766.52 3411.57
3529.12 -2766.61 3410.91
3529.6 -2766.87 3410.71
3526.91 -2766.65 3412.5
3525.66 -2766.66 3412.69
3520.44 -2765.3 3410.68
3527.49 -2766.53 3411.92
3530.17 -2768.23 3408.36
3541.33 -2760.75 3407.71
3540.57 -2760.77 3407.97
3539.79 -2760.89 3408.14
3539.4 -2760.94 3408.74
3538.98 -2761.06 3409.25
3512.92 -2768.1 3414.65
3567.11 -2755.63 3391.13
3567.9 -2755.66 3388.77
3569.18 -2755.65 3388.5
3568.73 -2754.71 3387.98
3568.97 -2754.69 3387.41
3569.53 -2753.91 3387.07
3570.41 -2754.87 3385.96
3570.15 -2754.35 3386.35
3570.48 -2759.71 3383.01
3570.51 -2761.33 3382.26
3570.29 -2761.95 3382.14
3570.19 -2762.41 3381.96
3570.74 -2756.2 3384.54
3568.89 -2762.92 3382.72
3568.78 -2761.31 3383.94
3559.52 -2766.6 3388.08
3558.52 -2765.88 3390.17
3557.29 -2765.1 3391.63
3550.12 -2760.55 3393.91
3550.16 -2759.65 3393.37
3548.76 -2758.9 3392.9
3549.27 -2760.23 3395.04
3546.4 -2759.44 3394.53
3545.9 -2759.27 3394.33
3547.62 -2758.81 3392.87
3550.88 -2763.49 3397.82
3551.9 -2762.99 3395.29
3554.72 -2763.62 3393.48
3555.45 -2763.78 3392.31
3556.26 -2764.38 3392.04
3556.87 -2765.06 3391.2
3554.04 -2763.36 3393.34
3553.43 -2762.98 3393.44
3552.27 -2762.69 3394.15
3552.74 -2762.5 3393.18
3545.1 -2761.47 3405.84
3544.39 -2761.15 3405.06
3542.4 -2760.55 3403.68
3541.43 -2760.5 3404.63
3543.41 -2760.68 3402.57
3544.04 -2760.89 3403.1
3569.68 -2757.99 3384.71
3569.66 -2755.67 3386.22
3569.95 -2756.62 3386.7
3536.99 -2762.04 3410.39
3536.11 -2762.37 3409.98
3537.37 -2761.75 3409.77
3537.1 -2761.16 3406.68
3536.49 -2761.36 3406.73
3537.7 -2760.96 3406.34
3517.29 -2765.41 3410.85
3519.4 -2765.54 3410.38
3517.52 -2765.04 3409.79
3517.08 -2765.11 3410.04
3517.2 -2766.49 3412.98
3532.12 -2765.07 3408.96
3532.12 -2765.76 3407.99
3531.44 -2766.84 3406.23
3534.71 -2762.24 3407.02
3533.81 -2762.05 3404.43
3533.64 -2763.2 3407.46
3534.3 -2761.59 3404.01
3533.31 -2763.73 3408.13
3528.13 -2766.46 3411.08
3527.56 -2766.53 3411.24
3528.54 -2766.48 3410.69
3528.53 -2767.93 3408.42
3529.11 -2768.15 3408.37
3525.89 -2766.55 3412.24
3523.12 -2765.9 3411.77
3520.72 -2765.12 3410.22
3519.56 -2765.45 3409.79
3526.02 -2766.52 3411.72
3526.79 -2766.6 3411.38
3540.69 -2760.45 3404.92
3539.94 -2760.54 3405.36
3539.09 -2760.67 3405.86
3538.35 -2760.81 3406.19
3515.36 -2767.2 3412.83
3511.42 -2768.08 3413.64
3568.34 -2755.36 3388.1
3569.69 -2754.19 3386.48
3569.86 -2755.96 3385.54
3570.13 -2756.8 3384.78
3570.22 -2757.3 3384.38
3570.35 -2758.76 3383.55
3569.88 -2761.96 3382.46
3569.4 -2762.69 3382.44
3569.1 -2762.26 3382.97
3568.96 -2761.64 3383.53
3569.41 -2759.53 3384.03
3558.61 -2766.52 3387.92
3558.18 -2766.53 3387.49
3550.3 -2760.19 3392.56
3549.37 -2759.12 3392.84
3548.73 -2758.83 3392.16
3547.33 -2759.78 3394.67
3544.74 -2759.96 3396.82
3545.28 -2760.13 3396.86
3545.47 -2759.8 3395.86
3545.32 -2759.12 3394.2
3544.01 -2759.85 3396.98
3550.49 -2763.4 3398.13
3551.49 -2762.58 3394.86
3554.67 -2763.43 3392.64
3555.69 -2764 3391.44
3557.21 -2765.83 3388.94
3553.81 -2763.05 3392.75
3553.08 -2762.53 3392.78
3552.17 -2762.09 3392.89
3551.74 -2762.18 3393.61
3545.49 -2761.57 3404.28
3544.69 -2761.16 3403.31
3543.1 -2760.26 3399.89
3541.83 -2760.11 3400.32
3540.71 -2759.98 3399.88
3544.05 -2760.63 3400.67
3543.9 -2760.26 3398.75
3544.53 -2760.84 3400.86
3569.65 -2755.55 3387.05
3569.74 -2755.02 3388.07
3536.02 -2761.61 3407.07
3536.82 -2760.4 3401.67
3536.23 -2760.56 3401.91
3535.75 -2760.83 3402.93
3537.23 -2760.21 3401.03
3515.27 -2766.1 3410.44
3512.22 -2764.4 3407.17
3514.49 -2764.91 3408.89
3517.03 -2764.73 3409.13
3512.61 -2764.19 3406.88
3514.71 -2767.22 3411.63
3532.03 -2765.54 3406.95
3531.38 -2766.68 3405.61
3533.11 -2763.57 3406.79
3532.72 -2763.91 3406.22
3534.66 -2761.31 3403.62
3533.82 -2761.7 3402.27
3533.6 -2761.97 3403.26
3533.39 -2762.37 3404.24
3534.17 -2761.26 3400.86
3527.52 -2766.54 3410.42
3526.85 -2766.62 3410.6
3528.35 -2766.84 3409.81
3528.15 -2768.37 3407.34
3523.72 -2765.8 3411.24
3521.55 -2765.08 3409.66
3517.07 -2764.52 3408.62
3526.13 -2766.6 3411.08
3539.52 -2759.91 3399.56
3538.47 -2760 3400.29
3537.81 -2760.11 3400.89
3509.31 -2768.43 3413.88
3507.35 -2768.92 3413.66
3508 -2768.31 3413.26
3508.26 -2767.95 3412.59
3506.88 -2769.3 3413.9
3511.39 -2767.97 3412.8
3569.3 -2761.36 3383.29
3569.97 -2761.09 3382.81
3558.91 -2768.37 3382.93
3558.14 -2768.34 3382.57
3557.77 -2767.12 3385.05
3549.64 -2760.86 3393.8
3550.47 -2760.76 3392.49
3550.43 -2760.11 3391.66
3549.58 -2759.23 3392.03
3548.8 -2760.78 3394.96
3548.97 -2758.99 3391.66
3548.25 -2758.81 3391.72
3546.6 -2758.72 3392.24
3547.8 -2760.29 3394.94
3546.24 -2760.09 3396.26
3544.5 -2760.43 3398.61
3545.04 -2760.53 3398.32
3545.77 -2760.54 3397.71
3544.78 -2758.98 3393.93
3543.17 -2759.8 3397.35
3550.03 -2763.31 3398.53
3550.66 -2762.8 3396.51
3551.31 -2762.16 3394.16
3555.26 -2763.66 3391.35
3554.67 -2763.28 3391.74
3556.49 -2765.28 3389.62
3556.02 -2764.67 3390.54
3557.23 -2766.82 3385.22
3556.94 -2766.37 3386.31
3553.49 -2762.69 3392.31
3554.22 -2763.04 3391.78
3552.77 -2762.15 3392.24
3551.34 -2761.41 3392.41
3551.56 -2761.25 3391.87
3545.51 -2761.49 3402.61
3544.99 -2761.11 3401.47
3541.86 -2759.68 3397.14
3541.2 -2759.33 3395.08
3544.81 -2760.77 3399.7
3535.77 -2760.01 3396.82
3536.48 -2759.78 3396.29
3535.3 -2760.18 3397.14
3534.93 -2760.69 3399.93
3537.48 -2759.53 3395.96
3512.44 -2764.79 3407.7
3513.79 -2765.61 3409.52
3514.38 -2766.13 3409.95
3514.26 -2767.4 3410.83
3514.86 -2767.22 3410.22
3510.47 -2764.45 3406.54
3510.08 -2764.4 3406.17
3512.57 -2764.19 3406.33
3510.72 -2764.17 3405.37
3514.82 -2767.28 3410.89
3532.37 -2764.21 3405.75
3531.11 -2766.86 3404.18
3531.29 -2766.46 3404.46
3532.21 -2764.33 3404.55
3533.08 -2762.5 3403.22
3532.81 -2762.81 3402.64
3532.55 -2763.2 3402.41
3534.48 -2760.79 3399.16
3533.6 -2761.56 3399.81
3534.03 -2760.93 3397.65
3533.23 -2762.1 3401.49
3534.43 -2760.44 3395.68
3526.94 -2766.64 3409.84
3527.46 -2766.89 3409.4
3527.96 -2767.68 3408.78
3526.34 -2766.71 3410.36
3527.67 -2768.35 3406.54
3525.87 -2769.29 3403.47
3520.18 -2765.01 3409.37
3521.98 -2765.14 3409.31
3517.96 -2764.7 3408.66
3514.94 -2764.04 3407.74
3512.3 -2764.25 3405.82
3523.96 -2765.8 3410.43
3539.7 -2759.18 3394.08
3538.26 -2759.39 3395.38
3508.83 -2767.67 3412.11
3506.24 -2767.89 3410.32
3506.88 -2767.7 3410.73
3507.49 -2766.79 3409.59
3508.08 -2766.58 3409.76
3508.52 -2766.37 3409.52
3509 -2766.22 3409.34
3505.82 -2768.35 3410.52
3510.8 -2767.54 3411.85
3556.46 -2768.05 3382.03
3549.89 -2761.29 3394.21
3547.66 -2760.58 3396.01
3550.88 -2760.66 3391.78
3550.57 -2761.19 3393.02
3550.16 -2759.62 3391.28
3549.48 -2759.21 3391.24
3548.26 -2758.94 3391.15
3548.96 -2759.1 3391.17
3547.48 -2758.73 3391.36
3546.49 -2758.65 3391.37
3545.57 -2758.59 3392
3545.48 -2760.88 3399.22
3546.54 -2760.97 3398.05
3543.8 -2759 3393.8
3550.98 -2761.81 3393.85
3555.65 -2764.3 3390.64
3554.64 -2763.32 3390.98
3556.46 -2766.08 3386.93
3556.31 -2765.46 3388.5
3556.69 -2766.88 3384.49
3555.78 -2767.71 3382.18
3556.42 -2766.43 3385.43
3553.85 -2762.73 3391.47
3552.12 -2761.29 3391.25
3552.32 -2761.42 3390.77
3550.86 -2760.35 3391.31
3550.8 -2759.79 3390.37
3546.02 -2761.77 3402.11
3545.15 -2761.05 3400.61
3544.14 -2758.73 3392.18
3535.89 -2759.58 3393.74
3536.59 -2759.41 3393.55
3537.4 -2759.21 3393.54
3535.06 -2760.03 3395.15
3535.41 -2759.67 3393.4
3538.1 -2759.02 3392.65
3510.97 -2764.93 3407.17
3512.52 -2765.63 3408.67
3513.49 -2766.14 3409.61
3515.33 -2766.68 3410.01
3513.17 -2767.44 3410.52
3513.98 -2767.24 3409.8
3509.45 -2764.68 3406.45
3509.7 -2764.79 3406.91
3509.67 -2764.33 3405.71
3510.14 -2764.25 3405.35
3510.87 -2764.13 3404.87
3530.71 -2767.05 3400.27
3530.48 -2767.43 3399.61
3531.79 -2764.86 3403.67
3530.9 -2766.82 3401.72
3532.3 -2763.39 3399.91
3533.12 -2762.07 3399.9
3532.99 -2762.17 3398.96
3532.73 -2762.65 3399.17
3534.81 -2760.02 3393.87
3533.73 -2760.96 3396.32
3534 -2760.64 3395.13
3534.25 -2760.35 3394.04
3534.44 -2760.11 3392.83
3526.89 -2766.94 3409.05
3526.46 -2766.8 3409.62
3527.24 -2767.67 3408.38
3527.22 -2768.19 3406.29
3524.12 -2765.88 3409.75
3520.85 -2764.82 3408.89
3518.33 -2764.53 3408.15
3510.82 -2763.95 3403.84
3521.63 -2765.06 3408.81
3539.25 -2758.9 3392.18
3542.05 -2758.68 3391.36
3505.8 -2770.13 3414.56
3509.84 -2766.11 3409.28
3506.32 -2766.24 3407.07
3506.75 -2766.16 3407.44
3507.29 -2765.77 3407.15
3507.9 -2765.63 3407.6
3508.7 -2765.33 3407.51
3510.14 -2765.33 3407.59
3512.14 -2766.84 3410.01
3511.47 -2766.62 3410.26
3510.87 -2766.09 3409.5
3550.3 -2761.72 3394.65
3548.23 -2761.13 3396.3
3550.31 -2759.54 3390.73
3549.43 -2759.26 3390.44
3548.83 -2759.15 3390.58
3547.37 -2758.78 3390.82
3548.27 -2758.98 3390.58
3546.49 -2758.58 3390.77
3545.52 -2758.5 3391.21
3546.61 -2761.37 3399.08
3546.44 -2761.6 3400.09
3545.71 -2761.18 3399.94
3548.27 -2762.25 3398.27
3546.14 -2761.72 3401
3549.58 -2762.06 3396.16
3555.94 -2764.86 3389.64
3554.95 -2763.75 3390.16
3554.26 -2762.99 3390.47
3556.15 -2766.08 3386.11
3556.1 -2765.64 3387.4
3556.07 -2766.84 3384.12
3555.04 -2767.56 3381.97
3555.98 -2766.4 3384.92
3552.58 -2761.61 3390.28
3550.88 -2759.92 3389.69
3551.26 -2760.4 3389.04
3550.4 -2759.6 3389.98
3535.8 -2759.5 3392.23
3536.21 -2759.4 3391.93
3537.04 -2759.16 3391.97
3538.08 -2758.88 3391.43
3535.09 -2759.75 3392.59
3535.43 -2759.55 3391.56
3539.37 -2758.69 3390.55
3512.8 -2767.05 3409.54
3513.53 -2766.95 3409.32
3512.74 -2766.9 3409.03
3514.31 -2766.75 3409.44
3514.67 -2767.15 3409.68
3508.69 -2765.07 3406.86
3508.57 -2764.95 3406.32
3508.91 -2764.37 3405.44
3508.5 -2764.72 3405.84
3509.48 -2764.2 3405.22
3510.34 -2764.04 3404.41
3509.37 -2764.11 3404.52
3531.43 -2765.27 3399.28
3530.75 -2766.7 3397.97
3530.44 -2767.2 3398.08
3531.38 -2765.57 3402.01
3531.92 -2764.22 3400.44
3532.62 -2762.41 3395.75
3533.01 -2761.71 3395.34
3533.61 -2760.91 3394.94
3534.78 -2759.86 3391.97
3533.82 -2760.61 3393.34
3534.14 -2760.2 3391.83
3534.52 -2759.96 3391.39
3526.6 -2767.64 3408.03
3526.38 -2767.06 3408.79
3525.96 -2766.75 3409.32
3526.63 -2768.14 3406.44
3524.83 -2769.19 3404.11
3524.11 -2769.64 3402.61
3514.98 -2764.34 3407.09
3515.88 -2764.27 3407.25
3512.37 -2764.37 3405.17
3510.32 -2764.1 3403.05
3510.87 -2764.1 3402.73
3518.86 -2764.59 3407.89
3540.41 -2758.63 3390.8
3543.17 -2758.56 3390.33
