3563.67 -2761.09 900.194
3560.58 -2761.34 901.003
3561.31 -2761.56 904.718
3559.53 -2761.32 900.061
3559.74 -2761.63 905.225
3558.98 -2761.35 899.642
3558.82 -2761.61 904.223
3558.62 -2761.4 899.007
3565.31 -2761.23 902.435
3566.19 -2760.66 898.272
3564.72 -2761.18 902.294
3566.76 -2760.67 898.197
3565.67 -2760.61 897.908
3563.97 -2761.17 901.956
3565.15 -2760.53 897.217
3561.9 -2761.14 898.484
3564.24 -2760.48 896.113
3558.22 -2761.48 898.495
3557.67 -2761.65 902.298
3560.52 -2761.11 896.988
3559.5 -2761.21 896.38
3558.6 -2761.39 896.28
3567.53 -2760.93 899.064
3567.71 -2760.28 895.361
3568.18 -2760.47 896.16
3567.16 -2760.03 893.55
3567.54 -2759.9 892.082
3566.56 -2760.01 893.56
3568.22 -2761.26 899.632
3565.63 -2759.9 892.187
3562.59 -2760.6 895.284
3563.62 -2760.05 891.757
3558.39 -2761.37 895.298
3557.57 -2761.63 898.726
3561.05 -2760.68 894.162
3559.78 -2760.81 893.507
3558.92 -2760.93 893.055
3568.37 -2760.2 893.31
3568.14 -2759.46 888.13
3567.03 -2759.42 888.336
3567.59 -2759.32 887.306
3568.29 -2759.18 885.63
3569.04 -2760.78 896.301
3566.07 -2759.58 889.096
3567.14 -2759.28 886.574
3560.68 -2760.34 891.13
3565.95 -2759.52 887.635
3562.5 -2760.06 889.628
3557.64 -2761.25 892.331
3557.65 -2761.68 896.345
3558.26 -2761.01 892.25
3559.34 -2760.52 890.368
3558.23 -2760.73 889.777
3569 -2759.5 887.024
3568.95 -2759.21 884.881
3567.98 -2759.12 885.052
3568.47 -2759.12 884.649
3568.97 -2759.17 884.312
3569.04 -2760.38 893.227
3567.27 -2759.22 885.312
3567.92 -2759.12 884.492
3559.71 -2760.4 889.404
3565.58 -2759.59 886.495
3567.09 -2759.26 884.81
3561.58 -2760.18 888.397
3557.08 -2761.46 892.104
3557.35 -2761.71 895.126
3557.36 -2760.97 889.315
3556.61 -2761.2 888.975
3558.44 -2760.64 888.771
3557.71 -2760.83 888.197
3569.5 -2759.29 884.684
3569.52 -2759.25 884.061
3568.35 -2759.08 884.016
3568.82 -2759.13 883.747
3569.53 -2760.59 893.047
3569.53 -2759.68 887.099
3570.14 -2759.52 884.571
3567.62 -2759.18 883.944
3568.1 -2759.11 883.579
3559.03 -2760.54 888.117
3565.24 -2759.68 885.759
3566.99 -2759.3 884.102
3561.23 -2760.27 887.439
3556.14 -2761.36 888.727
3556.55 -2761.56 891.131
3556.67 -2761.16 887.951
3555.95 -2761.4 887.831
3558.07 -2760.76 887.392
3557.08 -2761.05 887.233
3570.25 -2759.5 883.83
3568.69 -2759.12 883.084
3569.25 -2759.22 882.977
3569.9 -2759.35 883.45
3567.45 -2759.23 883.255
3558.55 -2760.7 886.878
3566.84 -2759.39 883.44
3565.06 -2759.76 885.093
3561.17 -2760.35 886.656
3555.41 -2761.67 887.936
3556.04 -2761.41 887.186
3557.41 -2761.04 886.455
3556.38 -2761.33 886.646
3569.97 -2760.69 891.863
3570.11 -2760.03 887.123
3569.99 -2759.4 882.766
3569.05 -2759.21 882.373
3569.82 -2759.38 882.221
3570.59 -2759.77 884.447
3570.7 -2759.77 883.775
3570.46 -2759.6 883.144
3567.31 -2759.38 882.511
3567.85 -2759.27 882.416
3560.58 -2760.54 885.95
3558.33 -2760.9 885.848
3565.1 -2759.84 884.08
3563.03 -2760.33 885.041
3557.36 -2761.27 885.317
3556.46 -2761.43 885.883
3570.18 -2761.03 893.351
3570.17 -2760.56 889.694
3570.46 -2759.59 882.429
3568.84 -2759.33 881.756
3569.57 -2759.43 881.768
3571.07 -2760.01 883.053
3571.1 -2760.04 882.502
3567.31 -2759.68 881.373
3566.89 -2759.59 882.101
3568.3 -2759.38 881.65
3560.46 -2760.76 885.008
3558.39 -2761.05 885.013
3564.77 -2760.11 883.093
3560.74 -2761.59 881.782
3556.8 -2761.57 884.824
3558.16 -2761.61 883.357
3570.81 -2760.62 886.685
3570.63 -2759.77 881.86
3570.16 -2759.68 881.333
3569.05 -2759.54 881.109
3570.28 -2760.37 879.777
3571.26 -2760.27 884.081
3571.34 -2760.27 882.119
3567.24 -2760.42 879.426
3566.7 -2760.48 879.529
3568.08 -2759.67 880.886
3565.76 -2760.47 880.289
3564.88 -2760.42 881.57
3560.14 -2761.18 883.627
3558.82 -2761.57 883.017
3562.97 -2761.29 880.712
3570.76 -2760.5 879.944
3569.15 -2760.2 879.601
3568.36 -2760.39 879.192
3571.7 -2760.61 883.77
3571.62 -2760.41 883.103
3571.48 -2760.97 879.994
3566.75 -2761.22 877.532
3566.11 -2761.05 878.32
3567.73 -2760.44 879.221
3567.75 -2761.05 877.845
3564.66 -2761.42 878.141
3570.86 -2761.22 878.13
3569.61 -2761.06 877.825
3568.64 -2761.07 877.653
3572.09 -2760.93 882.951
3571.89 -2760.76 882.383
