2864.1 -2941.03 -1259.43
2864.1 -2941.04 -1259.11
2864.1 -2941.05 -1258.79
2864.09 -2941.06 -1258.47
2864.09 -2941.07 -1258.15
2864.09 -2941.08 -1257.83
2864.09 -2941.09 -1257.51
2864.09 -2941.1 -1257.19
2864.08 -2941.11 -1256.87
2864.08 -2941.12 -1256.55
2864.08 -2941.13 -1256.23
2864.08 -2941.14 -1255.91
2864.08 -2941.15 -1255.59
2864.07 -2941.16 -1255.27
2864.07 -2941.17 -1254.95
2864.07 -2941.18 -1254.63
2864.07 -2941.19 -1254.31
2864.07 -2941.2 -1253.99
2864.06 -2941.21 -1253.67
2864.06 -2941.22 -1253.35
2864.06 -2941.23 -1253.03
2864.06 -2941.24 -1252.71
2864.06 -2941.25 -1252.39
2864.05 -2941.26 -1252.07
2864.05 -2941.28 -1251.75
2864.05 -2941.29 -1251.43
2864.05 -2941.3 -1251.11
2864.05 -2941.31 -1250.79
2864.04 -2941.32 -1250.47
2864.04 -2941.33 -1250.15
2864.04 -2941.34 -1249.83
2864.04 -2941.35 -1249.51
2864.04 -2941.36 -1249.19
2864.03 -2941.37 -1248.87
2864.03 -2941.38 -1248.55
2864.03 -2941.39 -1248.23
2864.03 -2941.4 -1247.91
2864.03 -2941.41 -1247.59
2864.02 -2941.42 -1247.27
2864.02 -2941.43 -1246.95
2864.02 -2941.44 -1246.63
2864.02 -2941.45 -1246.31
2864.02 -2941.46 -1245.99
2864.01 -2941.47 -1245.67
2864.01 -2941.48 -1245.35
2864.01 -2941.49 -1245.03
2864.01 -2941.5 -1244.71
2864.01 -2941.51 -1244.39
2864 -2941.52 -1244.07
2864 -2941.53 -1243.75
2864 -2941.54 -1243.43
2864 -2941.55 -1243.11
2864 -2941.56 -1242.79
2863.99 -2941.57 -1242.47
2863.99 -2941.58 -1242.15
2863.99 -2941.59 -1241.83
2863.99 -2941.6 -1241.51
2863.99 -2941.61 -1241.19
2863.98 -2941.62 -1240.87
2863.98 -2941.63 -1240.56
2863.98 -2941.64 -1240.24
2863.98 -2941.65 -1239.92
2863.98 -2941.66 -1239.6
2863.97 -2941.67 -1239.28
2863.97 -2941.68 -1238.96
2863.97 -2941.69 -1238.64
2863.97 -2941.7 -1238.32
2863.97 -2941.71 -1238
2863.96 -2941.72 -1237.68
2863.96 -2941.73 -1237.36
2863.96 -2941.75 -1237.04
2863.96 -2941.76 -1236.72
2863.96 -2941.77 -1236.4
2863.95 -2941.78 -1236.08
2863.95 -2941.79 -1235.76
2863.95 -2941.8 -1235.44
2863.95 -2941.81 -1235.12
2863.95 -2941.82 -1234.81
2863.94 -2941.83 -1234.49
2863.94 -2941.84 -1234.17
2863.94 -2941.85 -1233.85
2863.94 -2941.86 -1233.53
2863.94 -2941.87 -1233.21
2863.93 -2941.88 -1232.89
2863.93 -2941.89 -1232.57
2863.93 -2941.9 -1232.25
2863.93 -2941.91 -1231.93
2863.93 -2941.92 -1231.61
2863.92 -2941.93 -1231.29
2863.92 -2941.94 -1230.97
2863.92 -2941.95 -1230.66
2863.92 -2941.96 -1230.34
2863.92 -2941.97 -1230.02
2863.91 -2941.99 -1229.7
2863.91 -2942 -1229.38
2863.91 -2942.01 -1229.06
2863.91 -2942.02 -1228.74
2863.91 -2942.03 -1228.42
2863.9 -2942.04 -1228.1
2863.9 -2942.05 -1227.78
2863.9 -2942.06 -1227.47
2863.9 -2942.07 -1227.15
2863.9 -2942.08 -1226.83
2863.89 -2942.09 -1226.51
2863.89 -2942.1 -1226.19
2863.89 -2942.11 -1225.87
2863.89 -2942.12 -1225.55
2863.89 -2942.13 -1225.23
2863.88 -2942.14 -1224.91
2863.88 -2942.15 -1224.59
2863.88 -2942.16 -1224.28
2863.88 -2942.18 -1223.96
2863.88 -2942.19 -1223.64
2863.88 -2942.2 -1223.32
2863.87 -2942.21 -1223
2863.87 -2942.22 -1222.68
2863.87 -2942.23 -1222.36
2863.87 -2942.24 -1222.04
2863.87 -2942.25 -1221.73
2863.86 -2942.26 -1221.41
2863.86 -2942.27 -1221.09
2863.86 -2942.28 -1220.77
2863.86 -2942.29 -1220.45
2863.86 -2942.3 -1220.13
2863.85 -2942.31 -1219.81
2863.85 -2942.32 -1219.5
2863.85 -2942.34 -1219.18
2863.85 -2942.35 -1218.86
2863.85 -2942.36 -1218.54
2863.84 -2942.37 -1218.22
2863.84 -2942.38 -1217.9
2863.84 -2942.39 -1217.58
2863.84 -2942.4 -1217.27
2863.84 -2942.41 -1216.95
2863.83 -2942.42 -1216.63
2863.83 -2942.43 -1216.31
2863.83 -2942.44 -1215.99
2863.83 -2942.45 -1215.67
2863.83 -2942.46 -1215.35
2863.83 -2942.48 -1215.04
2863.82 -2942.49 -1214.72
2863.82 -2942.5 -1214.4
2863.82 -2942.51 -1214.08
2863.82 -2942.52 -1213.76
2863.82 -2942.53 -1213.44
2863.81 -2942.54 -1213.13
2863.81 -2942.55 -1212.81
2863.81 -2942.56 -1212.49
2863.81 -2942.57 -1212.17
2863.81 -2942.58 -1211.85
2863.8 -2942.6 -1211.53
2863.8 -2942.61 -1211.22
2863.8 -2942.62 -1210.9
2863.8 -2942.63 -1210.58
2863.8 -2942.64 -1210.26
2863.79 -2942.65 -1209.94
2863.79 -2942.66 -1209.63
2863.79 -2942.67 -1209.31
2863.79 -2942.68 -1208.99
2863.79 -2942.69 -1208.67
2863.79 -2942.7 -1208.35
2863.78 -2942.72 -1208.04
2863.78 -2942.73 -1207.72
2863.78 -2942.74 -1207.4
2863.78 -2942.75 -1207.08
2863.78 -2942.76 -1206.76
2863.77 -2942.77 -1206.45
2863.77 -2942.78 -1206.13
2863.77 -2942.79 -1205.81
2863.77 -2942.8 -1205.49
2863.77 -2942.81 -1205.17
2863.76 -2942.83 -1204.86
2863.76 -2942.84 -1204.54
2863.76 -2942.85 -1204.22
2863.76 -2942.86 -1203.9
2863.76 -2942.87 -1203.58
2863.76 -2942.88 -1203.27
2863.75 -2942.89 -1202.95
2863.75 -2942.9 -1202.63
2863.75 -2942.91 -1202.31
2863.75 -2942.93 -1201.99
2863.75 -2942.94 -1201.68
2863.74 -2942.95 -1201.36
2863.74 -2942.96 -1201.04
2863.74 -2942.97 -1200.72
2863.74 -2942.98 -1200.41
2863.74 -2942.99 -1200.09
2863.73 -2943 -1199.77
2863.73 -2943.01 -1199.45
2863.73 -2943.03 -1199.14
2863.73 -2943.04 -1198.82
2863.73 -2943.05 -1198.5
2863.73 -2943.06 -1198.18
2863.72 -2943.07 -1197.87
2863.72 -2943.08 -1197.55
2863.72 -2943.09 -1197.23
2863.72 -2943.1 -1196.91
2863.72 -2943.12 -1196.6
2863.71 -2943.13 -1196.28
2863.71 -2943.14 -1195.96
2863.71 -2943.15 -1195.64
2863.71 -2943.16 -1195.33
2863.71 -2943.17 -1195.01
2863.71 -2943.18 -1194.69
2863.7 -2943.19 -1194.37
2863.7 -2943.21 -1194.06
2863.7 -2943.22 -1193.74
2863.7 -2943.23 -1193.42
2863.7 -2943.24 -1193.1
2863.69 -2943.25 -1192.79
2863.69 -2943.26 -1192.47
2863.69 -2943.27 -1192.15
2863.69 -2943.28 -1191.83
2863.69 -2943.3 -1191.52
2863.69 -2943.31 -1191.2
2863.68 -2943.32 -1190.88
2863.68 -2943.33 -1190.57
2863.68 -2943.34 -1190.25
2863.68 -2943.35 -1189.93
2863.68 -2943.36 -1189.61
2863.67 -2943.38 -1189.3
2863.67 -2943.39 -1188.98
2863.67 -2943.4 -1188.66
2863.67 -2943.41 -1188.35
2863.67 -2943.42 -1188.03
2863.67 -2943.43 -1187.71
2863.66 -2943.44 -1187.39
2863.66 -2943.46 -1187.08
2863.66 -2943.47 -1186.76
2863.66 -2943.48 -1186.44
2863.66 -2943.49 -1186.13
2863.65 -2943.5 -1185.81
2863.65 -2943.51 -1185.49
2863.65 -2943.52 -1185.18
2863.65 -2943.54 -1184.86
2863.65 -2943.55 -1184.54
2863.65 -2943.56 -1184.23
2863.64 -2943.57 -1183.91
2863.64 -2943.58 -1183.59
2863.64 -2943.59 -1183.27
2863.64 -2943.61 -1182.96
2863.64 -2943.62 -1182.64
2863.63 -2943.63 -1182.32
2863.63 -2943.64 -1182.01
2863.63 -2943.65 -1181.69
2863.63 -2943.66 -1181.37
2863.63 -2943.67 -1181.06
2863.63 -2943.69 -1180.74
2863.62 -2943.7 -1180.42
2863.62 -2943.71 -1180.11
2863.62 -2943.72 -1179.79
2863.62 -2943.73 -1179.47
2863.62 -2943.74 -1179.16
2863.62 -2943.76 -1178.84
2863.61 -2943.77 -1178.52
2863.61 -2943.78 -1178.21
2863.61 -2943.79 -1177.89
2863.61 -2943.8 -1177.58
2863.61 -2943.81 -1177.26
2863.6 -2943.83 -1176.94
2863.6 -2943.84 -1176.63
2863.6 -2943.85 -1176.31
2863.6 -2943.86 -1175.99
2863.6 -2943.87 -1175.68
2863.6 -2943.88 -1175.36
2863.59 -2943.9 -1175.04
2863.59 -2943.91 -1174.73
2863.59 -2943.92 -1174.41
2863.59 -2943.93 -1174.09
2863.59 -2943.94 -1173.78
2863.59 -2943.96 -1173.46
2863.58 -2943.97 -1173.15
2863.58 -2943.98 -1172.83
2863.58 -2943.99 -1172.51
2863.58 -2944 -1172.2
2863.58 -2944.01 -1171.88
2863.57 -2944.03 -1171.56
2863.57 -2944.04 -1171.25
2863.57 -2944.05 -1170.93
2863.57 -2944.06 -1170.62
2863.57 -2944.07 -1170.3
2863.57 -2944.09 -1169.98
2863.56 -2944.1 -1169.67
2863.56 -2944.11 -1169.35
2863.56 -2944.12 -1169.04
2863.56 -2944.13 -1168.72
2863.56 -2944.15 -1168.4
2863.56 -2944.16 -1168.09
2863.55 -2944.17 -1167.77
2863.55 -2944.18 -1167.46
2863.55 -2944.19 -1167.14
2863.55 -2944.2 -1166.82
2863.55 -2944.22 -1166.51
2863.55 -2944.23 -1166.19
2863.54 -2944.24 -1165.88
2863.54 -2944.25 -1165.56
2863.54 -2944.26 -1165.24
2863.54 -2944.28 -1164.93
2863.54 -2944.29 -1164.61
2863.53 -2944.3 -1164.3
2863.53 -2944.31 -1163.98
2863.53 -2944.32 -1163.67
2863.53 -2944.34 -1163.35
2863.53 -2944.35 -1163.03
2863.53 -2944.36 -1162.72
2863.52 -2944.37 -1162.4
2863.52 -2944.39 -1162.09
2863.52 -2944.4 -1161.77
2863.52 -2944.41 -1161.46
2863.52 -2944.42 -1161.14
2863.52 -2944.43 -1160.83
2863.51 -2944.45 -1160.51
2863.51 -2944.46 -1160.19
2863.51 -2944.47 -1159.88
2863.51 -2944.48 -1159.56
2863.51 -2944.49 -1159.25
2863.51 -2944.51 -1158.93
2863.5 -2944.52 -1158.62
2863.5 -2944.53 -1158.3
2863.5 -2944.54 -1157.99
2863.5 -2944.56 -1157.67
2863.5 -2944.57 -1157.35
2863.5 -2944.58 -1157.04
2863.49 -2944.59 -1156.72
2863.49 -2944.6 -1156.41
2863.49 -2944.62 -1156.09
2863.49 -2944.63 -1155.78
2863.49 -2944.64 -1155.46
2863.49 -2944.65 -1155.15
2863.48 -2944.67 -1154.83
2863.48 -2944.68 -1154.52
2863.48 -2944.69 -1154.2
2863.48 -2944.7 -1153.89
2863.48 -2944.71 -1153.57
2863.48 -2944.73 -1153.26
2863.47 -2944.74 -1152.94
2863.47 -2944.75 -1152.63
2863.47 -2944.76 -1152.31
2863.47 -2944.78 -1152
2863.47 -2944.79 -1151.68
2863.47 -2944.8 -1151.37
2863.46 -2944.81 -1151.05
2863.46 -2944.83 -1150.74
2863.46 -2944.84 -1150.42
2863.46 -2944.85 -1150.11
2863.46 -2944.86 -1149.79
2863.46 -2944.88 -1149.48
2863.45 -2944.89 -1149.16
2863.45 -2944.9 -1148.85
2863.45 -2944.91 -1148.53
2863.45 -2944.93 -1148.22
2863.45 -2944.94 -1147.9
2863.45 -2944.95 -1147.59
2863.44 -2944.96 -1147.27
2863.44 -2944.97 -1146.96
2863.44 -2944.99 -1146.64
2863.44 -2945 -1146.33
2863.44 -2945.01 -1146.01
2863.44 -2945.02 -1145.7
2863.43 -2945.04 -1145.38
2863.43 -2945.05 -1145.07
2863.43 -2945.06 -1144.75
2863.43 -2945.08 -1144.44
2863.43 -2945.09 -1144.13
2863.43 -2945.1 -1143.81
2863.42 -2945.11 -1143.5
2863.42 -2945.13 -1143.18
2863.42 -2945.14 -1142.87
2863.42 -2945.15 -1142.55
2863.42 -2945.16 -1142.24
2863.42 -2945.18 -1141.92
2863.42 -2945.19 -1141.61
2863.41 -2945.2 -1141.3
2863.41 -2945.21 -1140.98
2863.41 -2945.23 -1140.67
2863.41 -2945.24 -1140.35
2863.41 -2945.25 -1140.04
2863.41 -2945.26 -1139.72
2863.4 -2945.28 -1139.41
2863.4 -2945.29 -1139.09
2863.4 -2945.3 -1138.78
2863.4 -2945.32 -1138.47
2863.4 -2945.33 -1138.15
2863.4 -2945.34 -1137.84
2863.39 -2945.35 -1137.52
2863.39 -2945.37 -1137.21
2863.39 -2945.38 -1136.9
2863.39 -2945.39 -1136.58
2863.39 -2945.4 -1136.27
2863.39 -2945.42 -1135.95
2863.38 -2945.43 -1135.64
2863.38 -2945.44 -1135.32
2863.38 -2945.46 -1135.01
2863.38 -2945.47 -1134.7
2863.38 -2945.48 -1134.38
2863.38 -2945.49 -1134.07
2863.38 -2945.51 -1133.75
2863.37 -2945.52 -1133.44
2863.37 -2945.53 -1133.13
2863.37 -2945.55 -1132.81
2863.37 -2945.56 -1132.5
2863.37 -2945.57 -1132.18
2863.37 -2945.58 -1131.87
2863.36 -2945.6 -1131.56
2863.36 -2945.61 -1131.24
2863.36 -2945.62 -1130.93
2863.36 -2945.64 -1130.62
2863.36 -2945.65 -1130.3
2863.36 -2945.66 -1129.99
2863.35 -2945.68 -1129.67
2863.35 -2945.69 -1129.36
2863.35 -2945.7 -1129.05
2863.35 -2945.71 -1128.73
2863.35 -2945.73 -1128.42
2863.35 -2945.74 -1128.11
2863.35 -2945.75 -1127.79
2863.34 -2945.77 -1127.48
2863.34 -2945.78 -1127.17
2863.34 -2945.79 -1126.85
2863.34 -2945.81 -1126.54
2863.34 -2945.82 -1126.23
2863.34 -2945.83 -1125.91
2863.33 -2945.84 -1125.6
2863.33 -2945.86 -1125.28
2863.33 -2945.87 -1124.97
2863.33 -2945.88 -1124.66
2863.33 -2945.9 -1124.34
2863.33 -2945.91 -1124.03
2863.33 -2945.92 -1123.72
2863.32 -2945.94 -1123.4
2863.32 -2945.95 -1123.09
2863.32 -2945.96 -1122.78
2863.32 -2945.98 -1122.46
2863.32 -2945.99 -1122.15
2863.32 -2946 -1121.84
2863.31 -2946.02 -1121.52
2863.31 -2946.03 -1121.21
2863.31 -2946.04 -1120.9
2863.31 -2946.06 -1120.59
2863.31 -2946.07 -1120.27
2863.31 -2946.08 -1119.96
2863.31 -2946.09 -1119.65
2863.3 -2946.11 -1119.33
2863.3 -2946.12 -1119.02
2863.3 -2946.13 -1118.71
2863.3 -2946.15 -1118.39
2863.3 -2946.16 -1118.08
2863.3 -2946.17 -1117.77
2863.3 -2946.19 -1117.46
2863.29 -2946.2 -1117.14
2863.29 -2946.21 -1116.83
2863.29 -2946.23 -1116.52
2863.29 -2946.24 -1116.2
2863.29 -2946.25 -1115.89
2863.29 -2946.27 -1115.58
2863.29 -2946.28 -1115.27
2863.28 -2946.29 -1114.95
2863.28 -2946.31 -1114.64
2863.28 -2946.32 -1114.33
2863.28 -2946.34 -1114.01
2863.28 -2946.35 -1113.7
2863.28 -2946.36 -1113.39
2863.27 -2946.38 -1113.08
2863.27 -2946.39 -1112.76
2863.27 -2946.4 -1112.45
2863.27 -2946.42 -1112.14
2863.27 -2946.43 -1111.83
2863.27 -2946.44 -1111.51
2863.27 -2946.46 -1111.2
2863.26 -2946.47 -1110.89
2863.26 -2946.48 -1110.58
2863.26 -2946.5 -1110.26
2863.26 -2946.51 -1109.95
2863.26 -2946.52 -1109.64
2863.26 -2946.54 -1109.33
2863.26 -2946.55 -1109.01
2863.25 -2946.56 -1108.7
2863.25 -2946.58 -1108.39
2863.25 -2946.59 -1108.08
2863.25 -2946.61 -1107.76
2863.25 -2946.62 -1107.45
2863.25 -2946.63 -1107.14
2863.25 -2946.65 -1106.83
2863.24 -2946.66 -1106.52
2863.24 -2946.67 -1106.2
2863.24 -2946.69 -1105.89
2863.24 -2946.7 -1105.58
2863.24 -2946.71 -1105.27
2863.24 -2946.73 -1104.95
2863.24 -2946.74 -1104.64
2863.23 -2946.76 -1104.33
2863.23 -2946.77 -1104.02
2863.23 -2946.78 -1103.71
2863.23 -2946.8 -1103.39
2863.23 -2946.81 -1103.08
2863.23 -2946.82 -1102.77
2863.23 -2946.84 -1102.46
2863.22 -2946.85 -1102.15
2863.22 -2946.87 -1101.83
2863.22 -2946.88 -1101.52
2863.22 -2946.89 -1101.21
2863.22 -2946.91 -1100.9
2863.22 -2946.92 -1100.59
2863.22 -2946.94 -1100.28
2863.21 -2946.95 -1099.96
2863.21 -2946.96 -1099.65
2863.21 -2946.98 -1099.34
2863.21 -2946.99 -1099.03
2863.21 -2947 -1098.72
2863.21 -2947.02 -1098.4
2863.21 -2947.03 -1098.09
2863.2 -2947.05 -1097.78
2863.2 -2947.06 -1097.47
2863.2 -2947.07 -1097.16
2863.2 -2947.09 -1096.85
2863.2 -2947.1 -1096.54
2863.2 -2947.12 -1096.22
2863.2 -2947.13 -1095.91
2863.19 -2947.14 -1095.6
2863.19 -2947.16 -1095.29
2863.19 -2947.17 -1094.98
2863.19 -2947.19 -1094.67
2863.19 -2947.2 -1094.36
2863.19 -2947.21 -1094.04
2863.19 -2947.23 -1093.73
2863.19 -2947.24 -1093.42
2863.18 -2947.26 -1093.11
2863.18 -2947.27 -1092.8
2863.18 -2947.28 -1092.49
2863.18 -2947.3 -1092.18
2863.18 -2947.31 -1091.86
2863.18 -2947.33 -1091.55
2863.18 -2947.34 -1091.24
2863.17 -2947.36 -1090.93
2863.17 -2947.37 -1090.62
2863.17 -2947.38 -1090.31
2863.17 -2947.4 -1090
2863.17 -2947.41 -1089.69
2863.17 -2947.43 -1089.38
2863.17 -2947.44 -1089.06
2863.16 -2947.45 -1088.75
2863.16 -2947.47 -1088.44
2863.16 -2947.48 -1088.13
2863.16 -2947.5 -1087.82
2863.16 -2947.51 -1087.51
2863.16 -2947.53 -1087.2
2863.16 -2947.54 -1086.89
2863.16 -2947.55 -1086.58
2863.15 -2947.57 -1086.27
2863.15 -2947.58 -1085.96
2863.15 -2947.6 -1085.64
2863.15 -2947.61 -1085.33
2863.15 -2947.63 -1085.02
2863.15 -2947.64 -1084.71
2863.15 -2947.65 -1084.4
2863.15 -2947.67 -1084.09
2863.14 -2947.68 -1083.78
2863.14 -2947.7 -1083.47
2863.14 -2947.71 -1083.16
2863.14 -2947.73 -1082.85
2863.14 -2947.74 -1082.54
2863.14 -2947.76 -1082.23
2863.14 -2947.77 -1081.92
2863.13 -2947.78 -1081.61
2863.13 -2947.8 -1081.3
2863.13 -2947.81 -1080.99
2863.13 -2947.83 -1080.68
2863.13 -2947.84 -1080.36
2863.13 -2947.86 -1080.05
2863.13 -2947.87 -1079.74
2863.13 -2947.89 -1079.43
2863.12 -2947.9 -1079.12
2863.12 -2947.92 -1078.81
2863.12 -2947.93 -1078.5
2863.12 -2947.94 -1078.19
2863.12 -2947.96 -1077.88
2863.12 -2947.97 -1077.57
2863.12 -2947.99 -1077.26
2863.12 -2948 -1076.95
2863.11 -2948.02 -1076.64
2863.11 -2948.03 -1076.33
2863.11 -2948.05 -1076.02
2863.11 -2948.06 -1075.71
2863.11 -2948.08 -1075.4
2863.11 -2948.09 -1075.09
2863.11 -2948.11 -1074.78
2863.11 -2948.12 -1074.47
2863.1 -2948.13 -1074.16
2863.1 -2948.15 -1073.85
2863.1 -2948.16 -1073.54
2863.1 -2948.18 -1073.23
2863.1 -2948.19 -1072.92
2863.1 -2948.21 -1072.61
2863.1 -2948.22 -1072.3
2863.1 -2948.24 -1071.99
2863.09 -2948.25 -1071.68
2863.09 -2948.27 -1071.37
2863.09 -2948.28 -1071.06
2863.09 -2948.3 -1070.75
2863.09 -2948.31 -1070.44
2863.09 -2948.33 -1070.13
2863.09 -2948.34 -1069.82
2863.09 -2948.36 -1069.51
2863.08 -2948.37 -1069.21
2863.08 -2948.39 -1068.9
2863.08 -2948.4 -1068.59
2863.08 -2948.42 -1068.28
2863.08 -2948.43 -1067.97
2863.08 -2948.45 -1067.66
2863.08 -2948.46 -1067.35
2863.08 -2948.48 -1067.04
2863.07 -2948.49 -1066.73
2863.07 -2948.51 -1066.42
2863.07 -2948.52 -1066.11
2863.07 -2948.54 -1065.8
2863.07 -2948.55 -1065.49
2863.07 -2948.57 -1065.18
2863.07 -2948.58 -1064.87
2863.07 -2948.6 -1064.56
2863.06 -2948.61 -1064.25
2863.06 -2948.63 -1063.95
2863.06 -2948.64 -1063.64
2863.06 -2948.66 -1063.33
2863.06 -2948.67 -1063.02
2863.06 -2948.69 -1062.71
2863.06 -2948.7 -1062.4
2863.06 -2948.72 -1062.09
2863.06 -2948.73 -1061.78
2863.05 -2948.75 -1061.47
2863.05 -2948.76 -1061.16
2863.05 -2948.78 -1060.85
2863.05 -2948.79 -1060.55
2863.05 -2948.81 -1060.24
2863.05 -2948.82 -1059.93
2863.05 -2948.84 -1059.62
2863.05 -2948.85 -1059.31
2863.04 -2948.87 -1059
2863.04 -2948.88 -1058.69
2863.04 -2948.9 -1058.38
2863.04 -2948.91 -1058.08
2863.04 -2948.93 -1057.77
2863.04 -2948.94 -1057.46
2863.04 -2948.96 -1057.15
2863.04 -2948.97 -1056.84
2863.04 -2948.99 -1056.53
2863.03 -2949.01 -1056.22
2863.03 -2949.02 -1055.91
2863.03 -2949.04 -1055.61
2863.03 -2949.05 -1055.3
2863.03 -2949.07 -1054.99
2863.03 -2949.08 -1054.68
2863.03 -2949.1 -1054.37
2863.03 -2949.11 -1054.06
2863.03 -2949.13 -1053.75
2863.02 -2949.14 -1053.45
2863.02 -2949.16 -1053.14
2863.02 -2949.17 -1052.83
2863.02 -2949.19 -1052.52
2863.02 -2949.21 -1052.21
2863.02 -2949.22 -1051.9
2863.02 -2949.24 -1051.6
2863.02 -2949.25 -1051.29
2863.02 -2949.27 -1050.98
2863.01 -2949.28 -1050.67
2863.01 -2949.3 -1050.36
2863.01 -2949.31 -1050.06
2863.01 -2949.33 -1049.75
2863.01 -2949.34 -1049.44
2863.01 -2949.36 -1049.13
2863.01 -2949.38 -1048.82
2863.01 -2949.39 -1048.52
2863.01 -2949.41 -1048.21
2863 -2949.42 -1047.9
2863 -2949.44 -1047.59
2863 -2949.45 -1047.28
2863 -2949.47 -1046.98
2863 -2949.49 -1046.67
2863 -2949.5 -1046.36
2863 -2949.52 -1046.05
2863 -2949.53 -1045.74
2863 -2949.55 -1045.44
2862.99 -2949.56 -1045.13
2862.99 -2949.58 -1044.82
2862.99 -2949.6 -1044.51
2862.99 -2949.61 -1044.21
2862.99 -2949.63 -1043.9
2862.99 -2949.64 -1043.59
2862.99 -2949.66 -1043.28
2862.99 -2949.67 -1042.97
2862.99 -2949.69 -1042.67
2862.98 -2949.71 -1042.36
2862.98 -2949.72 -1042.05
2862.98 -2949.74 -1041.74
2862.98 -2949.75 -1041.44
2862.98 -2949.77 -1041.13
2862.98 -2949.78 -1040.82
2862.98 -2949.8 -1040.52
2862.98 -2949.82 -1040.21
2862.98 -2949.83 -1039.9
2862.98 -2949.85 -1039.59
2862.97 -2949.86 -1039.29
2862.97 -2949.88 -1038.98
2862.97 -2949.9 -1038.67
2862.97 -2949.91 -1038.36
2862.97 -2949.93 -1038.06
2862.97 -2949.94 -1037.75
2862.97 -2949.96 -1037.44
2862.97 -2949.98 -1037.14
2862.97 -2949.99 -1036.83
2862.96 -2950.01 -1036.52
2862.96 -2950.02 -1036.21
2862.96 -2950.04 -1035.91
2862.96 -2950.06 -1035.6
2862.96 -2950.07 -1035.29
2862.96 -2950.09 -1034.99
2862.96 -2950.1 -1034.68
2862.96 -2950.12 -1034.37
2862.96 -2950.14 -1034.07
2862.96 -2950.15 -1033.76
2862.95 -2950.17 -1033.45
2862.95 -2950.19 -1033.14
2862.95 -2950.2 -1032.84
2862.95 -2950.22 -1032.53
2862.95 -2950.23 -1032.22
2862.95 -2950.25 -1031.92
2862.95 -2950.27 -1031.61
2862.95 -2950.28 -1031.3
2862.95 -2950.3 -1031
2862.95 -2950.31 -1030.69
2862.94 -2950.33 -1030.38
2862.94 -2950.35 -1030.08
2862.94 -2950.36 -1029.77
2862.94 -2950.38 -1029.47
2862.94 -2950.4 -1029.16
2862.94 -2950.41 -1028.85
2862.94 -2950.43 -1028.55
2862.94 -2950.45 -1028.24
2862.94 -2950.46 -1027.93
2862.94 -2950.48 -1027.63
2862.94 -2950.49 -1027.32
2862.93 -2950.51 -1027.01
2862.93 -2950.53 -1026.71
2862.93 -2950.54 -1026.4
2862.93 -2950.56 -1026.1
2862.93 -2950.58 -1025.79
2862.93 -2950.59 -1025.48
2862.93 -2950.61 -1025.18
2862.93 -2950.63 -1024.87
2862.93 -2950.64 -1024.56
2862.93 -2950.66 -1024.26
2862.92 -2950.68 -1023.95
2862.92 -2950.69 -1023.65
2862.92 -2950.71 -1023.34
2862.92 -2950.72 -1023.03
2862.92 -2950.74 -1022.73
2862.92 -2950.76 -1022.42
2862.92 -2950.77 -1022.12
2862.92 -2950.79 -1021.81
2862.92 -2950.81 -1021.5
2862.92 -2950.82 -1021.2
2862.92 -2950.84 -1020.89
2862.91 -2950.86 -1020.59
2862.91 -2950.87 -1020.28
2862.91 -2950.89 -1019.98
2862.91 -2950.91 -1019.67
2862.91 -2950.92 -1019.36
2862.91 -2950.94 -1019.06
2862.91 -2950.96 -1018.75
2862.91 -2950.97 -1018.45
2862.91 -2950.99 -1018.14
2862.91 -2951.01 -1017.84
2862.91 -2951.02 -1017.53
2862.9 -2951.04 -1017.23
2862.9 -2951.06 -1016.92
2862.9 -2951.07 -1016.61
2862.9 -2951.09 -1016.31
2862.9 -2951.11 -1016
2862.9 -2951.13 -1015.7
2862.9 -2951.14 -1015.39
2862.9 -2951.16 -1015.09
2862.9 -2951.18 -1014.78
2862.9 -2951.19 -1014.48
2862.9 -2951.21 -1014.17
2862.89 -2951.23 -1013.87
2862.89 -2951.24 -1013.56
2862.89 -2951.26 -1013.26
2862.89 -2951.28 -1012.95
2862.89 -2951.29 -1012.65
2862.89 -2951.31 -1012.34
2862.89 -2951.33 -1012.04
2862.89 -2951.34 -1011.73
2862.89 -2951.36 -1011.43
2862.89 -2951.38 -1011.12
2862.89 -2951.4 -1010.82
2862.89 -2951.41 -1010.51
2862.88 -2951.43 -1010.21
2862.88 -2951.45 -1009.9
2862.88 -2951.46 -1009.6
2862.88 -2951.48 -1009.29
2862.88 -2951.5 -1008.99
2862.88 -2951.52 -1008.68
2862.88 -2951.53 -1008.38
2862.88 -2951.55 -1008.07
2862.88 -2951.57 -1007.77
2862.88 -2951.58 -1007.46
2862.88 -2951.6 -1007.16
2862.88 -2951.62 -1006.85
2862.87 -2951.64 -1006.55
2862.87 -2951.65 -1006.24
2862.87 -2951.67 -1005.94
2862.87 -2951.69 -1005.64
2862.87 -2951.7 -1005.33
2862.87 -2951.72 -1005.03
2862.87 -2951.74 -1004.72
2862.87 -2951.76 -1004.42
2862.87 -2951.77 -1004.11
2862.87 -2951.79 -1003.81
2862.87 -2951.81 -1003.51
2862.87 -2951.83 -1003.2
2862.87 -2951.84 -1002.9
2862.86 -2951.86 -1002.59
2862.86 -2951.88 -1002.29
2862.86 -2951.89 -1001.98
2862.86 -2951.91 -1001.68
2862.86 -2951.93 -1001.38
2862.86 -2951.95 -1001.07
2862.86 -2951.96 -1000.77
2862.86 -2951.98 -1000.46
2862.86 -2952 -1000.16
2862.86 -2952.02 -999.855
2862.86 -2952.03 -999.551
2862.86 -2952.05 -999.247
2862.86 -2952.07 -998.943
2862.85 -2952.09 -998.64
2862.85 -2952.1 -998.336
2862.85 -2952.12 -998.032
2862.85 -2952.14 -997.728
2862.85 -2952.16 -997.424
2862.85 -2952.17 -997.12
2862.85 -2952.19 -996.817
2862.85 -2952.21 -996.513
2862.85 -2952.23 -996.209
2862.85 -2952.24 -995.906
2862.85 -2952.26 -995.602
2862.85 -2952.28 -995.298
2862.85 -2952.3 -994.995
2862.84 -2952.31 -994.691
2862.84 -2952.33 -994.388
2862.84 -2952.35 -994.084
2862.84 -2952.37 -993.781
2862.84 -2952.39 -993.477
2862.84 -2952.4 -993.174
2862.84 -2952.42 -992.871
2862.84 -2952.44 -992.567
2862.84 -2952.46 -992.264
2862.84 -2952.47 -991.961
2862.84 -2952.49 -991.657
2862.84 -2952.51 -991.354
2862.84 -2952.53 -991.051
2862.84 -2952.55 -990.748
2862.83 -2952.56 -990.444
2862.83 -2952.58 -990.141
2862.83 -2952.6 -989.838
2862.83 -2952.62 -989.535
2862.83 -2952.63 -989.232
2862.83 -2952.65 -988.929
2862.83 -2952.67 -988.626
2862.83 -2952.69 -988.323
2862.83 -2952.71 -988.02
2862.83 -2952.72 -987.717
2862.83 -2952.74 -987.414
2862.83 -2952.76 -987.111
2862.83 -2952.78 -986.809
2862.83 -2952.8 -986.506
2862.83 -2952.81 -986.203
2862.82 -2952.83 -985.9
2862.82 -2952.85 -985.597
2862.82 -2952.87 -985.295
2862.82 -2952.89 -984.992
2862.82 -2952.9 -984.689
2862.82 -2952.92 -984.387
2862.82 -2952.94 -984.084
2862.82 -2952.96 -983.782
2862.82 -2952.98 -983.479
2862.82 -2953 -983.177
2862.82 -2953.01 -982.874
2862.82 -2953.03 -982.572
2862.82 -2953.05 -982.269
2862.82 -2953.07 -981.967
2862.82 -2953.09 -981.664
2862.81 -2953.1 -981.362
2862.81 -2953.12 -981.06
2862.81 -2953.14 -980.757
2862.81 -2953.16 -980.455
2862.81 -2953.18 -980.153
2862.81 -2953.2 -979.851
2862.81 -2953.21 -979.549
2862.81 -2953.23 -979.246
2862.81 -2953.25 -978.944
2862.81 -2953.27 -978.642
2862.81 -2953.29 -978.34
2862.81 -2953.31 -978.038
2862.81 -2953.32 -977.736
2862.81 -2953.34 -977.434
2862.81 -2953.36 -977.132
2862.81 -2953.38 -976.83
2862.8 -2953.4 -976.528
2862.8 -2953.42 -976.226
2862.8 -2953.43 -975.925
2862.8 -2953.45 -975.623
2862.8 -2953.47 -975.321
2862.8 -2953.49 -975.019
2862.8 -2953.51 -974.717
2862.8 -2953.53 -974.416
2862.8 -2953.55 -974.114
2862.8 -2953.56 -973.812
2862.8 -2953.58 -973.511
2862.8 -2953.6 -973.209
2862.8 -2953.62 -972.908
2862.8 -2953.64 -972.606
2862.8 -2953.66 -972.305
2862.8 -2953.68 -972.003
2862.8 -2953.69 -971.701
2862.8 -2953.71 -971.4
2862.79 -2953.73 -971.098
2862.79 -2953.75 -970.797
2862.79 -2953.77 -970.495
2862.79 -2953.79 -970.194
2862.79 -2953.81 -969.892
2862.79 -2953.82 -969.591
2862.79 -2953.84 -969.289
2862.79 -2953.86 -968.988
2862.79 -2953.88 -968.686
2862.79 -2953.9 -968.385
2862.79 -2953.92 -968.083
2862.79 -2953.94 -967.781
2862.79 -2953.95 -967.48
2862.79 -2953.97 -967.178
2862.79 -2953.99 -966.877
2862.79 -2954.01 -966.575
2862.79 -2954.03 -966.274
2862.79 -2954.05 -965.972
2862.78 -2954.07 -965.671
2862.78 -2954.08 -965.369
2862.78 -2954.1 -965.068
2862.78 -2954.12 -964.766
2862.78 -2954.14 -964.465
2862.78 -2954.16 -964.163
2862.78 -2954.18 -963.861
2862.78 -2954.2 -963.56
2862.78 -2954.21 -963.258
2862.78 -2954.23 -962.957
2862.78 -2954.25 -962.655
2862.78 -2954.27 -962.354
2862.78 -2954.29 -962.052
2862.78 -2954.31 -961.751
2862.78 -2954.33 -961.449
2862.78 -2954.34 -961.148
2862.78 -2954.36 -960.846
2862.78 -2954.38 -960.545
2862.77 -2954.4 -960.243
2862.77 -2954.42 -959.941
2862.77 -2954.44 -959.64
2862.77 -2954.46 -959.338
2862.77 -2954.47 -959.037
2862.77 -2954.49 -958.735
2862.77 -2954.51 -958.434
2862.77 -2954.53 -958.132
2862.77 -2954.55 -957.831
2862.77 -2954.57 -957.529
2862.77 -2954.59 -957.228
2862.77 -2954.6 -956.926
2862.77 -2954.62 -956.625
2862.77 -2954.64 -956.323
2862.77 -2954.66 -956.021
2862.77 -2954.68 -955.72
2862.77 -2954.7 -955.418
2862.76 -2954.72 -955.117
2862.76 -2954.73 -954.815
2862.76 -2954.75 -954.514
2862.76 -2954.77 -954.212
2862.76 -2954.79 -953.911
2862.76 -2954.81 -953.609
2862.76 -2954.83 -953.308
2862.76 -2954.85 -953.006
2862.76 -2954.86 -952.705
2862.76 -2954.88 -952.403
2862.76 -2954.9 -952.101
2862.76 -2954.92 -951.8
2862.76 -2954.94 -951.498
2862.76 -2954.96 -951.197
2862.76 -2954.98 -950.895
2862.76 -2954.99 -950.594
2862.76 -2955.01 -950.292
2862.76 -2955.03 -949.991
2862.75 -2955.05 -949.689
2862.75 -2955.07 -949.388
2862.75 -2955.09 -949.086
2862.75 -2955.11 -948.785
2862.75 -2955.13 -948.483
2862.75 -2955.14 -948.181
2862.75 -2955.16 -947.88
2862.75 -2955.18 -947.578
2862.75 -2955.2 -947.277
2862.75 -2955.22 -946.975
2862.75 -2955.24 -946.674
2862.75 -2955.26 -946.372
2862.75 -2955.27 -946.071
2862.75 -2955.29 -945.769
2862.75 -2955.31 -945.468
2862.75 -2955.33 -945.166
2862.75 -2955.35 -944.865
2862.75 -2955.37 -944.563
2862.74 -2955.39 -944.261
2862.74 -2955.4 -943.96
2862.74 -2955.42 -943.658
2862.74 -2955.44 -943.357
2862.74 -2955.46 -943.055
2862.74 -2955.48 -942.754
2862.74 -2955.5 -942.452
2862.74 -2955.52 -942.151
2862.74 -2955.53 -941.849
2862.74 -2955.55 -941.548
2862.74 -2955.57 -941.246
2862.74 -2955.59 -940.945
2862.74 -2955.61 -940.643
2862.74 -2955.63 -940.341
2862.74 -2955.65 -940.04
2862.74 -2955.66 -939.738
2862.74 -2955.68 -939.437
2862.74 -2955.7 -939.135
2862.73 -2955.72 -938.834
2862.73 -2955.74 -938.532
2862.73 -2955.76 -938.231
2862.73 -2955.78 -937.929
2862.73 -2955.79 -937.628
2862.73 -2955.81 -937.326
2862.73 -2955.83 -937.025
2862.73 -2955.85 -936.723
2862.73 -2955.87 -936.421
2862.73 -2955.89 -936.12
2862.73 -2955.91 -935.818
2862.73 -2955.92 -935.517
2862.73 -2955.94 -935.215
2862.73 -2955.96 -934.914
2862.73 -2955.98 -934.612
2862.73 -2956 -934.311
2862.73 -2956.02 -934.009
2862.73 -2956.04 -933.708
2862.72 -2956.05 -933.406
2862.72 -2956.07 -933.105
2862.72 -2956.09 -932.803
2862.72 -2956.11 -932.501
2862.72 -2956.13 -932.2
2862.72 -2956.15 -931.898
2862.72 -2956.17 -931.597
2862.72 -2956.18 -931.295
2862.72 -2956.2 -930.994
2862.72 -2956.22 -930.692
2862.72 -2956.24 -930.391
2862.72 -2956.26 -930.089
2862.72 -2956.28 -929.788
2862.72 -2956.3 -929.486
2862.72 -2956.31 -929.184
2862.72 -2956.33 -928.883
2862.72 -2956.35 -928.581
2862.71 -2956.37 -928.28
2862.71 -2956.39 -927.978
2862.71 -2956.41 -927.677
2862.71 -2956.43 -927.375
2862.71 -2956.44 -927.074
2862.71 -2956.46 -926.772
2862.71 -2956.48 -926.471
2862.71 -2956.5 -926.169
2862.71 -2956.52 -925.868
2862.71 -2956.54 -925.566
2862.71 -2956.56 -925.264
2862.71 -2956.57 -924.963
2862.71 -2956.59 -924.661
2862.71 -2956.61 -924.36
2862.71 -2956.63 -924.058
2862.71 -2956.65 -923.757
2862.71 -2956.67 -923.455
2862.71 -2956.69 -923.154
2862.7 -2956.71 -922.852
2862.7 -2956.72 -922.551
2862.7 -2956.74 -922.249
2862.7 -2956.76 -921.948
2862.7 -2956.78 -921.646
2862.7 -2956.8 -921.344
2862.7 -2956.82 -921.043
2862.7 -2956.84 -920.741
2862.7 -2956.85 -920.44
2862.7 -2956.87 -920.138
2862.7 -2956.89 -919.837
2862.7 -2956.91 -919.535
2862.7 -2956.93 -919.234
2862.7 -2956.95 -918.932
2862.7 -2956.97 -918.631
2862.7 -2956.98 -918.329
2862.7 -2957 -918.028
2862.7 -2957.02 -917.726
2862.69 -2957.04 -917.424
2862.69 -2957.06 -917.123
2862.69 -2957.08 -916.821
2862.69 -2957.1 -916.52
2862.69 -2957.11 -916.218
2862.69 -2957.13 -915.917
2862.69 -2957.15 -915.615
2862.69 -2957.17 -915.314
2862.69 -2957.19 -915.012
2862.69 -2957.21 -914.711
2862.69 -2957.23 -914.409
2862.69 -2957.24 -914.108
2862.69 -2957.26 -913.806
2862.69 -2957.28 -913.504
2862.69 -2957.3 -913.203
2862.69 -2957.32 -912.901
2862.69 -2957.34 -912.6
2862.69 -2957.36 -912.298
2862.68 -2957.37 -911.997
2862.68 -2957.39 -911.695
2862.68 -2957.41 -911.394
2862.68 -2957.43 -911.092
2862.68 -2957.45 -910.791
2862.68 -2957.47 -910.489
2862.68 -2957.49 -910.188
2862.68 -2957.5 -909.886
2862.68 -2957.52 -909.584
2862.68 -2957.54 -909.283
2862.68 -2957.56 -908.981
2862.68 -2957.58 -908.68
2862.68 -2957.6 -908.378
2862.68 -2957.62 -908.077
2862.68 -2957.63 -907.775
2862.68 -2957.65 -907.474
2862.68 -2957.67 -907.172
2862.68 -2957.69 -906.871
2862.67 -2957.71 -906.569
2862.67 -2957.73 -906.268
2862.67 -2957.75 -905.966
2862.67 -2957.76 -905.664
2862.67 -2957.78 -905.363
2862.67 -2957.8 -905.061
2862.67 -2957.82 -904.76
2862.67 -2957.84 -904.458
2862.67 -2957.86 -904.157
2862.67 -2957.88 -903.855
2862.67 -2957.89 -903.554
2862.67 -2957.91 -903.252
2862.67 -2957.93 -902.951
2862.67 -2957.95 -902.649
2862.67 -2957.97 -902.348
2862.67 -2957.99 -902.046
2862.67 -2958.01 -901.744
2862.67 -2958.02 -901.443
2862.66 -2958.04 -901.141
2862.66 -2958.06 -900.84
2862.66 -2958.08 -900.538
2862.66 -2958.1 -900.237
2862.66 -2958.12 -899.935
2862.66 -2958.14 -899.634
2862.66 -2958.15 -899.332
2862.66 -2958.17 -899.031
2862.66 -2958.19 -898.729
2862.66 -2958.21 -898.428
2862.66 -2958.23 -898.126
2862.66 -2958.25 -897.824
2862.66 -2958.27 -897.523
2862.66 -2958.29 -897.221
2862.66 -2958.3 -896.92
2862.66 -2958.32 -896.618
2862.66 -2958.34 -896.317
2862.65 -2958.36 -896.015
2862.65 -2958.38 -895.714
2862.65 -2958.4 -895.412
2862.65 -2958.42 -895.111
2862.65 -2958.43 -894.809
2862.65 -2958.45 -894.508
2862.65 -2958.47 -894.206
2862.65 -2958.49 -893.904
2862.65 -2958.51 -893.603
2862.65 -2958.53 -893.301
2862.65 -2958.55 -893
2862.65 -2958.56 -892.698
2862.65 -2958.58 -892.397
2862.65 -2958.6 -892.095
2862.65 -2958.62 -891.794
2862.65 -2958.64 -891.492
2862.65 -2958.66 -891.191
2862.65 -2958.68 -890.889
2862.64 -2958.69 -890.588
2862.64 -2958.71 -890.286
2862.64 -2958.73 -889.984
2862.64 -2958.75 -889.683
2862.64 -2958.77 -889.381
2862.64 -2958.79 -889.08
2862.64 -2958.81 -888.778
2862.64 -2958.82 -888.477
2862.64 -2958.84 -888.175
2862.64 -2958.86 -887.874
2862.64 -2958.88 -887.572
2862.64 -2958.9 -887.271
2862.64 -2958.92 -886.969
2862.64 -2958.94 -886.667
2862.64 -2958.95 -886.366
2862.64 -2958.97 -886.064
2862.64 -2958.99 -885.763
2862.64 -2959.01 -885.461
2862.63 -2959.03 -885.16
2862.63 -2959.05 -884.858
2862.63 -2959.07 -884.557
2862.63 -2959.08 -884.255
2862.63 -2959.1 -883.954
2862.63 -2959.12 -883.652
2862.63 -2959.14 -883.351
2862.63 -2959.16 -883.049
2862.63 -2959.18 -882.747
2862.63 -2959.2 -882.446
2862.63 -2959.21 -882.144
2862.63 -2959.23 -881.843
2862.63 -2959.25 -881.541
2862.63 -2959.27 -881.24
2862.63 -2959.29 -880.938
2862.63 -2959.31 -880.637
2862.63 -2959.33 -880.335
2862.63 -2959.34 -880.034
2862.62 -2959.36 -879.732
2862.62 -2959.38 -879.431
2862.62 -2959.4 -879.129
2862.62 -2959.42 -878.827
2862.62 -2959.44 -878.526
2862.62 -2959.46 -878.224
2862.62 -2959.47 -877.923
2862.62 -2959.49 -877.621
2862.62 -2959.51 -877.32
2862.62 -2959.53 -877.018
2862.62 -2959.55 -876.717
2862.62 -2959.57 -876.415
2862.62 -2959.59 -876.114
2862.62 -2959.6 -875.812
2862.62 -2959.62 -875.511
2862.62 -2959.64 -875.209
2862.62 -2959.66 -874.907
2862.62 -2959.68 -874.606
2862.61 -2959.7 -874.304
2862.61 -2959.72 -874.003
2862.61 -2959.73 -873.701
2862.61 -2959.75 -873.4
2862.61 -2959.77 -873.098
2862.61 -2959.79 -872.797
2862.61 -2959.81 -872.495
2862.61 -2959.83 -872.194
2862.61 -2959.85 -871.892
2862.61 -2959.86 -871.591
2862.61 -2959.88 -871.289
2862.61 -2959.9 -870.987
2862.61 -2959.92 -870.686
2862.61 -2959.94 -870.384
2862.61 -2959.96 -870.083
2862.61 -2959.98 -869.781
2862.61 -2960 -869.48
2862.6 -2960.01 -869.178
2862.6 -2960.03 -868.877
2862.6 -2960.05 -868.575
2862.6 -2960.07 -868.274
2862.6 -2960.09 -867.972
2862.6 -2960.11 -867.671
2862.6 -2960.13 -867.369
2862.6 -2960.14 -867.067
2862.6 -2960.16 -866.766
2862.6 -2960.18 -866.464
2862.6 -2960.2 -866.163
2862.6 -2960.22 -865.861
2862.6 -2960.24 -865.56
2862.6 -2960.26 -865.258
2862.6 -2960.27 -864.957
2862.6 -2960.29 -864.655
2862.6 -2960.31 -864.354
2862.6 -2960.33 -864.052
2862.59 -2960.35 -863.751
2862.59 -2960.37 -863.449
2862.59 -2960.39 -863.147
2862.59 -2960.4 -862.846
2862.59 -2960.42 -862.544
2862.59 -2960.44 -862.243
2862.59 -2960.46 -861.941
2862.59 -2960.48 -861.64
2862.59 -2960.5 -861.338
2862.59 -2960.52 -861.037
2862.59 -2960.53 -860.735
2862.59 -2960.55 -860.434
2862.59 -2960.57 -860.132
2862.59 -2960.59 -859.831
2862.59 -2960.61 -859.529
2862.59 -2960.63 -859.227
2862.59 -2960.65 -858.926
2862.59 -2960.66 -858.624
2862.58 -2960.68 -858.323
2862.58 -2960.7 -858.021
2862.58 -2960.72 -857.72
2862.58 -2960.74 -857.418
2862.58 -2960.76 -857.117
2862.58 -2960.78 -856.815
2862.58 -2960.79 -856.514
2862.58 -2960.81 -856.212
2862.58 -2960.83 -855.911
2862.58 -2960.85 -855.609
2862.58 -2960.87 -855.307
2862.58 -2960.89 -855.006
2862.58 -2960.91 -854.704
2862.58 -2960.92 -854.403
2862.58 -2960.94 -854.101
2862.58 -2960.96 -853.8
2862.58 -2960.98 -853.498
2862.58 -2961 -853.197
2862.57 -2961.02 -852.895
2862.57 -2961.04 -852.594
2862.57 -2961.05 -852.292
2862.57 -2961.07 -851.991
2862.57 -2961.09 -851.689
2862.57 -2961.11 -851.387
2862.57 -2961.13 -851.086
2862.57 -2961.15 -850.784
2862.57 -2961.17 -850.483
2862.57 -2961.18 -850.181
2862.57 -2961.2 -849.88
2862.57 -2961.22 -849.578
2862.57 -2961.24 -849.277
2862.57 -2961.26 -848.975
2862.57 -2961.28 -848.674
2862.57 -2961.3 -848.372
2862.57 -2961.31 -848.07
2862.57 -2961.33 -847.769
2862.56 -2961.35 -847.467
2862.56 -2961.37 -847.166
2862.56 -2961.39 -846.864
2862.56 -2961.41 -846.563
2862.56 -2961.43 -846.261
2862.56 -2961.44 -845.96
2862.56 -2961.46 -845.658
2862.56 -2961.48 -845.357
2862.56 -2961.5 -845.055
2862.56 -2961.52 -844.754
2862.56 -2961.54 -844.452
2862.56 -2961.56 -844.15
2862.56 -2961.58 -843.849
2862.56 -2961.59 -843.547
2862.56 -2961.61 -843.246
2862.56 -2961.63 -842.944
2862.56 -2961.65 -842.643
2862.55 -2961.67 -842.341
2862.55 -2961.69 -842.04
2862.55 -2961.71 -841.738
2862.55 -2961.72 -841.437
2862.55 -2961.74 -841.135
2862.55 -2961.76 -840.834
2862.55 -2961.78 -840.532
2862.55 -2961.8 -840.23
2862.55 -2961.82 -839.929
2862.55 -2961.84 -839.627
2862.55 -2961.85 -839.326
2862.55 -2961.87 -839.024
2862.55 -2961.89 -838.723
2862.55 -2961.91 -838.421
2862.55 -2961.93 -838.12
2862.55 -2961.95 -837.818
2862.55 -2961.97 -837.517
2862.55 -2961.98 -837.215
2862.54 -2962 -836.914
2862.54 -2962.02 -836.612
2862.54 -2962.04 -836.31
2862.54 -2962.06 -836.009
2862.54 -2962.08 -835.707
2862.54 -2962.1 -835.406
2862.54 -2962.11 -835.104
2862.54 -2962.13 -834.803
2862.54 -2962.15 -834.501
2862.54 -2962.17 -834.2
2862.54 -2962.19 -833.898
2862.54 -2962.21 -833.597
2862.54 -2962.23 -833.295
2862.54 -2962.24 -832.994
2862.54 -2962.26 -832.692
2862.54 -2962.28 -832.39
2862.54 -2962.3 -832.089
2862.54 -2962.32 -831.787
2862.53 -2962.34 -831.486
2862.53 -2962.36 -831.184
2862.53 -2962.37 -830.883
2862.53 -2962.39 -830.581
2862.53 -2962.41 -830.28
2862.53 -2962.43 -829.978
2862.53 -2962.45 -829.677
2862.53 -2962.47 -829.375
2862.53 -2962.49 -829.074
2862.53 -2962.5 -828.772
2862.53 -2962.52 -828.47
2862.53 -2962.54 -828.169
2862.53 -2962.56 -827.867
2862.53 -2962.58 -827.566
2862.53 -2962.6 -827.264
2862.53 -2962.62 -826.963
2862.53 -2962.63 -826.661
2862.53 -2962.65 -826.36
2862.52 -2962.67 -826.058
2862.52 -2962.69 -825.757
2862.52 -2962.71 -825.455
2862.52 -2962.73 -825.154
2862.52 -2962.75 -824.852
2862.52 -2962.76 -824.55
2862.52 -2962.78 -824.249
2862.52 -2962.8 -823.947
2862.52 -2962.82 -823.646
2862.52 -2962.84 -823.344
2862.52 -2962.86 -823.043
2862.52 -2962.88 -822.741
2862.52 -2962.89 -822.44
2862.52 -2962.91 -822.138
2862.52 -2962.93 -821.837
2862.52 -2962.95 -821.535
2862.52 -2962.97 -821.234
2862.52 -2962.99 -820.932
2862.51 -2963.01 -820.63
2862.51 -2963.02 -820.329
2862.51 -2963.04 -820.027
2862.51 -2963.06 -819.726
2862.51 -2963.08 -819.424
2862.51 -2963.1 -819.123
2862.51 -2963.12 -818.821
2862.51 -2963.14 -818.52
2862.51 -2963.15 -818.218
2862.51 -2963.17 -817.917
2862.51 -2963.19 -817.615
2862.51 -2963.21 -817.314
2862.51 -2963.23 -817.012
2862.51 -2963.25 -816.71
2862.51 -2963.27 -816.409
2862.51 -2963.29 -816.107
2862.51 -2963.3 -815.806
2862.5 -2963.32 -815.504
2862.5 -2963.34 -815.203
2862.5 -2963.36 -814.901
2862.5 -2963.38 -814.6
2862.5 -2963.4 -814.298
2862.5 -2963.42 -813.997
2862.5 -2963.43 -813.695
2862.5 -2963.45 -813.394
2862.5 -2963.47 -813.092
2862.5 -2963.49 -812.79
2862.5 -2963.51 -812.489
2862.5 -2963.53 -812.187
2862.5 -2963.55 -811.886
2862.5 -2963.56 -811.584
2862.5 -2963.58 -811.283
2862.5 -2963.6 -810.981
2862.5 -2963.62 -810.68
2862.5 -2963.64 -810.378
2862.49 -2963.66 -810.077
2862.49 -2963.68 -809.775
2862.49 -2963.69 -809.474
2862.49 -2963.71 -809.172
2862.49 -2963.73 -808.87
2862.49 -2963.75 -808.569
2862.49 -2963.77 -808.267
2862.49 -2963.79 -807.966
2862.49 -2963.81 -807.664
2862.49 -2963.82 -807.363
2862.49 -2963.84 -807.061
2862.49 -2963.86 -806.76
2862.49 -2963.88 -806.458
2862.49 -2963.9 -806.157
2862.49 -2963.92 -805.855
2862.49 -2963.94 -805.553
2862.49 -2963.95 -805.252
2862.49 -2963.97 -804.95
2862.48 -2963.99 -804.649
2862.48 -2964.01 -804.347
2862.48 -2964.03 -804.046
2862.48 -2964.05 -803.744
2862.48 -2964.07 -803.443
2862.48 -2964.08 -803.141
2862.48 -2964.1 -802.84
2862.48 -2964.12 -802.538
2862.48 -2964.14 -802.237
2862.48 -2964.16 -801.935
2862.48 -2964.18 -801.633
2862.48 -2964.2 -801.332
2862.48 -2964.21 -801.03
2862.48 -2964.23 -800.729
2862.48 -2964.25 -800.427
2862.48 -2964.27 -800.126
2862.48 -2964.29 -799.824
2862.48 -2964.31 -799.523
2862.47 -2964.33 -799.221
2862.47 -2964.34 -798.92
2862.47 -2964.36 -798.618
2862.47 -2964.38 -798.317
2862.47 -2964.4 -798.015
2862.47 -2964.42 -797.713
2862.47 -2964.44 -797.412
2862.47 -2964.46 -797.11
2862.47 -2964.47 -796.809
2862.47 -2964.49 -796.507
2862.47 -2964.51 -796.206
2862.47 -2964.53 -795.904
2862.47 -2964.55 -795.603
2862.47 -2964.57 -795.301
2862.47 -2964.59 -795
2862.47 -2964.6 -794.698
2862.47 -2964.62 -794.397
2862.47 -2964.64 -794.095
2862.46 -2964.66 -793.793
2862.46 -2964.68 -793.492
2862.46 -2964.7 -793.19
2862.46 -2964.72 -792.889
2862.46 -2964.73 -792.587
2862.46 -2964.75 -792.286
2862.46 -2964.77 -791.984
2862.46 -2964.79 -791.683
2862.46 -2964.81 -791.381
2862.46 -2964.83 -791.08
2862.46 -2964.85 -790.778
2862.46 -2964.87 -790.477
2862.46 -2964.88 -790.175
2862.46 -2964.9 -789.873
2862.46 -2964.92 -789.572
2862.46 -2964.94 -789.27
2862.46 -2964.96 -788.969
2862.46 -2964.98 -788.667
2862.45 -2965 -788.366
2862.45 -2965.01 -788.064
2862.45 -2965.03 -787.763
2862.45 -2965.05 -787.461
2862.45 -2965.07 -787.16
2862.45 -2965.09 -786.858
2862.45 -2965.11 -786.557
2862.45 -2965.13 -786.255
2862.45 -2965.14 -785.953
2862.45 -2965.16 -785.652
2862.45 -2965.18 -785.35
2862.45 -2965.2 -785.049
2862.45 -2965.22 -784.747
2862.45 -2965.24 -784.446
2862.45 -2965.26 -784.144
2862.45 -2965.27 -783.843
2862.45 -2965.29 -783.541
2862.44 -2965.31 -783.24
2862.44 -2965.33 -782.938
2862.44 -2965.35 -782.637
2862.44 -2965.37 -782.335
2862.44 -2965.39 -782.033
2862.44 -2965.4 -781.732
2862.44 -2965.42 -781.43
2862.44 -2965.44 -781.129
2862.44 -2965.46 -780.827
2862.44 -2965.48 -780.526
2862.44 -2965.5 -780.224
2862.44 -2965.52 -779.923
2862.44 -2965.53 -779.621
2862.44 -2965.55 -779.32
2862.44 -2965.57 -779.018
2862.44 -2965.59 -778.717
2862.44 -2965.61 -778.415
2862.44 -2965.63 -778.113
2862.43 -2965.65 -777.812
2862.43 -2965.66 -777.51
2862.43 -2965.68 -777.209
2862.43 -2965.7 -776.907
2862.43 -2965.72 -776.606
2862.43 -2965.74 -776.304
2862.43 -2965.76 -776.003
2862.43 -2965.78 -775.701
2862.43 -2965.79 -775.4
2862.43 -2965.81 -775.098
2862.43 -2965.83 -774.797
2862.43 -2965.85 -774.495
2862.43 -2965.87 -774.193
2862.43 -2965.89 -773.892
2862.43 -2965.91 -773.59
2862.43 -2965.92 -773.289
2862.43 -2965.94 -772.987
2862.43 -2965.96 -772.686
2862.42 -2965.98 -772.384
2862.42 -2966 -772.083
2862.42 -2966.02 -771.781
2862.42 -2966.04 -771.48
2862.42 -2966.05 -771.178
2862.42 -2966.07 -770.877
2862.42 -2966.09 -770.575
2862.42 -2966.11 -770.273
2862.42 -2966.13 -769.972
2862.42 -2966.15 -769.67
2862.42 -2966.17 -769.369
2862.42 -2966.18 -769.067
2862.42 -2966.2 -768.766
2862.42 -2966.22 -768.464
2862.42 -2966.24 -768.163
2862.42 -2966.26 -767.861
2862.42 -2966.28 -767.56
2862.42 -2966.3 -767.258
2862.41 -2966.31 -766.957
2862.41 -2966.33 -766.655
2862.41 -2966.35 -766.353
2862.41 -2966.37 -766.052
2862.41 -2966.39 -765.75
2862.41 -2966.41 -765.449
2862.41 -2966.43 -765.147
2862.41 -2966.45 -764.846
2862.41 -2966.46 -764.544
2862.41 -2966.48 -764.243
2862.41 -2966.5 -763.941
2862.41 -2966.52 -763.64
2862.41 -2966.54 -763.338
2862.41 -2966.56 -763.036
2862.41 -2966.58 -762.735
2862.41 -2966.59 -762.433
2862.41 -2966.61 -762.132
2862.41 -2966.63 -761.83
2862.4 -2966.65 -761.529
2862.4 -2966.67 -761.227
2862.4 -2966.69 -760.926
2862.4 -2966.71 -760.624
2862.4 -2966.72 -760.323
2862.4 -2966.74 -760.021
2862.4 -2966.76 -759.72
2862.4 -2966.78 -759.418
2862.4 -2966.8 -759.116
2862.4 -2966.82 -758.815
2862.4 -2966.84 -758.513
2862.4 -2966.85 -758.212
2862.4 -2966.87 -757.91
2862.4 -2966.89 -757.609
2862.4 -2966.91 -757.307
2862.4 -2966.93 -757.006
2862.4 -2966.95 -756.704
2862.39 -2966.97 -756.403
2862.39 -2966.98 -756.101
2862.39 -2967 -755.8
2862.39 -2967.02 -755.498
2862.39 -2967.04 -755.196
2862.39 -2967.06 -754.895
2862.39 -2967.08 -754.593
2862.39 -2967.1 -754.292
2862.39 -2967.11 -753.99
2862.39 -2967.13 -753.689
2862.39 -2967.15 -753.387
2862.39 -2967.17 -753.086
2862.39 -2967.19 -752.784
2862.39 -2967.21 -752.483
2862.39 -2967.23 -752.181
2862.39 -2967.24 -751.88
2862.39 -2967.26 -751.578
2862.39 -2967.28 -751.276
2862.38 -2967.3 -750.975
2862.38 -2967.32 -750.673
2862.38 -2967.34 -750.372
2862.38 -2967.36 -750.07
2862.38 -2967.37 -749.769
2862.38 -2967.39 -749.467
2862.38 -2967.41 -749.166
2862.38 -2967.43 -748.864
2862.38 -2967.45 -748.563
2862.38 -2967.47 -748.261
2862.38 -2967.49 -747.96
2862.38 -2967.5 -747.658
2862.38 -2967.52 -747.356
2862.38 -2967.54 -747.055
2862.38 -2967.56 -746.753
2862.38 -2967.58 -746.452
2862.38 -2967.6 -746.15
2862.38 -2967.62 -745.849
2862.37 -2967.63 -745.547
2862.37 -2967.65 -745.246
2862.37 -2967.67 -744.944
2862.37 -2967.69 -744.643
2862.37 -2967.71 -744.341
2862.37 -2967.73 -744.04
2862.37 -2967.75 -743.738
2862.37 -2967.76 -743.436
2862.37 -2967.78 -743.135
2862.37 -2967.8 -742.833
2862.37 -2967.82 -742.532
2862.37 -2967.84 -742.23
2862.37 -2967.86 -741.929
2862.37 -2967.88 -741.627
2862.37 -2967.89 -741.326
2862.37 -2967.91 -741.024
2862.37 -2967.93 -740.723
2862.37 -2967.95 -740.421
2862.36 -2967.97 -740.12
2862.36 -2967.99 -739.818
2862.36 -2968.01 -739.516
2862.36 -2968.02 -739.215
2862.36 -2968.04 -738.913
2862.36 -2968.06 -738.612
2862.36 -2968.08 -738.31
2862.36 -2968.1 -738.009
2862.36 -2968.12 -737.707
2862.36 -2968.14 -737.406
2862.36 -2968.16 -737.104
2862.36 -2968.17 -736.803
2862.36 -2968.19 -736.501
2862.36 -2968.21 -736.2
2862.36 -2968.23 -735.898
2862.36 -2968.25 -735.596
2862.36 -2968.27 -735.295
2862.36 -2968.29 -734.993
2862.35 -2968.3 -734.692
2862.35 -2968.32 -734.39
2862.35 -2968.34 -734.089
2862.35 -2968.36 -733.787
2862.35 -2968.38 -733.486
2862.35 -2968.4 -733.184
2862.35 -2968.42 -732.883
2862.35 -2968.43 -732.581
2862.35 -2968.45 -732.28
2862.35 -2968.47 -731.978
2862.35 -2968.49 -731.676
2862.35 -2968.51 -731.375
2862.35 -2968.53 -731.073
2862.35 -2968.55 -730.772
2862.35 -2968.56 -730.47
2862.35 -2968.58 -730.169
2862.35 -2968.6 -729.867
2862.34 -2968.62 -729.566
2862.34 -2968.64 -729.264
2862.34 -2968.66 -728.963
2862.34 -2968.68 -728.661
2862.34 -2968.69 -728.36
2862.34 -2968.71 -728.058
2862.34 -2968.73 -727.756
2862.34 -2968.75 -727.455
2862.34 -2968.77 -727.153
2862.34 -2968.79 -726.852
2862.34 -2968.81 -726.55
2862.34 -2968.82 -726.249
2862.34 -2968.84 -725.947
2862.34 -2968.86 -725.646
2862.34 -2968.88 -725.344
2862.34 -2968.9 -725.043
2862.34 -2968.92 -724.741
2862.34 -2968.94 -724.439
2862.33 -2968.95 -724.138
2862.33 -2968.97 -723.836
2862.33 -2968.99 -723.535
2862.33 -2969.01 -723.233
2862.33 -2969.03 -722.932
2862.33 -2969.05 -722.63
2862.33 -2969.07 -722.329
2862.33 -2969.08 -722.027
2862.33 -2969.1 -721.726
2862.33 -2969.12 -721.424
2862.33 -2969.14 -721.123
2862.33 -2969.16 -720.821
2862.33 -2969.18 -720.519
2862.33 -2969.2 -720.218
2862.33 -2969.21 -719.916
2862.33 -2969.23 -719.615
2862.33 -2969.25 -719.313
2862.33 -2969.27 -719.012
2862.32 -2969.29 -718.71
2862.32 -2969.31 -718.409
2862.32 -2969.33 -718.107
2862.32 -2969.34 -717.806
2862.32 -2969.36 -717.504
2862.32 -2969.38 -717.203
2862.32 -2969.4 -716.901
2862.32 -2969.42 -716.599
2862.32 -2969.44 -716.298
2862.32 -2969.46 -715.996
2862.32 -2969.47 -715.695
2862.32 -2969.49 -715.393
2862.32 -2969.51 -715.092
2862.32 -2969.53 -714.79
2862.32 -2969.55 -714.489
2862.32 -2969.57 -714.187
2862.32 -2969.59 -713.886
2862.32 -2969.6 -713.584
2862.31 -2969.62 -713.283
2862.31 -2969.64 -712.981
2862.31 -2969.66 -712.679
2862.31 -2969.68 -712.378
2862.31 -2969.7 -712.076
2862.31 -2969.72 -711.775
2862.31 -2969.74 -711.473
2862.31 -2969.75 -711.172
2862.31 -2969.77 -710.87
2862.31 -2969.79 -710.569
2862.31 -2969.81 -710.267
2862.31 -2969.83 -709.966
2862.31 -2969.85 -709.664
2862.31 -2969.87 -709.363
2862.31 -2969.88 -709.061
2862.31 -2969.9 -708.759
2862.31 -2969.92 -708.458
2862.31 -2969.94 -708.156
2862.3 -2969.96 -707.855
2862.3 -2969.98 -707.553
2862.3 -2970 -707.252
2862.3 -2970.01 -706.95
2862.3 -2970.03 -706.649
2862.3 -2970.05 -706.347
2862.3 -2970.07 -706.046
2862.3 -2970.09 -705.744
2862.3 -2970.11 -705.443
2862.3 -2970.13 -705.141
2862.3 -2970.14 -704.839
2862.3 -2970.16 -704.538
2862.3 -2970.18 -704.236
2862.3 -2970.2 -703.935
2862.3 -2970.22 -703.633
2862.3 -2970.24 -703.332
2862.3 -2970.26 -703.03
2862.3 -2970.27 -702.729
2862.29 -2970.29 -702.427
2862.29 -2970.31 -702.126
2862.29 -2970.33 -701.824
2862.29 -2970.35 -701.523
2862.29 -2970.37 -701.221
2862.29 -2970.39 -700.919
2862.29 -2970.4 -700.618
2862.29 -2970.42 -700.316
2862.29 -2970.44 -700.015
2862.29 -2970.46 -699.713
2862.29 -2970.48 -699.412
2862.29 -2970.5 -699.11
2862.29 -2970.52 -698.809
2862.29 -2970.53 -698.507
2862.29 -2970.55 -698.206
2862.29 -2970.57 -697.904
2862.29 -2970.59 -697.603
2862.28 -2970.61 -697.301
2862.28 -2970.63 -696.999
2862.28 -2970.65 -696.698
2862.28 -2970.66 -696.396
2862.28 -2970.68 -696.095
2862.28 -2970.7 -695.793
2862.28 -2970.72 -695.492
2862.28 -2970.74 -695.19
2862.28 -2970.76 -694.889
2862.28 -2970.78 -694.587
2862.28 -2970.79 -694.286
2862.28 -2970.81 -693.984
2862.28 -2970.83 -693.683
2862.28 -2970.85 -693.381
2862.28 -2970.87 -693.079
2862.28 -2970.89 -692.778
2862.28 -2970.91 -692.476
2862.28 -2970.92 -692.175
2862.27 -2970.94 -691.873
2862.27 -2970.96 -691.572
2862.27 -2970.98 -691.27
2862.27 -2971 -690.969
2862.27 -2971.02 -690.667
2862.27 -2971.04 -690.366
2862.27 -2971.05 -690.064
2862.27 -2971.07 -689.763
2862.27 -2971.09 -689.461
2862.27 -2971.11 -689.159
2862.27 -2971.13 -688.858
2862.27 -2971.15 -688.556
2862.27 -2971.17 -688.255
2862.27 -2971.18 -687.953
2862.27 -2971.2 -687.652
2862.27 -2971.22 -687.35
2862.27 -2971.24 -687.049
2862.27 -2971.26 -686.747
2862.26 -2971.28 -686.446
2862.26 -2971.3 -686.144
2862.26 -2971.32 -685.843
