3789.8 -576.91 -627.728
3787.2 -575.516 -567.621
3784.6 -574.121 -507.514
3782 -572.727 -447.407
3779.44 -571.339 -387.413
3776.91 -569.952 -327.253
3774.42 -568.572 -267.216
3771.95 -567.194 -207.025
3769.53 -565.822 -146.964
3767.14 -564.452 -86.7617
3764.79 -563.09 -26.6983
3762.47 -561.729 33.4946
3760.19 -560.376 93.541
3757.94 -559.025 153.705
3755.74 -557.682 213.716
3753.57 -556.342 273.834
3751.44 -555.01 333.79
3749.35 -553.68 393.843
3747.3 -552.353 453.985
3745.29 -551.035 513.955
3743.32 -549.72 574.004
3741.38 -548.408 634.125
3739.49 -547.099 694.313
3737.63 -545.8 754.313
3735.82 -544.504 814.37
3734.05 -543.212 874.478
3732.32 -541.924 934.632
3730.63 -540.64 994.824
3728.99 -539.365 1054.81
3727.39 -538.095 1114.83
3725.83 -536.829 1174.88
3724.32 -535.568 1234.94
3722.85 -534.311 1295.03
3721.42 -533.059 1355.12
3720.03 -531.812 1415.22
3718.69 -530.57 1475.33
3717.4 -529.333 1535.43
3716.15 -528.101 1595.53
3714.95 -526.874 1655.61
3713.79 -525.653 1715.69
3712.68 -524.437 1775.75
3711.61 -523.226 1835.78
3710.59 -522.02 1895.8
3709.62 -520.82 1955.79
3708.68 -519.62 2015.96
3707.8 -518.427 2076.1
3706.96 -517.238 2136.2
3706.17 -516.055 2196.27
3705.43 -514.878 2256.3
3704.73 -513.705 2316.29
3704.08 -512.534 2376.44
3703.47 -511.368 2436.54
3702.91 -510.208 2496.61
3702.4 -509.052 2556.62
3701.93 -507.898 2616.79
3701.51 -506.748 2676.92
3701.13 -505.603 2737
3700.79 -504.463 2797.04
3700.5 -503.327 2857.03
3700.25 -502.192 2917.17
3700.05 -501.06 2977.28
3699.88 -499.933 3037.35
3699.76 -498.809 3097.38
3699.68 -497.689 3157.38
3699.64 -496.568 3217.54
3699.64 -495.45 3277.67
3699.67 -494.335 3337.79
3699.74 -493.222 3397.89
3699.85 -492.111 3457.97
3699.99 -491.001 3518.06
3700.17 -489.893 3578.15
3700.37 -488.785 3638.25
3700.61 -487.678 3698.36
3700.88 -486.57 3758.5
3701.17 -485.466 3818.5
3701.49 -484.36 3878.54
3701.83 -483.253 3938.63
3702.2 -482.144 3998.79
3702.58 -481.036 4058.84
3702.98 -479.924 4118.98
3703.4 -478.812 4179.04
3703.83 -477.7 4239.04
3704.28 -476.582 4299.15
3704.73 -475.462 4359.23
3705.19 -474.34 4419.29
3705.66 -473.214 4479.33
3706.12 -472.083 4539.38
3706.59 -470.949 4599.45
3707.06 -469.808 4659.56
3707.52 -468.665 4719.55
3707.97 -467.515 4779.61
3708.41 -466.357 4839.75
3708.84 -465.195 4899.82
3709.26 -464.027 4959.84
3709.66 -462.849 5019.99
3710.03 -461.665 5080.12
3710.41 -460.48 5140.25
3710.79 -459.295 5200.38
3711.16 -458.111 5260.52
