228.736 1383.74 1564.85
222.478 1382.22 1568.58
229.616 1384.69 1563.17
225.54 1383.55 1566.28
221.223 1382.65 1568.21
232.765 1384.96 1560.82
236.335 1386 1556.32
218.151 1383.35 1567.6
229.325 1387.51 1560.23
227.803 1386.97 1561.67
225.426 1386.33 1563.42
222.468 1385.94 1564.84
221.365 1383.43 1567.31
240.644 1385.6 1553.03
230.735 1387.8 1558.66
237.11 1386.87 1554.06
230.079 1388.85 1557.54
219.377 1385.97 1565.24
218.411 1385.99 1565.15
217.675 1386.11 1564.9
215.235 1383.74 1566.34
243.958 1384.45 1550.74
244.557 1384.43 1549.24
227.359 1389.83 1558.75
226.778 1389.23 1559.94
223.589 1388 1562.45
220.741 1385.93 1565.16
220.332 1387.62 1563.84
241.813 1385.75 1551.43
240.657 1387.23 1549.91
238.174 1387.09 1552.44
230.452 1389.02 1556.59
227.274 1390.27 1557.84
219.078 1387.93 1563.52
218.454 1388.19 1563.22
217.041 1386.54 1564.24
213.924 1384.3 1565.03
212.278 1384.11 1564.26
210.114 1384.63 1561.23
242.909 1385.92 1548.96
242.434 1385.89 1550.12
243.337 1385.82 1547.76
226.573 1389.74 1559.38
226.608 1390.23 1558.47
225.299 1389.06 1560.57
221.809 1388.06 1562.84
220.002 1388.05 1563.46
241.156 1387.4 1548.64
240.589 1387.77 1548.51
239.301 1387.42 1550.6
235.412 1387.51 1553.78
230.289 1389.26 1555.84
227.22 1390.55 1557.02
226.494 1390.64 1557.55
219.131 1388.3 1563.05
218.064 1388.3 1562.92
218.568 1388.45 1562.76
217.723 1388.04 1563.04
218.007 1388 1563.24
216.242 1386.52 1563.82
215.949 1386.93 1563.12
214.416 1386.9 1561.51
209.304 1385.37 1558.82
208.66 1385.29 1558.08
241.505 1387.41 1547.57
243.721 1385.65 1545.8
242.041 1387.2 1546.08
226.241 1389.99 1559.09
225.968 1390.48 1558.14
224.96 1389.32 1560.16
221.316 1388.38 1562.28
219.855 1388.26 1563.02
240.938 1387.76 1547.72
239.891 1388.25 1546.2
240.279 1388.16 1545.61
240.065 1387.94 1548.48
239.367 1387.66 1549.69
237.385 1387.46 1551.78
233.8 1388.4 1551.06
229.794 1389.59 1554.87
226.342 1390.9 1556.69
226.731 1390.82 1556.09
225.899 1390.85 1557.19
219.026 1388.6 1562.47
217.973 1388.54 1562.44
217.567 1388.29 1562.64
218.417 1388.66 1562.19
216.001 1387.98 1561.13
214.283 1387.86 1559.48
213.456 1387.65 1559.09
210.74 1386.22 1558.89
209.507 1385.91 1558.16
208.95 1385.82 1557.39
207.942 1385.04 1557.12
206.661 1384.38 1555.53
240.857 1387.94 1544.99
242.83 1384.36 1536.6
244.123 1384.48 1540.77
242.688 1386.53 1542.6
243.206 1385.94 1542.15
241.404 1387.69 1541.2
240.706 1388.09 1541.9
225.435 1390.75 1557.54
224.665 1389.55 1559.7
223.088 1388.78 1560.99
220.905 1388.55 1561.95
239.663 1388.26 1546.71
238.622 1388.58 1545.54
238.41 1388.87 1544.71
238.685 1388.96 1543.86
237.078 1390.31 1541.72
239.333 1388.22 1547.22
238.357 1387.92 1548.39
237.558 1387.67 1549.72
236.761 1387.78 1549.91
236.493 1387.98 1548.49
235.051 1388.45 1548.71
230.671 1389.4 1549.82
230.604 1389.2 1551.47
228.684 1390.04 1554.06
226.119 1391.03 1556.01
225.737 1391.07 1556.22
226.118 1391.02 1555.39
225.366 1391.08 1556.61
220.503 1388.67 1561.58
218.789 1388.78 1561.74
217.051 1388.67 1560.4
216.542 1388.39 1560.68
217.25 1388.82 1559.71
214.788 1388.09 1559.04
213.93 1388.19 1558.81
211.567 1388.05 1557.54
212.316 1388.43 1557.53
212.756 1388.72 1557.44
210.859 1387.75 1557.31
210.439 1387.6 1557.04
210.189 1387.62 1556.69
208.671 1385.8 1556.58
209.903 1387.57 1556.27
207.724 1385.3 1554.68
206.54 1384.61 1552.08
206.636 1384.66 1550.02
237.37 1390.41 1539.85
242.038 1384.78 1536.03
243.063 1384.78 1538.4
243.146 1385.5 1540.64
241.826 1387.41 1539.89
241.474 1387.83 1540.17
242.105 1386.97 1539.79
241.347 1384.37 1533.98
240.927 1388.04 1539.84
241.302 1387.9 1539.6
240.124 1388.41 1539.63
237.99 1389.97 1538.83
238.898 1383.93 1530.42
240.426 1384.12 1532.33
224.92 1390.84 1557.19
224.308 1389.7 1559.28
222.695 1388.77 1560.84
237.168 1388.43 1546.74
237.562 1388.23 1547.14
235.925 1388.81 1546.93
235.995 1390.17 1544.35
236.495 1390.3 1543.28
235.156 1391.39 1542.2
235.221 1391.57 1540.61
235.974 1391.49 1538.57
231.734 1389.36 1549.02
233.71 1388.79 1549.1
229.021 1390 1549.17
227.053 1390.24 1549.24
227.043 1390.07 1550.82
225.099 1390.46 1549.75
225.317 1390.5 1548.95
226.699 1390.5 1553.09
225.657 1391.14 1555.46
225.181 1391.16 1555.64
225.09 1390.78 1552.21
224.744 1391.09 1556.2
220.301 1388.83 1560.66
222.025 1388.8 1560.29
217.459 1388.96 1558.9
215.515 1388.62 1558.49
215.455 1388.72 1557.96
215.035 1388.26 1558.78
215.552 1388.85 1557.41
214.412 1388.26 1558.54
213.154 1388.86 1557.38
211.214 1389 1556.36
211.635 1389.09 1556.57
212.057 1389.31 1556.41
210.823 1388.81 1556.13
210.661 1388.86 1555.85
209.693 1387.5 1555.88
208.486 1385.99 1554.86
210.543 1388.88 1555.5
208.818 1386.51 1553.76
208.35 1386.1 1552.89
209.101 1386.66 1552.12
206.464 1383.89 1546.49
210.502 1387.23 1549.6
236.402 1391.23 1537.94
241.121 1385.02 1534.7
242.469 1385.18 1537.97
242.198 1386.49 1539.3
241.541 1387.72 1539.33
241.715 1387.73 1539.17
241.631 1387.66 1538.97
239.535 1386.26 1533.62
239.343 1388.91 1538.23
241.2 1387.77 1539.3
238.308 1386 1531.77
236.756 1385.83 1530.07
224.435 1390.85 1556.77
223.895 1389.92 1558.58
222.762 1388.92 1560.26
234.823 1389.85 1546.05
232.596 1390.33 1546.82
234.496 1391.37 1543.3
233.865 1391.12 1544.67
234.708 1391.77 1540.59
235.497 1391.71 1538.44
233.894 1391.58 1543.22
236.005 1391.48 1537.62
235.639 1391.67 1537.56
230.966 1390.7 1547
229.289 1390.85 1547.13
227.852 1391.06 1546.69
225.319 1391.01 1546.62
224.336 1390.48 1549.59
224.309 1390.52 1548.91
224.969 1391.08 1554.49
223.884 1390.77 1551.11
224.229 1391.05 1554.42
224.238 1390.77 1551.07
224.167 1390.94 1556.11
223.969 1390.96 1555.1
219.989 1389.04 1557.03
218.629 1389 1558.05
221.024 1389.05 1557.88
216.046 1388.94 1557.16
215.061 1388.39 1558.52
214.82 1388.6 1557.94
214.941 1388.89 1557.23
215.458 1389.02 1556.71
213.538 1389 1557.22
212.434 1389.5 1556.19
211.574 1389.32 1556.15
211.193 1389.19 1556.05
211.936 1389.52 1555.97
210.986 1389.18 1555.82
210.749 1389.06 1555.59
209.559 1387.48 1555.41
210.381 1388.75 1555.21
209.601 1387.62 1554.89
210.604 1388.98 1555.26
209.767 1387.83 1554.45
209.158 1386.83 1553.14
210.345 1388.17 1553.41
211.101 1387.02 1546.41
210.186 1384.87 1541.86
210.39 1383.52 1537.75
210.821 1388.38 1552.9
211.749 1388.36 1551.15
212.645 1388.75 1549.66
236.329 1391.19 1537.29
239.931 1387.07 1535.01
241.502 1386.17 1537.55
241.086 1387.4 1538.32
240.899 1387.74 1538.51
237.957 1387.88 1533.42
239.56 1388.24 1535.48
240.738 1387.97 1538.74
240.084 1388.4 1537.09
239.111 1388.89 1536.68
239.945 1388.67 1536.16
237.449 1390.14 1537.04
235.513 1382.91 1527.02
235.476 1385.18 1528.47
234.556 1382.61 1526.36
236.378 1387.71 1531.26
234.71 1387.23 1529.42
223.188 1389.98 1557.64
222.345 1389.08 1559.25
233.169 1391.37 1544.76
234.961 1391.85 1538.65
233.799 1391.79 1542.05
235.146 1391.85 1537.68
232.502 1391.65 1544.43
232.607 1391.52 1544.81
235.831 1391.44 1536.96
235.29 1391.7 1537
230.829 1391.57 1544.58
225.682 1391.4 1544.48
222.793 1391.58 1544.35
222.287 1391.49 1544.81
223.617 1390.74 1547.29
223.632 1390.52 1548.32
223.544 1390.46 1548.92
223.269 1390.66 1550.87
222.293 1390.42 1551.11
223.458 1390.92 1553.19
221.83 1390.19 1554.36
222.364 1390.13 1556.03
221.746 1390.3 1552.32
219.796 1389.45 1553.78
218.938 1389.4 1552.97
218.161 1389.35 1552.76
216.46 1389.4 1553
220.812 1389.33 1556.42
213.778 1389.18 1556.96
214.235 1389.44 1556.14
213.905 1389.33 1556.57
214.662 1389.49 1555.58
212.775 1389.61 1556.09
212.41 1389.65 1555.94
211.409 1389.41 1555.85
212.157 1389.66 1555.74
211.576 1389.49 1555.72
211.229 1389.41 1555.61
210.825 1389.14 1555.31
210.338 1388.66 1554.97
210.602 1388.94 1554.98
210.468 1388.75 1554.68
210.11 1388.11 1553.99
210.709 1388.98 1554.67
213.371 1389.04 1548.17
212.933 1388.61 1547.3
212.284 1387.18 1544.67
213.456 1386.74 1541.93
212.877 1385.21 1537.9
216.815 1388.43 1539.36
214.718 1387.02 1539.56
214.159 1384.26 1533.2
211.413 1388.8 1553.04
210.99 1389.22 1554.69
210.848 1389.05 1554.49
212.273 1388.71 1551.56
213.374 1389.22 1550.24
236.152 1391.17 1536.82
240.792 1386.68 1536.83
239.938 1387.68 1535.41
240.396 1388.32 1535.66
240.197 1388.36 1535.67
240.37 1387.64 1537.37
240.402 1387.74 1537.68
240.134 1388.38 1536.71
237.676 1389.09 1535.09
236.171 1389.09 1533.31
239.274 1388.33 1535.5
239.875 1388.54 1535.83
240.242 1388.51 1535.87
240.16 1388.6 1536.08
238.997 1388.82 1536.24
238.047 1389.53 1536.21
234.47 1385.04 1527.67
233.775 1384.83 1527.21
233.622 1386.68 1528.16
227.393 1382.3 1524.66
232.774 1384.47 1526.7
234.709 1387.82 1530.05
233.494 1387.2 1528.55
234.26 1391.91 1539.55
234.695 1391.93 1537.84
234.825 1391.84 1537.12
235.849 1391.12 1536.28
235.5 1391.41 1536.44
235.076 1391.54 1536.36
234.734 1391.71 1536.64
231.627 1391.66 1543.13
227.345 1391.45 1543.42
222.798 1391.65 1543.87
221.426 1391.82 1544.03
221.416 1391.87 1543.78
222.034 1391.28 1545.39
221.175 1391.79 1544.15
220.789 1390.12 1547.38
220.469 1389.94 1547.81
221.162 1389.91 1549.76
219.597 1389.59 1550.37
218.384 1389.58 1548.91
216.769 1389.7 1549.58
215.28 1389.68 1551.34
214.667 1389.46 1552.75
214.251 1389.65 1554.18
215.027 1389.46 1553.08
214.757 1389.54 1554.75
213.092 1389.7 1556.03
213.301 1389.78 1555.77
213.404 1389.84 1555.44
212.596 1389.72 1555.88
212.004 1389.66 1555.49
212.487 1389.79 1555.59
211.49 1389.49 1555.41
211.227 1389.42 1555.29
210.86 1389.17 1555.01
214.083 1389.5 1548.72
213.616 1389.06 1547.68
213.561 1387.84 1544.77
214.886 1387.58 1542.18
215.474 1388.54 1544.91
216.016 1388.76 1544.77
216.876 1387.31 1535.63
215.824 1386.03 1534.31
216.064 1388.31 1540.34
218.052 1389.28 1539.52
218.827 1388.47 1535.41
219.236 1389.05 1537.84
218.021 1390.07 1541.73
219.09 1390.86 1542.23
217.949 1389.89 1541.12
217.145 1389.32 1540.87
215.14 1387.72 1541.97
217.453 1386.4 1531.93
214.717 1383.73 1530.97
216.178 1384.43 1530.7
211.946 1389.12 1553.29
211.194 1389.35 1554.66
211.245 1389.4 1554.98
212.803 1389.03 1551.94
213.751 1389.44 1550.55
240.271 1387.28 1536.4
240.181 1387.74 1536.89
240.174 1387.89 1535.43
240.533 1388.22 1535.59
240.505 1388.36 1535.84
240.369 1388.46 1535.92
239.98 1388.11 1537.08
240.317 1388.43 1536.4
235.573 1389.59 1533.6
232.725 1386.72 1527.83
232.514 1387.25 1528.19
229.446 1384.61 1526.14
224.936 1382.46 1524.67
226.39 1384.73 1525.77
231.018 1386.61 1527.37
232.865 1387.65 1528.74
233.926 1388.09 1529.93
234.215 1391.92 1538.21
234.31 1391.86 1537.27
235.292 1391.19 1535.91
234.82 1391.45 1536.09
235.055 1391.29 1535.93
234.377 1391.76 1536.79
234.47 1391.56 1536.24
232.436 1391.7 1541.35
229.182 1391.03 1539.28
227.43 1391.38 1542.27
222.782 1391.62 1543.43
221.119 1391.9 1543.48
221.102 1391.87 1543.74
221.195 1390.93 1545.86
220.828 1391.67 1544.31
220.794 1391.8 1543.85
220.128 1390.79 1545.63
218.636 1389.9 1546.37
219.284 1389.68 1548.13
217.957 1389.61 1546.51
217.833 1389.56 1546.97
218.102 1389.62 1547.43
217.257 1389.46 1547.11
216.368 1389.69 1548.5
215.312 1389.85 1549.98
214.707 1389.64 1551.3
214.102 1389.44 1552.56
213.768 1389.63 1553.95
213.213 1389.85 1555.22
212.87 1389.77 1555.86
213.024 1389.83 1555.64
213.191 1389.85 1555.49
212.449 1389.78 1555.27
212.01 1389.68 1555.18
212.834 1389.84 1555.47
211.524 1389.47 1555.05
214.372 1389.69 1549.33
214.368 1389.45 1548.15
214.704 1389.7 1548.84
214.559 1388.83 1546.35
216.468 1388.99 1544.65
215.972 1389.03 1545.95
216.585 1389.11 1545.31
216.56 1389.15 1545.78
220.193 1388.41 1531.65
215.871 1388.34 1541.01
217.38 1389.61 1541.64
218.998 1389.83 1539.79
220.507 1389.44 1535.32
220.861 1389.44 1534.69
219.91 1389.48 1538.35
220.154 1389.45 1537.64
219.053 1391.03 1542.99
219.847 1391.48 1543.02
219.944 1391.38 1542.5
217.152 1389.53 1543.27
216.164 1388.67 1541.92
220.262 1387.8 1530.23
218.416 1386.32 1530.55
216.292 1383.6 1529.21
217.542 1383.91 1528.55
219.042 1385.81 1529.14
211.523 1389.43 1554.6
212.337 1389.33 1553.54
213.242 1389.22 1552.23
214.059 1389.56 1550.82
240.359 1387.81 1536.06
240.462 1388.09 1536.3
240.626 1388.43 1536.26
240.469 1387.85 1535.38
240.653 1388.13 1535.52
240.697 1388.29 1535.73
240.64 1388.43 1536.03
240.752 1388.58 1536.37
235.202 1389.05 1532.47
235.162 1390.28 1534.58
229.587 1387.28 1527.62
228.953 1387.87 1528.01
226.733 1387.06 1526.95
224.796 1384.75 1525.78
223.399 1384.75 1525.94
225.316 1387.02 1526.84
222.474 1384.72 1526.1
230.135 1388.09 1528.55
234.362 1388.93 1531.74
230.103 1388.41 1529.06
233.858 1391.82 1537.41
233.703 1391.86 1538.11
233.972 1391.75 1536.9
234.738 1390.53 1534.73
234.183 1390.49 1534.54
234.107 1391.6 1536.39
233.421 1390.59 1534.69
231.875 1391.57 1539.56
232.015 1391.44 1537.76
229.97 1390.9 1537.04
227.122 1390.81 1535.73
226.74 1390.85 1536.27
226.234 1391 1540.93
225.766 1390.73 1536.86
223.403 1390.17 1538.31
223.039 1390.15 1538.78
224.374 1391.22 1542.61
222.672 1391.51 1543
221.297 1391.81 1543.13
220.885 1391.84 1543.18
220.743 1391.85 1543.53
220.302 1391.52 1544.21
220.317 1391.67 1543.74
219.477 1390.73 1545.19
217.877 1389.72 1545.76
218.92 1390.59 1544.8
217.265 1389.4 1545.69
217.324 1389.43 1546.38
216.76 1389.34 1546.59
215.87 1389.61 1547.97
215.057 1389.86 1549.82
214.873 1389.83 1549.46
214.352 1389.62 1551.06
213.668 1389.39 1552.47
213.342 1389.59 1553.85
212.878 1389.8 1555.07
212.5 1389.76 1554.94
212.035 1389.65 1554.8
214.568 1389.79 1549.52
215.347 1389.37 1547.33
217.294 1389.52 1545
217.873 1390.08 1543.89
222.068 1389.43 1531.9
221.516 1388.25 1529.88
219.952 1390.41 1540.46
221.695 1389.99 1534.78
220.877 1389.77 1536.45
221.049 1389.79 1538.2
221.16 1389.93 1538.82
220.97 1389.72 1537.28
219.529 1391.32 1543.45
219.984 1391.56 1543.45
220.391 1391.74 1543.13
220.369 1391.77 1543.44
220.593 1391.66 1542.81
221.09 1387.51 1529.07
219.686 1385.48 1528.21
212.844 1389.52 1553.8
241.038 1388.31 1535.67
240.803 1388 1535.59
241.083 1388.49 1536.02
240.859 1387.92 1535.23
240.792 1388.09 1535.34
221.578 1384.75 1526.44
220.65 1385 1527.18
225.745 1387.77 1527.38
225.585 1388.31 1527.9
226.251 1388.67 1528.37
224.453 1387.35 1527.12
223.693 1387.24 1527.22
230.147 1388.73 1529.75
234.26 1389.33 1532.57
225.754 1389.07 1529.08
232.149 1391.28 1536.84
232.298 1391.02 1535.91
232.736 1389.42 1532.7
232.787 1390.8 1535.16
230.989 1390.14 1534.33
230.188 1390.69 1536.19
227.616 1390.69 1535.15
223.646 1390.64 1533.72
223.416 1390.74 1534.03
223.418 1390.7 1534.38
223.37 1390.52 1540.13
224.343 1390.53 1536.46
223.225 1390.66 1534.5
221.984 1389.94 1537.07
222.436 1391.32 1542.29
221.06 1391.74 1542.86
219.775 1391.38 1543.89
218.529 1390.47 1544.3
223.234 1389.73 1531.59
223.986 1388.71 1528.78
223.298 1388.17 1528.33
220.759 1390.8 1540.96
222.215 1390.18 1535.11
222.876 1390.66 1534.09
222.157 1390.33 1535.56
222.523 1387.35 1527.85
241.372 1388.26 1535.57
241.695 1388.15 1535.67
241.203 1387.89 1535.2
222.919 1386.96 1527.25
224.654 1387.97 1527.55
225.161 1388.72 1528.48
224.43 1388.41 1528.09
223.821 1388 1527.77
231.63 1389.15 1531.83
229.618 1389.28 1531.07
227.231 1389.44 1530.36
225.248 1389.94 1531.8
224.889 1389.42 1529.84
224.725 1389.02 1528.98
229.968 1390.26 1534.83
228.639 1390.12 1533.51
223.539 1390.15 1532.8
223.439 1390.09 1532.33
221.589 1391.02 1541.37
222.925 1390.33 1535.63
223.926 1389.67 1531.22
242.02 1387.97 1535.79
241.117 1387.76 1534.93
241.697 1387.91 1535.08
241.599 1387.63 1535.3
224.588 1389.83 1531.5
242.108 1387.62 1535.65
241.256 1387.73 1534.74
241.971 1387.64 1535.21
241.31 1387.69 1534.51
241.958 1387.62 1534.9
241.294 1387.61 1534.18
241.885 1387.6 1534.53
241.647 1387.39 1533.89
241.33 1387.43 1533.65
241.227 1387.37 1533.51
241.75 1387.36 1533.83
242.034 1386.88 1533.2
241.875 1386.98 1533.11
240.859 1387.92 1535.23
241.372 1388.26 1535.57
242.02 1387.97 1535.79
241.203 1387.89 1535.2
241.256 1387.73 1534.74
241.971 1387.64 1535.21
241.294 1387.61 1534.18
241.885 1387.6 1534.53
