98.1961 1252.02 1811.02 
98.6905 1250.25 1811.05 
98.639 1248.95 1809.72 
98.7107 1248.44 1809.96 
97.8843 1252.49 1810.06 
97.8368 1252.57 1809.45 
98.6721 1248 1810.32 
98.5786 1247.42 1810.68 
95.6672 1251.48 1819.28 
98.584 1246.51 1810.55 
98.3314 1251.59 1807.48 
98.2658 1251.29 1807.69 
97.8706 1252.34 1808.55 
97.8289 1252.43 1808.97 
97.9845 1251.27 1808.06 
97.8158 1251.57 1808.38 
97.8509 1252.08 1808.44 
98.4933 1251.32 1807.24 
98.2319 1250.86 1807.82 
95.2773 1251.65 1819.64 
95.2013 1251.39 1819.43 
94.9306 1251.64 1819.92 
94.8689 1251.51 1819.77 
94.7817 1251.6 1820.06 
94.5529 1251.42 1820.19 
94.5586 1251.29 1820.03 
94.576 1251.18 1819.87 
94.3731 1250.39 1819.43 
94.3012 1250.49 1819.66 
94.2165 1250.57 1819.91 
94.3665 1250.94 1820.02 
97.7628 1244.38 1812.28 
96.5443 1242.92 1814 
95.8513 1241.58 1814.59 
96.6663 1242.59 1813.77 
95.6985 1241.12 1814.76 
95.6821 1240.82 1814.94 
95.6525 1240.58 1815.34 
95.6663 1240.6 1815.16 
94.6283 1250.51 1819.05 
94.6204 1250.61 1819.16 
94.4908 1250.34 1819.15 
94.6295 1250.41 1818.91 
94.9956 1250.68 1819.01 
95.1934 1250.95 1819.14 
101.159 1201.84 1830.12 
100.612 1202.09 1829.38 
101.09 1201.78 1829.86 
92.1629 1198.05 1824.31 
92.0307 1197.53 1825.49 
91.8555 1197.36 1825.49 
92.1041 1198.3 1824.91 
92.1686 1197.6 1825.57 
91.5468 1197.06 1825.45 
91.7389 1197.24 1825.45 
91.3633 1196.87 1825.46 
91.2054 1196.66 1825.49 
91.8551 1197.81 1824.36 
95.8621 1202.17 1820.68 
94.1495 1199.94 1822.92 
94.5457 1200.34 1822.45 
92.9972 1198.84 1823.63 
92.1302 1197.9 1824.22 
92.1161 1197.85 1824.12 
92.1438 1197.87 1824 
96.9568 1201.86 1826.11 
101.835 1200.42 1830.38 
101.657 1200.14 1830.37 
100.616 1200 1829.83 
97.9478 1201.17 1827.57 
98.6676 1201.12 1828.22 
93.5473 1199.01 1825.54 
94.719 1199.79 1826.01 
91.7152 1195.38 1827.84 
91.42 1195.21 1827.84 
106.531 1202.59 1813.02 
106.727 1204.07 1811.68 
106.3 1205.36 1811.02 
105.665 1202.96 1813.87 
106.038 1202.94 1813.44 
100.735 1205.55 1815.77 
98.0049 1204.55 1818.02 
101.868 1204.72 1815.19 
105.292 1202.7 1814.31 
103.012 1203.88 1814.8 
95.7945 1240.35 1815.14 
95.9398 1240.29 1814.77 
95.8248 1240.57 1814.88 
96.0283 1240.68 1814.56 
96.1044 1241.06 1814.32 
95.9618 1241.32 1814.44 
98.724 1247.65 1809.85 
98.8707 1247.93 1809.02 
98.3064 1249.91 1808.32 
98.1593 1250.86 1808.05 
102.769 1201.24 1831.37 
102.61 1201.02 1831.06 
103.46 1199.72 1837.86 
103.374 1197.86 1837.76 
103.703 1197.18 1837.39 
104.107 1197.1 1836.64 
103.022 1198.56 1838.38 
103.287 1197.67 1838.11 
102.027 1201.62 1830.94 
103.236 1197.35 1838.46 
103.225 1196.98 1838.7 
103.407 1196.49 1838.49 
103.4 1196.13 1838.67 
103.374 1195.92 1838.6 
103.381 1195.73 1838.77 
103.399 1195.52 1838.8 
103.519 1195.2 1838.83 
105.98 1195.89 1836.67 
107.145 1196.14 1834.68 
114.661 1196.17 1851.08 
113.245 1188.44 1836.64 
111.923 1189.46 1834.57 
110.119 1191.11 1831.37 
109.932 1192.3 1829.48 
109.942 1192.73 1828.46 
106.46 1198.37 1830.18 
108.597 1196.43 1826.31 
111.573 1191.13 1858.07 
108.161 1189.39 1861.71 
112.747 1192.33 1848.15 
111.545 1192.35 1847.04 
113.135 1193.04 1851.79 
113.299 1192.38 1849 
113.089 1192.99 1851.61 
112.733 1193.85 1852.95 
113.197 1193.27 1851.99 
111.89 1193.78 1853.33 
112.22 1193.78 1852.94 
110.091 1192.42 1854.43 
110.349 1192.82 1853.46 
106.249 1190.73 1855.86 
98.2844 1250.86 1810.26 
97.8659 1252.22 1809.67 
97.8944 1251.54 1809.39 
98.2703 1250.16 1809.42 
98.3081 1249.93 1808.97 
98.7445 1248.37 1809.41 
95.1897 1251.15 1819.26 
97.8285 1252.22 1808.74 
98.0283 1250.9 1808.32 
97.8921 1251.13 1808.67 
97.8043 1251.72 1808.73 
94.9157 1251.38 1819.59 
94.8607 1251.09 1819.33 
94.0798 1250.83 1819.36 
93.9369 1250.9 1819.83 
93.9787 1250.88 1819.69 
93.9983 1250.83 1819.51 
93.9451 1250.97 1820.01 
93.935 1251.03 1820.2 
94.1923 1250.87 1820.28 
94.3504 1251.25 1820.37 
94.3505 1250.22 1819.36 
94.225 1250.25 1819.63 
94.1267 1250.31 1819.87 
94.0427 1250.46 1820.16 
95.839 1240.9 1814.63 
94.586 1250.28 1818.85 
94.5148 1250.23 1819.05 
94.4282 1250.32 1818.84 
94.6108 1250.58 1818.99 
94.6282 1250.78 1819.14 
102.448 1200.82 1830.85 
102.28 1200.47 1830.65 
102.297 1200.62 1830.68 
91.2753 1195.9 1826.73 
91.2133 1196.31 1825.97 
91.0406 1195.4 1827.17 
90.9942 1196.07 1826.02 
90.7535 1195.82 1826.05 
90.7641 1195.31 1826.9 
90.4427 1194.99 1827.02 
90.3587 1195.03 1826.83 
90.8337 1196.19 1825.67 
89.5269 1195.26 1826.13 
91.7883 1197.72 1824.21 
90.9975 1196.36 1825.47 
96.4051 1202.35 1820.12 
94.7351 1200.25 1822.41 
94.2915 1199.89 1822.86 
93.065 1198.73 1823.59 
92.0644 1197.8 1823.9 
91.7515 1197.65 1824.08 
91.8393 1197.66 1823.99 
95.678 1199.87 1826.78 
103.604 1199.17 1831.84 
100.625 1199.34 1830.08 
98.5085 1198.32 1829.45 
92.2352 1195.37 1828.1 
92.642 1196.24 1827.5 
90.9923 1193.26 1830.48 
90.6769 1193.18 1830.37 
90.9398 1194.24 1828.76 
91.0651 1194.1 1829.17 
90.4838 1193.19 1830.18 
107.049 1204.3 1810.85 
105.878 1201.16 1814.91 
97.2423 1202.5 1819.41 
98.8533 1202.86 1818.04 
103.776 1202.62 1815.05 
104.026 1201.79 1815.4 
105.447 1201.31 1815.02 
98.3724 1249.73 1808.63 
102.275 1201.06 1830.8 
104.01 1196.89 1836.73 
103.706 1196.85 1837.45 
103.584 1196.92 1837.83 
103.465 1196.6 1838.18 
103.394 1196.26 1838.42 
103.377 1196.06 1838.33 
103.338 1195.78 1838.45 
103.353 1195.65 1838.65 
103.404 1195.04 1838.77 
103.284 1195.51 1838.49 
114.467 1187.76 1837.78 
113.334 1188.01 1837.46 
111.229 1189.56 1834.43 
112.48 1188.55 1836.73 
108.559 1191.89 1830.3 
108.808 1193.41 1828.08 
111.076 1192.11 1847.09 
112.066 1191.99 1848.14 
112.849 1193.75 1853.22 
112.89 1192.21 1848.9 
113.068 1192.16 1849.49 
112.79 1192.89 1851.57 
113.169 1192.32 1850.73 
112.862 1193.27 1852.23 
110.896 1193.19 1852.81 
112.27 1192.77 1851.54 
108.537 1192.08 1853.57 
109.62 1192.03 1851.42 
102.682 1190.86 1853.28 
97.8062 1251.89 1809.05 
97.8557 1251.28 1809.04 
94.1266 1250.78 1819.24 
94.0648 1250.6 1819.04 
93.5053 1250.48 1819.02 
92.8868 1250.04 1819.03 
92.7365 1250.09 1818.93 
92.7156 1249.86 1819.63 
92.849 1249.99 1819.43 
92.8587 1250 1819.75 
92.9992 1250.15 1819.9 
93.8699 1251.01 1820.38 
93.0832 1250.24 1820.05 
93.9131 1250.47 1820.44 
94.0777 1250.9 1820.54 
94.2073 1250.09 1819.57 
94.381 1250.1 1819.25 
94.0665 1250.12 1819.87 
94.0002 1250.25 1820.09 
93.8825 1250.26 1820.34 
94.6057 1250.19 1818.83 
94.3371 1250.13 1818.8 
94.4777 1250.11 1818.8 
94.5362 1250.1 1818.96 
94.3535 1250.49 1818.92 
94.0455 1250.25 1818.77 
102.359 1200.88 1830.73 
90.6974 1194.93 1827.48 
90.4832 1194.08 1828.65 
89.8445 1194.32 1827.64 
89.0693 1194 1827.57 
88.9157 1194.92 1826.55 
89.2977 1195.22 1826.18 
89.2558 1195.55 1825.79 
89.8693 1195.42 1825.84 
87.9244 1195.45 1826.52 
91.0409 1196.32 1825.41 
94.3422 1199.68 1822.95 
94.6667 1199.77 1822.72 
93.1656 1198.63 1823.57 
92.0867 1197.65 1823.94 
91.7132 1197.2 1824.31 
91.5306 1197.23 1824.44 
90.95 1196.04 1825.53 
95.1369 1196.69 1828.54 
103.625 1198.78 1832.12 
101.735 1197.88 1831.64 
93.3085 1194.87 1829.11 
91.4094 1193.38 1830.49 
95.8934 1195.76 1829.72 
91.446 1191.61 1833.99 
90.4498 1191.51 1833.68 
89.7135 1192.63 1831.24 
89.5519 1192.25 1831.99 
90.8223 1194.01 1829.13 
90.2276 1193.18 1830.1 
89.6568 1192.74 1830.75 
106.975 1200.07 1814.71 
105.811 1200.63 1815.34 
95.3269 1200.18 1822.15 
98.9382 1202.18 1818.44 
101.426 1202.84 1816.06 
102.517 1201.27 1816.87 
100.798 1201.98 1817.34 
103.865 1196.68 1836.95 
103.538 1196.64 1837.82 
103.554 1196.44 1837.69 
103.429 1196.34 1838.1 
103.371 1196.02 1838.09 
103.226 1195.67 1838.16 
103.167 1194.82 1838.73 
103.108 1195.32 1838.31 
113.441 1187.7 1837.93 
112.683 1188.15 1837.23 
113.795 1187.59 1838.24 
109.486 1189.75 1833.89 
108.802 1188.15 1836.85 
105.905 1189.38 1834.4 
103.767 1193.23 1828.69 
107.29 1194.65 1826.65 
105.514 1198.63 1827.06 
110.362 1192.02 1846.97 
111.545 1191.82 1848.38 
109.99 1191.83 1847.1 
112.653 1193.08 1852.02 
112.508 1191.89 1849.33 
112.979 1192.18 1850.59 
112.901 1192.04 1850.21 
111.308 1192.45 1851.44 
112.599 1192.04 1850.28 
106.52 1191.19 1849.74 
109.173 1191.49 1848.7 
111.792 1191.82 1849.5 
99.8188 1190.34 1850.42 
94.0719 1250.44 1818.86 
93.5319 1250.47 1818.85 
93.7248 1250.44 1818.77 
93.2337 1250.29 1818.59 
92.6178 1249.78 1819.46 
92.9011 1250.68 1818.1 
92.5314 1250.66 1818.33 
92.067 1250.16 1818.95 
92.279 1249.95 1819.05 
92.5507 1249.61 1819.47 
92.4907 1249.72 1819.26 
92.5355 1249.76 1819.68 
92.5457 1249.7 1819.6 
92.6043 1249.83 1819.82 
92.613 1249.86 1820 
93.8362 1251.01 1820.54 
92.9135 1250.11 1820.2 
93.7802 1250.47 1820.7 
93.7517 1250.26 1820.6 
93.9176 1250.84 1820.81 
94.0723 1249.97 1819.78 
94.253 1249.99 1819.44 
94.4117 1249.99 1819.15 
93.9144 1249.92 1820.06 
93.922 1250.09 1820.15 
93.7778 1250.11 1820.45 
94.5813 1250.04 1818.75 
94.4582 1250 1818.76 
94.302 1249.94 1818.76 
94.0216 1250.04 1818.74 
94.5737 1250 1818.85 
93.4964 1250.19 1818.75 
93.5751 1250.01 1818.75 
89.5698 1193.9 1828.21 
89.0614 1193.73 1828.06 
90.4031 1193.94 1828.8 
90.537 1193.87 1829.12 
88.1702 1193.59 1827.67 
87.8651 1193.3 1827.91 
87.1545 1193.44 1827.88 
89.2813 1195.49 1825.77 
87.4942 1195.65 1826.57 
89.8598 1195.39 1825.88 
89.2409 1195.46 1825.83 
86.7055 1194.1 1827.75 
87.2254 1195.01 1827.06 
93.3038 1198.55 1823.55 
94.6524 1199.48 1822.87 
93.4046 1198.45 1823.57 
92.2815 1197.59 1824 
92.0888 1197.01 1824.42 
91.4237 1196.1 1825.28 
90.8624 1195.73 1825.67 
89.8435 1195.36 1825.9 
104.003 1198.42 1832.7 
102.09 1197.22 1832.47 
95.5499 1194.91 1830.33 
92.1685 1192.58 1832.48 
101.153 1196.27 1833.02 
91.5863 1190.23 1836.41 
92.5064 1189.87 1837.51 
89.7234 1191.74 1833.1 
90.9262 1190.57 1835.33 
90.8893 1190.01 1836.41 
89.317 1192.39 1831.54 
89.711 1191.57 1833.31 
90.0518 1193.24 1829.93 
89.1773 1192.57 1830.98 
89.5572 1192.8 1830.58 
106.838 1199.78 1815.33 
106.379 1199.88 1816.06 
105.472 1200.28 1816.32 
102.16 1200.78 1817.72 
95.1801 1199.69 1822.5 
96.7161 1200.76 1820.95 
97.0824 1200.41 1821.1 
103.798 1196.52 1836.9 
103.466 1196.21 1837.68 
103.352 1195.96 1837.68 
103.053 1195.46 1837.96 
102.911 1194.58 1838.74 
102.869 1195.1 1838.21 
112.81 1187.7 1837.74 
109.749 1187.66 1837.34 
113.063 1187.38 1838.04 
113.539 1187.14 1838.2 
100.44 1186.35 1838.96 
98.0691 1187.68 1837.48 
97.9041 1189.56 1834.25 
95.0291 1192.49 1829.72 
98.4422 1196.55 1824.89 
103.086 1200.05 1827.76 
103.946 1199.05 1826.17 
105.547 1198.09 1824.04 
110.612 1191.65 1848.52 
106.928 1191.44 1845.81 
101.68 1189.73 1846.36 
107.153 1191.17 1846.74 
94.9194 1189.34 1849.36 
93.6997 1188.02 1844.61 
51.5574 1166.78 1887.03 
93.035 1250.38 1818.67 
93.1421 1250.72 1818.18 
92.4212 1249.56 1819.57 
92.1736 1250.4 1818.68 
92.3604 1249.68 1819.17 
92.4866 1249.48 1819.43 
92.3703 1249.43 1819.51 
92.365 1249.61 1819.66 
92.3656 1249.68 1819.74 
92.3243 1249.69 1819.88 
92.2753 1249.67 1820.05 
92.5271 1249.83 1820.17 
93.1121 1250.38 1820.49 
93.8965 1251.1 1820.69 
92.7267 1249.92 1820.38 
93.6648 1250.52 1820.99 
93.6248 1250.27 1820.87 
93.635 1250.1 1820.74 
93.8461 1251.05 1820.84 
94.1459 1249.87 1819.6 
93.9993 1249.84 1819.86 
94.2941 1249.87 1819.32 
94.452 1249.88 1819.03 
93.8492 1249.75 1820.1 
93.7395 1249.81 1820.35 
93.8048 1249.96 1820.31 
93.667 1249.95 1820.58 
94.3595 1249.82 1818.71 
94.5312 1249.9 1818.7 
94.2541 1249.8 1818.72 
93.9896 1249.8 1818.71 
93.4506 1249.61 1818.83 
94.5963 1249.89 1818.75 
92.6818 1249.69 1819.05 
92.8981 1249.51 1819.04 
93.0073 1249.36 1819.01 
90.0417 1193.79 1828.73 
88.9706 1193.55 1828.26 
90.2142 1193.72 1829.05 
90.1934 1193.66 1829.23 
89.75 1193.16 1829.93 
89.7604 1193.64 1828.71 
87.9385 1193.17 1827.99 
89.5641 1193.52 1828.73 
86.4423 1193.35 1828.16 
87.7956 1193.33 1827.74 
88.0561 1195.73 1826.16 
86.8174 1195.56 1826.89 
86.1206 1194.09 1827.97 
86.3945 1194.79 1827.53 
89.2553 1195.38 1825.83 
87.982 1195.66 1826.22 
92.3514 1197.21 1824.29 
93.5202 1198.34 1823.62 
92.5672 1197.22 1824.29 
91.7298 1196.07 1825.2 
91.2369 1195.76 1825.53 
90.121 1195.29 1826.02 
90.1515 1195.26 1826.04 
89.1466 1195.35 1825.91 
104.114 1197.99 1833.25 
103.551 1197.1 1833.88 
94.2687 1193.43 1832.09 
95.3685 1191.06 1837.51 
100.722 1194.84 1835.52 
102.675 1196.54 1833.8 
91.5903 1189.3 1838.07 
92.6254 1188.92 1839.38 
92.0705 1188.62 1839.64 
94.75 1189.4 1840.03 
90.5638 1190.38 1835.41 
90.326 1189.89 1836.3 
90.708 1189.11 1837.98 
88.9289 1192.22 1831.78 
89.5259 1191.45 1833.47 
89.1314 1192.62 1830.72 
88.8702 1192.31 1831.23 
107.692 1198.16 1818.81 
107.503 1198.07 1819.53 
106.583 1198.82 1818.38 
102.174 1200.05 1818.88 
98.2602 1200.3 1820.86 
95.3237 1199.49 1822.56 
93.7024 1198.23 1823.66 
96.3959 1199.5 1822.25 
95.5923 1199.3 1822.64 
103.73 1196.43 1836.68 
103.617 1196.34 1836.36 
103.204 1195.78 1837.44 
102.897 1195.33 1837.62 
102.538 1194.84 1838.14 
102.688 1194.3 1838.85 
110.906 1186.39 1838.28 
109.759 1186.86 1838.08 
100.689 1185.46 1840.5 
110.933 1185.61 1838.57 
93.7912 1187.65 1837.64 
92.5083 1186.94 1838.23 
93.4287 1189.95 1833.52 
93.033 1188.46 1836.42 
91.737 1192.04 1830.15 
90.3978 1193.37 1828.87 
89.6645 1193.82 1827.91 
90.9227 1194.39 1827.21 
91.1747 1194.7 1826.69 
92.8246 1195.29 1825.9 
94.8758 1197.17 1824.34 
101.458 1200.96 1827.03 
101.892 1199.66 1825.49 
101.597 1199.27 1824.3 
102.265 1198.88 1823.65 
101.888 1198.79 1822.88 
104.215 1198.3 1822.23 
102.344 1191.23 1842.77 
99.7699 1189.38 1844.65 
96.2062 1189.02 1842.22 
94.3382 1188.27 1843.15 
88.2453 1187.86 1847.86 
91.1429 1187.8 1841.07 
89.917 1187.02 1842.29 
42.7547 1166.85 1881.65 
49.1576 1165.45 1887.63 
52.8623 1163.93 1893.04 
98.0168 1250.44 1807.49 
97.7194 1250.28 1807.88 
92.3338 1249.5 1819.22 
92.2044 1249.48 1819.66 
92.2217 1249.41 1819.6 
92.3953 1249.34 1819.42 
92.2536 1249.29 1819.48 
92.1706 1249.29 1819.55 
92.1641 1249.53 1819.73 
92.0523 1249.51 1819.84 
92.4277 1249.77 1820.32 
92.1518 1249.6 1820.22 
92.0361 1249.51 1820.02 
93.0607 1250.24 1820.77 
92.6052 1249.76 1820.54 
93.5203 1250.47 1821.24 
93.7912 1251.01 1820.99 
93.4954 1250.26 1821.12 
93.5075 1250.1 1821 
93.5268 1249.91 1820.84 
94.156 1249.76 1819.53 
93.997 1249.72 1819.82 
94.3234 1249.76 1819.22 
94.4967 1249.77 1818.9 
93.8457 1249.63 1820.06 
93.6895 1249.66 1820.37 
93.5933 1249.77 1820.62 
93.9325 1249.54 1818.71 
93.9339 1249.4 1818.68 
94.3137 1249.69 1818.67 
94.4326 1249.72 1818.66 
93.4343 1249.33 1818.85 
93.0226 1249.11 1818.99 
94.5861 1249.77 1818.65 
92.3967 1249.13 1819.26 
92.3302 1249.23 1819.35 
92.6095 1248.99 1819.14 
89.9068 1193.5 1829.25 
89.8151 1193.51 1829.06 
89.5316 1193.07 1829.91 
88.9181 1192.32 1830.92 
88.8923 1192.29 1830.81 
87.841 1193.19 1827.87 
87.8167 1193.06 1827.99 
88.389 1193.21 1828.28 
89.3588 1193.39 1828.75 
89.5063 1193.37 1828.99 
85.9538 1193.34 1828.31 
87.4565 1193.37 1827.77 
87.9369 1193.29 1827.78 
86.3479 1195.69 1827.02 
85.4459 1194.36 1828.09 
85.7045 1194.15 1828.09 
87.8727 1195.62 1826.29 
92.3929 1196.56 1824.82 
92.7122 1196.78 1824.66 
91.0279 1195.46 1825.8 
90.4901 1195.24 1826.03 
90.0814 1195.23 1826.04 
89.0713 1195.32 1825.97 
89.0933 1195.25 1825.98 
87.746 1195.57 1826.36 
102.858 1195.79 1835.98 
101.455 1192.74 1839.96 
101.461 1194.24 1837.73 
102.495 1195.67 1835.67 
91.2051 1188.43 1839.5 
92.913 1188.39 1840.78 
91.3607 1188.12 1840.28 
90.2329 1190.35 1835.22 
90.4381 1190.62 1834.94 
89.9154 1189.81 1836.16 
90.0184 1189.3 1837.28 
90.6828 1188.57 1839.04 
88.591 1192.04 1832.01 
88.8835 1191.67 1832.98 
90.1114 1190.74 1834.7 
88.7686 1192.1 1831.16 
88.6564 1192.03 1831.53 
106.965 1197.66 1821.47 
102.956 1199.33 1819.69 
103.488 1198.78 1820.52 
98.6718 1199.92 1821.21 
97.0294 1199.4 1822.27 
93.9477 1198 1823.84 
92.6947 1196.47 1825.01 
98.4422 1196.55 1824.89 
94.1998 1197.64 1824.1 
103.475 1196.22 1836.12 
103.326 1196.09 1835.98 
102.532 1195.1 1837.45 
102.112 1194.59 1837.95 
102.313 1193.95 1838.9 
106.921 1183.92 1841.53 
102.297 1184.54 1841.94 
93.8588 1185.79 1840.05 
106.847 1182.27 1842.97 
110.25 1182.55 1842.44 
92.2045 1187.95 1836.97 
90.8999 1185.98 1838.75 
91.3814 1187.19 1837.52 
92.7261 1189.89 1833.33 
91.715 1191.12 1831.07 
92.3932 1188.62 1836 
90.0066 1193.22 1829.13 
89.9632 1192.87 1829.26 
89.5156 1193.12 1828.46 
89.3809 1193.44 1828.13 
88.7536 1194.1 1827.04 
91.6789 1195.05 1826.34 
90.4585 1194.7 1826.67 
89.1482 1194.71 1826.51 
88.5301 1194.29 1826.81 
91.777 1195.2 1826.15 
92.5105 1195.66 1825.56 
100.122 1200.72 1825.6 
99.6074 1200.1 1824.51 
99.2869 1199.66 1823.73 
99.4395 1199.36 1822.36 
98.5081 1199.47 1823.13 
102.325 1198.88 1821.41 
86.8561 1188.05 1852.29 
85.8876 1186.74 1844.27 
83.7458 1187.26 1848.23 
80.8961 1185.83 1842.44 
77.9193 1185.87 1845 
90.239 1187.76 1840.34 
89.0914 1187 1841.26 
42.6705 1164.87 1885.59 
48.5272 1161.61 1896.11 
52.053 1160.26 1900.55 
98.0244 1250.56 1807.46 
97.8407 1250.47 1807.77 
97.8445 1250.27 1807.38 
97.6623 1250.29 1807.9 
92.0573 1249.43 1819.74 
92.0842 1249.38 1819.68 
92.1162 1249.31 1819.62 
92.2402 1249.2 1819.43 
92.1729 1249.18 1819.49 
92.1058 1249.21 1819.58 
92.0043 1249.43 1819.88 
92.0141 1249.37 1819.76 
92.2886 1249.66 1820.44 
92.0133 1249.5 1820.34 
91.9771 1249.45 1820.1 
93.1863 1250.26 1821.17 
92.7979 1249.8 1820.79 
92.4688 1249.59 1820.72 
93.4423 1250.51 1821.45 
93.872 1251.08 1821.11 
93.3733 1250.28 1821.39 
93.3573 1250.12 1821.31 
93.4007 1249.96 1821.13 
93.4576 1249.69 1820.84 
93.3921 1249.81 1821.05 
94.1733 1249.64 1819.46 
94.009 1249.61 1819.75 
94.3411 1249.65 1819.15 
94.4945 1249.64 1818.86 
94.6068 1249.74 1818.68 
93.8568 1249.5 1819.99 
93.6953 1249.54 1820.31 
93.5401 1249.58 1820.61 
93.2854 1249.07 1818.87 
93.9518 1249.27 1818.65 
93.4327 1248.98 1818.79 
93.9624 1249.16 1818.62 
94.4026 1249.61 1818.62 
92.8465 1248.86 1819.01 
94.4884 1249.6 1818.6 
92.3923 1248.95 1819.24 
92.2484 1249.11 1819.38 
92.5765 1248.81 1819.12 
89.612 1193.33 1829.33 
89.3683 1192.99 1829.84 
89.585 1193.36 1829.19 
89.3599 1193.25 1829.15 
88.9164 1192.34 1830.65 
88.7011 1191.99 1830.86 
88.6838 1191.97 1831.11 
87.8689 1193.13 1827.93 
87.8006 1192.9 1828.18 
88.9469 1193.22 1828.68 
89.2178 1193.23 1828.94 
89.1763 1193.18 1829.07 
85.6128 1193.89 1828.22 
85.4709 1193.4 1828.45 
87.5157 1193.41 1827.71 
88.0095 1193.33 1827.76 
87.9499 1193.18 1827.9 
85.9421 1195.72 1827.17 
85.0256 1194.5 1828.17 
84.7844 1193.89 1828.49 
86.922 1195.81 1826.63 
86.9124 1195.77 1826.65 
91.4216 1195.58 1825.68 
91.9506 1195.7 1825.57 
90.3269 1195.15 1826.1 
89.9436 1195.21 1826.06 
89.1061 1195.18 1825.99 
87.6827 1195.52 1826.41 
87.8094 1195.44 1826.39 
86.6918 1195.77 1826.75 
103.116 1195.99 1835.8 
101.887 1194.42 1837.88 
102.07 1194.82 1837.33 
90.6374 1188.12 1839.77 
90.2577 1188.26 1839.23 
89.9254 1190.45 1834.89 
89.7555 1190.02 1835.5 
89.4898 1189.78 1835.94 
89.4305 1189.44 1836.76 
90.1543 1188.83 1838.35 
89.9768 1188.43 1838.89 
88.7894 1191.54 1833.1 
88.4109 1191.79 1832.03 
89.7787 1190.74 1834.57 
88.5506 1191.82 1831.5 
99.3951 1199.63 1821.52 
97.8371 1199.47 1822.16 
92.5099 1195.98 1825.44 
91.9414 1195.46 1825.74 
91.8301 1195.31 1825.94 
101.129 1183.78 1842.6 
92.6847 1184.86 1841.01 
107.436 1179.31 1842.95 
101.836 1182.92 1842.5 
103.27 1179.19 1842.62 
91.9275 1188.47 1836.29 
89.305 1185.36 1839.17 
90.1599 1186.29 1838.14 
91.1418 1188.02 1836.61 
90.5128 1187.01 1837.37 
92.2404 1189.79 1833.32 
91.2804 1190.89 1831.08 
91.0163 1191.46 1830.6 
91.9041 1188.73 1835.45 
89.7234 1192.85 1829.22 
89.3498 1193.04 1828.55 
89.3321 1192.86 1828.79 
89.2336 1193.36 1828.15 
88.694 1193.63 1827.59 
90.4283 1194.86 1826.51 
89.0097 1194.82 1826.41 
88.0774 1194.18 1826.96 
88.3627 1193.78 1827.33 
90.5443 1195.03 1826.38 
98.4539 1199.49 1822.29 
98.0641 1199.5 1823.13 
82.8146 1186.98 1853.93 
82.0168 1186.45 1851.9 
79.8921 1186.26 1848.09 
86.1638 1186.4 1842.51 
80.5941 1185.81 1840.03 
81.1726 1185.21 1839.17 
83.2238 1185.92 1842.09 
78.6169 1185.58 1841.93 
79.3135 1185.82 1840.23 
75.884 1185.28 1846.29 
89.7467 1187.94 1839.58 
88.846 1187.61 1839.74 
87.0247 1186.77 1841.12 
40.6882 1161.24 1893.62 
39.2958 1157.5 1902.26 
45.4462 1158.52 1902.36 
53.3526 1158.21 1906.08 
44.7468 1156.01 1907.72 
97.9166 1250.47 1807.36 
97.7338 1250.44 1807.83 
97.6772 1250.27 1807.6 
97.594 1250.32 1807.9 
92.0476 1249.28 1819.68 
92.1063 1249.09 1819.53 
92.2204 1249.04 1819.41 
92.0325 1249.17 1819.64 
91.9135 1249.32 1819.88 
91.9711 1249.27 1819.76 
92.1724 1249.54 1820.58 
91.9268 1249.37 1820.11 
91.9793 1249.4 1820.54 
91.9312 1249.39 1820.31 
93.4307 1250.56 1821.43 
93.0768 1250 1821.41 
92.7852 1249.68 1821.01 
92.4725 1249.44 1820.96 
92.2177 1249.41 1820.83 
93.272 1250.32 1821.59 
93.8399 1251.01 1821.3 
93.1971 1250.14 1821.59 
93.2705 1249.95 1821.39 
93.1531 1249.99 1821.58 
93.2496 1249.78 1821.33 
93.3896 1249.49 1820.86 
93.3223 1249.65 1821.09 
94.1814 1249.53 1819.4 
94.0152 1249.5 1819.69 
94.3415 1249.53 1819.1 
94.5962 1249.57 1818.64 
94.4566 1249.49 1818.87 
94.6098 1249.66 1818.62 
93.876 1249.38 1819.91 
93.7101 1249.42 1820.23 
93.5451 1249.45 1820.55 
93.0395 1248.77 1818.91 
93.2894 1248.73 1818.79 
93.9736 1249.01 1818.58 
93.4175 1248.63 1818.71 
92.7482 1248.68 1819.01 
93.9795 1248.88 1818.55 
94.5103 1249.51 1818.56 
92.4015 1248.86 1819.24 
92.5762 1248.7 1819.1 
89.2106 1192.84 1829.86 
89.3191 1193.18 1829.32 
88.8745 1192.28 1830.57 
89.0237 1193.03 1829.32 
89.0509 1193.07 1829.2 
88.7163 1192.02 1830.68 
88.5085 1191.71 1831.25 
88.5222 1191.72 1831.04 
88.5932 1191.83 1830.73 
88.5813 1191.82 1831.29 
88.4722 1191.66 1831.44 
87.8333 1192.99 1828.05 
87.7601 1192.77 1828.27 
88.5335 1193.06 1828.57 
88.8759 1193.04 1829 
88.8269 1193.05 1828.88 
88.8756 1193 1829.14 
84.8897 1193.19 1828.73 
86.136 1193.31 1828.21 
87.4015 1193.46 1827.69 
87.9963 1193.42 1827.66 
88.0312 1193.22 1827.86 
87.8989 1193.01 1828.05 
85.4964 1195.8 1827.32 
84.6943 1194.78 1828.16 
84.2492 1194.03 1828.63 
84.5679 1193.26 1828.81 
85.0918 1195.82 1827.48 
90.4297 1195.16 1826.1 
90.5162 1195.15 1826.15 
89.9232 1195.18 1826.08 
89.0457 1195.16 1826.06 
87.5913 1195.43 1826.49 
86.5544 1195.74 1826.82 
86.6399 1195.66 1826.81 
85.6001 1195.98 1827.14 
89.3591 1188.14 1838.89 
89.591 1190.12 1835.14 
89.6459 1190.46 1834.77 
88.4568 1189.75 1835.53 
88.3551 1189.59 1835.96 
89.0252 1189.42 1836.66 
89.6473 1188.98 1837.87 
89.6927 1188.6 1838.55 
89.1861 1188.34 1838.57 
88.4837 1191.42 1833.13 
88.2878 1191.54 1832.01 
89.4622 1190.71 1834.47 
90.5265 1195.11 1826.22 
90.9959 1183.62 1841.41 
92.0673 1181.83 1841.73 
87.0111 1182.62 1840.63 
105.311 1173.51 1843.28 
101.714 1180.8 1842.52 
95.6825 1180.67 1841.85 
96.7403 1176.63 1842.79 
91.4781 1188.82 1835.61 
89.2935 1186.25 1838.2 
88.4337 1185.27 1839.06 
89.7133 1186.7 1837.49 
91.0186 1188.64 1835.91 
90.2991 1187.69 1836.62 
91.7721 1189.74 1833.28 
90.911 1190.77 1831.03 
90.7279 1191.22 1830.63 
90.4884 1191.94 1830.21 
91.4503 1188.82 1835.03 
89.5981 1192.68 1829.33 
89.3247 1192.72 1828.93 
89.1247 1192.96 1828.64 
89.0477 1193.29 1828.17 
89.1214 1192.75 1828.87 
88.6124 1193.57 1827.61 
89.6585 1194.98 1826.23 
88.8844 1194.83 1826.22 
87.8324 1194.97 1826.6 
87.7253 1194.29 1827.04 
88.227 1193.74 1827.36 
88.4169 1193.59 1827.55 
79.7088 1185.33 1852.5 
78.3841 1185 1852.04 
83.1807 1185.07 1839.78 
78.9284 1185.56 1839.1 
79.6291 1185.11 1838.23 
78.6151 1185.57 1839.22 
81.2028 1185.2 1838.19 
79.345 1184.74 1837.43 
80.0473 1184.96 1837.62 
78.4423 1185.57 1840.36 
77.5902 1184.95 1840.8 
75.0055 1184.65 1840.65 
77.5494 1185.9 1838.73 
77.4008 1185.77 1838.91 
88.4949 1188.01 1838.59 
87.5043 1187.28 1839.79 
83.8815 1185.26 1839.78 
86.7419 1186.64 1840.83 
31.5085 1156.18 1902.15 
38.2356 1154.11 1910.58 
34.2175 1153.97 1908.98 
54.836 1156.23 1911.42 
47.0955 1153.91 1913.47 
40.1978 1152.02 1915.91 
97.8275 1250.42 1807.26 
97.707 1250.49 1807.7 
97.6589 1250.3 1807.48 
97.547 1250.34 1807.87 
92.052 1249.05 1819.58 
92.2538 1248.93 1819.38 
91.9629 1249.14 1819.71 
91.902 1249.2 1819.8 
91.86 1249.26 1819.93 
91.8695 1249.29 1820.12 
91.8617 1249.23 1820.46 
91.977 1249.22 1820.76 
91.8429 1249.23 1820.28 
92.7351 1249.51 1821.21 
92.9232 1249.75 1821.45 
92.4659 1249.3 1821.18 
92.2372 1249.26 1821.1 
93.0851 1249.8 1821.58 
92.8852 1249.58 1821.46 
93.1767 1249.61 1821.37 
93.0635 1249.68 1821.58 
93.2389 1249.36 1821.09 
93.2516 1249.5 1821.14 
93.3953 1249.35 1820.79 
94.0576 1249.4 1819.58 
94.2261 1249.43 1819.28 
94.5594 1249.45 1818.52 
94.5866 1249.48 1818.62 
94.4781 1249.38 1818.79 
94.3234 1249.36 1819.07 
93.9602 1249.28 1819.71 
93.799 1249.21 1819.97 
93.716 1249.3 1820.17 
93.5585 1249.33 1820.48 
92.9294 1248.56 1818.91 
93.1025 1248.46 1818.81 
93.3368 1248.4 1818.69 
92.7594 1248.55 1818.98 
93.9809 1248.73 1818.52 
93.4039 1248.22 1818.63 
92.4201 1248.76 1819.24 
92.5968 1248.6 1819.08 
89.0864 1192.72 1829.87 
88.7666 1192.12 1830.54 
88.7532 1192.82 1829.45 
88.6783 1192.86 1829.28 
89.0102 1192.6 1829.89 
88.2674 1191.38 1831.74 
88.3787 1191.52 1831.35 
88.2735 1191.36 1831.32 
88.4663 1191.64 1831 
88.4379 1191.59 1830.92 
88.4822 1191.66 1830.69 
88.6504 1191.94 1830.51 
87.8722 1192.78 1828.35 
88.5619 1192.98 1828.71 
88.6059 1192.87 1829.11 
88.4899 1192.83 1829.01 
88.4312 1192.84 1828.87 
88.5836 1192.83 1829.2 
87.2023 1193.48 1827.72 
85.2963 1193.26 1828.52 
87.9412 1193.51 1827.56 
88.1281 1193.33 1827.78 
88.0489 1193.14 1827.97 
88.0802 1192.86 1828.43 
84.5686 1195.04 1828.1 
84.0836 1194.61 1828.45 
84.4025 1193.35 1828.89 
84.4281 1193.51 1828.87 
84.1348 1194.09 1828.71 
84.8554 1193.35 1828.7 
84.6249 1196.05 1827.57 
83.8899 1195.21 1828.27 
89.8536 1195.15 1826.09 
89.7874 1195.1 1826.13 
88.9793 1195.1 1826.1 
87.0962 1195.49 1826.68 
87.6374 1195.34 1826.5 
85.92 1195.74 1827.1 
84.036 1195.93 1827.88 
85.3608 1195.95 1827.26 
88.8584 1189.9 1835.21 
89.3832 1190.34 1834.77 
87.2088 1189.4 1835.94 
88.1445 1189.4 1836.37 
89.0573 1189.19 1837.21 
89.3458 1188.76 1838.17 
88.9748 1188.54 1838.23 
88.5125 1188.27 1838.23 
88.2263 1191.25 1833.28 
88.5602 1191.06 1833.35 
89.1795 1190.55 1834.49 
84.2089 1183.31 1840.11 
79.8611 1180.99 1840.88 
81.3232 1182.73 1840.36 
91.2135 1188.92 1835.16 
91.1205 1188.95 1835.42 
88.3891 1185.98 1838.16 
88.8979 1186.6 1837.54 
85.586 1184.4 1839.44 
89.5886 1187.1 1836.9 
90.5135 1188.56 1836 
90.8778 1189.03 1835.62 
89.8557 1188.05 1836.21 
91.3491 1189.64 1833.34 
90.5671 1190.64 1831.03 
90.3398 1191.09 1830.58 
90.2994 1191.84 1830.2 
90.156 1191.62 1830.25 
91.3334 1188.97 1834.71 
91.1427 1189.04 1834.8 
89.3978 1192.61 1829.36 
89.1968 1192.64 1828.95 
88.9456 1192.86 1828.73 
88.8614 1193.24 1828.15 
88.555 1193.47 1827.71 
89.0548 1192.61 1828.96 
88.9282 1192.73 1828.89 
89.0335 1194.96 1826.14 
87.5102 1195.16 1826.65 
87.3768 1194.38 1827.14 
88.0994 1193.71 1827.38 
88.2629 1193.63 1827.49 
88.4317 1193.5 1827.64 
82.0407 1185.35 1837.93 
81.9231 1185.4 1837.86 
78.9476 1185.56 1838.91 
77.6396 1186.11 1838.39 
77.5887 1185.99 1838.55 
79.2385 1185.02 1838.22 
78.9681 1184.6 1837.37 
79.0184 1184.61 1837.28 
81.2595 1185.3 1837.8 
81.6848 1185.31 1837.71 
79.2935 1184.69 1837.22 
79.0664 1184.62 1837.18 
80.9707 1185.3 1837.43 
79.7758 1184.88 1837.23 
77.121 1185.47 1839.19 
75.6091 1184.2 1840.64 
76.8547 1185.04 1839.54 
74.8763 1184.94 1839.68 
74.7085 1184.41 1840.58 
76.548 1185.9 1838.59 
76.7308 1185.97 1838.51 
76.4856 1185.87 1838.68 
87.9949 1187.57 1838.74 
88.3298 1187.96 1838.32 
88.3635 1187.97 1838.13 
86.9617 1186.68 1840.28 
83.8746 1185.35 1839.18 
25.0627 1154.24 1903.68 
28.6074 1152.97 1909.26 
34.4238 1149.14 1922.4 
34.3908 1151.71 1917.2 
30.545 1151.51 1917.07 
53.7564 1154.72 1915.59 
47.5318 1150.43 1919.32 
57.4714 1153.36 1918.94 
54.7879 1154.84 1915.22 
41.3131 1148.78 1920.89 
97.7459 1250.37 1807.12 
97.5746 1250.44 1807.47 
97.6183 1250.32 1807.44 
97.4938 1250.37 1807.78 
92.0069 1249 1819.63 
92.2192 1248.88 1819.43 
91.8941 1249.08 1819.76 
91.8245 1249.15 1819.87 
91.8064 1249.19 1820.05 
91.7706 1249.02 1820.55 
91.9779 1249.06 1820.96 
91.7566 1249.06 1820.32 
92.6589 1249.33 1821.31 
92.3572 1249.14 1821.3 
92.7615 1249.29 1821.46 
92.5983 1249.18 1821.4 
93.112 1249.43 1821.38 
92.9874 1249.49 1821.58 
93.0877 1249.26 1821.33 
93.2437 1249.24 1821.03 
93.4077 1249.24 1820.72 
94.1411 1249.31 1819.39 
93.959 1248.54 1818.48 
93.9795 1248.45 1818.46 
94.6067 1249.39 1818.53 
94.5626 1249.31 1818.6 
94.4253 1249.24 1818.81 
94.2876 1249.18 1819.01 
94.176 1249.22 1819.27 
94.0039 1249.12 1819.49 
93.8076 1248.96 1819.65 
93.6182 1249.07 1820.17 
93.5479 1248.66 1819.73 
93.5572 1249.21 1820.43 
92.9326 1248.43 1818.88 
93.1111 1248.34 1818.78 
93.244 1248.24 1818.7 
92.7723 1248.42 1818.95 
93.4808 1248.07 1818.56 
93.3251 1248.13 1818.64 
92.3867 1248.7 1819.28 
92.5913 1248.53 1819.09 
88.5661 1192.71 1829.44 
89.0245 1192.61 1829.78 
88.4512 1192.7 1829.33 
88.6952 1192.04 1830.31 
88.1661 1191.2 1831.69 
88.2961 1191.4 1831.54 
88.8274 1190.87 1833.42 
88.1652 1190.99 1831.67 
88.1565 1191.11 1831.28 
88.2971 1191.38 1831.08 
88.3594 1191.47 1830.81 
88.4575 1191.63 1830.54 
88.404 1192.73 1829.19 
88.349 1192.75 1828.98 
88.4166 1192.74 1829.11 
88.3104 1192.77 1828.83 
85.5078 1193.35 1828.39 
87.1593 1193.52 1827.69 
88.1848 1193.4 1827.71 
88.0609 1193.52 1827.56 
87.5088 1193.59 1827.53 
88.1587 1193.24 1827.89 
88.1467 1192.91 1828.35 
88.2751 1192.94 1828.39 
88.09 1192.85 1828.42 
84.0905 1194.39 1828.65 
83.9509 1194.77 1828.5 
84.415 1193.56 1828.92 
84.2254 1193.98 1828.79 
84.8804 1193.47 1828.7 
84.7587 1193.57 1828.76 
85.1714 1193.54 1828.54 
83.8027 1195.27 1828.34 
89.0093 1195.03 1826.11 
86.5988 1195.48 1826.91 
87.617 1195.28 1826.54 
84.7323 1195.74 1827.66 
85.492 1195.33 1827.52 
83.8469 1196.16 1827.87 
83.7644 1195.58 1828.28 
83.7992 1195.98 1828.05 
89.1729 1190.18 1834.79 
88.7959 1189.56 1835.97 
89.2343 1189.83 1835.22 
88.0314 1189.18 1836.83 
88.9562 1188.95 1837.7 
88.6963 1188.67 1837.9 
88.51 1188.41 1838 
88.446 1188.13 1837.89 
89.3003 1190.41 1834.46 
82.449 1183.21 1840 
81.6939 1183.26 1839.78 
81.5056 1183.13 1839.97 
79.8243 1183.04 1840.4 
78.5062 1182.11 1840.32 
80.4809 1181.56 1840.75 
79.5512 1182.69 1840.45 
80.0254 1183.7 1839.87 
80.2443 1183.66 1839.73 
90.9055 1189.07 1835.16 
88.3494 1186.51 1837.38 
87.7228 1185.99 1837.83 
85.1146 1184.74 1838.97 
88.6469 1186.97 1836.88 
82.6677 1183.68 1839.66 
89.1269 1187.64 1836.43 
90.5081 1188.78 1836.1 
90.6164 1189.16 1835.51 
89.7766 1188.27 1836.34 
91.0451 1189.66 1833.28 
90.3173 1190.44 1831.18 
90.0717 1190.89 1830.65 
89.7635 1191.34 1830.23 
89.2774 1192.29 1829.47 
90.8457 1189.35 1834.53 
90.8135 1189.7 1833.21 
88.787 1192.83 1828.73 
88.6444 1193.23 1828.08 
88.8973 1192.69 1828.98 
88.8012 1192.77 1828.9 
87.0789 1194.39 1827.25 
87.9697 1193.73 1827.34 
88.1519 1193.62 1827.48 
88.3827 1193.45 1827.69 
82.064 1185.53 1837.82 
82.1026 1185.51 1837.48 
82.1781 1185.64 1837.49 
82.0634 1185.42 1837.4 
77.7371 1186.16 1838.31 
76.8565 1186.01 1838.41 
76.9274 1186.05 1838.32 
79.2687 1184.99 1838.29 
78.8728 1184.59 1837.52 
78.7781 1184.52 1837.41 
77.8082 1185.9 1838.38 
78.755 1184.5 1837.29 
78.8001 1184.51 1837.17 
81.5075 1185.34 1837.3 
81.8948 1185.42 1837.15 
78.8641 1184.53 1837.04 
79.0053 1184.59 1836.97 
79.3487 1184.71 1837.08 
80.6306 1185.25 1837.01 
81.1945 1185.53 1836.78 
79.6239 1184.84 1836.91 
76.3181 1185.74 1838.82 
76.3731 1184.68 1839.68 
75.7627 1184.88 1839.73 
75.4919 1185.09 1839.56 
76.1395 1185.53 1839.05 
74.7213 1184.98 1839.43 
75.1252 1185.06 1839.3 
75.295 1185.11 1839.4 
76.3157 1185.82 1838.63 
76.3959 1185.88 1838.5 
76.5873 1185.93 1838.49 
76.6039 1185.94 1838.4 
88.2122 1187.59 1838.14 
87.5147 1187.11 1839.4 
87.5595 1187.04 1839.08 
88.3636 1187.77 1837.81 
86.9132 1186.44 1839.82 
84.096 1185.45 1838.75 
82.1544 1185.47 1837.84 
23.508 1154.59 1901.65 
19.9669 1152.71 1904.46 
24.6097 1151.49 1913.76 
17.1595 1151.5 1906.48 
27.6217 1149.41 1923.87 
19.8612 1149.39 1921.01 
56.5582 1152.94 1920.22 
50.2129 1150.24 1920.74 
97.6957 1250.36 1806.97 
97.5104 1250.31 1807.03 
97.602 1250.36 1807.23 
97.3973 1250.37 1807.71 
97.5114 1250.39 1807.42 
97.3564 1250.28 1807.08 
92.0202 1248.91 1819.63 
92.1886 1248.83 1819.46 
91.8566 1249.01 1819.78 
91.7618 1249.07 1819.91 
91.7463 1249.08 1820.11 
91.7314 1248.82 1820.77 
91.6911 1248.85 1820.48 
92.0193 1248.92 1821.21 
91.685 1248.88 1820.25 
92.3418 1248.96 1821.46 
92.5492 1248.98 1821.56 
92.9295 1249.25 1821.58 
92.9132 1249.32 1821.58 
92.783 1248.95 1821.81 
93.0778 1249.11 1821.26 
93.2408 1249.07 1820.9 
93.3687 1249 1820.56 
94.0146 1248.32 1818.42 
93.5704 1247.92 1818.49 
94.2218 1248.46 1818.41 
94.3155 1248.43 1818.43 
94.36 1248.91 1818.56 
94.18 1248.74 1818.63 
94.0246 1248.8 1818.99 
93.7682 1248.53 1819.1 
93.5326 1248.26 1819.18 
93.3546 1248.67 1820.12 
93.1926 1248.17 1819.67 
93.3355 1248.11 1819.34 
92.9755 1248.31 1818.84 
93.1597 1248.2 1818.73 
92.6869 1248.37 1819.01 
92.8771 1248.26 1818.87 
93.4276 1248.01 1818.57 
93.2628 1248.04 1818.65 
92.3446 1248.65 1819.33 
92.5025 1248.54 1819.18 
88.8985 1192.49 1829.76 
88.6039 1191.96 1830.25 
88.7852 1192.27 1830.05 
88.4917 1192.71 1829.31 
88.463 1192.72 1829.23 
88.6056 1192.6 1829.44 
89.1638 1190.67 1833.58 
88.4208 1190.71 1831.72 
89.4182 1190.51 1833.59 
88.2273 1191.25 1830.91 
88.1714 1190.99 1831.12 
88.327 1191.42 1830.63 
88.4053 1191.62 1830.38 
88.4795 1192.75 1829.03 
88.3905 1192.76 1828.93 
88.5273 1192.72 1829.22 
88.5147 1192.73 1829.14 
88.388 1192.78 1828.81 
85.8661 1193.42 1828.2 
85.5442 1193.49 1828.34 
85.4969 1193.59 1828.37 
88.2669 1193.36 1827.76 
88.2388 1193.49 1827.62 
87.768 1193.64 1827.43 
86.7117 1193.54 1827.81 
88.2042 1193.2 1827.93 
88.236 1192.98 1828.26 
88.4547 1192.77 1828.91 
88.5479 1192.76 1828.93 
88.5676 1192.78 1828.8 
84.1547 1194.41 1828.69 
83.9815 1194.92 1828.51 
84.4465 1193.78 1828.86 
85.0579 1193.64 1828.61 
84.9877 1193.77 1828.65 
85.4528 1193.82 1828.4 
86.6527 1194.5 1827.41 
85.0868 1195.3 1827.81 
86.5741 1194.29 1827.68 
86.8269 1194.15 1827.57 
83.9148 1195.32 1828.42 
83.9492 1195.81 1828.17 
84.9741 1195.27 1827.96 
89.3631 1190.09 1834.71 
88.9535 1189.27 1836.74 
89.2054 1189.45 1836.11 
89.4429 1189.6 1835.57 
89.505 1189.83 1834.95 
88.7407 1188.94 1837.49 
88.6207 1188.65 1837.65 
88.5355 1188.38 1837.75 
88.4731 1188.06 1837.64 
89.5547 1190.23 1834.44 
81.6604 1183.62 1839.47 
81.0108 1183.68 1839.32 
80.7221 1183.56 1839.52 
78.4124 1182.79 1839.95 
79.0806 1183.93 1839.75 
78.8422 1182.43 1839.68 
77.8407 1180.21 1841.04 
77.1793 1181.8 1839.36 
79.5277 1184.08 1839.23 
79.067 1184.15 1839.36 
90.6464 1189.23 1834.98 
88.0236 1186.59 1837.11 
87.6941 1186.32 1837.44 
88.2521 1186.87 1836.92 
84.2589 1184.88 1838.68 
82.0819 1184.09 1839.14 
88.5581 1187.32 1836.61 
81.359 1184.06 1839.04 
89.0733 1187.91 1836.62 
90.3075 1188.82 1836.26 
90.2702 1189.12 1835.97 
90.3965 1189.32 1835.21 
89.7353 1188.53 1836.54 
90.0013 1190.37 1831.18 
89.7246 1190.91 1830.53 
89.0974 1192.18 1829.52 
89.3894 1191.32 1830.12 
88.9546 1192.62 1829.01 
90.6578 1189.74 1833.32 
90.5779 1189.86 1833.89 
89.999 1189.99 1831.59 
88.7042 1192.8 1828.78 
88.5057 1193.18 1828.08 
88.7849 1192.72 1829.02 
88.7582 1192.77 1828.93 
88.669 1192.78 1828.89 
87.3937 1193.75 1827.43 
87.9787 1193.65 1827.42 
88.3157 1193.31 1827.83 
79.0585 1183.48 1854.43 
77.1006 1183.69 1859.76 
82.3607 1185.83 1837.13 
82.5389 1186.06 1837.16 
82.2852 1185.8 1837.48 
82.6255 1186.21 1837.19 
82.2526 1185.91 1836.66 
76.7421 1186.01 1838.28 
79.2338 1184.95 1838.43 
78.9457 1184.67 1837.66 
77.9833 1185.56 1838.48 
78.6456 1184.5 1837.54 
78.534 1184.42 1837.43 
76.8241 1186.05 1838.17 
78.5287 1184.39 1837.28 
78.5912 1184.43 1837.1 
81.5615 1185.69 1836.59 
81.9666 1185.84 1836.5 
78.708 1184.49 1836.91 
79.1117 1184.63 1836.85 
80.7881 1185.46 1836.38 
79.8511 1184.96 1836.73 
82.2873 1186.3 1835.16 
83.1962 1186.83 1834.1 
79.3691 1184.77 1836.64 
76.1065 1185.72 1838.74 
75.8625 1185.67 1838.78 
74.1843 1184.42 1839.97 
75.058 1185.02 1839.22 
74.7278 1185.07 1839.18 
75.7714 1185.72 1838.51 
75.5772 1185.7 1838.36 
76.0855 1185.84 1838.54 
76.0745 1185.95 1838.41 
76.204 1186 1838.3 
76.434 1186.01 1838.25 
87.9879 1187.19 1838.2 
88.276 1187.44 1837.65 
88.462 1187.76 1837.54 
87.2173 1186.48 1839.07 
84.5153 1185.67 1838.4 
82.2763 1185.58 1837.76 
22.9317 1154.58 1900.31 
17.315 1152.98 1902 
17.6691 1152.84 1902.98 
18.9301 1150.34 1917.04 
17.0358 1151.08 1908.76 
14.5612 1151.43 1905.71 
21.6519 1146.85 1929.99 
13.6952 1146.45 1926.26 
50.8652 1150.34 1921.01 
56.6139 1151.87 1921.88 
50.2545 1143.47 1923.82 
97.605 1250.49 1806.68 
97.5301 1250.29 1806.7 
97.4716 1250.55 1806.98 
97.0535 1250.22 1807.4 
97.3597 1250.51 1807.48 
96.5794 1249.86 1806.68 
97.3783 1250.59 1807.17 
97.3702 1250.23 1806.72 
92.0236 1248.82 1819.63 
92.1882 1248.74 1819.47 
91.8617 1248.92 1819.79 
91.7149 1248.96 1819.97 
91.671 1248.64 1820.67 
91.8009 1248.65 1821.16 
91.6616 1248.64 1820.45 
91.6755 1248.7 1820.14 
91.9902 1248.59 1821.4 
92.3569 1248.73 1821.63 
92.4233 1248.66 1821.8 
92.6129 1248.63 1821.98 
92.0238 1248.19 1821.53 
92.9393 1248.71 1820.92 
92.9905 1248.46 1820.45 
92.9394 1248.16 1820.04 
93.6214 1247.8 1818.44 
93.4294 1247.91 1818.55 
94.2862 1247.8 1818.35 
93.7765 1247.67 1818.41 
94.096 1247.76 1818.38 
93.868 1247.91 1818.48 
93.6832 1247.85 1818.53 
93.5324 1247.76 1818.56 
93.3886 1247.68 1818.61 
93.2326 1247.54 1818.67 
93.088 1247.29 1818.78 
92.9328 1247.08 1818.93 
92.713 1247.49 1819.47 
93.0712 1248.14 1818.76 
92.5207 1248.45 1819.17 
92.6786 1248.28 1819.03 
92.8396 1248.19 1818.88 
93.2411 1247.93 1818.64 
92.36 1248.54 1819.32 
88.9684 1192.5 1829.67 
88.5382 1191.98 1830.08 
88.5653 1192.67 1829.3 
88.702 1192.31 1829.69 
88.4421 1190.61 1831.53 
89.7483 1190.24 1833.39 
89.6725 1190.39 1833.62 
89.8352 1190.13 1834.33 
88.2421 1191.25 1830.68 
88.2706 1191.05 1830.74 
88.1821 1190.83 1831.08 
88.2562 1191.34 1830.44 
88.5772 1192.74 1829.1 
88.6247 1192.69 1829.22 
86.1612 1193.49 1828.03 
85.948 1193.51 1828.13 
85.8504 1193.61 1828.18 
85.909 1193.8 1828.16 
86.7477 1193.6 1827.75 
88.3349 1193.02 1828.25 
88.6762 1192.76 1829.03 
84.4689 1193.97 1828.84 
84.136 1194.68 1828.65 
85.1 1193.96 1828.6 
86.0601 1194 1828.08 
85.6491 1194.06 1828.31 
86.365 1194.32 1827.82 
86.4461 1193.88 1827.87 
86.9879 1193.7 1827.62 
84.0543 1195.1 1828.55 
83.9783 1195.65 1828.32 
84.8051 1195.27 1828.14 
86.07 1194.42 1827.97 
89.0924 1189.06 1837.07 
89.3653 1189.22 1836.5 
89.6227 1189.32 1836.06 
89.7057 1189.64 1835.19 
89.7009 1189.88 1834.68 
88.7047 1188.63 1837.4 
88.5649 1188.34 1837.51 
88.5181 1188.06 1837.37 
80.0037 1183.98 1839.03 
80.563 1184.09 1838.9 
77.4456 1182.28 1839.17 
77.2119 1182.45 1838.83 
77.9985 1183.73 1838.49 
77.9957 1182.37 1839.52 
77.2453 1182.13 1839.06 
77.5156 1180.09 1840.63 
78.3084 1184.19 1838.23 
78.1752 1184.01 1838.34 
90.4167 1189.63 1834.47 
88.0982 1186.81 1837.21 
84.6587 1185.38 1838.16 
87.7566 1186.53 1837.76 
88.4442 1187.33 1836.79 
88.2877 1187.07 1836.96 
81.7761 1184.88 1838.4 
81.732 1184.48 1838.74 
80.9867 1184.59 1838.54 
80.6076 1184.46 1838.59 
89.1396 1188.28 1836.81 
88.5414 1187.69 1836.92 
90.1078 1189.37 1835.51 
89.8724 1188.93 1836.54 
90.1962 1189.47 1834.95 
89.3607 1190.93 1830.43 
89.3813 1190.57 1830.88 
88.86 1192.16 1829.54 
88.9742 1191.44 1829.99 
88.8731 1192.63 1829.07 
90.0201 1189.7 1832.26 
90.1902 1189.97 1833.33 
89.3515 1190.22 1831.35 
88.6567 1192.79 1828.8 
88.3971 1193.1 1828.15 
88.8067 1192.62 1829.14 
78.8893 1182.23 1854.46 
77.3994 1183.02 1857.85 
74.9746 1181.51 1860.7 
82.6046 1186.31 1836.75 
82.4515 1186.24 1836.5 
82.7207 1186.59 1836.91 
82.6376 1186.55 1836.76 
82.6668 1186.34 1837.25 
82.4215 1186.02 1837.46 
82.7772 1186.62 1837.02 
83.0565 1186.9 1835.19 
82.9776 1186.77 1835.11 
76.4429 1186.08 1838.1 
78.9856 1184.73 1837.81 
78.3613 1185.16 1838.39 
78.1754 1184.97 1838.66 
77.0873 1186.03 1838.11 
78.677 1184.54 1837.64 
78.4283 1184.47 1837.62 
78.3227 1184.42 1837.51 
78.2451 1184.33 1837.4 
76.6236 1186.04 1838.02 
78.2417 1184.32 1837.21 
78.3191 1184.38 1836.99 
82.8875 1186.69 1834.97 
82.7687 1186.58 1834.9 
78.4223 1184.46 1836.8 
78.8395 1184.6 1836.67 
80.2806 1185.22 1836.19 
83.5753 1187.04 1833.55 
83.5211 1187.03 1833.39 
84.6137 1187.65 1833.22 
85.7058 1188.22 1832.46 
79.4983 1184.86 1836.41 
79.0675 1184.75 1836.38 
73.9646 1184.22 1839.96 
74.9342 1184.97 1839.11 
75.4779 1185.46 1838.4 
74.9142 1185.11 1838.88 
75.8031 1185.9 1838.37 
75.6183 1185.79 1838.25 
75.8584 1186.04 1838.25 
75.821 1186.08 1838.14 
76.1091 1186.09 1838.12 
88.0141 1187.01 1837.84 
88.3672 1187.47 1837.32 
88.1431 1187.04 1837.45 
88.4813 1187.79 1837.19 
87.5702 1186.39 1838.56 
83.3532 1185.72 1837.87 
82.382 1185.78 1837.68 
18.3109 1153.65 1899.42 
21.8482 1154.4 1899.37 
15.971 1152.61 1902 
14.3823 1151.9 1904.97 
17.2658 1150.63 1914.65 
15.1641 1150.74 1908.83 
13.6933 1151.02 1907.27 
13.2972 1144.46 1931.7 
17.9138 1144.1 1937.66 
5.40634 1143.5 1930.39 
51.6573 1149.58 1921.54 
58.5712 1149.14 1923.34 
53.9821 1143.22 1925.18 
52.4796 1137.83 1927.92 
97.6754 1250.44 1806.49 
97.4579 1250.73 1806.38 
97.4343 1250.67 1806.71 
97.5673 1250.39 1806.46 
97.3355 1250.73 1806.8 
96.8134 1250.06 1807.71 
96.3442 1250.99 1807.28 
95.9484 1249.16 1807.39 
97.255 1250.68 1807.23 
97.0326 1250.18 1806.33 
95.7751 1249.39 1806.24 
95.5137 1248.95 1807.04 
97.2473 1250.77 1806.97 
97.1148 1250.27 1806.12 
92.0721 1248.69 1819.6 
92.201 1248.64 1819.47 
91.8743 1248.76 1819.77 
91.6893 1248.48 1820.96 
91.6444 1248.43 1820.69 
91.6345 1248.39 1820.54 
91.6581 1248.47 1820.28 
91.886 1248.37 1819.73 
91.888 1248.28 1821.3 
91.6795 1248.28 1821.03 
92.24 1248.24 1821.57 
91.7645 1247.85 1821.17 
91.6342 1247.97 1820.98 
92.4129 1248.16 1820.75 
92.0779 1247.04 1820.08 
91.8916 1247.26 1820.42 
92.4771 1247.48 1819.78 
93.4629 1247.79 1818.51 
93.6498 1247.64 1818.43 
93.4006 1247.72 1818.52 
93.2773 1247.69 1818.57 
93.1534 1247.67 1818.63 
93.0208 1247.65 1818.74 
92.7269 1247.29 1818.92 
93.1618 1246.44 1818.59 
92.397 1246.48 1819.06 
92.812 1246.25 1819.01 
93.0288 1248.06 1818.76 
92.5182 1248.36 1819.18 
92.7011 1248.17 1819.02 
92.8542 1248.09 1818.88 
93.0355 1247.94 1818.74 
93.2198 1247.83 1818.63 
92.3436 1248.46 1819.35 
88.2193 1191.57 1830.21 
88.6762 1192.24 1829.66 
88.0331 1191.45 1830.06 
90.0196 1190.11 1833.48 
88.9411 1190.26 1831.71 
90.1096 1189.9 1834.35 
89.9352 1189.68 1834.78 
88.4218 1190.94 1830.72 
88.4392 1191.22 1830.43 
88.2672 1190.66 1831.11 
88.7111 1192.66 1829.18 
86.2435 1193.67 1827.98 
84.4845 1194.11 1828.84 
84.198 1194.76 1828.69 
85.4267 1194.2 1828.43 
84.9905 1194.13 1828.66 
85.9048 1194.42 1828.11 
84.1218 1195.46 1828.43 
85.5279 1194.64 1828.23 
89.1598 1188.82 1837.12 
89.4656 1188.84 1836.87 
89.9195 1189.53 1835.28 
89.8495 1189.25 1836.04 
88.6595 1188.35 1837.25 
88.7297 1188.18 1837.06 
79.6596 1184.3 1838.6 
78.4777 1184.35 1838.17 
80.0065 1184.49 1838.47 
76.3302 1179.36 1839.86 
76.0177 1181.37 1838.62 
73.5314 1176.81 1839.49 
77.141 1183.6 1837.77 
77.5746 1180.09 1840.59 
77.1104 1184.06 1837.3 
77.1385 1183.89 1837.52 
88.3519 1187.29 1837.08 
84.1069 1185.54 1838.03 
81.3724 1185.52 1837.84 
80.8847 1185.36 1837.89 
81.1429 1184.89 1838.3 
80.4039 1185.21 1837.96 
79.9608 1185.07 1838.02 
88.8733 1191.13 1830.29 
88.6871 1190.88 1830.67 
88.7071 1192.14 1829.64 
88.4342 1191.4 1830.04 
89.2031 1190.06 1831.7 
88.5526 1190.61 1831.04 
78.4636 1180.98 1855.31 
77.0336 1180.18 1857.58 
75.9314 1179.58 1858.98 
82.4536 1186.53 1836.46 
83.082 1187.02 1835.31 
83.236 1187.41 1835.56 
82.613 1186.88 1836.71 
83.153 1187.2 1835.46 
82.7805 1186.73 1837.07 
82.6915 1186.47 1837.32 
82.4122 1186.18 1837.51 
84.6537 1187.9 1833.87 
84.7823 1188.02 1833.91 
84.5326 1187.74 1833.72 
75.9788 1185.89 1838 
76.2696 1185.88 1837.97 
78.367 1184.93 1838.41 
78.8113 1184.65 1837.78 
76.6896 1185.91 1837.91 
78.4126 1184.58 1837.7 
78.0361 1184.74 1837.54 
77.932 1184.64 1837.41 
77.9457 1184.31 1837.38 
76.2913 1185.71 1837.87 
77.9914 1184.26 1837.18 
78.0489 1184.36 1836.92 
84.445 1187.59 1833.59 
78.4441 1184.59 1836.57 
78.1514 1184.49 1836.7 
80.1357 1185.21 1835.69 
83.3229 1186.96 1833.32 
85.8614 1188.24 1832.18 
85.6996 1188.27 1831.98 
85.4566 1188.17 1832.87 
85.956 1188.36 1832.59 
86.2607 1188.45 1832.23 
79.5309 1185.22 1835.58 
79.9817 1185.27 1835.45 
78.4885 1184.73 1836.33 
74.801 1184.86 1839 
74.544 1184.59 1839.09 
75.4408 1185.39 1838.28 
75.6075 1185.71 1838.16 
75.6956 1185.76 1838.04 
81.7715 1186.19 1837.5 
82.1235 1186.48 1837.39 
17.8575 1153.51 1898.62 
16.6214 1153.23 1900.02 
18.8007 1153.62 1897.81 
21.3704 1154.49 1898.56 
15.5431 1152.06 1901.29 
14.9156 1152.1 1903.46 
12.8365 1151.54 1906.4 
13.6187 1151.89 1905.02 
16.3547 1150.6 1914.65 
15.2281 1150.58 1910.24 
13.6722 1150.2 1908.41 
12.7721 1150.86 1907.78 
6.38734 1142.78 1934.28 
11.0803 1142.32 1941.34 
16.6565 1141.88 1946.2 
53.2704 1148.54 1922.35 
62.3804 1144.48 1926.9 
60.6781 1137.04 1930.84 
97.6286 1250.56 1806.23 
97.3009 1250.96 1806.1 
97.269 1250.89 1806.49 
97.2942 1250.41 1805.99 
97.1424 1250.96 1806.61 
97.0608 1249.94 1808.1 
96.3833 1250.66 1807.77 
96.266 1249.15 1808.02 
95.2817 1251.41 1807 
96.034 1251.33 1806.73 
95.7592 1248.79 1807.79 
95.3978 1248.71 1807.34 
95.5397 1249.23 1806.02 
96.4161 1249.9 1805.66 
95.1525 1248.88 1806.6 
95.0623 1248.72 1806.8 
95.2445 1248.73 1807.02 
92.1808 1248.48 1819.5 
91.6193 1248.18 1820.77 
91.6478 1248.15 1820.39 
91.813 1247.93 1819.8 
91.6981 1247.51 1820.73 
91.5963 1247.76 1820.75 
91.6084 1248.02 1820.64 
91.9978 1246.46 1820.13 
92.0158 1246.53 1819.4 
91.7919 1247 1820.01 
92.1006 1246.15 1819.25 
93.0785 1247.81 1818.69 
92.9378 1247.85 1818.82 
92.7255 1247.8 1818.99 
92.3859 1246.95 1819.14 
92.5444 1248.26 1819.17 
92.7407 1248.05 1819 
92.8907 1247.98 1818.85 
92.3868 1248.31 1819.32 
88.6511 1191.17 1830.37 
84.4979 1194.26 1828.85 
84.1977 1194.96 1828.67 
85.3654 1194.63 1828.37 
85.0713 1194.31 1828.62 
84.2142 1195.35 1828.52 
79.4004 1184.9 1838.07 
78.6959 1184.71 1838.07 
77.4032 1184.25 1837.33 
75.7752 1177.62 1840.21 
77.222 1179.49 1840.55 
72.8896 1175.33 1839.67 
75.3606 1181.04 1838.64 
72.9333 1178.47 1838.88 
69.966 1174.51 1838.26 
69.3026 1174.28 1838.03 
69.9424 1175.6 1838.09 
76.8001 1183.52 1837.79 
76.7368 1184.16 1837.13 
76.7359 1184.05 1837.38 
76.8368 1183.88 1837.53 
81.2838 1186.17 1837.51 
80.7938 1185.86 1837.63 
80.4833 1186 1837.57 
79.6125 1185.53 1837.75 
80.0932 1185.91 1837.6 
84.0189 1187.74 1834.34 
83.3729 1187.7 1835.59 
84.1895 1188.18 1834.62 
84.8272 1188.22 1834.11 
84.8237 1188.27 1834.21 
82.8649 1187.09 1836.58 
82.8535 1186.89 1837.02 
82.7688 1186.78 1837.28 
82.4665 1186.65 1837.32 
85.9477 1188.47 1833.25 
85.7052 1188.33 1833.14 
84.8657 1188.14 1834.05 
85.6595 1188.61 1833.54 
86.0642 1188.69 1833.33 
85.7091 1188.3 1832.93 
75.7816 1185.58 1837.9 
75.9957 1185.65 1837.9 
78.3216 1184.89 1838.31 
76.7609 1185.58 1837.79 
78.3978 1184.82 1838.2 
78.646 1184.6 1837.82 
76.3928 1185.69 1837.73 
78.2063 1184.83 1837.73 
77.9062 1184.97 1837.6 
77.5402 1185.2 1837.47 
77.6631 1184.97 1837.41 
77.5816 1184.72 1837.36 
77.7079 1184.24 1837.35 
75.966 1185.47 1837.78 
76.0488 1185.49 1837.68 
77.7463 1184.34 1837.06 
77.8609 1184.51 1836.76 
78.1097 1184.62 1836.52 
83.4924 1187.11 1833.01 
83.3078 1187.07 1832.97 
86.3839 1188.65 1831.91 
86.2115 1188.72 1831.73 
85.5554 1188.42 1831.73 
86.0613 1188.84 1831.49 
86.6061 1188.66 1832.27 
86.3484 1188.57 1832.63 
86.7165 1188.82 1831.93 
79.5462 1185.42 1835.27 
