156.825 1122.55 1991.71
158.596 1120.64 1991.79
160.775 1117.23 1990.5
161.681 1115.55 1988.61
162.61 1115.34 1989.37
164.089 1114.6 1989.89
174.763 1108.77 1988.6
176.4 1107.7 1987.28
165.183 1110.45 1987.19
170.445 1107.84 1986.4
171.952 1106.6 1986.09
174.372 1105.71 1987.36
167.985 1108.49 1986.35
165.122 1109.76 1986.67
173.041 1108 1988.25
173.693 1106.57 1987.58
172.928 1108.65 1988.58
174.687 1108.46 1988.17
176.116 1109.42 1990.01
177.061 1108.02 1988.39
177.029 1108.28 1988.82
164.695 1112.55 1988.74
181.517 1102.47 1996.77
178.035 1106.27 1991.17
179.748 1104.67 1990.88
178.283 1105.76 1990.96
175.38 1111.04 1992.92
176.602 1109.2 1990.58
176.101 1110.73 1993.16
176.003 1110.41 1992.31
176.099 1106.29 1989.59
177.065 1106.25 1990.24
184.949 1101.84 1997.68
185.325 1101.71 1996.76
185.223 1101.74 1995.6
184.385 1102.21 1993.92
183.077 1102.65 1992.91
183.006 1101.15 1985.74
183.81 1100.03 1982.98
184.276 1099.73 1983.09
185.498 1098.35 1982.8
187.462 1096.96 1984.06
187.757 1097.44 1985.76
187.607 1097.66 1986.34
187.597 1097.68 1987.61
181.109 1102.34 1986.65
180.806 1102.09 1985.44
181.164 1101.69 1984.92
183.015 1100.27 1982.22
181.048 1103.45 1990.9
181.667 1103.15 1991.72
181.094 1103.14 1989.07
180.827 1102.97 1987.72
188.324 1096.57 1988.52
188.392 1096.43 1988.04
187.896 1097.34 1986.76
188.784 1096.11 1985.82
190.694 1094.87 1986.67
191.942 1094.45 1985.72
190.5 1095.41 1985.84
189.696 1095.56 1985.35
189.467 1095.72 1986.04
189.117 1095.8 1984.11
188.997 1095.71 1982.5
188.418 1096.14 1981.93
188.619 1096.43 1980.51
186.393 1097.45 1980.88
185.482 1098.42 1980.19
186.189 1098 1978.52
189.504 1096.07 1975.88
191.066 1095.17 1975.1
191.509 1094.15 1973.34
192.374 1093.78 1973.46
192.521 1092.91 1972.06
191.28 1093.32 1970.43
189.116 1094.76 1969.21
189.334 1095.13 1968.42
189.036 1093.75 1970.33
189.481 1095.4 1967.27
188.652 1096.16 1965.1
187.526 1096.97 1963.44
187.031 1097.8 1962.28
186.093 1098.81 1961.94
184.555 1100.81 1960.96
184.911 1100.53 1961.37
184.936 1101.84 1958.99
182.685 1102.79 1958.42
183.063 1102.33 1958.75
182.342 1103.64 1957.63
181.885 1104.77 1956.82
183.173 1105.23 1955.44
180.9 1106.83 1955.99
179.127 1107.87 1956.66
177.667 1109.48 1955.95
177.787 1110.4 1954.9
141.334 1141.71 2009.93
139.839 1142.88 2010.07
137.781 1143.78 2007.35
141.753 1136.52 2012.45
136.988 1139.13 2006.38
145.865 1128.32 2036.4
146.219 1126.89 2035.5
146.025 1127.21 2036.52
145.868 1127.62 2037.31
145.793 1128.36 2037.66
146.177 1129.54 2039.18
146.825 1130.86 2040.21
147.771 1132 2040.66
147.608 1131.51 2040.68
150.178 1134.22 2038.08
149.836 1134.34 2039.09
150.496 1134.35 2036.41
153.468 1134.91 2030.05
155.9 1131.01 2030.18
154.782 1132.73 2030.58
153.228 1135.15 2030.45
152.276 1135.88 2030.25
151.327 1134.75 2035.28
151.025 1134.51 2036.26
156.24 1129.93 2029.37
156.08 1129.43 2029.78
156.295 1130.26 2029.88
154.409 1128.47 2031.51
154.918 1128.57 2031.79
153.83 1127.13 2033.54
152.332 1126.67 2034.44
150.839 1126.36 2035.05
149.872 1126.06 2035.66
147.838 1125.44 2035.32
147.072 1126.11 2035.28
147.55 1125.7 2035.98
139.013 1140.91 1998.25
137.946 1144.7 2003.41
142.896 1140.08 2003.91
142.579 1140.43 2005.73
141.629 1141.91 2007.87
142.135 1135.79 2011.87
141.697 1136.02 2012.47
143.91 1132.36 1976.05
144.266 1132.61 1977.07
145.403 1132.29 1977.93
144.698 1132.2 1976.8
144.749 1133.03 1980.22
143.425 1133.36 1982.71
143.13 1132.79 1983.5
142.665 1133.88 1984.73
142.541 1134.27 1985.43
142.319 1134.42 1987.49
142.286 1134.25 1986.98
142.34 1133.84 1986.26
143.241 1131.89 1984.65
137.245 1138.44 2005.31
138.468 1135.27 2013.1
138.22 1140.31 1999.07
138.366 1140.58 1998.49
142.542 1135.3 2010.71
141.244 1134.93 2011.29
142.164 1135.08 2011.31
143.746 1132.81 1987
145.788 1129.89 1984.87
144.43 1131.44 1985.46
145.201 1130.5 1984.92
144.06 1131.94 1986.09
146.685 1130.14 1985.61
147.299 1129.52 1986.42
147.322 1128.1 1984.88
148.275 1127.26 1985.73
149.1 1126.6 1986.68
148.822 1126.75 1986.18
144.613 1132.57 1987.19
146.382 1131.41 1984.86
146.048 1131.89 1984.17
148.549 1126.5 1993.27
151.487 1125.13 1994.37
150.397 1125.3 1993.18
149.87 1125.46 1992.66
152.533 1124.96 1995.41
149.67 1125.7 1986.43
150.626 1125.31 1987.88
152.157 1124.18 1989.49
150.117 1126.65 1990.43
149.152 1127.03 1991.58
149.426 1126.62 1991.45
155.6 1124.08 1994.79
156.161 1123.6 1994.55
152.814 1123.8 1999.82
154.377 1124.36 1995.41
152.645 1123.09 2000.5
153.051 1122.6 2000.83
152.122 1121.81 2002.2
154.499 1131.89 2035.91
153.451 1133.93 2035.1
152.121 1135.22 2033.47
147.716 1130.91 2040.89
151.796 1128.12 2038.9
150.854 1128.87 2039.47
149.912 1129.45 2040
148.966 1129.72 2040.3
148.082 1129.73 2040.35
147.525 1130.27 2040.61
155.947 1129.37 2036.9
136.989 1138.73 2005.73
146.628 1126.5 2035.92
154.111 1119.09 2011.23
154.502 1118.94 2011.55
155.419 1118.5 2012.51
156.722 1119.52 2013.66
156.536 1119.01 2013.84
157.157 1120 2013.82
154.053 1115.36 2015.18
153.466 1115.93 2014.91
155.18 1116 2015.73
152.434 1116.98 2013.17
151.471 1118.22 2012.28
151.964 1117.38 2013.51
160.776 1114.94 2006.11
161.107 1116.53 2006.55
159.514 1112.88 2005.32
159.758 1105.73 2000.65
159.176 1107.11 2001.89
159.724 1110.89 2004.04
160.187 1104.7 1999.7
160.38 1105.21 1999.53
160.792 1106.84 1999.99
160.565 1105.97 1999.54
160.875 1107.39 1999.92
162.453 1112.05 2001.74
162.602 1112.81 2001.31
163.651 1114.55 2003.57
161.445 1109.69 2000.14
161.166 1108.75 1999.78
163.53 1114.48 2003.05
163.203 1116.17 2003.42
162.734 1116.19 2003.88
153.334 1121.48 2002.31
154.513 1121.86 2001.25
153.205 1120.99 2006.06
153.182 1120.26 2006.11
156.303 1123.48 1994.05
156.04 1123.57 1992.99
156.023 1123.68 1993.52
156.269 1123.12 1991.81
157.373 1120.84 1988.76
157.85 1120.57 1988.87
159.316 1118.57 1989.24
160.343 1117.52 1990.01
158.252 1120.08 1988.78
161.109 1115.53 1987.75
161.822 1114.93 1988
162.616 1114.8 1988.7
163.606 1112.92 1988.12
176.539 1105.95 1985.59
176.284 1107.34 1986.82
163.826 1110.94 1986.67
170.102 1107.63 1985.84
171.714 1106.3 1985.49
175.461 1105.05 1987.49
167.57 1108.38 1985.64
165.603 1108.97 1986.6
164.821 1109.72 1986.11
163.723 1110.61 1986.17
174.33 1106.32 1988.01
173.653 1108.45 1988.28
174.828 1108.17 1987.77
174.372 1106.79 1988.41
177.139 1107.55 1987.66
177.548 1107.55 1988.38
177.606 1105.17 1985.79
176.992 1105.52 1985.52
175.882 1104.35 1983.78
175.853 1103.36 1982.71
180.654 1103.54 1995.02
181.241 1103.01 1995.06
177.905 1106.16 1990.69
179.364 1105.02 1990.69
180.537 1103.95 1991.83
180.587 1103.7 1989.8
177.949 1107.4 1990.14
179.033 1105.82 1989.15
178.67 1106.38 1989.33
180.21 1103.79 1988.95
177.456 1107.98 1989.16
176.285 1110.04 1991.98
175.651 1108.51 1990.88
174.588 1107.11 1988.88
184.224 1101.75 1997.61
184.213 1101.58 1996.59
184.015 1101.77 1995.87
183.787 1101.29 1996.44
183.232 1101.6 1996.07
182.489 1102.71 1993.33
184.96 1098.76 1980.86
185.566 1098.1 1981.82
187.98 1096.57 1983.78
188.475 1096.67 1985.14
188.598 1096.6 1985.7
180.46 1102.69 1986.15
178.977 1102.22 1984.29
178.687 1101.54 1982.9
179.498 1101.15 1982.8
181.737 1101.16 1983.45
179.431 1100.64 1981.63
183.052 1099.95 1981.15
183.765 1098.94 1979.38
185.613 1097.95 1977.33
184.552 1098.37 1978.13
184.851 1098.62 1979.73
181.084 1103.5 1992.46
181.915 1102.98 1992.79
180.537 1103.47 1988.27
180.108 1103.46 1987.11
188.945 1096.22 1985.31
187.565 1096.59 1982.34
185.896 1097.82 1981.32
187.041 1097.33 1976.49
186.831 1097.05 1974.76
188.155 1096.38 1974.35
189.337 1095.7 1973.76
190.716 1094.39 1972.79
191.509 1093.39 1971.81
190.459 1093.78 1970.41
188.946 1095.63 1967.6
187.81 1096.68 1964.64
186.635 1097.58 1963.05
183.496 1101.06 1960.6
184.4 1100.47 1961.84
183.293 1100.76 1961.35
184.897 1100.28 1962.02
184.602 1100.16 1962.43
183.566 1101.65 1959.57
181.868 1101.56 1960.29
181.074 1102.89 1959.23
180.641 1104.19 1958.15
181.072 1105.78 1956.54
179.98 1106.11 1957.2
179.652 1105.6 1958.06
178.026 1107.73 1957.74
176.837 1108.58 1957.63
175.104 1109.97 1957.32
175.268 1110.39 1956.71
176.822 1110.32 1955.7
177.015 1111.34 1954.66
146.378 1126.83 2037.13
146.147 1127.2 2038.01
145.889 1128.49 2038.54
146.119 1128.88 2038.99
146.606 1130.15 2039.97
146.66 1129.2 2039.83
154.094 1133.82 2030.61
156.215 1130.39 2030.7
155.594 1131.42 2030.6
152.672 1135.59 2030.37
153.694 1134.4 2030.81
153.361 1134.05 2032.54
152.844 1134.83 2032.51
155.531 1128.71 2031.95
156.663 1129.46 2030.09
154.443 1127.1 2033.84
155.393 1127.59 2033.7
156.501 1129.93 2030.65
153.092 1126.55 2034.93
151.869 1126.28 2035.52
150.839 1126.08 2035.98
149.163 1125.74 2035.68
148.344 1125.25 2035.58
147.995 1125.49 2036.16
147.129 1126.06 2036.59
139.163 1144.48 2004.72
141.4 1141.66 2004.92
141.67 1141.76 2006.22
143.021 1135.75 2009.91
142.462 1135.52 2011.39
145.193 1132.41 1979.18
145.201 1131.82 1976.54
144.332 1131.94 1975.77
145.197 1131.72 1980.16
143.678 1132.98 1982.32
144.51 1132.95 1980.9
143.51 1132.35 1982.65
142.659 1133.15 1984.8
143.009 1132.58 1984.12
142.476 1132.81 1985.29
142.487 1133.41 1985.52
143.999 1130.66 1983.39
142.803 1132.3 1984.56
143.275 1131.65 1983.62
143.585 1131.07 1983.03
143.901 1135.8 2009.26
143.55 1135.65 2009.7
143.374 1135.43 2010.35
144.837 1132.41 1986.12
144.9 1131 1985.2
144.536 1131.61 1985.97
149.023 1126.39 1985.82
145.697 1129.29 1983.63
145.598 1132.17 1984.77
146.457 1131.43 1984.22
149.376 1125.81 1993.05
148.919 1126.17 1992.71
152.392 1124.69 1994.07
151.487 1124.75 1992.28
151.002 1125.02 1992.07
154.148 1124.39 1994.44
149.957 1125.12 1986.46
150.719 1124.03 1987.34
151.366 1123.66 1988.07
151.906 1123.26 1988.49
152.636 1123.83 1989.83
151.813 1124.94 1990.34
152.206 1124.49 1990.16
151.079 1125.7 1990.18
150.501 1125.97 1990.57
149.71 1126.06 1991.49
155.486 1124.05 1994.16
153.417 1122.04 2001.39
153.505 1133.2 2034.97
152.492 1135.25 2032.7
151.212 1127.66 2039.06
150.722 1128.35 2039.43
149.756 1128.83 2039.79
148.793 1129.08 2039.97
148.002 1128.87 2039.9
147.35 1129.59 2040.28
155.143 1130.83 2035.96
155.549 1130.23 2036.17
146.751 1126.42 2037.13
156.629 1119.43 2014.18
156.874 1119.9 2013.24
154.686 1116.99 2014.66
155.37 1114.52 2016.01
156.828 1115.96 2016.25
158.235 1115.98 2016.73
155.316 1117.79 2014.26
152.164 1117.36 2012.94
153.39 1116.37 2014
153.374 1116.35 2014.52
155.576 1116.48 2015.9
157.629 1117.94 2016.1
157.76 1117.38 2016.36
151.619 1117.84 2011.4
151.697 1118 2013.57
151.453 1118.41 2012.96
151.377 1118.71 2013.59
160.986 1115.44 2006.43
160.744 1115.89 2006.68
160.111 1115.75 2006.62
160.507 1116.25 2006.96
159.054 1113.09 2005.54
161.818 1116.4 2005.55
162.302 1116.33 2004.96
158.518 1111.56 2004.58
159.596 1110.15 2003.81
159.227 1108.85 2003.05
159.342 1105.76 2000.94
159.797 1104.66 2000.06
158.65 1107.51 2002.23
159.079 1111.42 2004.18
159.777 1105.01 1998.99
159.561 1104.98 1999.47
159.974 1105.07 1998.47
160.392 1105.74 1998.59
160.747 1107.01 1998.92
161.438 1110.09 1999.26
161.251 1109.16 1999.26
163.805 1115.15 2002.89
163.365 1114.34 2002.5
163.072 1113.98 2001.8
162.403 1112.75 2000.58
163.095 1116.07 2002.81
163.695 1115.42 2002.27
163.604 1114.83 2002.34
152.705 1121.15 2005.18
156.151 1122.95 1991.12
156.811 1121.23 1988.85
156.809 1119.87 1986.06
157.113 1119.36 1985.44
157.631 1118.81 1985.28
159.321 1116.9 1985.97
161.613 1113.53 1986.8
161.154 1113.69 1986.23
162.096 1113.28 1987.19
162.72 1113.12 1987.59
162.832 1111.46 1986.41
175.478 1104.51 1984.06
170.214 1107.26 1985.2
171.306 1106.18 1984.79
172.619 1105.25 1984.79
174.098 1104.94 1985.9
173.077 1105.33 1985.4
176.187 1105.71 1988.97
168.03 1107.85 1984.31
165.407 1109.29 1985.66
163.502 1110.4 1985.71
163.96 1109.8 1985.47
164.731 1109.39 1985.26
162.628 1111.17 1985.9
174.807 1106.33 1988.47
173.751 1107.14 1987.83
174.632 1107.77 1987.43
175.248 1105.05 1984.69
176.008 1106.18 1985.68
177.438 1106.49 1986.78
178.479 1105.42 1987.17
178.667 1105.7 1987.81
178.347 1104.8 1986.33
178.921 1105.67 1988.28
177.622 1102.75 1983.66
179.609 1103.29 1986.09
175.076 1103.59 1982.71
174.268 1102.29 1980.18
174.664 1103.31 1981.94
181.628 1102.6 1995.41
182.066 1101.93 1997.17
178.601 1105.38 1990.79
179.987 1103.86 1987.73
177.614 1105.64 1989.95
176.668 1109.64 1992.17
175.571 1107.39 1989.93
175.106 1106.64 1989
175.393 1106.89 1989.42
184.692 1101.68 1997.03
184.403 1100.82 1996.99
185.536 1099.94 1997.78
182.451 1102.16 1995.42
183.199 1101.34 1997.32
173.842 1100.45 1977.25
173.91 1099.36 1975.36
175.919 1099.54 1977.06
181.037 1100.31 1981.38
182.639 1099.66 1980.45
176.837 1098.92 1976.07
181.202 1098.56 1977.7
185.419 1097.5 1974.93
181.249 1098.04 1975.86
184.148 1097.85 1975.47
179.586 1103.93 1987.12
186.209 1097.25 1974.2
187.351 1096.78 1974.19
188.464 1096.23 1973.6
188.999 1095.87 1972.91
190.099 1094.53 1971.86
191.232 1093.48 1971.08
188.531 1094.26 1970.44
188.322 1093.71 1970.66
188.881 1093.38 1970.82
188.291 1093.32 1971.19
188.637 1094.43 1969.65
188.775 1095.12 1968.91
186.884 1094.22 1970.77
186.357 1094.11 1970.92
187.505 1093.98 1970.71
187.836 1094.58 1970.5
188.817 1095.84 1967.01
186.213 1097.84 1963.54
182.236 1101.29 1960.66
183.537 1100.18 1963.15
184.377 1100.01 1963.17
181.394 1101.61 1960.64
181.381 1102.01 1960.06
185.544 1098.97 1962.62
184.798 1099.83 1962.84
180.532 1102.99 1959.61
179.215 1105.53 1958.59
177.777 1107.01 1959.44
178.446 1107.34 1957.94
177.903 1107.56 1958.21
180.297 1102.83 1960.07
176.983 1107.68 1959.36
175.779 1108.6 1959.36
174.967 1109.55 1957.87
174.697 1110.53 1956.96
174.407 1110.08 1957.59
174.365 1111.59 1956.09
174.457 1112.33 1955.32
175.588 1111.96 1954.86
174.213 1112.81 1954.74
145.866 1127.75 2038.44
146.685 1128.64 2039.71
156.509 1129.7 2031.69
156.758 1129.38 2031.31
155.366 1131.26 2032.4
154.021 1133.09 2032.55
156.025 1128.71 2032.03
156.179 1127.7 2033.91
156.888 1128.74 2032.24
156.835 1129.28 2032.45
154.217 1126.44 2035.33
155.22 1126.85 2034.83
155.743 1127.32 2034.78
156.899 1129.14 2031.9
157.135 1128.78 2034.42
156.54 1129.39 2035.07
155.974 1130.23 2034.64
155.838 1130.69 2033.72
153.128 1126.32 2035.73
151.969 1126.11 2036.22
149.842 1125.65 2036.52
148.759 1125.52 2036.47
148.046 1125.69 2036.66
147.124 1126.22 2037.54
147.547 1125.87 2036.89
150.452 1126.14 1967.76
151.114 1125.29 1967.26
145.604 1131.46 1979.54
145.84 1131.94 1977.6
146.39 1131.27 1976.55
146.239 1130.74 1974.85
144.474 1131.53 1981.02
144.724 1131.1 1980.81
143.835 1132.36 1982
144.26 1132.15 1981.34
143.222 1132.01 1983.2
143.657 1131.47 1982.17
144.082 1130.45 1982.83
144.643 1130.01 1982.97
146.241 1130.45 1985.5
144.966 1131.21 1985.7
145.009 1131.92 1985.95
147.243 1128.22 1984.38
147.967 1127.53 1985.08
148.486 1127.06 1985.11
148.908 1126.5 1985.22
149.463 1125.84 1985.99
149.7 1125.27 1985.97
146.077 1131.94 1983.47
146.452 1132.13 1982.12
146.872 1131.7 1982.8
148.581 1126.66 1992.61
149.484 1125.78 1992.39
150.523 1125.35 1991.84
152.099 1124.5 1992.4
153.714 1124.29 1993.15
152.849 1124.18 1991.74
152.5 1124.24 1991.1
151.77 1124.78 1991.09
150.322 1124.1 1986.68
150.638 1123.07 1986.77
151.012 1122.86 1987.13
152.335 1123.06 1988.85
145.813 1131.17 1985.49
147.014 1130.36 1984.79
151.175 1125.44 1990.62
155.173 1124.02 1993.27
154.452 1131.91 2034.98
153.834 1132.75 2034.72
154.457 1127.52 2037.41
150.658 1127.19 2038.9
150.134 1128 2039.34
149.13 1128.34 2039.57
148.41 1128.07 2039.47
147.428 1128.26 2039.62
147.103 1128.94 2039.97
155.376 1128.86 2037.16
155.129 1131.03 2035.15
156.158 1129.03 2036.44
154.033 1118.47 2011.47
152.559 1118.52 2010.29
152.192 1117.89 2010.66
151.619 1117.87 2010.76
156.413 1115.45 2016.41
158.634 1115.94 2017.1
155.857 1118.06 2014.54
151.722 1117.72 2013.12
152.748 1116.49 2013.38
153.557 1116.67 2013.59
154.612 1116.32 2015.58
155.098 1116.64 2016.07
151.425 1117.88 2011.89
160.269 1115.19 2006.21
159.599 1115.56 2006.59
159.431 1115.06 2006.3
158.056 1111.52 2005
161.382 1116.43 2005.98
161.528 1116.23 2004.88
159.221 1110.84 2004.14
158.826 1109.31 2003.32
158.206 1107.89 2002.47
158.541 1106.42 2001.65
159.355 1104.82 2000.34
160.883 1107.5 1998.82
162.105 1113.07 1998.54
161.857 1112.31 1997.96
161.429 1110.12 1998.71
163.464 1114.75 2001.73
163.052 1114.09 2001.17
162.574 1113.69 1999.43
162.685 1113.59 2000.3
162.404 1113.1 2000.09
162.232 1112.99 1999.24
163.001 1114.43 1999.89
163.636 1115.93 2001.89
155.824 1123.59 1992.36
155.646 1123.28 1991.29
156.199 1121.85 1989.3
156.46 1120.36 1987.36
156.969 1120.09 1986.88
156.354 1120.23 1986.56
156.553 1119.36 1984.46
157.037 1118.44 1983.18
159.82 1115.12 1984.72
162.248 1111.77 1986.29
175.094 1104.01 1983.27
171.073 1106.02 1983.23
170.055 1106.95 1984.02
171.212 1105.92 1983.8
172.238 1105.24 1984.4
173.037 1104.46 1983.24
176.347 1105.32 1988.51
166.268 1108.43 1983.77
168.546 1107.13 1982.93
167.484 1107.7 1982.57
169.265 1106.94 1983.17
169.967 1106.74 1983.22
162.952 1110.03 1985.07
163.735 1109.46 1984.73
175.797 1106.01 1989.1
175.398 1105.77 1985.33
179.379 1103.79 1986.52
174.366 1103.86 1983.25
173.898 1103.72 1982.34
172.792 1104.03 1981.49
170.522 1104.07 1979.98
169.728 1106.3 1982.44
182.672 1101.47 1997.02
176.714 1105.63 1989.21
178.994 1105.89 1990.45
176.099 1106.8 1989.57
183.826 1100.81 1997.46
184.991 1100.28 1998.35
185.926 1099.88 1998.23
184.428 1100.61 1998.02
184.512 1101.18 1997.61
184.935 1100.22 1997.71
174.246 1098.82 1974.3
173.423 1098.12 1973.29
174.837 1098.51 1973.85
177.616 1098.22 1974.42
184.98 1097.59 1974.23
180.849 1097.68 1974.33
177.813 1097.68 1972.59
179.607 1097.25 1972.49
182.959 1097.91 1974.73
183.775 1097.81 1974.36
186.789 1097.08 1973.66
185.314 1097.57 1973.76
187.795 1096.62 1973.58
188.43 1096.36 1972.7
187.9 1097.04 1970.89
189.302 1095.56 1972.2
189.732 1094.67 1971.09
189.916 1094.07 1970.23
189.588 1094.5 1970.06
187.089 1093.74 1971.1
186.762 1093.47 1971.6
187.19 1093.05 1971.37
187.841 1094.28 1970
185.961 1093.73 1971.56
188.255 1094.95 1969.45
185.358 1094.22 1971.13
186.505 1094.7 1970.73
187.099 1094.81 1970.58
188.454 1096.17 1967.74
188.848 1095.51 1968.18
187.998 1096.45 1966.96
187.095 1097.15 1964.82
185.698 1098.42 1964.03
185.475 1098.68 1963.5
184.963 1099.51 1963.42
184.092 1099.68 1964.61
182.048 1100.76 1962.27
181.792 1100.64 1963.27
184.867 1099.13 1966.08
185.293 1099.19 1963.9
184.919 1099.43 1965.14
181.551 1101 1962.09
180.591 1102.15 1960.67
178.219 1105.5 1960.51
176.695 1107.18 1960.93
176.779 1105.88 1962.23
175.482 1108.06 1960.82
174.478 1109.46 1958.54
171.769 1110.37 1961.64
174.374 1110.9 1956.64
173.916 1110.27 1957.64
173.032 1111.09 1956.83
172.719 1112.58 1956.06
171.888 1113.67 1955.63
169.452 1115.31 1955.96
173.645 1112.98 1955.03
170.782 1115.25 1954.73
165.816 1118 1955.22
146.704 1126.71 2037.95
146.513 1127.59 2038.93
146.359 1128.11 2039.22
154.677 1132.18 2032.55
155.187 1131.42 2033.81
156.636 1127.95 2034.18
155.983 1127.75 2035.04
155.033 1126.82 2035.37
155.332 1127.32 2035.65
156.516 1128.7 2035.55
153.077 1126.12 2036.48
151.804 1125.9 2036.9
150.807 1125.88 2036.54
149.582 1125.6 2036.97
148.005 1125.91 2037.51
150.586 1125.79 1968.53
151.249 1124.89 1967.93
152.617 1122.43 1966.37
152.879 1122.51 1965.36
153.238 1123.04 1964.05
152.329 1122.79 1967.26
145.476 1132.28 1978.58
145.437 1131.92 1979.36
145.323 1130.78 1980.46
145.693 1131.93 1978.26
147.468 1130.66 1976.32
147.223 1131.85 1979.05
143.713 1130.97 1982.42
145.144 1132.32 1985.57
147.884 1127.9 1984.37
148.631 1126.92 1984.65
149.578 1125.42 1985.42
149.318 1125.92 1985.28
146.115 1129.01 1983.28
146.916 1132.33 1980.92
145.608 1132.13 1983.98
147.336 1131.93 1981.43
154.128 1124.06 1992.01
152.998 1123.98 1991.14
152.822 1123.88 1990.36
147.223 1130.01 1984.42
146.874 1131.09 1983.9
154.938 1127.79 2037.11
153.819 1126.63 2037.54
155.534 1128.38 2036.85
151.149 1126.47 2038.48
149.938 1126.76 2038.66
149.636 1127.55 2039.14
147.831 1127.49 2039.14
148.931 1127.36 2039.07
155.876 1128.45 2036.23
153.285 1118.1 2011.31
157.342 1119.28 2014.68
155.194 1116.46 2015.31
158.683 1117.38 2017.18
159.19 1115.99 2017.48
151.853 1117.57 2012.35
152.668 1117.28 2012.71
153.84 1116.3 2015.01
158.588 1118.02 2016.82
159.035 1115.42 2006.63
158.486 1114.95 2006.64
159.51 1115.98 2006.94
159.997 1116.3 2006.82
160.472 1116.26 2006.11
160.982 1116.2 2005.3
162.14 1116.14 2003.91
162.344 1115.98 2003.05
158.179 1108.36 2002.65
158.221 1108.82 2002.88
158.335 1107.58 2001.68
158.579 1105.22 2000.84
158.303 1109.4 2003.28
160.732 1106.58 1997.82
161.361 1109.56 1998.91
161.215 1108.98 1998.47
161.56 1110.88 1998.06
163.336 1115.06 2000.22
162.456 1113.81 1998.64
162.693 1113.96 1997.74
162.972 1114.68 1999.06
163.316 1115.37 1998.39
163.51 1115.85 1998.39
162.795 1115.9 2002.28
163.286 1115.84 2001.49
163.559 1115.34 2001.57
163.425 1114.84 2001.23
163.183 1114.41 2000.52
154.385 1123.68 1991.38
154.597 1123.37 1990.89
154.899 1122.23 1989.41
154.978 1121.13 1988.14
154.721 1121.07 1987.51
154.23 1121.16 1987.27
155.798 1120.48 1986.29
156.084 1120.12 1985.71
156.448 1119.78 1985.09
155.984 1119.86 1984.48
156.241 1119.55 1983.92
155.709 1120.45 1983.38
155.629 1120.35 1982.72
156.528 1118.58 1982.23
157.416 1117.28 1981.83
160.11 1114.67 1984.33
160.991 1113.15 1984.96
160.977 1113.56 1985.71
161.92 1111.14 1985.51
162.079 1110.44 1985.04
162.467 1110.82 1985.45
174.44 1104.33 1983.87
174.649 1104.92 1984.63
174.919 1104.49 1984.12
171.471 1105.4 1982.28
172.405 1104.77 1983.03
176.562 1104.02 1986.5
165.149 1108.79 1983.3
166.207 1108.23 1981.88
167.892 1107.24 1982.1
166.447 1107.85 1981.38
162.916 1109.64 1984.39
162.513 1110.01 1984.7
164.334 1109.06 1982.91
174.376 1107.04 1987.12
175.084 1105.95 1988.03
175.571 1105.69 1988.53
176.828 1105.04 1988.39
174.605 1106.21 1986.21
174.189 1104.34 1984.53
168.736 1105.42 1980.73
168.074 1106.89 1981.67
168.509 1106.9 1982.25
170.513 1101.98 1977.37
168.243 1104.11 1978.54
178.167 1105.66 1990.38
178.005 1105.33 1989.74
174.929 1107.41 1989.29
178.248 1104.78 1989.36
177.098 1105.63 1989.54
176.587 1106.39 1990
172.728 1099.1 1974.01
172.889 1098.09 1972.69
174.953 1098.22 1973.03
184.273 1097.77 1973.77
184.712 1097.76 1973.44
181.209 1097.52 1973.5
180.147 1097.12 1972.46
174.986 1098.09 1972.51
179.872 1097.2 1971.89
182.892 1097.87 1973.57
183.594 1097.89 1973.42
186.006 1097.8 1972.39
186.545 1097.64 1972.24
187.092 1097.4 1972.13
187.584 1097.22 1971.77
187.697 1097.04 1968.82
186.144 1098.51 1966.17
186.565 1097.86 1965.48
188.64 1096.23 1971.12
189.166 1095.3 1970.7
189.144 1094.7 1970.19
187.481 1095.08 1970.34
186.322 1093.13 1971.58
185.114 1092.78 1972.22
185.84 1092.84 1972.02
186.308 1092.47 1972.42
186.893 1092.93 1972.32
185.845 1093.16 1972.44
188.081 1092.74 1971.78
187.592 1094.91 1969.69
185.735 1094.68 1970.89
185.05 1093.6 1972.13
188.156 1095.42 1969.04
184.303 1093.93 1971.97
188.561 1095.92 1968.23
185.392 1099.11 1964.61
183.15 1099.87 1964.27
183.977 1099.26 1965.47
184.482 1098.97 1966.45
181.273 1100.79 1963.33
182.461 1100.34 1963.52
185.747 1098.59 1968.96
184.99 1098.83 1967.43
185.937 1098.7 1967.5
180.591 1101.66 1961.84
180.234 1101.56 1963.03
180.71 1101.07 1963.4
176.721 1105.43 1963.06
176.401 1106.8 1961.76
178.817 1102.39 1963.41
175.381 1107.14 1962.08
174.524 1108.27 1961.43
173.503 1108.95 1961.62
173.593 1109.77 1959.12
170.973 1110.71 1962.22
172.238 1110.18 1961.17
174.013 1109.92 1958.07
174.206 1110.48 1957.23
172.573 1111.52 1956.73
171.459 1111.07 1957.25
171.659 1112.13 1956.71
171.193 1113.6 1956.16
171.017 1112.49 1956.75
169.463 1114.3 1956.74
166.354 1116.78 1956.82
167.731 1114.88 1957.97
168.14 1114.95 1957.51
164.872 1116.84 1958.1
168.919 1114.3 1957.24
166.184 1117.51 1955.9
163.673 1118.53 1956.63
162.105 1119.83 1955.99
147.394 1126.9 2038.49
156.233 1128.21 2035.3
155.645 1127.91 2035.91
154.119 1126.35 2036.39
154.721 1126.89 2036.14
155.128 1127.45 2036.22
152.81 1125.91 2037.22
153.721 1126.21 2037.06
151.679 1125.7 2037.41
150.446 1125.68 2037.46
149.164 1125.78 2037.49
147.822 1126.39 2038.03
149.024 1126.28 2038.09
154.235 1123.96 1960.71
149.989 1126.4 1969.03
151.223 1124.85 1968.93
150.349 1126 1969.5
151.711 1124.02 1968.24
152.166 1123.15 1967.94
154.222 1123.27 1961.87
153.562 1119.8 1966.43
153.474 1119.83 1966.96
153.6 1121.66 1964.95
153.786 1119.74 1965.88
154.651 1122.15 1962.7
154.681 1121.57 1963.26
153.419 1119.78 1967.48
148.871 1127.11 1969.63
146.92 1130.32 1973.93
145.666 1131.68 1978.98
143.978 1130.98 1981.79
144.549 1130.12 1982.38
144.118 1130.56 1982.16
145.076 1129.73 1982.41
145.474 1131.5 1985.31
147.453 1128.19 1983.86
148.844 1126.99 1984.16
148.51 1127.51 1983.52
149.049 1126.52 1984.54
149.973 1124.27 1985.83
149.849 1124.44 1985.22
147.091 1132.3 1980.45
146.15 1132.39 1981.47
145.773 1132.16 1982.79
147.528 1131.84 1980.93
153.346 1123.57 1990.63
147.188 1131.2 1983.16
147.692 1131.37 1981.76
150.127 1123.33 1985.87
150.344 1123.39 1986.37
153.042 1122.79 1989.26
152.795 1122.13 1988.25
151.319 1122.35 1986.94
146.796 1130.83 1984.39
146.242 1130.95 1984.5
154.768 1127.33 2036.77
154.274 1126.77 2036.88
155.334 1127.93 2036.59
150.196 1126.09 2038.04
148.593 1126.84 2038.61
155.095 1117.35 2012.86
158.144 1117.45 2016.77
156.182 1117.98 2014.96
152.638 1117.36 2012.21
154.267 1116.79 2014.36
155.223 1117.11 2014.72
156.579 1112.7 2007.02
158.517 1115.54 2007.04
158.766 1116.2 2007.32
156.463 1113.19 2007.42
157.339 1113.43 2006.83
158.413 1114.24 2006.26
160.276 1115.6 2005.72
160.837 1115.72 2005.19
161.368 1115.75 2004.53
161.858 1115.7 2003.82
158.822 1109.8 2003.6
158.463 1108.38 2001.87
158.548 1108.95 2002.14
158.77 1107.93 2000.92
158.963 1106.29 2000.17
158.454 1109.46 2002.73
158.391 1110.44 2003.86
161.817 1112.27 1997.08
161.646 1111.33 1997.61
161.533 1110.33 1997.95
163.114 1114.76 1997.95
162.563 1113.6 1997.35
162.12 1112.83 1997.5
162.378 1113.4 1997.78
163.378 1115.17 1997.36
162.678 1115.47 2002.53
162.158 1114.72 2002.73
162.518 1114.59 2002.18
163.185 1114.95 1999.63
162.588 1113.06 1997.47
162.665 1113.08 1998.85
162.412 1112.43 1997.06
153.721 1122.62 1989.5
153.433 1121.84 1988.22
152.383 1121.92 1987.48
153.614 1121.34 1987.05
155.696 1120.46 1985.41
155.703 1119.85 1982.38
153.599 1122.65 1983.38
156.069 1118.89 1981.78
156.7 1117.84 1981.41
157.157 1117.24 1981.26
158.212 1116.5 1982.04
158.731 1116.04 1983.24
159.76 1115.05 1983.66
160.447 1114.35 1983.94
161.23 1112.92 1984.5
161.836 1111.23 1984.87
174.313 1104.38 1985.05
174.703 1105.6 1985.31
177.035 1104.25 1987.28
164.984 1108.75 1981.3
165.338 1108.41 1980.95
166.658 1107.38 1980.77
165.615 1108.05 1980.6
162.649 1109.81 1983.92
175.023 1105.82 1986.64
175.619 1105.44 1987
175.807 1104.08 1986.05
167.641 1105.81 1979.99
169.903 1102.04 1976.62
167.296 1104.41 1977.82
177.69 1105.16 1989.31
178.015 1106.57 1990.35
176.908 1109.1 1991.49
175.265 1107.84 1989.79
185.252 1100.58 1997.86
185.06 1100.43 1997.04
172.246 1099.22 1973.62
173.449 1097.67 1972.63
173.832 1097.84 1973
185.446 1097.99 1972.27
181.686 1097.5 1972.81
176.047 1097.8 1972.16
179.57 1097.25 1971.23
180.678 1097.1 1972.06
182.078 1097.51 1972.11
183.86 1098.14 1971.42
184.863 1098.29 1970.77
186.518 1098.17 1970.36
187.093 1097.92 1969.97
188.052 1096.77 1970.18
188.666 1095.9 1970.34
188.712 1095.01 1970.18
188.094 1095.43 1969.96
185.164 1093.08 1971.73
185.1 1092.52 1972.68
185.754 1092.47 1972.57
186.434 1092.05 1973.05
185.818 1092.02 1973.18
187.599 1092.48 1972.67
186.476 1092.63 1972.94
185.509 1092.76 1973.15
184.835 1093.23 1972.77
184.103 1093.54 1972.53
187.583 1095.75 1969.07
184.706 1094.49 1971.14
183.667 1094.03 1972.03
185.86 1095.1 1970.6
185.242 1094.96 1970.81
186.598 1095.34 1970.28
188.464 1096.17 1968.67
182.886 1099.04 1965.69
182.456 1099.31 1965.12
181.936 1099.5 1964.84
182.501 1098.5 1967.3
184.539 1098.62 1967.76
181.178 1100.56 1963.84
181.673 1100.3 1963.82
180.009 1101.23 1963.76
177.268 1105.63 1962.49
175.3 1106.58 1962.86
176.416 1105.46 1963.52
172.829 1110.07 1959.64
173 1110.18 1958.81
173.469 1110.18 1958.4
169.95 1111.37 1961.99
171.134 1110.88 1961.03
170.338 1111.37 1961.53
173 1110.41 1957.18
170.339 1112.86 1956.99
169.833 1112.93 1957.33
168.101 1114.36 1958.26
168.557 1114.31 1957.69
167.658 1114.58 1958.51
165.096 1116.18 1958.89
160.709 1118.45 1960.02
160.237 1119.45 1959.01
160.295 1120.48 1957.4
156.289 1122.44 1959.31
156.149 1121.67 1960.91
152.119 1123.46 1969.2
152.211 1123.15 1968.46
151.464 1124.7 1970.08
150.825 1125.52 1969.85
150.147 1126.27 1970.1
153.467 1119.54 1967.92
153.898 1118.33 1966.66
154.676 1119.73 1964.45
154.096 1119.84 1965.24
154.077 1118.33 1965.9
155.712 1121.16 1962.08
155.19 1119.51 1963.89
149.188 1127.13 1970.59
147.722 1129.92 1974.11
145.656 1130.95 1979.92
144.775 1130.16 1981.7
146.774 1131.77 1978.38
147.118 1132.22 1979.9
147.498 1131.85 1979.67
144.363 1130.59 1981.62
145.065 1132.15 1984.8
147.79 1128.12 1983.28
149.785 1126.39 1983.33
149.104 1127.46 1982.84
149.39 1125.98 1984.55
146.465 1132.48 1980.69
146.46 1132.5 1979.91
145.567 1132.17 1983.26
148.178 1130.78 1981.09
148.409 1129.9 1981.68
147.693 1130.97 1982.49
152.201 1122.27 1987.9
151.777 1122.42 1987.62
145.885 1131.26 1984.33
147.099 1130.61 1984.03
148.119 1129.98 1982.53
158.165 1118.25 2016.38
157.796 1118.55 2015.91
157.372 1119.64 2014.18
155.977 1116.98 2015.51
156.515 1118.28 2014.6
152.155 1117.69 2011.33
157.51 1111.97 2005.66
157.479 1113.13 2006.42
159.044 1114.07 2005.54
158.624 1113.37 2005.76
158.707 1112.92 2005.08
159.509 1114.19 2005.15
159.986 1114.32 2004.74
160.469 1114.49 2004.36
160.876 1114.38 2003.85
161.327 1114.6 2003.54
158.573 1110.03 2002.92
158.894 1108.55 2001.11
158.973 1109.11 2001.38
159.187 1108.14 2000.19
159.365 1106.35 1999.36
158.811 1109.59 2002.09
158.644 1110.59 2003.21
160.947 1107.83 1998.33
161.45 1109.71 1998.23
161.73 1111.67 1997.11
161.662 1110.95 1997.24
161.561 1110.04 1997.53
163.359 1115.54 1999.23
163.071 1114.78 1998.58
162.953 1114.34 1997.35
163.63 1115.96 1997.9
161.715 1114.57 2003.1
161.862 1113.35 2001.54
162.191 1112.62 1999.68
162.341 1112.08 1997.49
154.924 1120.76 1985.83
154.956 1120.87 1986.36
155.178 1120.59 1985.33
155.649 1120.49 1984.8
155.774 1120.25 1984.23
154.801 1121.56 1982.93
155.402 1119.39 1982.02
154.221 1122.47 1982.88
154.527 1122.64 1983.38
154.157 1119.18 1980.52
154.404 1118.84 1980.16
154.587 1118.53 1979.72
157.644 1116.95 1981.13
155.042 1118.11 1979.48
159.415 1115.59 1980.9
158.725 1116.19 1980.21
160.296 1114.7 1981.71
161.017 1113.96 1982.19
161.57 1112.49 1983.93
160.828 1113.92 1983.6
162.087 1110.89 1984.23
175.032 1104.86 1985.82
177.084 1103.72 1986.25
164.388 1109.21 1981.03
164.636 1108.86 1980.69
164.926 1108.28 1980.06
165.549 1107.69 1979.85
166.382 1106.17 1979.01
163.862 1109.19 1982.56
176.221 1105.14 1987.36
175.564 1104.94 1986.31
166.63 1104.42 1976.9
168.498 1103 1976.47
170.831 1100.85 1976.03
166.08 1105.09 1977.33
176.283 1107.27 1989.95
177.811 1107.34 1990.75
177.659 1107.95 1990.54
177.831 1104.62 1988.81
185.466 1100.43 1997.4
171.349 1100.14 1975.09
171.689 1099.66 1974.22
172.277 1099.15 1973.04
172.439 1098.89 1972.43
172.819 1098.17 1972.2
175.793 1097.8 1971.65
173.263 1097.92 1972.2
179.729 1097.33 1970.61
176.104 1097.77 1971.22
180.196 1097.18 1971.17
181.181 1097.21 1971.39
182.653 1097.72 1971.11
182.476 1097.73 1970.03
182.321 1098.02 1968.92
188.398 1096.17 1969.95
187.391 1095.56 1969.96
188.531 1095.89 1969.42
184.457 1092.38 1973.05
184.968 1092.15 1973.24
188.092 1092.45 1972.24
188.976 1092.6 1972.22
187.95 1092.12 1973.14
185.159 1091.73 1973.73
185.982 1091.65 1973.7
187.091 1091.96 1973.11
186.088 1092.23 1973.69
185.082 1092.45 1973.79
184.473 1092.83 1973.4
183.863 1092.82 1973.13
185.026 1096.06 1970
187.115 1095.3 1969.6
183.548 1093.33 1972.54
187.832 1095.94 1968.66
184.111 1094.83 1971.3
184.035 1095.6 1970.8
183.482 1094.95 1971.19
183.566 1094.5 1971.45
183.287 1093.64 1972.13
183.04 1093.94 1971.75
185.983 1095.52 1970.09
185.136 1095.34 1970.36
180.904 1098.16 1967.99
181.285 1098.85 1966.05
179.258 1098.54 1967.77
180.458 1097.35 1970.54
180.016 1097.43 1970.17
181.443 1099.67 1964.75
179.861 1100.06 1965.11
178.254 1098.88 1967.67
178.317 1101.88 1964.43
176.888 1104.53 1963.5
171.722 1109.95 1962.25
169.617 1111.1 1962.65
172.003 1110.31 1960.23
172.471 1110.29 1959.27
172.564 1110.42 1958.65
169.957 1111.6 1960.97
169.461 1111.92 1961.84
170.467 1111.18 1960.91
170.977 1110.98 1960.54
170.973 1111.38 1957.29
171.906 1110.66 1957.36
168.58 1113.94 1958.15
164.881 1116.22 1960.66
161.79 1117.8 1960.02
160.197 1118.21 1961.39
159.245 1118.65 1961.41
158.271 1119.07 1961.34
158.717 1119.74 1960.15
158.505 1118.72 1961.78
157.873 1121.17 1959.34
170.313 1111.63 1957.58
157.417 1120.2 1961.25
152.546 1123.76 1971.83
152.812 1122.28 1969.26
150.709 1125.85 1970.49
151.429 1125.55 1972.1
150.257 1126.47 1970.93
154.19 1117.52 1967.82
154.441 1117.38 1968.25
153.924 1118.03 1967.35
155.867 1119.26 1963.37
149.324 1127.47 1972.13
148.424 1128.87 1973.42
148.594 1129.95 1976.1
150.383 1127.15 1973.36
147.983 1130.81 1977.6
145.904 1129.95 1980.99
145.257 1130.12 1981.26
146.464 1129.02 1982.65
149.561 1127.27 1982.25
149.649 1125.94 1984.03
149.015 1128.09 1982.19
148.452 1127.79 1983.02
145.709 1129.7 1981.51
147.89 1131.39 1980.34
145.158 1132.09 1984.23
148.64 1129.73 1980.79
149.469 1128.64 1979.7
149.144 1128.31 1980.78
150.904 1122.51 1986.65
145.885 1131.22 1983.81
146.907 1130.4 1983.5
146.602 1130.83 1983.09
146.425 1130.71 1984.02
147.383 1130.11 1983.87
156.403 1117.43 2015.52
158.037 1112.5 2005.5
159.234 1112.93 2004.54
158.455 1112.14 2004.84
158.85 1112.08 2004.39
159.746 1113.14 2004.14
160.31 1113.4 2003.73
160.695 1112.85 2002.7
161.191 1113.22 2002.44
159.229 1108.79 2000.61
159.758 1106.95 1998.67
159.845 1105.66 1998.23
158.419 1110.96 2004.17
158.993 1110.13 2002.13
158.873 1111.09 2003.15
160.819 1106.6 1996.93
160.891 1107.24 1997.7
160.955 1107.93 1997.45
161.458 1109.54 1997.6
161.287 1109.12 1997.94
161.266 1109 1997.36
162.07 1111.18 1996.49
162.414 1113.19 1996.98
161.356 1112.22 2000.35
161.787 1111.83 1998.77
152.979 1121.59 1986.67
151.751 1122.08 1986.58
154.362 1121 1985.68
155.132 1120.84 1984.6
155.176 1121.68 1983.73
153.735 1122.27 1982.57
153.175 1122.9 1982.71
153.985 1119.74 1980.9
153.118 1123.56 1983.09
152.231 1120.16 1979.62
152.116 1119.91 1979.11
151.963 1119.8 1978.59
158.24 1116.32 1978
156.755 1117.08 1978.23
152.219 1119.25 1978.24
160.137 1115.01 1978.85
158.883 1115.81 1976.84
161.468 1113.67 1979.92
161.644 1113.51 1980.44
161.563 1113.28 1982.3
162.19 1112.85 1980.19
162.11 1112.93 1980.77
162.366 1111.87 1982.34
162.384 1110.68 1983.51
163.408 1109.83 1982.02
162.583 1110.25 1983.3
176.086 1103.71 1985.46
174.795 1104.37 1985.44
177.401 1103.91 1987.01
177.241 1104.74 1988.3
164.206 1109.31 1980.46
164.375 1108.89 1980
164.71 1108.28 1979.43
165.355 1106.53 1978.16
176.418 1104.81 1987.84
176.288 1104.67 1986.86
165.901 1104.71 1976.21
165.881 1104.94 1976.74
170.307 1101.67 1975.89
177.302 1105.08 1988.97
176.746 1108.26 1990.9
185.815 1100.23 1996.86
186.163 1099.82 1997.66
186.428 1099.89 1998.13
170.922 1099.72 1975.23
174.827 1098.05 1971.19
172.498 1098.55 1971.92
179.037 1097.52 1970.26
184.522 1092.62 1972.6
188.521 1092.35 1972.73
187.891 1091.84 1973.9
186.738 1091.64 1973.66
185.611 1091.44 1974.1
183.864 1091.65 1973.89
185.039 1091.39 1974.28
185.423 1091.98 1974.33
184.247 1091.9 1973.64
183.724 1092.23 1973.2
182.97 1092.64 1972.65
183.226 1095.42 1971.16
185.492 1096.12 1969.81
184.469 1095.84 1970.3
184.388 1093.92 1971.14
184.654 1093.5 1971.39
184.25 1094.31 1971.45
184.551 1092.94 1971.92
187.147 1096.09 1969.1
182.907 1093.01 1972.19
186.557 1095.98 1969.4
179.838 1098.14 1968.42
175.952 1098.12 1970.29
173.622 1098.88 1970.3
179.631 1099.38 1966.1
176.299 1099.23 1968.13
175.086 1100.28 1967.53
173.328 1099.29 1969.57
177.116 1101.36 1965.51
176.436 1103.64 1964.48
174.897 1105.91 1963.51
173.444 1107.53 1962.95
175.92 1103.23 1964.96
169.321 1111.72 1962.35
169.121 1111.42 1962.87
171.538 1110.61 1960.01
171.973 1110.43 1959.43
168.917 1112.88 1961.97
168.771 1112.72 1962.5
168.476 1112.69 1962.97
168.956 1112.85 1961.44
170.186 1111.25 1959.83
169.861 1111.65 1959.81
170.894 1110.92 1957.67
169.413 1112.78 1957.87
168.405 1113.87 1958.64
168.077 1114.06 1958.99
162.795 1117.25 1960.04
161.151 1117.91 1960.84
160.534 1117.87 1962.12
160.845 1117.89 1961.69
159.761 1118.22 1962.05
158.995 1118.26 1962.4
157.172 1117.94 1963.56
156.64 1118.32 1963.46
157.699 1117.51 1963.82
152.935 1123.7 1973.08
151.95 1125.6 1973.75
154.571 1120.04 1970.87
155.485 1119.18 1972.13
154.788 1118.52 1969.84
154.679 1117.29 1968.83
150.746 1127.17 1974.47
155 1116.56 1968.67
155.224 1116.43 1969.53
154.381 1117.45 1966.88
154.35 1117.66 1966.29
154.816 1117.9 1965.35
154.842 1117.38 1966
155.034 1116.57 1968.16
148.471 1130.53 1978.49
146.343 1130.47 1979.85
146.026 1131.13 1979.18
146.224 1131.8 1977.98
146.663 1131.36 1978.84
146.12 1131.96 1978.53
147.749 1128.45 1982.81
146.854 1129.04 1982.02
150.15 1126 1983.3
150.624 1125.52 1983.08
150.481 1126.08 1982.24
149.908 1124.7 1984.65
148.725 1128.86 1982.1
148.737 1128.22 1982.61
148.362 1128.55 1982.98
150.238 1123.41 1985.33
148.638 1130.4 1979
145.943 1132.6 1980.86
145.662 1132.92 1980.42
146.712 1132.19 1979.28
145.717 1132.32 1982.07
145.006 1132.12 1983.36
144.506 1132.02 1984.5
151.403 1126.28 1975.83
150.693 1126.61 1978.94
150.757 1125.81 1981.73
148.654 1129.13 1979.68
150.415 1122.91 1986.21
146.001 1131.85 1981.97
146.552 1131.09 1982.45
146.114 1131.13 1982.97
145.735 1131.56 1982.56
145.536 1131.54 1983.62
156.738 1117.82 2015.51
159.244 1112.06 2003.92
159.637 1112.15 2003.42
160.125 1112.46 2003.08
160.157 1111.07 2000.52
160.628 1111.12 1999.68
159.655 1108.17 1999.24
159.532 1108.84 2000.02
159.606 1109.57 2000.42
159.195 1109.62 2001.32
160.133 1108.4 1998.43
160.141 1107.24 1997.95
160.325 1105.87 1997.26
159.262 1110.97 2002.16
159.442 1110.45 2001.32
160.874 1106.64 1995.92
160.909 1107.45 1996.65
162.401 1112.15 1996.44
162.243 1111.67 1996.29
161.659 1110.5 1996.98
162.944 1113.8 1996.92
162.069 1112.56 1996.64
160.938 1110.66 1998.22
151.121 1122.3 1986.17
154.347 1121.17 1986.59
154.747 1120.86 1985.33
153.479 1121.32 1981.65
152.307 1121.88 1980.9
152.212 1123.42 1981.93
152.436 1120.52 1980.19
155.214 1121.94 1984.22
154.725 1122.62 1983.86
154.169 1123.23 1983.59
151.934 1120.62 1979.65
156.801 1116.83 1975.59
154.258 1118.24 1977.75
157.801 1116.28 1974.97
159.017 1115.55 1976.13
160.854 1114.26 1978.89
157.806 1116.2 1974.31
162.049 1112.98 1979.48
163.263 1111.06 1980.11
163.095 1111.36 1980.67
163.179 1110.4 1981.93
163.663 1110.01 1980.89
164.146 1108.97 1979.23
163.758 1108.27 1977
177.714 1104.3 1988.09
165.352 1105.47 1976.68
164.11 1106.7 1975.14
165.817 1104.64 1975.65
168.11 1103.12 1976
170.183 1099.72 1975.87
163.583 1107.64 1975.49
186.321 1100.02 1997.2
170.496 1100.82 1974.67
171.309 1100.07 1974.02
171.605 1099.97 1973.48
172.096 1098.84 1971.8
173.098 1098.22 1971.77
172.289 1099.05 1971.04
182.502 1092.32 1972.75
189.731 1092.73 1972.18
188.879 1092.21 1973.32
188.124 1091.68 1973.45
186.899 1091.39 1974.09
184.226 1091.3 1974.49
182.772 1091.77 1973.72
186.128 1091.15 1974.67
186.78 1091.1 1974.72
182.822 1092.06 1973.26
183.408 1092.35 1972.82
184.08 1093.21 1971.72
184.049 1092.69 1972.25
182.748 1093.52 1971.77
173.608 1099.6 1968.97
172.961 1100.56 1968.36
171.788 1103.06 1965.8
175.662 1101.39 1966.12
172.287 1100.5 1968.8
177.596 1105.18 1962.42
177.434 1103.71 1963.98
174.778 1104.71 1964.3
172.706 1107.61 1963.09
169.514 1110.66 1963.06
175.176 1102.08 1965.82
168.039 1112.44 1963.48
170.74 1110.82 1959.46
171.217 1110.64 1958.97
168.19 1113.78 1962.19
167.889 1113.94 1962.64
167.162 1114.21 1963.39
169.176 1112.56 1960
168.32 1113.68 1960.51
172.335 1110.33 1957.48
171.409 1110.57 1957.62
169.182 1112.6 1958.51
170.016 1111.49 1958.13
167.971 1114.03 1959.54
164.646 1116.37 1961.17
161.808 1117.56 1961.09
162.544 1117.32 1962.53
159.88 1117.86 1962.6
158.549 1117.09 1963.98
155.948 1116.87 1965.59
156.733 1116.38 1965.74
155.376 1117.1 1965.84
157.556 1115.98 1965.83
154.047 1121.81 1973.13
152.707 1124.17 1973.62
152.244 1125.29 1974.21
151.314 1126.57 1974.99
155.762 1118.86 1972.63
156.428 1117.31 1972.26
155.94 1116.85 1970.78
155.455 1116.39 1970.05
155.608 1116.03 1969.57
155.456 1116.22 1969.05
155.745 1115.96 1970.09
154.894 1117.03 1966.58
154.741 1116.93 1967.5
155.385 1116.22 1968.04
155.529 1116.64 1966.51
147.345 1129.03 1981.69
147.123 1130.14 1979.7
146.184 1131.2 1978.61
146.83 1130.91 1979.82
146.695 1131.6 1979.49
150.184 1125.54 1983.65
150.184 1124.81 1984.23
150.901 1125.18 1982.6
146.266 1132 1980.2
146.217 1131.77 1980.71
146.008 1132.51 1980.27
145.223 1132.18 1982.87
145.022 1132.22 1982.27
144.71 1132.04 1983.8
148.777 1129.63 1979.81
148.889 1128.86 1980.61
150.884 1126.05 1979.11
150.797 1125.73 1981.14
150.777 1125.62 1982.32
146.369 1131.45 1981.98
147.166 1130.18 1983.1
145.43 1131.88 1982.31
148.376 1129.24 1982.72
157.189 1118.68 2015.09
159.687 1110.96 2001.26
159.889 1110.44 2000.27
160.749 1110.16 1998.08
159.906 1109.75 1999.85
159.972 1109.36 1999.47
160.507 1107.56 1997.27
160.948 1107.95 1996.66
161.53 1109.68 1997.01
161.121 1108.56 1996.89
163.119 1114.29 1996.61
163.376 1114.81 1996.77
162.526 1112.04 1995.73
162.084 1110.83 1995.52
154.484 1121.53 1985.58
154.771 1121.85 1984.78
155.009 1121.44 1984.51
154.877 1122.32 1984.45
152.083 1123.87 1982.39
151.647 1124.22 1982.32
151.554 1120.57 1979.13
151.429 1121.02 1979.44
151.403 1120.31 1978.55
155.683 1117.55 1976.1
157.209 1116.65 1974.4
153.157 1118.91 1977.94
151.508 1119.69 1977.94
159.65 1114.94 1976.38
158.622 1115.41 1973.61
157.981 1115.91 1972.85
157.183 1116.62 1973.13
157.011 1116.89 1973.7
160.475 1114 1976.82
163.222 1110.9 1979.43
177.257 1103.13 1985.22
174.963 1103.96 1984.93
175.41 1104.07 1985.4
161.924 1112.13 1977.73
161.793 1111.36 1976.88
178.153 1104.25 1988.47
164.281 1106.36 1974.81
162.416 1108.5 1973.39
161.482 1109.98 1974.1
161.198 1110.81 1975.09
167.713 1103.24 1975.4
164.799 1105.82 1974.15
169.863 1101.9 1975.42
186.658 1099.86 1997.58
187.12 1099.77 1998.01
186.808 1099.93 1998.5
170.896 1100.71 1973.93
171.897 1099.36 1972.78
171.816 1099.09 1971.28
171.733 1100.43 1969.39
189.459 1092.52 1972.71
188.848 1092.01 1973.89
187.363 1091.59 1973.68
187.226 1091.38 1974.91
185.054 1091.2 1975.14
186.327 1091.14 1975.22
183.597 1093.39 1971.62
172.155 1101.78 1967.52
171.217 1103.05 1966.08
172.477 1103.06 1965.58
168.911 1104.75 1965.16
171.997 1099.55 1970.08
177.228 1105.02 1962.96
177.503 1103.17 1964.16
173.516 1104.25 1964.69
172.94 1103.22 1965.36
171.867 1105.89 1963.96
170.98 1106.77 1963.71
170.408 1107.42 1963.58
171.528 1109.45 1962.76
169.694 1110.06 1963.22
169.06 1110.55 1963.38
168.775 1111.29 1963.21
166.203 1114.13 1964.48
166.229 1112.49 1965
164.618 1113.18 1966.22
171.665 1110.66 1958.68
167.342 1114.45 1962.58
166.334 1115.15 1963.34
166.037 1115.1 1963.79
165.764 1114.87 1964.3
165.427 1114.64 1964.9
169.132 1112.55 1959.07
167.782 1114.15 1960.91
167.486 1114.4 1962.04
170.188 1111.12 1958.86
170.594 1110.75 1958.7
171.108 1110.38 1958.38
173.264 1109.99 1957.43
173.202 1110.53 1957.72
166.541 1115.15 1960.9
165.473 1115.85 1961.3
164.153 1116.67 1961.59
163.473 1116.96 1961.7
162.901 1117.19 1962.12
162.147 1117.29 1963.2
163.906 1116.92 1963.05
160.209 1117.47 1963.09
160.117 1116.09 1964.92
158.64 1115.71 1965.77
156.275 1116.18 1966.44
157.278 1115.62 1966.62
159.622 1114.69 1967.15
155.155 1119.89 1973.31
156.355 1117.86 1973.17
156.802 1117.16 1973.14
156.923 1116.5 1972.07
157.036 1116.6 1972.57
156.249 1116.2 1971.19
156.668 1115.82 1971.16
155.528 1116.25 1967.21
156.228 1115.59 1968.79
156.19 1115.88 1967.16
147.738 1129.39 1980.94
147.176 1130.33 1980.3
146.611 1130.98 1978.41
146.841 1130.67 1978.87
147.424 1129.83 1981.42
147.29 1130.23 1982.24
146.638 1131.2 1980.51
147.971 1128.68 1981.95
147.678 1129.78 1982.71
147.71 1129.57 1982.15
150.672 1124.87 1983.31
151.172 1125.13 1983.29
151.597 1124.82 1983.15
152.054 1124.54 1983.31
151.619 1124.77 1983.67
150.384 1123.56 1984.86
150.238 1122.91 1985.61
148.369 1129.29 1980.56
151.777 1125.69 1975.48
152.77 1124.05 1974.23
153.367 1122.92 1973.87
151.979 1125.2 1975.72
151.262 1125.99 1976.78
151.099 1125.63 1978.15
150.929 1125.47 1979.83
151.01 1125.29 1981.85
147.758 1130.11 1983.2
147.585 1129.57 1983.93
144.704 1132.18 1982.94
158.481 1118.66 2016.27
160.343 1110.38 1999.2
160.517 1109.91 1998.49
160.961 1109.72 1997.34
160.294 1109.58 1998.83
160.585 1108.44 1997.5
160.176 1108.86 1998.68
161.356 1109.15 1996.47
161.896 1111.14 1995.93
161.787 1110.44 1996.01
162.884 1113.37 1996.43
162.309 1112.53 1996.1
161.544 1109.72 1996.06
162.049 1110.51 1995.07
152.535 1121.82 1986
151.252 1122.26 1985.66
150.639 1122.6 1985.86
153.875 1121.45 1986.24
154.383 1122.34 1985.07
154.501 1122.8 1984.44
151.851 1122.02 1980.53
151.673 1124.02 1981.75
151.174 1124.74 1982.6
152.979 1124.03 1983.53
151.885 1124.28 1982.88
153.778 1123.69 1983.92
155.138 1118.01 1976.36
156.462 1117.32 1974.37
159.176 1114.79 1974.52
159.007 1114.79 1973.66
159.129 1114.95 1972.4
157.487 1116.02 1972.42
158.399 1115.44 1972.22
156.511 1117.54 1973.7
159.751 1114 1974.86
176.396 1103.3 1984.84
177.237 1103.35 1985.67
178.23 1103.7 1987.4
160.584 1112.37 1975.4
162.949 1107.75 1972.86
161.131 1110.52 1973.86
162.193 1108.91 1972.94
160.428 1112.2 1974.83
169.444 1102.17 1974.93
164.115 1106.76 1972.89
165.773 1105.12 1974.06
169.894 1101.89 1974.66
171.353 1100.23 1973
171.407 1100.04 1972.06
171.501 1099.45 1970.97
189.386 1092.31 1973.31
190.245 1092.7 1972.46
185.49 1090.91 1975.65
186.682 1090.72 1975.36
171.605 1101.76 1968.21
170.229 1103.3 1966.47
171.277 1102.24 1967.82
168.082 1105.25 1965.11
170.054 1104.74 1964.77
169.019 1105.16 1964.8
169.272 1105.61 1964.51
169.568 1107.82 1963.75
168.66 1106.16 1964.44
168.276 1110.6 1963.8
166.761 1109.73 1964.89
164.308 1111.82 1966.88
166.115 1109.35 1965.49
163.339 1112.01 1967.89
172.233 1110.88 1958.42
171.595 1110.07 1958.49
164.841 1115.88 1964.02
165.138 1115.44 1964.47
164.845 1115.04 1965.02
164.269 1113.57 1966.34
166.456 1115.28 1962.43
165.992 1115.49 1963.17
170.526 1110.94 1958.17
172.668 1109.9 1957.82
172.806 1110.73 1958.01
165.253 1116.12 1962.49
161.906 1116.9 1963.87
163.091 1116.72 1964.26
163.598 1116.99 1963.65
164.328 1116.71 1963.25
161.58 1116.57 1964.34
159.834 1115.04 1966.47
161.199 1114.55 1966.87
162.032 1114.69 1966.37
162.664 1115.58 1965.45
162.081 1115.86 1965.18
157.175 1115.34 1967.28
159.339 1114.45 1967.76
161.526 1114.13 1967.39
154.876 1120.22 1973.83
155.987 1118.05 1974.17
156.266 1115.67 1969.81
157.188 1115.54 1971.1
155.908 1115.79 1967.98
156.782 1115.21 1968.55
157.362 1114.9 1969.18
157.105 1115.18 1967.82
146.933 1130.65 1982.52
148.034 1129.48 1983.16
152.633 1124.24 1983.97
152.747 1123.98 1974.76
152.318 1124.35 1975.49
151.401 1125.17 1977.14
151.221 1125.17 1977.94
150.999 1125.24 1979.17
150.975 1124.83 1979.77
150.947 1125.1 1980.33
151.25 1124.58 1981.71
151.058 1124.92 1981.14
147.972 1129.14 1983.63
157.396 1118.44 2015.6
160.656 1109.51 1997.94
161.01 1109.29 1996.98
160.746 1109.1 1997.5
162.734 1112.82 1996.15
163.541 1114.83 1996.23
163.238 1113.49 1995.54
162.419 1111.06 1994.89
153.504 1121.75 1985.95
154.024 1121.87 1985.69
154.08 1123.33 1984.26
151.302 1122.48 1980.11
151.491 1123.76 1981.26
151.078 1121.29 1979.11
151.044 1120.47 1978.05
151.009 1120.88 1978.44
154.381 1118.62 1976.7
155.571 1117.96 1975.34
159.403 1114.34 1974.32
159.259 1114.44 1972.93
159.345 1114.32 1973.58
159.957 1114.29 1971.64
160.119 1114.12 1971.08
157.895 1115.16 1971.18
159.473 1114.62 1971.75
178.267 1103.94 1987.96
177.803 1102.92 1985.44
178.127 1103.18 1986.21
163.083 1107.89 1972.27
162.665 1108.3 1972.57
