141.033 982.973 1814.2 
140.671 982.974 1814.93 
140.379 983.175 1815.5 
140.476 982.704 1816.43 
139.364 983.968 1816.11 
139.35 983.888 1815.53 
132.901 965.502 1838.23 
134.269 961.784 1837.77 
132.573 960.863 1837.15 
132.554 958.907 1838.52 
133.948 956.183 1842.22 
130.684 966.044 1837.27 
130.095 966.151 1836.92 
129.712 966.176 1836.25 
129.513 966.75 1835.56 
137.148 978.106 1820.19 
137.075 978.319 1819.73 
137.319 975.8 1823.71 
137.511 976.992 1821.71 
137.071 975.733 1823.87 
137.098 975.613 1823.86 
137.329 976.934 1821.78 
137.281 975.907 1823.73 
137.582 977.1 1822.37 
137.761 976.347 1823.17 
138.325 977.054 1821.54 
138.899 976.381 1822.25 
138.246 976.227 1822.96 
137.301 976.019 1823.71 
133.537 974.43 1827.94 
132.647 974.307 1828.58 
133.232 973.158 1828.51 
133.383 972.645 1828.18 
133.596 972.402 1827.72 
134.847 972.408 1827.17 
135.186 972.171 1827.13 
134.582 972.681 1827.18 
129.266 967.198 1835.06 
129.056 967.917 1834.68 
129.076 967.524 1834.83 
129.187 968.686 1834 
129.371 968.768 1830.92 
129.44 968.746 1831.17 
130.923 970.96 1827.57 
132.841 973.923 1823.13 
134.821 975.071 1822.59 
136.488 975.152 1823.5 
135.935 975.655 1821.88 
136.301 975.534 1822.57 
136.404 975.062 1824.11 
136.705 975.196 1823.93 
136.151 974.925 1824.49 
129.073 968.902 1830.31 
129.015 969.184 1829.77 
129.131 968.466 1830.73 
128.997 968.43 1830.57 
129.241 968.416 1830.91 
129.372 970.091 1832.07 
129.172 969.363 1833.31 
129.108 969.743 1832.73 
129.663 969.534 1831.66 
129.467 968.994 1831.42 
136.266 971.954 1826.82 
136.874 971.206 1827.47 
136.246 971.758 1826.95 
137.078 971.468 1827.29 
135.449 972.968 1826.62 
135.309 973.758 1826.29 
135.745 974.363 1825.28 
135.678 974.257 1825.68 
135.536 974.296 1825.9 
134.658 973.769 1826.84 
135.093 973.884 1826.42 
134.912 973.574 1826.66 
133.792 974.279 1827.61 
136.563 975.69 1824.22 
136.335 975.451 1824.41 
136.093 974.9 1825.05 
136.921 975.909 1823.96 
166.527 1021.51 1768.39 
167.011 1022.16 1768.89 
166.949 1022.16 1769.2 
165.92 1020.34 1769.11 
166.223 1020.21 1769.45 
166.555 1020.51 1772.1 
166.774 1021.55 1770.35 
166.889 1021.81 1769.84 
167.058 1021.94 1769.5 
166.915 1018.7 1770.88 
166.466 1019.72 1770.1 
166.45 1020.06 1769.75 
166.577 1016.55 1773.07 
167.09 1017.36 1772.29 
167.204 1017.66 1771.88 
166.408 1016.42 1773.44 
146.132 1025.46 1740.46 
146.634 1025.18 1742.35 
146.822 1025.34 1742.07 
145.84 1024.88 1740.35 
172.172 1091.65 1758.46 
162.935 1090.8 1756.66 
155.381 1087.77 1731.82 
155.651 1087 1732.11 
155.332 1085.59 1732.89 
156.003 1087.74 1731.31 
155.728 1055.9 1747.93 
156.246 1056.02 1747.83 
159.442 1054.54 1748.99 
158.726 1054.64 1748.76 
162.438 1054.28 1749.83 
167.593 1058.75 1749.86 
163.39 1060.68 1747.12 
154.809 1055.7 1747.9 
151.089 1055.33 1747.09 
150.62 1055.43 1746.94 
150.589 1055.62 1746.92 
151.76 1055.43 1747.22 
152.731 1055.4 1747.45 
154.376 1055.23 1747.88 
154.915 1055.45 1747.99 
155.737 1054.17 1748.66 
156.088 1055.11 1748.08 
158.373 1060.99 1744.28 
160.123 1063.09 1743.65 
156.631 1056.06 1747.54 
158.481 1060.88 1744.43 
162.089 1063.93 1744.29 
161.921 1062.49 1744.79 
161.572 1065.01 1743.97 
151.318 1055.91 1746.9 
150.958 1056.08 1746.81 
150.016 1055.57 1746.6 
149.517 1055.36 1746.5 
149.81 1055.45 1746.6 
149.686 1055.36 1746.57 
149.878 1055.67 1746.62 
151.908 1055.38 1747.11 
153.194 1054.51 1747.67 
150.176 1056.45 1746.71 
150.067 1055.89 1746.7 
150.119 1055.62 1746.72 
154.265 1054.36 1748.12 
154.118 1054.73 1747.91 
153.026 1054.34 1747.7 
153.432 1054.54 1747.76 
154.746 1054.17 1748.44 
154.982 1054.06 1748.54 
154.403 1054.24 1748.26 
150.301 1056.4 1746.78 
150.673 1056.12 1746.91 
155.538 1053.96 1748.78 
155.23 1053.95 1748.71 
150.488 1055.84 1746.87 
151.015 1026.49 1738.18 
148.441 1027.65 1740.72 
148.797 1026.79 1740.07 
156.874 1088.02 1730.42 
24.0797 1070.63 1772.59 
21.346 1066.98 1774.5 
25.4263 1075.78 1773.05 
20.2574 1061.3 1773.63 
143.784 987.096 1810.22 
143.734 986.241 1810.74 
143.449 985.833 1810.96 
143.351 985.726 1811.43 
138.934 984.967 1812.86 
138.111 983.67 1812.04 
136.916 983.466 1810.98 
134.762 984.021 1809.92 
133.406 983.957 1809.1 
138.511 982.654 1811.45 
140.401 982.932 1814 
140.504 983.04 1814.52 
140.301 983.36 1814.97 
139.625 984.247 1814.91 
139.648 984.023 1815.55 
139.463 984.123 1814.89 
132.378 965.494 1838.16 
134.082 962.396 1837.53 
132.853 961.217 1836.91 
131.744 960.66 1837.36 
130.822 961.56 1837 
131.434 961.778 1836.77 
130.264 958.046 1839.29 
132.405 955.204 1842.19 
129.096 955.073 1841.83 
133.034 950.259 1847.64 
130.157 965.776 1837.13 
129.855 965.959 1836.72 
129.358 966.113 1835.72 
129.43 965.749 1836.17 
137.08 977.985 1820.28 
137.102 978.172 1819.95 
136.873 978.271 1819.6 
136.938 975.812 1823.95 
136.674 975.604 1824.15 
136.769 975.543 1824.08 
136.943 975.462 1823.94 
136.622 975.339 1824.09 
137.221 977.394 1821.05 
137.072 975.699 1823.46 
137.927 976.878 1822.17 
138.5 976.113 1822.68 
138.729 976.46 1821.98 
139.251 976.562 1821.88 
139.526 975.779 1822.71 
138.932 975.989 1822.44 
133.079 973.927 1828.48 
133.336 973.794 1828.2 
133.379 972.993 1828.24 
133.513 972.633 1827.85 
134.394 972.938 1827.19 
135.167 973.35 1826.59 
128.975 965.717 1835.16 
128.795 967.906 1834.49 
128.906 968.339 1834.17 
128.858 966.713 1834.49 
129.327 968.37 1831.12 
129.335 968.624 1831.45 
129.273 968.369 1831.34 
130.838 971.354 1826.53 
133.067 974.513 1822.03 
134.598 975.538 1821.09 
134.521 975.193 1822.05 
135.507 975.86 1821.07 
136.634 975.588 1822.96 
136.801 975.383 1823.55 
137.178 977.977 1822.03 
137.065 977.951 1822 
136.784 977.183 1820.95 
136.113 974.934 1824.78 
136.413 975.351 1824.26 
128.802 968.603 1830.3 
128.743 969.206 1829.53 
128.127 967.908 1830.59 
128.768 967.143 1831.57 
129.335 967.592 1833.01 
128.974 967.156 1833.05 
128.987 967.316 1831.67 
128.935 969.801 1832.21 
129.384 969.458 1831.84 
128.858 969.409 1832.82 
128.763 968.581 1833.83 
129.369 968.895 1831.68 
129.279 968.636 1831.63 
134.281 973.876 1827.2 
134.283 973.117 1827.26 
133.609 973.626 1827.89 
166.349 1021.33 1768.31 
166.564 1021.12 1769.04 
166.421 1021.21 1768.58 
166.803 1021.06 1769.35 
166.657 1020.28 1772.15 
166.79 1021.12 1770.73 
166.965 1021.45 1770 
167.252 1021.53 1769.53 
166.952 1018.81 1771.01 
166.64 1019.82 1770.18 
166.647 1020.2 1769.83 
166.945 1017.69 1772.33 
167.057 1017.6 1772.22 
167.072 1017.98 1771.84 
166.377 1016.54 1773.56 
166.884 1017.73 1772.54 
144.547 1024.31 1739.14 
147.086 1025.75 1741.83 
145.572 1024.93 1739.82 
145.557 1024.97 1739.62 
170.618 1091.64 1757.56 
173.274 1090.28 1753.76 
173.06 1090.89 1755.55 
173.26 1091.31 1757.48 
173.79 1090.2 1754.42 
173.531 1091.75 1757.88 
173.823 1092.07 1758.53 
164.072 1091.57 1756.4 
168.977 1091.52 1757.24 
156.188 1087.67 1731.8 
156.696 1087.84 1731.09 
156.504 1087.16 1731.99 
156.124 1085.67 1732.8 
155.931 1055.53 1748.1 
156.586 1055.44 1748.02 
158.495 1054.63 1748.62 
163.972 1052.11 1751.24 
162.722 1051.92 1750.92 
161.161 1051.86 1750.48 
167.222 1050.11 1752.73 
168.201 1052.03 1752.47 
171.352 1052.12 1753.27 
175.685 1057.65 1753.29 
176.12 1062.19 1751.33 
172.634 1062.84 1749.81 
167.686 1062.87 1748.63 
164.988 1062.18 1747.07 
165.114 1063.11 1746.68 
155.506 1055.43 1748.21 
151.082 1055.1 1747.1 
150.688 1055.24 1746.98 
151.463 1055.3 1747.09 
150.472 1055.31 1746.88 
150.327 1055.48 1746.82 
150.374 1055.64 1746.83 
151.801 1055.09 1747.27 
152.579 1055.08 1747.47 
153.823 1055.07 1747.76 
155.085 1054.98 1748.25 
154.763 1054.87 1748.14 
155.36 1054.99 1748.38 
156.056 1054 1748.88 
155.878 1053.9 1748.92 
156.334 1054.61 1748.52 
160.633 1064.06 1743.97 
162.437 1066.23 1744.51 
157.178 1056.54 1747.34 
159.54 1062.05 1744.5 
165.435 1064 1746.56 
163.536 1066.32 1744.69 
163.127 1067.59 1744.4 
151.128 1055.59 1746.82 
150.965 1055.76 1746.81 
150.743 1055.72 1746.79 
149.96 1055.34 1746.62 
149.562 1055.19 1746.55 
149.632 1055.26 1746.57 
150.056 1055.3 1746.71 
149.914 1055.27 1746.67 
150.049 1055.45 1746.7 
149.831 1055.19 1746.66 
151.3 1055.32 1746.86 
152.661 1054.43 1747.52 
150.185 1056.01 1746.76 
154.378 1054.56 1748.1 
154.527 1054.59 1748.16 
154.23 1054.89 1747.91 
153.08 1054.71 1747.65 
152.041 1054.24 1747.46 
152.616 1054.32 1747.61 
152.856 1054.51 1747.63 
154.907 1054.05 1748.59 
154.883 1054.59 1748.33 
155.449 1053.84 1748.87 
155.737 1053.82 1748.96 
155.152 1053.92 1748.77 
121.636 1130.94 1712.07 
121.678 1130.44 1712.77 
121.493 1130.74 1712.33 
121.807 1130.58 1712.6 
121.897 1130.99 1712.08 
23.2177 1071.2 1773.4 
19.3391 1066.98 1776.72 
21.2147 1068.47 1774.89 
24.2793 1074.89 1774.39 
19.5502 1059.1 1774.42 
19.3208 1065.06 1776.76 
143.836 987.251 1810.4 
143.65 986.194 1811.11 
143.522 986.015 1811.57 
139.092 984.591 1813.06 
138.82 983.534 1812.62 
136.786 983.218 1810.72 
139.448 982.963 1812.88 
135.118 983.649 1809.67 
134.224 983.626 1808.86 
138.526 982.766 1810.96 
139.951 983.457 1813.62 
140.231 983.283 1814.18 
140.23 983.438 1814.54 
139.699 984.297 1814.45 
139.382 984.38 1814.42 
131.054 965.564 1837.76 
133.672 962.697 1837.39 
132.914 961.754 1836.66 
131.929 962.035 1836.52 
130.164 960.157 1837.91 
130.718 962.337 1836.59 
130.246 961.782 1837.01 
131.188 962.75 1836.25 
127.492 956.584 1840.47 
127.275 954.918 1842.02 
129.481 952.404 1845.12 
126.631 952.199 1845.03 
127.221 954.166 1842.74 
128.462 948.06 1849.51 
129.568 965.536 1836.78 
129.553 965.67 1836.52 
128.99 965.312 1835.66 
129.137 965.429 1836.03 
128.841 965.026 1835.75 
137 977.232 1821.19 
137.056 978.126 1819.96 
139.352 976.394 1821.87 
139.503 976.025 1822.12 
133.578 972.914 1827.89 
128.7 965.261 1834.34 
128.977 966.33 1834.82 
128.782 967.117 1834.1 
128.632 968.033 1834.23 
128.777 966.595 1833.25 
128.577 966.427 1833.02 
129.018 967.396 1831.87 
129.102 967.91 1831.92 
129.004 967.36 1832.21 
130.748 971.585 1825.89 
135.061 977.129 1819.11 
133.926 976.934 1818.36 
131.983 974.628 1821.18 
135.835 977.268 1819.63 
130.164 968.272 1833.41 
128.535 969.312 1829.24 
127.753 967.959 1830.52 
128.271 966.131 1832.94 
129.035 966.794 1834.42 
129.16 969.231 1831.99 
128.48 969.336 1832.54 
128.56 968.801 1833.33 
128.415 968.357 1833.82 
129.191 968.523 1831.88 
129.13 968.289 1831.83 
134.11 973.333 1827.4 
166.944 1020.74 1769.67 
166.754 1020.03 1772.2 
166.808 1020.75 1770.86 
166.917 1021.12 1770.22 
166.989 1018.99 1771.12 
166.803 1020 1770.22 
166.972 1018.21 1771.97 
166.352 1016.63 1773.72 
166.818 1017.81 1772.83 
166.928 1018.21 1772.19 
145.9 1025.15 1740.37 
145.37 1024.87 1739.47 
172.165 1091.08 1754.8 
174.203 1089.9 1754.21 
174.013 1091.38 1756.53 
173.779 1089.69 1752.9 
174.136 1090.54 1756.18 
174.519 1089.51 1752.78 
174.529 1090.86 1756.45 
173.171 1091.63 1756.2 
173.655 1092.19 1756.79 
156.898 1087.72 1731.4 
157.487 1086.9 1731.74 
157.235 1087.39 1731.59 
156.314 1054.88 1748.47 
155.95 1054.8 1748.59 
158.821 1054.05 1748.94 
157.015 1054.61 1748.65 
164.299 1051.34 1751.78 
166.198 1049.39 1752.49 
163.431 1051.27 1751.45 
162.04 1051.11 1751.01 
160.45 1051.74 1750.28 
170.612 1049.07 1753.61 
169.762 1048.23 1753.44 
173.404 1051.9 1754.23 
178.008 1056.88 1754.64 
178.888 1059.02 1754.46 
178.906 1057.89 1754.72 
179.124 1060.21 1753.66 
177.329 1062.22 1751.87 
177.362 1064.39 1750.09 
175.939 1065.16 1749.64 
177.208 1064.92 1749.47 
171.114 1064.21 1748.88 
174.614 1065.49 1749.62 
167.588 1063.95 1748.35 
155.76 1054.75 1748.6 
151.031 1055.02 1747.06 
150.575 1055.12 1746.94 
151.506 1055.15 1747.06 
150.235 1055.33 1746.78 
150.375 1055.2 1746.85 
151.837 1054.82 1747.33 
153.396 1054.82 1747.69 
155.123 1054.52 1748.48 
155.613 1054.63 1748.65 
155.34 1054.43 1748.64 
156.172 1053.95 1749.03 
156.333 1054.05 1748.99 
156.005 1053.87 1749.07 
157.155 1054.85 1748.71 
162.933 1065.91 1745.25 
164.947 1068.26 1745.84 
164.577 1068.5 1745.31 
161.815 1063.61 1745.84 
165.888 1064.86 1746.69 
164.413 1067.93 1745.03 
164.506 1068.6 1744.98 
150.868 1055.41 1746.79 
151.01 1055.19 1746.8 
150.648 1055.34 1746.77 
149.877 1055.11 1746.64 
150.446 1055.25 1746.75 
149.651 1055.04 1746.61 
149.615 1054.95 1746.6 
149.707 1055.12 1746.62 
150.265 1055.17 1746.82 
150.105 1055.18 1746.76 
150.072 1055.08 1746.77 
149.91 1055.04 1746.72 
151.674 1055.06 1746.99 
151.133 1054.94 1746.81 
151.567 1054.88 1746.94 
152.417 1054.52 1747.32 
152.026 1053.98 1747.49 
151.852 1054.54 1747.38 
151.791 1054.18 1747.26 
151.541 1054.53 1747.09 
151.568 1054.71 1747.12 
155.396 1053.79 1748.96 
155.655 1053.72 1749.03 
121.276 1130.98 1711.99 
121.406 1130.67 1712.43 
121.469 1130.78 1712.31 
121.431 1131.03 1711.98 
22.6496 1071.53 1773.94 
18.3642 1066.85 1777.59 
21.1282 1069.34 1774.93 
23.858 1074.84 1775.37 
18.7944 1058.48 1776.86 
18.6382 1063.78 1777.43 
18.1435 1066.4 1778.27 
143.808 986.994 1810.89 
143.664 986.31 1811.65 
143.779 986.933 1811.46 
139.347 984.59 1813.33 
135.032 983.383 1809.14 
139.476 984.608 1813.66 
139.496 984.577 1813.93 
139.41 984.486 1814.1 
130.942 965.156 1837.82 
133.196 963.041 1836.98 
132.634 962.734 1836.23 
131.966 962.807 1835.97 
128.72 959.608 1838.47 
130.028 962.454 1836.7 
130.291 962.874 1836.38 
128.6 960.726 1837.95 
130.946 963.39 1835.95 
130.4 963.271 1836.13 
126.507 956.383 1840.69 
126.377 955.238 1841.7 
123.826 952.622 1844.85 
125.275 952.47 1844.68 
124.376 949.721 1847.82 
125.436 946.389 1851.07 
129.278 965.292 1836.56 
129.085 965.276 1836.15 
128.854 964.831 1835.87 
128.78 967.42 1833.87 
128.932 967.057 1833 
128.612 968.016 1833.98 
129.042 967.664 1832.38 
129.648 970.619 1827.12 
129.209 971.456 1825.82 
127.518 968.349 1830.23 
128.925 969.018 1832.15 
127.4 969.266 1832.66 
127.841 969.642 1832.15 
128.16 968.439 1833.78 
128.46 968.343 1833.83 
129.041 968.136 1832.33 
129.05 967.936 1832.31 
166.867 1020.64 1770.11 
166.879 1019.51 1772.28 
166.937 1019.6 1771.17 
166.342 1016.66 1773.91 
166.756 1017.91 1773.14 
166.897 1018.35 1772.67 
166.915 1018.37 1772.33 
174.987 1089.61 1754.57 
174.666 1089.58 1754.18 
174.121 1089.36 1752.82 
174.677 1090.15 1756.16 
175.448 1089.3 1753.16 
175.048 1090.31 1756.36 
174.536 1088.93 1751.81 
159.093 1053.6 1749.24 
158.948 1053.32 1749.38 
164.075 1051.1 1752.45 
165.179 1049.81 1752.15 
168.15 1047.65 1752.89 
162.702 1050.94 1751.33 
163.756 1051.07 1751.8 
161.495 1050.75 1750.95 
160.39 1051.5 1750.32 
171.902 1049.59 1754.07 
170.815 1048.62 1753.68 
170.35 1048.13 1753.57 
175.647 1052.85 1755.07 
178.11 1056.32 1754.83 
181.481 1057.41 1755.36 
182.166 1058.11 1755.17 
180.628 1059.12 1754.28 
180.74 1059.8 1753.81 
179.694 1059.86 1753.95 
181.775 1058.83 1754.74 
179.946 1060.65 1753.93 
179.33 1060.82 1753.49 
178.2 1062.14 1752.35 
177.585 1064.49 1750.24 
175.828 1065.84 1749.44 
176.985 1065.44 1749.27 
177.705 1064.98 1749.29 
169.026 1065.02 1748.63 
172.561 1066.91 1748.68 
173.883 1067.07 1749.31 
174.919 1066.2 1749.53 
167.854 1065.34 1748.36 
151.016 1054.93 1747.04 
150.493 1055.07 1746.92 
151.547 1054.96 1747.08 
155.566 1054.26 1748.83 
155.864 1053.74 1749.13 
160.581 1059.31 1748.52 
157.655 1053.75 1749.31 
165.163 1067.28 1746.68 
165.372 1068.06 1746.4 
165.581 1068.75 1746.14 
164.878 1068.85 1745.35 
165.024 1066.49 1747.1 
166.287 1065.93 1746.92 
166.299 1067.09 1746.91 
150.765 1055.02 1746.78 
150.908 1054.78 1746.79 
150.534 1054.92 1746.76 
149.807 1054.88 1746.65 
150.269 1054.89 1746.73 
149.673 1054.79 1746.65 
149.792 1054.97 1746.68 
149.748 1054.87 1746.68 
150.418 1055.03 1746.9 
150.225 1055.08 1746.82 
150.376 1054.94 1746.9 
150.241 1054.96 1746.85 
150.147 1054.93 1746.82 
149.999 1054.89 1746.78 
151.085 1054.49 1746.82 
151.213 1054.69 1746.82 
151.554 1054.45 1746.99 
152.193 1054.48 1747.19 
151.014 1054.83 1747.02 
150.974 1054.72 1747.02 
155.665 1053.64 1749.16 
148.959 1026.4 1734.83 
121.16 1130.94 1712.05 
121.075 1130.95 1712.05 
22.3476 1071.73 1774.31 
21.9724 1071.62 1776.14 
22.1095 1071.64 1774.82 
21.9724 1071.62 1776.14 
18.2735 1064.21 1778.78 
18.1253 1065.78 1778.73 
131.647 964.738 1838.23 
129.809 965.197 1837.64 
129.432 965.198 1837.12 
131.638 964.285 1837 
130.531 964.332 1836.7 
130.763 963.894 1836.09 
126.22 956.98 1840.37 
126.537 957.875 1839.85 
129.589 963.013 1836.51 
129.408 962.568 1836.85 
129.603 963.437 1836.26 
127.792 960.564 1838.3 
125.941 957.64 1840.03 
129.615 963.786 1836.14 
129.667 964.125 1836.29 
125.826 955.508 1841.48 
124.21 953.045 1844.32 
121.173 949.212 1848.71 
123.862 950.962 1846.63 
118.472 951.277 1848.46 
118.895 952.563 1846.21 
121.517 953.444 1843.86 
122.867 953.713 1843.19 
123.18 953.815 1843.96 
119.763 947.508 1850.46 
119.523 946.214 1851.5 
129.163 965.044 1836.75 
128.964 964.935 1836.29 
128.93 964.977 1836.14 
128.988 964.713 1836.01 
128.802 967.659 1833.58 
128.962 967.348 1832.92 
128.606 968.198 1833.67 
127.348 968.754 1829.88 
128.88 968.904 1832.34 
126.993 969.617 1832.2 
127.153 969.058 1832.95 
127.093 969.031 1833.08 
126.862 969.477 1832.5 
127.079 969.738 1832.08 
128.016 969.534 1832.35 
128.122 968.315 1833.94 
128.247 968.339 1833.97 
128.362 968.454 1833.73 
128.993 968.24 1832.51 
128.76 968.121 1833.18 
128.994 967.77 1832.66 
166.934 1019.36 1772.6 
166.326 1016.64 1774.11 
166.799 1017.87 1773.32 
166.963 1018.41 1772.99 
167.035 1019.28 1772.9 
175.614 1089.29 1753.81 
175.531 1089.4 1754.37 
175.035 1089.33 1753.82 
174.791 1089.13 1753.04 
175.436 1089.68 1756.05 
175.763 1089.28 1754.62 
176.326 1089.01 1753.22 
175.665 1089.01 1752.87 
159.086 1052.75 1749.58 
164.138 1050.49 1753.34 
163.83 1050.76 1752.84 
165.443 1049.06 1752.55 
167.929 1047.45 1752.76 
170.542 1047.9 1753.6 
169.824 1047.51 1753.38 
163.357 1050.83 1751.68 
162.141 1050.66 1751.25 
161.343 1050.52 1750.98 
160.649 1051.08 1750.5 
173.298 1049.23 1755.01 
174.597 1049.68 1755.94 
171.237 1048.47 1753.8 
176.597 1053.38 1755.4 
178.342 1056.1 1755.01 
180.885 1056.97 1755.42 
185.002 1059.17 1754.69 
184.801 1059.87 1754.28 
184.037 1059.78 1754.48 
182.985 1060.44 1753.73 
181.112 1060.68 1753.56 
182.664 1060.95 1753.46 
180.385 1060.47 1754 
180.069 1061.2 1753.89 
180.385 1061.15 1753.76 
179.837 1061.42 1753.71 
178.47 1062.61 1752.35 
177.73 1064.5 1750.34 
175.519 1066.39 1749.35 
176.587 1065.9 1749.19 
177.532 1065.46 1749.07 
177.976 1065.22 1749.17 
177.733 1064.84 1749.38 
169.29 1067.01 1748.57 
168.469 1066.59 1748.62 
170.601 1068.98 1748.4 
169.06 1068.97 1748.42 
170.545 1069.47 1748.47 
171.663 1070.35 1748.08 
173.714 1068.97 1748.78 
167.997 1066.62 1748.49 
163.958 1063.28 1748.7 
159.417 1055.87 1749.3 
158.917 1052.43 1749.69 
167.12 1068.4 1747.92 
166.185 1068.57 1746.9 
166.614 1068.56 1747.27 
166.07 1068.79 1746.54 
165.125 1069 1745.47 
166.103 1068.09 1746.7 
167.37 1068.24 1748.31 
167.934 1067.19 1748.6 
150.672 1054.62 1746.77 
150.961 1054.37 1746.83 
150.383 1054.59 1746.74 
149.724 1054.62 1746.67 
150.042 1054.63 1746.71 
149.68 1054.64 1746.68 
150.258 1054.38 1746.76 
149.801 1054.72 1746.72 
149.79 1054.59 1746.73 
149.888 1054.82 1746.75 
150.368 1054.81 1746.93 
150.261 1054.75 1746.9 
150.105 1054.73 1746.85 
151.012 1054.59 1747 
150.74 1054.41 1747.04 
150.875 1054.51 1747.05 
147.758 1025.94 1735.04 
147.882 1027.06 1733.31 
147.297 1026.6 1733.94 
21.9192 1071.47 1776.15 
129.308 964.968 1837.21 
129.078 964.565 1836.95 
128.977 964.677 1836.67 
125.456 956.123 1840.98 
129.043 963.028 1836.73 
129.154 963.338 1836.52 
128.822 962.765 1836.96 
128.043 961.595 1837.85 
129.131 963.766 1836.37 
129.067 963.585 1836.46 
125.149 958.858 1840.11 
124.708 958.202 1840.53 
125.391 957.181 1840.33 
129 964.174 1836.56 
124.093 953.394 1844.3 
123.306 953.759 1844.77 
117.672 954.511 1844.48 
121.416 953.8 1842.41 
123.301 954.328 1842.49 
123.571 954.524 1842.85 
123.535 954.283 1843.74 
128.922 964.82 1836.46 
129.058 964.701 1836.13 
128.983 964.888 1836.34 
129.088 964.726 1836.22 
128.822 967.859 1833.38 
128.751 968.851 1832.57 
126.705 969.828 1831.96 
127.649 968.538 1833.66 
127.048 969.099 1833.11 
127.357 968.516 1833.76 
127.252 968.705 1833.61 
126.83 969.521 1832.56 
126.691 969.847 1832.04 
127.539 969.59 1832.35 
126.807 969.794 1832.08 
128.12 968.413 1833.92 
128.012 968.319 1834.01 
128.353 968.538 1833.56 
128.128 968.516 1833.76 
128.636 968.382 1833.14 
166.302 1016.56 1774.33 
166.775 1017.69 1773.56 
166.998 1018.19 1773.37 
167.055 1018.47 1773.18 
167.163 1019.22 1773.21 
175.939 1089.13 1754.11 
175.909 1089.18 1755.74 
176.493 1088.89 1754.01 
163.703 1050.35 1753.84 
163.928 1050.19 1754.29 
164.57 1049.43 1753.72 
163.599 1050.53 1752.73 
167.298 1048.34 1754.57 
168.472 1047.14 1753.19 
170.492 1047.15 1753.51 
171.228 1047.73 1753.8 
162.295 1050.47 1751.4 
163.334 1050.57 1751.92 
161.424 1050.29 1751.12 
161.195 1050.45 1750.87 
160.046 1051.27 1750.27 
173.079 1048.75 1754.76 
174.408 1049.2 1756.19 
174.076 1049.15 1755.78 
175.024 1049.11 1756.63 
175.348 1050.1 1756.47 
175.163 1047.49 1756.98 
175.021 1046.94 1756.66 
177.111 1053.58 1755.52 
179.946 1056.47 1755.61 
180.314 1056.7 1755.49 
182.455 1056.89 1755.79 
185.41 1059.34 1754.44 
184.328 1060.87 1753.64 
183.984 1060.69 1753.69 
183.943 1061.08 1753.54 
183.511 1061.11 1753.48 
181.423 1061.7 1753.23 
182.49 1061.66 1753.24 
183.056 1061.57 1753.32 
180.268 1061.49 1753.77 
180.864 1061.99 1753.37 
181.458 1062.27 1753.08 
179.874 1061.7 1753.89 
180.205 1061.74 1753.83 
179.191 1062.1 1753.15 
177.862 1064.51 1750.35 
175.173 1066.82 1749.3 
176.17 1066.34 1749.11 
177.203 1065.89 1748.95 
177.907 1065.6 1748.98 
178.2 1065.22 1749.18 
177.856 1064.78 1749.41 
177.754 1064.81 1749.43 
168.477 1067.4 1748.66 
168.321 1068.2 1748.58 
168.453 1069.64 1748.35 
168.203 1068.81 1748.5 
171.577 1072.05 1747.16 
173.741 1073.77 1746.73 
173.803 1073.36 1746.8 
169.025 1071.06 1747.67 
169.529 1072.25 1746.77 
174.519 1068.27 1749.27 
173.073 1070.99 1747.85 
167.602 1067.96 1748.61 
164.833 1063.29 1748.98 
158.577 1053.09 1749.61 
162.693 1059.41 1749.28 
167.725 1068.02 1748.64 
167.755 1068.35 1748.61 
167.785 1068.29 1748.62 
167.76 1067.81 1748.65 
165.563 1068.94 1745.86 
167.533 1067.78 1748.54 
167.705 1068.51 1748.58 
150.677 1054.32 1746.82 
151.094 1054.1 1746.95 
150.647 1054.16 1746.88 
150.175 1054.21 1746.82 
149.719 1054.37 1746.71 
149.745 1054.45 1746.74 
150.664 1053.94 1746.98 
149.9 1054.56 1746.79 
149.924 1054.68 1746.79 
149.857 1054.41 1746.81 
150.053 1054.65 1746.85 
150.595 1054.32 1747.05 
147.069 1025.99 1734.8 
147.151 1026.96 1733.01 
146.758 1026.55 1733.53 
128.862 964.677 1836.47 
128.81 964.409 1836.5 
124.991 955.71 1841.57 
123.847 953.476 1844.47 
128.517 962.92 1837.04 
128.686 963.246 1836.79 
128.698 963.551 1836.65 
127.61 961.689 1838.1 
126.581 960.835 1839.06 
128.74 964.041 1836.52 
128.681 963.816 1836.58 
124.558 958.601 1841.66 
124.022 958.593 1840.79 
123.852 958.277 1841.09 
124.372 957.38 1841.63 
123.952 957.584 1842.15 
124.1 957.547 1842.05 
124.758 955.762 1841.72 
128.784 964.33 1836.55 
123.422 953.84 1845.19 
123.655 954.377 1844.09 
119.232 955.8 1842.48 
121.592 954.362 1841.8 
123.687 954.996 1841.86 
123.786 955.079 1842.72 
123.672 955.602 1841.74 
128.972 964.885 1836.45 
129.115 964.761 1836.32 
128.265 968.914 1833 
127.711 968.334 1833.93 
127.193 968.757 1833.64 
126.975 969.221 1833.06 
127.607 968.215 1834.09 
127.371 968.354 1833.99 
127.422 968.149 1834.14 
127.273 968.485 1833.88 
126.759 969.636 1832.54 
126.661 969.869 1832.13 
126.773 969.842 1832.16 
127.145 969.662 1832.29 
126.914 969.742 1832.24 
127.81 968.448 1833.94 
127.757 968.312 1834.05 
128.18 968.634 1833.52 
127.88 968.593 1833.75 
166.381 1016.5 1774.57 
166.787 1017.55 1773.81 
167.117 1018.14 1773.59 
167.317 1018.82 1773.47 
163.471 1049.78 1755.02 
163.506 1050.11 1753.87 
163.661 1050 1754.92 
164.043 1049.62 1755.04 
165.001 1048.97 1756.74 
163.319 1050.14 1753.07 
171.182 1048.84 1755.35 
171.007 1049.49 1756.01 
171.856 1048.19 1754.82 
172.816 1048.22 1754.91 
173.151 1048.37 1754.84 
163.102 1050.33 1751.92 
162.123 1050.2 1751.46 
161.444 1050.07 1751.23 
161.245 1050.24 1750.99 
160.8 1050.57 1750.64 
158.931 1051.84 1749.92 
173.805 1048.93 1755.5 
173.953 1049.03 1755.83 
174.93 1047.44 1756.49 
174.29 1049 1756.2 
174.748 1047.5 1756.33 
173.856 1048.92 1755.63 
175.758 1050.64 1756.42 
175.321 1048.21 1757.34 
175.264 1045.99 1756.76 
175.203 1044.83 1756.58 
175.116 1045.44 1756.42 
175.03 1044.83 1756.44 
174.969 1045.18 1756.22 
177.477 1053.72 1755.62 
179.847 1056.33 1755.83 
182.291 1056.71 1755.94 
185.701 1059.21 1754.42 
184.305 1061.19 1753.54 
183.674 1061.95 1753.3 
183.532 1061.53 1753.38 
183.499 1061.97 1753.27 
182.475 1062.13 1753.11 
183.172 1061.89 1753.24 
181.386 1062.86 1752.95 
181.411 1062.62 1753.02 
181.833 1062.83 1752.87 
180.016 1062.02 1754 
181.012 1062.57 1753.3 
181.411 1063.15 1752.81 
178.126 1064.07 1750.91 
179.739 1062.05 1753.99 
175.593 1066.81 1749.11 
176.666 1066.4 1748.88 
177.616 1065.99 1748.79 
178.114 1065.89 1748.84 
178.39 1065.56 1749 
178.324 1065.16 1749.22 
177.865 1064.66 1749.49 
177.82 1064.77 1749.47 
167.926 1068.05 1748.63 
167.893 1068.48 1748.58 
168.19 1069.83 1748.28 
168.06 1068.96 1748.46 
167.858 1068.62 1748.54 
173.076 1073.5 1746.82 
173.882 1074.11 1746.68 
174.022 1073.76 1746.73 
173.917 1073.01 1746.85 
174.167 1073.45 1746.77 
169.067 1072.31 1746.72 
168.577 1071.2 1747.65 
170.741 1072.31 1746.9 
169.098 1072.66 1746.44 
168.874 1072.66 1746.53 
174.661 1068.45 1749.09 
173.294 1070.83 1747.87 
168.141 1068.66 1748.49 
167.78 1067.25 1748.64 
164.828 1061.83 1749.11 
161.219 1056.28 1749.56 
167.801 1068.49 1748.57 
167.725 1068.71 1748.54 
167.488 1068.98 1748.52 
151.141 1053.88 1747.05 
151.034 1053.77 1747.08 
150.336 1053.89 1746.94 
150.826 1053.65 1747.11 
149.678 1054.16 1746.75 
149.668 1054.32 1746.79 
149.772 1054.29 1746.85 
150.493 1053.87 1747.05 
150.024 1054.52 1746.85 
149.961 1054.41 1746.86 
150.459 1054.24 1747.03 
146.303 1025.63 1734.17 
146.464 1026.17 1733.97 
145.95 1026.33 1732.92 
144.96 1024.49 1730.98 
145.805 1025.98 1733.24 
128.864 964.63 1836.58 
128.971 964.854 1836.56 
123.699 953.564 1844.51 
123.292 953.763 1845.43 
128.312 963.08 1837.08 
127.136 962.166 1838.4 
128.393 963.403 1836.88 
128.543 963.797 1836.7 
128.472 963.668 1836.79 
126.108 960.55 1839.6 
127.545 961.686 1838.18 
128.783 964.313 1836.65 
128.63 964.04 1836.64 
124.103 958.906 1841.43 
123.506 958.422 1841.09 
123.824 957.562 1842.3 
124.461 956.59 1841.83 
124.035 956.737 1843 
124.012 956.916 1842.93 
124.084 956.73 1842.83 
124.04 956.826 1843.05 
124.021 956.943 1843.01 
123.635 953.673 1844.47 
128.869 964.594 1836.68 
123.594 954.034 1845.47 
123.744 954.418 1844.6 
123.843 955.111 1843.57 
120.747 956.146 1841.63 
121.87 955.291 1841.33 
123.875 955.91 1842.54 
123.705 956.042 1842 
122.127 956.281 1840.96 
123.463 956.257 1841.43 
129.135 964.801 1836.42 
127.984 969.136 1832.94 
127.956 968.743 1833.45 
127.094 968.914 1833.53 
127.172 968.44 1833.86 
127.102 968.635 1833.71 
126.939 969.27 1833.13 
127.513 968.105 1834.19 
127.511 968.232 1834.12 
127.284 968.201 1834.05 
127.214 968.093 1834.05 
127.351 968.105 1834.1 
126.772 969.585 1832.77 
126.618 969.918 1832.23 
126.672 969.924 1832.15 
126.825 969.835 1832.31 
126.915 969.76 1832.32 
127.117 969.625 1832.39 
127.068 969.661 1832.45 
127.505 968.511 1833.92 
127.419 968.371 1834 
127.606 968.667 1833.75 
167.005 1017.58 1774.01 
166.61 1016.56 1774.87 
167.433 1018.45 1773.8 
163.383 1049.77 1754.32 
163.441 1049.63 1755.8 
163.119 1049.53 1755.28 
162.957 1049.48 1755.89 
162.828 1048.98 1756.84 
164.468 1048.45 1758.62 
167.116 1048.42 1758.8 
171.312 1049.86 1756.35 
171.316 1049.5 1756.75 
160.779 1049.46 1757.23 
162.116 1048.59 1757.99 
163.044 1049.55 1754.24 
163.081 1049.92 1752.94 
173.211 1049.21 1755.89 
172.902 1049.42 1756.15 
173.27 1049.08 1755.64 
162.761 1050.07 1751.86 
161.67 1049.87 1751.43 
161.317 1050.01 1751.13 
161.107 1050.18 1750.87 
160.136 1050.73 1750.43 
159.436 1052.28 1749.96 
173.672 1048.99 1755.7 
173.796 1048.87 1755.82 
173.744 1048.87 1755.65 
174.833 1044.97 1756.26 
174.593 1047.55 1756.21 
174.085 1048.83 1756.1 
174.64 1045.08 1756.18 
176.2 1050.71 1756.51 
175.443 1048.61 1757.6 
175.56 1046.15 1757.01 
175.511 1045.28 1756.72 
175.429 1044.72 1756.73 
174.688 1044.13 1757.61 
174.204 1044.02 1757.28 
174.923 1044.62 1756.64 
177.639 1053.48 1755.9 
179.678 1056.17 1756.05 
182.131 1056.59 1756.15 
184.876 1057.66 1755.53 
187.833 1060.55 1752.83 
186.487 1059.25 1754.45 
185.651 1060.39 1753.79 
184.626 1060.93 1753.61 
183.923 1062.25 1753.26 
183.657 1062.44 1753.18 
183.448 1062.5 1753.13 
183.298 1062.2 1753.18 
183.205 1062.69 1753.04 
182.788 1062.36 1753.08 
183.021 1062.6 1753.04 
180.459 1062.54 1753.73 
180.581 1062.72 1753.52 
181.787 1062.03 1753.46 
181.91 1063.45 1752.55 
181.63 1063.78 1752.41 
182.507 1063.04 1752.79 
179.274 1062.3 1753.22 
178.255 1064.29 1750.57 
180.345 1062.34 1753.97 
175.932 1066.94 1748.9 
177.277 1066.38 1748.66 
177.926 1066.25 1748.66 
178.523 1065.96 1748.81 
178.714 1065.6 1748.99 
178.627 1065.29 1749.16 
178.218 1064.9 1749.36 
177.901 1064.55 1749.56 
177.88 1064.75 1749.5 
167.817 1069.13 1748.44 
167.93 1069.79 1748.29 
167.766 1068.86 1748.5 
173.598 1074.26 1746.63 
173.735 1074.21 1746.64 
171.777 1073.26 1746.81 
174.137 1074.25 1746.67 
174.162 1073.97 1746.71 
174.027 1074.13 1746.64 
174.333 1073.67 1746.75 
174.039 1072.65 1746.9 
174.278 1073.15 1746.81 
174.512 1073.36 1746.79 
168.805 1072.41 1746.75 
168.705 1072.73 1746.62 
168.18 1071.37 1747.7 
168.638 1072.29 1746.88 
167.87 1070.3 1748.24 
169.007 1072.92 1746.46 
168.825 1072.94 1746.48 
168.65 1073 1746.55 
174.742 1068.54 1748.91 
173.449 1070.67 1747.86 
168.83 1068.95 1748.34 
168.994 1068.47 1748.39 
168.207 1067.05 1748.61 
162.357 1057.04 1749.49 
165.354 1061.68 1749.07 
167.464 1069.19 1748.48 
150.531 1054.02 1747.06 
150.637 1053.49 1747.06 
150.704 1053.57 1747.13 
149.527 1054.07 1746.74 
150.238 1053.51 1746.89 
149.643 1054.2 1746.86 
149.525 1054.12 1746.87 
150.209 1053.71 1746.99 
144.752 1024.03 1731.5 
145.508 1025.39 1733.33 
145.18 1025.82 1732.48 
145.481 1026.14 1732.08 
145.026 1024.31 1730.74 
145.004 1025.42 1732.67 
129 964.763 1836.71 
129.156 964.819 1836.52 
123.289 953.888 1845.39 
128.063 963.201 1837.16 
127.117 962.633 1838.34 
128.247 963.537 1836.98 
128.435 963.859 1836.84 
128.533 963.996 1836.75 
128.872 964.593 1836.8 
128.71 964.304 1836.77 
123.636 958.266 1841.9 
123.638 957.584 1842.4 
123.981 957.002 1843.08 
124.351 956.025 1842.26 
124.053 956.525 1842.95 
124.067 956.471 1843.22 
124.074 956.657 1843.19 
124.286 956.679 1842.6 
124.074 956.794 1843.22 
124.031 956.596 1843.32 
123.581 953.74 1844.35 
123.324 953.92 1845.15 
123.373 953.993 1845.39 
128.991 964.792 1836.77 
123.859 954.694 1845.25 
123.528 954.056 1845.56 
123.885 955.15 1844.26 
123.958 956.068 1843.03 
118.433 959.177 1840.36 
123.39 957.092 1842.67 
123.635 956.95 1842.87 
123.129 957.29 1842.42 
121.885 957.574 1840.74 
119.421 960.041 1840.42 
121.666 958.469 1841.32 
127.852 969.205 1832.92 
127.884 968.868 1833.32 
127.627 968.807 1833.53 
127.003 968.792 1833.58 
126.972 969.039 1833.42 
127.048 968.402 1833.83 
127.159 968.233 1833.98 
126.951 968.582 1833.68 
126.889 969.278 1833.23 
127.284 968.252 1833.99 
127.112 968.104 1834.01 
127.191 968.117 1834 
127.031 968.122 1833.9 
126.944 968.107 1833.89 
126.748 969.609 1832.86 
126.589 969.975 1832.28 
126.692 969.935 1832.26 
126.816 969.864 1832.4 
126.954 969.772 1832.51 
126.997 969.725 1832.47 
127.223 969.558 1832.55 
127.187 969.599 1832.62 
127.273 968.621 1833.82 
127.208 968.501 1833.84 
127.143 968.381 1833.85 
127.323 968.763 1833.72 
167.091 1017.32 1774.44 
167.655 1018.2 1774.11 
167.224 1016.83 1775.55 
162.642 1049.34 1755.14 
162.377 1048.98 1756.68 
160.951 1049.59 1756.28 
162.398 1049.31 1755.75 
160.216 1049.74 1756.75 
163.465 1047.89 1758.78 
164.646 1048.19 1759.27 
166.105 1048.16 1759.53 
166.978 1048.13 1759.29 
170.933 1049.1 1757.16 
167.748 1048.34 1758.71 
173.166 1049.27 1756.3 
159.704 1049.3 1756.62 
160.998 1048.98 1757.61 
162.698 1047.99 1758.54 
162.898 1049.49 1753.8 
162.394 1049.22 1754.67 
162.817 1049.66 1752.84 
173.455 1049.14 1756.02 
162.533 1049.81 1751.89 
161.639 1049.64 1751.52 
161.385 1049.8 1751.26 
161.165 1049.97 1751 
160.535 1050.32 1750.63 
160.338 1053.11 1749.86 
173.646 1048.93 1755.79 
173.671 1048.78 1755.89 
173.557 1048.95 1755.95 
174.704 1044.65 1756.46 
174.415 1047.62 1756.09 
174.477 1045.24 1756.08 
173.849 1048.65 1755.97 
174.459 1044.58 1756.36 
176.388 1051.12 1756.8 
175.508 1048.83 1757.94 
175.133 1044.5 1758.2 
175.149 1044.26 1757.82 
175.116 1044.16 1757.77 
175.05 1044.15 1757.78 
173.398 1043.73 1757.64 
173.288 1043.79 1757.56 
174.015 1043.94 1757.13 
173.392 1043.71 1757.12 
173.18 1043.27 1757.17 
172.69 1042.54 1757.48 
173.904 1043.85 1757.04 
177.782 1053.51 1756.27 
177.75 1051.97 1756.34 
179.296 1055.86 1756.28 
181.244 1056.5 1756.33 
185.03 1057.36 1755.71 
182.739 1056.48 1756.31 
188.215 1060.57 1752.72 
185.916 1060.55 1753.63 
184.698 1061.09 1753.56 
183.992 1062.6 1753.18 
183.659 1062.93 1753.06 
183.418 1062.96 1753.01 
183.181 1062.96 1752.95 
182.798 1063.05 1752.83 
182.208 1061.32 1753.85 
182.227 1063.1 1752.74 
180.075 1062.34 1753.89 
179.424 1063.12 1752.61 
182.563 1060.74 1754.18 
176.608 1066.87 1748.65 
175.844 1067.31 1748.77 
177.455 1066.6 1748.5 
177.856 1066.63 1748.47 
178.345 1066.33 1748.62 
178.893 1066.07 1748.76 
179.023 1065.7 1748.95 
178.83 1065.32 1749.15 
178.37 1064.89 1749.37 
178.008 1064.47 1749.6 
177.928 1064.55 1749.59 
177.944 1064.75 1749.52 
167.597 1069.66 1748.38 
167.495 1069.35 1748.44 
173.646 1074.36 1746.58 
173.779 1074.32 1746.61 
173.295 1074.35 1746.82 
170.823 1073.33 1746.77 
174.382 1074.33 1746.67 
174.417 1073.99 1746.72 
174.181 1074.45 1746.61 
173.816 1074.41 1746.57 
173.989 1074.48 1746.57 
174.614 1073.68 1746.76 
173.738 1070.7 1747.86 
174.189 1072.36 1746.93 
174.398 1072.82 1746.85 
174.562 1073.02 1746.83 
174.821 1073.34 1746.81 
174.772 1073.13 1746.83 
168.486 1072.67 1746.75 
168.463 1073.02 1746.62 
167.866 1071.56 1747.7 
168.403 1072.36 1746.93 
167.683 1070.51 1748.27 
168.858 1073.12 1746.72 
168.941 1073.22 1746.84 
169.915 1073.31 1746.77 
168.64 1073.2 1746.75 
168.391 1073.25 1746.75 
174.935 1068.26 1748.72 
174.432 1069.63 1748.71 
167.918 1069.51 1748.36 
169.801 1068.82 1748.21 
169.38 1068.23 1748.35 
168.684 1066.98 1748.58 
163.285 1057.49 1749.4 
166.236 1062.1 1748.99 
150.236 1053.51 1746.98 
149.501 1053.88 1746.78 
150.025 1053.46 1746.91 
144.889 1025.24 1732.88 
144.71 1025.1 1733.03 
144.131 1023.29 1729.37 
144.863 1025.8 1732.13 
144.627 1025.57 1732.35 
145.74 1026.04 1731.17 
144.641 1025.34 1732.48 
129.173 964.815 1836.61 
127.946 963.345 1837.24 
127.233 962.9 1838.32 
128.286 963.743 1836.99 
128.41 964.026 1836.95 
128.562 964.181 1836.87 
128.999 964.751 1836.89 
128.77 964.51 1836.91 
123.275 958.224 1841.94 
123.359 957.523 1842.64 
123.827 956.883 1843.08 
124.492 956.82 1842.1 
124.174 955.311 1842.53 
124.056 956.341 1843.05 
124.107 956.336 1842.81 
124.041 955.559 1842.66 
124.043 956.348 1843.46 
124.145 956.573 1843.55 
124.111 956.649 1843.42 
124.134 956.725 1843.43 
124.021 955.931 1844.13 
123.451 953.834 1844.2 
123.539 954.118 1845.37 
123.601 954.171 1845.33 
123.643 954.164 1845.52 
129.186 964.791 1836.74 
123.861 954.532 1845.5 
124.13 956.187 1844.05 
120.943 966.221 1836.05 
122.735 957.714 1842.68 
122.755 962.618 1839.8 
122.598 958.913 1841.38 
127.761 969.212 1832.98 
127.764 968.978 1833.28 
127.533 968.923 1833.45 
127.26 968.866 1833.64 
126.885 968.868 1833.49 
126.824 969.101 1833.32 
127.039 968.163 1833.97 
126.927 968.342 1833.82 
126.794 968.472 1833.68 
126.83 968.675 1833.58 
126.752 969.368 1833.13 
127.059 968.261 1833.85 
126.897 968.115 1833.89 
126.868 968.134 1833.8 
126.828 968.28 1833.71 
126.719 968.135 1833.71 
126.698 968.12 1833.74 
126.695 969.667 1832.88 
126.56 970.016 1832.33 
126.707 969.95 1832.38 
126.886 969.838 1832.55 
127.119 969.66 1832.63 
127.057 969.721 1832.66 
127.327 969.5 1832.7 
127.312 969.533 1832.79 
127.107 968.754 1833.68 
127.013 968.648 1833.67 
126.974 968.511 1833.7 
126.894 968.396 1833.7 
167.913 1018.08 1774.38 
167.585 1017.31 1775.07 
161.77 1049.11 1755.85 
161.818 1049.08 1755.34 
159.902 1049.9 1756.37 
160.507 1049.71 1756.11 
158.283 1051.04 1755.32 
158.421 1049.44 1755.3 
158.1 1050.37 1755.06 
158.99 1049.25 1755.89 
164.836 1047.8 1759.77 
165.052 1047.95 1759.83 
164.539 1047.69 1759.56 
168.216 1048.14 1758.84 
171.402 1048.88 1757.18 
173.043 1049.1 1756.39 
173.34 1049.08 1756.17 
159.653 1048.23 1756.4 
161.231 1048.16 1757.77 
162.466 1049.21 1753.98 
161.69 1049 1754.87 
162.538 1049.3 1753.15 
162.432 1049.56 1752.03 
161.745 1049.41 1751.67 
161.436 1049.58 1751.38 
161.226 1049.76 1751.13 
160.648 1050.05 1750.76 
159.971 1051.88 1750.16 
162.127 1054.88 1749.66 
173.539 1048.67 1755.98 
173.465 1048.9 1756.04 
173.93 1044.35 1756.75 
174.249 1047.42 1755.93 
174.303 1045.45 1755.99 
174.291 1044.73 1756.28 
173.659 1048.49 1755.92 
174.016 1044.1 1756.63 
173.912 1044.23 1756.64 
176.559 1051.21 1757.1 
175.592 1049.13 1758.47 
175.189 1044.44 1758.67 
173.538 1043.19 1758.05 
173.369 1043.45 1757.83 
173.322 1043.62 1757.9 
173.364 1043.69 1757.82 
173.438 1043.64 1757.06 
173.904 1043.85 1757.04 
173.381 1043.46 1757.03 
172.551 1042.05 1757.5 
172.192 1041.55 1757.74 
171.621 1040.68 1758.1 
172.145 1041.73 1757.83 
177.773 1052.94 1756.79 
178.813 1055.26 1756.69 
181.53 1056.41 1756.48 
185.132 1057.03 1755.94 
188.216 1060.34 1752.99 
182.885 1056.4 1756.52 
185.039 1061.22 1753.53 
187.572 1061.05 1752.73 
184.819 1061.2 1753.53 
184.036 1062.88 1753.12 
183.545 1062.9 1753.1 
183.182 1063.21 1752.87 
182.793 1063.22 1752.77 
182.779 1063.2 1752.77 
182.493 1062.63 1753 
182.86 1060.72 1754.21 
179.176 1063.48 1752.31 
181.6 1060.62 1754.93 
182.855 1061.72 1753.49 
176.333 1067.24 1748.56 
177.04 1067.02 1748.4 
175.899 1067.68 1748.56 
177.795 1066.79 1748.33 
178.178 1066.78 1748.4 
178.675 1066.47 1748.56 
179.181 1066.2 1748.69 
179.313 1065.82 1748.89 
179.086 1065.44 1749.1 
178.494 1064.85 1749.4 
178.05 1064.38 1749.66 
177.993 1064.51 1749.63 
178.007 1064.73 1749.56 
167.307 1070.08 1748.34 
167.27 1069.76 1748.4 
167.269 1069.62 1748.43 
173.693 1074.5 1746.55 
173.294 1074.46 1746.79 
172.653 1074.36 1747.14 
174.602 1074.42 1746.67 
174.67 1074.04 1746.72 
174.428 1074.51 1746.61 
174.284 1074.67 1746.6 
174.704 1074.91 1746.66 
173.984 1074.61 1746.57 
174.515 1074.92 1746.66 
174.903 1073.77 1746.76 
174.86 1073.56 1746.78 
174.028 1071.38 1747.17 
173.612 1070.67 1747.55 
173.833 1069.99 1748.36 
174.398 1072.16 1746.94 
174.524 1072.53 1746.89 
174.705 1072.7 1746.87 
174.833 1072.87 1746.86 
174.774 1073.27 1746.94 
174.706 1073.03 1746.97 
168.205 1072.69 1746.85 
168.287 1073 1746.68 
168.234 1073.25 1746.74 
167.605 1071.75 1747.65 
167.98 1072.34 1747.09 
167.417 1070.74 1748.25 
167.267 1071.18 1748.15 
168.164 1072.41 1746.99 
168.589 1073.39 1746.92 
171.602 1075.18 1747.41 
168.739 1073.52 1747.04 
170.406 1074.76 1747.54 
173.701 1075.55 1746.99 
168.326 1073.44 1746.91 
168.074 1073.52 1746.94 
174.702 1068.82 1748.51 
174.27 1069.86 1748.38 
170.232 1069.41 1748.05 
167.462 1069.99 1748.33 
170.117 1068.47 1748.2 
170.49 1068.96 1748.07 
169.875 1067.97 1748.32 
169.242 1066.94 1748.54 
165.239 1059.58 1749.17 
169.436 1066.41 1748.54 
144.514 1025.23 1732.61 
144.411 1023.89 1730.98 
144.421 1025.05 1732.76 
144.663 1025.75 1732.02 
144.429 1025.54 1732.15 
145.294 1025.83 1731.11 
144.348 1025.33 1732.23 
128.073 963.579 1837.26 
127.379 963.085 1838.22 
127.702 963.338 1837.89 
128.255 963.859 1837.14 
128.676 964.367 1837 
128.565 964.186 1837.08 
128.997 964.673 1837.02 
129.217 964.778 1836.92 
124.114 956.127 1842.87 
124.019 956.114 1843.19 
123.757 955.141 1842.83 
124.044 956.23 1843.57 
124.209 956.5 1843.69 
124.326 956.691 1843.69 
124.257 956.71 1843.6 
124.27 956.714 1843.55 
124.23 956.594 1843.67 
123.443 954.053 1844.39 
123.721 954.301 1845.32 
123.842 954.378 1845.59 
123.875 954.46 1845.52 
123.938 954.526 1845.63 
124.222 956.093 1844.27 
124.314 956.408 1843.95 
127.665 969.258 1833 
127.535 969.065 1833.31 
127.291 968.973 1833.52 
127.059 968.858 1833.67 
126.756 968.899 1833.41 
126.695 969.162 1833.23 
126.894 968.129 1833.91 
126.833 968.209 1833.86 
126.706 968.33 1833.73 
126.607 968.54 1833.57 
126.693 968.687 1833.51 
126.598 969.373 1833.07 
126.61 969.575 1832.95 
126.707 968.127 1833.78 
126.61 968.284 1833.58 
126.638 968.42 1833.54 
126.558 968.145 1833.61 
126.391 968.135 1833.55 
126.527 968.132 1833.65 
126.597 969.838 1832.75 
126.531 970.063 1832.38 
126.664 969.999 1832.43 
126.822 969.899 1832.58 
127.018 969.76 1832.72 
127.221 969.609 1832.78 
127.144 969.651 1832.82 
127.447 969.434 1832.85 
127.287 969.529 1832.91 
127.443 969.434 1832.95 
126.963 968.76 1833.64 
126.836 968.614 1833.59 
126.824 968.705 1833.59 
126.726 968.52 1833.56 
161.277 1049.06 1755.98 
159.849 1049.97 1755.89 
161.254 1048.96 1755.66 
157.799 1051.27 1754.81 
158.668 1047.9 1755.39 
157.863 1048.33 1754.6 
157.741 1049.5 1754.59 
157.444 1050.44 1754.37 
164.13 1047.31 1759.49 
166.941 1046.69 1760.03 
171.471 1048.63 1757.27 
173.144 1048.98 1756.33 
173.35 1048.86 1756.15 
160.257 1047.15 1756.72 
162.28 1046.42 1758.54 
161.712 1048.96 1754.3 
161.198 1048.89 1755.21 
161.934 1048.97 1753.57 
162.319 1049.21 1752.55 
161.958 1049.19 1751.93 
161.536 1049.35 1751.55 
161.065 1049.51 1751.15 
160.532 1049.83 1750.8 
160.503 1052.02 1750.25 
163.14 1055.66 1749.61 
173.408 1048.62 1756.11 
172.98 1043.46 1757.46 
174.095 1047.22 1755.74 
174.196 1045.69 1755.9 
174.136 1044.93 1756.22 
173.809 1044.38 1756.65 
173.559 1048.28 1755.93 
173.477 1048.41 1756.04 
173.023 1043.67 1757.49 
176.654 1051.23 1757.54 
175.293 1044.29 1759.06 
175.322 1046.2 1759.42 
173.776 1042.77 1758.55 
173.488 1043.41 1757.06 
173.496 1043.34 1757.08 
173.461 1043.53 1757.06 
173.434 1043.57 1757.1 
173.93 1044.35 1756.75 
173.504 1043.5 1756.98 
173.432 1043.41 1756.96 
172.714 1042.2 1757.38 
171.818 1040.64 1757.89 
171.619 1040.42 1758.04 
171.224 1039.86 1758.3 
170.667 1039.02 1758.65 
171.315 1040.33 1758.34 
172.98 1043.46 1757.46 
178.499 1055.8 1756.94 
176.653 1051.33 1758.19 
181.06 1056.64 1756.61 
185.373 1057.42 1755.79 
186.585 1058.16 1754.84 
187.41 1061.09 1752.89 
186.514 1058.94 1754.5 
183.523 1056.93 1756.45 
181.583 1057.35 1756.47 
185.193 1061.25 1753.51 
184.303 1062.58 1753.33 
184.096 1060.93 1754.14 
183.369 1059.87 1754.65 
183.814 1058.95 1755.16 
179.262 1063.49 1752.7 
178.289 1064.77 1750.86 
180.289 1061.68 1754.88 
182.372 1059.44 1755.5 
176.338 1067.65 1748.4 
177.104 1067.28 1748.23 
177.468 1067.43 1748.07 
177.995 1067.14 1748.21 
178.536 1066.87 1748.35 
179.037 1066.58 1748.51 
179.557 1066.24 1748.68 
179.52 1065.84 1748.89 
179.217 1065.38 1749.14 
178.814 1065.05 1749.31 
178.418 1064.59 1749.55 
178.052 1064.27 1749.73 
178.056 1064.49 1749.66 
178.069 1064.71 1749.59 
167.012 1070.63 1748.28 
167.019 1070.24 1748.34 
174.64 1076.22 1747.07 
174.814 1076.16 1747 
174.222 1075.86 1746.98 
174.817 1074.5 1746.67 
174.832 1074.22 1746.71 
174.65 1074.62 1746.62 
174.981 1073.98 1746.74 
175.151 1075.22 1746.72 
174.775 1074.82 1746.65 
175.091 1076.05 1746.87 
175.228 1075.6 1746.73 
174.963 1076.08 1746.93 
174.884 1073.74 1746.88 
174.802 1073.51 1746.92 
174.21 1071.31 1747.15 
173.93 1070.66 1747.5 
174.546 1071.81 1746.99 
174.719 1072.18 1746.93 
174.749 1072.43 1746.91 
174.643 1072.55 1747.02 
174.802 1072.76 1746.97 
172.774 1073.63 1747.52 
172.97 1073.38 1747.48 
172.766 1073.19 1747.55 
173.36 1072.9 1747.4 
167.991 1072.66 1746.94 
168.157 1072.96 1746.73 
168.156 1073.19 1746.74 
167.996 1073.46 1746.95 
167.448 1071.9 1747.6 
167.825 1072.49 1747.07 
166.914 1071.32 1748.13 
168.282 1073.61 1747.05 
168.416 1073.69 1747.14 
172.725 1076.54 1747.62 
171.095 1076.19 1747.97 
171.577 1076.6 1747.72 
169.026 1074.03 1747.41 
170.586 1075.42 1747.88 
174.221 1076.55 1747.2 
167.96 1073.75 1747.12 
167.786 1073.78 1747.18 
174.867 1068.62 1748.33 
174.52 1069.43 1748.24 
174.26 1070.56 1747.63 
170.921 1069.79 1747.88 
171.195 1069.31 1747.91 
167.95 1070.3 1748.2 
170.627 1068.29 1748.13 
170.952 1068.78 1748.02 
170.47 1067.88 1748.24 
166.557 1060.8 1749.02 
169.952 1066.41 1748.51 
170.867 1067.66 1748.27 
144.237 1025.12 1732.37 
144.184 1024.68 1732.81 
144.362 1023.68 1730.65 
144.141 1024.93 1732.54 
144.53 1025.65 1731.92 
144.341 1025.45 1731.98 
145.132 1025.73 1730.99 
144.713 1025.58 1731.24 
144.232 1025.22 1732.07 
128.044 963.623 1837.71 
128.493 964.089 1837.4 
128.941 964.532 1837.12 
128.857 964.419 1837.32 
129.256 964.785 1837.14 
123.782 955.153 1842.97 
123.97 955.992 1843.43 
123.927 955.414 1843.09 
124.166 956.213 1843.8 
124.237 956.395 1843.8 
124.367 956.591 1843.82 
124.499 956.73 1843.79 
124.4 956.721 1843.6 
124.521 956.726 1843.65 
124.443 956.494 1843.89 
123.503 954.272 1844.47 
123.898 954.592 1845.35 
123.898 954.573 1845.42 
124.051 954.84 1845.44 
124.141 954.942 1845.46 
124.031 954.613 1845.62 
123.964 954.586 1845.54 
124.418 956.162 1844.33 
124.354 956.025 1844.49 
124.481 956.297 1844.17 
127.571 969.296 1833.05 
127.5 969.165 1833.23 
127.253 969.057 1833.43 
127.041 968.941 1833.62 
126.873 968.823 1833.62 
126.633 968.951 1833.33 
126.564 969.16 1833.18 
126.698 968.133 1833.8 
126.684 968.147 1833.82 
126.56 968.155 1833.76 
126.587 968.311 1833.69 
126.472 968.455 1833.56 
126.472 968.684 1833.42 
126.557 968.801 1833.39 
126.46 969.318 1833.04 
126.456 969.57 1832.89 
126.509 969.781 1832.79 
126.482 968.14 1833.65 
126.456 968.4 1833.46 
126.386 968.291 1833.44 
126.539 968.516 1833.49 
126.401 968.151 1833.51 
126.243 968.183 1833.41 
126.121 968.192 1833.37 
126.294 968.145 1833.51 
126.473 970.082 1832.54 
126.506 970.114 1832.41 
126.673 970.014 1832.53 
126.777 969.912 1832.67 
126.909 969.817 1832.73 
126.95 969.709 1832.83 
127.067 969.603 1832.9 
127.148 969.512 1832.97 
127.309 969.425 1833.01 
127.442 969.318 1833.08 
126.68 968.617 1833.54 
126.708 968.735 1833.56 
159.652 1049.92 1755.74 
159.8 1049.65 1755.69 
156.592 1051.38 1753.15 
158.185 1051.09 1754.94 
160.074 1049.34 1755.67 
158.078 1046.9 1754.67 
159.129 1046.42 1755.58 
157.415 1047.01 1753.98 
156.867 1047.77 1753.49 
157.049 1049.05 1753.93 
156.926 1049.72 1753.78 
156.935 1050.56 1753.91 
170.285 1047.89 1758.26 
165.266 1043.81 1760.49 
173.211 1048.8 1756.28 
161.651 1045.6 1757.94 
161.045 1044.88 1757.36 
161.361 1048.86 1754.32 
160.032 1049.22 1755.5 
160.948 1048.81 1755.09 
161.66 1048.87 1753.35 
161.852 1048.89 1752.53 
161.576 1049.1 1751.7 
161.124 1049.27 1751.32 
160.34 1049.43 1750.88 
160.193 1050.19 1750.73 
161.868 1053.33 1750.12 
164.484 1056.97 1749.47 
173.302 1048.53 1756.22 
173.979 1047.05 1755.52 
174.123 1046.09 1755.55 
174.08 1045.63 1755.97 
173.968 1045 1756.23 
173.699 1044.48 1756.7 
173.098 1043.96 1757.51 
173.532 1048 1755.92 
173.361 1048.28 1756.17 
173.854 1046.89 1755.27 
174.671 1042.29 1760.2 
175.068 1044.54 1760.33 
175.292 1048.03 1760.24 
174.674 1042.15 1760.9 
173.661 1041.3 1759.65 
173.379 1042.86 1757.85 
173.516 1043.29 1757.05 
173.53 1043.38 1756.98 
173.55 1043.47 1756.9 
173.142 1042.79 1757.09 
172.259 1041.28 1757.61 
171.388 1039.76 1758.11 
170.877 1039.01 1758.44 
170.676 1038.79 1758.59 
170.276 1038.21 1758.84 
169.665 1037.25 1759.22 
170.134 1038.22 1759 
171.569 1041.08 1758.33 
173.023 1043.67 1757.49 
