507.588 1198.44 1512.16 
506.939 1198.65 1513.63 
506.354 1198.75 1514.91 
506.27 1198.81 1515.32 
506.619 1198.77 1515.69 
507.041 1199.28 1516.31 
507.168 1199.01 1516.33 
414.39 1210.27 1541.37 
413.628 1210.27 1541.5 
413.362 1210.45 1541.37 
415.084 1210.42 1541.11 
415.353 1210.59 1540.83 
415.431 1210.64 1540.75 
415.495 1210.61 1540.82 
413.121 1210.61 1541.25 
412.599 1210.67 1541.66 
412.328 1210.78 1541.34 
412.883 1210.61 1541.4 
411.953 1211.03 1540.62 
411.96 1211.18 1540.34 
412.025 1210.84 1540.88 
412.933 1209.63 1541.77 
412.818 1209.6 1541.76 
412.599 1209.68 1541.68 
411.316 1211.84 1540.86 
411.331 1211.8 1540.7 
411.81 1210.9 1541.17 
415.587 1210.57 1540.93 
413.478 1209.5 1541.75 
413.972 1209.29 1541.77 
413.891 1209.31 1541.77 
414.853 1209.84 1541.41 
415.845 1210.45 1541.05 
415.705 1210.52 1541.02 
413.033 1209.67 1541.78 
413.196 1209.66 1541.78 
413.471 1209.61 1541.73 
461.666 1197.19 1556.59 
462.697 1198.29 1556.63 
462.489 1197.59 1556.65 
461.492 1197.07 1556.68 
462.029 1197.76 1556.58 
462.671 1198.51 1556.58 
471.147 1237 1567.58 
443.369 1240.86 1564.87 
443.255 1241.31 1564.69 
443.421 1241.27 1564.93 
443.279 1240.3 1564.94 
443.15 1239.9 1565.02 
442.356 1238.87 1565.78 
442.74 1239.33 1565.37 
443.004 1239.69 1565.13 
442.962 1239.79 1564.83 
442.336 1238.83 1565.93 
442.703 1239.79 1563.72 
441.976 1238.52 1566.25 
442.722 1240.69 1562.93 
411.286 1211.6 1540.86 
411.335 1211.45 1540.91 
411.343 1211.46 1540.81 
411.499 1211.09 1541.07 
411.53 1211.03 1541.02 
411.422 1211.26 1540.99 
411.575 1210.97 1540.99 
411.682 1210.99 1540.85 
411.278 1211.71 1540.89 
411.837 1210.94 1540.82 
407.576 1218.48 1529.16 
407.786 1218.8 1528.46 
408.208 1219.54 1527.52 
408.153 1219.28 1527.56 
408.011 1219.67 1526.71 
408.032 1219.68 1524.47 
408.098 1219.7 1524.62 
407.973 1219.51 1524.77 
407.873 1219.39 1524.91 
408.025 1219.91 1524.26 
407.199 1218.21 1526.97 
406.865 1217.06 1529.48 
407.573 1220.27 1523.88 
407.471 1220.1 1523.84 
407.892 1220.42 1523.99 
407.612 1220.57 1523.91 
407.155 1219.46 1523.85 
407.187 1219.55 1523.79 
407.98 1220.6 1525.45 
407.922 1220.68 1525.24 
407.863 1220.74 1525.02 
407.782 1220.74 1524.74 
407.685 1220.71 1524.4 
408.048 1220.42 1525.76 
408.063 1220.63 1525.73 
407.881 1219.92 1525.82 
408.029 1220.23 1525.92 
408.022 1219.84 1526.46 
407.203 1217.6 1530 
407.127 1217.17 1530.19 
407.393 1218.22 1529.38 
407.531 1218.44 1528.95 
407.422 1211.64 1526.56 
408.464 1212.61 1526.51 
408.827 1213.73 1526.54 
408.691 1213.22 1526.62 
409.133 1214.33 1530.45 
409.709 1212.85 1531.06 
409.3 1212.94 1530.83 
410.662 1210.2 1531.61 
410.617 1210.11 1530.77 
410.275 1211.15 1531.63 
409.832 1211.56 1531.43 
410.715 1210.07 1529.68 
409.099 1215.17 1527.75 
408.956 1214.24 1528.52 
408.898 1214.37 1526.87 
408.72 1213.58 1526.86 
408.741 1213.52 1526.7 
408.299 1212.2 1526.66 
407.825 1211.92 1526.56 
405.526 1193.51 1532.84 
404.384 1195.54 1527.71 
405.627 1194.03 1530.92 
405.081 1195.06 1528.43 
403.481 1195.98 1527.81 
403.255 1194.73 1531.92 
403.639 1194.48 1532.18 
403.944 1194.32 1532.29 
402.919 1194.83 1531.86 
403.023 1196.16 1527.89 
402.898 1196.23 1527.76 
402.749 1196.27 1527.73 
402.596 1196.32 1527.66 
405.101 1194.77 1528.06 
404.798 1194.76 1528.55 
405.157 1194.62 1528.47 
405.003 1195.26 1526.45 
405.246 1194.95 1527.22 
405.13 1195.58 1525.4 
405.004 1194.9 1527.84 
404.317 1196.12 1525.32 
402.652 1196.65 1526.38 
402.299 1196.54 1527.31 
402.454 1196.35 1527.62 
404.044 1194.78 1529.75 
402.69 1194.92 1531.73 
400.553 1202.92 1516.35 
398.87 1203.64 1516.08 
399.831 1202.31 1516.49 
399.849 1202.58 1516.08 
399.071 1203.14 1515.92 
400.443 1197.15 1527 
403.264 1196.57 1525.49 
401.905 1196.83 1526.78 
401.535 1196.82 1527.21 
404.264 1195.42 1527.07 
401.34 1196.75 1527.58 
403.79 1195.51 1527.6 
402.948 1195.82 1527.85 
401.213 1196.67 1527.81 
400.751 1196.81 1527.87 
401.11 1196.6 1528.02 
400.578 1196.93 1527.65 
401.467 1196.44 1527.99 
402.406 1195.97 1528.26 
407.314 1209.4 1527.03 
407.506 1209.45 1527.24 
409.287 1209.98 1529.06 
409.658 1209.99 1529.11 
410.09 1210.01 1529.16 
406.023 1209.38 1527.81 
408.594 1209.92 1528.9 
405.936 1209.39 1528.06 
407.564 1210.78 1527.08 
407.524 1210.41 1527.27 
407.521 1210.06 1527.45 
407.488 1209.66 1527.74 
406.892 1211.07 1526.64 
407.408 1211.17 1526.76 
502.414 1192.79 1495.82 
506.103 1192.8 1498.82 
504.603 1192.61 1496.35 
505.652 1192.62 1497.37 
507.365 1192.57 1498.42 
474.716 1192.77 1503.4 
483.663 1192.4 1502.57 
487.621 1192.12 1499.77 
491.538 1192.27 1497.34 
495.051 1192.32 1496.21 
495.981 1192.06 1495.14 
497.872 1193.07 1492.61 
496.887 1193.05 1492.04 
500.05 1192.93 1493.51 
502.313 1192.75 1494.97 
507.792 1193.34 1500.07 
508.416 1193.73 1500.65 
509.24 1194.11 1501.25 
508.136 1192.87 1499.57 
508.723 1196.43 1507.32 
508.552 1197.49 1511.18 
509.642 1194.63 1502.08 
508.098 1198.06 1512.19 
507.309 1198.44 1513.68 
506.664 1198.54 1514.98 
506.556 1198.64 1515.33 
506.911 1198.57 1515.71 
507.284 1198.67 1516.33 
414.498 1210.17 1541.48 
413.899 1210.08 1541.6 
413.338 1210.3 1541.53 
413.556 1210.13 1541.65 
413.121 1210.46 1541.42 
414.643 1210.15 1541.49 
415.258 1210.43 1541.13 
415.473 1210.58 1540.89 
415.585 1210.54 1541 
412.829 1210.43 1541.63 
412.496 1210.55 1541.69 
412.177 1210.68 1541.39 
411.861 1210.78 1541.05 
412.858 1209.78 1541.78 
412.753 1209.74 1541.77 
412.667 1209.65 1541.75 
412.435 1209.73 1541.67 
412.528 1209.66 1541.74 
411.256 1211.79 1540.92 
411.247 1211.87 1540.8 
411.239 1211.81 1540.6 
411.56 1211.19 1540.97 
411.877 1210.55 1541.31 
415.688 1210.44 1541.17 
413.887 1209.44 1541.74 
414.331 1209.06 1541.82 
414.63 1209.1 1541.82 
414.705 1209.48 1541.67 
414.354 1209.19 1541.79 
415.75 1210.09 1541.38 
415.875 1210.34 1541.24 
413.052 1209.75 1541.79 
412.901 1209.87 1541.79 
413.173 1209.79 1541.78 
413.425 1209.72 1541.73 
413.804 1209.6 1541.7 
461.581 1197.02 1556.59 
462.344 1197.36 1556.63 
462.858 1198.07 1556.61 
462.847 1198.6 1556.56 
462.056 1197.61 1556.54 
462.936 1198.42 1556.56 
443.368 1240.86 1564.96 
443.329 1241.26 1564.84 
443.25 1240.34 1565.04 
443.113 1240.05 1565.12 
442.227 1238.97 1566 
442.699 1239.48 1565.47 
442.992 1239.93 1565.24 
442.945 1240.01 1565.33 
442.857 1240.34 1563.77 
441.86 1238.62 1566.46 
443.181 1240.97 1564.46 
411.285 1211.53 1540.99 
411.366 1211.34 1541.09 
411.442 1211.18 1541.15 
411.519 1211.01 1541.23 
411.603 1210.83 1541.3 
411.639 1210.77 1541.25 
411.72 1210.78 1541.14 
411.234 1211.66 1540.95 
407.889 1218.93 1527.76 
408.243 1219.69 1527.38 
408.282 1219.47 1527.24 
408.289 1219.8 1527.33 
408.138 1220.13 1524.37 
408.123 1219.63 1524.84 
408.202 1220.03 1524.59 
407.97 1219.45 1524.99 
408.084 1220.43 1524.13 
407.178 1218.12 1527.45 
407.884 1219.3 1525.28 
407.079 1217.44 1528.77 
407.179 1217.36 1530.08 
407.611 1220.89 1523.86 
407.777 1220.94 1523.83 
407.908 1221.01 1523.89 
408.043 1220.86 1525.64 
407.974 1220.94 1525.39 
407.89 1220.97 1525.09 
407.794 1220.97 1524.75 
407.691 1221.01 1524.33 
408.164 1220.5 1526.11 
408.163 1220.71 1526.07 
408.139 1220.88 1525.97 
408.021 1220.07 1526.1 
408.164 1220.33 1526.26 
408.119 1220 1526.56 
407.373 1218.26 1528.03 
407.303 1217.61 1529.52 
407.602 1218.63 1527.44 
407.751 1218.74 1527.76 
408.18 1211.68 1526.83 
407.855 1211.46 1526.78 
408.027 1211.18 1527.01 
408.589 1212.84 1526.68 
408.579 1212.9 1526.79 
409.003 1212.87 1530.7 
408.838 1213.24 1529.28 
409.411 1211.37 1531.25 
409.025 1211.63 1530.98 
410.097 1210.27 1531.75 
410.238 1210.17 1531.02 
409.645 1210.34 1531.53 
408.696 1213.64 1527.03 
408.535 1212.89 1526.98 
408.462 1212.44 1526.84 
408.413 1212.32 1526.93 
403.705 1195.79 1528.16 
405.467 1194.27 1530.54 
404.594 1195.21 1528.89 
403.289 1195.92 1528.33 
403.103 1196.03 1528.11 
403.515 1194.64 1531.92 
402.986 1194.85 1531.74 
403.263 1194.79 1531.74 
403.823 1194.47 1532.04 
402.974 1196.08 1528.03 
402.845 1196.14 1527.94 
402.703 1196.19 1527.87 
402.594 1196.17 1527.94 
404.395 1194.99 1528.48 
404.269 1194.94 1528.83 
404.278 1194.85 1529.07 
404.691 1195.09 1527.7 
404.19 1195.12 1528.4 
402.003 1196.69 1527.22 
402.247 1196.43 1527.54 
402.427 1196.23 1527.85 
403.297 1194.9 1530.54 
402.731 1194.95 1531.58 
399.405 1203.55 1515.94 
399.924 1202.85 1515.85 
401.858 1196.62 1527.46 
401.736 1196.55 1527.67 
401.606 1196.49 1527.88 
403.659 1195.43 1528.21 
404.063 1195.23 1528.25 
403.076 1195.6 1528.62 
401.489 1196.41 1528.11 
400.945 1196.59 1528.2 
400.789 1196.69 1528.19 
401.358 1196.34 1528.38 
401.772 1196.2 1528.53 
402.423 1195.81 1528.97 
408.942 1209.95 1528.97 
409.979 1210.27 1531.23 
409.032 1210.26 1529.89 
409.534 1210.34 1530.84 
408.187 1211.58 1527.18 
408.112 1211.31 1527.47 
408.061 1210.68 1528.13 
407.961 1210.09 1528.42 
408.868 1210.22 1530.09 
505.986 1192.53 1496.33 
507.294 1192.44 1497.34 
504.085 1192.67 1495.3 
508.873 1192.37 1498.22 
509.529 1192.51 1499.35 
474.655 1192 1503.37 
483.559 1191.43 1502.57 
488.417 1191.69 1499.23 
495.162 1191.61 1495.68 
498.451 1193.09 1492.05 
497.238 1193.06 1491.59 
501.901 1193.2 1492.21 
502.092 1192.82 1494.11 
509.973 1193.29 1500.48 
510.962 1193.63 1501.07 
511.75 1193.97 1501.62 
510.677 1192.87 1500.15 
509.082 1195.88 1507.28 
508.831 1197.24 1511.22 
508.509 1197.67 1512.24 
511.728 1194.43 1502.15 
507.664 1198.19 1513.78 
507.011 1198.31 1515.12 
506.901 1198.46 1515.36 
507.358 1198.29 1516.19 
507.247 1198.3 1515.51 
413.686 1210.03 1541.65 
413.969 1209.96 1541.6 
413.22 1210.19 1541.68 
413.111 1210.34 1541.54 
413.399 1210.05 1541.71 
414.827 1210.12 1541.55 
415.389 1210.42 1541.18 
414.128 1209.8 1541.63 
415.467 1210.39 1541.29 
412.869 1210.22 1541.76 
413.047 1210.21 1541.7 
412.605 1210.35 1541.74 
412.359 1210.42 1541.7 
412.025 1210.58 1541.46 
412.762 1209.94 1541.79 
412.685 1209.88 1541.78 
412.623 1209.78 1541.76 
412.517 1209.77 1541.75 
412.345 1209.67 1541.7 
412.398 1209.69 1541.74 
412.379 1209.79 1541.74 
411.19 1211.82 1540.86 
411.2 1211.74 1540.98 
411.156 1211.87 1540.68 
411.153 1211.8 1540.5 
411.445 1211.24 1540.84 
411.666 1210.79 1541.12 
411.94 1210.23 1541.44 
415.072 1209.7 1541.64 
415.07 1209.93 1541.62 
414.301 1209.34 1541.75 
415.076 1209.07 1541.8 
415.289 1209.45 1541.7 
415.098 1209.48 1541.69 
413.009 1209.86 1541.8 
412.823 1210.01 1541.8 
412.945 1209.97 1541.81 
413.393 1209.84 1541.73 
413.145 1209.9 1541.78 
413.689 1209.75 1541.68 
414.247 1209.51 1541.7 
462.147 1197.1 1556.58 
462.307 1197.22 1556.6 
462.914 1197.89 1556.61 
461.9 1197.09 1556.53 
462.92 1198.11 1556.56 
443.343 1240.79 1565.06 
443.154 1240.34 1565.17 
442.262 1239.17 1566.01 
441.953 1238.93 1566.39 
442.651 1239.64 1565.59 
442.917 1239.99 1565.35 
443.063 1240.36 1565.3 
443.259 1240.89 1565.18 
442.29 1239.38 1566.13 
441.768 1238.97 1566.66 
411.314 1211.41 1541.17 
411.403 1211.18 1541.31 
411.467 1211.07 1541.33 
411.547 1210.87 1541.44 
411.603 1210.79 1541.44 
411.761 1210.44 1541.61 
411.813 1210.45 1541.58 
411.902 1210.49 1541.53 
411.253 1211.53 1541.14 
408.137 1219.22 1527.31 
408.375 1219.67 1527.02 
408.324 1219.94 1527.23 
408.241 1220.64 1524.24 
408.271 1220.46 1524.45 
408.253 1219.76 1525 
408.27 1220.01 1524.77 
408.058 1219.48 1525.17 
408.381 1220.54 1524.65 
408.116 1220.86 1524.04 
407.953 1219.29 1525.52 
407.624 1221.24 1523.78 
407.696 1221.46 1523.83 
407.99 1221.36 1523.87 
408.069 1221.15 1525.7 
408.135 1221.09 1525.93 
407.994 1221.19 1525.43 
407.9 1221.23 1525.08 
407.777 1221.34 1524.52 
408.28 1220.62 1526.49 
408.256 1220.76 1526.39 
408.262 1220.97 1526.39 
408.218 1221.1 1526.22 
408.198 1220.21 1526.52 
408.303 1220.49 1526.6 
407.934 1219.19 1526.24 
407.968 1219.02 1527.25 
408.268 1211.79 1527.03 
408.721 1212.16 1529.83 
408.554 1212.83 1527.56 
409.278 1210.25 1531.28 
409.07 1210.51 1531.24 
408.628 1211.06 1530.42 
409.537 1210.28 1531.14 
408.394 1212.42 1527.12 
408.322 1212.06 1527.07 
403.894 1195.5 1528.93 
404.866 1194.55 1530.51 
403.597 1195.53 1529.16 
403.322 1195.76 1528.67 
403.123 1195.87 1528.44 
403.524 1194.71 1531.74 
403.031 1194.88 1531.61 
403.257 1194.83 1531.57 
402.923 1196.02 1528.16 
402.775 1196.08 1528.07 
402.721 1196 1528.22 
402.561 1196.04 1528.17 
403.591 1195.2 1529.07 
403.449 1195.16 1529.39 
403.751 1195.02 1529.37 
403.787 1194.93 1529.57 
403.364 1195.34 1528.99 
402.164 1196.35 1527.75 
402.369 1196.13 1528.05 
402.865 1194.99 1530.95 
402.602 1195.03 1531.37 
402.897 1194.94 1531.46 
402.005 1196.3 1527.94 
401.873 1196.23 1528.16 
403.215 1195.46 1528.85 
402.476 1195.68 1529.28 
401.749 1196.15 1528.4 
401.219 1196.36 1528.7 
401.083 1196.45 1528.72 
401.685 1196.06 1529.01 
401.562 1196.08 1529.37 
401.938 1196.01 1529.04 
401.762 1195.92 1529.63 
408.268 1211.93 1527.36 
408.265 1211.01 1528.67 
408.691 1210.23 1530.32 
409.285 1210.3 1530.98 
508.248 1192.57 1496.29 
506.418 1192.74 1495.13 
509.875 1192.42 1497.33 
504.713 1192.9 1494.06 
511.476 1192.27 1498.37 
510.349 1192.31 1499.03 
511.869 1192.42 1499.88 
475.83 1190.79 1503.61 
483.601 1190.45 1502.58 
488.519 1191.09 1499.36 
495.541 1191.38 1495.43 
498.436 1193.41 1490.33 
500.209 1193.28 1491.29 
498.112 1193.49 1489.36 
502.94 1193.04 1492.99 
502.325 1193.66 1490.54 
505.154 1193.49 1492 
505.98 1193.24 1493.13 
512.432 1193.18 1500.87 
513.43 1193.33 1501.47 
513.464 1193.75 1501.99 
513.208 1192.66 1500.49 
508.828 1195.88 1508.41 
509.087 1196.93 1511.15 
510.77 1194.14 1504.92 
508.764 1197.46 1512.13 
507.967 1197.9 1513.88 
513.487 1194.15 1502.46 
507.342 1198.12 1515.17 
507.502 1197.75 1516.17 
507.546 1197.84 1515.65 
413.545 1209.97 1541.68 
413.766 1209.94 1541.64 
413.134 1210.08 1541.76 
413.334 1209.96 1541.73 
415.018 1210.13 1541.61 
414.424 1209.62 1541.68 
413.906 1209.79 1541.64 
412.892 1210.08 1541.81 
412.654 1210.17 1541.78 
412.328 1210.28 1541.72 
412.614 1210.09 1541.78 
412.551 1210.04 1541.77 
412.481 1209.99 1541.76 
412.532 1209.88 1541.77 
412.346 1209.9 1541.74 
412.267 1209.71 1541.73 
412.222 1209.67 1541.7 
412.124 1209.86 1541.71 
412.105 1209.95 1541.7 
411.263 1211.44 1540.72 
411.453 1211.07 1541.02 
411.572 1210.81 1541.29 
413.1 1210 1541.78 
413.599 1209.88 1541.68 
462.715 1197.12 1556.58 
461.989 1196.95 1556.52 
462.972 1197.92 1556.56 
443.236 1240.66 1565.18 
442.171 1239.26 1566.17 
441.835 1239.34 1566.58 
442.612 1239.81 1565.7 
442.915 1240.23 1565.44 
443.079 1240.76 1565.49 
443.148 1240.85 1565.55 
411.309 1211.27 1541.34 
411.378 1211.13 1541.4 
411.461 1210.85 1541.58 
411.502 1210.86 1541.52 
411.662 1210.45 1541.71 
411.699 1210.45 1541.68 
411.976 1210.17 1541.67 
412.178 1210.16 1541.7 
412.257 1210.21 1541.71 
408.312 1219.47 1526.87 
408.427 1219.88 1526.92 
408.356 1220.08 1527.13 
408.405 1220.92 1524.37 
408.208 1221.14 1524.09 
408.224 1219.65 1525.3 
408.428 1220.09 1525.14 
408.399 1220.28 1524.93 
408.532 1220.69 1524.81 
408.559 1221.01 1524.55 
408.149 1219.49 1525.66 
407.668 1221.78 1523.7 
407.859 1221.72 1523.73 
407.755 1221.77 1524.22 
408.08 1221.69 1523.9 
408.175 1221.34 1526.05 
408.104 1221.42 1525.79 
408.257 1221.33 1526.33 
408.002 1221.46 1525.39 
407.87 1221.67 1524.75 
408.389 1220.82 1526.85 
408.35 1220.95 1526.7 
408.386 1221.17 1526.8 
408.315 1221.24 1526.55 
408.36 1220.44 1526.82 
408.427 1220.72 1526.99 
408.084 1219.31 1526.41 
408.283 1219.51 1526.53 
408.427 1211.88 1528.26 
408.595 1210.35 1530.58 
404.245 1194.84 1530.49 
403.881 1195.03 1530.36 
403.569 1195.09 1530.43 
403.459 1195.52 1529.2 
403.107 1195.77 1528.66 
402.884 1195.94 1528.33 
402.971 1195.75 1528.72 
402.76 1195.86 1528.51 
402.666 1195.83 1528.57 
402.505 1195.94 1528.37 
402.765 1195.42 1529.64 
402.797 1195.33 1529.87 
403.127 1195.18 1529.82 
403.259 1195.07 1529.93 
402.96 1195.04 1530.53 
402.527 1195.57 1529.54 
402.259 1196.07 1528.2 
402.597 1195.17 1530.83 
402.913 1195.13 1530.76 
403.33 1195.12 1530.49 
402.163 1195.99 1528.41 
401.801 1195.83 1529.81 
402.108 1195.86 1528.82 
401.898 1195.93 1529.05 
401.373 1196.21 1529.27 
509.564 1192.79 1495.8 
511.879 1192.59 1497.23 
508.006 1193 1494.6 
513.188 1192.39 1498.31 
512.918 1192.14 1499.39 
514.019 1192.26 1499.64 
513.753 1192.1 1499.91 
483.71 1189.4 1502.73 
478.346 1189.27 1504.73 
488.526 1190.33 1499.8 
500.635 1193.67 1488.6 
498.42 1193.45 1488.96 
502.272 1193.52 1486.62 
503.032 1193.39 1489.46 
505.42 1193.09 1490.23 
508.418 1193.38 1493.43 
507.703 1193.26 1493.61 
509.473 1193.04 1494.94 
513.551 1192.55 1501.01 
513.135 1192.19 1501.43 
513.154 1192.75 1501.94 
513.094 1193.18 1502.46 
513.456 1191.82 1500.47 
509.234 1196.6 1510.52 
509.326 1196.39 1511.11 
509.311 1194.8 1508.6 
509.071 1196.95 1512.04 
511.151 1193.39 1504.8 
509.31 1193.42 1506.65 
508.185 1197.61 1513.91 
507.647 1197.73 1515.32 
508.553 1197.01 1513.02 
412.261 1210.03 1541.72 
411.97 1210.09 1541.68 
411.997 1209.87 1541.71 
412.058 1209.75 1541.72 
411.869 1210.09 1541.71 
411.815 1210.11 1541.77 
411.635 1210.53 1541.49 
462.748 1196.97 1556.55 
462.231 1196.59 1556.48 
463.041 1197.74 1556.56 
441.973 1239.69 1566.47 
443.205 1240.86 1565.72 
442.563 1239.91 1565.8 
442.025 1239.51 1566.4 
442.866 1240.31 1565.53 
443.186 1240.8 1565.93 
442.999 1240.48 1565.42 
411.32 1211.12 1541.49 
411.405 1210.9 1541.6 
411.569 1210.46 1541.83 
411.613 1210.46 1541.78 
408.477 1220.04 1526.58 
408.46 1220.35 1527.07 
408.404 1220.21 1527.11 
408.496 1220.48 1526.97 
408.436 1221.46 1524.34 
408.28 1221.39 1524.16 
408.473 1220.05 1525.36 
408.573 1220.4 1525.31 
408.599 1220.7 1525.04 
408.667 1221.71 1524.73 
408.522 1222.28 1524.53 
408.343 1219.77 1525.72 
407.706 1222.1 1523.68 
407.923 1222.04 1523.7 
407.81 1222.09 1524.29 
408.085 1222.12 1523.86 
408.248 1221.8 1524.13 
408.304 1221.58 1526.47 
408.213 1221.55 1526.15 
408.21 1221.75 1526.1 
408.089 1221.74 1525.62 
408.366 1221.52 1526.69 
407.963 1221.93 1524.98 
408.587 1220.67 1526.78 
408.468 1221.02 1527.01 
408.517 1221.14 1526.95 
408.535 1221.29 1526.89 
408.408 1221.39 1526.86 
408.553 1220.53 1526.81 
408.246 1219.53 1526.17 
408.487 1220.12 1526.29 
403.419 1195.39 1529.5 
403.302 1195.61 1529.01 
403.175 1195.62 1529 
403.236 1195.4 1529.54 
403.073 1195.51 1529.25 
402.913 1195.59 1529.08 
402.343 1195.5 1529.95 
402.445 1195.61 1529.35 
402.41 1195.9 1528.46 
401.996 1195.64 1530.09 
402.115 1195.53 1530.26 
402.467 1195.36 1530.28 
402.694 1195.23 1530.31 
402.805 1195.14 1530.42 
401.871 1195.76 1529.87 
402.494 1195.24 1530.65 
402.255 1195.76 1528.96 
511.326 1192.79 1496.37 
514.19 1192.56 1498.16 
514.217 1192.38 1499.16 
513.914 1192.22 1499.92 
513.963 1192.52 1499.96 
514.064 1192.47 1499.89 
513.819 1191.78 1499.56 
514.392 1192.58 1499.53 
488.593 1189.5 1500.24 
488.27 1188.68 1501.1 
481.257 1187.99 1505.53 
494.525 1190.09 1497.16 
498.501 1192.26 1492.46 
498.736 1192.94 1490.01 
499.312 1193.32 1488.01 
498.729 1194.09 1486.68 
501.478 1193.99 1485.25 
505.797 1193.2 1485.17 
507.851 1192.67 1485.81 
505.484 1192.78 1487.22 
507.244 1193.24 1491.54 
508.794 1192 1487.94 
509.435 1193.45 1493.51 
512.12 1193.18 1495.27 
511.146 1193.09 1495.28 
512.876 1192.84 1496.68 
513.056 1191.48 1500.88 
512.65 1191.14 1501.32 
512.641 1191.69 1501.87 
512.574 1192.19 1502.48 
511.023 1192.66 1504.8 
513.276 1191.38 1500.29 
509.559 1194.19 1509.09 
508.741 1196.08 1513.57 
509.145 1195.38 1512.44 
508.419 1197.07 1513.9 
508.471 1196.85 1513.8 
411.796 1210.08 1541.81 
411.899 1209.9 1541.8 
411.556 1210.47 1541.62 
462.111 1196.54 1556.69 
463.004 1196.87 1556.46 
462.77 1195.97 1556.36 
463.084 1197.53 1556.56 
462.051 1196.51 1556.68 
462.085 1196.45 1556.65 
441.501 1239.68 1566.82 
442.566 1239.99 1565.81 
442.118 1239.72 1566.3 
443.206 1240.75 1566.08 
442.146 1240.39 1566.61 
411.354 1210.9 1541.67 
411.528 1210.46 1541.87 
408.356 1222.51 1524.26 
408.574 1220.27 1525.54 
408.798 1221.34 1525.42 
408.823 1221.89 1525.1 
408.768 1222.58 1524.87 
408.721 1223.21 1524.54 
408.544 1223.2 1524.34 
408.503 1220.06 1525.81 
407.734 1222.4 1523.63 
407.934 1222.39 1523.66 
407.915 1222.24 1524.65 
407.828 1222.45 1524.19 
408.211 1222.52 1524.04 
408.072 1222.67 1523.83 
408.459 1221.72 1526.9 
408.4 1221.84 1526.77 
408.31 1221.79 1526.47 
408.249 1222.12 1526.1 
408.141 1222.05 1525.68 
408.037 1222.25 1525.15 
408.497 1221.51 1526.91 
408.651 1220.73 1526.62 
408.516 1220.17 1526.17 
408.735 1221.01 1526.42 
408.682 1221.23 1526.6 
402.445 1195.32 1530.44 
402.367 1195.41 1530.24 
402.292 1195.67 1529.31 
514.738 1192.61 1498.69 
514.035 1192.56 1499.81 
513.986 1192.73 1500.07 
514.109 1192.67 1499.96 
514.856 1193.16 1499.31 
513.859 1191.52 1498.85 
514.791 1192.64 1498.81 
495.784 1189.83 1496.91 
488.967 1188.08 1501.51 
495.999 1189.27 1497.31 
482.809 1186.97 1506.44 
499.376 1192.88 1489.59 
499.267 1194.47 1484.89 
502.959 1194.18 1483.23 
505.098 1193.6 1484.03 
509.849 1192.08 1486.73 
510.526 1193.24 1493.15 
508.58 1191.88 1489.55 
512.02 1191.35 1488.12 
511.507 1193.35 1494.5 
513.556 1193.29 1495.37 
515.032 1193.06 1496.67 
514.708 1192.87 1497.25 
512.932 1191.07 1500.72 
512.23 1190.7 1501.68 
512.559 1190.77 1501.12 
512.125 1191.02 1502.19 
511.87 1191.43 1502.96 
510.744 1191.8 1504.81 
509.711 1193.08 1509.01 
513.666 1191.16 1498.42 
512.997 1191.1 1500.12 
411.743 1210.08 1541.88 
411.551 1210.24 1541.79 
463.198 1196.75 1556.37 
463.094 1197.2 1556.49 
463.273 1195.5 1556.24 
462.118 1196.25 1556.62 
442.592 1240.22 1566.04 
442.536 1240.56 1566.69 
442.893 1240.78 1566.64 
443.482 1240.99 1566.84 
411.338 1210.82 1541.78 
411.48 1210.46 1541.94 
408.399 1223.28 1524.12 
408.676 1220.66 1525.89 
409.082 1222.8 1525.66 
409.184 1223.54 1525.46 
409.122 1223.42 1525.3 
409.03 1223.41 1525.05 
408.932 1223.4 1524.71 
408.794 1223.61 1524.37 
408.973 1223.82 1524.55 
408.618 1223.59 1524.19 
408.592 1220.32 1526.05 
407.758 1222.72 1523.58 
407.932 1222.79 1523.64 
407.942 1222.55 1524.61 
407.847 1222.78 1524.1 
408.242 1223.32 1523.92 
408.089 1223.39 1523.71 
408.579 1221.52 1526.75 
408.604 1221.8 1526.72 
408.533 1222.01 1526.83 
408.452 1222.15 1526.85 
408.346 1221.98 1526.56 
408.337 1222.27 1526.42 
408.226 1222.45 1525.92 
408.144 1222.4 1525.52 
408.043 1222.65 1524.98 
408.64 1221.44 1526.66 
408.882 1221.71 1526.21 
408.793 1221.73 1526.47 
514.236 1192.69 1499.55 
514.034 1192.83 1499.96 
514.011 1192.94 1500.16 
514.135 1192.87 1500.05 
514.831 1193.31 1499.43 
515.743 1193.95 1498.64 
515.37 1193.31 1498.55 
514.83 1192.03 1497.81 
499.792 1192.63 1489.86 
489.805 1187.43 1502.1 
496.444 1188.75 1497.66 
500.305 1192.39 1490.02 
484.872 1186.03 1507.07 
499.193 1194.67 1484.07 
501.765 1194.68 1482.07 
513.776 1193.05 1494.49 
510.472 1191.45 1489.93 
511.826 1191.42 1490.94 
513.918 1190.75 1489.17 
515.833 1193.08 1497.29 
515.164 1192.83 1498.39 
514.372 1192.89 1499.4 
512.77 1190.81 1500.54 
512.205 1190.42 1501.45 
511.885 1190.3 1501.94 
512.493 1190.51 1500.94 
511.588 1190.49 1502.64 
510.445 1190.85 1504.78 
510.839 1191.5 1505.41 
513.672 1190.81 1497.57 
512.696 1190.8 1499.78 
411.656 1210.15 1541.95 
411.532 1210.04 1541.97 
462.881 1196.43 1556.45 
442.076 1240.28 1566.45 
441.825 1240.45 1566.91 
443.861 1241.21 1566.89 
442.261 1240.61 1567.09 
443.421 1240.97 1567.16 
411.432 1210.47 1542 
408.451 1223.6 1524 
409.177 1222.98 1525.89 
409.316 1224.08 1525.74 
409.34 1224.5 1525.53 
409.187 1224.34 1525 
409.292 1224.58 1525.2 
409.093 1224.11 1524.76 
408.767 1223.89 1524.26 
408.942 1224.06 1524.44 
409.12 1224.39 1524.6 
408.593 1223.82 1524.08 
407.768 1223.06 1523.5 
407.904 1223.34 1523.52 
407.935 1222.91 1524.44 
407.825 1223.1 1523.89 
408.289 1223.59 1523.84 
407.993 1223.56 1523.53 
408.186 1223.68 1523.7 
408.739 1221.97 1526.55 
408.71 1222.37 1526.69 
408.649 1222.68 1526.99 
408.514 1222.65 1526.59 
408.366 1222.67 1526.03 
408.11 1222.62 1525.43 
408.184 1222.63 1525.69 
408.001 1222.76 1524.97 
409.229 1223.42 1526.01 
408.888 1222.3 1526.38 
514.115 1192.89 1499.78 
514.062 1193.05 1500.04 
514.051 1193.18 1500.19 
514.045 1193.1 1500.28 
514.242 1193.11 1500.07 
514.907 1193.56 1499.49 
515.475 1193.91 1498.98 
516.25 1194.52 1498.36 
516.282 1194.05 1497.68 
515.593 1193.06 1497.69 
514.955 1191.6 1496.89 
492.604 1186.86 1502.1 
497.118 1188.12 1498.26 
501.045 1191.72 1491.12 
499.363 1194.66 1483.85 
486.833 1184.57 1509.43 
500.1 1195.23 1481.07 
516.115 1193.02 1496.09 
514.802 1190.5 1490.57 
515.085 1191.19 1492.36 
514.484 1193 1499.28 
514.151 1193.27 1499.93 
514.098 1193.24 1500.04 
512.448 1190.52 1500.39 
512.25 1190.22 1500.97 
511.991 1190.09 1501.57 
511.509 1190.11 1502.49 
511.66 1190 1502.16 
510.386 1190.3 1504.58 
510.781 1190.53 1504.86 
513.645 1190.42 1496.71 
512.406 1190.43 1499.39 
443.472 1241.1 1567.18 
443.534 1241.05 1567.4 
408.423 1223.84 1523.89 
409.477 1225.04 1525.42 
409.237 1224.61 1524.85 
409.425 1225.08 1525.05 
408.728 1224.16 1524.14 
408.927 1224.36 1524.35 
409.34 1225.03 1524.71 
409.113 1224.71 1524.49 
408.57 1224.12 1523.95 
407.739 1223.32 1523.44 
407.905 1222.83 1524.68 
407.814 1223.01 1524.16 
408.046 1223.75 1523.52 
407.848 1223.57 1523.39 
408.313 1223.97 1523.73 
408.86 1222.63 1526.63 
408.826 1223.07 1527.07 
408.745 1223.32 1526.99 
408.6 1223.21 1526.28 
408.475 1223.33 1525.4 
408.023 1222.7 1525.26 
408.363 1223.5 1524.81 
409.15 1223.03 1526.2 
409.783 1226.12 1526.37 
409.957 1226.33 1525.65 
409.015 1222.89 1526.6 
514.097 1193.42 1500.19 
514.061 1193.32 1500.31 
514.147 1193.32 1500.31 
514.704 1193.64 1499.81 
515.296 1194.02 1499.28 
515.88 1194.38 1498.75 
516.682 1195.07 1498.15 
516.885 1195.01 1497.78 
515.6 1192.42 1496.71 
516.938 1194.47 1496.88 
516.234 1193.35 1496.73 
515.05 1191.09 1495.9 
496.3 1184.94 1504.66 
499.35 1187.88 1497.94 
501.921 1190.2 1493.65 
500.743 1193.61 1486.19 
493.781 1180.61 1515.77 
499.615 1195.3 1481.07 
516.617 1193.28 1496.76 
514.546 1193.1 1499.21 
517.789 1191.94 1494.38 
518.141 1189.63 1491.29 
517.329 1191.2 1493.49 
514.196 1193.37 1499.87 
514.139 1193.61 1500.18 
512.118 1190.19 1500.45 
511.983 1189.9 1501.28 
510.65 1189.43 1504.08 
510.451 1189.89 1504.33 
510.65 1189.67 1503.98 
509.881 1190.13 1506.8 
508.809 1189.11 1507.92 
513.553 1190.04 1495.95 
512.114 1190.08 1499.16 
513.392 1189.67 1495.3 
409.874 1226.18 1525.25 
409.832 1226.18 1524.93 
408.823 1224.69 1524.03 
408.931 1224.68 1524.23 
409.286 1225.35 1524.23 
409.62 1225.86 1524.53 
408.439 1224.11 1524 
408.717 1224.66 1524.17 
407.624 1223.3 1523.36 
407.695 1223.03 1523.97 
407.827 1222.8 1524.66 
408.118 1223.91 1523.55 
407.869 1223.68 1523.38 
408.24 1223.99 1523.8 
408.991 1223.44 1527.1 
408.912 1223.75 1527.29 
408.818 1223.87 1526.63 
408.665 1223.71 1525.93 
408.612 1223.99 1525.2 
407.988 1223.06 1524.69 
409.278 1223.8 1526.59 
409.92 1226.73 1526.76 
410.178 1227.01 1525.67 
409.141 1223.61 1527 
514.106 1193.56 1500.31 
514.072 1193.47 1500.42 
514.255 1193.55 1500.32 
514.96 1194.01 1499.71 
515.602 1194.43 1499.14 
516.204 1194.8 1498.6 
517.214 1195.66 1497.83 
517.438 1195.63 1497.49 
515.744 1191.97 1495.72 
517.597 1195.23 1496.59 
517.105 1194.02 1495.83 
516.45 1193.14 1495.94 
515.111 1190.52 1494.9 
500.029 1181.66 1510.77 
500.261 1185.37 1502.27 
500.348 1187.26 1498.71 
504.003 1190.02 1493.32 
502.429 1192.67 1487.94 
500.83 1194.9 1481.68 
514.589 1193.26 1499.19 
516.748 1193.72 1496.84 
519.29 1190.5 1492.67 
514.24 1193.46 1499.82 
519.17 1189.98 1492.27 
518.725 1189.64 1491.78 
518.871 1189.89 1492.3 
514.177 1193.78 1500.18 
514.143 1193.77 1500.34 
511.824 1189.79 1500.73 
510.913 1189.2 1503.14 
510.71 1188.79 1502.82 
509.74 1189.56 1506.59 
508.184 1187.72 1507.36 
507.971 1188 1508.23 
511.698 1189.7 1499.52 
513.196 1189.32 1494.65 
515.243 1190.05 1493.87 
410.245 1227.34 1525.38 
410.074 1226.87 1524.76 
410.313 1227.88 1525.35 
409.055 1225.31 1524.41 
409.328 1225.7 1523.93 
409.837 1226.63 1524.12 
407.525 1223.28 1523.27 
407.706 1223.56 1523.26 
407.562 1222.99 1523.89 
407.728 1222.91 1524.36 
407.64 1222.97 1524.02 
408.01 1223.77 1523.67 
407.792 1223.58 1523.51 
409.147 1224.16 1527.43 
409.049 1224.23 1527.42 
408.966 1224.45 1526.69 
408.8 1224.28 1525.92 
409.392 1224.71 1527.18 
410.063 1227.28 1527.06 
410.332 1228.02 1526.23 
409.269 1224.67 1527.63 
514.109 1193.69 1500.45 
514.176 1193.64 1500.47 
514.991 1194.19 1499.78 
515.847 1194.79 1499.05 
516.516 1195.21 1498.45 
517.384 1195.98 1497.81 
518.084 1196.46 1497.21 
518.028 1196.2 1497.07 
515.779 1191.39 1494.76 
517.91 1195.16 1495.79 
516.484 1192.6 1495.05 
517.326 1193.79 1495.01 
500.811 1182.51 1508.38 
503.579 1187.07 1499.91 
504.285 1188.77 1495.67 
509.32 1189.91 1491.89 
505.9 1192.43 1486.77 
500.255 1196.12 1476.85 
514.286 1193.56 1499.75 
514.617 1193.69 1499.27 
515.976 1194.38 1497.98 
519.787 1191.7 1493.04 
519.642 1190.97 1492.72 
519.863 1188.92 1491.43 
519.665 1189.02 1491.52 
514.22 1193.89 1500.12 
519.473 1189.11 1491.46 
519.433 1189.08 1491.06 
519.049 1189.54 1491.04 
514.182 1193.97 1500.33 
514.154 1193.94 1500.47 
510.492 1188.39 1502.4 
506.878 1186.5 1507.4 
506.582 1186.48 1509.07 
509.191 1187.72 1501.52 
513.234 1189.13 1493.97 
508.702 1187.17 1503.39 
516.096 1191.35 1494.02 
515.732 1190.27 1493.18 
410.278 1228.05 1525 
410.141 1227.69 1526.4 
409.383 1225.91 1524.72 
409.854 1227.06 1525.18 
407.421 1223.25 1523.19 
407.558 1223.37 1523.36 
409.141 1224.71 1527.37 
409.787 1226.51 1527.51 
410.125 1227.64 1527.42 
409.561 1225.89 1527.61 
409.499 1225.88 1526.76 
514.112 1193.8 1500.57 
514.3 1193.87 1500.47 
515.002 1194.35 1499.87 
515.706 1194.84 1499.26 
516.484 1195.47 1498.65 
516.739 1195.54 1498.37 
517.491 1196.26 1497.85 
518.157 1196.7 1497.26 
518.553 1196.5 1496.41 
518.872 1197.18 1496.64 
518.471 1195.63 1495.29 
517.874 1194.3 1494.58 
516.796 1192.58 1494.34 
517.317 1193.01 1493.85 
501.845 1182.88 1507.87 
506.262 1187.28 1500.85 
510.023 1189.24 1493.26 
510.97 1189.11 1493.91 
515.454 1190.26 1488.56 
513.841 1191.1 1486.85 
510.189 1193.82 1479.91 
508.719 1195.71 1472.65 
497.125 1197.91 1469.51 
514.275 1194 1500.04 
514.317 1193.88 1499.77 
514.686 1194.19 1499.33 
516.105 1196.11 1498.7 
517.099 1196.9 1498.03 
518.997 1196.39 1496.14 
520.578 1191.29 1492.08 
520.443 1189.25 1491.11 
520.665 1189.53 1490.99 
520.159 1189.03 1491.29 
520.121 1188.53 1490.88 
519.789 1188.8 1490.74 
514.248 1194.19 1500.28 
520.111 1188.68 1486.72 
514.214 1194.17 1500.43 
514.201 1194.2 1500.55 
514.142 1194 1500.62 
505.477 1185.14 1509.46 
512.021 1189.07 1494.3 
503.464 1183.53 1508.32 
504.469 1184.28 1509.02 
514.98 1189.05 1492.52 
516.613 1191.69 1493.4 
516.315 1190.65 1492.51 
515.546 1189.32 1491.8 
514.209 1193.95 1500.62 
515.126 1194.6 1499.86 
516.021 1195.24 1499.11 
516.95 1195.96 1498.36 
517.729 1196.65 1497.78 
518.346 1197.04 1497.23 
518.99 1197.44 1496.65 
519.073 1196.87 1495.84 
519.617 1197.75 1495.96 
519.182 1196.4 1494.88 
518.457 1194.93 1494.26 
517.78 1193.29 1493.27 
517.112 1191.75 1492.47 
515.906 1189.77 1489.76 
514.731 1189.21 1491.59 
517.615 1190.56 1487 
518.106 1190.2 1488.04 
517.685 1191.52 1482.7 
515.442 1194.14 1474 
504.227 1197.47 1465.39 
512.985 1196.38 1463.8 
496.879 1199.69 1460.27 
514.559 1194.54 1500.01 
514.484 1194.57 1500.21 
514.57 1194.43 1499.78 
516.12 1196.65 1499.09 
514.996 1194.96 1499.59 
517.754 1199.23 1498.49 
519.397 1199.12 1497.11 
520.844 1195.77 1494.13 
520.891 1198.81 1495.69 
520.948 1192.12 1491.79 
520.766 1189.83 1490.88 
520.477 1188.27 1490.8 
520.806 1188.12 1490.69 
520.753 1189.12 1490.79 
520.335 1188.31 1488.45 
520.694 1187.92 1488.54 
520.586 1188.45 1483.5 
520.668 1188.18 1485.72 
514.541 1194.73 1500.31 
514.179 1194.21 1500.7 
514.551 1194.79 1500.44 
514.199 1194.1 1500.72 
517.853 1189.79 1489.72 
517.372 1189.82 1489.06 
514.87 1194.53 1500.15 
515.881 1195.27 1499.31 
516.881 1196.05 1498.5 
517.898 1196.95 1497.75 
518.623 1197.45 1497.13 
519.217 1197.8 1496.58 
519.817 1198.17 1496.04 
519.941 1197.68 1495.16 
519.733 1196.71 1494.15 
519.067 1195.5 1493.79 
518.43 1194.16 1493.19 
519.767 1192.61 1490.94 
519.039 1191.68 1490.72 
519.14 1190.23 1489.68 
519.254 1190.22 1487.7 
520.144 1190.82 1484.62 
519.156 1189.96 1488.24 
521.565 1191.67 1478.35 
522.107 1192.9 1471.84 
520.002 1194.47 1465.34 
506.899 1198.48 1458.02 
517.292 1196.39 1458.41 
501.458 1201.66 1450.77 
514.944 1195.04 1499.89 
514.769 1194.92 1500.08 
515.13 1195.23 1499.75 
516.286 1197.26 1499.35 
517.49 1199.22 1498.86 
515.338 1195.7 1499.9 
518.765 1200.07 1498.05 
518.212 1200.27 1498.85 
520.784 1199.77 1496.37 
521.309 1198.09 1494.51 
521.192 1199.77 1495.72 
521.351 1193.09 1491.51 
520.934 1189.96 1490.55 
520.85 1189.25 1490.62 
521.091 1187.53 1488.14 
521.069 1187.39 1491.23 
521.339 1187.23 1488.09 
521.346 1186.97 1490.29 
520.77 1188.7 1490.74 
521.061 1187.74 1486 
521.035 1188.22 1480.56 
521.223 1187.83 1482.86 
514.876 1195.16 1500.14 
514.485 1194.73 1500.59 
514.23 1194.31 1500.81 
515 1195.5 1500.31 
514.968 1195.38 1500.21 
514.838 1194.66 1500.27 
515.59 1195.18 1499.63 
516.43 1195.82 1498.94 
517.203 1196.46 1498.34 
518.028 1197.19 1497.74 
518.567 1197.59 1497.29 
519.135 1198.05 1496.85 
519.5 1198.17 1496.45 
520.258 1198.71 1495.81 
520.5 1198.69 1495.43 
520.436 1197.95 1494.49 
520.589 1195.13 1492.04 
521.107 1196.33 1492.34 
520.11 1193.93 1491.6 
521.168 1191.58 1488.58 
520.37 1190.11 1488.7 
521.286 1190.96 1486.06 
521.604 1191.69 1484.1 
522.502 1191.36 1480.22 
524.987 1191.25 1474.48 
524.722 1192.66 1471.41 
524.031 1193.13 1466.75 
524.553 1191.82 1472.61 
521.094 1195.11 1459.65 
511.086 1199.5 1452.41 
517.947 1196.77 1456.34 
514.549 1199.58 1450.31 
504.574 1204.54 1440.24 
512.343 1202.37 1443.18 
515.314 1195.74 1499.99 
515.048 1195.24 1499.93 
516.285 1197.45 1499.64 
517.183 1199.36 1499.5 
517.459 1199.4 1499.1 
516.322 1197.63 1499.92 
518.818 1200.67 1498.41 
519.928 1200.75 1497.54 
517.965 1200.35 1499.28 
518.466 1200.92 1499.09 
520.997 1200.56 1496.48 
521.381 1199.32 1495.08 
521.541 1195.44 1492.21 
521.245 1200.37 1495.96 
521.456 1190.82 1489.92 
521.15 1189.68 1490.16 
520.916 1189.19 1490.46 
520.91 1188.69 1490.64 
521.505 1187.31 1485.13 
521.364 1186.91 1491.28 
521.656 1185.96 1491.48 
521.612 1186.87 1487.74 
521.627 1186.5 1490.55 
521.423 1187.44 1491.04 
521.483 1188.01 1477.39 
521.61 1187.7 1479.61 
521.742 1187.3 1482.18 
515.169 1195.57 1500.06 
514.647 1195.03 1500.62 
514.5 1194.67 1500.71 
515.073 1195.69 1500.4 
515.268 1195.91 1500.27 
515.293 1196.1 1500.45 
515.497 1195.28 1499.82 
516.191 1195.8 1499.24 
516.796 1196.3 1498.78 
517.399 1196.77 1498.3 
517.694 1197.11 1498.15 
518.169 1197.51 1497.8 
519.767 1198.52 1496.32 
518.672 1197.94 1497.43 
520.413 1199 1495.79 
521.024 1199.42 1495.26 
521.059 1199.19 1494.98 
521.483 1197.71 1492.88 
521.628 1193.07 1488.76 
522.366 1194.44 1488 
522.848 1196.05 1488.19 
522.858 1192.49 1484.67 
523.341 1192.6 1481.67 
524.184 1191.64 1476.9 
524.663 1191.1 1475.88 
526.079 1190.59 1474.32 
525.137 1191.29 1472.21 
526.348 1190.66 1472.99 
527.218 1190.34 1473.81 
524.923 1192.95 1471.73 
525.075 1193.48 1467.63 
524.563 1191.94 1472.18 
524.498 1193.47 1462.6 
522.359 1195.06 1459.4 
524.926 1193.73 1463.99 
522.374 1196.07 1457.59 
520.754 1196 1457.06 
516.159 1198.67 1450.74 
516.705 1202.06 1442.01 
517.587 1201.55 1442.68 
501.117 1207.11 1431.95 
507.676 1206.88 1430 
515.715 1204.6 1433.7 
518.824 1204.15 1433.34 
516.268 1197.7 1500.17 
515.33 1195.89 1500.12 
517.211 1199.8 1499.95 
517.648 1200.24 1499.66 
517.535 1199.83 1499.42 
519.005 1201.2 1498.65 
519.642 1201.46 1498.16 
520.432 1201.42 1497.51 
518.102 1200.87 1499.54 
518.533 1201.31 1499.32 
521.089 1201.28 1496.74 
521.443 1198.54 1494.33 
521.365 1200.11 1495.61 
521.854 1195.21 1491.27 
521.206 1201.05 1496.4 
522.223 1191.6 1488.75 
521.572 1190.1 1489.62 
521.227 1189.31 1490.19 
521.003 1188.82 1490.5 
521.542 1187.64 1490.87 
521.612 1187.73 1490.71 
521.868 1186.82 1484.83 
521.909 1185.76 1491.39 
521.925 1186.39 1488 
521.906 1185.9 1491.12 
521.954 1187.78 1474.26 
522.045 1187.46 1476.63 
522.013 1187.2 1479.56 
522.131 1186.76 1481.95 
515.361 1196.09 1500.31 
514.764 1195.32 1500.67 
514.522 1194.85 1500.82 
515.08 1195.9 1500.65 
515.282 1196.22 1500.64 
516.044 1197.61 1500.6 
515.945 1197.58 1500.8 
515.83 1197.46 1500.99 
514.653 1195.06 1500.81 
515.732 1195.67 1499.8 
516.257 1196.1 1499.4 
516.701 1196.49 1499.08 
517.027 1196.82 1498.89 
517.526 1197.24 1498.52 
519.573 1198.54 1496.62 
517.724 1197.63 1498.67 
518.738 1198.26 1497.7 
519.902 1198.99 1496.6 
520.915 1199.62 1495.62 
521.834 1199.96 1494.46 
521.965 1198.97 1493.13 
523.154 1197.83 1489.04 
523.824 1194.22 1483.76 
524.172 1196.38 1484.85 
524.542 1193.05 1479.2 
524.62 1191.63 1476.47 
525.489 1190.59 1474.96 
525.289 1190.5 1475.71 
524.787 1190.88 1476.24 
526.49 1190.29 1474.61 
527.408 1190.25 1474.21 
524.605 1191.71 1471.94 
526.078 1190.85 1471.19 
526.74 1190.32 1472.76 
527.843 1190.34 1474.1 
527.516 1190.39 1473.69 
525.606 1193.83 1469.7 
524.665 1192.66 1471.61 
525.518 1194.79 1462.96 
523.575 1195.24 1458.65 
525.16 1194.76 1460.81 
524.769 1194.72 1458.96 
524.71 1195.98 1457.69 
524.998 1195.46 1458.15 
524.138 1195.8 1457.34 
520.416 1196.07 1455.77 
524.559 1195.9 1456.95 
518.211 1198.11 1448.9 
519.377 1200.87 1442.36 
519.728 1203.85 1433.96 
521.17 1203.07 1435.25 
520.337 1203.55 1434.64 
497.829 1209.07 1425.95 
504.837 1210.07 1420.24 
518.746 1205.4 1427.38 
512.999 1207.51 1423.56 
520.438 1205.64 1426.6 
516.154 1197.63 1500.38 
517.096 1200.02 1500.37 
517.6 1200.56 1500.05 
519.182 1201.72 1498.88 
519.891 1202.03 1498.37 
520.3 1202.15 1498.03 
520.871 1202.07 1497.47 
518.063 1201.14 1499.81 
518.527 1201.63 1499.58 
521.05 1201.99 1497.18 
521.466 1199.9 1495.3 
521.882 1195.86 1491.49 
521.503 1198.37 1494.06 
521.312 1200.86 1496.1 
521.143 1201.81 1496.92 
523.692 1192.18 1485.95 
522.513 1190.49 1488.12 
521.575 1189.6 1489.7 
521.499 1189.1 1490.05 
521.258 1188.86 1490.35 
521.819 1187.91 1490.4 
522.032 1185.98 1491.2 
522.149 1186.52 1490.85 
522.211 1186.35 1484.67 
522.28 1185.95 1487.51 
522.047 1185.95 1490.28 
522.195 1185.64 1491.22 
522.369 1187.53 1471.72 
522.396 1187.16 1474.91 
522.334 1186.85 1478.51 
522.54 1186.22 1481.22 
514.832 1195.55 1500.77 
515.715 1197.34 1501.18 
515.584 1197.2 1501.3 
516.819 1199.68 1500.73 
516.783 1199.84 1501.05 
516.544 1199.2 1501.29 
516.336 1198.79 1501.49 
514.567 1195.14 1501.02 
514.84 1195.71 1500.93 
515.339 1195.56 1500.29 
515.64 1195.87 1500.11 
515.901 1196.16 1499.98 
516.417 1196.57 1499.58 
516.629 1196.93 1499.68 
517.838 1198.26 1499.25 
519.297 1199.27 1497.91 
520.118 1199.65 1496.97 
521.153 1200.28 1495.86 
521.685 1200.36 1495.09 
522.453 1199.12 1492.31 
523.533 1197.62 1487.92 
525.018 1195.08 1481.28 
524.563 1196.07 1483.62 
525.469 1193.61 1478.07 
524.851 1191.46 1476.54 
526.691 1190.16 1474.92 
525.708 1190.09 1475.79 
525.272 1190.3 1476.23 
524.907 1190.66 1476.47 
524.974 1191.49 1471.23 
526.592 1190.61 1470.51 
527.116 1190.02 1472.62 
528.047 1190.2 1474.55 
528.123 1190.37 1474.03 
527.791 1190.35 1473.47 
526.308 1195.11 1466.68 
525.91 1194.95 1464.79 
525.596 1193.91 1471.02 
524.729 1192.4 1471.21 
525.378 1195.54 1459.57 
521.544 1195.81 1455.32 
525.748 1196.34 1456.91 
525.924 1195.84 1461.01 
520.832 1196.18 1450.49 
520.826 1199.56 1443.25 
522.386 1202.62 1435.51 
521.661 1205.79 1430.07 
522.681 1205.09 1431.58 
498.064 1211.58 1418.51 
493.99 1212.55 1419.17 
502.242 1212.17 1414.27 
511.019 1210.94 1415 
513.116 1209.88 1417.19 
516.594 1209 1418.18 
521.172 1205.78 1426.56 
519.256 1208.3 1419.12 
517.463 1200.73 1500.43 
517.101 1200.41 1500.7 
519.321 1202.15 1499.08 
520.15 1202.54 1498.5 
520.547 1202.6 1498.13 
520.736 1202.47 1497.93 
517.892 1201.29 1500.21 
518.774 1202.11 1499.68 
518.348 1202.02 1500.12 
520.589 1202.08 1497.91 
521.415 1200.71 1495.83 
521.555 1199.65 1494.95 
521.523 1197.06 1492.94 
522.65 1195.45 1489.31 
521.584 1198.01 1493.58 
521.231 1201.62 1496.65 
520.577 1201.77 1497.73 
524.53 1192.23 1483.77 
525.272 1187.1 1483.44 
524.396 1188.47 1484.94 
522.829 1189.21 1487.9 
521.999 1189.46 1489.13 
521.754 1189.07 1489.65 
522.074 1187.87 1490.14 
522.483 1187.6 1489.81 
522.489 1186.27 1490.65 
522.73 1185.44 1484.97 
523.078 1183.88 1489.22 
522.318 1185.58 1490.12 
522.408 1185.62 1491.05 
522.883 1187.33 1469.12 
523.235 1185.91 1473.38 
522.906 1185.99 1477.15 
523.843 1183.74 1480.69 
523.707 1183.68 1483.65 
516.202 1198.59 1501.75 
515.455 1197.06 1501.42 
516.119 1198.55 1502.03 
515.972 1198.25 1501.97 
516.837 1200.4 1501.35 
517.243 1200.85 1500.87 
516.627 1199.81 1501.69 
514.56 1195.3 1501.17 
514.687 1195.58 1501.1 
515.348 1196.97 1501.57 
514.638 1195.45 1501.21 
515.307 1195.87 1500.61 
514.657 1195.63 1501.4 
515.515 1196.22 1500.71 
516.364 1197.23 1500.58 
517.879 1198.69 1499.62 
519.255 1199.61 1498.31 
520.178 1200.14 1497.28 
520.675 1200.25 1496.58 
521.473 1200.7 1495.64 
521.836 1200.23 1494.78 
522.306 1198.65 1492.39 
523.466 1197.21 1487.87 
523.932 1196.24 1485.75 
525.403 1193.66 1478.8 
524.947 1190.83 1476.75 
526.859 1189.85 1475.25 
526.864 1189.68 1475.53 
525.718 1189.83 1476.25 
525.267 1190.13 1476.59 
525.425 1191.47 1470.5 
526.874 1190.56 1469.91 
525.948 1191.27 1469.97 
527.558 1189.7 1470.76 
527.426 1189.81 1472.32 
528.321 1190.12 1474.57 
528.323 1190.25 1473.68 
528.032 1190.14 1472.97 
526.692 1195.27 1468.52 
526.657 1196.36 1461.78 
525.127 1193.57 1470.73 
525.088 1191.95 1470.65 
522.663 1195.78 1455.43 
526.832 1197.07 1457.37 
522.56 1195.35 1450.22 
522.206 1198.89 1442.73 
523.186 1195.76 1454.9 
523.181 1202.14 1435.5 
523.889 1205.97 1432.1 
523.008 1207.4 1430.06 
521.681 1206.36 1426.39 
493.541 1214.15 1414.58 
500.657 1212.83 1411.5 
511.478 1211.2 1413.01 
516.974 1210.66 1413.94 
518.425 1210.25 1413.64 
520.789 1208.66 1417.38 
519.456 1202.54 1499.24 
520.059 1202.66 1498.67 
520.532 1202.62 1498.23 
520.5 1202.79 1498.29 
520.202 1202.13 1498.53 
517.752 1201.54 1500.64 
518.67 1202.56 1500.18 
518.088 1202.49 1500.87 
519.954 1201.69 1498.74 
521.255 1201.5 1496.52 
521.506 1200.65 1495.64 
521.63 1199.46 1494.66 
522.074 1196.58 1491.48 
523.99 1195.18 1485.46 
525.195 1192.06 1481.49 
522.365 1196.89 1490.91 
521.699 1198.32 1493.6 
520.476 1201.44 1497.68 
519.465 1201.1 1499.03 
526.189 1187.39 1478.16 
524.608 1182.63 1487.84 
526.432 1185.73 1478.79 
524.376 1185.45 1487.53 
523.717 1184 1490.14 
524.048 1186.16 1487.87 
523.686 1186.66 1488.42 
523.348 1187.01 1488.92 
522.924 1187.31 1489.45 
522.795 1187.41 1489.57 
523.135 1185.97 1490.27 
523.936 1181.14 1489.25 
522.771 1184.85 1491.59 
523.748 1182.31 1494.82 
523.162 1185.36 1490.62 
523.968 1187.15 1468.23 
523.316 1188.49 1467.98 
523.181 1188.62 1466.2 
524.372 1183.63 1477.06 
524.656 1185.48 1471.51 
525.428 1182.32 1478.98 
525.035 1180.75 1484.87 
516.436 1199.33 1502.01 
516.378 1199.51 1502.36 
516.377 1198.98 1502.28 
516.01 1198.33 1502.2 
516.984 1201.17 1501.62 
517.23 1201.19 1501.2 
516.646 1200.63 1502.08 
515.022 1196.55 1501.91 
515.224 1196.88 1501.76 
514.778 1196.13 1501.95 
516.525 1197.73 1500.83 
518.135 1199.28 1499.8 
519.057 1199.79 1498.79 
519.882 1200.19 1497.78 
520.725 1200.63 1496.75 
521.482 1200.95 1495.79 
521.703 1200.29 1495.08 
521.792 1200.01 1494.73 
522.559 1197.76 1491.05 
521.754 1198.96 1494 
522.974 1196.86 1489.19 
524.441 1195.26 1483.74 
525.227 1194.92 1481.27 
525.47 1192.41 1477.45 
525.137 1190.53 1476.97 
525.22 1190.06 1476.81 
526.82 1189.44 1475.76 
525.672 1189.55 1476.59 
525.623 1191.62 1470.08 
527.098 1190.4 1469.67 
526.059 1191.39 1469.64 
527.869 1189.52 1471.64 
527.596 1189.53 1472.31 
528.059 1189.65 1474.68 
528.178 1189.86 1473.49 
526.841 1195.34 1469.51 
527.334 1196.68 1463.48 
525.107 1193.42 1470.25 
525.26 1192 1470.22 
527.019 1197.2 1456.06 
527.998 1197.72 1460.49 
523.782 1194.6 1450.24 
523.546 1198.05 1442.24 
523.555 1195.72 1454.34 
523.725 1201.96 1434.99 
524.394 1205.02 1433 
524.213 1208.48 1430.32 
522.201 1207.46 1426.37 
522.3 1208.55 1417.06 
492.557 1214.76 1413.09 
497.702 1213.02 1408.65 
505.34 1211.79 1407.05 
513.378 1211.03 1410.44 
517.227 1210.71 1412.96 
517.985 1210.64 1412.82 
519.484 1210.19 1413.16 
521.929 1209 1414.17 
519.668 1202.78 1499.16 
520.357 1202.84 1498.45 
519.597 1201.7 1499.19 
520.077 1202.3 1498.74 
519.713 1202.14 1499.15 
518.817 1202.87 1500.25 
517.388 1202.42 1501.69 
518.493 1202.81 1500.72 
518.901 1201.06 1499.88 
521.242 1201.33 1496.42 
520.447 1201.12 1497.51 
521.653 1200.1 1495.06 
521.479 1201.04 1495.87 
524.429 1195.14 1484.09 
525.683 1192.35 1479.19 
525.329 1189.34 1478.27 
519.597 1200.86 1498.66 
518.616 1200.53 1499.97 
518.292 1200.59 1500.51 
526.187 1188.05 1476.78 
527.067 1187.19 1475.74 
526.891 1185.59 1476.9 
525.621 1183.62 1482.56 
524.546 1178.95 1489.34 
523.272 1183.84 1491.51 
524.18 1179.34 1491.36 
523.06 1184.67 1492.46 
522.745 1185.55 1492.21 
523.691 1184.99 1490.15 
524.456 1177.15 1493.15 
524.272 1180.1 1495.93 
524.724 1181.37 1498.12 
523.597 1183.78 1496.09 
524.892 1187.68 1466.68 
523.85 1188.84 1467.75 
523.974 1189.36 1467.26 
524.285 1189.93 1467.6 
524.99 1191.12 1465.06 
524.215 1189.79 1463.46 
523.896 1190.54 1460.76 
522.9 1189.49 1458.44 
525.457 1191.65 1466.3 
525.089 1191.27 1466.65 
525.754 1184.94 1471.91 
525.758 1187.47 1466.23 
526.619 1184.69 1472.75 
526.292 1183.37 1478.49 
515.681 1199.96 1503.05 
516.026 1201.9 1502.7 
515.324 1201.18 1503.17 
517.211 1199.48 1501.47 
517.112 1199.78 1501.81 
517.774 1199.92 1500.88 
515.548 1197.53 1502.2 
517.725 1199.64 1500.77 
516.964 1198.83 1501.25 
516.837 1198.35 1500.97 
518.057 1199.55 1500.18 
518.914 1199.99 1499.15 
519.621 1200.26 1498.23 
520.518 1200.82 1497.2 
526.3 1194.23 1479.03 
525.512 1192.13 1477.7 
525.195 1190.49 1477.34 
525.247 1189.97 1477.24 
525.308 1189.82 1476.99 
525.681 1189.29 1476.81 
526.63 1188.98 1476.06 
525.702 1191.89 1469.67 
527.256 1190.36 1469.47 
526.05 1191.56 1469.46 
527.916 1189.29 1471.3 
527.776 1189.25 1473.88 
527.587 1188.99 1475 
528.074 1197.01 1465.29 
526.94 1195.12 1469.74 
525.197 1193.48 1469.87 
525.244 1192.44 1469.76 
528.512 1198.52 1457.78 
526.851 1196.89 1454.85 
523.905 1195.8 1454.06 
528.865 1198.15 1462.32 
524.528 1195.46 1445.8 
523.955 1194.7 1451.93 
524.493 1193.97 1449.64 
524.728 1198.61 1438.51 
524.081 1201.75 1434.76 
524.613 1204.11 1433.42 
525.296 1208.01 1431.92 
525.032 1209.56 1430.13 
522.608 1208.45 1426.33 
522.718 1208.96 1416.7 
523.581 1207.12 1413.55 
488.095 1215.77 1409.25 
492.251 1214.63 1410.33 
492.89 1213.74 1406.34 
497.197 1212.19 1401.38 
507.194 1211.17 1399.72 
511.503 1210.98 1402.88 
514.525 1210.83 1405.8 
516.376 1210.7 1409.45 
518.117 1210.59 1412.29 
520.915 1209.43 1413.09 
519.036 1210.45 1411.77 
522.629 1208.64 1414.03 
523.263 1208.4 1414.39 
523.645 1207.24 1412.89 
519.928 1202.96 1498.97 
520.284 1202.81 1498.59 
519.258 1201.56 1499.58 
518.645 1201.1 1500.24 
518.712 1201.3 1500.2 
519.216 1201.85 1499.7 
519.185 1203.03 1499.92 
519.135 1202.22 1499.88 
518.252 1201.34 1500.77 
519.602 1200.57 1498.48 
525.573 1191.92 1478.12 
525.209 1190.18 1477.57 
525.469 1189.15 1477.3 
518.728 1200.3 1499.64 
517.71 1200.13 1501.12 
517.875 1200.48 1501.05 
526.354 1188.56 1476.33 
527.208 1188.36 1475.06 
527.35 1186.66 1474.79 
527.378 1187.65 1474.53 
527.133 1185.79 1473.96 
524.634 1176.44 1495.49 
524.235 1177.44 1493.25 
523.321 1183.88 1492.03 
522.869 1185.67 1492.89 
523.706 1182.4 1493.01 
524.006 1183.31 1497.99 
525.184 1179.55 1498.97 
525.681 1179.64 1501.05 
525.385 1180.73 1500.46 
524.257 1183.26 1500.91 
