-242.88 1742.38 2928.51 
-243.535 1742.44 2928.37 
-244.201 1742.42 2928.43 
-253.208 1739.86 2932.29 
-252.958 1739.92 2933.68 
-252.316 1740.54 2933.44 
-252.647 1740.22 2933.68 
-251.916 1740.88 2933.37 
-245.927 1741.43 2930.49 
-253.061 1744.65 2925.32 
-252.922 1743.74 2926.75 
-251.742 1744.09 2926.01 
-253.089 1741.34 2929.86 
-249.122 1743.25 2927.35 
-250.169 1743.19 2927.22 
-247.057 1755.74 2904.79 
-246.902 1750.8 2903.44 
-250.788 1757.53 2898.82 
-254.016 1759.08 2892.51 
-252.71 1760.58 2893.15 
-238.717 1741.8 2913.1 
-238.275 1742.24 2913.23 
-238.769 1741.72 2913.62 
-237.897 1742.59 2913.63 
-245.065 1734.17 2909.91 
-244.886 1734.71 2911.01 
-244.84 1734.76 2913.51 
-239.37 1741.87 2916.3 
-240.509 1739.91 2913.22 
-238.963 1741.47 2913.69 
-241.085 1740.5 2915.38 
-243.58 1739.46 2915.93 
-243.974 1737.82 2914.56 
-244.128 1735.89 2910.96 
-244.457 1735.42 2908.86 
-243.824 1736.47 2912.26 
-237.229 1743.24 2916.23 
-237.137 1743.97 2914.54 
-237.487 1743.01 2914.09 
-238.453 1742.47 2912.28 
-239.143 1741.77 2912.18 
-241.153 1740.02 2909.32 
-244.047 1741.8 2904.37 
-243.835 1738.08 2904.84 
-243.715 1737.63 2905.47 
-243.453 1737.48 2906.38 
-247.347 1738.94 2933.5 
-245.489 1739.91 2931.92 
-250.958 1735.49 2935.7 
-250.09 1737.79 2935.8 
-249.73 1737.44 2935.22 
-250.847 1733.24 2934.4 
-249.515 1738.34 2935.3 
-243.429 1777.78 2881.08 
-243.135 1777.92 2880.55 
-244.3 1777.29 2882.03 
-243.804 1777.58 2881.25 
-245.288 1774.3 2884.74 
-244.854 1776.46 2882.76 
-247.293 1769.69 2888.33 
-249.218 1765.49 2891.22 
-242.255 1777.83 2879.37 
-241.816 1777.3 2878.56 
-241.892 1777.46 2878.66 
-242.537 1778 2879.61 
-242.955 1778.03 2880.04 
-242.756 1778.04 2879.72 
-241.775 1777.05 2877.96 
-241.62 1776.94 2877.97 
-241.494 1776.84 2877.96 
-245.553 1740.65 2932.29 
-246.175 1741.51 2931.7 
-248.68 1742.4 2928.39 
-248.51 1742.24 2929.11 
-248.455 1742.16 2929.76 
-248.516 1742.11 2930.35 
-247.572 1741.83 2931.26 
-244.061 1742.28 2928.64 
-243.795 1742.12 2928.86 
-243.685 1742.09 2928.91 
-251.91 1741.3 2934.13 
-252.02 1741.57 2934.84 
-252.121 1741.73 2935.52 
-252.073 1742.1 2935.96 
-252.121 1742.34 2936.05 
-244.94 1742.71 2928.09 
-216.302 1728.54 2904.13 
-216.105 1729.24 2904.38 
-215.837 1727.58 2904.14 
-215.707 1726.75 2904.02 
-215.579 1725.93 2903.9 
-215.453 1725.16 2903.79 
-215.673 1724.73 2903.58 
-215.933 1724.87 2903.48 
-216.506 1723.94 2902.96 
-215.282 1724.36 2903.45 
-214.703 1724.29 2903.7 
-214.446 1724.38 2903.88 
-214.496 1724.51 2903.89 
-214.379 1724.2 2903.85 
-214.503 1724.31 2904 
-221.769 1731.09 2893.51 
-221.722 1730.66 2893.79 
-221.698 1730.22 2894.05 
-221.714 1729.66 2894.15 
-221.774 1729.42 2894.37 
-221.076 1731.83 2893.02 
-221.256 1731.71 2892.96 
-221.784 1731.47 2893.18 
-221.35 1731.56 2892.84 
-227.684 1737.51 2889.44 
-227.24 1738.53 2889.85 
-227.382 1739.03 2890.05 
-227.418 1738.08 2889.62 
-227.745 1737.1 2889.44 
-227.71 1735.99 2889.31 
-227.668 1735.35 2888.94 
-227.546 1739.71 2890.25 
-228.046 1739.66 2889.83 
-228.875 1738.54 2889.41 
-230.034 1737.28 2888.83 
-220.269 1736.88 2900.3 
-222.422 1736.98 2897.31 
-221.965 1737.19 2897.91 
-221.502 1737.17 2898.56 
-220.349 1737.02 2900.18 
-221.114 1737.23 2899.08 
-220.87 1737.13 2899.44 
-220.423 1737.12 2900.06 
-223.63 1733.56 2895.88 
-224.487 1733.77 2894.78 
-223.208 1732.62 2896.43 
-223.071 1733.19 2896.61 
-223.747 1731.43 2895.75 
-223.816 1731.57 2895.7 
-220.158 1737.24 2900.26 
-220.2 1737.54 2900.15 
-220.22 1737.57 2900.17 
-220.29 1737.7 2900.2 
-220.244 1737.61 2900.19 
-220.265 1737.7 2900.22 
-227.353 1742.66 2890.95 
-227.119 1742.4 2891.29 
-226.872 1742 2891.58 
-227.557 1742.82 2890.65 
-227.424 1742.66 2890.84 
-227.662 1743.01 2890.46 
-227.764 1743.1 2890.33 
-228.06 1743.52 2890.01 
-228.184 1743.65 2889.89 
-227.996 1743.35 2890.05 
-227.895 1743.26 2890.17 
-228.365 1743.59 2889.64 
-228.295 1743.59 2889.72 
-228.005 1744.05 2888.98 
-227.48 1744.73 2889.52 
-227.26 1745.61 2889.94 
-226.646 1747.44 2891.03 
-226.78 1747.61 2890.96 
-227.833 1744.56 2889.24 
-227.832 1744.72 2889.25 
-227.682 1744.31 2889.61 
-228.148 1743.74 2889.66 
-226.619 1747.27 2891.04 
-226.005 1748.41 2891.7 
-232.806 1746.7 2878.39 
-232.659 1747.06 2878.39 
-226.487 1737.02 2891.7 
-226.42 1736.9 2891.81 
-226.511 1737.21 2891.64 
-226.565 1737.45 2891.55 
-226.668 1737.59 2891.39 
-226.682 1737.84 2891.32 
-226.659 1738.11 2891.29 
-226.703 1738.05 2891.24 
-226.573 1737.38 2891.54 
-226.703 1738.34 2891.18 
-226.721 1738.46 2891.16 
-225.987 1732.35 2893.26 
-225.794 1732.02 2893.56 
-225.567 1731.78 2893.81 
-225.847 1733 2893.31 
-225.994 1732.76 2893.19 
-225.944 1732 2893.37 
-225.96 1732.15 2893.33 
-225.825 1733.37 2893.21 
-225.662 1733.36 2893.37 
-224.1 1737.16 2894.96 
-223.65 1737.16 2895.58 
-223.254 1737.21 2896.12 
-222.819 1737.3 2896.72 
-225.92 1737.06 2892.46 
-225.489 1737.14 2893.04 
-225.112 1737.15 2893.55 
-224.608 1737.15 2894.26 
-226.681 1738.77 2891.4 
-226.732 1739.05 2891.29 
-226.736 1738.97 2891.3 
-226.7 1738.9 2891.36 
-226.7 1738.82 2891.37 
-226.765 1739.3 2891.21 
-226.797 1739.19 2891.2 
-226.781 1739.07 2891.24 
-226.739 1739.66 2891.24 
-226.5 1740.36 2891.61 
-226.552 1740.64 2891.55 
-226.623 1741 2891.48 
-226.581 1740.85 2891.54 
-226.601 1741 2891.54 
-226.607 1740.8 2891.49 
-226.701 1738.74 2891.37 
-226.716 1741.34 2891.47 
-226.606 1741.06 2891.54 
-226.757 1741.63 2891.53 
-226.87 1741.9 2891.53 
-226.727 1738.78 2891.35 
-226.786 1738.75 2891.27 
-226.734 1738.72 2891.34 
-226.721 1738.56 2891.23 
-226.796 1738.68 2891.27 
-226.758 1738.61 2891.24 
-226.736 1738.52 2891.18 
-225.077 1731.31 2894.36 
-225.076 1731.23 2894.37 
-225.068 1731.13 2894.38 
-224.747 1730.66 2894.66 
-224.631 1730.61 2894.75 
-224.492 1730.51 2894.86 
-224.917 1730.83 2894.52 
-224.827 1730.71 2894.59 
-224.982 1730.89 2894.46 
-225.017 1730.97 2894.42 
-225.065 1731.02 2894.38 
-225.426 1731.71 2893.99 
-225.312 1731.55 2894.16 
-225.148 1731.45 2894.3 
-225.275 1731.45 2894.21 
-225.114 1731.42 2894.33 
-225.113 1731.37 2894.33 
-224.205 1730.4 2895.16 
-224.28 1730.5 2895.11 
-224.268 1730.26 2895.08 
-224.399 1730.39 2894.95 
-224.295 1730.25 2895.04 
-173.637 1676.09 2907.83 
-173.251 1675.97 2908.14 
-173.167 1676.12 2908.31 
-217.871 1686.63 2944.15 
-218.333 1686.69 2944.94 
-218.239 1686.73 2944.83 
-213.828 1682.88 2944.12 
-215.635 1684.55 2944.11 
-211.226 1680.82 2943.7 
-210.491 1680.19 2944.1 
-212.176 1681.43 2943.62 
-217.051 1686.03 2943.39 
-216.638 1685.6 2943.31 
-216.581 1685.46 2943.45 
-217.402 1686.49 2943.59 
-212.356 1681.93 2943 
-213.606 1683.02 2943.35 
-214.972 1684.28 2942.99 
-216.584 1685.78 2942.42 
-210.645 1680.56 2943.67 
-212.199 1681.64 2943.34 
-219.366 1689.07 2941.38 
-217.187 1686.47 2942.68 
-218.114 1687.51 2943.41 
-218.863 1688.47 2942.94 
-219.017 1688.65 2941.92 
-219.389 1689.02 2941.73 
-223.875 1696.37 2940.75 
-223.906 1695.93 2941.05 
-224.18 1695.88 2941.31 
-224.078 1695.65 2941.51 
-223.964 1695.83 2941.99 
-223.634 1695.68 2942.13 
-223.242 1695.47 2942.51 
-222.859 1695.2 2943.26 
-222.18 1696.46 2934.87 
-222.968 1698.23 2936.26 
-223.827 1700.39 2938.91 
-223.925 1700.25 2938.58 
-223.69 1700.58 2939.23 
-223.992 1700.06 2938.26 
-224.169 1699.88 2937.95 
-224.129 1699.51 2937.38 
-224.286 1699.7 2937.6 
-223.985 1699.16 2937 
-223.352 1698.33 2936.31 
-223.726 1700.97 2939.75 
-223.552 1701.11 2939.97 
-223.779 1700.34 2940.25 
-224.069 1697.99 2940.31 
-219.934 1689.46 2944.1 
-219.647 1689.17 2944 
-219.014 1688.74 2943.75 
-240.303 1694.26 2939.74 
-240.72 1694.65 2939.82 
-243.348 1697.46 2939.74 
-239.789 1694.45 2941.1 
-241.521 1695.84 2940.5 
-244.455 1701.13 2942.2 
-245.088 1702.27 2942.03 
-245.29 1704.73 2944.03 
-219.65 1689.81 2944.88 
-219.376 1690.06 2945.81 
-224.849 1692.35 2946.22 
-219.591 1690.63 2946.79 
-218.694 1689.77 2946.43 
-227.881 1695.51 2945.84 
-229.102 1695.44 2947.67 
-228.566 1695.38 2947.05 
-229.879 1695.56 2948.32 
-230.531 1696.07 2949 
-232.057 1697.25 2950.05 
-233.67 1695.72 2947.61 
-235.308 1693.58 2945.18 
-231.152 1697.43 2950.7 
-237.185 1693.72 2944.03 
-237.39 1693.28 2943.12 
-238.01 1693.16 2941.76 
-244.683 1704.2 2945.81 
-246.425 1707.95 2948.7 
-249.382 1711.96 2949.17 
-249.171 1711.8 2950.02 
-249.153 1711.64 2948.23 
-250.133 1713 2948.53 
-250.938 1714.14 2948.75 
-252.586 1715.77 2948.81 
-254.232 1718.74 2947.79 
-254.132 1719.5 2947.16 
-254.794 1717.85 2949.35 
-258.018 1720.38 2951.55 
-257.904 1720.51 2951.19 
-257.624 1720.6 2950.74 
-255.4 1719.41 2948.49 
-255.587 1718.26 2950.27 
-254.337 1720.28 2947 
-253.361 1720.95 2945.8 
-253.427 1721.55 2945.63 
-253.411 1722.02 2945.41 
-253.38 1722.45 2945.31 
-253.079 1723.51 2943.47 
-253.517 1723.91 2945.77 
-253.392 1724.1 2945.37 
-253.334 1724.32 2945 
-253.138 1723.47 2943.98 
-253.431 1724.96 2942.22 
-254.094 1727.37 2942.22 
-254.153 1727.89 2941.79 
-254.345 1729.03 2942.59 
-254.287 1730.09 2941.8 
-254.492 1729.72 2942.51 
-253.939 1731.16 2940.83 
-253.199 1732.56 2939.32 
-252.136 1733.18 2936.96 
-251.344 1732.78 2935.02 
-244.962 1733.03 2911.55 
-245.2 1733.55 2909.28 
-245.328 1733.03 2908.24 
-245.299 1732.82 2908.82 
-244.637 1732.97 2914.15 
-244.02 1731.58 2913.49 
-243.965 1731.33 2914.03 
-243.927 1730.98 2914.36 
-243.944 1730.61 2914.64 
-244.019 1730.23 2914.94 
-244.085 1729.67 2915.07 
-244.215 1727.98 2914.55 
-243.689 1727.86 2913.11 
-243.539 1728.08 2912.61 
-243.471 1728.27 2911.97 
-243.482 1728.77 2911.46 
-243.656 1729.63 2910.93 
-243.495 1729.18 2911.27 
-243.932 1729.17 2909.52 
-244.556 1730.46 2908.71 
-245.144 1731.73 2908.12 
-245.12 1731.8 2907.38 
-245.248 1732.23 2907.89 
-243.882 1732.56 2904.12 
-243.819 1733.07 2903.41 
-243.662 1732.35 2902.4 
-245.174 1732.19 2907.19 
-244.513 1732.01 2905.75 
-243.901 1732.91 2901.62 
-170.508 1663.84 2913.78 
-170.388 1664 2913.87 
-170.224 1664.47 2913.8 
-189.765 1684.08 2905.02 
-192.593 1683.79 2902.67 
-188.079 1683.86 2906.32 
-188.16 1684.53 2906.37 
-188.444 1685.84 2906.38 
-188.5 1685.15 2906.32 
-187.941 1686.55 2906.54 
-188.089 1688.78 2906.96 
-187.164 1689.38 2909.03 
-187.154 1689.07 2908.31 
-186.91 1688.99 2908.4 
-187.601 1689.61 2909.72 
-187.284 1689.39 2909.91 
-187.353 1689.56 2909.48 
-187.01 1689.34 2909.69 
-186.78 1689.21 2909.18 
-186.968 1689.27 2909.03 
-192.06 1682.52 2902.73 
-192.214 1682.53 2902.67 
-190.001 1682.5 2904.48 
-189.216 1684.91 2905.86 
-190.125 1681.74 2904.16 
-191.353 1681.58 2903.06 
-184.685 1685.96 2910.28 
-184.799 1685.71 2910.37 
-184.563 1686.23 2910.2 
-184.921 1685.46 2910.45 
-184.166 1687.21 2909.95 
-184.32 1687.03 2910.05 
-184.437 1686.58 2910.12 
-183.832 1688.51 2912.02 
-181.937 1689.38 2912.45 
-184.77 1684.71 2910.28 
-184.754 1685.33 2910.3 
-184.665 1684.65 2910.19 
-184.613 1684.4 2910.13 
-184.463 1684.01 2909.99 
-184.504 1684.65 2910.05 
-184.526 1685.04 2910.09 
-184.443 1685.68 2910.07 
-184.38 1686.34 2910.05 
-245.041 1733.49 2898.17 
-246.009 1734.55 2896.2 
-248.235 1738.16 2896.52 
-249.502 1739.85 2896.94 
-249.478 1740.04 2896.33 
-249.185 1740.58 2894.12 
-248.775 1741.12 2891.47 
-249.282 1741.39 2893.18 
-249.019 1743.48 2887.22 
-249.753 1747.01 2885.37 
-249.918 1747.77 2884.66 
-249.84 1748.11 2884 
-250.058 1749.36 2883.3 
-250.174 1748.5 2884.29 
-249.249 1750.86 2880.56 
-246.37 1750.47 2877.34 
-246.035 1749.58 2877.2 
-249.697 1753.18 2879.15 
-248.7 1753.13 2877.9 
-249.471 1751.74 2879.98 
-247.144 1751.72 2877.14 
-246.806 1750.76 2877.53 
-245.407 1749.93 2876.53 
-244.971 1748.9 2876.53 
-244.557 1748.5 2876.47 
-243.881 1747.01 2876.94 
-242.731 1744.98 2877.14 
-241.432 1743.91 2876.77 
-240.76 1743.11 2876.96 
-242.428 1745.23 2876.87 
-237.092 1740.74 2877.62 
-236.935 1740.55 2877.5 
-239.043 1741.9 2877.35 
-240.568 1743.21 2876.86 
-237.827 1741.05 2877.79 
-236.84 1740.5 2877.42 
-236.856 1739.94 2878.22 
-236.756 1740.47 2877.43 
-227.333 1735.26 2887.09 
-227.725 1735.23 2886.71 
-227.226 1735.49 2887.46 
-227.398 1735.74 2887.57 
-227.417 1735.6 2887.39 
-229.216 1735.29 2887.61 
-228.975 1735.17 2887.44 
-228.907 1735.23 2887.37 
-228.646 1735.2 2886.54 
-228.516 1735.34 2885.51 
-228.263 1735.37 2886.08 
-227.544 1735.42 2888.53 
-227.426 1735.56 2888.11 
-227.344 1735.77 2887.77 
-236.784 1739.85 2878.38 
-236.616 1739.24 2879.18 
-236.332 1739 2879.46 
-236.694 1739.61 2878.69 
-236.72 1739.9 2878.37 
-235.675 1739.02 2880.87 
-232.828 1746.7 2878.13 
-235.669 1739.18 2880.65 
-235.169 1741.02 2880.86 
-235.862 1739.6 2880.31 
-234.328 1743.09 2880.07 
-230.859 1735.95 2887.92 
-230.701 1736.19 2887.99 
-230.851 1736.38 2888.04 
-230.657 1735.76 2887.96 
-230.954 1736.54 2888.16 
-230.11 1735.58 2887.86 
-229.655 1735.49 2887.72 
-229.346 1735.43 2887.61 
-233.54 1732.08 2889.33 
-233.17 1732.1 2889.41 
-232.947 1732.3 2889.37 
-234.304 1731.99 2889.36 
-233.779 1732.07 2889.29 
-233.708 1732.04 2889.32 
-233.683 1732 2889.35 
-233.638 1732.02 2889.35 
-234.358 1732 2889.39 
-233.065 1732.42 2889.35 
-220.431 1732.64 2893.51 
-221.503 1729.13 2893.84 
-221.008 1731.07 2893.63 
-219.748 1732.19 2892.7 
-219.74 1732.14 2892.66 
-219.673 1732.09 2892.59 
-219.686 1732.03 2892.55 
-220.062 1732.34 2892.99 
-219.946 1732.67 2893.15 
-219.69 1732 2892.52 
-219.622 1731.94 2892.43 
-219.974 1732.01 2892.67 
-221.782 1727.72 2893.82 
-221.75 1727.83 2893.79 
-221.767 1727.76 2893.72 
-221.734 1727.91 2893.87 
-221.719 1727.97 2893.93 
-221.703 1728.04 2894.01 
-221.698 1728.18 2894.13 
-221.688 1728.11 2894.08 
-221.61 1728.35 2893.98 
-221.572 1728.51 2893.96 
-221.421 1729.1 2893.73 
-220.387 1732.03 2892.84 
-220.79 1731.92 2892.98 
-219.659 1731.87 2892.39 
-220.002 1731.92 2892.6 
-221.68 1729.15 2893.98 
-221.647 1728.69 2893.83 
-221.794 1727.75 2894.14 
-221.638 1728.33 2893.76 
-221.824 1727.62 2894.06 
-221.824 1727.61 2893.98 
-221.809 1727.7 2894.11 
-214.11 1724.59 2904.54 
-214.43 1724.58 2904.01 
-214.327 1724.64 2904.24 
-214.549 1726.28 2904.82 
-214.225 1726.73 2905.75 
-214.451 1725.53 2904.54 
-210.692 1716.75 2904.7 
-210.375 1716.77 2905.52 
-211.11 1716.82 2904.52 
-211.001 1716.41 2904.64 
-210.815 1716.12 2904.88 
-210.567 1715.84 2905.2 
-210.338 1715.55 2905.49 
-210.246 1715.18 2905.6 
-210.132 1714.86 2905.72 
-210.003 1714.65 2905.79 
-209.826 1714.59 2905.96 
-209.587 1714.58 2906.23 
-209.616 1714.44 2906.16 
-209.647 1714.28 2906.08 
-209.645 1714.14 2906.04 
-209.792 1713.95 2905.82 
-209.489 1713.93 2906.16 
-209.031 1712.07 2906.28 
-208.79 1711.14 2906.3 
-208.668 1711.25 2906.36 
-208.56 1711.43 2906.37 
-208.425 1711.66 2906.44 
-208.43 1711.99 2906.52 
-209.709 1715.49 2905.93 
-209.635 1715.76 2905.87 
-209.652 1716.13 2905.85 
-209.679 1715.44 2906.05 
-209.576 1715.03 2906.29 
-209.146 1714.47 2906.66 
-209.235 1714.59 2906.6 
-209.307 1714.72 2906.55 
-209.367 1714.74 2906.48 
-209.44 1714.86 2906.44 
-209.51 1714.98 2906.39 
-208.731 1713.92 2906.78 
-208.609 1713.65 2906.75 
-208.952 1714.36 2906.74 
-208.402 1713.13 2906.82 
-208.422 1713.47 2906.8 
-208.361 1712.43 2906.72 
-205.913 1703.48 2907.56 
-205.648 1703.6 2907.6 
-205.994 1703.36 2907.68 
-205.62 1703.4 2908.02 
-205.456 1703.53 2908.35 
-206.141 1703.34 2907.64 
-205.749 1705.36 2907.88 
-206.368 1705.38 2907.58 
-206.066 1705.47 2907.75 
-205.722 1705.5 2907.9 
-173.388 1676.15 2908.1 
-156.07 1653.65 2917 
-156.231 1653.59 2917.02 
-156.153 1653.11 2916.92 
-155.992 1653.38 2917.03 
-155.883 1653.61 2917.13 
-155.732 1653.81 2917.27 
-155.818 1653.91 2917.13 
-155.944 1653.93 2917 
-8.59024 1916.47 2828.78 
-8.40131 1916.23 2828.88 
10.8505 1851.68 2820.43 
10.9515 1851.63 2820.36 
10.9414 1851.75 2820.37 
10.0772 1860.21 2820.89 
9.9766 1859.42 2820.61 
12.7971 1853.05 2818.68 
12.5782 1853.35 2818.55 
12.4555 1853.32 2818.69 
12.6113 1853.2 2818.63 
12.3838 1853.44 2818.73 
12.305 1853.34 2818.85 
12.2244 1853.48 2818.89 
12.2534 1853.59 2818.77 
11.1146 1854.46 2817.77 
11.7325 1853.96 2818.23 
12.1368 1853.54 2818.96 
11.6884 1852.94 2819.64 
11.7924 1852.93 2819.52 
11.9098 1852.88 2819.4 
11.7219 1852.98 2819.59 
11.9904 1853.13 2819.21 
12.0014 1853.01 2819.25 
12.1438 1853.22 2819.04 
12.2132 1853.35 2818.94 
12.0049 1852.81 2819.32 
11.6026 1852.76 2819.76 
11.1721 1852.26 2820.19 
10.9505 1851.84 2820.38 
11.1575 1853.55 2820.9 
10.2598 1852.94 2821.48 
10.1937 1852.9 2821.53 
9.94216 1852.91 2821.8 
9.88324 1852.83 2821.81 
9.70538 1852.68 2821.87 
10.9979 1853.12 2820.8 
10.856 1853.06 2820.95 
11.063 1853.29 2820.91 
11.1057 1853.39 2820.97 
11.162 1853.49 2820.98 
10.0205 1852.43 2821.39 
10.8537 1852.94 2820.85 
10.5574 1852.74 2821.06 
12.6292 1849.45 2820.9 
12.8851 1849.55 2820.75 
13.0317 1849.65 2820.67 
12.7516 1849.44 2820.83 
12.8929 1849.73 2820.61 
11.0759 1851.55 2820.33 
11.1431 1851.42 2820.35 
11.0474 1851.7 2820.3 
11.3865 1849.83 2820.99 
10.8961 1850.12 2821 
11.0615 1850.37 2820.85 
11.1933 1850.84 2820.62 
11.2343 1850.6 2820.7 
11.2099 1851.06 2820.48 
11.2494 1851.3 2820.36 
12.3517 1849.9 2820.61 
11.8202 1850.14 2820.72 
11.7729 1851.01 2820.3 
11.8719 1851.83 2819.81 
12.4455 1852.61 2819.17 
12.4743 1853.08 2818.81 
12.6003 1852.96 2818.84 
-210.909 1731.95 2914.13 
-210.44 1733.18 2916.79 
-211.855 1734.91 2917.11 
-211.697 1734.71 2916.86 
-212.083 1735.09 2917.19 
-212.286 1735.24 2917.25 
-212.408 1735.34 2917.31 
-212.593 1735.46 2917.34 
-212.804 1735.6 2917.36 
-213.858 1739.37 2919.16 
-213.933 1739.8 2919.53 
-213.898 1739.92 2920 
-213.917 1740.08 2921.15 
-213.711 1739.9 2921.32 
-214.041 1740.16 2920.93 
-214.095 1740.18 2920.61 
-214.094 1740.14 2920.3 
-213.376 1737.55 2918.35 
-212.923 1735.72 2917.43 
-213.51 1739.69 2921.37 
-210.459 1736.28 2923.65 
-210.655 1736.48 2923.83 
-211.601 1736.67 2923.44 
-211.465 1736.5 2923.4 
-212.053 1737.04 2923.24 
-212.399 1737.25 2922.79 
-213.069 1738.69 2922.26 
-208.956 1734.46 2923.01 
-208.686 1733.93 2922.25 
-208.859 1734.45 2923.17 
-208.149 1732.64 2922.16 
-208.212 1732.81 2922.2 
-208.368 1733.04 2922.13 
-208.185 1732.52 2922.02 
-208.075 1732.45 2922.13 
-208.565 1733.58 2922.14 
-208.418 1733.21 2922.15 
-209.001 1735.22 2924.08 
-209.074 1735.65 2924.39 
-209.242 1736.04 2924.31 
-209.405 1736.25 2924.2 
-209.748 1736.65 2924.44 
-209.869 1736.65 2924.38 
-210.037 1736.69 2924.43 
-210.061 1736.67 2924.29 
-210.144 1736.66 2924.17 
-208.161 1730.83 2918.73 
-208.282 1731.29 2919.43 
-207.508 1729.44 2918.5 
-208.311 1731.94 2920.8 
-208.165 1732.37 2921.89 
-208.562 1727.83 2916.05 
-208.125 1728.49 2917.18 
-210.007 1724.67 2911.57 
-209.296 1725.42 2913.19 
-210.064 1726.2 2912.49 
-209.983 1726.9 2913.09 
-209.982 1727.59 2913.55 
-209.727 1728.12 2914.33 
-211.155 1724.24 2909.42 
-211.414 1725.18 2909.64 
-205.831 1724.77 2916.12 
-205.693 1724.36 2916.05 
-205.476 1724.52 2916.5 
-205.092 1727.65 2919.49 
-204.127 1728.02 2921.53 
-202.141 1726.01 2922.51 
-205.293 1727.93 2919.51 
-205.496 1727.1 2918.59 
-205.496 1726.36 2917.99 
-205.101 1725.17 2917.52 
-204.482 1723.96 2917.32 
-195.992 1718.6 2922.86 
-195.342 1717.95 2923.04 
-194.297 1716.55 2922.83 
-192.572 1714.3 2922.28 
-193.093 1715.12 2922.59 
-200.884 1724.55 2922.19 
-199.935 1722.66 2921.23 
-198.249 1720.9 2921.74 
-197.188 1719.74 2922.32 
-196.781 1719.33 2922.77 
-196.445 1719.06 2923.01 
-196.582 1719.23 2923.03 
-196.652 1719.3 2923.01 
-196.722 1719.33 2922.91 
-196.798 1719.38 2922.82 
-217.322 1737.45 2909.34 
-217.215 1737.22 2909.03 
-216.965 1736.84 2908.81 
-216.661 1736.59 2909.09 
-217.142 1737.22 2909.28 
-217.195 1737.48 2909.71 
-217.092 1737.45 2909.87 
-216.927 1737.42 2910.01 
-216.705 1737.13 2909.84 
-216.732 1736.98 2909.6 
-216.691 1736.83 2909.33 
-213.595 1734.66 2912.62 
-212.783 1733.85 2913.56 
-215.109 1736.32 2913.52 
-211.386 1732.47 2913.99 
-214.474 1734.37 2910.34 
-216.793 1737.34 2910.15 
-216.562 1732.59 2904.93 
-216.456 1731.86 2904.82 
-216.549 1732.71 2905.03 
-216.36 1731.03 2904.65 
-216.524 1733.3 2905.23 
-216.6 1732.97 2905.01 
-216.674 1732.84 2905.05 
-216.625 1732.82 2905.03 
-216.596 1732.77 2905.01 
-216.622 1733.04 2905.03 
-216.64 1733.11 2905.06 
-216.572 1733.38 2905.17 
-216.59 1733.3 2905.11 
-216.667 1733.17 2905.08 
-216.499 1733.42 2905.33 
-216.453 1733.67 2905.62 
-216.238 1733.9 2906.15 
-216.534 1733.41 2905.25 
-215.573 1734.39 2907.9 
-216.247 1734.44 2906.55 
-214.317 1734.06 2910.22 
-216.105 1734.03 2906.52 
-216.125 1733.99 2906.43 
-216.229 1730.11 2904.51 
-192.353 1713.49 2922 
-192.376 1713.65 2922.08 
-193.21 1713.83 2921.3 
-192.958 1713.6 2921.35 
-193.469 1713.89 2921.02 
-192.724 1713.32 2921.43 
-192.524 1713.25 2921.61 
-192.33 1713.36 2921.98 
-196.615 1715.62 2919.09 
-196.862 1716.06 2919.04 
-196.049 1715.04 2919.46 
-194.696 1714.39 2920.18 
-200.254 1714.35 2914.18 
-200.165 1713.58 2913.76 
-200.079 1713.23 2913.51 
-200.454 1713.01 2912.94 
-200.292 1713.12 2913.2 
-200.254 1713.1 2913.21 
-200.199 1713.14 2913.3 
-201.068 1712.6 2912.23 
-201.191 1712.44 2912.18 
-200.898 1712.62 2912.27 
-201.295 1712.21 2912.14 
-201.518 1712 2912.01 
-202.438 1711.76 2911.4 
-202.917 1710.8 2910.98 
-203.161 1711.3 2910.83 
-203.218 1711.88 2910.89 
-203.315 1712.09 2910.91 
-203.493 1712.13 2910.79 
-203.827 1712.12 2910.58 
-203.69 1712.07 2910.64 
-204.292 1713.16 2910.67 
-204.651 1714.33 2910.78 
-204.418 1713.57 2910.69 
-205.009 1714.81 2910.73 
-203.917 1712.58 2910.73 
-203.961 1712.35 2910.61 
-204.055 1712.26 2910.5 
-204.216 1712.64 2910.56 
-200.273 1714.97 2914.72 
-200.218 1714.48 2914.33 
-199.456 1716.4 2916.52 
-198.546 1716.81 2917.7 
-199.73 1715.93 2915.99 
-199.47 1716.21 2916.39 
-200.006 1715.64 2915.58 
-200.045 1715.4 2915.39 
-200.14 1715.1 2915.04 
-206.01 1718.44 2910.89 
-207.921 1719.01 2909.36 
-204.747 1718.14 2911.78 
-204.413 1717.77 2911.9 
-204.489 1717.5 2911.79 
-204.61 1717.37 2911.69 
-204.895 1717.1 2911.44 
-204.99 1716.84 2911.28 
-204.754 1717.27 2911.58 
-205.057 1716.57 2911.13 
-205.094 1716.43 2911.02 
-205.085 1716.28 2910.91 
-205.086 1715.55 2910.76 
-205.053 1715.94 2910.7 
-205.021 1716.08 2910.8 
-205.125 1715.16 2910.69 
-206.322 1718.33 2910.61 
-208.329 1718.62 2909.16 
-207.896 1719.55 2910.36 
-208.541 1720.58 2910.26 
-207.55 1720.56 2911.43 
-205.743 1723.1 2914.88 
-205.68 1722.1 2914.16 
-205.916 1721.45 2913.42 
-212.659 1726.28 2908.24 
-213.564 1727.19 2907.29 
-214.13 1727.7 2906.55 
-205.765 1723.76 2915.4 
-223.542 1748.79 2900.28 
-223.891 1749.23 2900.04 
-224.232 1749.7 2899.8 
-224.486 1750.35 2899.45 
-224.88 1750.75 2898.81 
-224.967 1750.81 2898.66 
-224.91 1750.73 2898.57 
-225.073 1750.88 2898.46 
-225.053 1750.84 2898.34 
-226.636 1740.5 2891.37 
-226.727 1739.64 2891.24 
-226.626 1740.28 2891.4 
-226.69 1740.83 2891.3 
-226.626 1740.61 2891.41 
-225.557 1739.07 2892.88 
-226.204 1739.27 2891.98 
-226.822 1742.18 2891.82 
-227.016 1741.51 2891.34 
-226.723 1741.18 2891.23 
-226.764 1741.2 2891.27 
-225.836 1745.43 2893.96 
-225.643 1750.29 2894.47 
-225.346 1747.44 2895.03 
-225.06 1749.54 2895.75 
-224.325 1749.65 2897.93 
-225.073 1750.52 2896.25 
-224.74 1750.18 2897.6 
-226.687 1740.97 2891.25 
-222.521 1738.54 2897.05 
-223.24 1738.19 2896.12 
-223.776 1738.35 2895.39 
-224.562 1738.61 2894.3 
-225.332 1738.88 2893.21 
-222.097 1738.2 2897.64 
-220.897 1737.63 2899.32 
-221.414 1737.7 2898.61 
-222.159 1738.07 2897.58 
-220.358 1737.65 2900.04 
-220.215 1737.67 2900.26 
-220.259 1737.56 2900.19 
-220.24 1737.69 2900.24 
-225.543 1751.61 2895.74 
-225.519 1751.86 2896.21 
-225.537 1751.83 2896.04 
-225.587 1751.51 2895.46 
-225.575 1751.69 2895.71 
-225.588 1751.42 2895.31 
-225.586 1751.31 2895.18 
-225.595 1751.21 2894.99 
-225.541 1751 2894.88 
-225.617 1752.04 2896.68 
-225.598 1751.99 2896.43 
-225.602 1751.98 2896.32 
-225.657 1752.08 2896.53 
-225.664 1751.9 2897.74 
-225.631 1751.8 2897.9 
-225.734 1752.07 2897.43 
-225.755 1752.01 2897.84 
-225.785 1752.16 2897.37 
-225.622 1750.48 2892.36 
-225.788 1750.82 2892.93 
-225.785 1750.73 2892.67 
-225.694 1750.93 2893.85 
-225.576 1750.23 2892.21 
-225.552 1749.95 2892.04 
-225.726 1749.47 2891.9 
-225.945 1748.82 2891.75 
-225.258 1751.09 2898.26 
-225.311 1751.22 2898.11 
-225.42 1751.37 2898.21 
-225.45 1751.46 2898.08 
-225.547 1751.59 2898.11 
-225.638 1751.75 2897.83 
-225.666 1751.8 2897.99 
-232.532 1747.42 2878.9 
-231.92 1749.92 2878.54 
-232.516 1747.39 2878.63 
-231.249 1750.96 2879.35 
-230.752 1753.62 2879.5 
-230.645 1756.99 2878.84 
-230.746 1757.72 2878.54 
-230.642 1758.18 2878.35 
-230.734 1758.55 2878.32 
-231.228 1760.8 2879.23 
-231.28 1760.77 2879.14 
-231.486 1762.59 2879.93 
-231.543 1762.81 2880.08 
-231.683 1763.1 2880.24 
-231.666 1763.07 2880.18 
-231.756 1763.26 2880.37 
-231.793 1763.3 2880.32 
-231.768 1763.33 2880.42 
-231.724 1763.3 2880.47 
-231.096 1757.76 2880.3 
-231.405 1757.41 2879.71 
-231.373 1757.53 2879.84 
-231.276 1757.68 2880.05 
-230.816 1758.6 2880.38 
-230.915 1758.79 2880.19 
-230.896 1758.37 2880.37 
-230.957 1758.12 2880.36 
-231.122 1759.05 2879.97 
-231.458 1760.76 2880.64 
-231.456 1760.63 2880.54 
-231.593 1762.23 2880.81 
-231.665 1762.63 2880.69 
-231.691 1762.94 2880.61 
-231.081 1758.06 2880.27 
-231.695 1763.24 2880.53 
-231.953 1758.44 2879.67 
-231.575 1757.3 2879.48 
-232.38 1759.86 2879.78 
-231.456 1756.72 2879.47 
-231.39 1756.54 2879.51 
-231.333 1757.02 2879.68 
-231.244 1756.33 2879.74 
-231.261 1755.73 2879.52 
-231.273 1755.73 2879.51 
-231.463 1756.45 2879.33 
-231.352 1755.95 2879.4 
-235.772 1767.92 2888.16 
-235.661 1767.65 2887.29 
-235.757 1767.43 2885.9 
-235.303 1767.01 2886.32 
-236.667 1768.44 2885.98 
-234.417 1765.73 2888.51 
-233.777 1764.69 2888.93 
-234.878 1766.56 2888.25 
-234.418 1765.75 2888.64 
-235.22 1767.55 2887.85 
-235.47 1767.89 2887.9 
-235.129 1767.34 2888.04 
-235.566 1767.9 2888.15 
-234.979 1766.86 2888.18 
-235.062 1767.14 2888.13 
-235.605 1767.84 2888.41 
-234.17 1765.02 2886.53 
-233.885 1764.67 2887.04 
-233.112 1763.54 2887.52 
-233.479 1764.07 2888 
-233.542 1764.21 2887.35 
-233.532 1764.19 2888.38 
-235.016 1766.67 2886.04 
-235.235 1767.17 2885.85 
-235.468 1767.35 2884.98 
-235.519 1767.89 2884.3 
-234.382 1765.28 2886.17 
-233.632 1764.42 2888.82 
-239.382 1764.98 2878.37 
-239.449 1765.49 2878.4 
-239.732 1765.91 2878.23 
-240.073 1766.28 2877.97 
-239.947 1767.33 2878.3 
-240.034 1765.84 2877.96 
-236.047 1768.26 2883.45 
-235.922 1768.38 2883.65 
-235.491 1767.59 2883.85 
-235.584 1767.85 2883.9 
-237.822 1769.65 2885.43 
-237.373 1769.16 2885.85 
-235.875 1767.85 2883.45 
-237.417 1770.43 2883.74 
-236.691 1769.57 2882.87 
-235.871 1768.43 2883.97 
-236.287 1768.74 2882.38 
-236.248 1768.85 2882.54 
-236.194 1768.9 2883.01 
-236.041 1768.63 2884.01 
-241.087 1774.42 2877.15 
-241.687 1775.09 2876.69 
-241.282 1775.58 2877.28 
-241.457 1774.76 2876.67 
-240.366 1772.65 2877.83 
-240.153 1771.95 2877.93 
-240.751 1773.64 2877.53 
-240.565 1773.08 2877.54 
-241.001 1774.08 2877.09 
-239.661 1769.58 2878.32 
-239.93 1768.05 2878.15 
-239.72 1768.59 2878.21 
-238.872 1768.92 2877.76 
-238.262 1763.18 2879.27 
-238.769 1763.51 2878.86 
-238.952 1764.04 2878.62 
-239.444 1763.81 2878.24 
-239.805 1763.96 2877.97 
-236.667 1762.44 2880.04 
-237.386 1762.33 2879.53 
-237.051 1762.47 2879.9 
-237.777 1762.45 2879.36 
-238.127 1762.7 2879.17 
-232.042 1761.4 2884.97 
-232.28 1761.78 2885.49 
-232.166 1761.76 2885.16 
-232.421 1761.95 2885.73 
-232.329 1761.75 2885.67 
-232.627 1762.45 2886.28 
-232.517 1762.11 2886.22 
-232.538 1762.02 2886.09 
-231.837 1760.96 2884.41 
-231.872 1761.16 2884.97 
-231.984 1761.51 2885.4 
-232.01 1761.46 2885.75 
-232.082 1761.73 2885.74 
-232.114 1761.71 2886.04 
-232.123 1761.6 2886.39 
-232.062 1761.32 2886.51 
-232.087 1761.3 2886.78 
-232.159 1761.36 2886.99 
-232.165 1761.73 2886.66 
-232.585 1762.51 2886.42 
-232.459 1759.99 2879.45 
-232.754 1760.53 2879.47 
-233.001 1760.83 2879.61 
-233.349 1760.97 2879.81 
-234.687 1761.66 2880.08 
-233.562 1760.96 2879.6 
-233.514 1761.03 2879.78 
-235.85 1762.12 2880.28 
-236.07 1762.06 2880.01 
-235.646 1768.22 2884.15 
-260.094 1775.41 2975.22 
-260.273 1776.03 2974.42 
-260.593 1776.54 2973.92 
-260.62 1777.16 2973.02 
-254.702 1748.06 2943.94 
-254.556 1747.56 2943.83 
-254.093 1746.43 2943.01 
-257.303 1751.41 2946.54 
-255.707 1748.68 2944.81 
-256.96 1749.74 2945.89 
-257.565 1752.38 2946.99 
-258.325 1753.02 2947.66 
-259.503 1754.01 2948.69 
-259.971 1754.53 2949.3 
-259.868 1756.78 2950.54 
-260.386 1755.03 2949.84 
-260.111 1756.67 2950.75 
-258.842 1758.38 2951.81 
-259.742 1761.19 2953.05 
-260.403 1763.89 2954.88 
-260.573 1764.65 2955.67 
-257.459 1761.22 2952.83 
-257.285 1760.94 2952.82 
-257.307 1761.45 2953.41 
-253.015 1746.51 2941.16 
-253.054 1746.76 2941.5 
-253.185 1746.8 2941.76 
-261.355 1767.49 2954.88 
-261.293 1767.53 2954.41 
-261.308 1767.34 2954.31 
-261.389 1766.94 2954.26 
-261.457 1766.55 2954.29 
-261.456 1766.6 2954.25 
-261.453 1766.52 2954.33 
-261.471 1766.39 2954.37 
-261.421 1766.27 2954.39 
-261.119 1766.72 2953.93 
-261.29 1767.64 2953.54 
-261.522 1768.16 2953.52 
-261.731 1768.38 2953.73 
-262.013 1769.11 2953.72 
-261.717 1766.81 2955.63 
-262.192 1768.87 2954.28 
-260.958 1766.08 2956.16 
-261.439 1766.21 2954.27 
-261.432 1766.23 2954.33 
-260.713 1765.47 2956.76 
-260.732 1765.85 2956.92 
-262.887 1769.16 2957.91 
-263.571 1770.22 2957.89 
-261.475 1767.63 2956.51 
-261.772 1768.19 2956.35 
-262.181 1768.63 2956.84 
-261.514 1767.7 2955.82 
-261.439 1767.69 2955.12 
-261.335 1767.61 2954.74 
-264.167 1771.77 2956.75 
-263.944 1771.53 2956.63 
-263.68 1771.28 2956.43 
-263.997 1773.04 2954.85 
-264.129 1773.24 2954.86 
-263.879 1772.8 2954.89 
-263.797 1772.53 2955.05 
-264.287 1773.48 2954.9 
-264.565 1773.71 2955.12 
-264.642 1773.2 2955.54 
-264.615 1771.34 2957.48 
-264.031 1771.22 2955.95 
-265.602 1771.25 2960.47 
-263.941 1773.04 2954.41 
-264.165 1773.43 2954.54 
-265.788 1772.5 2963.79 
-265.627 1773.52 2965.09 
-265.769 1773.53 2965.16 
-265.761 1773.37 2964.89 
-265.567 1773.88 2965.9 
-260.845 1777.59 2972.08 
-261.076 1777.59 2971.71 
-263.206 1775.77 2969.49 
-261.489 1777.37 2971.53 
-253.095 1744.26 2938.29 
-252.717 1743.22 2936.99 
-252.214 1742.36 2936.1 
-252.948 1745.51 2939.48 
-252.794 1746.4 2940.6 
-252.905 1746.27 2940.65 
-256.103 1770.39 2975.67 
-258.766 1773.11 2975.84 
-252.459 1767.74 2976.78 
-254.789 1768.91 2976.69 
-251.289 1765 2977.07 
-249.656 1762.87 2976.2 
-243.87 1762.49 2973.15 
-245.806 1762.15 2973.96 
-247.103 1761.4 2974.5 
-248.327 1761.88 2975.39 
-244.098 1761.75 2973.21 
-243.396 1758.77 2970.75 
-243.497 1759.65 2971.61 
-245.468 1760.71 2973.72 
-249.259 1768.2 2973.71 
-248.988 1768.49 2973.54 
-248.349 1768 2972.97 
-247.598 1767.5 2972.47 
-249.091 1767.38 2973.04 
-247.352 1765.46 2971.88 
-246.156 1765.3 2972.01 
-246.383 1765.33 2972.03 
-245.814 1765.45 2971.95 
-245.727 1765.64 2971.83 
-245.564 1765.52 2971.76 
-245.708 1765.83 2971.7 
-246.128 1766.24 2971.57 
-236.272 1768.96 2882.54 
-236.554 1769.53 2882.64 
-236.889 1769.94 2881.87 
-236.985 1770.16 2882.68 
-236.807 1769.78 2882.55 
-236.382 1768.84 2882.12 
-236.342 1768.86 2882.37 
-236.281 1768.87 2882.37 
-236.301 1769.02 2882.45 
-236.32 1769.07 2882.41 
-236.311 1768.91 2882.26 
-237.618 1771.62 2881.29 
-237.517 1771.49 2881.76 
-237.376 1771.09 2882.65 
-237.119 1770.43 2882.75 
-237.659 1771.63 2881.01 
-237.046 1770.32 2880.95 
-237.715 1771.58 2880.57 
-236.886 1769.98 2881.43 
-237.745 1771.74 2880.59 
-237.854 1771.99 2880.26 
-241.151 1776.33 2877.73 
-241.397 1776.63 2877.71 
-241.304 1776.5 2877.68 
-243.299 1742.25 2928.62 
-242.534 1742.22 2928.6 
-242.082 1742.31 2928.37 
-243.437 1742.27 2928.61 
-253.235 1739.65 2934.05 
-253.482 1739.4 2933.93 
-252.708 1740.5 2935.29 
-252.88 1740.43 2935.64 
-252.157 1740.99 2934.33 
-252.423 1740.77 2934.91 
-252.861 1744.07 2925.84 
-253.44 1743.68 2926.44 
-253.217 1743.4 2926.97 
-251.282 1743.19 2927.04 
-253.225 1740.97 2930.08 
-249.893 1742.61 2928.1 
-249.792 1755.05 2900.7 
-250.697 1756.51 2898.43 
-248.749 1744.12 2899.3 
-250.28 1751.13 2899.59 
-253.93 1758.53 2892.28 
-252.206 1762.73 2889.86 
-253.568 1761.17 2888.98 
-241.231 1739.25 2911.29 
-241.045 1739.33 2912.25 
-244.953 1734.42 2909.16 
-244.629 1735.01 2907.08 
-245.269 1733.48 2907.84 
-244.756 1734.55 2906.65 
-243.286 1737.12 2912.54 
-241.554 1740.17 2915.3 
-242.63 1737.99 2913.13 
-243.519 1739.4 2915.61 
-243.665 1738.1 2914.46 
-243.524 1736.95 2907.65 
-243.892 1736.51 2906.28 
-241.155 1739.64 2910.23 
-246.465 1741.3 2901.58 
-244.545 1738.23 2903.42 
-244.08 1737.04 2904.51 
-244.395 1737.04 2903.47 
-243.914 1736.71 2905.59 
-244.104 1736.45 2904.84 
-247.624 1739.41 2933.77 
-248.988 1738.79 2934.78 
-251.625 1734.45 2936.32 
-251.382 1738.27 2937.85 
-250.224 1738.63 2936.16 
-249.586 1739.01 2935.35 
-243.421 1777.74 2880.66 
-243.057 1777.98 2879.85 
-243.197 1777.9 2880.22 
-244.364 1777.1 2881.73 
-243.746 1777.52 2880.83 
-245.924 1773.78 2884.15 
-245.085 1776.03 2882.48 
-248.677 1768.75 2887.06 
-241.988 1777.56 2878.64 
-241.877 1777.16 2877.98 
-242.194 1776.81 2876.92 
-242.366 1777.84 2879.13 
-242.935 1778.02 2879.66 
-242.485 1777.82 2879.13 
-241.944 1776.62 2877.26 
-242.062 1776.75 2877.32 
-241.564 1776.72 2877.57 
-245.803 1740.81 2932.53 
-246.445 1741.51 2932.13 
-249.778 1742.51 2928.74 
-249.779 1742.45 2929.35 
-249.974 1742.43 2929.84 
-248.905 1742.14 2930.76 
-247.591 1741.77 2931.92 
-252.258 1741.3 2935.28 
-252.272 1741.74 2935.91 
-252.212 1742.05 2936.07 
-215.965 1728.43 2904.26 
-215.9 1729.62 2904.57 
-215.74 1728.83 2904.47 
-215.711 1728.23 2904.35 
-215.558 1727.44 2904.25 
-215.434 1726.7 2904.15 
-215.328 1725.98 2904.04 
-215.198 1725.23 2903.94 
-215.178 1724.21 2903.68 
-215.164 1724.53 2903.79 
-215.269 1724.2 2903.56 
-214.598 1724.16 2903.76 
-214.466 1724.38 2904.06 
-214.407 1724.42 2904.11 
-214.358 1724.47 2904.16 
-214.326 1724.08 2903.99 
-214.814 1724.25 2903.91 
-214.966 1724.65 2903.93 
-215.041 1725.26 2904.03 
-214.93 1725.42 2904.12 
-221.67 1731.4 2892.98 
-221.702 1730.92 2893.44 
-221.629 1730.71 2893.4 
-221.621 1730.24 2893.74 
-221.632 1729.58 2893.82 
-220.434 1731.85 2892.73 
-220.589 1731.73 2892.67 
-220.878 1731.61 2892.67 
-220.66 1731.48 2892.42 
-221.136 1731.41 2892.57 
-227.784 1737.64 2889.27 
-227.382 1738.66 2889.87 
-227.334 1738.36 2889.74 
-227.805 1738.95 2890.01 
-227.645 1738.77 2889.88 
-227.848 1739.36 2890.06 
-227.425 1738.38 2889.62 
-227.785 1737.72 2889.25 
-227.788 1736.78 2889.32 
-227.741 1735.76 2888.96 
-228.557 1738.4 2889.61 
-229.811 1737.06 2888.97 
-220.177 1736.9 2900.4 
-222.443 1737.19 2897.25 
-222.217 1737.29 2897.54 
-221.632 1737.29 2898.35 
-220.214 1737.03 2900.34 
-221.08 1737.33 2899.1 
-220.63 1737.28 2899.74 
-220.643 1737.2 2899.74 
-220.286 1737.18 2900.23 
-224.119 1732.94 2895.35 
-224.989 1733.2 2894.22 
-224.003 1731.5 2895.51 
-223.593 1732.25 2896.01 
-223.586 1732.5 2896.04 
-224.37 1730.58 2895.03 
-224.486 1730.61 2894.93 
-220.058 1737.1 2900.42 
-220.106 1737.39 2900.28 
-220.15 1737.48 2900.23 
-220.177 1737.53 2900.22 
-220.229 1737.61 2900.21 
-227.211 1742.35 2891.13 
-227.163 1742.38 2891.21 
-227.7 1742.86 2890.43 
-227.483 1742.64 2890.75 
-227.942 1743.19 2890.11 
-228.148 1743.46 2889.89 
-228.198 1743.54 2889.84 
-227.416 1746.36 2890.1 
-226.131 1748.62 2891.61 
-226.916 1747.85 2890.87 
-226.309 1748.45 2891.48 
-227.557 1745.98 2889.85 
-227.622 1745.26 2889.72 
-227.572 1743.75 2889.96 
-227.874 1743.84 2889.72 
-227.576 1744.47 2889.8 
-228.223 1743.48 2889.75 
-232.191 1749.65 2877.94 
-232.584 1747.16 2878.48 
-226.542 1737.08 2891.6 
-226.558 1736.99 2891.6 
-226.576 1737.3 2891.54 
-226.548 1737.18 2891.59 
-226.657 1737.45 2891.42 
-226.759 1737.59 2891.27 
-226.771 1737.83 2891.2 
-226.767 1738.01 2891.16 
-226.743 1738.26 2891.14 
-226.799 1738.21 2891.08 
-226.647 1737.37 2891.44 
-226.764 1738.44 2891.11 
-226.769 1738.5 2891.16 
-225.546 1731.67 2893.87 
-225.792 1732.46 2893.48 
-225.752 1732.79 2893.41 
-225.947 1731.77 2893.41 
-225.928 1731.81 2893.43 
-225.514 1731.53 2893.94 
-225.685 1732.77 2893.45 
-224.229 1737.3 2894.76 
-223.714 1737.29 2895.47 
-223.204 1737.33 2896.16 
-222.779 1737.26 2896.77 
-226.315 1737.01 2891.92 
-226.475 1737.05 2891.69 
-225.729 1737.35 2892.72 
-226.142 1737.23 2892.14 
-225.266 1737.51 2893.36 
-224.737 1737.36 2894.07 
-226.779 1738.96 2891.26 
-226.74 1738.88 2891.32 
-226.829 1739.33 2891.13 
-226.842 1739.12 2891.16 
-226.856 1739.24 2891.12 
-226.818 1739.03 2891.2 
-226.672 1739.37 2891.34 
-226.537 1740.47 2891.55 
-226.66 1740.84 2891.39 
-226.642 1740.72 2891.4 
-226.639 1740.97 2891.44 
-226.628 1741.12 2891.49 
-226.637 1741.12 2891.44 
-226.651 1740.97 2891.39 
-226.802 1741.35 2891.36 
-226.8 1741.53 2891.45 
-226.796 1741.6 2891.5 
-226.886 1741.81 2891.51 
-226.769 1738.87 2891.29 
-226.823 1738.94 2891.22 
-226.846 1738.82 2891.21 
-226.76 1738.56 2891.2 
-226.853 1738.73 2891.23 
-226.825 1738.63 2891.22 
-226.792 1738.61 2891.22 
-226.791 1738.56 2891.18 
-225.115 1731.29 2894.33 
-225.118 1731.2 2894.33 
-225.114 1731.1 2894.34 
-224.762 1730.59 2894.64 
-224.663 1730.55 2894.72 
-224.534 1730.48 2894.81 
-224.448 1730.4 2894.89 
-224.954 1730.79 2894.48 
-224.886 1730.71 2894.54 
-224.829 1730.62 2894.58 
-225.02 1730.97 2894.43 
-225 1730.79 2894.44 
-225.112 1730.99 2894.34 
-225.207 1731.38 2894.26 
-225.141 1731.36 2894.3 
-225.358 1731.37 2894.15 
-224.369 1730.3 2894.99 
-224.357 1730.29 2894.98 
-224.333 1730.22 2895 
-217.767 1686.85 2943.97 
-218.141 1686.82 2944.77 
-213.878 1683.06 2943.93 
-215.569 1684.63 2943.88 
-216.919 1685.95 2943.16 
-217.278 1686.45 2943.22 
-216.511 1685.57 2943.14 
-215.473 1684.62 2943.67 
-213.84 1683.13 2943.65 
-215.434 1684.66 2943.4 
-216.418 1685.54 2942.9 
-216.756 1685.87 2942.88 
-217.211 1686.43 2942.93 
-217.809 1687.13 2943.35 
-218.493 1688.03 2943.83 
-218.09 1687.45 2944.51 
-218.036 1687.27 2944.28 
-224.1 1696.14 2941.03 
-224.096 1696.46 2940.7 
-224.367 1696.14 2941.26 
-224.465 1695.95 2941.54 
-224.25 1695.81 2941.68 
-223.647 1695.87 2942.49 
-224.295 1696.02 2942 
-223.987 1696.08 2942.41 
-223.211 1695.53 2942.96 
-222.684 1698.22 2939.73 
-222.76 1696.45 2934.63 
-224.11 1700.13 2938.9 
-224.034 1700.2 2939.25 
-224.186 1700.11 2938.58 
-224.21 1700.05 2938.27 
-224.457 1699.84 2937.92 
-224.392 1699.95 2938.17 
-224.252 1699.36 2937.25 
-224.476 1699.58 2937.6 
-223.816 1698.57 2936.51 
-223.389 1696.39 2934.48 
-223.991 1696.49 2934.56 
-224.068 1700.49 2939.76 
-223.802 1700.99 2940.28 
-224.319 1697.9 2940.32 
-219.192 1689.43 2945.12 
-219.081 1689.06 2944.59 
-218.522 1688.31 2944.61 
-243.244 1699.34 2942.26 
-238.351 1694.25 2943.36 
-240.637 1697.37 2943.85 
-244.026 1703.55 2946.8 
-218.909 1689.36 2945.72 
-223.781 1692.83 2946.92 
-217.288 1689.84 2947.46 
-217.257 1688.42 2946.36 
-228.014 1694.94 2944.68 
-225.869 1696.54 2944.21 
-226.463 1695.83 2943.16 
-224.37 1697.53 2945.92 
-226.263 1696.83 2946.71 
-225.467 1697.59 2947.16 
-227.795 1697.35 2949.41 
-228.76 1697.34 2949.96 
-230.071 1697.93 2950.9 
-233.543 1699.96 2952.43 
-233.873 1702.51 2954.24 
-236.154 1694.52 2945.47 
-234.122 1697.79 2949.68 
-232.677 1702.42 2953.81 
-237.151 1696.59 2946.62 
-238.955 1696.94 2945.47 
-246.143 1708.42 2950.42 
-248.943 1711.88 2950.89 
-250.992 1714.18 2950.25 
-250.677 1713.95 2951.2 
-252.687 1715.68 2949.78 
-252.835 1715.86 2949.34 
-255.86 1718.34 2950.76 
-256.885 1720.55 2949.78 
-258.085 1720.25 2951.85 
-259.728 1722.07 2952.32 
-260.167 1722.2 2952.87 
-259.589 1722.2 2951.99 
-258.898 1722.09 2951.41 
-258.221 1720.24 2952.33 
-255.314 1721.28 2947.72 
-256.332 1720.79 2949.01 
-253.785 1721.79 2945.96 
-253.628 1722.35 2945.77 
-253.666 1723.74 2946.08 
-253.32 1724.96 2944.21 
-253.292 1724.69 2944.67 
-253.768 1725.19 2946.51 
-253.613 1725.35 2946.08 
-253.509 1725.56 2945.67 
-253.437 1725.6 2945.32 
-253.705 1726.03 2943.2 
-253.827 1726.9 2944.26 
-254.238 1728.48 2943.11 
-254.508 1729.09 2943.36 
-254.6 1730.57 2942.3 
-254.757 1729.75 2943.39 
-254.275 1731.8 2941.33 
-253.56 1733.26 2939.93 
-252.478 1734.66 2938.4 
-244.923 1732.58 2910.84 
-245.311 1732.64 2908.34 
-245.214 1732.22 2908.6 
-245.261 1733.07 2907.38 
-245.292 1732.74 2907.63 
-244.558 1732.7 2913.21 
-244.006 1731.47 2912.62 
-243.604 1730.46 2912.27 
-243.441 1730.11 2912.92 
-243.446 1730.13 2912.54 
-243.489 1730.3 2913.31 
-243.461 1729.95 2913.37 
-243.483 1729.81 2913.66 
-243.554 1729.5 2913.82 
-243.437 1729.45 2913.37 
-243.373 1729.64 2912.92 
-244.377 1731.17 2910.58 
-245.094 1731.82 2908.83 
-244.174 1734.13 2904.74 
-244.596 1733.02 2905.74 
-244.114 1734.51 2904.35 
-244.094 1734.78 2904.02 
-244.129 1734.79 2903.26 
-245.16 1732.75 2906.99 
-244.635 1734.58 2901.12 
-244.385 1735.44 2902.7 
-170.673 1663.99 2913.64 
-188.778 1683.32 2905.68 
-192.03 1683.02 2902.98 
-188.536 1682.85 2905.8 
-188.734 1683.45 2905.85 
-188.999 1684.14 2905.84 
-187.185 1689.31 2910.04 
-187.446 1689.52 2909.93 
-187.169 1689.47 2909.69 
-186.951 1689.28 2909.76 
-186.982 1689.39 2909.5 
-186.684 1689.23 2909.53 
-191.487 1681.57 2903.01 
-191.604 1681.53 2902.97 
-190.198 1681.32 2903.98 
-184.629 1685.65 2910.22 
-184.505 1685.95 2910.13 
-184.673 1685.11 2910.22 
-184.566 1685.34 2910.15 
-245.885 1735.75 2899 
-247.747 1737.75 2897.73 
-248.035 1737.94 2897.09 
-249.438 1739.68 2897.57 
-249.717 1740.15 2897.34 
-249.718 1740.34 2896.63 
-249.75 1741.16 2895.43 
-248.952 1741.77 2891.72 
-248.838 1741.84 2890.83 
-249.427 1741.91 2893.07 
-250.101 1743.59 2894.2 
-248.995 1743.25 2888.13 
-249.365 1745.69 2886.33 
-249.613 1746.55 2886.08 
-249.825 1747.21 2886.05 
-250.121 1747.79 2885.66 
-250.251 1748.13 2885.32 
-250.384 1748.52 2884.82 
-250.377 1749.64 2883.4 
-250.703 1748.99 2884.39 
-250.02 1750.49 2881.8 
-245.833 1751.11 2876.54 
-249.918 1752.53 2879.67 
-250.218 1753.61 2879.26 
-249.942 1753.02 2879.38 
-249.769 1754.25 2878.72 
-249.066 1753.67 2877.97 
-249.614 1754.06 2878.45 
-247.613 1752.62 2876.97 
-247.111 1752.03 2876.66 
-250.074 1751.37 2880.88 
-246.62 1751.6 2876.73 
-245.078 1750.29 2876.13 
-245.576 1751.29 2876.19 
-245.13 1750.7 2876.09 
-244.353 1749.02 2876.11 
-243.378 1747.27 2876.55 
-242.005 1745.28 2876.64 
-241.12 1744.04 2876.63 
-237.394 1741.37 2877.52 
-236.713 1741.09 2877.18 
-236.449 1741.35 2877.07 
-239.034 1742.31 2877.2 
-240.435 1743.4 2876.75 
-236.343 1741.48 2877.05 
-236.701 1740.37 2877.63 
-236.582 1740.83 2877.25 
-227.547 1735.5 2887.17 
-227.936 1735.45 2886.8 
-227.515 1736.08 2887.86 
-227.568 1735.96 2887.68 
-227.601 1735.84 2887.51 
-229.174 1735.37 2887.61 
-229.058 1735.32 2887.48 
-228.826 1735.33 2886.39 
-228.947 1735.35 2887.36 
-228.876 1735.57 2885.28 
-228.409 1735.52 2886.27 
-227.61 1735.8 2888.5 
-227.506 1735.95 2888.08 
-236.637 1740.32 2877.79 
-236.506 1739.43 2879.15 
-236.224 1739.03 2879.51 
-236.63 1739.84 2878.51 
-236.627 1740.15 2878.1 
-233.894 1744.73 2878.32 
-233.212 1745.91 2877.92 
-232.217 1747.98 2877.34 
-231.919 1748.7 2877.18 
-232.077 1749.33 2877.56 
-235.952 1740.58 2880.55 
-234.732 1742.7 2879.84 
-235.026 1742.73 2879.51 
-235.837 1741.38 2880.19 
-236.221 1739.89 2879.55 
-236.569 1739.84 2878.76 
-230.37 1736.09 2887.92 
-230.487 1735.85 2887.78 
-230.381 1736.34 2888.3 
-230.294 1736.23 2888.14 
-230.478 1736.51 2888.43 
-230.165 1735.76 2887.81 
-229.772 1735.68 2887.71 
-229.593 1735.6 2887.66 
-229.454 1735.56 2887.66 
-229.272 1735.5 2887.71 
-233.45 1732.03 2889.38 
-233.587 1732 2889.38 
-233.224 1731.98 2889.46 
-232.99 1732.04 2889.49 
-232.855 1732.25 2889.42 
-232.886 1732.37 2889.4 
-234.264 1731.98 2889.35 
-234.331 1731.93 2889.4 
-234.368 1731.89 2889.37 
-234.332 1731.88 2889.36 
-233.82 1732.04 2889.29 
-233.756 1732.01 2889.32 
-233.731 1731.98 2889.35 
-233.713 1731.94 2889.39 
-233.676 1731.94 2889.4 
-233.644 1731.96 2889.39 
-220.255 1732.42 2893.31 
-220.866 1731.05 2893.51 
-219.731 1732.21 2892.72 
-219.74 1732.01 2892.57 
-219.704 1731.97 2892.52 
-219.668 1731.93 2892.47 
-219.65 1731.85 2892.38 
-219.829 1732.41 2892.92 
-219.688 1731.76 2892.29 
-219.61 1731.85 2892.36 
-219.68 1731.76 2892.28 
-221.8 1727.66 2893.79 
-221.765 1727.75 2893.6 
-221.746 1727.83 2893.67 
-221.801 1727.64 2893.7 
-221.73 1727.9 2893.72 
-221.713 1727.98 2893.82 
-221.695 1728.06 2893.92 
-221.658 1728.18 2894 
-221.512 1728.43 2893.63 
-220.795 1730.32 2893.22 
-220.916 1730.2 2893.38 
-221.442 1728.96 2893.56 
-220.745 1730.98 2893.38 
-220.078 1731.78 2892.48 
-221.603 1729 2893.68 
-221.615 1728.45 2893.65 
-221.81 1727.7 2894.04 
-221.815 1727.68 2893.99 
-221.833 1727.58 2893.94 
-221.578 1728.6 2893.5 
-214.58 1725.15 2904.25 
-214.912 1726.65 2904.43 
-214.695 1726.99 2904.99 
-214.747 1725.88 2904.32 
-214.581 1727.64 2905.63 
-210.669 1716.86 2904.67 
-210.554 1716.99 2905.4 
-210.948 1716.66 2904.86 
-211.006 1717.12 2904.95 
-211.096 1716.95 2904.43 
-210.921 1716.91 2904.4 
-210.828 1716.34 2904.89 
-210.644 1716.08 2905.1 
-210.487 1716.07 2905.33 
-210.375 1715.81 2905.45 
-210.187 1715.67 2905.69 
-210.109 1715.35 2905.78 
-210.043 1715.05 2905.86 
-209.825 1714.88 2906.05 
-209.718 1714.79 2906.14 
-209.579 1714.73 2906.28 
-209.288 1714.75 2906.61 
-209.238 1714.66 2906.65 
-209.398 1714.45 2906.41 
-209.343 1714.34 2906.44 
-209.349 1714.19 2906.39 
-208.956 1712.21 2906.44 
-208.89 1712.46 2906.56 
-208.692 1711.16 2906.38 
-208.587 1711.29 2906.4 
-208.499 1711.44 2906.4 
-208.376 1711.64 2906.55 
-208.344 1712.04 2906.73 
-209.618 1715.74 2905.96 
-209.547 1715.99 2905.88 
-210.003 1716.67 2905.93 
-209.616 1715.19 2906.27 
-209.655 1715.55 2906.09 
-209.573 1715.81 2906.04 
-209.099 1714.48 2906.73 
-209.159 1714.57 2906.69 
-209.268 1714.73 2906.61 
-209.215 1714.64 2906.64 
-209.333 1714.85 2906.58 
-209.384 1714.85 2906.51 
-209.459 1714.97 2906.46 
-209.536 1715.1 2906.41 
-208.763 1713.98 2906.8 
-208.544 1713.72 2906.82 
-208.921 1714.29 2906.8 
-208.356 1713.11 2906.89 
-208.359 1713.5 2906.86 
-208.292 1712.61 2906.85 
-205.846 1705.48 2907.82 
-206.356 1705.5 2907.6 
-206.695 1705.45 2907.39 
-206.196 1705.52 2907.63 
-205.831 1705.6 2907.85 
-156.088 1653.66 2916.99 
-155.931 1653.87 2916.98 
-155.838 1653.84 2917.08 
-155.772 1653.84 2917.19 
-156.021 1653.42 2916.97 
-155.955 1653.31 2917.08 
-155.84 1653.53 2917.19 
-155.683 1653.74 2917.33 
11.0293 1851.79 2820.32 
12.3976 1853.19 2818.78 
12.3209 1853.09 2818.9 
12.2998 1853.2 2818.88 
11.7473 1852.86 2819.6 
11.4005 1852.26 2819.98 
11.4787 1852.17 2819.92 
11.5803 1852.09 2819.88 
12.1891 1853.05 2819.03 
12.1079 1852.92 2819.15 
12.0555 1852.63 2819.32 
11.6778 1852.01 2819.84 
11.2826 1852.29 2820.09 
11.2604 1853.69 2820.94 
10.6264 1853.29 2821.28 
10.4358 1853.13 2821.45 
10.028 1853.04 2821.78 
10.2291 1852.72 2821.4 
10.8344 1853.16 2821.07 
10.5048 1852.87 2821.19 
10.8403 1853.26 2821.15 
10.4736 1852.76 2821.16 
11.2032 1853.62 2821.08 
12.6174 1849.35 2820.91 
12.5766 1849.5 2820.79 
12.734 1849.62 2820.7 
12.4307 1849.38 2820.88 
12.2413 1849.71 2820.72 
11.4053 1849.63 2820.99 
10.9077 1849.86 2821.06 
11.1132 1850.06 2820.93 
11.2893 1850.26 2820.8 
11.4 1850.83 2820.54 
11.3392 1851.03 2820.45 
11.4608 1850.43 2820.69 
11.3953 1851.24 2820.32 
11.6495 1850.03 2820.8 
11.6652 1850.66 2820.52 
11.4966 1851.05 2820.38 
11.7475 1851.88 2819.85 
12.2174 1852.74 2819.18 
12.4307 1852.9 2818.98 
-210.402 1733.04 2916.59 
-211.808 1734.83 2916.99 
-211.539 1734.6 2916.86 
-210.571 1733.25 2916.53 
-212.04 1735.02 2917.08 
-212.308 1735.24 2917.19 
-212.595 1735.44 2917.27 
-212.523 1735.38 2917.21 
-212.811 1735.58 2917.3 
-213.118 1735.8 2917.37 
-213.03 1735.73 2917.32 
-214.149 1739.37 2918.95 
-214.138 1739.74 2919.21 
-214.177 1740.17 2919.91 
