514.544 1153.64 3122.74 
514.984 1155.69 3116.92 
513.593 1154.78 3109.63 
511.947 1153.14 3105.46 
513.501 1151.71 3132.05 
515.263 1154.49 3127.24 
512.445 1150.26 3128.5 
513.669 1152.02 3122.11 
513.977 1152.57 3117.48 
514.004 1153.56 3113.74 
513.057 1152.16 3110.96 
512.176 1151.95 3107.96 
510.956 1150.36 3106.09 
510.242 1152.12 3102.47 
511.026 1148.15 3135.7 
510.439 1147.43 3134.51 
512.069 1149.51 3127.89 
511.89 1149.02 3127.34 
513.359 1150.91 3121.33 
513.308 1149.93 3118.32 
513.317 1151.19 3113.85 
512.836 1149.18 3111.56 
512.521 1148.5 3110.79 
512.134 1147.79 3110.25 
511.648 1147.25 3109.61 
510.963 1146.37 3108.96 
509.026 1148.38 3104.23 
506.98 1147.98 3101 
508.664 1145.13 3138.37 
509.566 1145.85 3135.67 
510.355 1147.28 3133.7 
511.774 1148.46 3126.88 
510.307 1147.12 3132.96 
513.115 1149.88 3121.42 
513.137 1148.51 3118.54 
513.055 1148.65 3121.31 
513.144 1148.24 3114.86 
513.062 1147.36 3113.96 
512.996 1145 3115.19 
512.73 1144.51 3114.6 
511.863 1144.15 3111.97 
510.794 1142.63 3111.23 
510.005 1144.95 3108.5 
507.951 1144.61 3106.18 
506.411 1144.58 3103.92 
503.779 1145.58 3099.31 
503.397 1138.59 3137.72 
507.736 1143.69 3136.48 
509.162 1144.93 3135.43 
509.586 1145.43 3134.97 
509.825 1146.17 3134.8 
511.709 1147.94 3126.56 
510.276 1146.85 3132.44 
510.029 1146.18 3134.11 
513.027 1147.78 3120.98 
513.211 1147.02 3118.03 
511.906 1147.6 3125.69 
513.317 1145.5 3117.19 
513.378 1144.7 3117.35 
512.486 1143.83 3114.68 
513.236 1143.77 3117.38 
512.006 1142.97 3114.54 
510.479 1141.63 3111.87 
509.521 1140.98 3110.99 
509.612 1142.01 3109.95 
508.827 1143.47 3107.99 
507.999 1142.53 3107.75 
506.229 1142.48 3106.06 
503.986 1144.24 3101.18 
499.564 1140.24 3101.17 
501.701 1136.3 3133.68 
504.783 1139.36 3134.59 
507.291 1142.77 3135.1 
508.751 1144.06 3134.57 
509.551 1144.74 3134.52 
509.889 1145.66 3134.39 
509.951 1145.09 3134.07 
510.3 1146.63 3131.93 
510.145 1145.87 3133.55 
513.179 1147.09 3120.54 
512.451 1147.32 3123.75 
513.408 1146.2 3119.34 
513.523 1145.29 3118.53 
510.443 1146.34 3131.51 
513.68 1144.51 3118.39 
513.841 1143.72 3118.63 
513.238 1143.23 3117.74 
513.603 1143.39 3118.22 
512.759 1142.83 3117.52 
511.204 1141.77 3114.57 
511.829 1142.05 3116.72 
509.247 1139.87 3112.26 
508.162 1139.21 3111.28 
508.471 1140.66 3109.81 
507.367 1141.76 3107.77 
505.453 1141.39 3106.54 
503.099 1141.88 3103.06 
497.37 1136.85 3103.74 
500.761 1138.47 3105.86 
499.29 1133.94 3134.23 
501.646 1135.62 3130.46 
503.808 1137.61 3131.48 
505.731 1139.53 3132.55 
507.536 1141.88 3133.46 
510.247 1143.95 3133.19 
510.384 1143.42 3132.81 
510.189 1145.12 3133.58 
510.303 1144.45 3133.46 
512.62 1146.73 3123.46 
513.174 1146.56 3121.22 
510.699 1146.13 3130.84 
513.751 1145.39 3120.2 
513.96 1144.66 3119.64 
514.167 1143.98 3119.57 
513.196 1142.74 3118.03 
515.169 1141.96 3120.68 
514.307 1142.04 3119.66 
515.448 1142.18 3121.07 
512.721 1142.34 3117.81 
511.826 1141.38 3117.67 
510.848 1140.34 3117.52 
510.097 1139.77 3116.95 
509.77 1139.82 3114.86 
508.291 1138.27 3114.74 
507.912 1138.45 3112.23 
506.592 1137.9 3111.35 
507.24 1139.25 3110.19 
506.597 1140.82 3108.02 
502.454 1138.98 3106.97 
504.176 1138.64 3108.59 
497.661 1135.03 3108.37 
494.303 1133.48 3106.15 
502.487 1136.45 3110.12 
502.868 1137.04 3109.44 
498.396 1133.54 3130.83 
499.423 1134.13 3128.11 
503.052 1136.1 3128.55 
501.174 1134.78 3125.85 
505.11 1138.08 3130.12 
506.712 1139.54 3131.22 
508.372 1141.95 3132.8 
511.814 1143.52 3133.05 
512.296 1143.07 3132.45 
510.097 1142.92 3132.46 
511.893 1142.96 3131.9 
513.042 1142.5 3131.76 
510.857 1144.94 3133.16 
510.867 1144.38 3133.9 
512.762 1146.02 3123.94 
510.942 1145.82 3130.44 
513.331 1145.95 3121.7 
513.959 1144.91 3120.99 
514.438 1144.04 3120.62 
515.115 1143.12 3121.22 
515.688 1142.5 3121.75 
516.193 1142.01 3122.3 
515.921 1141.37 3121.84 
516.929 1141.46 3123.22 
513.704 1141.59 3119.33 
512.918 1140.86 3119.16 
512.401 1140.16 3119.24 
511.046 1139.21 3119 
509.208 1138.33 3117.94 
507.078 1136.91 3115.77 
506.295 1137.28 3112.28 
505.539 1137.84 3110.37 
502.176 1135.63 3111.88 
496.187 1133.32 3110.76 
494.547 1131.37 3123.05 
497.178 1132.58 3122.82 
502.973 1135.59 3126.09 
504.321 1136.97 3128.33 
501.204 1134.08 3121.37 
507.265 1138.12 3128.32 
507.958 1140.48 3131.22 
510.233 1142.34 3131.98 
513.091 1142.9 3132.75 
513.426 1142.56 3132.2 
514.133 1142.04 3131.53 
512.222 1142.46 3131.4 
514.924 1141.49 3130.84 
514.311 1141.65 3130.73 
511.535 1143.84 3133.57 
512.754 1143.21 3133.23 
511.599 1144.24 3134.54 
511.541 1144.32 3134 
512.417 1143.66 3134.05 
513.433 1145.3 3122.9 
511.439 1145.23 3129.96 
514.066 1144.46 3122.55 
514.586 1143.99 3121.84 
514.942 1143.52 3121.7 
515.955 1142.49 3122.67 
516.596 1142.01 3123.14 
517.334 1141.16 3123.56 
515.602 1140.93 3122.05 
510.344 1138.04 3120.42 
509.036 1136.91 3120.83 
507.925 1136.36 3120.11 
505.157 1135.85 3114.82 
500.999 1134.36 3114.19 
494.062 1131.87 3113.15 
495.438 1132.01 3118.02 
500.965 1133.83 3118.56 
505.431 1136 3125.35 
505.961 1135.8 3123.43 
505.872 1136.31 3126.52 
506.513 1136.98 3127.36 
506.874 1135.85 3121.94 
509.111 1137.62 3126.17 
508.269 1139.24 3129.34 
509.966 1138.97 3127.91 
509.833 1138.65 3127.21 
510.59 1141.76 3131.38 
513.754 1142.69 3132.79 
514.862 1141.81 3131.57 
515.755 1141.18 3130.78 
513.237 1141.93 3130.69 
512.362 1141.72 3130.85 
516.653 1140.56 3129.98 
515.615 1140.92 3129.97 
514.5 1141.3 3129.94 
511.224 1144.59 3133.24 
512.028 1144.08 3134.33 
511.464 1144.29 3135.34 
513.302 1143.02 3133.21 
512.985 1144.98 3125.42 
511.664 1144.61 3131.33 
514.901 1143.48 3123.01 
513.846 1144.12 3124.67 
515.674 1142.93 3122.99 
516.051 1142.43 3123.22 
518.907 1139.8 3124.13 
519.382 1139.39 3124.25 
518.277 1139.79 3124.02 
516.905 1140.85 3123.55 
516.654 1141.23 3122.86 
516.403 1140.95 3123.42 
514.937 1140.4 3122.28 
511.317 1138.27 3121.5 
506.875 1135.87 3119.69 
509.773 1136.77 3122.26 
500.659 1133.95 3115.84 
507.327 1135.92 3121.24 
507.542 1136.29 3125.23 
508.791 1136.53 3123.76 
508.676 1136.69 3124.89 
510.2 1137.61 3124.79 
510.765 1138.88 3127.08 
511.053 1138.68 3126.11 
511.025 1140.58 3130.15 
511.37 1139.33 3128.11 
511.938 1140.17 3129.72 
514.56 1142.13 3132.08 
515.74 1141.65 3131.89 
515.901 1141.4 3131.42 
516.414 1140.97 3130.79 
517.592 1140.23 3129.98 
513.521 1141.4 3130.05 
512.822 1141.32 3130.63 
518.173 1139.7 3129.1 
517.193 1140.04 3129.07 
516.159 1140.41 3129.09 
515.201 1140.75 3129.07 
514.155 1141.16 3129.41 
514.373 1142.74 3133.51 
513.745 1143.05 3134.24 
511.161 1144.39 3135.98 
512.096 1144.06 3135.46 
512.747 1143.72 3136.36 
514.838 1142.36 3132.88 
515.299 1142.01 3132.4 
512.319 1144.08 3131.71 
512.61 1143.67 3134.79 
515.918 1142.53 3124.17 
514.749 1143.15 3124.5 
513.517 1143.57 3129.55 
516.902 1141.93 3124.03 
517.688 1141.23 3124.11 
518.135 1140.39 3123.95 
518.354 1140.72 3124.26 
519.936 1139.82 3124.65 
525.278 1136.68 3126.89 
523.847 1137.26 3126.6 
522.356 1137.9 3126.25 
518.192 1139.84 3124.61 
522.278 1137.86 3126.79 
516.762 1140.72 3124.42 
517.319 1140.34 3124.72 
515.659 1140.6 3123.17 
513.598 1139.92 3122.08 
516.242 1140.43 3125.33 
516.749 1140.42 3125.21 
511.216 1138.12 3122.08 
509.427 1136.62 3122.77 
509.387 1136.69 3123.45 
510.731 1137.79 3123.84 
511.835 1138.87 3125.59 
511.548 1139.03 3127.04 
512.313 1139.28 3127.96 
512.164 1139.19 3126.66 
513.432 1139.72 3129.29 
512.756 1139.97 3129.71 
513.222 1140.83 3130.21 
516.384 1141.41 3131.83 
517.281 1140.62 3130.66 
519.171 1139.39 3129.19 
513.847 1140.69 3129.5 
519.484 1138.96 3128.31 
518.491 1139.25 3128.14 
517.416 1139.65 3128.2 
516.294 1140.05 3128.22 
515.157 1140.47 3128.34 
514.468 1140.69 3128.86 
513.362 1143.47 3136.09 
513.122 1143.56 3136.84 
515.697 1142.03 3132.87 
515.009 1142.37 3133.61 
514.337 1142.69 3134.22 
514.168 1142.72 3134.73 
513.086 1143.36 3134.88 
512.101 1143.98 3136.47 
512.649 1143.66 3138.1 
516.024 1141.73 3132.31 
514.09 1143.08 3136.06 
513.088 1143.43 3134.14 
516.738 1141.91 3125.15 
517.562 1141.59 3124.65 
516.53 1142.1 3125.88 
516.38 1141.77 3127.61 
518.77 1140.67 3124.64 
518.794 1140.77 3125.14 
523.994 1137.68 3126.14 
524.442 1137.54 3126.48 
524.989 1136.82 3127.75 
525.632 1136.67 3128.13 
527.636 1135.08 3127.24 
523.881 1137.49 3131.22 
523.848 1137.18 3127.56 
521.093 1138.34 3126.71 
521.741 1137.98 3127.75 
522.686 1137.69 3127.91 
518.417 1139.43 3126.4 
519.774 1138.87 3126.57 
514.518 1140.39 3123.11 
515.608 1140.43 3125.55 
514.738 1140.62 3124.19 
512.939 1139.7 3124.51 
512.491 1139.41 3123.22 
517.081 1139.67 3127.38 
518.009 1139.39 3127.1 
511.071 1137.97 3122.88 
512.937 1139.38 3127.65 
513.884 1139.63 3128.81 
513.233 1139.94 3125.94 
513.376 1139.78 3127.28 
518.446 1139.93 3129.96 
516.967 1140.94 3131.18 
517.042 1141.16 3131.76 
520.502 1138.67 3128.51 
520.649 1138.35 3127.57 
519.424 1138.8 3127.39 
515.78 1140.09 3127.7 
515.302 1140.16 3126.8 
514.588 1140 3127.45 
514.262 1139.79 3128.14 
512.928 1143.35 3138.88 
512.144 1143.7 3139.12 
516.182 1141.74 3133.03 
515.586 1142.02 3133.6 
515.094 1142.23 3134.23 
512.73 1143.76 3135.79 
511.167 1144.31 3136.79 
511.07 1144.23 3137.57 
514.664 1142.42 3134.77 
512.045 1143.89 3137.86 
511.796 1143.85 3137.03 
514.004 1142.16 3139.81 
513.229 1142.61 3140.16 
518.468 1140.94 3125.59 
518.433 1140.91 3126.36 
517.006 1140.93 3128.29 
516.652 1139.93 3133.61 
516.666 1141.44 3136.75 
519.959 1140.17 3125.21 
519.084 1140.69 3125.56 
520.374 1140.2 3125.78 
523.665 1138.05 3126.3 
526.072 1136.45 3127.57 
523.737 1137.46 3128.3 
524.611 1137.21 3128.57 
523.984 1137.49 3129.58 
524.354 1137.24 3129.95 
527.14 1136.31 3127.75 
528.896 1134.88 3127.88 
529.26 1135.21 3128.39 
528.974 1133.89 3127.33 
528.528 1132.53 3126.92 
522.49 1138.13 3131.94 
521.137 1138.82 3137.09 
521.354 1138.48 3128.79 
513.708 1140.26 3126.28 
518.838 1140.04 3130.54 
519.877 1139.23 3129.41 
518.069 1140.54 3131.12 
511.832 1143.68 3139.72 
511.364 1143.72 3139.53 
518.719 1140.4 3131.39 
518.028 1140.77 3132.01 
516.747 1141.36 3133.29 
516.087 1141.71 3133.64 
513.848 1142.84 3135.32 
513.47 1142.8 3137.27 
511.579 1143.86 3138.84 
515.336 1141.05 3139.29 
513.06 1142.65 3140.81 
512.355 1143.24 3140.6 
519.011 1140.62 3126.13 
517.703 1140.42 3128.84 
518.919 1140.47 3127.06 
517.411 1138.99 3133.68 
516.042 1139.6 3138.27 
515.83 1139.07 3138.55 
517.603 1140.25 3136.05 
523.066 1138.76 3126.59 
520.607 1140.21 3126.23 
525.93 1137.25 3127.78 
522.472 1138.05 3128.68 
523.585 1137.76 3129.13 
523.004 1138.02 3130.07 
522.307 1138.33 3130.85 
528.776 1136 3128.56 
532.437 1131.96 3128.43 
530.628 1131.12 3127.47 
534.408 1132.59 3129.35 
528.568 1129.82 3126.59 
520.876 1138.92 3133.09 
519.899 1139.33 3136.94 
518.632 1140.09 3141.62 
521.136 1138.81 3129.44 
519.873 1139.58 3130.26 
512.76 1143 3138.41 
512.831 1143.16 3137.6 
519.884 1139.76 3130.83 
517.228 1141.17 3132.58 
518.39 1140.5 3132.34 
515.438 1141.94 3134.86 
513.072 1143.17 3136.39 
511.373 1144.08 3138.09 
514.893 1142.1 3136.15 
513.792 1142.71 3136.64 
515.15 1140.02 3140.74 
513.751 1142.2 3141.47 
512.287 1142.98 3141.78 
513.833 1141.74 3143.36 
511.089 1143.74 3140.3 
520.609 1140.24 3127.11 
518.253 1140.16 3129.48 
517.845 1138.77 3133.85 
520.523 1140.2 3127.68 
516.75 1138.47 3139.4 
515.908 1138.82 3139.04 
514.258 1139.28 3138.65 
512.51 1139.19 3139.46 
525.531 1137.88 3128.19 
522.816 1139.58 3127.43 
524.857 1138.57 3128.34 
526.331 1137.8 3128.9 
527.381 1138.05 3130.09 
526.149 1138.4 3129.66 
526.883 1136.99 3128.31 
529.312 1136.36 3129.04 
528.725 1136.93 3129.2 
521.662 1138.68 3129.55 
522.396 1138.41 3129.6 
521.592 1138.75 3130.94 
521.125 1138.94 3131.64 
519.981 1139.38 3133.16 
533.616 1127.75 3126.67 
536.718 1127.21 3127.43 
530.665 1128.29 3126.41 
536.065 1132.33 3130.08 
539.627 1127.16 3128.88 
519.02 1139.83 3134.69 
518.013 1140.24 3138.03 
517.565 1140.44 3141.8 
515.857 1141.48 3146.43 
513.744 1142.89 3137.76 
515.068 1142.27 3136.92 
520.692 1139.2 3130.01 
520.902 1139.18 3130.89 
518.914 1140.16 3132.54 
519.137 1140.14 3131.63 
516.341 1141.51 3134.03 
517.641 1140.83 3133.23 
515.867 1141.6 3134.51 
514.443 1142.44 3135.69 
516.186 1141.46 3135.12 
515.392 1138.24 3143.07 
514.316 1138.39 3140.14 
515.402 1140.72 3143.47 
513.391 1139.32 3138.85 
511.581 1143.6 3140.41 
513.881 1141.83 3145.51 
515.654 1140.06 3145.99 
524.642 1139.02 3128.76 
519.952 1140.28 3128.56 
518.018 1138.79 3133.07 
519.337 1138.08 3138.43 
524.765 1139.08 3129.54 
514.404 1138.08 3142.35 
511.746 1138.85 3140.9 
512.279 1139.42 3138.36 
511.418 1139.42 3138.44 
526.907 1138.01 3129.51 
532.116 1137.22 3131.84 
531.889 1137.33 3132.3 
528.073 1137.77 3131.18 
531.662 1137.41 3133.01 
526.283 1138.48 3130.4 
534.86 1134.42 3131.1 
521.827 1138.69 3130.36 
520.024 1139.64 3131.38 
520.333 1139.39 3131.89 
520.156 1139.36 3132.63 
518.49 1140.19 3133.9 
518.13 1140.29 3134.61 
543.136 1126.95 3131.02 
542.197 1129.65 3132.34 
517.031 1140.77 3136.34 
516.237 1141.08 3140.74 
516.038 1141.21 3139.09 
515.216 1141.55 3145.45 
514.294 1142.05 3149.41 
514.588 1142.04 3137.22 
517.703 1140.61 3134.39 
516.715 1141.12 3135.08 
517.023 1141.01 3134.65 
517.258 1140.95 3134.12 
515.351 1135.48 3146.82 
514.168 1136.76 3142.96 
512.866 1139.41 3138.26 
515.601 1135.21 3148.03 
511.43 1143.57 3141 
511.343 1143.39 3143.54 
511.421 1143.43 3146.15 
510.872 1143.75 3143.87 
513.553 1142.52 3138.3 
513.34 1142.51 3147.42 
516.615 1140.46 3147.45 
516.108 1135.42 3148.98 
516.633 1140 3149.97 
514.342 1142.01 3147.86 
525.211 1138.27 3132.49 
527.591 1137.97 3131.49 
520.409 1140.14 3129.34 
521.054 1138.75 3134.54 
518.066 1136.48 3143.03 
514.119 1137.22 3144.44 
524.134 1139.08 3130.54 
510.958 1138.78 3142.07 
510.752 1139.38 3139.04 
511.098 1139.41 3137.72 
510.398 1139.38 3137.51 
529.304 1137.32 3130 
532.665 1136.88 3131.73 
539.181 1134.25 3134.24 
538.136 1135.89 3136.25 
537.521 1136.75 3137.81 
528.202 1137.8 3132.54 
531.326 1137.56 3133.99 
536.535 1137 3138.22 
535.139 1135.25 3132.08 
541.762 1131.61 3133.55 
516.104 1141.35 3135.83 
515.781 1141.38 3136.49 
547.272 1127.33 3134.48 
546.353 1129.94 3135.93 
514.972 1141.77 3138.06 
514.212 1142.04 3143.51 
514.301 1142.04 3140.98 
512.52 1142.8 3148.34 
514.766 1142.29 3151.51 
524.292 1139.44 3157.5 
515.316 1134.38 3148.15 
514.351 1134.81 3145.38 
515.011 1134.08 3149.2 
513.321 1137.67 3140.39 
513.27 1135.54 3142.06 
512.256 1139.47 3137.3 
512.777 1139.24 3137.72 
515.838 1134.81 3148.41 
511.481 1139.49 3136.86 
511.894 1143.13 3146.85 
510.904 1143.74 3142.39 
512.527 1143.28 3140.08 
516.754 1138.45 3150.13 
515.476 1141.71 3151.78 
513.95 1142.36 3152.75 
526.454 1137.68 3134.22 
520.668 1140.33 3128.71 
522.195 1140.66 3128.27 
523.042 1137.71 3137.43 
519.047 1136.27 3143.03 
517.135 1135.21 3146.14 
515.902 1135.2 3146.58 
511.178 1135.94 3148.91 
514.396 1135.58 3146.84 
509.871 1136.01 3149.82 
510.477 1138.39 3144.56 
524.748 1139.57 3129.38 
523.016 1140.18 3128.59 
510.014 1139.06 3141.39 
510.076 1139.26 3138.15 
510.842 1139.53 3136.35 
510.139 1139.46 3136.53 
544.741 1131.49 3136.36 
544.267 1133.02 3138.05 
544.923 1134.49 3140.26 
544.445 1135.41 3141.43 
529.722 1137.76 3138.31 
530.692 1137.75 3135.04 
535.073 1137.27 3138.74 
542.735 1135.73 3142.56 
514.072 1142.23 3138.23 
552.402 1125.57 3137.14 
550.083 1129.21 3138.69 
512.371 1142.96 3143.14 
521.31 1140.22 3157.04 
514.706 1133.31 3147.62 
514.512 1134.01 3149.85 
512.442 1137.32 3138.5 
512.081 1135.83 3138.84 
512.554 1138.81 3137.15 
511.166 1143.61 3141.55 
516.662 1141.08 3151.63 
516.696 1135.97 3148.67 
516.781 1135.4 3147.93 
515.056 1141.84 3152.58 
526.732 1137.82 3136.93 
523.562 1139.23 3130.62 
521.356 1141.15 3127.96 
519.093 1136.18 3143.89 
524.084 1137.6 3138.97 
517.715 1135.38 3146.18 
517.046 1135.23 3146.96 
515.363 1134.87 3147.49 
511.864 1135.16 3149.85 
514.456 1135.26 3147.47 
509.448 1138.36 3145.21 
523.3 1140.58 3128.85 
523.62 1139.43 3129.89 
509.227 1138.89 3141.51 
509.254 1139.04 3138.65 
509.649 1139.29 3136.91 
511.3 1139.69 3135.18 
510.626 1139.82 3134.68 
510.21 1139.73 3135.13 
549.14 1131.67 3140.24 
549.556 1133.11 3142.11 
550.168 1133.37 3143.57 
547.714 1134.48 3143.13 
534.629 1137.1 3143.54 
528.508 1137.92 3147.48 
525.763 1138.3 3145.87 
526.412 1137.84 3140.7 
541.002 1135.65 3146.32 
546.921 1134.52 3143.98 
552.95 1127.1 3139.44 
554.771 1125.51 3138.74 
558.166 1124.6 3139.74 
558.032 1125.23 3140.18 
553.538 1128.42 3141.49 
556.191 1126.98 3141.3 
534.407 1136.33 3159.53 
515.115 1133.34 3149.1 
514.795 1134.91 3147.79 
514.799 1134.67 3148.23 
514.34 1134.4 3149.56 
516.202 1134.94 3148.05 
511.797 1137 3136.87 
511.893 1139.65 3135.62 
512.446 1139.58 3136.43 
512.512 1139 3136.4 
516.302 1134.88 3147.24 
517.997 1140.37 3151.1 
516.688 1137.32 3150.37 
517.994 1140.45 3151.88 
516.492 1141.11 3152.38 
517.07 1136.15 3148.04 
517.181 1135.49 3147.42 
522.896 1139.49 3129.87 
520.644 1141.63 3127.76 
520.169 1136.55 3143.74 
517.591 1135.62 3146.96 
512.689 1134.79 3150.24 
508.552 1138.12 3146.39 
522.142 1141.26 3128.41 
508.235 1138.96 3141.31 
508.571 1139.22 3137.85 
509.39 1139.5 3136.4 
553.945 1129.88 3144.12 
552.182 1132.05 3145.31 
559.745 1127.22 3145.3 
552.56 1131.83 3146.34 
532.008 1137.08 3153.52 
522.768 1139.19 3151.79 
523.683 1138.39 3155.62 
523.298 1138.67 3146.81 
521.506 1139.42 3150.79 
521.5 1137.33 3143.79 
545.043 1134.13 3148.41 
539.889 1134.57 3154.39 
536.554 1136.02 3153.03 
551.029 1132.32 3146.48 
555.46 1126.2 3139.96 
559.72 1126.04 3142.1 
559.34 1124.89 3141.07 
557.034 1127.25 3142.2 
557.128 1127.63 3143.11 
536.146 1135.56 3159.25 
513.035 1134.61 3150.78 
513.221 1134.19 3151.19 
513.725 1134.18 3150.23 
511.384 1136.16 3136.36 
511.137 1139.82 3134.32 
511.621 1139.76 3134.48 
512.274 1138.54 3135.93 
519.222 1139.94 3151.21 
517.728 1137.74 3149.75 
519.877 1139.92 3152.09 
521.142 1140.36 3128.38 
517.398 1136.27 3147.63 
517.914 1136.25 3147.17 
520.34 1137.45 3146.71 
507.84 1137.98 3147.23 
507.485 1139.08 3141.22 
507.529 1139.31 3138.84 
508.56 1139.41 3137.3 
509.414 1139.77 3135.4 
510.143 1139.86 3134.37 
559.993 1126.79 3144.39 
558.533 1127.95 3146.29 
562.849 1125.81 3145.65 
561.576 1125.88 3143.79 
558.889 1127.98 3147.24 
558.283 1128.55 3148.12 
534.001 1136.4 3157.27 
531.359 1136.92 3157.72 
520.587 1138.9 3154.88 
521.093 1138.6 3149.4 
520.362 1139.42 3151.24 
520.617 1138.9 3150.46 
550.974 1131.33 3149.94 
545.304 1131.65 3156.58 
535.906 1135.77 3156.34 
537.895 1134.96 3157.17 
560.204 1126.33 3143.19 
560.853 1125.84 3142.72 
558.568 1125.02 3141.91 
534.249 1136.39 3158.96 
535.437 1135.95 3157.97 
537.983 1134.61 3159.56 
511.34 1136.29 3135.72 
512.119 1138.37 3135.34 
512.282 1139.63 3135.16 
518.511 1137.8 3149.15 
520.477 1142.28 3127.75 
518.922 1137.79 3148.65 
519.539 1137.77 3148.09 
507.255 1138.15 3146.82 
525.148 1139.93 3129.69 
523.575 1140.93 3129.11 
521.194 1142.11 3128.15 
507.556 1139.43 3138.17 
506.573 1138.71 3142.64 
508.438 1139.65 3136.61 
509.114 1139.79 3134.94 
509.464 1139.85 3133.86 
561.571 1126.67 3146.04 
563.393 1125.69 3146.19 
560.591 1125.43 3142.5 
561.933 1126.55 3146.65 
555.333 1128.67 3151.63 
559.363 1126.51 3150.86 
534.746 1136.19 3157.38 
546.592 1129.77 3161.21 
554.79 1125.84 3160.19 
540.614 1133.32 3158.96 
536.84 1135.37 3157.78 
539.926 1133.58 3159.91 
555.02 1125.95 3145.63 
511.598 1137.23 3134.89 
510.145 1139.88 3133.83 
512.36 1139.47 3134.58 
509.672 1139.15 3132.98 
523.262 1139.82 3129.45 
524.466 1139.85 3129.71 
521.725 1140.87 3128.39 
520.949 1142.77 3128.32 
525.469 1140.25 3129.97 
522.335 1141.76 3128.69 
524.865 1140.28 3129.93 
521.552 1142.39 3128.5 
506.079 1138.72 3140.72 
508.284 1139.72 3135.88 
508.99 1139.81 3134.16 
508.791 1138.69 3132.37 
509.122 1138.94 3132.67 
560.593 1125.69 3143.7 
561.075 1125.83 3143.94 
562.87 1125.61 3144.91 
553.558 1126.92 3148.84 
561.125 1123.77 3156.23 
560.866 1125.19 3150.56 
561.179 1126.25 3147.99 
562.923 1123.18 3152.15 
562.269 1126.45 3147.13 
544.458 1130.95 3161.31 
551.747 1125.95 3165.08 
556.846 1121.43 3169.58 
564.625 1120.39 3161.53 
512.21 1139.11 3134.17 
511.283 1136.64 3134.36 
510.488 1139.31 3133.31 
511.237 1139.59 3133.75 
511.883 1139.64 3133.93 
508.83 1138 3131.69 
509.66 1138.59 3132.44 
520.272 1143.02 3126.96 
521.428 1143.04 3128.78 
522.099 1142.74 3129.02 
524.236 1140.79 3129.68 
507.18 1139.25 3136.3 
507.998 1139.44 3134.57 
509.096 1139.64 3133.39 
554.315 1127.4 3150.07 
555.397 1127.56 3150.17 
562.342 1125.56 3144.15 
564.895 1121.32 3157.41 
564.244 1122.29 3153.68 
561.973 1124.27 3149.75 
561.655 1126.03 3148.13 
564.114 1122.3 3151.73 
563.466 1122.67 3151.01 
562.864 1126.82 3147.28 
564.925 1117.76 3167.16 
559.699 1118.14 3173.08 
556.499 1121.47 3170.22 
572.174 1115.27 3163.29 
511.674 1137.8 3133.59 
511.713 1139.05 3133.35 
510.286 1138.61 3132.58 
511.04 1138.94 3133.06 
508.49 1137.12 3130.77 
509.349 1137.84 3131.64 
520.277 1142.67 3127.35 
524.453 1142.09 3130.15 
523.509 1142.91 3129.96 
506.496 1138.25 3133.76 
507.828 1138.52 3132.48 
508.256 1137.6 3131.19 
507.799 1136.79 3130.3 
563.427 1126.18 3146.81 
562.561 1126.11 3144.52 
550.783 1128.55 3154.33 
561.279 1126.21 3144.56 
556.812 1127.38 3149.17 
548.824 1129.44 3157.4 
552.249 1128.7 3154.22 
565.706 1121.02 3156.77 
570.539 1117.04 3161.21 
565.001 1122.35 3152.02 
565.456 1121.99 3154.11 
562.609 1123.79 3149.33 
563.424 1122.74 3150.01 
562.415 1126.19 3147.74 
564.215 1121.81 3150.26 
563.95 1122.52 3150.46 
570.896 1113.5 3169.52 
560.298 1117.89 3172.79 
568.448 1113.22 3173.93 
558.719 1121.11 3167.73 
557.357 1122.45 3167.54 
580.811 1109.37 3166.99 
577.03 1110.33 3169.2 
576.178 1112.5 3164.81 
511.052 1136.33 3132.9 
511.361 1138.08 3132.64 
510.731 1138.1 3132.29 
509.999 1137.86 3131.82 
508.256 1136.34 3130.03 
509.151 1137.06 3130.9 
522.161 1142.22 3128.57 
520.206 1143.19 3127.45 
520.95 1143.48 3128.34 
522.13 1143.57 3129.56 
525.847 1140.53 3130.26 
523.94 1143.45 3130.51 
524.034 1141.32 3129.53 
505.08 1137.15 3134.07 
506.354 1137.48 3132.53 
507.204 1137.16 3130.71 
507.369 1136.57 3130.02 
507.485 1135.93 3129.41 
563.053 1126.48 3145.68 
556.436 1127.74 3150.2 
547.389 1130.18 3159.8 
551.977 1129.03 3155.15 
567.19 1120.02 3157.65 
573.265 1114.63 3163.36 
565.269 1122.34 3150.36 
565.99 1122.19 3152.14 
566.532 1121.79 3154.15 
563.128 1123.95 3148.85 
563.859 1122.81 3149.38 
564.422 1121.6 3148.7 
564.024 1122.12 3149.22 
562.089 1118.59 3168.45 
567.025 1115.93 3168.46 
577.349 1108.69 3175.6 
560.76 1121.27 3164.53 
559.887 1122.31 3164.37 
557.988 1123.18 3165.83 
586.328 1106.64 3169.21 
510.675 1135.71 3132.02 
510.683 1137.18 3131.78 
509.732 1133.02 3132.1 
509.858 1136.98 3131.22 
507.404 1135.22 3128.39 
508.003 1135.41 3129.39 
508.786 1136.06 3130.15 
522.454 1143.84 3129.92 
526.453 1141.13 3130.86 
524.673 1143.68 3131.08 
525.348 1141.34 3130.23 
525.974 1141.35 3130.66 
523.417 1143.67 3130.4 
504.754 1136.44 3133.15 
503.052 1135.68 3136.9 
506.011 1136.48 3131.2 
506.523 1136.04 3129.73 
506.879 1135.42 3128.93 
561.595 1126.62 3145.46 
562.662 1126.53 3145.15 
557.515 1127.67 3149.61 
553.526 1128.84 3154.07 
547.906 1130.3 3159.86 
549.409 1130.04 3158.64 
570.906 1116.99 3160.62 
572.905 1115.3 3162.12 
568.365 1116.84 3164.22 
566.288 1122.44 3150.02 
565.288 1121.94 3148.97 
566.849 1122.12 3152 
567.196 1120.25 3157.1 
567.084 1121.61 3154.39 
570.251 1117.37 3160.32 
563.505 1124.42 3148.34 
564.635 1122.7 3147.76 
563.921 1119.13 3164.5 
584.844 1105.8 3178.98 
563.502 1120.85 3161.38 
562.27 1121.94 3161.65 
560.881 1122.99 3162.23 
558.715 1123.84 3164.08 
588.812 1105.7 3173.6 
510.16 1135.14 3130.89 
510.126 1136.23 3130.98 
509.534 1132.72 3131.11 
508.613 1130.22 3131.92 
509.334 1135.93 3130.39 
506.669 1135.21 3127.28 
508.457 1134.97 3129.41 
521.379 1143.23 3128.19 
520.693 1143.37 3127.44 
520.73 1144.08 3128.04 
521.71 1144.06 3129.15 
522.957 1144.13 3130.45 
525.121 1142.32 3130.67 
525.859 1141.88 3130.88 
525.463 1144.01 3131.74 
524.26 1144.23 3131.3 
522.741 1142.85 3129.47 
505.046 1136.01 3132.58 
504.582 1136.04 3133.52 
503.683 1135.53 3135.34 
505.653 1135.76 3131.3 
506.258 1135.45 3130.34 
506.597 1135.36 3129.84 
556.09 1128.33 3151.81 
550.827 1129.87 3157.66 
549.089 1130.33 3159.4 
572.309 1115.98 3161.17 
567.077 1122.48 3149.78 
567.344 1122.2 3152.47 
567.972 1119.1 3158.91 
567.215 1120.75 3156.19 
566.627 1118.52 3162.21 
563.307 1126.02 3147.72 
564.201 1122.76 3148.57 
565.47 1122.05 3148.08 
566.316 1122.35 3148.25 
563.54 1127.12 3147.01 
563.351 1126.89 3146.5 
563.714 1127.1 3147.6 
592.393 1103.18 3185.52 
594.31 1103.76 3177.81 
564.88 1121.35 3158.89 
563.771 1122.35 3159.17 
562.175 1123.44 3159.99 
559.617 1124.43 3162.19 
509.425 1134.38 3129.67 
509.37 1135.19 3130.02 
509.17 1132.9 3129.55 
508.621 1130.34 3131.19 
508.192 1134.33 3127.63 
505.573 1135.08 3127.9 
506.234 1135.03 3127.62 
508.663 1134.22 3129.12 
519.96 1143.63 3127.13 
520.402 1143.9 3127.32 
519.547 1144.38 3126.76 
523.409 1144.41 3130.92 
527.016 1141.69 3131.31 
526.008 1142.28 3131.2 
522.819 1143.35 3129.83 
520.006 1144.57 3127.35 
504.699 1135.33 3133.64 
505.56 1135.18 3131.88 
506.113 1134.93 3130.92 
506.299 1135.21 3128.92 
561.821 1127.04 3146.4 
556.859 1128.36 3151.56 
552.091 1129.72 3156.8 
562.89 1126.96 3146.08 
550.525 1130.22 3158.51 
567.476 1122.81 3148.7 
567.607 1122.64 3150.64 
567.752 1121.9 3153.05 
563.934 1124.68 3147.78 
564.205 1123.52 3148.1 
563.361 1126.67 3147.26 
565.573 1122.81 3147.73 
566.956 1122.69 3148.07 
564.617 1123.39 3147.72 
563.239 1127.35 3147.36 
597.47 1100.46 3192.59 
602.034 1100.5 3186.54 
601.873 1101.69 3178.94 
566.591 1121.68 3156.41 
564.95 1122.78 3157.09 
564.858 1123.57 3156.28 
562.266 1124.2 3158.95 
560.185 1125.18 3160.53 
508.565 1130.42 3130.67 
508.662 1132.39 3128.66 
508.463 1133.84 3127.6 
507.802 1134.85 3127.37 
506.596 1134.68 3127.91 
506.059 1134.88 3128.22 
505.846 1134.49 3128.66 
522.265 1144.34 3129.75 
521.371 1144.37 3128.74 
520.761 1144.6 3128.08 
520.115 1145 3127.79 
518.887 1145.52 3126.4 
519.443 1145.62 3127.21 
518.721 1145.14 3126.05 
527.361 1141.32 3131.15 
526.438 1141.89 3131.17 
524.477 1143.77 3130.56 
523.844 1143.68 3130.07 
524.693 1144.5 3131.75 
519.669 1145.57 3128.25 
504.306 1134.39 3135.02 
505.72 1134.53 3132.11 
506.646 1134.61 3130.07 
506.875 1134.76 3129.07 
505.752 1135.04 3128.94 
505.295 1134.79 3128.95 
557.699 1128.37 3151.25 
553.386 1129.59 3155.96 
552.01 1130.01 3157.44 
567.959 1123.04 3148.95 
568.071 1122.51 3151.37 
567.775 1121.56 3154.28 
566.463 1123 3147.88 
565.218 1123.29 3147.48 
564.525 1123.85 3147.37 
563.874 1125.07 3147.38 
562.115 1127.48 3147.38 
601.505 1098.15 3198.75 
604.911 1098.5 3191.86 
611.492 1098.05 3184.97 
609.124 1099.46 3180.35 
566.992 1122.12 3155.63 
566.774 1122.77 3155.29 
562.885 1124.83 3157.37 
565.281 1124.21 3155.01 
566.783 1123.31 3154.85 
560.847 1125.89 3158.81 
508.485 1130.96 3130.33 
508.672 1133.39 3128.06 
507.629 1133.87 3128.08 
507.265 1133.71 3128.58 
506.9 1134.03 3128.86 
506.314 1134.49 3128.86 
505.976 1134.08 3128.96 
521.914 1144.94 3129.37 
521.468 1145.22 3129.2 
520.404 1145.33 3128.31 
519.506 1146.24 3127.6 
518.225 1146.59 3126.05 
518.393 1146.08 3126.1 
518.803 1146.33 3126.59 
517.736 1145.85 3125.23 
518.448 1144.81 3125.73 
517.743 1146.66 3125.64 
516.867 1146.36 3124.54 
524.125 1145.03 3131.74 
527.235 1143.32 3132.24 
527.236 1142.04 3131.61 
526.498 1142.4 3131.49 
525.612 1143.01 3131.31 
525.243 1143.54 3131.12 
526.976 1143.9 3132.69 
518.712 1146.96 3127.06 
504.959 1133.62 3134.22 
506.561 1134.15 3130.63 
558.348 1128.44 3151.18 
554.489 1129.52 3155.34 
553.392 1129.88 3156.56 
568.385 1123.28 3148.8 
568.305 1122.78 3150.85 
567.754 1122.2 3153.77 
566.087 1123.4 3147.74 
564.953 1123.79 3147.02 
567.884 1123.09 3148.41 
564.511 1124.39 3146.82 
563.901 1127.52 3147.94 
563.437 1127.65 3147.73 
555.753 1129.39 3154.52 
557.39 1129.09 3153.16 
603.552 1096.74 3201.64 
605.964 1096.46 3198.45 
611.132 1096.9 3189.31 
614.286 1097.37 3183.71 
613.785 1096.95 3186.04 
612.688 1098.37 3180.59 
563.218 1125.55 3156.08 
565.219 1125.05 3154.19 
566.532 1123.98 3154.61 
566.45 1124.56 3154.22 
567.815 1122.84 3152.9 
567.574 1123.6 3153.34 
561.677 1126.54 3156.93 
508.082 1133.42 3128.07 
507.833 1132.82 3129.12 
507.456 1132.98 3129.49 
507.101 1133.55 3129.66 
523.052 1144.9 3130.6 
520.636 1145.56 3128.75 
522.43 1145.13 3129.96 
519.899 1146.27 3128.44 
518.5 1147.26 3126.57 
519.274 1147.05 3127.61 
517.317 1146.84 3125.17 
517.28 1146.09 3124.9 
517.385 1145.51 3124.83 
517.668 1145.13 3125.05 
517.378 1147.59 3125.47 
516.783 1147.01 3124.59 
523.725 1145.49 3131.39 
527.818 1142.77 3132.1 
526.775 1142.81 3131.92 
525.71 1143.41 3131.61 
524.715 1144.78 3131.27 
520.521 1147.17 3129.11 
526.358 1143.12 3131.81 
518.6 1148.27 3127.41 
526.543 1144.69 3132.86 
505.984 1132.91 3132.65 
554.794 1129.76 3155.68 
554.529 1129.97 3156.15 
568.407 1123.4 3149.99 
566.672 1123.52 3147.92 
567.485 1123.32 3148.2 
565.772 1123.8 3147.59 
565.428 1124.25 3146.94 
562.479 1127.81 3148.09 
556.41 1129.53 3154.51 
558.122 1129.14 3152.97 
564.093 1126.08 3147.23 
603.871 1095.93 3203.18 
605.665 1095.52 3201.38 
607.311 1095.65 3198.64 
606.172 1096.56 3197.91 
607.08 1095.36 3199.42 
610.722 1095.17 3194.12 
613.586 1096.01 3188.62 
610.644 1096.97 3189.77 
564.481 1125.99 3153.94 
566.257 1125.2 3153.9 
565.224 1125.99 3153.57 
567.589 1124.48 3152.51 
567.917 1123.56 3151.78 
562.424 1127.11 3155.26 
508.165 1132.26 3129.39 
506.98 1130.92 3132.09 
507.529 1131.43 3130.94 
506.49 1130.94 3132.72 
506.214 1131.87 3132.64 
522.824 1145.67 3130.75 
520.921 1145.87 3129.29 
520.694 1146.47 3128.99 
522.08 1145.76 3130.23 
519.969 1147.42 3128.88 
519.226 1147.78 3127.87 
518.433 1148.12 3126.81 
517.423 1148.29 3125.74 
516.726 1147.79 3124.76 
528.167 1142.2 3131.85 
528.006 1141.57 3131.39 
527.193 1142.46 3131.91 
527.295 1142.59 3132.42 
526.605 1143.41 3132.28 
526.179 1143.71 3132.06 
525.145 1144.4 3131.38 
525.223 1144.87 3131.74 
524.782 1145.29 3131.74 
522.371 1146.42 3130.67 
516.468 1148.2 3124.56 
527.225 1143.32 3132.9 
556.06 1129.72 3154.99 
555.778 1129.9 3155.43 
567.915 1123.74 3148.56 
568.273 1124.11 3148.93 
568.356 1124.04 3149.55 
564.909 1124.37 3146.35 
567.041 1123.92 3148.17 
566.256 1123.91 3147.79 
565.844 1124.32 3147.55 
565.588 1124.86 3147.28 
561.822 1128.22 3149.31 
557.74 1129.45 3153.72 
558.926 1129.21 3152.74 
603.62 1095.78 3203.92 
606.477 1094.71 3201.88 
605.512 1094.74 3203.29 
605.874 1094.06 3203.35 
607.772 1094.41 3199.94 
608.752 1094.14 3199.38 
609.767 1094.93 3196.24 
612.537 1094.74 3192.53 
609.778 1096.3 3193.7 
565.768 1126.08 3153.63 
567.235 1125.31 3153.26 
564.52 1126.81 3153.03 
567.994 1124.27 3150.77 
567.895 1124.92 3150.59 
567.514 1125.41 3152.07 
563.078 1127.72 3153.69 
521.188 1146.17 3129.78 
519.974 1148.13 3129.22 
519.197 1148.45 3128.13 
518.439 1148.95 3127.17 
517.453 1149.06 3126.02 
516.84 1148.64 3125.16 
525.516 1145.76 3133.11 
524.492 1146.11 3132.56 
526.039 1145.29 3133.08 
527.585 1142.19 3132.34 
526.508 1144 3132.33 
525.764 1144.55 3132.34 
524.763 1145.31 3132.38 
524.23 1145.93 3131.98 
518.457 1149.91 3127.75 
517.841 1150.11 3127.12 
516.688 1149.46 3125.14 
501.807 1130.61 3135.93 
557.482 1129.63 3154.15 
556.939 1129.84 3154.77 
568.07 1124.63 3149.04 
567.574 1124.34 3148.64 
568.2 1124.63 3149.53 
564.644 1126 3147.29 
566.411 1124.45 3148.07 
566.979 1124.76 3148.5 
566.12 1124.85 3147.95 
565.247 1125.91 3147.62 
565.927 1125.42 3147.86 
562.013 1128.6 3150.13 
560.123 1129.13 3152.04 
604.059 1095.32 3204.12 
607.038 1094.12 3202.03 
609.499 1093.39 3199.46 
606.396 1093.35 3203.93 
608.655 1093.03 3200.9 
611.942 1092.75 3196.6 
612.219 1093.81 3194.53 
564.417 1127.65 3152.45 
565.539 1126.86 3153.19 
567.146 1125.96 3152.91 
564.79 1127.42 3152.81 
567.687 1125.84 3150.8 
568.019 1125.2 3149.62 
567.158 1126.53 3152.35 
563.535 1128.41 3152.3 
521.434 1146.43 3130.25 
520.872 1147.25 3130.06 
520.598 1148 3130.11 
519.169 1148.97 3128.44 
519.909 1148.96 3129.5 
517.643 1150.33 3126.66 
517.498 1149.81 3126.3 
517.081 1149.61 3125.55 
525.441 1146.38 3133.57 
523.648 1146.18 3131.94 
527.938 1142.39 3132.67 
525.814 1145.11 3132.57 
525.228 1145.06 3132.48 
523.875 1146.47 3132.28 
518.238 1150.38 3127.58 
523.184 1147.2 3132.34 
520.399 1148.96 3129.99 
558.215 1129.71 3153.92 
567.669 1125.13 3149.03 
566.446 1125.44 3148.35 
565.001 1126.64 3148.05 
565.826 1126.23 3148.31 
561.525 1129 3151.14 
560.798 1129.23 3151.88 
559.827 1129.47 3152.74 
563.682 1127.93 3148.33 
608.073 1093.46 3201.45 
608.058 1092.45 3202.93 
610.325 1092.5 3199.54 
611.396 1091.7 3199.04 
564.523 1128.18 3152.38 
564.092 1128.65 3151.9 
565.303 1127.63 3152.76 
567.521 1126.7 3150.87 
567.835 1125.88 3149.69 
567.015 1127.31 3152.06 
565.598 1127.86 3150.57 
523.005 1146.27 3131.49 
521.746 1146.77 3130.83 
521.157 1147.36 3130.48 
520.937 1148.14 3130.63 
520.559 1148.9 3130.49 
519.476 1150.01 3129.3 
518.541 1150.6 3128.09 
517.824 1151.2 3127.2 
524.629 1146.55 3133 
523.652 1146.87 3132.6 
522.925 1146.78 3131.92 
523.69 1147.73 3133.26 
522.462 1147.71 3132.13 
519.471 1151.38 3129.32 
502.021 1130.89 3135.3 
499.917 1130.73 3136.68 
559.139 1129.7 3153.46 
567.59 1125.7 3149.24 
567.108 1125.3 3148.81 
566.477 1126.2 3148.77 
564.518 1127.54 3148.46 
565.169 1127.25 3148.69 
563.176 1128.3 3148.93 
562.655 1128.84 3150.33 
562.31 1129.1 3150.93 
560.36 1129.61 3152.72 
610.55 1091.18 3201.13 
608.959 1091.61 3202.84 
565.104 1128.39 3152.33 
567.382 1127.51 3150.8 
566.913 1128.1 3151.61 
565.233 1128.37 3150.45 
522.212 1147.09 3131.17 
521.533 1148.03 3131.34 
520.613 1149.5 3130.41 
519.66 1150.76 3129.94 
518.813 1151.27 3128.82 
518.596 1152.07 3128.47 
524.392 1147.21 3133.33 
525.113 1146.85 3133.65 
524.037 1147.09 3132.94 
523.878 1148.17 3133.82 
520.97 1149.88 3130.99 
521.122 1148.72 3131.19 
520.048 1151.42 3129.97 
567.18 1126.1 3149.22 
567.579 1126.66 3149.91 
565.024 1127.91 3149.15 
566.137 1127.16 3149.3 
563.866 1128.52 3149.34 
563.308 1128.89 3150.08 
561.335 1129.35 3151.82 
564.893 1129.12 3151.92 
563.751 1129.51 3151.36 
566.863 1128.61 3151.14 
562.854 1129.23 3150.88 
521.792 1148.28 3131.8 
521.465 1148.83 3131.69 
521.158 1149.55 3131.69 
520.4 1150.71 3131.09 
520.562 1152 3131.54 
519.517 1151.91 3130.07 
519.426 1152.79 3129.72 
522.523 1148.41 3132.85 
521.436 1150.23 3131.93 
520.565 1151.42 3130.84 
566.867 1127.32 3149.93 
564.854 1128.46 3149.61 
563.851 1128.91 3149.84 
565.743 1128.23 3149.91 
564.711 1129.64 3151.54 
564.368 1129.49 3150.93 
565.976 1128.58 3150.41 
566.144 1128.83 3150.84 
563.512 1129.38 3150.72 
522.079 1148.38 3132.23 
521.844 1149.14 3132.35 
521.508 1149.52 3132.12 
520.82 1151.68 3131.96 
520.279 1153.13 3130.92 
524.087 1148.79 3134.32 
523.285 1148.78 3133.74 
523.369 1149.17 3134.07 
524.909 1147.57 3134.12 
522.852 1147.97 3132.91 
564.976 1128.73 3150.06 
565.156 1128.96 3150.49 
563.928 1129.25 3150.31 
522.448 1149.22 3132.72 
521.607 1150.01 3132.52 
521.605 1150.65 3132.86 
521.167 1151.51 3132.54 
524.633 1148.04 3134.2 
523.155 1148.3 3133.48 
522.782 1149.26 3133.25 
521.647 1151.24 3133.21 
522.127 1150.2 3133.07 
523.714 1149.15 3134.51 
521.894 1150.95 3133.64 
521.945 1150.35 3133.83 
522.54 1149.43 3133.67 
523.551 1148.68 3134.25 
523.295 1149.55 3134.49 
522.887 1149.79 3134.04 
522.822 1149.33 3134.55 
522.316 1149.48 3134.28 
522.959 1149.97 3134.64 
522.461 1150.48 3133.97 
521.834 1151.04 3134.19 
522.473 1150.42 3134.6 
523.656 1149.29 3135.1 
521.973 1150.03 3134.25 
522.386 1149.64 3134.87 
522.494 1150.18 3135.09 
521.883 1150.77 3134.71 
523.204 1150.34 3136.26 
521.954 1150.07 3134.83 
523.265 1150.59 3136.72 
523.332 1149.71 3135.34 
521.909 1150.53 3135.22 
522.861 1151 3136.93 
523.289 1149.99 3135.79 
522.278 1150.82 3136.24 
522.727 1150.55 3136.34 
