92.8035 1141.41 1590.11 
89.7571 1139.33 1584 
89.7532 1139.29 1583.82 
89.4 1141.87 1587.69 
89.3605 1141.8 1588.58 
89.7726 1141.55 1588.99 
90.1857 1141.37 1589.68 
89.8057 1141.49 1585.57 
89.1532 1142.06 1587.36 
89.4882 1141.88 1586.39 
89.7151 1141.73 1585.92 
89.8889 1141.04 1585.36 
89.7023 1140.45 1584.76 
89.66 1139.75 1584.34 
89.7289 1141.41 1585.36 
89.5975 1139.59 1584.12 
92.6728 1140.51 1590.94 
90.758 1141.09 1590.79 
91.544 1140.82 1591.41 
91.8102 1140.73 1591.31 
92.5514 1140.55 1591.54 
93.3794 1140.34 1591.82 
93.6992 1140.3 1591.85 
93.0874 1140.45 1591.12 
92.9664 1140.55 1590.34 
93.1866 1140.53 1590.37 
93.4267 1140.41 1591.23 
93.41 1140.5 1590.39 
93.0721 1140.62 1589.67 
93.0667 1140.66 1589.52 
92.9247 1138.19 1581.67 
92.3515 1138.57 1581.58 
93.1655 1139.79 1579.45 
90.5972 1138.41 1583.26 
90.9374 1138.38 1583.01 
91.2855 1138.12 1582.92 
89.9622 1138.91 1583.72 
90.075 1138.83 1583.49 
89.8247 1139.17 1583.71 
64.5991 1196.44 1589.52 
64.3896 1196.06 1589.7 
64.3398 1196.21 1589.44 
64.5118 1196.64 1589.27 
64.829 1195.54 1590.99 
64.7302 1195.04 1591.45 
64.2461 1195.75 1589.97 
59.9235 1194.1 1591.8 
59.704 1194.4 1591.74 
60.0322 1194.16 1591.58 
60.1825 1193.93 1591.66 
60.4036 1193.66 1591.87 
60.6349 1193.33 1592.15 
57.7642 1198.1 1591.74 
57.9984 1197.99 1591.45 
58.1054 1197.57 1591.26 
58.2298 1197.23 1591.08 
58.4533 1197.1 1590.83 
58.9513 1195.95 1591.28 
60.9859 1192.77 1592.54 
60.8874 1193.45 1591.96 
61.1317 1192 1593.26 
62.567 1192.04 1593.52 
61.6881 1191.98 1593.32 
64.718 1193.74 1592.68 
64.5515 1194.6 1591.74 
64.0611 1193.43 1592.67 
63.5396 1192.66 1593.24 
62.7751 1192.27 1593.41 
29.9563 1192.96 1590.92 
55.3241 1186.22 1587.41 
60.0142 1185.31 1585.82 
50.0373 1186.24 1588.9 
44.3025 1186.7 1590.03 
35.5757 1188.19 1590.87 
35.232 1188.67 1590.71 
27.1613 1191.04 1590.92 
53.4179 1201.74 1588.1 
53.5611 1201.87 1587.95 
53.5472 1199.38 1588.78 
53.3046 1201.68 1588.22 
53.2341 1201.58 1588.33 
52.9178 1205.03 1587.97 
52.9769 1205.17 1587.94 
53.409 1199.42 1588.85 
53.6874 1198.85 1589 
53.264 1200.43 1588.78 
66.7992 1202.61 1585.79 
63.2069 1201.98 1586.33 
59.4658 1202.37 1586.72 
67.2831 1205.24 1585.14 
57.8696 1202.17 1587.11 
57.262 1202.03 1587.59 
57.123 1198.21 1587.96 
56.611 1199.81 1587.81 
56.335 1200.8 1587.7 
57.7471 1196.41 1587.82 
56.6624 1201.54 1588.01 
56.6282 1202.08 1588.13 
57.0348 1202.04 1588.06 
55.2019 1206.66 1587.83 
61.6915 1211.78 1587.33 
64.6905 1208.67 1586.33 
66.5979 1206.65 1585.34 
58.4769 1195.35 1587.72 
59.2482 1193.88 1587.27 
60.0587 1193.3 1587.26 
60.451 1192.8 1586.94 
61.1953 1192.46 1586.69 
61.8462 1192.15 1586.38 
62.8915 1191.62 1585.69 
65.6478 1192.77 1585.21 
66.546 1189.38 1582.42 
66.605 1190.92 1583.27 
66.5427 1187.69 1581.5 
66.1203 1186.77 1581.62 
65.3996 1186.74 1582.45 
67.1874 1192.94 1584.63 
65.4255 1186.03 1582.35 
64.8547 1185.71 1582.97 
64.753 1184.9 1583.21 
63.3228 1184.17 1584.49 
64.7381 1184.19 1583.43 
64.5433 1196.83 1589.03 
64.6535 1197.03 1588.85 
71.0234 1242.63 1582.78 
72.5619 1241.04 1584.71 
73.2411 1244.19 1581.09 
73.7867 1244.89 1580.12 
71.5992 1239.35 1585.08 
71.8483 1239.64 1585.17 
69.4524 1238.99 1584.48 
71.3436 1239.1 1584.93 
68.7725 1238.42 1584.2 
71.3262 1238.57 1584.95 
70.9364 1238.18 1584.69 
70.8926 1238.04 1584.55 
70.9204 1237.94 1584.43 
68.5 1238.01 1583.37 
75.1552 1240.13 1586.66 
74.3376 1239.46 1586.44 
75.1984 1239.65 1586.87 
72.1606 1237.99 1567.61 
72.0881 1238.33 1568.21 
72.0002 1239.09 1569.65 
70.502 1239.61 1570.71 
71.194 1236.13 1563.61 
72.5604 1237.33 1566.49 
67.9857 1238.98 1577.31 
67.3225 1237.91 1580.53 
67.5836 1237.75 1581.62 
68.6414 1238.94 1577.05 
69.5838 1239.82 1573.87 
69.3665 1240.1 1572.52 
70.2368 1240.09 1571.65 
71.3884 1239.64 1570.79 
67.9313 1237.79 1582.41 
68.0074 1237.74 1582.3 
68.5484 1237.97 1583.17 
78.1369 1258.06 1591.58 
78.4654 1258.06 1591.88 
78.2804 1258.14 1592.02 
77.9434 1258.04 1591.51 
77.8265 1257.98 1591.35 
74.7104 1251.98 1585.27 
74.6967 1250.76 1583.59 
75.1102 1251.53 1584.45 
74.8469 1253.21 1587.29 
74.9235 1252.72 1586.44 
75.1172 1253.54 1587.83 
75.3162 1253.42 1587.67 
74.7281 1254.89 1588.32 
73.3108 1253.41 1588.62 
73.7439 1253.63 1588.66 
74.2981 1253.73 1588.7 
75.16 1253.79 1588.17 
75.2404 1254.29 1588.44 
76.3683 1246.51 1580.22 
73.8134 1248.08 1580.92 
74.2226 1247.61 1580.63 
74.5389 1247.13 1580.35 
76.3768 1246.8 1580.31 
73.901 1248.33 1581.29 
73.8279 1248.85 1581.71 
76.5198 1245.59 1580.8 
76.2328 1245.27 1581.08 
78.2384 1246.67 1580.7 
78.2585 1246.44 1580.91 
78.1073 1246.1 1581.09 
78.302 1246.93 1580.47 
74.4787 1249.39 1582.26 
70.6062 1249.89 1590.67 
71.1713 1250.57 1590.12 
72.4687 1251.63 1589.37 
73.0564 1252.77 1588.85 
46.1708 1216.69 1589.93 
39.3334 1219.35 1590 
35.2178 1217.92 1589.98 
52.717 1203.77 1588.85 
52.5698 1204.62 1588.54 
53.6811 1198.84 1589.17 
52.8503 1202.73 1588.53 
52.5947 1204.5 1588.44 
57.5202 1200.21 1589.4 
57.7928 1199.66 1589.54 
58.0378 1199.08 1589.79 
57.9993 1199.32 1589.91 
58.202 1198.4 1590.37 
58.0588 1198.93 1590.57 
58.2337 1198.18 1590.81 
58.3197 1200.22 1588.09 
58.0428 1200.51 1588.3 
57.6933 1200.94 1588.47 
57.4152 1201.21 1588.72 
57.142 1201.43 1588.96 
57.1691 1201.23 1588.99 
57.1022 1201.41 1588.91 
57.2211 1201.07 1589.04 
57.2769 1200.9 1589.11 
57.298 1200.85 1589 
57.3505 1200.69 1589.03 
57.3996 1200.54 1589.12 
57.4515 1200.38 1589.25 
58.3732 1197.65 1590.86 
58.2223 1197.75 1591.13 
27.733 1196.14 1592.51 
26.7634 1196.64 1592.95 
22.9803 1197.39 1593.75 
23.3883 1197.38 1593.85 
26.2542 1197.06 1593.56 
23.3257 1197.5 1594.06 
28.2183 1199.64 1596.6 
28.5528 1200.63 1597.13 
24.5014 1199.03 1595.37 
23.1221 1197.7 1594.36 
23.9288 1199.85 1596.73 
24.0465 1200.13 1596.91 
26.323 1201.97 1596.76 
24.9706 1201.37 1596.7 
24.5019 1201.02 1596.98 
24.0157 1200.59 1597.33 
24.1152 1200.45 1597.1 
23.9584 1200.75 1597.52 
11.4094 1197.07 1598.58 
7.70626 1195.21 1599.66 
7.04612 1195.7 1599.92 
8.07683 1196.69 1599.57 
11.1842 1199.27 1598.09 
12.6661 1199.05 1598.39 
19.8247 1198.63 1598.19 
17.0653 1199.29 1597.22 
15.9064 1199.87 1597.17 
25.3427 1201.69 1596.56 
24.6188 1201.46 1597.11 
23.9674 1201.41 1597.97 
22.9269 1201.32 1599.2 
20.7039 1199.9 1598.46 
57.9471 1183.08 1592.87 
59.1842 1181.42 1593.35 
60.2295 1181.07 1593.3 
60.6588 1181.21 1593.14 
59.0762 1176.02 1593.94 
59.9448 1175 1593.82 
60.2688 1175.09 1593.78 
60.1985 1174.87 1593.82 
61.0572 1178.34 1593.26 
61.4308 1179.64 1593.02 
60.1571 1174.93 1593.81 
61.436 1180.5 1593.19 
62.1893 1180.21 1593.16 
62.72 1180.49 1592.97 
63.012 1180.77 1592.82 
61.7829 1180.5 1592.85 
62.8806 1181.45 1592.61 
63.5678 1181.1 1592.59 
63.5357 1180.97 1592.62 
45.535 1185.55 1590.45 
40.6875 1186.4 1591.24 
33.3111 1187.45 1591.82 
22.5615 1189.84 1593.12 
18.4949 1190.64 1594.75 
18.3573 1190.74 1594.56 
9.53937 1191.72 1596.9 
9.37026 1191.74 1596.74 
9.76329 1191.69 1597.06 
14.0111 1191.29 1595.8 
57.0737 1180.53 1593.9 
56.8961 1179.08 1594.31 
58.047 1177.47 1594.1 
9.5168 1191.95 1597.79 
12.0019 1191.7 1597.35 
9.42726 1191.69 1597.28 
11.8671 1191.64 1597.06 
9.45442 1192.2 1598.04 
9.18565 1192.7 1598.41 
6.28722 1194.7 1599.37 
4.40467 1192.83 1599.89 
4.86059 1192.49 1599.64 
7.00821 1192.81 1598.68 
4.02438 1193.08 1600.1 
3.19617 1193.33 1600.55 
67.4974 1202.85 1589.59 
64.838 1197.34 1588.43 
65.0221 1197.45 1588.16 
65.1889 1197.7 1588.07 
64.7653 1197.22 1588.66 
65.5099 1198.04 1587.68 
63.3127 1197.77 1587.97 
64.8379 1198.29 1587.75 
65.0833 1198.51 1587.58 
65.7567 1198.52 1587.31 
59.9825 1199.67 1587.48 
60.9989 1198.33 1587.93 
62.5707 1197.59 1587.93 
58.6638 1199.88 1587.95 
72.912 1178.12 1577.58 
74.7225 1177.59 1576.6 
73.2646 1178.07 1577.28 
74.5241 1177.97 1576.43 
75.8618 1178.4 1575.3 
75.6911 1179.37 1574.84 
75.8479 1179.64 1574.51 
75.6425 1179.6 1574.75 
76.993 1178.95 1572.5 
76.0117 1179.81 1574.06 
75.8161 1179.75 1574.42 
76.5219 1179.57 1573.11 
76.1661 1179.89 1573.4 
75.9003 1180 1573.84 
76.8689 1178.54 1571.06 
76.8651 1177.94 1569.65 
77.3369 1177.2 1569.41 
78.2707 1173.89 1567.81 
79.1695 1173.97 1569.34 
77.561 1176.64 1569.11 
77.8442 1175.37 1568.45 
78.2149 1175.12 1568.9 
78.1512 1174.25 1568.05 
77.8688 1174.37 1567.49 
78.0154 1174.26 1567.72 
77.622 1174.68 1567.06 
77.6906 1174.72 1566.86 
77.7711 1174.89 1566.61 
77.6875 1174.63 1567.31 
78.1849 1175.48 1565.81 
79.1767 1176.44 1563.31 
78.702 1177.73 1561.82 
77.3342 1178.51 1562.69 
78.1459 1176.47 1565.68 
78.2185 1176.75 1565.26 
78.1978 1176.87 1564.74 
78.3662 1176.73 1563.91 
79.1477 1178.94 1560.49 
80.6686 1180.1 1558.1 
79.1457 1183.61 1558.41 
49.7582 1185.47 1589.42 
45.5678 1185.75 1590.25 
61.8508 1181.2 1584.15 
59.5865 1179.98 1584.3 
60.8205 1183.1 1585.26 
61.9928 1182.27 1584.55 
62.7474 1181.92 1584.2 
60.3696 1183.08 1585.28 
60.0142 1182.5 1585.12 
63.3628 1182.16 1584.13 
59.3623 1181.37 1584.83 
62.4984 1181.54 1584.1 
58.7852 1180.12 1584.52 
56.4309 1185.11 1587.53 
50.0543 1185.83 1589.1 
54.6657 1185.77 1587.86 
64.7229 1183.52 1583.89 
60.7841 1184.3 1585.73 
65.4402 1184.03 1582.9 
66.1228 1184.27 1582.05 
67.1224 1183.81 1580.38 
68.3848 1183.24 1578.5 
70.416 1181.71 1577.61 
69.2237 1181.52 1579.1 
71.3379 1182.84 1573.93 
70.3379 1182.47 1576.71 
71.399 1182.6 1574.25 
68.783 1181.7 1579.43 
72.421 1178.59 1577.62 
71.0069 1179.97 1578.37 
92.3408 1140.45 1579.69 
90.197 1140.57 1582.14 
90.5226 1140.22 1581.9 
90.9277 1139.82 1581.7 
89.5132 1141.35 1583.24 
89.4514 1141.22 1583.69 
89.6711 1139.83 1583.17 
89.8509 1139.75 1582.9 
89.5463 1140.04 1583.4 
89.5181 1141.93 1584.82 
89.5267 1141.96 1585.12 
89.622 1141.77 1585.33 
89.4776 1141.04 1583.97 
88.9229 1142.09 1588.22 
88.7894 1142.16 1588.37 
88.7048 1142.2 1588.67 
88.9655 1142.04 1588.72 
88.5724 1142.34 1588.73 
88.6362 1142.27 1588.91 
90.2033 1142.51 1590.88 
90.7503 1142.18 1591.5 
90.0444 1142.16 1591.14 
91.1093 1141.99 1591.82 
89.105 1142.09 1589.84 
89.3994 1142.14 1590.32 
89.5362 1142.15 1590.57 
88.9275 1142.08 1589.35 
89.8368 1142.02 1590.99 
89.9869 1142.06 1591.15 
91.2393 1144.3 1590.02 
91.0165 1144.09 1590.16 
90.5282 1143.35 1590.41 
91.4759 1144.46 1589.36 
91.4254 1144.33 1589.6 
91.385 1144.09 1590.38 
91.4947 1144.14 1590.12 
91.5385 1143.96 1590.59 
90.6769 1142.41 1591.23 
91.689 1144.03 1589.18 
91.8205 1143.52 1588.97 
92.1594 1142.12 1588.56 
92.2409 1141.84 1589.47 
92.3213 1141.96 1590.28 
92.7506 1141.66 1590.35 
93.3342 1140.62 1589.74 
93.4672 1140.79 1589.97 
93.3412 1141.05 1590.16 
93.1777 1141.34 1590.34 
89.6025 1139.54 1583.93 
89.6214 1139.49 1583.77 
89.1951 1141.9 1588.69 
89.593 1141.65 1589.04 
89.991 1141.48 1590.06 
90.6574 1141.16 1590.96 
89.7277 1141.29 1585.13 
89.5969 1140.67 1584.58 
89.5612 1139.92 1584.21 
89.6279 1141.62 1585.17 
89.5117 1139.78 1584.05 
91.688 1140.8 1591.69 
92.7776 1140.54 1592.17 
93.0584 1140.45 1592.09 
93.7321 1140.27 1592.34 
93.8656 1140.28 1592.3 
94.0726 1140.28 1592.06 
93.9957 1140.29 1592.26 
94.066 1140.32 1591.59 
94.4758 1140.28 1591.77 
94.2092 1140.29 1592.01 
93.6194 1140.48 1590.39 
94.8371 1140.25 1591.91 
91.8265 1138.96 1581.65 
90.9239 1138.65 1582.74 
90.4837 1138.64 1583.03 
90.0552 1138.97 1583.27 
89.8555 1139.14 1583.56 
89.8763 1139.21 1583.34 
89.6288 1139.48 1583.65 
89.7253 1139.35 1583.67 
64.3427 1196.42 1589.22 
64.1688 1195.96 1589.39 
64.1144 1195.73 1589.61 
64.2255 1196.2 1589.11 
64.4282 1196.62 1589.03 
63.9532 1195.26 1590.43 
63.6742 1194.77 1590.89 
63.6259 1195.13 1589.96 
59.8224 1194.44 1591.53 
59.9549 1194.46 1591.32 
60.1721 1194.16 1591.38 
60.3769 1193.88 1591.59 
60.6269 1193.61 1591.84 
58.3387 1197.38 1590.94 
58.5653 1197.14 1590.65 
59.0913 1196.26 1590.4 
59.543 1195.04 1591.32 
61.388 1193.43 1591.65 
61.1438 1193.7 1591.46 
60.9144 1193.83 1591.31 
61.5091 1193.11 1592.06 
62.138 1192.23 1593.22 
61.8028 1192.97 1592.32 
64.3042 1194.29 1591.91 
63.9529 1193.93 1592.11 
63.4801 1194.46 1591.19 
63.303 1193.45 1592.28 
62.727 1193.06 1592.51 
62.1825 1193.01 1592.44 
59.3505 1184.95 1586.21 
45.5258 1186.07 1590.04 
40.5716 1187.04 1590.73 
30.1798 1189.37 1591.08 
26.9884 1190.25 1591.11 
25.8203 1190.78 1590.87 
24.8347 1191.92 1590.98 
52.7275 1204.92 1588.13 
52.8986 1204.63 1588.03 
53.2349 1201.35 1588.45 
52.6083 1205.02 1588.21 
52.6044 1203.23 1588.31 
52.4905 1206.36 1588.18 
53.0415 1201.96 1588.49 
52.5702 1204.71 1588.37 
67.9054 1202.99 1585.23 
66.3897 1199.12 1586.6 
65.7187 1199.86 1586.65 
63.6441 1200.52 1586.69 
59.734 1201.56 1586.88 
68.3964 1205.66 1584.67 
67.7918 1206.74 1584.96 
57.766 1201.66 1587.45 
58.2242 1201.64 1587.19 
57.5566 1201.69 1587.76 
57.5563 1198 1588.04 
56.9625 1199.94 1587.82 
56.7278 1201 1587.88 
58.0901 1196.5 1588.01 
56.9454 1201.65 1588.4 
56.8256 1201.95 1588.36 
56.8719 1202.04 1588.36 
57.348 1201.73 1588.08 
53.9916 1211.13 1588.17 
59.4917 1214.35 1587.99 
67.6688 1216.13 1587.14 
69.6016 1215.69 1586.95 
67.2288 1209.69 1586.04 
70.5961 1215.39 1586.72 
68.1526 1210.08 1585.87 
58.6798 1195.68 1587.95 
59.3199 1194.39 1587.55 
60.2008 1193.6 1587.45 
60.5995 1193.08 1587.27 
60.9163 1192.81 1587.01 
61.4456 1192.86 1587.19 
61.8617 1192.67 1586.89 
62.4223 1192.52 1586.68 
63.3892 1192.83 1586.53 
64.2773 1193.64 1586.57 
65.0115 1194.6 1586.58 
66.8437 1194.79 1586 
68.2622 1194.84 1585.66 
67.3142 1191.29 1582.9 
67.3895 1189.64 1581.62 
67.6464 1193.02 1584.35 
67.0594 1187.91 1580.94 
67.5714 1186.57 1579.17 
67.3581 1185.94 1579.27 
66.0514 1186.06 1581.56 
68.435 1194.69 1585.47 
65.9177 1185.48 1581.76 
65.4375 1185.2 1582.47 
65.4129 1184.63 1582.68 
64.5442 1196.85 1588.83 
64.6676 1197.07 1588.62 
72.8971 1241.33 1584.61 
73.3093 1241.88 1584.31 
75.5435 1240.53 1586.69 
75.0655 1243.73 1582.65 
74.034 1239.03 1586.29 
71.2882 1238.83 1584.92 
73.4743 1238.68 1585.83 
71.2121 1238.35 1584.88 
73.6521 1238.1 1585.6 
74.106 1238.36 1585.99 
74.0293 1237.85 1585.48 
73.8622 1237.62 1585.12 
70.9967 1237.86 1584.32 
73.5927 1237.49 1584.8 
75.9133 1239.91 1587.24 
75.1902 1239.12 1586.87 
75.8298 1239.46 1587.33 
74.3262 1238.24 1568.33 
72.8879 1237.34 1566.58 
73.8952 1239.04 1569.67 
74.2406 1235.51 1563.75 
68.3322 1237.88 1580.29 
68.3498 1237.72 1581.27 
68.5343 1237.74 1582.65 
68.4493 1237.66 1582.17 
69.9119 1239.68 1574.81 
70.7062 1237.97 1579.55 
70.7116 1237.61 1580.58 
70.3878 1239.91 1573.9 
70.1572 1240.13 1572.63 
72.8797 1239.78 1571.06 
72.3334 1240 1571.79 
68.5768 1237.87 1582.96 
70.5439 1237.75 1583.77 
70.8216 1237.8 1584.12 
78.8008 1257.77 1591.9 
79.5974 1257.37 1592 
79.1586 1256.97 1591.25 
78.5563 1257.23 1591.24 
77.7599 1257.82 1591.44 
75.4402 1252.47 1585.81 
75.3656 1250.85 1583.55 
77.3748 1251.87 1584.76 
75.5204 1253.27 1587.33 
75.7199 1253.72 1588.19 
75.9075 1253.65 1588.04 
76.059 1253.51 1587.74 
74.9568 1253.78 1588.78 
73.4407 1253.04 1588.85 
74.0913 1253.49 1588.92 
74.6269 1253.56 1589.06 
75.6899 1253.88 1588.45 
75.5929 1253.92 1588.73 
78.2589 1247.16 1580.4 
74.3228 1247.86 1580.86 
74.4846 1248.03 1581.22 
76.4537 1247.15 1580.41 
76.3397 1247.54 1580.55 
77.9329 1247.31 1580.42 
74.6106 1248.27 1581.59 
78.3549 1245.87 1581.22 
78.0348 1245.51 1581.64 
78.5646 1247.03 1580.7 
78.5988 1246.82 1580.91 
78.7043 1246.26 1581.02 
78.7944 1246.63 1581.11 
78.6082 1247.3 1580.68 
76.4711 1249.96 1582.59 
76.1994 1248.95 1581.7 
70.6504 1249.81 1590.77 
69.285 1248.48 1591.78 
72.7761 1251.5 1589.46 
72.0411 1250.41 1590.07 
45.5957 1217.23 1589.72 
47.9175 1217.51 1589.76 
32.2635 1217.72 1590 
22.6323 1204.43 1592.23 
23.8768 1207.85 1591.78 
22.9296 1201.3 1591.55 
52.4549 1205.18 1588.47 
57.6744 1199.85 1589.31 
57.9975 1199.11 1589.51 
58.416 1197.84 1589.76 
58.6155 1197.31 1590.08 
58.4256 1197.66 1590.56 
58.5245 1200.07 1587.81 
58.3706 1200.35 1587.79 
58.0879 1200.72 1587.93 
57.8343 1200.96 1588.16 
57.5526 1201.43 1588.16 
57.3248 1201.52 1588.47 
57.0446 1201.63 1588.78 
57.0756 1201.46 1588.77 
57.1842 1201.2 1588.85 
57.2418 1201.02 1588.92 
57.2673 1200.96 1588.8 
57.3206 1200.8 1588.87 
57.4837 1200.37 1588.96 
57.585 1200.09 1589.11 
29.0749 1196.27 1593.33 
26.6298 1196.61 1592.74 
23.2778 1197.3 1593.49 
19.041 1198.13 1594.52 
19.299 1198.1 1594.71 
17.9255 1198.31 1594.86 
18.1955 1198.33 1595.03 
22.2548 1199.15 1596 
18.9103 1198.9 1595.56 
23.7863 1199.81 1596.99 
23.9545 1200.13 1597.06 
24.2712 1201.21 1597.41 
23.9149 1200.47 1597.39 
23.6791 1200.65 1597.84 
4.28632 1196.92 1600 
10.7593 1200.71 1597.92 
11.277 1201.63 1597.52 
11.9013 1202.25 1597.11 
12.7489 1202.27 1596.89 
23.6541 1201.15 1598.22 
23.1917 1201.01 1598.66 
20.8335 1200.38 1598.1 
20.5248 1200.15 1598.15 
18.2262 1199.66 1597.59 
59.0759 1181.34 1593.39 
60.3329 1180.88 1593.35 
60.6937 1180.92 1593.24 
58.9829 1176.29 1593.95 
60.1428 1175 1593.8 
59.8798 1175.19 1593.82 
60.8891 1176.78 1593.5 
60.3933 1174.8 1593.82 
60.3817 1174.87 1593.81 
61.4599 1178.81 1593.14 
62.9341 1180.48 1592.71 
60.2985 1174.88 1593.81 
61.5076 1180.27 1593.26 
62.0545 1179.98 1593.16 
62.7116 1179.96 1593.15 
62.9023 1180.22 1593.02 
63.4403 1180.46 1592.8 
63.5837 1180.74 1592.67 
63.2967 1181.13 1592.56 
63.7531 1180.78 1592.57 
40.6574 1186.57 1591.05 
22.0252 1190.08 1593.08 
15.1522 1191.31 1595.19 
13.8579 1191.39 1595.63 
7.21479 1191.73 1597.14 
7.16089 1191.77 1597 
7.4328 1191.71 1597.38 
8.84661 1191.86 1596.5 
57.3064 1180.47 1593.85 
7.47373 1191.73 1597.51 
7.41564 1191.82 1597.7 
7.5817 1192.03 1597.92 
7.71815 1192.41 1598.11 
1.78049 1194.15 1601.46 
-0.777324 1194.37 1602.43 
6.95459 1192.5 1598.47 
2.4618 1192.26 1600.56 
67.7062 1203.9 1589.96 
67.5151 1202.84 1589.07 
67.3034 1202.34 1588.04 
64.7673 1197.15 1588.34 
65.0172 1197.32 1587.99 
65.1595 1197.48 1587.93 
65.2924 1197.67 1587.86 
65.4885 1197.87 1587.58 
65.7522 1198.27 1587.32 
64.5554 1198.18 1587.68 
64.6911 1198.51 1587.53 
65.3037 1198.64 1587.25 
65.9564 1198.64 1586.99 
59.9943 1199.8 1587.43 
61.4551 1198.12 1587.68 
63.7985 1197.94 1587.67 
72.9727 1178.42 1577.2 
74.5744 1178.89 1575.85 
72.9936 1179.42 1576.61 
74.5184 1179.76 1575.39 
74.4186 1180.01 1575.28 
74.3485 1180.23 1575.11 
75.4715 1179.9 1574.63 
76.5009 1179.48 1572.6 
75.5496 1180.06 1574.32 
76.2504 1179.81 1573.09 
75.7553 1180.17 1573.33 
75.5219 1180.28 1573.74 
75.4122 1180.27 1574.07 
76.377 1179.14 1571.35 
76.3255 1178.71 1569.97 
75.7902 1179.31 1570.39 
76.6413 1178.26 1569.51 
76.9013 1177.86 1569.17 
77.1827 1177.3 1569.04 
78.0882 1174.21 1567.85 
77.3967 1176.7 1568.7 
77.6571 1175.51 1568.14 
77.8368 1174.58 1567.76 
77.6499 1174.74 1567.49 
77.5436 1174.94 1567.23 
77.532 1175.04 1567 
77.5963 1175.07 1566.76 
77.8302 1175.73 1566.25 
77.4894 1178.03 1563.57 
77.3585 1178.3 1563.07 
77.1831 1179.37 1562.01 
76.7138 1179.4 1562.48 
76.399 1179.38 1562.85 
77.781 1177.05 1566.71 
77.7604 1177.3 1566.47 
77.4968 1177.75 1566.56 
77.8394 1177.36 1564.97 
77.8953 1177.41 1564.3 
77.2648 1179.89 1561.53 
77.7829 1180.67 1560.73 
78.9782 1181.02 1559.51 
77.5282 1185.54 1560.29 
78.4442 1182.89 1559.65 
40.7671 1186.73 1590.87 
60.6394 1180.39 1584.13 
60.4857 1180.22 1584.09 
58.9881 1179.48 1584.22 
61.0423 1182.8 1585.1 
60.1686 1183 1585.2 
61.8222 1182.16 1584.52 
62.481 1181.79 1584.19 
63.0394 1181.93 1584.11 
59.3035 1181.92 1584.93 
63.3532 1182.02 1584.06 
58.8144 1180.99 1584.69 
58.6536 1180.34 1584.55 
60.879 1180.42 1584.05 
61.9165 1181.06 1584.03 
58.1585 1179.51 1584.33 
58.1926 1178.46 1583.97 
65.9725 1184.84 1581.88 
67.1051 1184.29 1580.02 
70.9971 1183.2 1574.13 
72.4587 1181.05 1575.8 
72.832 1180.68 1575.83 
72.7244 1180.46 1576.18 
71.4915 1180.03 1577.69 
73.697 1181.56 1570.71 
72.5923 1182.26 1572.44 
74.1638 1181.08 1570.37 
71.6891 1182.14 1574.74 
72.3117 1181.37 1575.5 
72.7309 1182.06 1572.58 
72.5903 1178.58 1577.43 
91.3791 1139.39 1581.61 
90.0285 1139.59 1582.72 
90.2493 1139.36 1582.62 
90.5659 1138.97 1582.62 
89.5007 1140.1 1583.56 
89.4701 1140.12 1583.75 
89.6343 1139.6 1583.36 
89.8353 1139.49 1583.12 
89.5899 1141.46 1584.52 
89.6248 1141.56 1584.96 
89.5314 1141.05 1584.09 
89.4815 1140.42 1583.99 
89.4843 1140.06 1583.91 
88.8371 1142.11 1588.89 
89.1144 1141.93 1588.97 
89.3734 1141.77 1589.01 
88.9695 1141.97 1589.24 
91.7537 1142.02 1592.05 
91.9472 1141.85 1592.27 
90.9113 1141.89 1591.81 
91.992 1141.71 1592.39 
89.2475 1141.87 1589.95 
89.5254 1141.95 1590.55 
89.8701 1141.81 1591.02 
89.9943 1141.84 1591.15 
90.5593 1141.61 1592.28 
90.4778 1141.84 1591.62 
91.1787 1144.02 1590.34 
90.6653 1143.21 1590.63 
91.0399 1142.43 1591.43 
91.6375 1143.87 1589.4 
91.6612 1143.75 1589.78 
91.7004 1143.64 1590.23 
91.1858 1143.12 1591.04 
90.9717 1143.06 1590.95 
91.698 1143.67 1590.72 
91.3902 1143.1 1591.18 
91.9479 1142.04 1592.14 
91.705 1143.63 1589.11 
91.812 1143.36 1588.83 
91.6269 1143.85 1588.97 
91.9656 1142.48 1588.44 
92.0924 1142.19 1588.77 
92.1924 1142.05 1589.68 
92.2712 1142.18 1590.46 
92.7432 1141.89 1590.59 
93.1399 1141.59 1590.59 
93.6555 1140.56 1589.91 
93.8065 1140.47 1590.37 
93.8989 1140.55 1590.07 
93.8575 1140.74 1590.24 
93.7122 1141 1590.41 
93.5284 1141.28 1590.57 
89.5031 1139.77 1583.91 
89.4928 1139.76 1583.77 
89.6561 1141.64 1589.72 
89.9725 1141.5 1590.64 
90.9054 1141.15 1591.31 
89.5563 1140.82 1584.39 
89.5004 1140.05 1584.07 
91.9242 1140.78 1592.05 
92.9975 1140.55 1592.75 
93.5556 1140.36 1592.8 
93.6752 1140.31 1592.63 
93.8226 1140.31 1592.68 
93.9647 1140.31 1592.58 
94.1994 1140.3 1592.57 
94.3553 1140.29 1592.42 
94.6353 1140.26 1592.35 
95.2431 1140.19 1592.75 
94.9616 1140.25 1591.76 
95.8006 1140.12 1592.87 
90.2459 1139.01 1582.9 
90.0147 1139.3 1582.99 
89.6981 1139.42 1583.48 
89.7313 1139.35 1583.57 
89.7627 1139.43 1583.3 
89.5239 1139.72 1583.58 
64.328 1196.43 1589.01 
64.0773 1195.92 1589.04 
63.9596 1195.64 1589.25 
63.4825 1195.11 1589.53 
64.1947 1196.02 1588.79 
64.3242 1196.28 1588.76 
64.423 1196.6 1588.82 
63.322 1194.65 1590.43 
63.1506 1194.46 1590.72 
63.0269 1194.58 1589.91 
60.2285 1194.56 1590.75 
59.9058 1194.98 1590.71 
60.4569 1194.29 1590.87 
60.6692 1194.06 1591.09 
59.6253 1195.46 1590.45 
59.8646 1195.29 1589.56 
60.0345 1195.11 1589.89 
59.1979 1196.14 1589.75 
61.7457 1193.8 1590.83 
61.4627 1193.79 1590.74 
61.2146 1193.94 1590.58 
60.9855 1194.06 1590.39 
61.9994 1193.81 1591.01 
62.2444 1193.78 1591.31 
63.212 1194.18 1591.35 
63.0337 1194.31 1590.94 
62.8112 1194.04 1591.22 
62.5381 1193.88 1591.32 
34.4193 1187.83 1591.2 
30.0284 1188.65 1591.42 
26.77 1189.54 1591.42 
26.861 1189.81 1591.25 
25.1355 1190.58 1591.09 
23.0418 1191.34 1591.87 
22.9095 1191.09 1591.97 
23.1528 1191.72 1591.79 
20.1524 1192.58 1592.88 
52.6408 1204.6 1588.27 
52.4651 1205.16 1588.32 
52.9607 1202.54 1588.51 
68.8686 1203.68 1584.68 
67.4016 1199.23 1586.12 
66.1893 1198.69 1586.72 
65.5005 1199.04 1586.88 
65.6616 1198.79 1586.9 
64.8144 1199.57 1586.93 
63.2722 1199.92 1586.92 
59.8037 1201.01 1587.03 
68.781 1206.61 1584.43 
68.3018 1207.34 1584.8 
58.1554 1201.26 1587.35 
57.9705 1201.22 1587.61 
57.7955 1201.29 1587.87 
57.2594 1199.93 1587.95 
57.8863 1198.02 1588.15 
56.9811 1200.77 1588.01 
56.9572 1201.26 1588.26 
58.2189 1196.74 1588.2 
57.1177 1201.35 1588.55 
57.0116 1201.59 1588.58 
56.8894 1201.85 1588.52 
57.0437 1201.82 1588.45 
66.9726 1217.16 1587.12 
72.4431 1217.76 1586.9 
74.4199 1217.88 1586.76 
71.7777 1215.68 1586.54 
74.8405 1217.64 1586.64 
68.875 1210.63 1585.79 
72.2968 1215.47 1586.35 
58.7699 1195.88 1588.16 
59.4646 1194.66 1587.79 
60.22 1193.87 1587.77 
60.6958 1193.35 1587.68 
61.0475 1193.05 1587.4 
61.3812 1193.07 1587.61 
61.93 1193.02 1587.43 
61.7101 1193.05 1587.53 
61.5989 1193.14 1587.85 
62.2867 1192.96 1587.3 
62.6529 1192.97 1587.2 
63.3656 1193.52 1587.13 
64.0634 1194.21 1587.15 
64.5367 1194.59 1586.93 
65.5723 1195.74 1586.69 
64.8616 1195.53 1587.09 
67.157 1195.69 1586.22 
68.6188 1195.49 1585.82 
68.8382 1195.25 1585.57 
68.1104 1193.23 1584.1 
67.9199 1191.76 1582.53 
68.5092 1191.86 1581.81 
68.301 1188.88 1579.48 
68.6879 1194.77 1585.32 
70.2151 1188.41 1576.38 
69.1808 1185.59 1576.07 
70.9028 1186.57 1574.39 
67.1624 1185.46 1579.51 
69.0952 1185.12 1576.14 
69.0794 1195.33 1585.37 
67.3045 1185.01 1579.26 
64.5526 1196.86 1588.61 
75.5255 1241.1 1586.28 
75.9545 1241.86 1585.97 
76.1497 1241.21 1586.56 
76.2788 1240.3 1587.34 
76.2482 1243.76 1583.54 
78.1291 1245.33 1582.23 
76.7152 1242.27 1586.12 
74.6143 1238.66 1586.43 
74.9431 1238 1586.21 
75.2205 1238.3 1586.63 
75.2748 1237.57 1586.19 
75.4757 1237.15 1586.04 
73.5165 1237.39 1584.6 
75.7532 1236.69 1585.65 
76.3373 1239.79 1587.61 
75.8611 1239.1 1587.41 
75.4638 1238.71 1587.02 
76.3284 1239.39 1587.75 
74.8885 1237.4 1566.88 
76.8864 1238.34 1569.03 
77.0716 1237.94 1568.38 
76.8311 1237.35 1567.18 
74.9346 1239.68 1570.67 
73.5416 1234.57 1562.47 
70.554 1237.49 1581.41 
70.32 1237.51 1582.08 
70.3754 1237.67 1583.26 
70.2299 1237.59 1582.65 
71.8894 1239.95 1574.6 
70.4351 1238.61 1578.01 
73.1445 1237.53 1580.76 
73.0417 1238 1579.68 
72.8585 1237.39 1581.63 
71.7881 1240.13 1573.52 
71.9509 1240.13 1572.62 
74.3016 1240.18 1571.75 
74.0161 1240.19 1572.39 
73.2966 1237.33 1584.39 
80.561 1255.78 1591.12 
81.2627 1256.48 1591.99 
81.3459 1258.46 1593.45 
79.3876 1257.49 1591.97 
79.9859 1256.03 1591.02 
78.4909 1257.05 1591.15 
79.3138 1256.3 1590.88 
77.4893 1258.33 1592.54 
76.1176 1253.15 1586.86 
77.5018 1253.5 1586.65 
79.394 1252.3 1585.44 
79.3431 1254.21 1587.17 
80.153 1254.09 1587.56 
76.1428 1254.07 1588.58 
76.3609 1254.03 1588.44 
76.5071 1253.87 1588.22 
77.8366 1254.68 1588.66 
75.0702 1253.53 1589.22 
75.1694 1253.68 1589.03 
75.4063 1253.65 1589.04 
73.1442 1251.56 1589.51 
73.7521 1252.99 1588.98 
74.2395 1253.1 1589.16 
74.7062 1253.18 1589.35 
76.065 1254.12 1588.77 
78.5154 1247.5 1580.64 
75.995 1248.05 1580.8 
76.0123 1248.38 1581.16 
78.0733 1247.62 1580.64 
77.7737 1247.83 1580.71 
79.2574 1245.95 1581.05 
78.5649 1245.65 1581.68 
78.7112 1247.28 1580.95 
78.7121 1247.12 1581.03 
78.8559 1246.96 1581.2 
79.232 1246.47 1581.29 
79.1745 1246.79 1581.36 
78.7461 1247.61 1580.91 
78.8105 1247.58 1581.03 
78.5102 1250.01 1582.45 
77.633 1249.17 1581.43 
70.7815 1249.73 1590.94 
69.9561 1249.2 1591.45 
71.5085 1250.35 1590.36 
72.1932 1250.39 1590.12 
49.8889 1217.14 1589.35 
48.6927 1218.23 1589.67 
47.4753 1218.26 1589.76 
39.2341 1220.99 1590.41 
33.3115 1219.56 1590.18 
27.6409 1214.49 1589.75 
28.5865 1216.23 1588.39 
19.7475 1203.6 1592.8 
21.3484 1200.62 1591.91 
20.615 1207.09 1591.49 
57.9312 1199.25 1589.29 
58.6153 1197.48 1589.49 
59.7729 1200.01 1587.41 
58.2413 1200.68 1587.67 
56.95 1201.74 1588.67 
57.1291 1201.33 1588.69 
57.2119 1201.13 1588.73 
57.3615 1200.73 1588.69 
57.2454 1201.04 1588.62 
57.4617 1200.46 1588.82 
57.6739 1199.91 1588.83 
57.7889 1199.6 1589.04 
28.9649 1196.21 1593.11 
27.4087 1196.25 1592.25 
26.6455 1196.56 1592.54 
23.148 1197.29 1593.32 
17.9323 1198.24 1594.65 
15.2321 1198.84 1595.55 
14.9897 1198.94 1595.77 
14.9514 1199.04 1596.07 
14.9066 1199.1 1596.21 
18.8127 1200.66 1595.91 
15.0909 1199.12 1596.32 
22.1761 1199.96 1596.64 
18.743 1200.88 1596.39 
22.5949 1200.17 1596.89 
22.9802 1200.68 1597.98 
22.9694 1200.55 1597.61 
0.927709 1196.33 1601 
0.676357 1196.8 1600.95 
5.21741 1197.4 1600.28 
5.68032 1197.77 1600.49 
6.89874 1198.4 1600.34 
10.8796 1202.58 1597.32 
11.6565 1202.56 1597.03 
16.3727 1200.38 1596.79 
12.8072 1202.42 1596.78 
20.5257 1200.37 1597.78 
58.9828 1181.09 1593.51 
60.6494 1180.5 1593.4 
60.6757 1180.59 1593.36 
60.9386 1180.55 1593.31 
58.8541 1176.62 1593.98 
60.4338 1175.12 1593.78 
60.1708 1175.03 1593.79 
59.877 1175.34 1593.82 
60.6466 1175.05 1593.76 
61.8759 1178.67 1593.1 
61.7418 1177.61 1593.27 
60.5711 1174.8 1593.8 
60.6661 1175.01 1593.79 
60.6523 1175.16 1593.78 
61.4478 1180.17 1593.31 
62.5221 1179.65 1593.3 
61.9099 1179.8 1593.37 
63.2889 1179.89 1593.04 
63.5943 1180.17 1592.85 
64.098 1180.45 1592.62 
63.882 1180.49 1592.6 
34.1694 1187.63 1591.4 
27.652 1188.72 1591.88 
22.8782 1190.01 1592.65 
15.1371 1191.44 1595.03 
9.46357 1191.95 1596.25 
6.85962 1191.8 1597.28 
6.58186 1191.79 1597.14 
6.51465 1191.74 1597.3 
6.57975 1191.78 1597.01 
6.67005 1191.9 1597.51 
7.02302 1191.91 1596.69 
5.23151 1191.45 1597.25 
5.25727 1191.34 1597.46 
57.6047 1180.32 1593.84 
6.74527 1191.89 1597.66 
6.75524 1191.88 1597.86 
6.90441 1192.21 1598.24 
-3.6235 1194.86 1602.39 
-1.74823 1196.04 1602.06 
5.38273 1191.82 1599.08 
-3.12644 1193.94 1602.09 
-3.18894 1194.21 1602.39 
67.8761 1204.22 1589.42 
64.8261 1197.2 1587.88 
64.595 1196.78 1588.27 
65.2846 1197.44 1587.62 
65.2938 1197.56 1587.75 
65.081 1197.4 1587.52 
65.5116 1197.67 1587.46 
65.6731 1198.05 1587.31 
65.9182 1198.31 1587.01 
64.5767 1198.32 1587.52 
64.8107 1198.71 1587.22 
64.4758 1198.55 1587.37 
62.1946 1197.94 1587.63 
64.4896 1198.18 1587.51 
72.2679 1179.72 1577.07 
74.3976 1180.44 1574.78 
72.948 1180.94 1575.28 
75.756 1179.78 1571.77 
75.9714 1180 1572.91 
74.4475 1180.59 1574.43 
74.7954 1180.62 1572.97 
74.5835 1180.73 1573.48 
74.4359 1180.71 1574.02 
76.1851 1178.93 1569.63 
76.4647 1178.53 1569.49 
74.8499 1180.13 1570.73 
74.4576 1180.5 1571.49 
74.7092 1180.39 1571.76 
76.644 1178.31 1569.06 
76.9371 1177.8 1568.71 
77.2317 1177.11 1568.65 
77.5237 1175.67 1567.8 
77.3211 1176.82 1568.22 
77.4778 1175.86 1567.47 
77.5233 1176.03 1567.14 
77.656 1176.05 1566.68 
77.2242 1178.16 1564.47 
76.6337 1178.82 1563.76 
76.5299 1179.07 1563.26 
76.3107 1179.91 1562.28 
76.3605 1180.1 1562.04 
76.1152 1179.72 1562.59 
75.9143 1179.53 1563.1 
75.7018 1179.77 1562.87 
77.3575 1177.07 1567.76 
77.1643 1177.88 1567.82 
77.2445 1177.37 1568.19 
76.2862 1179.55 1567.31 
76.1201 1179.46 1568.48 
76.9188 1178.64 1566.25 
76.5537 1180.49 1561.66 
77.3065 1181.3 1560.89 
77.9943 1181.79 1560.27 
77.0005 1185.37 1561.02 
77.6931 1184.32 1560.27 
77.1984 1187.32 1560.55 
76.8641 1186.68 1561.36 
77.6695 1183.07 1560.35 
59.4077 1179.19 1583.93 
60.733 1182.75 1585.07 
59.8015 1182.76 1585.1 
61.7592 1182.01 1584.43 
62.664 1181.69 1584.1 
63.3769 1182.04 1584.05 
59.2062 1182.21 1584.97 
58.8643 1181.42 1584.78 
62.8928 1181.33 1583.87 
62.1259 1180.61 1583.78 
58.4599 1180.41 1584.54 
60.4817 1179.89 1583.93 
58.1771 1179.84 1584.4 
57.7559 1178.6 1584.1 
58.443 1177.33 1583.51 
59.3433 1178.05 1583.55 
60.6091 1178.61 1583.45 
59.4235 1178.56 1583.71 
58.4752 1177.68 1583.64 
58.5582 1177.31 1583.49 
67.1772 1184.66 1579.64 
71.1208 1183.4 1573.78 
73.5705 1181.87 1570.73 
75.0361 1181.06 1568.55 
74.3312 1180.73 1570.63 
72.8798 1181.65 1573.33 
73.0219 1181.79 1572.51 
72.704 1181.32 1574.9 
89.2461 1141.78 1589.46 
89.4754 1141.7 1589.62 
92.6181 1141.77 1592.67 
92.8872 1141.61 1592.89 
92.5715 1141.54 1592.76 
91.9125 1141.59 1592.5 
92.7839 1141.37 1592.95 
89.5769 1141.73 1590.47 
89.7091 1141.75 1590.8 
90.0407 1141.64 1591.11 
90.4744 1141.56 1591.5 
90.3942 1141.66 1591.64 
91.6861 1141.27 1593.06 
91.942 1141.45 1592.67 
92.4207 1141.16 1592.91 
90.7498 1142.68 1591.12 
91.2606 1142.44 1591.55 
92.1596 1142.1 1592.24 
92.5222 1141.91 1592.55 
92.0742 1142.41 1589.52 
91.9803 1142.74 1589.87 
91.9044 1143.06 1590.39 
91.8413 1143.35 1590.9 
91.6391 1142.75 1591.55 
91.3695 1142.68 1591.46 
91.6006 1142.45 1591.71 
91.6344 1143.15 1591.29 
91.8827 1142.87 1591.61 
91.9884 1142.6 1588.76 
91.7053 1143.39 1588.79 
91.4677 1144.24 1589.09 
92.1524 1142.14 1589.27 
91.6345 1143.63 1588.81 
91.4841 1144.01 1588.94 
91.8024 1142.72 1588.39 
91.7377 1142.97 1588.52 
92.1332 1142.33 1590.09 
92.2427 1142.39 1590.7 
92.7281 1142.09 1590.81 
93.2219 1141.8 1590.88 
93.5688 1141.52 1590.84 
94.47 1140.36 1590.91 
94.6802 1140.34 1590.91 
94.8917 1140.33 1590.95 
94.1565 1140.73 1590.48 
94.0286 1140.98 1590.64 
93.904 1141.26 1590.79 
90.3047 1141.4 1591.05 
91.445 1141.06 1591.82 
92.4833 1140.8 1592.9 
92.9937 1140.65 1593.39 
93.3707 1140.5 1593.3 
93.7292 1140.34 1592.99 
93.9383 1140.34 1593.14 
93.9807 1140.33 1592.9 
94.4052 1140.29 1593.03 
94.8833 1140.23 1593.14 
94.7157 1140.25 1592.89 
95.1469 1140.2 1592.96 
95.7149 1140.13 1593.03 
95.9813 1140.09 1592.64 
96.0627 1140.07 1592.9 
63.8437 1195.57 1588.93 
63.9786 1195.69 1588.69 
63.3775 1195.04 1589.21 
62.9555 1194.58 1589.54 
64.3087 1196.08 1588.46 
64.1285 1195.81 1588.49 
64.4397 1196.49 1588.5 
62.9007 1194.42 1590.26 
62.7445 1194.27 1590.46 
62.7318 1194.39 1589.84 
60.5779 1194.41 1590.14 
60.3676 1194.7 1590 
60.7687 1194.2 1590.26 
59.549 1195.53 1589.26 
59.8642 1195.21 1589.21 
60.2125 1194.81 1589.41 
60.347 1194.72 1589.66 
59.1279 1196 1589.23 
61.7203 1193.84 1590.51 
62.0001 1193.89 1590.62 
61.4722 1193.79 1590.46 
61.3199 1193.82 1590.36 
61.1468 1193.88 1590.21 
60.9354 1193.98 1590.05 
62.2485 1193.9 1590.9 
62.7544 1194.18 1590.75 
62.5359 1194.04 1590.86 
29.9213 1188.42 1591.58 
26.656 1189.35 1591.55 
25.5039 1189.91 1591.33 
25.4816 1189.69 1591.5 
25.1785 1190.08 1591.29 
22.9721 1190.82 1591.99 
19.0678 1192.36 1593.2 
17.9506 1192.21 1593.55 
69.138 1203.48 1584.59 
68.4646 1198.83 1585.86 
66.106 1198.12 1586.79 
67.2706 1197.54 1586.45 
64.3056 1198.86 1587.23 
64.4035 1199.23 1587.09 
62.9612 1199.41 1587.1 
59.8116 1200.65 1587.15 
69.4332 1206.9 1583.99 
69.0929 1207.55 1584.35 
69.1522 1210.34 1585.5 
58.4104 1200.85 1587.43 
58.1427 1201.02 1587.49 
57.4132 1200.05 1588.18 
57.2596 1200.67 1588.34 
57.9765 1198.56 1588.4 
57.1378 1201.06 1588.4 
58.465 1196.93 1588.53 
71.8333 1218.68 1586.73 
74.6272 1218.27 1586.78 
75.7001 1217.88 1586.47 
75.5302 1218.14 1586.64 
75.4192 1217.47 1586.42 
70.2421 1213.37 1585.93 
72.7884 1215.32 1586.02 
75.4469 1217.15 1586.22 
59.0256 1195.78 1588.44 
59.6215 1194.91 1588.09 
60.4332 1193.84 1588.18 
60.0514 1194.55 1588.11 
60.5513 1193.66 1588.03 
60.786 1193.48 1588.05 
61.0608 1193.26 1587.8 
61.2607 1193.29 1588.08 
62.0757 1193.25 1587.9 
61.8246 1193.31 1588.14 
61.4689 1193.36 1588.38 
61.6874 1193.44 1588.5 
62.3685 1193.32 1587.87 
62.8655 1193.49 1587.66 
63.3732 1194.06 1587.64 
63.9885 1194.89 1587.76 
64.2513 1195.01 1587.39 
64.7286 1195.93 1587.37 
67.279 1196.31 1586.27 
65.7523 1196.63 1586.79 
65.0866 1196.16 1587.24 
69.0734 1195.67 1585.58 
68.8244 1196.04 1585.91 
68.6469 1193.79 1583.99 
68.9451 1194.9 1585.16 
69.005 1194.27 1583.82 
69.1169 1192.31 1581.04 
69.8147 1192.66 1579.52 
69.8965 1191.47 1578.42 
70.7954 1190.84 1576.96 
71.4796 1189.29 1575.21 
72.0486 1188.46 1573.75 
71.7252 1185.32 1573.06 
72.6145 1187.57 1572.63 
71.7403 1184.19 1572.85 
71.1838 1183.98 1573.51 
69.2459 1195.41 1585.18 
69.3036 1195.86 1585.41 
71.1772 1183.66 1573.6 
77.0804 1241.51 1586.95 
76.6821 1240.72 1587.41 
76.6781 1240.17 1587.74 
77.6462 1244.05 1584.14 
78.3371 1243.8 1584.89 
78.5741 1245.47 1582.35 
75.7792 1237.86 1586.88 
75.9288 1238.19 1587.14 
76.0002 1238.52 1587.34 
76.1569 1237.52 1587.07 
76.7656 1236.99 1587.24 
75.4623 1236.37 1584.67 
77.9885 1235.65 1586.6 
76.629 1239.72 1588.02 
76.3386 1239.03 1587.88 
76.0888 1238.86 1587.55 
76.5202 1239.29 1588.16 
75.8804 1235.22 1563.58 
77.5087 1238.08 1568.84 
77.4152 1238.33 1569.28 
75.733 1239.43 1570.57 
77.4864 1237.7 1568.22 
77.2753 1237.1 1567.03 
76.5173 1234.6 1563.06 
75.6916 1232.58 1559.96 
75.2235 1230.71 1556.34 
74.4477 1230.05 1555.1 
73.0706 1237.22 1582.72 
72.8793 1237.17 1583.46 
72.9246 1237.25 1584 
71.8877 1239.4 1576.21 
73.5237 1240.07 1575 
73.6977 1240.24 1574.22 
73.5738 1240.14 1573.27 
73.1083 1239.11 1577.07 
73.6711 1237.91 1579.72 
74.0393 1238 1580.85 
73.8019 1237.92 1582.23 
73.7788 1239.12 1577.18 
74.327 1240.34 1572.72 
74.5926 1240.42 1572.48 
74.1355 1240.3 1573.32 
73.9222 1237.1 1584.18 
80.4506 1255.53 1590.95 
80.8777 1255.29 1591.01 
81.1019 1255.17 1591.13 
81.7697 1256.38 1592.26 
81.3603 1255.15 1591.36 
82.0723 1257.95 1593.3 
81.102 1259.76 1594.93 
80.1667 1258.23 1593.03 
80.0156 1255.68 1590.86 
79.1683 1255.96 1590.72 
79.7533 1255.65 1590.57 
78.0441 1257.27 1591.61 
77.4998 1254.04 1587.4 
79.7577 1255.08 1589.13 
79.235 1255.22 1589.21 
79.8567 1252.17 1585.34 
80.7671 1253.75 1587.4 
81.0989 1253.77 1588.29 
80.2537 1254.98 1589.24 
76.4775 1254.3 1588.76 
76.3145 1254.14 1589 
76.681 1254.51 1589.01 
77.1067 1254.64 1588.88 
77.9043 1255.09 1589.3 
78.5628 1255.62 1590.42 
78.1037 1256.38 1590.79 
74.8952 1253.09 1589.46 
75.2564 1253.37 1589.32 
75.6452 1253.59 1589.12 
73.5038 1251.54 1589.66 
72.6787 1250.57 1590.07 
73.9425 1251.68 1589.87 
74.2612 1251.74 1590.03 
78.6759 1248.02 1580.98 
77.7187 1248.31 1580.94 
78.2535 1248.25 1581 
79.0174 1245.77 1581.73 
79.4889 1246.3 1581.64 
78.8873 1247.52 1581.16 
78.9431 1247.31 1581.28 
79.2067 1247.1 1581.45 
79.3515 1246.68 1581.53 
78.8621 1248.02 1581.07 
78.9691 1247.99 1581.29 
78.6056 1249.73 1582.22 
78.1086 1249.02 1581.42 
70.9469 1249.66 1591.09 
70.1786 1249.2 1591.55 
69.6576 1248.58 1591.93 
72.2769 1250.21 1590.53 
49.6765 1217.69 1589.27 
48.6708 1219.07 1588.29 
39.0209 1221.44 1590.13 
21.7249 1210.3 1589.58 
14.6442 1201.84 1593.82 
25.5193 1198.57 1591.1 
12.3507 1208.44 1590.03 
28.6533 1196.49 1592.23 
58.4271 1197.94 1589.21 
58.4419 1200.48 1587.58 
59.7255 1200.32 1587.3 
61.4479 1199.25 1587.3 
62.5106 1197.58 1587.62 
57.5248 1200.18 1588.57 
58.1603 1198.42 1588.93 
57.8911 1199.03 1588.65 
28.7954 1196.13 1592.79 
27.5303 1196.13 1591.96 
26.649 1196.53 1592.32 
23.3119 1197.22 1593.09 
19.2244 1198.06 1594.21 
15.2506 1198.8 1595.29 
13.1783 1199.18 1595.6 
13.1395 1199.22 1595.91 
13.5841 1199.2 1596.05 
12.616 1199.33 1596.16 
13.3255 1199.31 1596.24 
12.4329 1199.42 1596.39 
12.6816 1199.45 1596.46 
12.6916 1199.54 1596.61 
16.8249 1202.3 1595.62 
18.7385 1200.49 1595.85 
17.734 1203.48 1595.06 
15.1035 1199.24 1596.43 
14.5345 1203.21 1595.49 
19.2717 1200.58 1596.82 
19.2265 1200.64 1596.96 
19.1935 1200.61 1597.16 
-2.23817 1196.6 1601.95 
0.166578 1197.6 1600.81 
2.99842 1198.09 1600.37 
4.2075 1198.47 1600.48 
5.95771 1199.38 1600.88 
11.0624 1202.63 1597.16 
11.7742 1202.43 1597.06 
12.8228 1202.55 1596.68 
17.3244 1200.78 1597.05 
58.6602 1180.55 1593.67 
60.7796 1180.33 1593.42 
61.4082 1180.05 1593.36 
59.0861 1177.17 1593.9 
60.3133 1175.18 1593.78 
61.2454 1176.24 1593.75 
61.3731 1176.2 1593.75 
60.1403 1175.79 1593.78 
60.8128 1174.8 1593.8 
61.6938 1176.59 1593.43 
63.9388 1179.71 1592.72 
60.9563 1175.15 1593.78 
61.622 1176.09 1593.74 
61.5905 1176.28 1593.75 
62.593 1179.44 1593.4 
63.2809 1179.62 1593.17 
61.914 1179.67 1593.43 
64.0064 1179.88 1592.9 
64.2696 1180.15 1592.71 
25.0248 1189.47 1591.84 
22.5808 1190.27 1592.57 
17.8403 1191.41 1594.02 
12.4033 1191.95 1595.4 
13.0425 1192.01 1595.14 
5.60152 1191.23 1598.19 
5.31647 1191.21 1597.68 
5.48135 1191.17 1597.84 
5.60887 1191.33 1598.31 
5.21304 1191.62 1597.06 
4.05473 1190.55 1597.88 
5.59953 1191.41 1598.45 
5.45152 1191.62 1598.86 
-8.82869 1194.61 1602.88 
-7.64995 1195.08 1602.47 
-9.07595 1194.19 1602.81 
-7.2493 1196.09 1602.28 
-4.91381 1196.8 1602.23 
-3.19397 1193.39 1601.28 
-8.76455 1193.69 1602.51 
64.8218 1196.87 1587.51 
64.6075 1196.48 1587.93 
64.4302 1196.21 1588.14 
65.4393 1197.29 1587.41 
65.6523 1197.46 1587.27 
65.0838 1196.73 1587.35 
65.808 1197.84 1587.11 
64.3454 1198.33 1587.42 
64.3736 1198.51 1587.35 
64.1735 1198.72 1587.29 
75.2874 1180.27 1572.48 
72.884 1181.4 1574.31 
73.8592 1181.07 1572.71 
73.4373 1181.32 1573.42 
74.3612 1180.61 1570.9 
76.1264 1179.09 1569.33 
73.4532 1181.44 1572.53 
76.5707 1178.84 1565.2 
76.5805 1179.05 1566.4 
76.4981 1178.87 1564.33 
75.9725 1179.29 1563.95 
76.0957 1179.32 1563.46 
74.9451 1180.66 1562.27 
74.6542 1180.49 1562.45 
75.2245 1180.87 1562.07 
74.4028 1180.39 1562.61 
75.4007 1179.78 1563.25 
75.3555 1179.65 1563.62 
74.1333 1180.33 1562.79 
75.4577 1180.78 1567.63 
75.3328 1180.85 1568.12 
75.1099 1181.46 1567.84 
75.2868 1181.07 1567.89 
75.1235 1181.29 1568.15 
75.7891 1180.27 1567.2 
75.3752 1181.15 1561.89 
75.5019 1181.48 1561.73 
75.4016 1181.95 1561.65 
77.2773 1182.36 1560.69 
77.1102 1184.32 1560.86 
76.537 1185.23 1561.52 
76.3924 1186.18 1561.89 
76.4443 1188.66 1562.51 
76.0498 1187.59 1562.88 
75.876 1190.97 1564.54 
76.919 1183.44 1560.87 
76.9242 1196.27 1561 
61.1978 1179.27 1583.53 
60.8373 1182.53 1584.98 
60.0534 1182.75 1585.07 
59.4994 1182.82 1585.11 
61.5845 1181.92 1584.45 
62.457 1181.55 1584.1 
63.1513 1181.86 1584.02 
63.6301 1182.07 1583.97 
59.2949 1182.64 1585.06 
58.8416 1181.63 1584.82 
58.4552 1180.62 1584.58 
63.7412 1181.88 1583.83 
63.434 1181.29 1583.64 
61.8363 1179.92 1583.62 
62.6554 1180.37 1583.51 
62.8876 1180.71 1583.59 
62.138 1179.91 1583.51 
57.7953 1178.92 1584.21 
58.2798 1178.13 1583.84 
59.2474 1176.75 1583.11 
59.8715 1177.62 1583.28 
58.9532 1176.75 1583.21 
60.425 1178.1 1583.32 
61.3536 1178.92 1583.33 
60.6622 1178.2 1583.26 
59.1343 1177.32 1583.39 
59.2026 1176.96 1583.24 
59.3897 1176.57 1583.01 
73.8733 1182.07 1570.15 
74.7412 1181.52 1568.91 
74.9041 1181.66 1568.46 
93.3477 1141.81 1593.02 
93.6153 1141.65 1593.23 
93.5882 1141.37 1593.38 
93.8304 1141.44 1593.42 
92.8884 1141.22 1593.06 
93.7849 1141.17 1593.74 
90.5671 1141.38 1591.36 
90.8074 1141.4 1591.69 
91.717 1141.3 1592.58 
91.8073 1141.16 1592.48 
93.2042 1140.95 1593.44 
92.8692 1140.92 1593.3 
93.1182 1141.08 1593.28 
92.3039 1142.15 1592.28 
92.8468 1142 1592.67 
92.1231 1142.33 1589.8 
92.0715 1142.56 1590.14 
92.0087 1142.83 1590.56 
91.9963 1143.08 1591.16 
91.9421 1143.18 1591.43 
92.2392 1142.67 1591.89 
91.9106 1142.52 1591.83 
92.3903 1142.29 1592.23 
92.2048 1143 1591.67 
92.5989 1142.83 1591.96 
91.4547 1143.81 1588.76 
92.1582 1142.62 1590.85 
92.6735 1142.32 1591.02 
93.2562 1142.06 1591.11 
93.9632 1141.71 1591.14 
94.4903 1141.42 1591.52 
95.922 1140.1 1592.29 
96.113 1140.08 1592.13 
94.9888 1140.4 1591.03 
95.5759 1140.36 1591.79 
94.7736 1140.74 1591.15 
94.6473 1141.07 1591.35 
91.1993 1141.19 1591.77 
91.7452 1141.05 1592.28 
92.677 1140.83 1593.69 
93.1792 1140.66 1593.54 
93.772 1140.4 1593.32 
93.6665 1140.51 1593.43 
94.468 1140.28 1593.26 
94.2246 1140.34 1593.4 
95.0372 1140.22 1593.31 
95.6009 1140.15 1593.3 
95.2321 1140.19 1593.14 
95.7999 1140.11 1593.12 
96.3448 1140.01 1592.7 
96.1152 1140.05 1593.08 
63.4558 1195.1 1588.85 
63.6733 1195.25 1588.49 
63.0217 1194.65 1589.22 
62.7354 1194.41 1589.52 
64.2987 1195.95 1588.24 
64.0097 1195.56 1588.23 
62.607 1194.26 1590.12 
62.509 1194.11 1590.46 
62.4187 1194.12 1590.17 
62.5145 1194.25 1589.77 
60.7451 1194.18 1589.89 
60.5634 1194.44 1589.8 
59.6524 1195.31 1588.82 
60.0824 1194.82 1588.97 
60.4064 1194.43 1589.23 
60.5639 1194.33 1589.52 
59.4129 1195.44 1588.72 
58.7943 1196.47 1588.87 
61.4654 1193.8 1590.22 
61.7578 1193.86 1590.28 
62.0296 1193.93 1590.33 
62.2877 1193.98 1590.55 
61.2769 1193.84 1590.06 
61.1753 1193.86 1590.05 
61.0266 1193.89 1589.88 
60.8988 1193.94 1589.71 
22.8678 1190.61 1592.15 
17.874 1191.92 1593.68 
14.6262 1193.23 1594.23 
12.4766 1192.74 1594.84 
5.54773 1195.31 1595.6 
69.6595 1206.22 1583.87 
69.7274 1204.44 1584.14 
69.3124 1201.73 1584.74 
68.7343 1200.22 1585.24 
68.6787 1198.9 1585.74 
68.5932 1197.13 1586.08 
68.9388 1197.49 1585.98 
65.9739 1197.59 1586.9 
67.2388 1196.93 1586.37 
62.8033 1198.73 1587.32 
61.5913 1199.75 1587.09 
69.6491 1207.76 1583.9 
69.8905 1206.83 1583.63 
69.4377 1210.35 1585.33 
69.5773 1209.76 1584.88 
70.4543 1213.15 1585.4 
72.1166 1219.14 1586.58 
74.7543 1218.56 1586.8 
75.5265 1218.56 1586.69 
76.0462 1218.25 1586.37 
76.0473 1217.73 1586.18 
76.3476 1218.01 1586.09 
76.0282 1217.45 1586 
73.3554 1215.23 1585.68 
75.3991 1216.84 1586.04 
71.0977 1213.69 1585.47 
75.9357 1217.15 1585.86 
60.6106 1193.73 1588.63 
60.4261 1194.06 1588.34 
60.6929 1193.58 1588.37 
60.1802 1194.56 1588.52 
60.9832 1193.47 1588.32 
60.8146 1193.59 1588.57 
61.2028 1193.53 1588.64 
62.055 1193.58 1588.6 
62.2729 1193.61 1588.45 
61.7242 1193.63 1589 
61.3861 1193.61 1588.99 
61.4719 1193.64 1589.15 
62.533 1193.69 1588.38 
62.9155 1193.84 1588.1 
63.1501 1194.28 1588.24 
63.5535 1194.84 1588.17 
64.2877 1195.78 1588.01 
64.4341 1195.75 1587.7 
64.6292 1196.19 1587.59 
65.5628 1197.05 1587.22 
65.8333 1197.27 1586.99 
69.1662 1196.15 1585.72 
68.9163 1196.6 1585.95 
69.2139 1195.2 1584.98 
69.4245 1195.53 1584.77 
69.3278 1194.76 1583.49 
69.5788 1195.22 1583.16 
70.4991 1194.63 1578.78 
71.2851 1191.29 1576.37 
71.7641 1189.96 1575.05 
72.8839 1191.01 1572.69 
73.6816 1185.37 1570.81 
73.6745 1182.63 1570.43 
69.4339 1195.9 1585.22 
69.4577 1195.75 1584.98 
69.4364 1196.3 1585.49 
69.2843 1196.5 1585.71 
78.5161 1243.09 1586.04 
77.167 1240.83 1587.77 
76.9363 1240.14 1588.13 
78.8491 1245.51 1582.59 
76.2855 1237.87 1587.58 
76.2685 1238.19 1587.69 
76.2859 1238.56 1587.77 
76.629 1237.45 1587.76 
78.386 1235.7 1587.48 
77.19 1237.15 1588.54 
75.9608 1235.83 1584.01 
78.4226 1234.11 1583.73 
76.7966 1239.63 1588.43 
76.478 1238.94 1588.26 
76.4433 1238.66 1588.14 
76.6527 1239.11 1588.62 
77.8796 1237.74 1568.59 
77.8004 1238.28 1569.33 
75.8405 1239.46 1570.94 
77.677 1236.81 1566.86 
76.9096 1234.19 1562.73 
76.2612 1232.31 1559.85 
75.8472 1229.84 1554.91 
76.2969 1229.93 1555.38 
75.3233 1228.21 1551.43 
73.7319 1229.55 1554.15 
74.2236 1226.4 1549.09 
73.8664 1237.17 1583.94 
73.9559 1237.85 1583.44 
73.9794 1240.14 1575.06 
74.3261 1240.4 1574.16 
74.0961 1237.8 1579.53 
74.1991 1239.04 1577.21 
74.4899 1237.67 1580.62 
74.0901 1237.86 1582.74 
74.4442 1240.17 1575.04 
74.5269 1240.48 1573.38 
74.9294 1240.85 1573.54 
75.758 1235.85 1583.5 
80.8975 1255.16 1590.87 
80.3864 1255.4 1590.75 
81.4275 1254.97 1591.17 
81.9408 1254.96 1591.72 
81.8509 1255.23 1591.83 
82.3328 1256.38 1592.68 
82.3674 1257.5 1593.23 
82.4296 1257.85 1593.54 
81.6592 1259.49 1594.93 
82.0313 1259.2 1594.85 
80.0831 1255.46 1590.51 
78.9251 1255.67 1590.56 
80.0956 1251.94 1585.11 
81.4273 1253.64 1587.44 
81.643 1253.98 1587.92 
81.7994 1254.28 1588.5 
80.7956 1254.92 1589.46 
76.5994 1254.33 1589.19 
76.0415 1253.78 1589.26 
77.4192 1254.98 1589.93 
76.8824 1254.73 1589.75 
77.8194 1255.31 1590.16 
77.8275 1256.3 1590.8 
75.0389 1252.97 1589.55 
74.5232 1251.72 1590.15 
75.4215 1253.25 1589.4 
73.1192 1250.63 1590.27 
73.4696 1250.65 1590.47 
73.8331 1250.66 1590.73 
78.8676 1248.9 1581.54 
78.4715 1248.81 1581.31 
79.2016 1245.88 1582.15 
79.3687 1246.3 1581.85 
79.1583 1247.78 1581.48 
79.3009 1247.49 1581.57 
79.6045 1247.45 1581.83 
79.4483 1247 1581.66 
79.4968 1246.58 1581.91 
78.9908 1248.69 1581.54 
79.734 1249.46 1583.06 
79.7983 1249.95 1583.35 
78.853 1249.54 1582.13 
71.0827 1249.61 1591.22 
70.3635 1249.19 1591.66 
70.1382 1249.05 1591.74 
69.7495 1248.46 1592.17 
72.7349 1250.35 1590.6 
47.6294 1219.31 1587.28 
51.1256 1218.68 1587.14 
34.2253 1220.15 1587.12 
20.6162 1213.13 1587.45 
9.96556 1211.17 1587.99 
25.257 1198.25 1591.25 
28.5002 1196.34 1592.35 
62.5372 1198.14 1587.5 
28.6786 1196.1 1592.52 
27.5423 1196.18 1591.84 
26.6148 1196.57 1592.13 
23.1913 1197.24 1592.94 
16.4288 1198.58 1594.78 
10.0791 1199.18 1596.16 
9.75948 1199.22 1596.35 
10.1914 1199.27 1596.45 
12.7923 1199.2 1595.47 
9.85031 1199.36 1596.84 
9.77216 1199.3 1596.68 
11.6482 1199.72 1596.81 
14.4194 1203.32 1595.4 
18.286 1200.47 1596.04 
19.3824 1203.16 1595 
15.2726 1199.39 1596.48 
12.3515 1200.19 1597.08 
14.936 1202.73 1595.86 
13.3307 1202.81 1596.44 
13.5729 1203.01 1596.11 
14.8882 1202.53 1595.95 
-4.73486 1197.2 1602.13 
-4.61709 1197.41 1601.99 
2.52149 1198.42 1600.32 
3.7381 1199.52 1601.06 
3.75088 1199.8 1601.53 
9.77881 1203.29 1597.72 
6.30261 1200.39 1600.86 
11.0023 1202.64 1597.22 
11.9064 1202.28 1597.1 
11.3524 1202.33 1597.22 
12.76 1202.61 1596.71 
13.3479 1202.88 1596.23 
59.071 1180.26 1593.66 
61.3856 1179.92 1593.42 
60.9749 1179.08 1593.55 
61.1234 1176.29 1593.75 
62.2864 1177.42 1593.71 
62.182 1177.52 1593.72 
