428.854 1346.17 2244.74
434.097 1337 2244.44
431.587 1341.75 2244.84
430.246 1345.33 2241.52
428.609 1347.59 2242.12
425.335 1351.33 2243.42
423.658 1354.1 2240.69
433.822 1337.78 2239.1
431.347 1343.48 2240.42
428.572 1349.82 2238.11
428.145 1350.29 2238.63
427.262 1350.53 2240.36
425.524 1351.39 2242.46
426.021 1352.67 2238.56
424.21 1354 2238.4
423.889 1354.54 2234.25
434.718 1335.14 2234.27
433.369 1340.04 2234.54
432.781 1341.22 2236.48
431.909 1343.18 2236.4
429.619 1347.63 2238.59
427.893 1351.76 2235.56
427.769 1351.68 2236.81
427.591 1351.56 2237.59
426.244 1351.91 2239.79
426.483 1352.64 2237.03
427.655 1352.09 2235.96
427.466 1352.36 2235.55
424.631 1353.8 2234.54
423.604 1354.76 2230.04
422.157 1355.41 2224.52
422.678 1355.14 2225.49
434.053 1336.53 2227.37
433.479 1339.55 2232.35
433.371 1341.32 2229.15
433.47 1341.12 2227.93
432.484 1342.16 2234.65
433.126 1341.56 2232.94
430.465 1346.04 2237.56
432.535 1342.44 2233.26
428.315 1350.54 2237.34
427.265 1352.43 2231.73
426.75 1352.89 2233.86
426.263 1352.9 2236.17
426.925 1352.82 2233.38
427.413 1352.4 2233.25
425.579 1353.49 2233.37
424.626 1354.22 2229.43
423.006 1354.65 2221.35
422.001 1354.93 2219.49
423.876 1354.53 2225.48
424.227 1354.04 2222.31
433.729 1337.44 2225.39
434.222 1334.38 2221.37
433.486 1340 2229.02
431.148 1344.63 2236.15
429.978 1346.8 2237.39
428.746 1349.17 2237.87
428.405 1350.38 2236.47
427.794 1351.91 2234.04
427.765 1351.87 2233.38
426.233 1352.99 2225.76
425.818 1353.64 2229.73
426.1 1353.16 2226.23
425.119 1353.91 2225.74
423.766 1353.71 2219.2
423.67 1353.53 2218.23
423.266 1352.4 2212.85
425.086 1353.65 2222.24
422.374 1353.25 2213.25
421.537 1353.78 2209.45
433.598 1338.18 2223.65
433.573 1337.48 2219.82
433.588 1335 2216.94
433.557 1339.52 2224.97
433.611 1340.55 2225.42
433.579 1341.14 2225.54
433.419 1340.58 2223.2
433.458 1340.19 2222.87
433.571 1339.97 2223.62
431.773 1343.44 2233.64
433.21 1341.72 2228.23
430.06 1345.65 2235.49
429.472 1346.77 2236.03
429.013 1348.64 2237.82
428.936 1347.65 2236.11
428.754 1348.91 2237.14
427.981 1351.41 2234.11
426.898 1352.52 2228.87
427.696 1351.84 2231.88
426.137 1352.77 2223.88
425.708 1353.53 2227.08
425.442 1353.63 2224.8
425.375 1353.78 2223.68
424.79 1352.5 2217.3
425.591 1353.23 2221.8
424.241 1351.69 2212.29
424.526 1351.88 2214.1
423.28 1352.06 2211.61
424.901 1350.9 2210.97
422.848 1352.21 2210.02
423.501 1350.77 2206.5
433.162 1337.23 2215.92
432.922 1339.29 2215.95
432.925 1339.9 2217.4
432.51 1336.36 2210.39
432.437 1338.05 2211.74
433.367 1341.02 2223.55
432.9 1340.34 2218.31
430.666 1344.59 2233.69
433.534 1341.47 2226.28
428.655 1348.19 2236.03
428.435 1348.74 2235.76
428.557 1349.33 2236.56
428.191 1349.76 2234.68
427.81 1351.41 2232.65
427.102 1351.99 2228.89
426.27 1352.38 2223.35
425.88 1352.59 2220.41
425.895 1351.41 2218.1
425.227 1352.19 2217.39
425.657 1351.77 2217.47
424.48 1352.06 2215.5
424.918 1351.68 2215.61
424.961 1351.69 2214.61
424.548 1350 2207.43
425.224 1350.52 2210.56
432.351 1338.95 2211.93
432.26 1339.46 2212
432.206 1339.15 2211.2
431.419 1336.22 2205.54
432.341 1335.95 2208.87
431.982 1337.86 2208.89
432.959 1341.04 2222
432.77 1340.83 2218.87
432.416 1339.84 2213.59
432.746 1342.17 2231.15
431.464 1343.67 2231.49
432.442 1342.6 2232.18
432.923 1342.24 2227.91
432.587 1342.38 2229.64
433.162 1342.09 2226.14
428.155 1348.61 2234.33
428.197 1348.21 2233.27
428.092 1348.72 2233.17
427.717 1349.23 2230.8
427.25 1350.92 2229.39
426.736 1350.94 2225.1
426.017 1351.32 2218.7
426.033 1349.56 2217.11
425.738 1350.76 2216.19
426.156 1349.24 2215.02
425.331 1351.31 2215.91
425.379 1351.16 2213.3
425.27 1351.1 2212.28
425.253 1349.78 2209.42
424.38 1349.47 2204.89
425.019 1349.41 2206.22
425.024 1347.87 2204.16
425.477 1349.4 2208.08
431.851 1339.6 2210.28
431.72 1339.6 2209.07
431.018 1337.56 2206.25
429.389 1340.02 2204.36
431.548 1338.28 2207.92
432.86 1341.07 2221.15
433.344 1341.68 2225.24
432.338 1340.21 2214.13
431.383 1340.14 2209.68
432.298 1342.8 2230.64
432.312 1342.5 2231.48
431.474 1342.78 2231.16
431.861 1342.97 2232.22
431.46 1343.58 2232.12
427.75 1348.6 2229.28
427.585 1349.17 2229.94
427.213 1349.11 2224.21
426.161 1350.61 2219.47
426.448 1349.42 2220.11
426.88 1346.88 2215.76
426.671 1348.37 2219.38
425.812 1350.51 2214.21
426.369 1347.78 2209.68
426.051 1349.97 2212.29
425.345 1351.29 2214.16
425.561 1350.63 2211.42
425.514 1350.11 2210.48
425.362 1348.27 2205.54
425.704 1348.97 2206.93
426.314 1346.62 2205.52
425.886 1348.94 2208.37
430.883 1340.44 2208.06
431.24 1339.9 2208.17
430.916 1339.05 2206.95
430.46 1339.8 2206.49
428.216 1342.23 2204.51
429.747 1341.2 2206.48
430.014 1340.61 2206.39
427.516 1344.15 2206.96
432.51 1340.96 2216.44
431.702 1340.11 2211.82
430.763 1340.81 2208.75
430.193 1341.45 2207.77
431.171 1343.08 2231.8
432.055 1343.03 2229.94
427.208 1345.31 2210.25
426.337 1347.63 2208.07
425.995 1349.63 2210.82
425.901 1350.34 2211.92
425.978 1348.6 2207.28
429.412 1341.76 2206.59
428.135 1343.84 2210.69
433.077 1341.54 2223.77
432.621 1340.94 2217.92
432.755 1342.05 2225.38
432.068 1340.75 2214.57
429.646 1341.9 2209.52
429.162 1342.45 2207.95
429.231 1342.47 2208.49
429.207 1342.22 2207.21
431.983 1342.53 2227.98
432.555 1342.38 2226.23
428.315 1343.4 2208.62
432.661 1341.37 2222.43
432.614 1341.77 2223.83
432.564 1341.46 2220.86
431.539 1340.46 2212.45
430.319 1340.84 2210.89
430.12 1341.14 2210.01
429.43 1341.85 2212.04
431.76 1342.59 2226.39
430.756 1342.69 2225.82
429.389 1342.42 2214.19
429.864 1342.55 2217.83
429.75 1341.93 2214.37
432.132 1341.34 2216.08
431.928 1342.15 2223.99
431.67 1341.67 2221.31
432.176 1341.35 2217.77
432.381 1342.52 2225.69
431.593 1342.74 2225.5
430.438 1340.84 2211.72
430.635 1340.79 2212.29
429.909 1341.12 2213.38
431.018 1342.19 2223.06
430.54 1342.2 2222.07
432.599 1341.36 2220.22
430.995 1341.59 2219.83
430.577 1341.79 2220.11
431.466 1340.72 2213.29
430.818 1340.78 2212.89
430.099 1342.04 2219.97
430.115 1341.94 2217.93
432.107 1341.44 2219.87
431.383 1341.59 2217.91
430.686 1341.65 2218.13
430.554 1341.81 2216.57
431.84 1341.58 2216.47
431.083 1341.18 2214.87
430.019 1341.48 2214.73
430.79 1340.78 2213.59
430.247 1341.7 2215.76
431.363 1341.83 2216.76
429.919 1342.14 2215.86
431.098 1341.7 2216.35
