253.855 1333.54 976.984
247.552 1335.79 979.971
254.337 1333.37 975.388
250.461 1334.9 978.201
247.268 1336.06 978.691
234.089 1339.89 969.737
255.107 1333.16 971.128
255.053 1333.21 973.164
253.578 1333.75 975.092
250.752 1334.89 977.473
248.744 1335.74 977.993
247.231 1336.33 977.739
239.245 1338.46 973.285
235.851 1339.36 970.645
238.577 1339.05 967.567
235.028 1339.9 965.947
257.592 1331.77 965.517
256.517 1332.35 967.945
254.572 1332.78 962.418
253.371 1334.45 972.101
253.143 1334.62 971.258
253.78 1333.97 973.05
252.874 1334.66 969.954
253.98 1333.86 966.758
252.546 1334.22 975.944
250.537 1335.18 977.024
249.074 1335.86 977.318
248.197 1336.18 977.412
246.882 1336.69 977.03
245.118 1337.06 977.046
243.482 1337.62 975.964
240.499 1338.38 973.107
239.347 1338.92 969.895
242.147 1339.06 968.982
239.031 1338.92 966.212
242.343 1338.98 968.323
235.061 1339.8 964.678
254.171 1333.64 964.613
252.657 1334.32 964.38
252.113 1334.78 966.66
252.573 1335.21 971.946
252.809 1335.02 972.572
253.126 1334.58 973.094
252.415 1335.12 970.799
252.823 1334.36 974.71
252.046 1335.01 969.036
251.952 1335.23 969.889
251.726 1334.83 976.072
249.614 1336.03 976.576
248.852 1336.26 976.855
248.124 1336.58 976.759
246.907 1337.04 976.366
245.137 1337.5 975.947
245.566 1338.38 974.146
243.819 1338.7 972.628
242.258 1338.94 970.972
242.243 1339.05 969.887
246.436 1338.98 972.125
242.564 1338.85 967.777
242.187 1338.63 966.87
238.391 1338.79 965.166
244.73 1339.13 969.773
236.457 1339.27 964.009
252.026 1334.6 964.518
251.035 1335.13 966.505
249.825 1335.61 967.803
248.662 1335.38 964.844
251.741 1336.56 972.693
252.123 1335.54 971.438
251.94 1336.18 973.418
252.8 1334.69 974.073
251.595 1335.63 970.368
251.653 1335.85 971.009
252.026 1335.01 975.182
251.14 1335.47 969.254
251.417 1335.24 975.8
250.489 1335.43 976.563
249.479 1337.25 975.392
250.06 1336.95 975.303
248.968 1337.41 975.505
248.423 1337.65 975.411
247.822 1337.85 975.223
247.245 1338.08 974.919
246.565 1338.29 974.519
246.533 1338.9 972.712
248.276 1338.78 973.842
244.766 1339.01 969.245
242.944 1337.45 964.755
239.532 1337.45 962.633
244.907 1338.74 968.604
245.796 1338.97 970.947
236.342 1338.61 962.37
250.711 1334.82 964.471
247.361 1335.48 963.281
249.89 1335.79 968.771
248.42 1336.09 967.348
246.933 1336.12 965.3
250.99 1337.61 972.969
250.88 1337.65 972.341
251.804 1336.15 973.903
250.919 1337.68 973.623
251.221 1336.06 970.596
251.396 1336.73 971.963
251.534 1336.18 974.424
251.084 1336.44 974.795
251.196 1335.68 969.839
250.631 1336.68 975.087
249.896 1338.11 974.3
249.092 1338.39 974.462
248.876 1338.85 973.301
249.005 1338.65 972.625
247.79 1338.76 972.154
246.14 1338.7 970.038
245.012 1337.5 966.145
245.163 1336.23 963.701
246.374 1338.44 969.538
247.961 1336.45 967.8
246.482 1337.62 967.929
250.663 1336.11 970.047
250.705 1336.91 971.145
250.273 1336.95 970.682
250.394 1337.75 971.709
250.5 1337.75 974.16
249.63 1336.13 969.242
247.539 1337.03 968.365
249.312 1338.54 974.029
249.398 1338.68 973.333
249.884 1338.54 973.29
248.165 1338.36 971.194
248.41 1338.11 970.809
250.457 1338.16 973.416
250.482 1337.98 972.24
250.626 1337.99 972.822
249.021 1337.22 969.889
249.875 1337.85 971.16
250.015 1338.17 972.073
248.054 1337 969.072
250.012 1338.34 972.833
249.658 1338.43 972.406
249.421 1338.32 971.856
