434.48 1385.96 2427.76 
435.248 1385.88 2426.37 
436.535 1384.96 2425.72 
437.623 1384.16 2424.76 
437.359 1384.4 2425.68 
437.651 1383.97 2423.7 
437.189 1383.6 2421.6 
437.645 1382.09 2420.14 
438.811 1380.46 2421.35 
441.688 1379.02 2411.36 
437.765 1381.12 2408.64 
437.933 1380.43 2405.26 
436.567 1380.98 2403.42 
435.588 1383.03 2406.35 
435.848 1381.5 2402.12 
434.344 1387.08 2409.37 
435.388 1384.39 2409.54 
432.533 1390.75 2408.27 
430.402 1393.46 2409.9 
431.33 1392.52 2409.21 
424.878 1396.81 2407.13 
426.361 1395.88 2408.21 
425.073 1396.03 2406.36 
427.962 1395.44 2410.29 
427.74 1394.81 2409.28 
430.774 1393.39 2408.21 
431.166 1392.92 2407.98 
431.191 1392.92 2408.66 
426.576 1394.74 2406.26 
425.482 1395.47 2405.69 
425.873 1395.2 2405.19 
425.839 1395.26 2404.5 
427.189 1394.91 2402.86 
426.841 1394.5 2400.28 
427.633 1394.37 2399.61 
425.575 1394.42 2397.6 
425.534 1394.39 2395.69 
426.238 1394.32 2395.13 
427.889 1394.42 2394.85 
427.842 1394.61 2395.38 
423.868 1393.32 2391.76 
427.665 1394.07 2394.24 
420.578 1393.75 2391.68 
418.941 1392.84 2390.26 
418.518 1392.58 2389.68 
418.804 1391.03 2387.42 
462.44 1316.06 2403.7 
462.816 1317.76 2404.65 
463.39 1319.15 2405.8 
463.844 1319.77 2407.08 
464.341 1319.44 2410.12 
464.704 1319.52 2413.2 
465.039 1320 2416.19 
467.334 1323.24 2416.51 
467.831 1325 2418.8 
464.865 1326.05 2427.81 
465.221 1327.27 2430.27 
466.836 1328.31 2430.07 
466.33 1329.03 2431.16 
465.765 1334.43 2433.49 
468.82 1331.74 2430.31 
461.565 1338.78 2439.37 
459.24 1338.87 2444.13 
454.654 1363.31 2416.44 
454.098 1365.83 2415.05 
446.719 1376.24 2411.34 
446.149 1376.68 2409.79 
454.364 1368.26 2410.39 
454.211 1368.78 2408.94 
453.424 1370.05 2408.59 
451.413 1372.81 2408.26 
450.108 1374.29 2408.65 
449.025 1375.11 2409.25 
438.615 1381.77 2423.34 
438.409 1382.97 2425.05 
438.083 1383.55 2424.35 
460.792 1342.68 2440.25 
463.273 1341.69 2437.95 
459.918 1343.41 2441.45 
463.411 1340.21 2435.01 
464.128 1340.53 2435.56 
463.768 1338.36 2433.4 
464.291 1337.09 2431.95 
464.79 1336.36 2428.96 
465.519 1336.08 2424.52 
465.227 1337.14 2422.48 
464.523 1338.86 2421.79 
465.033 1339.47 2417.32 
464.769 1340.48 2417.5 
463.869 1341.37 2421.92 
463.715 1344.99 2421.97 
464.496 1347.78 2418.24 
465.24 1348.47 2415.99 
464.909 1349.37 2415.87 
456.334 1359.82 2422.46 
462.944 1351.23 2417.47 
463.538 1350.77 2415.86 
460.125 1355.45 2411.52 
456.275 1361.46 2413.49 
457.298 1360.02 2410.39 
438.024 1383.42 2423.36 
437.58 1383.11 2421.64 
438.043 1382.48 2421.95 
438.374 1382.05 2422.53 
445.067 1377.16 2408.44 
440.217 1379.61 2408.31 
440.063 1379.24 2406.48 
439.062 1378.67 2403.55 
437.933 1379.32 2402.72 
436.424 1379.97 2400.57 
434.146 1385.84 2404.53 
434.792 1382.68 2401.1 
435.018 1381.18 2399.72 
434.501 1386.65 2408.29 
433.62 1388.94 2407.64 
434.56 1385.83 2406.59 
432.715 1390.53 2407.67 
426.8 1394.97 2407.56 
426.596 1394.8 2406.8 
428.318 1394.26 2409.19 
427.677 1394.36 2408.19 
429.205 1394.06 2409.23 
428.053 1393.85 2407.86 
430.456 1393.07 2407.08 
430.696 1392.53 2406.6 
429.876 1392.8 2405.51 
429.793 1393.07 2405.96 
429.5 1393.18 2409.58 
431.958 1391.58 2407.47 
431.068 1391.94 2406.19 
427.157 1394.35 2406.99 
427.162 1394.38 2406.29 
428.515 1393.6 2406.4 
427.367 1394.33 2405.46 
427.387 1394.72 2403.62 
428.299 1394.72 2400.52 
428.169 1394.39 2399.84 
426.914 1394.35 2399.53 
426.644 1394.36 2395.94 
428.549 1395.09 2395.96 
426.197 1393.22 2392.51 
422.635 1393.09 2390.82 
420.405 1393.01 2390.5 
421.138 1392.37 2389.68 
419.681 1391.34 2388.27 
419.401 1390.92 2387.64 
420.162 1389.16 2386.35 
460.81 1318.49 2398.65 
461.917 1318.93 2401.63 
462.887 1319.1 2403.84 
463.539 1320.32 2404.89 
464.269 1320.45 2407.13 
463.974 1320.89 2405.53 
465.844 1321.4 2409.33 
466.176 1321.37 2411.04 
466.534 1321.61 2412.72 
466.562 1321.75 2414.61 
468.383 1324.21 2414.25 
468.848 1325.27 2415.58 
468.86 1325.49 2416.42 
468.456 1325.66 2418.55 
466.748 1325.37 2422.33 
465.422 1326.38 2427.56 
467.047 1327.52 2428.68 
470.6 1329.79 2427.83 
471.291 1328.83 2426.63 
467.101 1335.23 2433.46 
470.729 1332.04 2429.06 
472.643 1330.54 2426.57 
469.448 1333.72 2431.14 
462.466 1339.43 2440.41 
460.144 1339.33 2444.02 
455.519 1363.23 2412.32 
454.757 1366.16 2411.68 
447.942 1375.72 2407.43 
454.538 1368.03 2409.41 
454.296 1368.45 2407.99 
453.722 1369.52 2406.98 
452.917 1370.71 2406.79 
451.991 1371.77 2406 
450.688 1373.49 2406.84 
449.265 1374.78 2407.03 
438.282 1383.09 2424.06 
459.243 1339.96 2445.95 
462.386 1343.02 2441.12 
463.788 1342.07 2439.53 
465.159 1340.86 2436.31 
463.568 1339.6 2434.54 
463.372 1339.41 2434.08 
464.244 1339.64 2434.69 
464.997 1339.81 2434.87 
464.222 1337.21 2432.78 
463.689 1338.53 2433.97 
466.123 1335.01 2425.81 
466.061 1335.31 2424.21 
465.714 1335.38 2428.31 
466.899 1335.24 2417.35 
467.208 1335.24 2416.15 
465.607 1338.4 2416.64 
465.706 1339.94 2413.3 
465.55 1340.51 2413.17 
465.318 1342.23 2414.02 
464.662 1342.93 2416.9 
464.148 1341.22 2419.29 
463.99 1343.73 2420.29 
464.24 1345.93 2417.87 
464.549 1346.78 2417.18 
465.308 1348.71 2415.55 
465.484 1348.01 2415.26 
465.168 1347.86 2416.15 
464.874 1349.6 2415.29 
463.854 1350.41 2415.13 
462.747 1351.56 2414.31 
462.034 1352.57 2410.73 
462.545 1351.62 2413.26 
460.771 1354.52 2407.3 
458.742 1357.84 2407.82 
458.143 1359.1 2405.84 
456.283 1361.83 2405.81 
455.976 1362.75 2408.69 
444.769 1377.04 2406.82 
442.353 1377.67 2405.54 
440.367 1377.81 2403.47 
439.7 1376.56 2400.35 
438.532 1377.69 2400.71 
437.018 1378.76 2399.85 
435.421 1380.03 2399.04 
433.409 1385.55 2399.7 
432.031 1388.98 2400.71 
433.066 1388.72 2405.35 
434.261 1381.55 2398.34 
433.758 1384.08 2398.84 
434.82 1379.25 2397.16 
430.138 1393.17 2409.47 
430.131 1393.54 2407.46 
428.462 1393.68 2408.72 
430.076 1392.36 2404.79 
429.554 1393.08 2404.85 
432.195 1390.27 2405.79 
431.214 1390.73 2404.29 
429.53 1393.2 2405.44 
428.793 1393.98 2403.9 
428.155 1394.27 2403.92 
428.266 1394.6 2402.32 
428.294 1394.3 2399.31 
426.657 1394.32 2398.04 
427.646 1394.36 2399 
427.81 1394.63 2396.26 
427.927 1394.62 2396.87 
429.064 1394.97 2395.91 
428.955 1395.22 2396.36 
428.467 1395.07 2396.48 
427.137 1392.72 2392.26 
423.668 1392.34 2390.21 
429.238 1394.52 2395.32 
421.925 1391.85 2389.33 
420.494 1390.79 2388.02 
421.35 1388.8 2386.67 
422.856 1386.27 2385.29 
422.583 1385.03 2384.04 
459.358 1323.7 2394.58 
460.689 1323.5 2397.66 
462.001 1321.8 2401.01 
463.304 1320.83 2403.81 
463.781 1321.36 2404.38 
465.317 1322.48 2405.87 
465.403 1321.62 2407.48 
467.62 1323.13 2410.33 
467.027 1322.99 2408.95 
467.97 1323.41 2411.09 
467.925 1323.2 2412 
468.568 1324.46 2413.23 
469.04 1325.41 2414.6 
469.197 1325.95 2416.74 
469.136 1325.61 2415.25 
468.861 1326.09 2418.9 
466.934 1325.85 2422.99 
466.587 1326.54 2426.62 
471.238 1328.23 2425.9 
474.03 1329.35 2424.97 
475.362 1328.54 2423.02 
467.377 1336.43 2434.75 
470.459 1333.76 2430.77 
471.389 1332.99 2429.57 
469.094 1335.23 2432.72 
462.47 1341.45 2443.79 
465.035 1339.61 2440.08 
461.202 1341.75 2445.5 
460.18 1339.89 2444.93 
455.544 1363.68 2409.43 
454.959 1366.05 2410.06 
447.747 1375.67 2406.2 
454.947 1366.19 2408.51 
454.611 1366.5 2406.45 
454.164 1366.95 2404.6 
453.002 1370.11 2405.43 
451 1371.57 2403.22 
450.295 1372.59 2403.54 
449.779 1373.38 2404.31 
448.593 1374.05 2403.66 
465.95 1341.62 2440.31 
463.715 1344.16 2442.71 
465.853 1341.03 2438.34 
465.886 1340.06 2435.15 
464.433 1338.39 2434.12 
465.831 1338.47 2433.58 
464.998 1338.46 2433.96 
464.651 1336.68 2431.8 
464.507 1336.66 2432.31 
465.694 1335.48 2429.25 
464.969 1336.32 2430.38 
467.137 1334.1 2424.56 
467.936 1334.02 2418.98 
467.54 1334.45 2418.19 
467.049 1334.99 2417.84 
467.176 1334.24 2426.5 
468.227 1333.86 2415.25 
468.684 1333.6 2414.24 
467.755 1335.36 2414.11 
466.603 1338.29 2413.24 
465.954 1339.49 2412.93 
465.36 1340.69 2410.58 
465.468 1340.32 2409.59 
465.389 1342.82 2412.98 
465.07 1342.16 2409.84 
464.897 1345.24 2414.67 
464.913 1345.88 2414.9 
465.214 1348.9 2414.89 
465.448 1348.45 2414.87 
465.484 1347.81 2414.66 
465.094 1346.85 2415.47 
463.102 1350.87 2413.61 
462.493 1351.47 2412.14 
462.67 1350.86 2407.75 
462.509 1351.07 2405.59 
462.842 1350.85 2412.67 
461.171 1353.24 2405.13 
459.626 1356.69 2405.92 
460.209 1354.68 2404.71 
459.331 1357.61 2404.53 
458.196 1358.94 2404.49 
455.817 1362.04 2402.92 
455.372 1363.73 2406.29 
446.639 1375.94 2405.18 
444.58 1376.79 2405.5 
444.32 1376.53 2404.49 
441.901 1376.22 2402.04 
440.279 1375.1 2398.91 
438.255 1374.1 2396.34 
437.581 1376.79 2398.5 
435.939 1376.52 2396.68 
435.372 1377.19 2396.72 
434.96 1377.16 2396.14 
431.159 1390.11 2394.89 
431.602 1389.14 2397.18 
430.977 1390.58 2398.11 
430.686 1391.14 2399.85 
431.519 1390.06 2403.03 
433.917 1379.55 2395.7 
433.367 1382.31 2396.45 
431.944 1386.54 2393.8 
431.839 1387.6 2394.09 
434.584 1376.89 2395.57 
429.704 1393.84 2407.88 
429.159 1393.65 2408.62 
428.972 1393.44 2409.45 
430.351 1393.19 2408.9 
429.237 1393.75 2408.09 
428.952 1393.5 2407.22 
430.055 1392.29 2403.84 
429.159 1393.54 2402.24 
428.571 1394.49 2401.84 
428.633 1394.35 2400.77 
428.509 1394.8 2397.86 
428.519 1394.56 2398.33 
428.133 1394.58 2397.61 
428.964 1395.82 2396.78 
428.034 1392.17 2392.12 
425.304 1391.33 2389.74 
429.648 1393.94 2394.93 
428.855 1391.79 2392.26 
423.116 1390.75 2388.72 
424.33 1389.54 2388.13 
423.715 1387.29 2386.53 
424.19 1385.37 2385.51 
424.485 1382.82 2384.04 
457.525 1327.74 2391.27 
458.579 1327.54 2393.09 
459.533 1327.83 2394.66 
462.399 1322.96 2401.19 
461.52 1326.73 2398.13 
463.413 1321.86 2403.31 
464.974 1323.06 2404.57 
466.372 1323.95 2405.75 
467.089 1323.58 2408.1 
468.009 1323.68 2410.36 
468.349 1323.97 2411.18 
468.672 1324.81 2412.44 
469.26 1325.85 2413.96 
469.112 1325.88 2413.29 
469.392 1325.98 2414.59 
469.651 1326.27 2416.28 
469.485 1326.32 2417.85 
469.815 1326.39 2415.3 
469.239 1326.45 2419.9 
467.272 1326.19 2423.32 
468.776 1326.95 2425.43 
471.206 1327.87 2425.3 
476.034 1328.24 2422.14 
476.752 1328.43 2421.86 
476.227 1328.74 2422.61 
468.28 1337 2435.05 
472.021 1331.63 2427.79 
473.874 1330.3 2425.46 
474.393 1330.19 2425.07 
471.997 1332.74 2428.95 
474.915 1329.71 2424.59 
475.732 1329.06 2423.33 
470.112 1335.55 2432.6 
471.255 1334.1 2430.72 
472.343 1333.42 2429.57 
466.448 1339.8 2439.71 
447.858 1374.27 2402.94 
454.283 1364 2400.52 
453.634 1367.8 2403.89 
453.108 1368.17 2402.94 
451.605 1370.1 2402.22 
449.385 1371.64 2399.56 
448.768 1372.43 2399.77 
448.353 1372.48 2399.38 
466.633 1342.19 2440.83 
468.162 1339.43 2437.31 
468.538 1340.55 2439.41 
468.955 1339.92 2437.36 
466.653 1343.21 2441.79 
463.11 1345.96 2444.99 
468.451 1339.52 2435.22 
467.617 1338.16 2433.41 
464.131 1337.03 2433.28 
464.414 1336.66 2432.97 
465.277 1336.94 2432.49 
466.851 1336.7 2431.73 
465.335 1336.22 2431.17 
466.41 1335.01 2428.92 
469.992 1332.39 2420.81 
468.921 1333.24 2419.21 
469.815 1332.96 2417.6 
468.48 1333.8 2416.17 
469.045 1333.31 2425.62 
470.302 1332.27 2422.18 
468.97 1333.32 2415.32 
468.853 1333.35 2414.66 
469.172 1333.11 2414 
468.934 1333.64 2413.25 
467.996 1335.75 2412.91 
469.282 1334.1 2412.09 
469.077 1333.63 2412.48 
467.529 1337.48 2411.89 
466.598 1338.69 2412.12 
465.913 1339.55 2410.4 
465.226 1340.88 2406.27 
465.096 1341.45 2406.37 
465.754 1339.75 2405.26 
465.839 1338.68 2402.74 
465.503 1342.08 2411.95 
465.251 1344.22 2412.38 
464.929 1345.83 2413.84 
465.223 1342.52 2410.49 
464.776 1343.03 2408.11 
464.766 1344.59 2406.33 
464.557 1344.92 2409.25 
464.955 1344.54 2411.12 
465.264 1347.01 2414.62 
465.252 1347.12 2414.08 
464.005 1350.14 2414.6 
463.428 1350.08 2413.14 
462.843 1349.72 2410.96 
463.025 1349.31 2411.54 
462.828 1349.9 2409.35 
463.951 1346.83 2406.76 
464.16 1346.25 2402.33 
464.74 1345.15 2404.21 
463.362 1347.76 2400.94 
463.7 1348.06 2412.12 
461.543 1350.71 2400.24 
459.641 1353.67 2398.91 
459.815 1356.22 2405.17 
459.543 1357.08 2403.92 
459.821 1355.73 2403.69 
459.568 1355.78 2402.25 
459.271 1357.48 2403.74 
458.16 1358.5 2403.1 
456.721 1359.51 2400.69 
455.848 1360.69 2400.54 
447.377 1374.26 2402.24 
444.214 1375.88 2403.17 
446.116 1374.99 2402.85 
443.035 1375.61 2401.92 
444.176 1374.51 2400.23 
444.5 1373.91 2399.37 
441.61 1374.09 2398.2 
439.057 1373.46 2396.27 
436.746 1374.75 2395.71 
438.346 1368.8 2391.07 
437.134 1369.28 2390.6 
435.077 1371.76 2390.89 
436.024 1371.44 2391.76 
434.135 1374.74 2392.67 
434.024 1375.97 2393.61 
430.79 1391.03 2394.25 
430.725 1391.85 2395.93 
430.338 1393.44 2395.93 
430.611 1392.1 2396.79 
430.262 1393.01 2397.41 
430.242 1391.87 2398.78 
429.367 1392.97 2399.83 
429.352 1393.13 2401.25 
433.137 1378.28 2393.57 
434.043 1377.1 2394.56 
432.67 1380.85 2394.24 
432.679 1381.97 2394.67 
431.919 1385.68 2393.36 
431.337 1387.96 2391.94 
431.375 1388.63 2392.47 
429.613 1393.18 2408.55 
429.331 1393.21 2409.05 
428.948 1393.65 2399.97 
428.777 1394.03 2399.39 
428.977 1395.12 2397.64 
429.512 1395.01 2396.34 
429.429 1395.39 2396.67 
429.564 1394.71 2395.89 
427.177 1390.33 2389.69 
429.854 1393.43 2394.62 
429.401 1391.48 2392.38 
428.583 1389.86 2390.04 
425.265 1388.94 2388.07 
427.325 1389.76 2389.27 
424.67 1386.69 2386.72 
425.979 1388.33 2388.04 
425.726 1385.85 2386.95 
425.255 1384.19 2385.56 
426.311 1382.99 2385.89 
427.165 1380.96 2385.58 
456.422 1330.57 2389.63 
457.591 1330.31 2391.14 
458.77 1329.88 2392.91 
463.111 1323.41 2401.94 
463.042 1326.11 2400.65 
462.664 1325.33 2400.36 
461.142 1328.73 2396.82 
464.597 1323.7 2403.43 
466.015 1325.04 2404.3 
467.253 1324.25 2407.85 
466.342 1324.66 2405.28 
466.38 1325.7 2404.56 
468.238 1324.14 2410.37 
468.719 1325.28 2411.72 
469.191 1326.56 2412.45 
470.209 1326.71 2415.42 
470.435 1326.68 2417.01 
470.502 1326.81 2418.92 
469.927 1326.68 2414.68 
471.832 1326.99 2420.89 
471.652 1327.05 2421.88 
468.687 1326.76 2423.61 
474.956 1327.75 2422.13 
477.607 1328.29 2421.14 
469.6 1336.94 2434.4 
472.704 1331.89 2427.6 
474.155 1330.72 2425.62 
472.691 1332.85 2428.72 
471.171 1335.51 2432.07 
471.406 1336.08 2432.63 
472.048 1334.72 2430.94 
473.419 1333.14 2428.69 
473.124 1333.96 2429.76 
469.138 1338.55 2436.77 
455.012 1361.3 2398.81 
454.069 1363.04 2398.35 
453.461 1365.54 2399.99 
451.188 1368.58 2399.47 
452.836 1366.84 2400.69 
449.366 1371.09 2398.83 
448.918 1371.68 2398.88 
447.767 1372.68 2399.25 
448.486 1371.78 2398.57 
447.942 1372.23 2398.6 
469.787 1340.19 2437.55 
469.22 1341.15 2439.95 
470.099 1339.09 2435.21 
467.532 1343.37 2441.82 
470.231 1336.74 2432.33 
470.072 1334.47 2429.34 
471.293 1334.32 2429.4 
466.314 1336.2 2431.04 
468.63 1334.56 2429.32 
466.184 1335.55 2430.13 
467.76 1334.25 2427.94 
471.833 1331.36 2419.15 
472.23 1331.12 2419.7 
471.447 1331.86 2417.99 
471.412 1331.99 2417.18 
471.354 1332.22 2424.96 
474.108 1330.65 2421.37 
472.169 1331.33 2420.88 
471.686 1331.82 2416.69 
469.356 1332.89 2414.64 
470.428 1332.59 2414.99 
469.144 1332.93 2413.43 
469.034 1333.09 2412.92 
470.568 1334.89 2409.84 
470.189 1335.54 2409.84 
470.053 1335.96 2409.41 
469.655 1333.41 2411.69 
470.962 1334.43 2409.61 
470.947 1333.97 2409.83 
469.281 1333.05 2412.15 
470.128 1336.25 2408.7 
467.28 1338.18 2410.77 
468.864 1332.61 2412.32 
466.414 1338.95 2410.23 
466.011 1339.38 2407.2 
465.816 1339.6 2406.1 
466.123 1338.81 2404.74 
465.257 1340.58 2402.71 
464.961 1343.16 2406.02 
465.198 1342.4 2403.9 
466.223 1337.4 2403.49 
466.213 1337.34 2401.59 
465.552 1339.25 2400.78 
465.019 1340.21 2400.14 
464.879 1340.69 2400.25 
464.936 1346.24 2414.17 
464.434 1345.15 2408.47 
464.846 1344.3 2402.37 
463.974 1346.41 2410.31 
463.708 1346.9 2409.35 
464.798 1345.48 2411.74 
464.841 1346.24 2412.87 
464.175 1349.47 2413.81 
465.248 1348.3 2414.24 
464.958 1346.37 2413.43 
465.042 1347.39 2413.67 
463.623 1348.52 2412.45 
464.006 1346.72 2411.37 
464.441 1344.98 2400.27 
464.077 1345.55 2399.39 
463.057 1347.45 2398.81 
464.503 1346.68 2412.89 
461.302 1349.92 2397.63 
459.284 1353.27 2396.6 
458.116 1355.92 2396.78 
459.166 1356.64 2401.8 
458.328 1357.37 2400.59 
456.624 1358.49 2397.54 
446.675 1373.83 2400.84 
447.377 1373.15 2399.72 
445.715 1373.17 2398.89 
447.507 1372.47 2398.74 
441.368 1373.05 2396.99 
439.324 1369.06 2391.95 
439.609 1364.95 2388.41 
439.049 1363.55 2387 
436.546 1367.16 2387.87 
433.274 1372.3 2388.35 
432.25 1374.87 2389.43 
431.289 1378.02 2390.38 
430.671 1390.93 2393.72 
429.932 1393.7 2397.63 
429.597 1392.95 2398.88 
429.195 1393.35 2399.3 
430.418 1379.61 2389.9 
431.753 1378.52 2391.47 
431.293 1380.98 2391.75 
431.687 1385.28 2392.77 
431.081 1387.68 2391.42 
431.067 1388.41 2391.75 
428.988 1393.94 2398.93 
428.608 1394.24 2398.8 
429.103 1395.07 2398.74 
428.816 1395.27 2397.14 
429.976 1394.03 2395.54 
429.666 1395.74 2397.04 
429.763 1391.06 2392.36 
429.433 1389.42 2390.36 
428.049 1389.42 2389.46 
426.679 1387.81 2388.15 
427.658 1387.57 2388.61 
427.255 1385.03 2387.7 
426.379 1384.6 2386.88 
427.474 1382.81 2387.21 
428.29 1381.61 2387.64 
428.485 1379.92 2386.72 
452.706 1335.61 2385.76 
454.571 1333.99 2387.48 
456.425 1332.57 2389.62 
457.926 1331.45 2391.26 
459.223 1331.44 2392.75 
464.58 1324.5 2402.86 
464.548 1326.26 2402.14 
462.611 1327.8 2399.43 
464.19 1328.22 2400.92 
461.399 1329.93 2396.43 
465.725 1325.65 2403.4 
465.991 1327.66 2403 
467.497 1325.24 2407.81 
468.266 1324.61 2409.99 
466.52 1328.21 2403.77 
466.294 1327.89 2403.39 
468.741 1325.81 2411.07 
469.511 1326.45 2413.8 
469.366 1326.46 2413.2 
469.618 1327.16 2413.02 
469.234 1327.1 2411.84 
471.226 1326.98 2415.57 
470.331 1326.89 2414.89 
471.432 1326.91 2417.28 
472.62 1327.11 2419.93 
472.089 1327.04 2418.97 
472.902 1327.2 2420.82 
470.004 1327.06 2414.21 
469.867 1327.27 2413.69 
476.072 1327.69 2421.07 
473.716 1327.34 2421.18 
473.209 1331.98 2427.43 
472.489 1335.65 2431.62 
472.586 1336.26 2432.32 
470.642 1338.16 2435.55 
474.444 1333.13 2428.13 
474.076 1333.6 2428.89 
473.794 1334.56 2430.03 
454.994 1360.65 2397.8 
453.79 1362.82 2397.59 
453.085 1365.76 2399.47 
451.711 1366.75 2398.69 
450.408 1368.73 2398.27 
449.31 1370.38 2398.02 
448.813 1370.87 2397.98 
447.603 1372.06 2398.27 
471.017 1340.37 2437.33 
471.647 1338.4 2434.03 
472.053 1341.53 2438.13 
468.359 1343.88 2441.89 
473.135 1342.61 2438.52 
472.2 1335.78 2431.06 
473.968 1331.8 2425.91 
468.46 1333.99 2428.29 
473.562 1331.8 2425.45 
473.069 1330.68 2418.91 
472.91 1331.79 2424.98 
475.459 1330.6 2423.41 
475.696 1330.02 2421.35 
476.016 1330.21 2423.32 
475.814 1329.85 2419.99 
475.004 1330.03 2419.45 
471.233 1331.94 2415.7 
472.695 1331.01 2417.05 
473.202 1330.67 2418.35 
470.2 1332.38 2414.53 
469.439 1332.69 2413.85 
471 1331.81 2415 
469.179 1331.17 2413.43 
468.91 1331.42 2412.98 
469.481 1330.87 2413.98 
468.733 1331.48 2412.33 
473.603 1334.52 2404.56 
469.259 1332.62 2411.71 
470.907 1333.48 2410.05 
471.11 1332.99 2410.12 
473.713 1334.15 2405.16 
470.411 1336.35 2407.76 
473.339 1334.8 2404.24 
468.159 1337.76 2408.87 
466.966 1338.57 2409.07 
466.444 1338.9 2407.42 
466.263 1338.61 2405.27 
466.407 1338.12 2404.62 
464.857 1341.11 2400.53 
465.065 1342.27 2402.18 
466.296 1337 2401.2 
466.437 1335.35 2401.73 
466.295 1336.2 2402.36 
465.376 1339.42 2399.65 
465.078 1339.84 2399.75 
464.474 1340.68 2398.64 
464.771 1340.1 2398.86 
464.369 1341.22 2398.81 
464.667 1344.12 2400.3 
464.316 1348.7 2413.42 
464.534 1347.81 2413.25 
464.085 1347.36 2412.64 
464.349 1344.57 2399.42 
462.996 1346.7 2397.95 
461.239 1349.48 2396.78 
458.791 1353.68 2395.77 
457.618 1356.2 2395.48 
456.589 1358.03 2396.64 
445.577 1372.26 2397.95 
444.623 1371.64 2397.1 
443.523 1371.54 2396.3 
440.53 1369.85 2393.22 
443.979 1369.28 2393.43 
440.452 1366.67 2390 
440.818 1364.3 2388.41 
441.201 1362.02 2387.09 
440.633 1360.87 2386.04 
430.673 1390.04 2392.82 
430.902 1389.02 2391.92 
429.929 1392.15 2393.73 
430.184 1393.39 2395.08 
430.075 1394.23 2396.28 
429.329 1393.58 2398.66 
429.367 1381.2 2388.78 
430.525 1385.06 2390.59 
431.17 1385.27 2391.66 
430.745 1387.9 2390.97 
430.62 1388.65 2391.2 
429.306 1394.19 2398.38 
429.223 1396.16 2397.1 
429.358 1395.63 2397.48 
429.972 1390.39 2392.09 
430.376 1389.38 2391.39 
430.051 1389.04 2390.76 
430.383 1390.22 2392.4 
429.67 1388.74 2390.27 
428.752 1389.06 2389.68 
428.897 1387.15 2389.34 
429.198 1388.41 2389.74 
428.401 1384.29 2388.29 
428.582 1382.13 2388.1 
453.285 1337.28 2386.82 
455.229 1335.64 2388.43 
457.35 1333.53 2390.38 
459.505 1333.4 2392.15 
460.674 1332.9 2393.48 
465.676 1327.34 2402.74 
462.813 1330.91 2397.43 
465.528 1330.8 2400.87 
465.464 1328.98 2401.83 
466.144 1330.08 2402.34 
466.165 1330.92 2401.64 
466.95 1328.52 2405.2 
468.323 1326.91 2409.28 
468.806 1326.58 2410.68 
466.804 1330.42 2404.21 
469.414 1327.09 2412.35 
471.915 1327.35 2414.44 
472.569 1327.39 2414.83 
470.502 1327.4 2414.11 
473.185 1327.14 2419.47 
473.507 1327.35 2420.1 
473.726 1327.52 2420.6 
470.175 1327.66 2413.35 
476.699 1327.45 2420.15 
474.454 1327.46 2420.72 
478.229 1328.2 2420.44 
475.874 1329.59 2423.76 
473.396 1336.1 2431.74 
473.833 1335.78 2431.15 
473.849 1336.54 2432.11 
471.759 1338.27 2435.2 
474.823 1333.94 2428.89 
475.235 1333.39 2428.02 
473.913 1331.94 2426.97 
474.912 1334.78 2429.74 
454.766 1360.05 2396.84 
455.78 1358.89 2396.61 
452.649 1360.81 2394.44 
452.83 1363.53 2396.9 
453.327 1364.85 2398.45 
452.646 1365.77 2398.7 
452.107 1365.77 2397.89 
450.839 1366.06 2396.79 
450.88 1367.09 2397.73 
449.754 1368.62 2397.41 
449.067 1368.89 2396.89 
448.567 1369.3 2396.73 
447.991 1369.87 2396.74 
447.577 1370.6 2397.09 
446.956 1371.27 2397.45 
474.763 1339 2433.85 
479.206 1340.51 2434.02 
469.778 1344.19 2441.48 
473.582 1344.86 2440.08 
481.442 1342.14 2434.32 
474.484 1336.15 2430.66 
475.581 1333.79 2427.92 
475.595 1333.43 2427.55 
480.922 1336.63 2428.66 
480.485 1335.85 2427.94 
477.502 1332.98 2426.13 
477.552 1332.44 2425.45 
474.175 1330.24 2419.5 
473.512 1330.46 2419.41 
476.573 1329.58 2419.64 
475.339 1329.84 2418.82 
472.495 1330.48 2416.65 
470.241 1330.93 2414.47 
470.93 1330.32 2415.18 
472.39 1329.17 2416.2 
475.589 1333.6 2402.56 
468.601 1331.81 2411.74 
475.153 1333.56 2403.66 
468.699 1330.42 2411.57 
471.242 1336.09 2405.65 
474.689 1334.15 2402.71 
467.285 1338.41 2407.52 
470.518 1336.57 2405.55 
468.811 1329.98 2411.14 
466.557 1337.88 2405.1 
466.567 1336.34 2404.26 
466.307 1336.3 2402.86 
464.507 1342.6 2399.43 
464.824 1342.46 2400.59 
466.092 1338.52 2400.82 
465.722 1338.93 2399.83 
465.049 1339.74 2399.18 
464.01 1340.8 2397.48 
464.31 1340.12 2397.18 
464.535 1339.99 2397.91 
464.873 1339.67 2398.29 
463.849 1342.97 2397.87 
463.583 1341.08 2396.51 
463.761 1344.77 2398.21 
462.212 1346.19 2396.1 
460.904 1349.36 2395.99 
458.449 1353.62 2395.03 
457.505 1355.88 2395.07 
456.215 1356.33 2393.51 
456.167 1356.94 2394.28 
485.75 1362.19 2446.92 
485.659 1355.71 2442.1 
479.176 1349.62 2441.08 
446.052 1370.39 2396.36 
445.213 1371.28 2396.96 
445.894 1369.74 2395.52 
445.667 1368.3 2392.92 
442.699 1368.66 2392.36 
442.937 1367.22 2390.93 
446.391 1366.64 2391.06 
443.722 1365.88 2390 
444.694 1364.85 2389.5 
442.405 1362.75 2387.89 
442.413 1361.33 2387.21 
442.234 1358.41 2386.01 
429.863 1394.75 2397.14 
429.638 1395.27 2397.22 
430.103 1385.13 2389.98 
430.368 1387.77 2390.44 
430.281 1388.34 2390.58 
429.582 1394.39 2398 
429.397 1394.95 2398.33 
429.702 1396 2397.54 
429.865 1388.04 2390.04 
429.689 1386.77 2389.84 
429.468 1384.46 2389.21 
428.574 1383.17 2388.12 
429.168 1382.88 2388.57 
449.853 1342.87 2385.34 
453.36 1339.13 2387.15 
455.722 1336.5 2388.81 
458.37 1335.05 2390.84 
456.721 1336.74 2389.42 
460.08 1334.76 2392.24 
461.429 1333.69 2393.73 
462.545 1332.39 2396.01 
465.245 1331.84 2399.79 
466.445 1331.79 2401.53 
466.788 1330.99 2403.7 
467.011 1331.29 2404.04 
468.404 1328.36 2409.34 
469.227 1327.8 2411.52 
468.199 1329.55 2408.78 
469.768 1328.05 2412.2 
469.584 1327.57 2412.41 
469.526 1328.75 2411.59 
472.628 1327.63 2413.89 
474.144 1328.18 2413.42 
471.158 1327.51 2413.89 
472.221 1327.07 2416.77 
473.941 1327.5 2419.45 
473.73 1327.26 2418.98 
474.007 1327.66 2420 
475.298 1327.36 2420.16 
469.952 1327.84 2412.8 
470.382 1328.17 2412.37 
474.723 1330.82 2425.38 
475.342 1330 2424.55 
476.713 1328.91 2422.37 
474.568 1336.31 2431.46 
474.999 1336.02 2430.87 
475.09 1336.74 2431.79 
473.075 1338.28 2434.62 
475.761 1334.16 2428.67 
476.156 1333.68 2427.88 
475.976 1335.04 2429.5 
453.643 1358.54 2393.67 
455.336 1358.3 2395.48 
452.942 1358.29 2392.51 
451.768 1359.64 2391.91 
449.593 1363.8 2391.93 
450.606 1361.82 2392.24 
450.639 1363.65 2394.19 
450.033 1365.62 2395.4 
449.639 1366.56 2395.91 
448.207 1368.16 2395.85 
446.844 1369.41 2395.79 
482.783 1338.08 2429.75 
485.97 1348.55 2436.72 
484.9 1344.46 2434.22 
483.028 1338.98 2430.73 
478.843 1333.37 2425.92 
477.32 1331.96 2425.01 
476.393 1329.71 2421.51 
476.482 1329.64 2420.32 
476.245 1329.66 2419.15 
473.352 1330.16 2417.83 
473.446 1329.96 2418.43 
469.722 1329.02 2413 
468.932 1329.51 2410.88 
472.659 1328.52 2416.15 
476.086 1333.15 2402.95 
477.03 1332.68 2402.27 
476.843 1333.05 2401.92 
470.84 1332.08 2410.63 
472.726 1332.93 2407.8 
473.782 1333.85 2405.6 
476.384 1332.85 2403.38 
469.025 1330.88 2411.1 
475.258 1333.87 2401.84 
467.865 1337.82 2406.83 
466.419 1338.49 2405.97 
469.848 1337.03 2405.62 
474.325 1334.28 2400.93 
471.835 1335.66 2400.52 
466.726 1336.1 2405.09 
466.441 1335.84 2403.7 
466.414 1336.35 2400.89 
466.292 1337.91 2400.23 
466.191 1338.34 2399.93 
466.36 1335.74 2402.92 
466.054 1338.6 2399.46 
465.528 1339.2 2399.11 
465.349 1339.23 2398.58 
464.621 1339.49 2397.33 
464.868 1339.17 2397.63 
463.125 1341.93 2395.66 
462.456 1343.13 2394.65 
461.843 1345.17 2395.01 
458.455 1350.86 2393.46 
455.709 1354.85 2391.97 
455.932 1355.83 2392.79 
455.516 1356.89 2393.17 
455.789 1357.42 2395.08 
492.474 1360.58 2442.72 
491.347 1355.64 2439.15 
446.65 1368.79 2394.99 
447.141 1368.73 2395.37 
446.35 1368.17 2393.28 
447.399 1366.33 2391.15 
446.273 1366.31 2390.65 
447.215 1365.94 2390.69 
446.617 1365.87 2390.46 
446.717 1365.3 2390.15 
445.186 1363.84 2389.15 
445.316 1362.94 2388.9 
446.961 1357.82 2388.65 
444.2 1358.34 2387.26 
446.462 1352.34 2386.35 
448.543 1346.88 2385.23 
430.141 1386.55 2390.18 
429.466 1395.27 2397.85 
450.016 1343.91 2385.68 
451.079 1343.23 2386.22 
454.463 1339.36 2387.87 
458.017 1336.66 2390.16 
456.05 1339.13 2388.75 
459.28 1336.12 2391.15 
461.069 1334.77 2392.93 
462.075 1333.77 2394.13 
463.315 1332.54 2396.8 
466.217 1332.26 2400.63 
467.002 1331.67 2403.5 
468.34 1330.16 2408.96 
468.588 1329.34 2409.91 
471.97 1328.25 2414.56 
472.704 1328 2415.25 
470.481 1328.75 2411.68 
470.009 1329.11 2411.74 
471.778 1327.57 2413.58 
473.357 1327.92 2413.4 
471.183 1327.74 2413.18 
472.733 1327.02 2418.45 
473.99 1327.38 2418.45 
474.777 1327.67 2420.09 
477.066 1327.45 2419.68 
475.736 1330.39 2424.59 
476.28 1329.54 2423.35 
475.711 1336.49 2431.15 
476.147 1336.18 2430.52 
474.479 1338.22 2433.91 
476.269 1336.89 2431.44 
476.728 1334.47 2428.52 
476.314 1333.42 2427.44 
475.039 1332.88 2427.1 
474.719 1332.09 2426.32 
477.191 1335.27 2429.17 
452.273 1358.14 2391.59 
451.42 1359.41 2391.44 
450.32 1361.33 2391.56 
449.467 1363.47 2391.52 
449.649 1364.13 2392.37 
448.81 1365.48 2391.67 
449.387 1365.13 2393.02 
449.458 1366.01 2394.76 
448.728 1367.37 2395.57 
448.577 1367.11 2394.99 
447.829 1368.15 2395.44 
447.491 1368.81 2395.79 
489.619 1351.86 2437.23 
487.71 1347.87 2435.25 
480.033 1334.78 2426.93 
481.538 1336.17 2427.86 
474.423 1330.05 2419.08 
478.37 1333.3 2426.12 
476.559 1329.69 2422.85 
476.964 1329.37 2421.3 
477.476 1329.32 2420.73 
477.231 1329.34 2420 
476.908 1329.33 2419.01 
475.866 1329.74 2418.26 
473.467 1329.66 2418.01 
473.178 1328.06 2416.39 
473.464 1329.04 2417.64 
477.49 1332.35 2402.29 
470.404 1331.14 2411.02 
474.243 1333.3 2405.38 
476.988 1332.87 2401.46 
475.649 1333.86 2400.12 
467.564 1337.54 2406.16 
469.803 1336.92 2404.05 
466.828 1337.9 2406.21 
471.92 1335.74 2397.1 
469.195 1336.91 2395.12 
467.929 1337.67 2397.02 
466.374 1336.01 2400.43 
466.494 1338.15 2399.47 
466.707 1337.94 2399.94 
466.539 1334.91 2401.95 
466.491 1335.18 2403.65 
466.565 1338.38 2398.54 
464.425 1339.7 2396.82 
463.27 1341.06 2395.23 
463.836 1339.06 2396.04 
461.533 1342.3 2393.32 
460.916 1343.98 2393.59 
460.363 1346.76 2394.18 
457.874 1348.58 2391.66 
455.599 1352.75 2390.6 
454.992 1356.98 2392.71 
454.474 1356.64 2391.04 
453.71 1357.37 2392.62 
453.93 1356.61 2390.51 
453.103 1357.83 2392.35 
494.928 1360.51 2441.63 
447.132 1367.69 2393.32 
447.575 1368.11 2394.99 
447.597 1366.59 2391.69 
447.953 1366.13 2391.34 
447.813 1365.8 2390.94 
447.384 1365.48 2390.49 
447.309 1364.87 2390.2 
446.566 1361.15 2389.1 
447.368 1364.05 2389.98 
449.666 1357.31 2389.75 
448.397 1356.15 2388.9 
447.305 1352.64 2386.94 
449.497 1346.53 2385.7 
449.17 1348.6 2386.27 
455.068 1342.28 2387.97 
451.976 1344.79 2386.64 
451.631 1347.06 2386.66 
457.852 1337.8 2389.73 
456.997 1339.18 2389.11 
458.723 1337.21 2390.33 
458.021 1340.03 2389.22 
459.782 1336.39 2391.27 
461.7 1334.71 2393.32 
463.58 1333.02 2396.58 
465.554 1332.48 2399.45 
467.028 1332.5 2402.12 
466.985 1331.99 2402.99 
471.139 1329.51 2411.12 
470.387 1329.17 2411.33 
471.411 1328.93 2412.16 
472.378 1327.88 2412.77 
471.748 1327.9 2412.74 
473.692 1328.06 2413.04 
474.165 1328.66 2413.02 
473.483 1328.94 2412.34 
470.8 1328 2412.6 
471.829 1328.93 2411.52 
473.032 1326.98 2417.55 
474.465 1327.91 2419.37 
474.232 1327.66 2418.89 
475.383 1327.41 2419.63 
478.404 1327.63 2418.73 
475.189 1331.2 2425.44 
476.088 1330.21 2424.19 
477.555 1328.64 2421.57 
478.448 1328.03 2420.87 
478.826 1327.76 2420.55 
476.809 1336.64 2430.82 
477.283 1336.38 2430.23 
475.885 1338.09 2433.1 
477.382 1337.03 2431.09 
477.441 1334.41 2428.08 
476.855 1333.46 2427.19 
475.444 1331.97 2426.11 
478.217 1335.71 2429.12 
478.183 1334.75 2428.09 
451.135 1359.2 2390.99 
449.921 1360.97 2390.95 
449.137 1363.17 2391.02 
448.295 1365.74 2391.25 
448.891 1365.99 2393.15 
448.378 1366.69 2393.35 
447.834 1367.18 2393.3 
483.721 1337.33 2428.47 
483.111 1337.17 2428.45 
483.961 1338.53 2429.78 
486.351 1344.7 2433.58 
482.77 1336.87 2428.2 
482.33 1337.09 2428.62 
479.63 1334.75 2427.26 
474.823 1329.97 2418.52 
476.986 1330.84 2423.98 
476.735 1331.67 2425.05 
477.914 1333.68 2426.87 
479.532 1335.07 2427.74 
476.75 1329.49 2422.24 
477.202 1329.2 2419.49 
476.469 1329.57 2418.64 
473.673 1328.85 2418.09 
477.344 1332.58 2401.73 
471.559 1332.07 2409.3 
474.836 1333.48 2404.38 
475.363 1333.26 2404.07 
477.083 1332.39 2402.7 
469.61 1330.47 2410.72 
470.695 1330.79 2410.6 
476.149 1333.45 2400.02 
472.509 1335.44 2396.71 
471.967 1335.71 2396.57 
469.183 1337.16 2403.94 
467.029 1337.33 2405.86 
469.713 1336.37 2399.61 
469.119 1336.84 2392.79 
467.217 1337.97 2392.97 
466.18 1338.71 2393.64 
466.465 1338.54 2395.61 
465.869 1338.84 2397.57 
466.14 1338.69 2398.03 
467.543 1337.76 2398.57 
468.575 1336.98 2399.35 
466.796 1336.63 2405.65 
466.526 1335.47 2404.08 
466.549 1334.09 2400.65 
466.263 1336.52 2400.08 
467.057 1337.85 2399.28 
467.154 1335.13 2401.39 
466.452 1334.95 2403.11 
465.368 1339.08 2398 
464.693 1338.76 2397.14 
463.928 1338.49 2396.29 
462.997 1340.28 2394.77 
462.889 1339.18 2394.93 
460.942 1341.47 2392.49 
460.666 1342.3 2392.34 
459.789 1343.35 2391.84 
458.979 1345.38 2392.04 
457.051 1347.43 2390.15 
457.891 1345.62 2390.63 
456.093 1349.64 2389.69 
455.75 1351.24 2390.15 
454.616 1354.14 2390.22 
454.227 1355.82 2390.3 
453.549 1356.66 2390.18 
453.868 1357.2 2391.88 
453.235 1357.19 2390.74 
452.772 1357.28 2390.51 
452.893 1357.41 2391.76 
447.85 1365.26 2390.62 
448.507 1365.17 2391.08 
447.815 1364.6 2390.36 
448.196 1362.29 2390.11 
449.732 1359.19 2390.18 
450.771 1357.64 2390.3 
450.235 1354.65 2388.76 
448.225 1353.79 2387.75 
450.541 1349.71 2386.94 
449.927 1351.52 2387.23 
455.624 1343.99 2388.2 
458.291 1341.26 2389.27 
458.052 1340.69 2389.15 
452.154 1350.57 2387.61 
453.65 1348.46 2387.76 
458.362 1339.03 2389.39 
458.595 1338.13 2389.88 
459.273 1337.42 2390.39 
461.805 1338.64 2389.59 
460.195 1336.97 2390.71 
460.766 1336 2391.94 
462.163 1334.9 2393.38 
462.82 1334.13 2394.39 
466.663 1332.75 2400.74 
467.078 1332.94 2401.37 
467.338 1332.42 2402.86 
468.192 1330.92 2407.86 
468.81 1330.38 2409.59 
468.619 1330.02 2409.95 
473.519 1328.25 2417.48 
472.907 1328.66 2412.71 
473.123 1327.55 2415.78 
471.006 1328.95 2411.51 
472.113 1330.21 2410.49 
473.544 1327.45 2417.29 
473.199 1328.56 2411.74 
472.578 1329.52 2411.28 
473.643 1328.26 2412.3 
472.328 1329.04 2411.48 
474.415 1329.04 2412.72 
471.889 1329.56 2411.06 
472.694 1327.33 2416.02 
473.767 1327.15 2418 
477.238 1328.07 2418.3 
480.887 1327.43 2417.84 
481.694 1327.29 2419.13 
475.395 1327.52 2418.86 
476.401 1328.28 2417.93 
480.966 1327.02 2419.18 
481.671 1327.7 2419.76 
479.821 1327.38 2419.4 
479.657 1327.45 2419.9 
480.258 1327.13 2419.79 
479.23 1327.71 2419.99 
477.169 1329.04 2422.12 
477.079 1329.79 2422.88 
476.643 1330.31 2423.68 
478.094 1328.52 2421.31 
477.932 1336.8 2430.48 
478.511 1336.6 2429.92 
477.061 1338.09 2432.58 
478.348 1337.33 2431.03 
478.752 1337.14 2430.57 
476.352 1332.76 2426.58 
476.294 1330.97 2424.67 
479.268 1336.07 2429 
478.948 1335.01 2427.98 
451.751 1358.35 2391.23 
451.367 1358.36 2390.86 
450.964 1358.77 2390.64 
449.703 1360.5 2390.57 
448.742 1362.84 2390.58 
448.31 1364.83 2390.76 
448.367 1366.21 2391.91 
483.249 1337.49 2428.87 
483.849 1339.18 2430.66 
484.413 1339.41 2430.42 
483.439 1338.01 2429.48 
483.457 1338.54 2430.1 
480.362 1336.15 2428.57 
482.386 1337.45 2429.08 
473.801 1330.22 2418.91 
476.292 1330.85 2424.14 
477.741 1328.95 2419.8 
478.264 1328.69 2420.03 
476.729 1329.37 2418.19 
477.142 1329.12 2418.36 
477.716 1328.83 2419.19 
471.678 1331.27 2410.11 
471.666 1331.8 2409.95 
473.26 1332.54 2407.41 
476.446 1332.38 2403.7 
470.444 1330.36 2410.71 
475.386 1334.23 2398.63 
473.857 1334.77 2397.74 
470.03 1336.37 2393.71 
469.82 1336.44 2393.23 
466.704 1337.44 2405.37 
468.668 1337.39 2403.58 
469.354 1336.71 2400.56 
468.437 1336.92 2400.54 
466.908 1336.38 2406.1 
469.135 1336.75 2392.1 
468.044 1337.32 2392.01 
464.56 1339.08 2391.67 
464.665 1339.21 2392.23 
464.879 1339.25 2392.81 
467.713 1337.45 2399.53 
466.755 1334.14 2401.41 
466.664 1333.55 2400.76 
467.189 1337.65 2400.05 
466.605 1335.02 2401.01 
467.368 1335.65 2401 
467.005 1335.34 2402.07 
461.949 1340.11 2393.74 
461.686 1339.62 2393.44 
459.996 1341.79 2390.97 
458.982 1343.25 2390.64 
458.157 1343.65 2389.97 
456.246 1346.93 2389.22 
455.045 1351.06 2389.51 
455.405 1349.39 2389.1 
454.149 1353.98 2389.82 
452.02 1357.81 2391.08 
450.802 1358.22 2390.38 
451.414 1355.8 2389.42 
452.435 1355.24 2389.4 
451.896 1352.5 2388.2 
456.135 1344.63 2388.62 
458.88 1341.24 2389.54 
462.598 1338.66 2389.71 
460.483 1338.95 2389.46 
452.981 1353.32 2388.97 
453.749 1352.6 2389.11 
460.953 1338.41 2389.63 
461.651 1337.77 2389.91 
462.44 1337.3 2390.18 
465.025 1337.18 2390.05 
463.381 1336.93 2390.37 
461.31 1336.22 2391.56 
462.499 1335.35 2392.65 
463 1334.56 2394 
464.463 1333.04 2397.47 
466.052 1332.8 2399.56 
467.569 1332.37 2403.57 
469.358 1331.15 2408.65 
470.112 1330.96 2409.48 
469.641 1330.49 2410.03 
473.713 1328 2417.95 
468.702 1330.31 2410.55 
471.471 1329.9 2410.84 
471.991 1330.88 2410 
470.282 1329.62 2410.96 
474.313 1328.49 2411.92 
473.492 1329.3 2411.88 
474.753 1328.19 2413.41 
474.488 1328.39 2419.17 
474.844 1327.76 2418.94 
482.55 1326.93 2417.13 
484.514 1328.98 2419.26 
484.01 1326.48 2416.52 
484.603 1332.35 2423.03 
476.366 1328.71 2417.62 
482.635 1329.35 2421.06 
484.715 1334.1 2424.96 
480.427 1327.27 2419.05 
478.962 1327.68 2419.42 
477.766 1328.99 2421.04 
478.301 1328.67 2420.66 
478.577 1328.08 2420 
479.236 1336.96 2430.07 
479.884 1336.8 2429.52 
478.237 1338.2 2432.19 
479.473 1337.53 2430.76 
479.902 1337.73 2430.43 
484.067 1338.85 2430.28 
482.906 1338.51 2430.44 
481.351 1337.28 2429.46 
475.158 1329.89 2418.12 
478.191 1328.56 2419.44 
476.687 1329.36 2417.69 
475.934 1329.65 2416.8 
473.858 1329.66 2418.43 
478.022 1332.25 2401.83 
477.335 1332.33 2401.26 
471.954 1331.99 2408.39 
473.523 1332.53 2406.55 
477.078 1332.17 2403.19 
477.916 1331.94 2402.41 
471.588 1330.55 2410.46 
471.573 1335.75 2395.64 
470.329 1336.16 2393.32 
467.135 1337.13 2405.05 
466.94 1336.96 2406.21 
467.981 1337.37 2401.57 
467.498 1336.78 2403.01 
467.456 1336.87 2401.84 
467.67 1336.42 2401.23 
465.013 1338.58 2391.04 
461.236 1340.51 2390.73 
461.637 1340.64 2391.3 
462.416 1340.43 2391.77 
462.918 1340.28 2392.26 
465.509 1339.01 2394.61 
466.162 1338.65 2396.84 
463.532 1339.99 2392.72 
467.893 1337.09 2400.12 
467.667 1336.3 2400.72 
466.671 1335.04 2404.75 
466.254 1335.71 2399.93 
466.484 1337.26 2399.89 
467.372 1336.9 2399.96 
466.837 1335.08 2402.55 
464.091 1338.01 2396.55 
464.837 1338.3 2397.34 
463.64 1337.8 2396.12 
463.329 1338.55 2395.64 
462.778 1338.54 2395.05 
460.88 1341.01 2392.27 
460.257 1341.22 2390.59 
459.625 1341.67 2390.37 
458.755 1341.99 2389.8 
453.066 1356.84 2389.97 
453.716 1356.16 2390.09 
452.165 1357.22 2390.27 
451.545 1357.53 2390.56 
451.683 1356.79 2389.88 
452.91 1355.22 2389.63 
459.669 1340.82 2389.76 
468.713 1336.22 2390.3 
466.056 1336.71 2390.18 
469.573 1335.97 2390.59 
468.98 1335.8 2390.04 
464.063 1336.25 2391.08 
464.544 1335.79 2391.6 
463.407 1334.85 2393.44 
463.766 1334.41 2394.3 
465.001 1333.38 2397.33 
467.88 1332.59 2402.72 
469.383 1331.44 2407.8 
470.379 1331.47 2408.49 
470.798 1330.87 2409.93 
470.74 1331.45 2409.12 
470.948 1331.67 2408.52 
474.081 1328.04 2418.39 
471.006 1331.25 2409.56 
471.207 1331.7 2409.34 
474.923 1328.46 2411.81 
474.841 1328.32 2412.39 
473.251 1329.58 2411.04 
474.072 1328.95 2411.26 
474.502 1328.7 2411.42 
475.028 1328.57 2413.12 
475.53 1328.06 2413.35 
474.359 1328.48 2418.68 
475.614 1328.49 2417.68 
474.605 1327.88 2418.21 
477.651 1328.4 2416.98 
476.576 1328.84 2417.04 
481.474 1327.13 2414.49 
485.085 1326.48 2415.73 
485.623 1329.79 2419.32 
485.875 1326.45 2415.15 
484.17 1326.5 2413 
484.842 1326.25 2413.26 
477.329 1328.83 2415.46 
483.949 1327.24 2417.66 
480.102 1327.26 2418.41 
479.573 1327.62 2418.92 
479.331 1327.71 2417.48 
478.74 1328.17 2419.2 
480.425 1337.19 2429.79 
479.457 1338.23 2431.67 
480.601 1337.74 2430.5 
481.381 1337.62 2429.94 
484.262 1337.9 2429.03 
484.571 1338.5 2429.72 
481.674 1338 2430.33 
481.786 1338.44 2430.88 
475.335 1329.71 2417.63 
474.51 1329.62 2418.24 
478.26 1328.44 2418.79 
477.26 1328.98 2417.24 
477.643 1328.81 2418.45 
475.899 1329.67 2414.56 
476.681 1332.85 2399.75 
471.642 1332.01 2408.81 
472.564 1332.26 2407.16 
474.796 1333 2404.19 
475.472 1332.76 2404.04 
477.286 1331.91 2402.61 
474.183 1334.53 2397.42 
470.081 1336.24 2392.82 
467.063 1336.53 2404.74 
466.918 1335.58 2405.71 
467.033 1336.02 2406.5 
467.129 1336.65 2403.47 
469.766 1336.38 2391.94 
465.544 1338.09 2390.64 
460.544 1340.91 2391.15 
461.772 1340.9 2392.05 
461.284 1340.86 2391.77 
464.628 1339.27 2394.81 
463.884 1339.21 2393.98 
465.039 1338.81 2395.7 
462.394 1340.59 2392.66 
465.596 1338.85 2397.12 
465.085 1338.46 2396.12 
467.262 1336.13 2400.38 
466.124 1334.46 2400.01 
466.383 1336.62 2399.53 
465.897 1335.12 2399.67 
466.283 1335.06 2400.13 
466.771 1334.23 2403.52 
465.15 1338.75 2397.67 
463.886 1337.31 2396.45 
460.434 1341.65 2391.61 
460.484 1340.8 2390.15 
461.011 1340.43 2390.21 
452.784 1356.36 2389.68 
470.567 1335.89 2391.36 
467.092 1336.59 2390.23 
465.252 1335.18 2392.57 
465.271 1334.43 2394.14 
463.997 1334.7 2393.62 
465.057 1333.57 2396.56 
465.848 1333.49 2398.58 
466.492 1333.27 2398.66 
468.625 1332.33 2404.03 
467.374 1333.19 2399.22 
470.176 1331.77 2407.29 
467.505 1333.03 2401.74 
467.04 1333.64 2401.68 
470.993 1331.86 2407.65 
471.577 1331.97 2407.76 
475.116 1328.69 2411.19 
473.843 1329.67 2411.57 
475.037 1329.04 2412.79 
475.504 1328.22 2412.27 
474.459 1328.39 2418.02 
477.719 1328.59 2415.25 
474.128 1329.05 2418.36 
477.291 1328.54 2416.34 
478.896 1328.08 2411.43 
485.041 1326.06 2412.24 
485.422 1326.21 2415.27 
480.865 1327.45 2407.73 
482.784 1326.62 2407.89 
482.792 1326.52 2416.79 
480.433 1327.28 2415.54 
479.311 1327.7 2416.39 
479.311 1327.89 2415.83 
478.604 1328.11 2416.15 
478.673 1328.05 2415.16 
479.006 1327.93 2417.94 
478.278 1328.39 2418.21 
480.617 1338.31 2431.24 
476.428 1329.41 2415.04 
475.834 1329.68 2413.19 
475.534 1329.57 2416.49 
475.162 1334.01 2398.21 
478.293 1332.17 2401.38 
477.294 1332.31 2400.66 
473.413 1332.64 2405.18 
474.447 1332.82 2404.68 
475.118 1332.6 2403.67 
476.54 1332.17 2403.04 
477.314 1331.97 2402.01 
472.23 1335.37 2395.57 
470.978 1335.85 2393.7 
470.702 1335.9 2392.64 
466.919 1335.33 2405.26 
466.803 1334.32 2404.26 
466.611 1334.88 2404.13 
468.16 1336.82 2390.77 
462.761 1339.31 2390.16 
461.049 1340.68 2391.17 
460.419 1341.1 2391.61 
463.529 1337.79 2394.96 
463.232 1339.85 2393.4 
463.398 1336.62 2395.51 
462.53 1339.31 2393.18 
461.482 1340.15 2392.25 
466.82 1334.65 2405.13 
464.475 1337.39 2397.08 
464.777 1336.92 2397.15 
465.084 1338.1 2397.73 
463.234 1337.91 2395.66 
461.66 1339.06 2393.38 
463.255 1338.66 2389.89 
470.457 1336.01 2391.85 
471.274 1335.57 2392.14 
471.296 1335.2 2390.63 
471.62 1335.36 2391.61 
468.754 1335.47 2391.43 
469.101 1335.71 2390.55 
466.366 1333.61 2396.76 
467.819 1334.53 2394.06 
465.955 1333.36 2397.72 
469.539 1332.33 2404.13 
470.814 1332.05 2405.77 
470.235 1333.3 2399.58 
471.94 1332.21 2405.39 
472.778 1332.46 2405.48 
474.038 1329.31 2410.81 
475.861 1328.74 2410.78 
476.125 1328.37 2411.4 
476.025 1328.21 2412.62 
476.045 1328.29 2412.05 
474.527 1328.85 2417.81 
474.699 1329.59 2417.74 
476.587 1329.37 2416.43 
477.439 1328.21 2414.44 
477.168 1328.47 2412.42 
476.689 1328.35 2412.67 
478.093 1328.43 2410.25 
486.211 1325.35 2405.29 
484.31 1326.51 2404.66 
483.315 1326.19 2407.22 
483.071 1327.02 2404.86 
486.162 1325.9 2414.13 
484.223 1326.27 2415.25 
486.456 1325.6 2412.54 
479.969 1327.46 2404.65 
482.274 1327.16 2405.3 
476.128 1329.65 2417.59 
476.088 1329.64 2416.11 
482.115 1326.91 2414.14 
480.041 1327.6 2413.16 
479.113 1328.01 2413.67 
478.653 1328.27 2413.33 
478 1328.56 2412.69 
479.163 1327.97 2414.23 
478.186 1328.01 2414.21 
477.469 1328.82 2411.97 
477.492 1328.49 2415.83 
476.409 1329.38 2413.76 
477.117 1328.98 2414.88 
475.756 1329.68 2411.91 
475.568 1329.64 2414.11 
478.481 1332.11 2400.89 
476.154 1333.29 2399.41 
476.371 1332.37 2402.43 
476.842 1332.27 2401.16 
471.559 1335.56 2393.94 
471.259 1335.62 2392.75 
460.291 1340.56 2391.6 
460.426 1340.1 2391.76 
460.932 1339.83 2392.03 
460.759 1340.55 2392.09 
462.571 1336.91 2394.53 
463.748 1335.75 2396.2 
464.314 1336.76 2396.96 
464.945 1337.28 2397.71 
463.399 1337.18 2395.81 
463.732 1336.38 2396.06 
464.572 1335.75 2397.21 
464.405 1336.24 2397.04 
462.518 1338.73 2394.62 
471.103 1335.5 2391.21 
471.699 1335.08 2390.92 
472.175 1335.05 2391.68 
471.886 1335.24 2392.13 
470.422 1335.41 2391.69 
470.363 1335.38 2390.16 
470.44 1334.28 2395.33 
471.156 1334.84 2393.44 
471.363 1332.84 2402.24 
472.547 1332.62 2403.34 
473.333 1332.53 2403.45 
473.851 1332.94 2401.76 
472.472 1334.42 2394.62 
474.587 1332.65 2403.48 
474.056 1332.53 2403.39 
477.591 1328.55 2409.9 
477.074 1328.7 2409.76 
476.832 1328.44 2411.5 
474.751 1329.08 2410.82 
475.275 1329.67 2412.45 
475.194 1328.99 2417.27 
474.946 1329.55 2417.25 
476.688 1328.75 2415.93 
479.121 1328.3 2409.06 
478.647 1328.34 2408.66 
488.148 1324.16 2405.5 
485.397 1327.25 2401.79 
483.073 1327.7 2402.63 
481.528 1327.87 2403 
480.555 1327.83 2403.22 
485.769 1325.87 2412.88 
483.859 1326.47 2411.98 
476.195 1329.05 2415.83 
482.378 1326.99 2411.09 
479.529 1327.89 2411.2 
481.048 1327.48 2410.08 
478.58 1328.38 2411.71 
477.773 1328.8 2411.38 
476.704 1329.28 2409.68 
476.92 1329.01 2412.22 
477.173 1328.91 2413.91 
476.461 1329.31 2412.79 
475.695 1329.68 2410.75 
474.471 1329.71 2411.65 
478.033 1332.22 2400.68 
478.305 1332.09 2400.17 
477.218 1332.45 2400.11 
475.927 1332.63 2402.1 
476.783 1332.23 2401.87 
476.739 1332.39 2400.42 
467.054 1335.23 2406.15 
460.324 1339.3 2391.73 
461.123 1338.22 2392.6 
463.254 1335.97 2395.6 
464.74 1336.45 2397.52 
463.072 1337 2395.31 
462.565 1338.05 2394.78 
462.917 1337.76 2395.17 
471.435 1335.52 2393.36 
471.854 1335.24 2392.78 
472.661 1334.71 2392.39 
473.174 1334.35 2392.45 
472.218 1334.82 2393.16 
474.51 1332.88 2401.97 
471.996 1333.45 2399.54 
472.546 1334.29 2395.17 
474.46 1332.94 2401.31 
475.396 1332.88 2401.74 
478.234 1328.29 2408.09 
477.287 1329.01 2408.51 
477.866 1328.02 2407.4 
475.556 1329.25 2410.38 
475.54 1328.61 2413.34 
474.537 1329.61 2412.15 
476.432 1328.41 2414.56 
478.891 1328.14 2408.02 
488.592 1324.97 2402.23 
487.563 1324.65 2409.81 
484.731 1329.07 2400.12 
482.753 1328.4 2401.78 
481.452 1328.14 2402.37 
480.671 1328.09 2402.57 
484.998 1325.53 2409.66 
483.088 1326.28 2408.81 
478.718 1327.2 2404.69 
475.932 1329.05 2415.38 
481.378 1326.74 2407.46 
478.756 1328.42 2409.45 
480.086 1327.38 2407.55 
477.794 1328.88 2409.33 
476.359 1329.32 2411.52 
475.827 1329.61 2409.74 
474.558 1330.21 2411.58 
474.845 1329.66 2415.19 
474.914 1329.5 2416.45 
477.548 1332.21 2399.62 
475.582 1333.63 2398.94 
476.078 1332.62 2401.42 
475.85 1332.86 2400.85 
476.328 1332.59 2400.66 
472.15 1335.2 2393.95 
467.076 1333.93 2405 
466.98 1334.32 2405.52 
467.153 1335.7 2406.89 
467.277 1334.64 2407.21 
461.563 1338.56 2393.31 
461.575 1337.97 2393.45 
462.146 1337.97 2394.23 
460.257 1338.29 2391.65 
462.431 1337.43 2394.6 
462.09 1337.31 2394.16 
462.861 1336.58 2394.99 
465.049 1336.73 2397.88 
472.575 1334.97 2394.08 
475.261 1332.93 2401.03 
472.661 1333.52 2399.08 
474.925 1332.98 2400.62 
475.082 1329.89 2411.29 
475.952 1328.81 2414.7 
479.368 1327.46 2406.04 
490.348 1323.51 2402.96 
486.358 1329.1 2399.52 
482.373 1328.55 2401.45 
483.667 1329.27 2400.06 
480.383 1328.38 2402.19 
483.999 1325.03 2405.76 
483.223 1325.7 2406.89 
478.784 1327.48 2404.02 
479.141 1327.17 2405.21 
478.703 1328.22 2402.91 
480.414 1326.44 2405.04 
474.846 1330.08 2410.88 
474.118 1330.39 2413.12 
472.917 1334.96 2395.41 
476.966 1332.51 2399.44 
476.571 1332.84 2399.2 
478.782 1331.97 2400.38 
477.75 1332.23 2400.13 
476.191 1332.82 2399.98 
467.294 1333.78 2406.41 
467.092 1334.75 2406.42 
467.246 1335.32 2407.44 
461.937 1337.63 2393.56 
460.894 1337.49 2392.67 
461.434 1337.06 2393.27 
461.627 1336.53 2393.59 
461.985 1336.6 2394.05 
472.725 1334.64 2392.95 
473.152 1334.54 2393.89 
473.512 1334.45 2395.27 
472.739 1334.65 2393.46 
472.944 1333.59 2398.65 
475.124 1333.04 2400.1 
474.291 1329.69 2411.14 
475.314 1329.21 2413.27 
475.715 1329.14 2414.37 
474.906 1329.65 2412.8 
491.835 1324.06 2401.78 
488.254 1323.67 2408 
487.084 1329.69 2398.89 
484.815 1331.14 2398.29 
485.137 1324.39 2405.33 
481.323 1328.59 2401.48 
479.517 1328.61 2402.11 
482.674 1328.96 2400.41 
479.199 1328.36 2402.5 
481.466 1325.9 2404.5 
479.413 1327.7 2403.37 
481.176 1326.61 2403.48 
478.297 1327.93 2403.97 
478.332 1328.25 2403.3 
475.331 1329.56 2414.99 
475.127 1329.95 2410.21 
474.321 1330.31 2410.49 
474.003 1330.5 2412.21 
474.198 1330.15 2415.26 
474.057 1330.34 2414.27 
473.847 1330.49 2413.61 
473.677 1330.67 2415.27 
474.163 1330.26 2416.53 
476.114 1333.21 2398.83 
474.387 1334.09 2397.08 
467.287 1333.5 2405.47 
467.504 1333.3 2406.65 
467.424 1334.44 2407.72 
461.07 1336.97 2392.85 
464.843 1335.69 2397.71 
464.823 1335.18 2397.47 
473.167 1333.68 2398.18 
475.259 1333.13 2399.56 
475.219 1329.52 2413.66 
474.446 1330.23 2412.41 
474.075 1330.5 2411.44 
487.919 1329.82 2398.57 
491.712 1326.35 2400.19 
