609.032 668.202 1906.36 
608.845 666.053 1907.1 
608.15 665.064 1906.63 
610.333 664 1907.02 
607.996 665.914 1906.48 
609.877 667.241 1905.4 
610.091 666.446 1904.99 
611.801 664.638 1906.08 
611.144 665.811 1905.54 
605.747 668.966 1903.16 
607.291 663.636 1905.65 
606.843 668.094 1904.77 
606.34 666.126 1904.47 
612.277 760.078 1884.99 
614.748 758.404 1884.91 
615.149 757.575 1884.98 
615.983 755.412 1885.16 
618.357 753.704 1884.65 
620.793 754.391 1885.86 
621.263 754.402 1885.94 
620.928 760.617 1885.08 
620.266 759.822 1885.48 
623.721 759.038 1883.34 
626.595 758.937 1882.92 
620.647 758.397 1885.73 
619.117 759.839 1885.84 
617.499 759.767 1885.4 
618.644 761.947 1886.1 
616.589 764.447 1886.33 
629.935 755.677 1882.29 
627.974 759.365 1882.92 
631.557 751.632 1883.98 
532.141 717.041 1847.47 
531.634 715.692 1848.81 
531.636 715.642 1847.06 
531.628 715.615 1846.94 
700.723 893.767 1866.91 
700.889 894.187 1866.63 
701.95 895.17 1867.15 
700.13 893.24 1871.75 
700.258 893.285 1868.34 
703.929 895.542 1875.89 
705.441 893.761 1874.12 
706.04 897.016 1877.6 
701.254 893.699 1867.68 
698.472 893.203 1863.29 
698.673 893.76 1864.31 
696.672 894.659 1864.57 
698.431 898.37 1866.36 
697.984 894.436 1865.22 
701.094 896.539 1867.05 
699.927 897.296 1866.83 
699.314 897.718 1866.69 
699.413 897 1866.45 
699.02 897.713 1866.43 
702.115 895.48 1867.21 
711.651 890.277 1862.56 
712.487 889.823 1862.24 
710.913 891.422 1862.74 
712.095 891.072 1862.78 
707.708 891.442 1863.29 
711.231 892.13 1863.02 
701.557 892.448 1863.97 
702.905 891.753 1864.25 
703.234 891.677 1864.35 
703.932 891.64 1864.25 
704.822 891.852 1863.89 
708.187 891.894 1863.36 
700.233 892.926 1863.53 
699.878 893.276 1863.86 
699.443 893.801 1864.4 
700.368 893.205 1863.83 
715.099 879.365 1864.46 
713.968 878.145 1865.69 
714.727 880.356 1864.12 
713.993 879.835 1864.95 
716.108 877.446 1864.72 
715.709 878.254 1864.79 
715.385 891.008 1868.09 
713.456 886.861 1865.53 
713.534 886.816 1867.81 
714.274 889.723 1867.73 
713.572 887.322 1862.88 
713.984 887.499 1863.03 
713.195 889.38 1862 
713.608 888.255 1862.44 
713.749 889.329 1862.05 
712.498 869.833 1871.02 
713.261 868.977 1870.24 
713.258 868.733 1869.31 
711.872 870.994 1870.86 
711.661 871.098 1870.92 
711.14 871.285 1870.89 
710.843 871.122 1869.44 
710.845 871.476 1870.78 
733.642 847.539 1881.31 
733.616 847.968 1881.34 
734.547 847.448 1882.48 
734.354 847.1 1882.58 
735.246 846.413 1884.36 
744.43 827.699 1894.51 
745.316 828.573 1894.56 
747.267 829.304 1895.65 
745.353 833.4 1894.27 
745.748 826.03 1894.94 
744.214 838.566 1892 
739.64 841.216 1887.13 
738.988 844.141 1886.58 
739.198 844.926 1886.5 
743.147 845.903 1888.86 
736.55 847.475 1884.55 
744.962 823.999 1895.29 
744.7 822.031 1896.22 
744 821.307 1896.39 
746.167 825.618 1895.16 
716.345 880.059 1863.53 
716.672 879.66 1863.34 
718.439 892.69 1869.51 
716.296 892.333 1868.42 
728.313 892.035 1871.58 
725.988 891.003 1871.61 
727.668 891.96 1871.58 
724.797 891.668 1871.61 
723.568 892.288 1871.45 
721.336 893.576 1870.86 
733.698 848.558 1881.36 
734.341 849.522 1882.39 
735.397 848.841 1883.52 
735.877 847.933 1883.89 
735.525 848.26 1883.37 
746.862 853.199 1887.51 
744.447 848.474 1888.09 
746.212 848.309 1889.52 
748.01 849.358 1889.53 
746.881 848.833 1889.39 
748.073 850.478 1888.78 
711.587 870.444 1868.78 
711.78 870.305 1868.99 
615.428 799.113 1875.7 
615.432 799.084 1875.53 
615.362 799.095 1875.36 
615.4 799.048 1875.2 
615.446 799.162 1875.77 
615.357 799.433 1875.43 
615.384 799.274 1875.6 
648.099 819.756 1886.39 
648.321 821.126 1885.6 
647.864 821.014 1884.98 
646.212 819.966 1883.51 
648.328 821.347 1885.36 
648.359 821.303 1885.41 
648.445 821.399 1885.54 
643.523 819.166 1878.47 
643.711 818.978 1878.88 
644.564 819.067 1881.34 
645.846 819.909 1882.97 
643.696 819.235 1878.97 
615.391 799.038 1874.99 
615.268 799.367 1874.57 
624.513 791.555 1877.28 
624.549 791.916 1877.24 
615.611 792.64 1869.27 
615.764 793.149 1868.33 
615.679 793.516 1868.67 
615.825 793.857 1868.8 
616.042 794.338 1868.9 
616.427 794.498 1868.52 
616.776 794.99 1868.49 
617.361 796.619 1868.96 
616.759 795.593 1869.07 
616.996 796.407 1869.35 
617.838 798.485 1869.6 
617.479 797.617 1869.66 
651.351 820.178 1888.23 
652.197 819.366 1888.87 
650.046 821.49 1887.57 
681.676 816.389 1898.39 
680.092 814.589 1898.11 
677.66 816.874 1898.32 
677.671 818.052 1898.61 
687.073 812.799 1899.75 
686.663 814.482 1900.29 
686.994 812.324 1899.7 
682.965 805.772 1896.89 
684.784 809.533 1898.52 
684.78 805.35 1897.62 
685.849 811.147 1899.15 
679.716 807.298 1896.08 
685.142 812.074 1899.55 
684.903 811.628 1899.44 
684.399 811.57 1898.9 
686.512 811.206 1899.14 
686.361 811.223 1899.17 
685.968 812.107 1899.68 
684.326 811.342 1899.3 
685.116 811.306 1899.65 
664.988 809.934 1892.92 
664.92 808.546 1892.43 
666.18 811.128 1893.17 
666.679 811.363 1893.29 
666.916 810.644 1893.26 
670.812 808.949 1894.43 
674.894 808.76 1894.92 
668.22 809.027 1893.77 
666.877 808.298 1893.4 
666.554 808.495 1893.23 
666.107 809.085 1893.12 
659.019 808.214 1889.99 
662.963 807.505 1891.35 
662.022 806.934 1890.54 
660.865 806.101 1889.16 
661.769 806.335 1889.73 
664.297 808.345 1892.31 
664.542 808.027 1891.92 
658.216 811.065 1891.55 
658.145 810.722 1891.25 
658.002 810.285 1890.88 
657.856 809.848 1890.51 
657.907 809.892 1890.54 
658.104 811.121 1891.62 
657.961 811.209 1891.68 
658.145 812.345 1891.85 
662.207 813.157 1893.18 
666.893 814.236 1894.73 
668.305 814.681 1895.22 
669.711 815.199 1895.74 
671.219 815.696 1896.27 
657.587 811.843 1891.73 
657.177 812.163 1891.57 
657.272 812.04 1891.55 
657.367 811.934 1891.55 
673.396 815.728 1896.78 
675.013 816.205 1897.32 
676.685 816.936 1897.98 
671.264 814.939 1896 
657.811 811.315 1891.71 
652.211 817.864 1888.56 
651.933 817.652 1888.41 
687.5 815.584 1900.81 
687.963 814.846 1900.77 
686.162 816.403 1900.37 
688.163 814.183 1900.66 
683.645 816.909 1898.61 
651.975 807.659 1889.08 
651.806 806.874 1888.85 
652.559 807.043 1889.57 
652.483 806.635 1889.6 
651.628 809.191 1888.73 
652.008 809.587 1889.01 
652.284 810.772 1889.14 
651.985 812.481 1888.76 
650.971 818.211 1887.5 
650.189 820.05 1886.76 
652.149 816.004 1888.64 
651.109 818.177 1887.69 
646.803 820.37 1883.17 
646.061 819.985 1882.37 
647.588 821.523 1884.07 
649.058 821.504 1885.62 
648.693 821.996 1885.26 
648.733 822.118 1885.35 
649.243 821.907 1885.89 
645.391 819.642 1881.64 
644.697 819.336 1880.93 
644.062 819.549 1880.2 
643.689 819.411 1879.34 
643.69 819.334 1879.11 
653.142 805.948 1890.43 
653.156 806.347 1890.38 
653.505 806.215 1890.79 
653.327 805.857 1890.62 
653.3 806.232 1890.59 
655.022 807.088 1891.13 
655.522 807.809 1891.32 
655.52 807.45 1891.41 
653.882 806.191 1890.88 
654.097 806.349 1891.04 
653.937 806.174 1890.93 
653.723 805.971 1890.88 
655.74 808.286 1891.56 
655.671 807.972 1891.52 
654.032 808.129 1890.31 
655.224 809.36 1890.97 
654.638 807.813 1891.01 
655.122 808.088 1891.32 
655.522 808.264 1891.59 
654.95 809.749 1890.98 
654.201 809.116 1890.55 
653.626 806.141 1890.96 
651.379 817.636 1888.19 
652.928 807.93 1889.84 
652.594 809.286 1889.5 
651.528 817.328 1888.2 
651.52 817.342 1888.12 
650.585 819.253 1887.45 
650.816 818.78 1887.6 
651.309 817.816 1888.29 
651.135 818.138 1888.08 
650.713 818.995 1887.64 
651.572 817.66 1888.37 
627.309 779.319 1883.58 
624.87 782.228 1882.34 
627.007 778.415 1883.72 
626.111 779.713 1884.53 
626.157 779.687 1884.48 
625.97 779.643 1884.66 
626.001 779.589 1884.66 
624.289 771.817 1884.08 
623.199 773.871 1884.16 
624.572 771.76 1884.03 
624.7 772.088 1883.98 
623.746 773.934 1884.27 
625.561 773.157 1883.73 
626.173 774.413 1883.62 
625.241 772.31 1883.84 
624.817 773.556 1883.75 
624.171 773.937 1884.35 
625.18 774.83 1884.35 
625.871 775.708 1884.2 
626.624 776.644 1884.05 
628.36 776.152 1883.73 
628.461 775.29 1884.25 
628.705 775.113 1884.71 
628.922 775.304 1884.89 
629.482 774.554 1885.75 
628.133 776.547 1883.55 
628.136 776.731 1883.59 
628.256 776.377 1883.62 
627.973 776.975 1883.65 
629.92 775.917 1885.29 
629.743 775.865 1885.16 
630.019 775.757 1885.44 
629.73 775.643 1885.32 
629.012 774.857 1885.76 
629.273 775.319 1885.3 
626.604 778.245 1884.44 
625.965 779.131 1884.7 
625.749 779.315 1884.8 
625.616 779.75 1884.8 
627.284 777.398 1883.89 
625.87 779.548 1884.79 
625.824 779.587 1884.85 
625.782 779.705 1884.89 
625.757 779.578 1884.95 
625.527 780.102 1884.86 
629.885 776.028 1885.23 
629.963 775.999 1885.3 
629.942 775.96 1885.3 
628.393 776.895 1884.41 
629.442 776.531 1884.79 
629.631 776.288 1884.89 
629.679 776.091 1885.05 
629.702 776.061 1885.07 
627.37 776.908 1884.16 
629.871 776.056 1885.22 
615.069 799.562 1875.45 
614.569 799.658 1875.57 
614.992 799.497 1875.47 
614.566 799.891 1874.97 
614.578 799.906 1874.68 
614.607 799.85 1874.56 
614.913 799.495 1874.89 
615.093 799.424 1874.72 
615.156 795.683 1872.03 
614.923 794.371 1872.05 
614.376 793.002 1873.15 
614.589 793.176 1871.99 
615.102 793.039 1870.53 
621.097 650.108 1909.75 
622.762 646.369 1912.79 
623.545 647.777 1912.53 
622.229 648.77 1911.38 
622.849 647.936 1912.46 
621.301 649.048 1910.26 
621.027 649.56 1909.98 
623.961 642.543 1914.2 
619.495 649.14 1910.19 
619.725 649.074 1910.19 
620.369 649.585 1910.01 
619.113 649.295 1910.24 
619.736 652.406 1911.26 
619.583 652.074 1911.71 
619.569 651.696 1911.99 
618.936 649.732 1910.48 
619.062 650.595 1911.84 
618.96 651.627 1912.09 
619.215 651.768 1912.11 
620.326 652.636 1909.63 
619.684 652.901 1909.83 
618.313 653.612 1909.81 
618.956 652.924 1910.31 
617.785 653.817 1909.71 
617.292 653.956 1909.57 
617.025 654.051 1909.29 
615.93 653.407 1909.27 
616.689 653.787 1909.45 
615.784 654.063 1909.15 
615.01 663.707 1908.46 
614.685 658.298 1909 
613.527 663.254 1907.73 
610.151 662.676 1906.23 
615.256 653.956 1909.18 
611.651 653.231 1908.15 
614.929 653.799 1909.18 
614.448 650.899 1910.11 
609.286 668.3 1905.84 
609.535 667.807 1905.19 
609.09 666.281 1907.05 
609.08 665.445 1907.29 
610.507 663.915 1907.18 
611.398 664.133 1906.63 
609.738 667.177 1905.11 
610.133 666.547 1905.1 
610.794 666.018 1905.52 
611.694 664.908 1906.07 
611.144 660.199 1906.74 
608.724 656.987 1906.24 
614.579 762.257 1885.9 
618.108 759.001 1885.16 
615.997 758.337 1885.01 
617.077 757.931 1884.7 
617.013 756.385 1884.44 
619.746 755.124 1884.71 
620.842 756.341 1885.88 
620.878 758.013 1885.96 
620.902 760.615 1885.15 
622.467 759.937 1883.83 
620.27 761.773 1885.62 
621.691 762.196 1885.08 
621.58 762.682 1885.2 
624.055 759.835 1883.4 
625.791 760.431 1883.31 
620.544 758.405 1885.57 
619.977 766.651 1885.61 
620.194 763.351 1885.51 
620.318 769.815 1886.68 
630.932 756.35 1882.49 
627.746 761.045 1883.81 
625.319 761.52 1884.09 
633.702 753.193 1884.99 
532.034 716.738 1847.29 
531.669 715.769 1848.49 
531.545 715.382 1846.99 
702.525 893.756 1867.18 
702.341 893.592 1867.54 
702.634 893.92 1867.07 
702.548 893.92 1866.91 
701.668 893.837 1871.76 
701.961 893.555 1869.38 
705.92 895.184 1871.33 
703.803 894.259 1871.11 
708.686 893.244 1873.4 
709.831 896.63 1877.65 
709.032 898.217 1878.24 
707.37 897.704 1878.11 
701.762 893.451 1868.36 
701.717 893.411 1867.84 
696.58 895.072 1864.56 
698.15 898.025 1866.02 
697.373 894.637 1865.14 
698.465 894.602 1865.37 
698.958 894.311 1865.15 
700.568 896.27 1866.92 
700.636 895.787 1866.78 
700.226 895.665 1866.5 
699.874 895.555 1866.19 
699.257 896.743 1866.21 
698.892 897.042 1866.11 
701.688 895.758 1867.07 
702.346 893.861 1866.7 
701.652 894.98 1867 
712.876 890.649 1862.38 
713.477 890.188 1862.05 
711.862 891.749 1863.07 
712.565 892.051 1862.87 
712.981 891.527 1862.52 
711.953 892.406 1863.34 
702.743 892.161 1864.46 
701.785 892.671 1864.36 
703.564 891.755 1864.49 
703.039 892.076 1864.57 
704.422 892.032 1864.12 
707.408 892.365 1863.79 
707.934 892.102 1863.49 
711.578 892.753 1863.58 
699.979 893.87 1864.56 
701.73 892.979 1864.64 
714.39 880.645 1864.43 
715.204 881.013 1863.67 
716.244 880.849 1863.2 
713.671 879.396 1865.49 
713.508 881.169 1864.46 
715.271 879.494 1864.21 
715.653 880.412 1863.59 
715.808 880.927 1863.32 
714.543 881.155 1863.87 
713.589 879.984 1865.14 
716.281 877.446 1864.88 
716.543 877.585 1864.3 
716.875 879.307 1863.16 
715.003 891.844 1867.02 
713.923 891.596 1866.95 
712.786 887.936 1866.66 
713.352 889.62 1866.67 
713.999 888.161 1862.56 
714.283 888.339 1863.03 
714.22 889.193 1862.2 
714.074 890.265 1862.15 
712.517 870.03 1870.77 
713.12 869.054 1870.07 
712.512 869.22 1868.83 
712.775 869.045 1868.98 
711.895 870.967 1870.7 
711.805 871.067 1870.71 
711.728 871.091 1870.81 
711.428 871.301 1870.85 
711.012 871.265 1869.44 
711.229 871.504 1870.64 
734.7 847.703 1882.47 
734.794 847.963 1882.45 
734.771 848.298 1882.5 
735.599 847.171 1884.02 
735.457 847.738 1883.46 
747.769 826.335 1896 
749.931 827.815 1897.21 
748.377 834.329 1895.39 
742.273 839.549 1889.84 
746.626 845.553 1891.31 
748.257 841.66 1893.2 
740.025 842.059 1887.21 
742 844.409 1888.77 
741.31 842.73 1888.25 
745.332 847.411 1890 
745.681 823.776 1896.06 
747.083 825.26 1895.98 
746.463 822.979 1896.85 
746.915 822.024 1897.34 
743.859 820.745 1897.05 
746.977 821.273 1897.8 
747.523 825.919 1896 
716.693 880.415 1863.1 
716.638 893.388 1868.55 
715.676 892.666 1866.93 
729.314 892.949 1871.63 
732.214 895.338 1872.33 
733.088 896.963 1872.79 
732.399 897.022 1872.89 
727.247 892.592 1872.18 
727.523 892.196 1871.66 
729.645 893.503 1871.86 
726.421 892.621 1871.79 
724.139 892.812 1871.75 
723.877 893.097 1871.79 
722.113 894.4 1871.31 
717.289 894.243 1868.94 
734.568 848.708 1882.54 
750.163 844.219 1892.8 
751.98 843.21 1892.73 
711.579 870.587 1868.91 
711.808 870.343 1869.08 
615.328 799.145 1875.55 
615.338 799.195 1875.65 
615.259 799.129 1875.2 
615.264 799.159 1875.41 
615.286 799.094 1875.07 
615.275 799.372 1875.44 
648.702 821.806 1886.11 
649.262 822.069 1886.71 
648.827 822.153 1886.13 
647.967 821.126 1885.05 
646.678 820.348 1883.86 
648.318 821.405 1885.32 
648.398 821.453 1885.38 
648.4 821.387 1885.41 
648.485 821.462 1885.52 
648.814 822.123 1886.04 
644.104 819.086 1880.38 
644.309 819.321 1880.71 
645.106 819.595 1882.07 
646.834 820.619 1883.81 
646.063 820.224 1882.96 
644.205 819.491 1880.45 
644.355 819.448 1880.76 
624.646 791.68 1877.32 
624.657 792.016 1877.37 
615.361 793.299 1869.34 
615.643 793.919 1869.07 
615.296 793.838 1869.62 
615.63 794.431 1869.67 
615.986 794.956 1869.62 
616.37 794.921 1869.02 
616.343 795.464 1869.6 
616.593 796.183 1869.81 
617.166 797.299 1869.98 
651.001 819.203 1887.8 
650.039 820.756 1887.17 
681.937 811.971 1897.17 
683.18 813.455 1897.05 
680.226 810.479 1896.94 
677.238 815.171 1897.61 
676.735 813.074 1896.7 
674.167 813.406 1896.56 
675.945 815.754 1897.5 
687.081 811.35 1899.33 
688.5 812.961 1899.84 
686.592 811.044 1899.41 
680.965 805.529 1895.97 
681.214 805.201 1896.06 
685.732 807.328 1898.74 
686.226 810.438 1899.52 
686.232 811.042 1899.43 
692.403 803.198 1899.6 
686.223 811.233 1899.25 
686.407 810.999 1899.43 
665.62 809.604 1892.98 
666.061 808.378 1892.77 
666.888 809.48 1892.97 
668.493 810.568 1893.76 
669.264 808.204 1893.91 
673.007 809.695 1894.81 
674.442 808.475 1894.5 
667.483 808.185 1893.65 
671.577 812.009 1895.5 
671.027 811.81 1895.15 
666.937 808.692 1893.22 
671.324 812.427 1895.2 
658.196 809.144 1890.2 
659.299 806.63 1888.68 
663 807.133 1890.83 
664.213 807.738 1891.53 
661.407 805.735 1889 
662.806 806.438 1890.01 
662.039 805.839 1889.25 
665.309 808.78 1892.31 
658.13 810.815 1891.34 
657.985 810.365 1890.95 
657.827 809.931 1890.6 
658.116 808.543 1889.53 
657.889 808.752 1889.57 
657.68 809.676 1890.44 
658.138 811.008 1891.51 
657.985 811.146 1891.64 
657.844 811.251 1891.68 
658.155 812.146 1891.81 
658.534 812.032 1891.9 
664.168 813.216 1893.74 
665.874 813.787 1894.34 
667.06 813.447 1894.49 
669.133 814.115 1895.21 
657.437 811.841 1891.69 
657.251 811.986 1891.57 
657.369 811.825 1891.54 
657.478 811.707 1891.54 
673.483 815.084 1896.55 
671.8 814.625 1896 
674.967 815.365 1897.02 
669.627 813.765 1895.19 
657.627 811.483 1891.71 
650.402 819.707 1887.55 
689.006 815.302 1901.11 
689.211 814.819 1901.07 
688.972 814.385 1900.88 
687.054 815.641 1899.29 
689.935 812.967 1899.71 
684.449 815.19 1897.19 
653.654 807.881 1890.1 
653.716 808.312 1890.23 
654.556 808.617 1890.54 
650.289 819.846 1886.93 
649.517 821.418 1886.2 
650.236 819.957 1886.95 
647.757 821.577 1884.31 
646.888 821.144 1883.33 
646.382 820.858 1882.8 
648.65 822.035 1885.3 
648.925 822.185 1885.61 
645.694 820.487 1882.05 
645.095 820.157 1881.41 
644.033 819.531 1880.1 
644.888 819.988 1881.25 
655.041 806.93 1891.25 
655.676 807.587 1891.66 
655.664 807.214 1891.78 
654.072 806.241 1891.06 
654.214 806.31 1891.19 
653.822 806.119 1891.14 
653.933 806.07 1891.3 
655.603 808.011 1891.78 
655.823 808.027 1891.78 
655.84 807.706 1891.93 
655.23 809.447 1891 
654.991 809.727 1890.99 
654.623 809.421 1890.72 
650.759 818.893 1887.47 
649.863 820.725 1886.84 
649.863 820.722 1886.76 
650.024 820.392 1886.84 
650.431 819.576 1887.55 
650.409 819.617 1887.46 
649.846 820.762 1886.9 
627.078 778.2 1883.78 
626.04 779.553 1884.65 
626.15 779.59 1884.55 
626.055 779.483 1884.66 
625.897 779.481 1884.78 
625.914 779.416 1884.8 
622.728 773.161 1884.13 
623.816 772.415 1883.97 
624.934 770.982 1884.18 
624.644 770.509 1884.2 
624.729 770.184 1884.28 
622.906 773.039 1884.1 
624.888 770.192 1884.2 
625.331 771.391 1884.07 
624.946 772.09 1883.89 
622.968 773.143 1884.14 
623.049 773.103 1884.14 
623.489 773.303 1884.21 
624.719 774.07 1884.41 
625.839 774.87 1884.51 
626.523 775.886 1884.31 
628.302 775.985 1883.63 
628.479 775.078 1884.31 
628.821 774.463 1884.99 
629.372 775.144 1885.42 
628.031 776.465 1883.44 
627.922 776.741 1883.52 
628.173 776.269 1883.51 
627.598 777.047 1883.67 
630.145 775.558 1885.69 
630.102 775.664 1885.57 
630.113 775.331 1885.76 
630.125 775.381 1885.75 
630.055 775.234 1885.78 
630.094 775.405 1885.69 
629.093 774.206 1886.23 
629.322 775.426 1885.2 
629.761 774.784 1886.04 
626.388 778.244 1884.59 
625.915 778.838 1884.79 
625.754 778.952 1884.94 
625.547 779.47 1884.92 
625.369 779.963 1884.92 
626.684 777.715 1884.35 
625.741 779.448 1884.99 
625.804 779.419 1884.9 
625.705 779.698 1885 
625.685 779.567 1885.05 
625.657 779.443 1885.11 
625.282 780.259 1884.99 
629.952 776.068 1885.27 
630.038 776.021 1885.36 
630.173 775.578 1885.71 
628.178 776.857 1884.39 
629.187 776.577 1884.73 
629.67 776.307 1884.93 
629.691 776.11 1885.05 
629.863 776.106 1885.2 
629.875 776.083 1885.21 
627.372 776.288 1884.4 
629.976 776.101 1885.28 
614.658 799.471 1875.73 
614.987 799.369 1875.48 
615.231 799.254 1875.52 
614.793 799.526 1875.34 
614.782 799.58 1875.07 
615.173 799.189 1875.27 
615.319 796.196 1871.68 
614.843 794.205 1871.65 
614.879 793.801 1870.68 
614.899 794.22 1871.23 
621.671 646.489 1913.15 
622.05 647.515 1912.73 
621.425 648.445 1911.58 
621.832 647.904 1912.37 
619.944 648.899 1910.45 
620.222 648.799 1910.71 
619.566 648.871 1910.38 
623.611 642.539 1914.62 
618.657 649.019 1910.2 
618.355 649.122 1910.26 
618.62 648.901 1910.24 
618.271 649.571 1910.67 
619.279 652.528 1911.29 
619.08 652.314 1911.85 
619.033 652.027 1912.08 
618.477 650.812 1911.97 
618.569 652.288 1912.07 
618.363 651.943 1912.06 
618.573 652.354 1912.08 
618.484 653.065 1910.51 
617.913 653.539 1910.06 
618.764 652.603 1911.45 
617.472 653.699 1909.92 
617.044 653.756 1909.58 
617.16 653.57 1909.89 
616.217 653.199 1909.55 
615.419 653.094 1909.4 
616.841 653.432 1909.73 
613.005 658.312 1907.98 
612.72 661.491 1907.51 
611.71 661.762 1906.47 
611.413 662.236 1906.38 
611.517 647.905 1909.89 
609.575 648.736 1908.16 
615.541 652.768 1909.67 
616.055 651.895 1910.69 
616.393 650.202 1911.22 
614.141 647.655 1910.9 
612.825 646.257 1910.97 
617.292 651.24 1911.86 
617.186 651.646 1911.81 
609.386 667.604 1906.21 
609.323 665.54 1907.26 
610.492 664.093 1907.22 
611.317 664.328 1906.65 
609.805 667.15 1905.33 
610.142 666.669 1905.26 
610.66 666.109 1905.57 
611.581 665.151 1906.07 
619.11 758.614 1884.92 
619.864 758.211 1884.73 
617.965 757.56 1884.37 
619.735 754.73 1883.96 
618.672 756.943 1884.02 
620.662 756.8 1885.7 
620.578 758.031 1885.64 
620.553 758.219 1885.63 
620.681 760.567 1885.11 
621.401 761.63 1885.16 
621.92 761.296 1884.49 
622.625 761.364 1884.22 
621.491 763.502 1885.24 
622.233 762.837 1884.86 
621.978 763.303 1885.17 
623.603 761.392 1884 
623.186 768.095 1884.76 
623.204 765.482 1884.78 
622.572 770.154 1884.75 
629.307 761.17 1883.78 
632.305 756.749 1883.01 
625.184 762.686 1885.26 
624.067 762.834 1884.91 
629.243 765.513 1885.69 
623.001 762.895 1884.72 
636.065 755.008 1886.15 
531.937 716.45 1846.7 
531.642 715.642 1846.98 
531.348 714.854 1847.87 
531.312 714.711 1846.89 
531.793 716.053 1845.95 
704.365 893.332 1867.7 
704.376 893.115 1867.09 
703.409 893.349 1868.63 
703.738 892.734 1866.49 
703.411 892.73 1866.2 
706.544 894.463 1868.6 
710.144 896.277 1872.01 
712.821 893.087 1873.29 
712.208 895.311 1876.17 
713.969 897.82 1878.78 
712.653 898.878 1880.07 
710.514 899.524 1880.19 
713.071 897.677 1875.55 
696.155 895.393 1864.14 
697.607 897.54 1865.49 
697.532 894.842 1865.25 
698.88 895.651 1865.65 
699.369 895.279 1865.69 
700.979 894.617 1866.59 
701.968 893.775 1866.39 
701.229 893.711 1865.35 
699.904 894.816 1865.65 
703.123 892.748 1865.95 
713.604 891.053 1862.16 
712.851 892.634 1863.06 
713.368 892.414 1862.64 
713.682 891.981 1862.29 
712.943 893.123 1863.33 
702.719 892.481 1864.72 
703.762 891.868 1864.75 
703.074 892.186 1864.83 
703.339 891.752 1864.85 
704.525 892.308 1864.55 
707.63 892.721 1864.22 
711.447 893.184 1863.78 
712.943 893.6 1863.6 
702.722 892.758 1865.04 
714.22 881.057 1864.23 
713.945 880.343 1864.84 
713.102 880.896 1864.91 
713.818 880.898 1864.56 
713.557 880.71 1864.8 
713.125 880.824 1864.95 
715.92 878.682 1864.27 
716.2 879.8 1863.6 
713.613 880.157 1865.12 
717.093 879.076 1862.93 
716.514 877.983 1864.28 
716.916 879.345 1863.45 
714.635 889.161 1862.67 
714.972 890.179 1862.17 
714.52 891.457 1861.89 
715.703 891.463 1861.69 
712.509 870.063 1870.55 
712.935 869.115 1869.78 
712.483 869.399 1868.93 
711.864 870.336 1869.15 
711.891 871.034 1870.6 
711.979 870.928 1870.59 
711.739 871.188 1870.59 
711.599 871.259 1870.75 
711.197 871.295 1869.4 
711.496 871.397 1870.57 
711.399 871.173 1869.52 
748.311 824.244 1897.16 
747.519 824.308 1896.93 
750.991 825.508 1897.67 
753.032 831.807 1897.16 
752.806 837.239 1895.46 
747.261 822.892 1897.4 
747.792 822.192 1897.64 
747.815 821.288 1898 
743.318 819.742 1899.08 
746.565 820.702 1898.22 
748.234 820.57 1898.4 
716.138 893.836 1867.24 
715.932 893.275 1866.83 
730.172 893.718 1871.75 
731.206 894.319 1871.82 
733.605 896.101 1872.51 
733.392 897.479 1872.73 
734.062 897.456 1872.63 
732.721 897.576 1872.93 
732.591 897.601 1873.14 
731.902 897.661 1873.13 
727.676 893.355 1872.91 
723.181 892.902 1873.14 
729.55 893.631 1871.99 
731.238 895.591 1872.34 
730.721 894.403 1871.96 
728.533 894.022 1872.2 
730.279 894.941 1872.35 
725.212 894.368 1872.52 
724.328 894.503 1872.58 
723.377 894.687 1872.19 
717.737 895.092 1869.2 
719.971 895.274 1870.49 
753.786 838.593 1895.14 
756.055 836.219 1895.81 
711.662 870.634 1869.12 
615.153 799.226 1875.43 
649.463 821.551 1886.77 
648.063 821.234 1885.11 
647.746 821.074 1884.8 
648.289 821.442 1885.27 
648.386 821.504 1885.34 
648.476 821.551 1885.41 
648.461 821.469 1885.44 
648.591 821.645 1885.6 
648.893 822.198 1886.08 
649.537 821.397 1886.77 
645.474 820.011 1882.22 
647.972 821.339 1884.89 
647.988 821.291 1884.97 
647.021 820.892 1883.81 
646.302 820.551 1882.98 
645.287 820.083 1881.81 
624.784 791.806 1877.35 
624.761 792.117 1877.53 
615.205 794.408 1870.57 
615.615 794.964 1870.3 
616.131 795.721 1870.17 
616.847 797.001 1870.24 
683.503 808.689 1895.74 
682.317 807.548 1895.93 
684.671 809.976 1895.59 
681.091 806.286 1895.91 
677.337 809.935 1895.78 
671.035 810.627 1895.07 
686.752 810.948 1899.56 
688.145 811.464 1899.35 
687.055 810.895 1899.58 
686.724 810.636 1899.82 
680.353 805.269 1895.64 
686.949 808.399 1900.21 
692.433 805.734 1900.26 
699.148 803.238 1901.82 
700.437 800.34 1901.94 
670.129 811.769 1894.59 
667.562 810.526 1893.48 
665.739 809.561 1892.71 
668.955 811.703 1894.25 
673.352 814.357 1896.25 
671.061 813.007 1895.22 
659.727 806.259 1888.37 
664.098 807.428 1891.01 
663.926 807.634 1891.04 
663.763 808.073 1891.5 
661.938 805.711 1888.82 
661.712 805.621 1888.58 
663.406 806.603 1890 
662.57 806.032 1889.16 
663.899 808.616 1891.91 
657.968 810.441 1891.03 
657.813 810.052 1890.72 
657.627 809.812 1890.6 
658.663 806.83 1888.03 
657.709 808.688 1889.37 
657.495 809.572 1890.43 
658.076 811.052 1891.56 
658.017 810.675 1891.23 
657.961 811.132 1891.62 
657.853 811.198 1891.64 
657.724 811.303 1891.68 
658.067 811.733 1891.7 
662.794 812.722 1893.24 
663.04 811.97 1893.03 
665.065 812.699 1893.76 
665.254 812.161 1893.6 
667.105 812.913 1894.3 
667.67 812.711 1894.35 
657.474 811.59 1891.67 
657.305 811.845 1891.55 
657.427 811.652 1891.52 
657.529 811.537 1891.53 
657.606 811.494 1891.53 
671.743 813.926 1895.72 
670.272 813.538 1895.24 
668.448 812.579 1894.47 
689.597 815.084 1900.94 
689.63 814.744 1900.15 
688.886 815.253 1900.58 
690.63 814.078 1900.22 
690.508 813.774 1900.15 
690.616 813.229 1899.8 
686.301 815.012 1897.08 
688.974 814.544 1898.85 
690.6 811.431 1899.27 
685.771 811.142 1895.45 
654.531 808.707 1890.5 
654.585 809.143 1890.63 
655.19 809.289 1890.88 
649.306 821.798 1886.07 
649.389 821.671 1886.22 
648.53 821.893 1885.25 
647.482 821.393 1884.05 
648.645 821.987 1885.34 
646.733 820.985 1883.24 
648.829 822.052 1885.54 
646.169 820.672 1882.64 
645.759 820.428 1882.21 
654.953 806.764 1891.32 
655.844 807.386 1892.05 
655.697 807.027 1892.01 
653.916 805.868 1891.41 
654.023 805.97 1891.3 
655.725 807.654 1892.07 
655.784 807.251 1892.34 
655.058 809.646 1890.98 
649.126 822.083 1886.11 
649.072 822.149 1886.13 
649.143 822.061 1886.05 
649.607 821.253 1886.76 
649.018 822.186 1886.15 
627.084 778.074 1883.85 
625.955 779.383 1884.78 
626.119 779.435 1884.62 
626.008 779.32 1884.76 
625.798 779.307 1884.93 
625.842 779.262 1884.91 
623.737 772.313 1883.99 
624.804 771.097 1884.2 
624.704 770.256 1884.32 
623.645 772.309 1884.01 
623.552 772.311 1884.03 
623.513 772.307 1884.06 
623.665 773.255 1884.2 
624.836 773.947 1884.4 
625.841 774.485 1884.55 
626.705 775.429 1884.54 
628.243 775.885 1883.53 
628.275 775.495 1883.64 
628.8 774.398 1884.77 
628.397 774.993 1884.06 
627.713 776.764 1883.48 
628.094 776.168 1883.41 
627.941 776.542 1883.36 
627.281 777.111 1883.73 
630.225 774.846 1886.19 
630.191 774.951 1886.07 
630.197 774.768 1886.16 
630.146 774.957 1886 
630.007 774.639 1886.17 
629.503 775.284 1885.43 
629.199 775.471 1885.04 
626.11 778.299 1884.81 
625.977 778.44 1884.95 
625.879 778.44 1885.14 
625.686 778.981 1885.08 
625.41 779.615 1885.04 
625.201 780.042 1885.07 
626.353 777.94 1884.59 
626.122 778.077 1884.88 
625.641 779.33 1885.15 
625.715 779.312 1885.05 
625.613 779.685 1885.13 
625.613 779.571 1885.15 
625.576 779.438 1885.22 
625.553 779.308 1885.27 
625.134 780.278 1885.14 
630.093 776.051 1885.4 
630.215 775.484 1885.82 
630.258 774.752 1886.29 
628.717 776.657 1884.61 
627.725 776.035 1884.59 
629.612 776.342 1884.93 
629.696 776.127 1885.06 
629.858 776.133 1885.19 
629.955 776.149 1885.26 
629.962 776.125 1885.27 
626.828 775.061 1884.67 
630.052 776.141 1885.33 
630.139 776.077 1885.43 
615.437 795.936 1871.44 
615.249 794.737 1871.06 
621.236 646.531 1913.22 
621.09 647.257 1912.89 
621.066 647.799 1912.39 
620.752 648.364 1911.57 
618.997 648.559 1910.58 
618.81 648.797 1910.34 
619.262 648.393 1910.8 
624.06 640.537 1915.33 
623.426 642.391 1915.02 
618.056 648.481 1910.91 
617.598 648.474 1911.3 
618.391 648.472 1910.69 
618.364 648.649 1910.56 
617.572 649.522 1911.45 
617.94 650.426 1911.79 
618.505 652.488 1912.04 
617.966 651.607 1912.11 
618.219 652.495 1912.06 
618.217 652.447 1912.11 
618.142 652.142 1912.17 
618.067 653.136 1910.74 
618.352 652.683 1911.62 
617.609 653.432 1910.25 
617.275 653.339 1910.25 
616.99 653.219 1910.09 
616.284 652.929 1909.82 
616.739 653.071 1909.99 
612.059 645.257 1911.33 
612.864 644.102 1911.57 
610.746 643.396 1910.1 
615.964 652.564 1909.93 
616.402 652.176 1910.84 
617.103 652.122 1911.77 
616.812 649.886 1911.54 
615.991 648.693 1911.03 
617.372 650.776 1911.87 
616.772 647.942 1911.21 
616.461 646.9 1911.49 
613.758 644.961 1911.51 
615.614 646.164 1911.99 
617.712 652.278 1912.37 
617.705 651.638 1912.24 
617.406 652.288 1912.1 
609.437 667.811 1906.32 
609.522 665.731 1907.22 
610.404 664.266 1907.22 
611.225 664.484 1906.65 
609.856 667.167 1905.56 
610.162 666.654 1905.43 
610.632 666.124 1905.65 
611.431 665.271 1906.04 
620.343 757.896 1884.61 
619.622 756.835 1883.75 
619.906 755.25 1884.1 
620.555 756.552 1885.55 
620.511 757.661 1884.54 
621.02 760.917 1884.66 
621.413 761.308 1884.6 
622.953 763.691 1885.05 
622.839 763.205 1885.09 
623.691 768.339 1884.67 
623.901 765.337 1884.6 
623.42 763.553 1884.86 
623.193 770.336 1884.93 
630.464 761.703 1884.06 
630.378 766.383 1885.71 
633.852 758.377 1884.74 
624.102 763.411 1884.87 
627.569 764.909 1885.94 
623.337 763.307 1884.84 
628.56 765.084 1885.48 
638.459 756.777 1887.85 
705.044 893.309 1867.38 
704.411 892.961 1866.88 
703.882 892.451 1866.27 
703.52 892.434 1865.96 
707.474 894.061 1867.45 
710.169 895.187 1867.79 
712.917 896.106 1870.19 
716.473 893.159 1873.45 
716.038 895.998 1876.7 
718.263 896.756 1878.04 
717.035 897.786 1879.52 
714.715 898.796 1880.6 
712.351 899.846 1880.9 
696.466 895.223 1864.48 
696.084 896.838 1863.98 
696.106 896.576 1863.99 
697.492 896.703 1865.27 
701.505 893.77 1865.95 
703.085 892.574 1865.67 
702.596 892.943 1865.61 
702.88 892.671 1865.34 
713.772 892.965 1862.86 
714.702 892.706 1862.33 
715.038 892.45 1861.66 
713.926 893.438 1863.17 
703.462 891.78 1865.17 
704.019 892.058 1865.26 
703.133 892.117 1865.13 
707.714 893.097 1864.8 
704.653 892.569 1865.56 
711.737 893.731 1864.16 
713.767 893.95 1863.77 
713.174 880.514 1865.13 
716.461 892.691 1861.22 
712.509 870.011 1870.28 
712.177 870.427 1869.87 
711.882 870.826 1869.91 
711.651 871.068 1869.84 
748.372 823.155 1897.58 
751.549 823.502 1897.4 
756.519 828.179 1898.29 
756.054 833.099 1897.2 
748.787 821.898 1897.77 
750.126 821.333 1897.97 
744.832 819.985 1898.82 
745.91 820.195 1898.7 
746.279 820.146 1898.8 
746.92 820.438 1898.48 
748.24 819.341 1899.32 
751.556 819.434 1899.52 
716.383 894.378 1867.22 
716.475 893.13 1861.47 
731.489 894.885 1871.92 
732.493 895.522 1871.95 
733.054 895.471 1872.12 
734.695 896.524 1872.59 
734.756 897.358 1872.6 
733.397 897.264 1872.55 
732.604 897.214 1872.66 
732.389 897.346 1872.79 
734.059 897.293 1872.4 
731.606 897.47 1872.97 
732.156 897.445 1873.19 
733.189 898.199 1873.36 
731.552 897.741 1873.27 
731.995 897.92 1873.33 
730.609 897.395 1873.08 
730.617 897.513 1873.22 
729.997 895.483 1873.11 
724.005 894.096 1874.9 
720.012 893.322 1873.61 
732.266 896.203 1872.32 
731.436 897.179 1872.78 
730.495 897.089 1872.91 
728.07 894.963 1872.64 
724.788 896.625 1872.84 
727.132 896.407 1873.22 
722.368 895.996 1871.87 
716.942 895.302 1869.1 
718.309 895.747 1870.39 
758.926 831.535 1897.8 
648.353 821.528 1885.29 
648.429 821.608 1885.34 
648.465 821.595 1885.38 
648.542 821.672 1885.42 
648.565 821.639 1885.47 
648.526 821.551 1885.47 
648.667 821.774 1885.63 
646.218 820.599 1882.79 
648.112 821.45 1885.01 
647.231 821.071 1883.96 
624.938 791.962 1877.36 
624.953 791.884 1877.67 
624.897 792.469 1877.52 
615.578 795.162 1870.77 
615.921 795.575 1870.48 
616.56 796.788 1870.49 
680.169 805.333 1895.49 
687.725 810.775 1899.6 
687.183 810.549 1899.79 
688.007 809.069 1901.34 
695.122 807.031 1901.94 
701.212 804.679 1902.79 
706.024 802.441 1904.07 
706.903 799.954 1903.88 
710.2 797.325 1905.41 
666.824 810.668 1893.37 
664.78 809.604 1892.51 
669.624 812.641 1894.76 
667.674 811.627 1893.93 
660.126 805.903 1887.96 
664.224 807.412 1890.67 
663.005 807.576 1890.21 
662.923 808.034 1890.89 
662.237 805.83 1888.49 
661.998 805.327 1888.06 
663.537 806.426 1889.51 
664.093 807.234 1890.21 
662.839 805.841 1888.65 
662.956 808.571 1891.56 
657.813 810.222 1890.88 
657.544 810.034 1890.78 
657.421 809.655 1890.57 
657.484 809.842 1890.72 
658.361 807.064 1887.82 
658.796 806.768 1887.69 
657.541 808.668 1889.23 
657.254 809.446 1890.31 
658.031 810.848 1891.38 
657.962 811.104 1891.6 
657.872 810.434 1891.05 
657.818 811.166 1891.63 
657.698 811.272 1891.65 
657.602 811.368 1891.69 
658.002 811.526 1891.64 
661.595 812.263 1892.8 
660.932 811.18 1892.26 
663.39 811.49 1892.93 
661.659 810.84 1892.29 
665.472 811.617 1893.44 
663.538 810.953 1892.75 
666.473 811.574 1893.64 
657.498 811.48 1891.64 
657.354 811.71 1891.54 
657.412 811.566 1891.53 
657.524 811.455 1891.52 
657.643 811.269 1891.52 
657.632 811.374 1891.52 
657.707 811.32 1891.53 
690.812 813.903 1899.69 
689.74 814.116 1898.64 
690.886 813.727 1899.12 
692.788 811.596 1899.23 
691.114 811.116 1899.33 
686.867 812.412 1895.36 
689.006 813.923 1897.28 
648.857 822.087 1885.62 
648.781 821.954 1885.58 
648.489 821.837 1885.24 
648.745 821.953 1885.5 
648.661 821.873 1885.45 
647.619 821.412 1884.25 
647.325 821.223 1883.96 
646.642 820.859 1883.22 
654.825 806.58 1891.38 
655.978 807.163 1892.38 
655.62 806.852 1892.12 
654.641 806.163 1891.92 
654.321 806.007 1891.57 
655.874 806.863 1892.62 
648.684 821.792 1885.58 
648.736 821.878 1885.59 
626.984 778.136 1883.91 
625.895 779.234 1884.88 
626.153 779.253 1884.63 
626.01 779.141 1884.79 
625.736 779.16 1885.04 
625.676 779.182 1885.12 
625.759 779.103 1885.04 
624.797 771.175 1884.23 
624.218 771.363 1884.14 
624.692 771.299 1884.25 
624.607 771.485 1884.27 
623.455 772.305 1884.06 
624.508 771.463 1884.29 
623.872 773.224 1884.21 
624.756 773.653 1884.34 
625.706 774.17 1884.48 
628.106 775.891 1883.33 
628.868 774.252 1884.61 
628.332 774.991 1883.75 
628.118 775.578 1883.28 
626.485 777.854 1884.38 
627.423 777.02 1883.51 
628.01 776.335 1883.32 
627.931 776.547 1883.25 
627.72 776.831 1883.33 
630.319 774.213 1886.64 
630.283 774.348 1886.51 
630.256 774.42 1886.43 
630.261 774.026 1886.63 
630.211 774.519 1886.31 
629.315 774.812 1885.47 
626.012 778.107 1885.07 
625.832 778.137 1885.32 
625.74 778.269 1885.43 
625.73 778.667 1885.27 
625.519 779.247 1885.2 
625.28 779.756 1885.21 
625.983 778.265 1884.92 
625.949 778.239 1884.96 
625.893 778.179 1885.13 
625.512 779.164 1885.36 
625.61 779.216 1885.21 
625.524 779.603 1885.27 
625.512 779.486 1885.31 
625.478 779.347 1885.38 
625.458 779.22 1885.43 
625.213 779.971 1885.3 
630.251 775.398 1885.92 
630.294 774.642 1886.4 
630.35 774.116 1886.75 
628.3 776.12 1884.71 
629.304 776.429 1884.85 
627.259 775.13 1884.74 
629.712 776.167 1885.06 
629.726 776.139 1885.08 
629.874 776.166 1885.2 
629.96 776.176 1885.26 
630.053 776.191 1885.32 
630.061 776.168 1885.33 
630.184 776.102 1885.47 
630.283 775.366 1885.98 
615.688 796.169 1871.22 
615.948 796.249 1870.96 
621.324 645.703 1913.51 
620.625 646.943 1913.1 
620.732 647.293 1912.91 
620.6 647.714 1912.64 
620.062 648.357 1911.67 
618.781 648.287 1910.84 
618.52 648.29 1910.75 
618.597 647.82 1911.13 
618.823 647.899 1911.16 
623.343 640.486 1915.63 
623.77 640.009 1915.74 
623.281 641.976 1915.5 
622.341 643.766 1914.85 
617.844 647.967 1911.12 
617.012 647.949 1911.59 
617.091 649.541 1911.76 
617.616 650.885 1912.04 
618.184 652.567 1911.96 
618.039 652.45 1912.35 
617.923 652.547 1911.96 
617.988 652.493 1912.07 
617.685 653.029 1910.97 
618.066 652.731 1911.59 
617.178 653.095 1910.47 
617.427 653.019 1911 
616.953 652.965 1910.4 
616.668 652.837 1910.24 
612.3 643.095 1912.04 
612.971 642.982 1912.08 
613.75 644.249 1911.89 
612.204 634.458 1910.52 
611.817 641.356 1912.31 
616.497 652.63 1910.35 
616.524 652.376 1910.85 
617.016 652.33 1911.59 
617.237 652.358 1911.71 
616.383 648.485 1911.59 
617.158 645.498 1911.93 
617.525 646.611 1911.69 
617.353 645.492 1912.11 
617.842 647.511 1911.38 
615.568 645.8 1912.59 
617 645.306 1911.99 
617.775 652.551 1912.23 
617.504 652.535 1912.11 
609.568 667.469 1906.44 
609.678 665.961 1907.14 
610.313 664.49 1907.23 
611.132 664.623 1906.61 
610.196 666.593 1905.64 
611.199 665.363 1906.05 
620.503 757.464 1884.59 
620.295 756.627 1884.81 
620.521 756.214 1885.45 
620.663 757.025 1885.69 
624.06 768.443 1884.68 
624.626 764.931 1884.44 
623.595 770.844 1885.31 
623.904 769.688 1884.91 
631.257 762.322 1884.66 
632.998 762.083 1886.01 
624.97 763.908 1885.16 
627.966 765.674 1885.83 
630.114 767.827 1886.59 
629.948 767.315 1886.67 
629.455 766.022 1885.2 
630.497 767.4 1886.74 
628.293 764.939 1885.59 
630.356 766.751 1884.56 
630.869 766.384 1884.7 
641.95 759.947 1891.26 
639.275 760.997 1890.08 
707.803 893.822 1866.4 
704.548 892.749 1866.59 
703.93 892.174 1865.94 
703.397 892.027 1865.53 
711.951 894.668 1866.18 
714.17 895.718 1869.05 
717.373 897.477 1873.55 
719.771 895.361 1876.09 
722.029 895.492 1876.92 
721.833 896.348 1878.2 
721.784 897.129 1879.28 
718.349 898.153 1880.64 
716.037 899.43 1880.68 
715.432 899.352 1879.04 
722.644 899.015 1876.14 
722.962 898.728 1875.1 
696.511 896.617 1864.47 
715.281 893.196 1862.71 
716.512 893.428 1861.86 
714.866 893.689 1863.72 
707.772 893.454 1865.55 
711.421 894.176 1865.06 
713.193 894.162 1864.62 
714.265 894.169 1865.23 
753.908 822.028 1897.82 
759.111 827.912 1898.8 
755.925 819.605 1898.92 
756.162 816.438 1900.36 
743.657 819.857 1898.97 
743.631 819.766 1899.14 
743.318 819.742 1899.08 
744.815 819.892 1899.57 
744.437 819.336 1900.59 
747.071 819.266 1899.46 
745.052 819.272 1900.42 
750.216 815.406 1902.19 
751.907 814.866 1902.27 
716.676 894.244 1864.44 
733.159 896.616 1872.26 
734.013 896.878 1872.16 
734.812 896.924 1872.38 
733.243 898.935 1873.74 
733.678 898.276 1873.5 
732.862 898.126 1873.34 
730.566 897.676 1873.4 
730.878 897.834 1873.43 
731.522 897.948 1873.42 
729.955 897.361 1873.2 
729.917 897.516 1873.35 
729.983 897.606 1873.51 
730.903 896.726 1873.35 
732.939 898.971 1873.79 
726.861 894.573 1874.85 
729.098 896.13 1873.14 
724.284 897.316 1872.89 
727.503 897.2 1873.52 
729.054 896.958 1873.41 
720.974 896.29 1872.15 
716.151 894.94 1867.34 
717.359 896.117 1870.58 
761.746 823.734 1899.4 
648.224 821.543 1885.1 
648.297 821.618 1885.14 
648.508 821.696 1885.38 
648.59 821.775 1885.42 
648.621 821.742 1885.47 
647.356 821.182 1884.06 
616.265 796.607 1870.75 
687.958 810.343 1899.84 
688.804 809.113 1901.55 
698.417 807.647 1902.86 
704.976 805.764 1904.44 
706.74 804.85 1905.26 
707.326 804.765 1905.69 
707.334 802.848 1905.09 
708.895 799.569 1904.51 
708.868 800.927 1904.6 
710.329 797.064 1905.41 
712.098 796.348 1906.58 
712.852 797.416 1906.83 
711.331 798.65 1905.91 
665.657 810.589 1893.08 
663.539 809.441 1892.17 
665.414 812.947 1895.53 
660.686 805.509 1887.53 
662.141 807.457 1889.38 
662.176 807.82 1890.01 
662.143 808.214 1890.57 
662.514 805.306 1887.92 
662.31 804.745 1887.48 
663.306 806.041 1888.62 
662.996 807.013 1889.16 
661.477 807.357 1888.72 
663.124 805.177 1887.92 
662.155 808.653 1891.23 
657.609 810.11 1890.9 
657.692 810.26 1890.99 
657.477 809.96 1890.84 
657.213 809.566 1890.55 
657.342 809.724 1890.7 
657.307 809.826 1890.82 
658.069 807.315 1887.63 
658.512 807.032 1887.53 
658.956 806.767 1887.38 
657.365 808.615 1889.05 
657.081 809.315 1890.14 
657.077 809.401 1890.3 
658.026 810.952 1891.48 
657.879 810.58 1891.18 
657.933 811.089 1891.59 
657.718 810.403 1891.11 
657.802 811.148 1891.59 
657.704 811.225 1891.59 
657.617 811.314 1891.62 
658.102 811.357 1891.64 
660.38 811.701 1892.33 
658.987 810.525 1891.45 
659.351 810.284 1891.46 
660.053 810.191 1891.61 
661.684 810.171 1892.04 
660.361 809.757 1891.42 
664.492 810.473 1892.78 
663.479 810.37 1892.51 
661.659 809.563 1891.76 
657.519 811.397 1891.59 
657.474 811.411 1891.52 
657.552 811.34 1891.52 
657.728 811.199 1891.53 
657.599 811.303 1891.57 
657.806 811.133 1891.53 
694.719 811.473 1899.16 
689.883 813.49 1897.18 
691.395 813.236 1897.72 
691.411 813.36 1898.48 
697.075 812.018 1898.38 
690.876 810.391 1899.74 
694.942 809.802 1900.47 
688.534 812.512 1895.18 
689.777 813.143 1896.21 
648.68 821.839 1885.49 
648.427 821.762 1885.21 
648.325 821.674 1885.13 
654.707 806.394 1891.44 
655.322 806.554 1892.13 
627.091 777.801 1883.91 
625.844 779.098 1884.96 
626.14 779.069 1884.68 
626.28 779.113 1884.54 
625.946 778.995 1884.89 
626.074 778.829 1884.78 
625.621 779.037 1885.23 
625.669 778.955 1885.17 
625.568 779.096 1885.29 
625.776 778.941 1885.06 
624.275 771.274 1884.19 
624.204 771.388 1884.2 
624.123 771.505 1884.22 
623.401 772.312 1884.07 
624.409 771.439 1884.31 
624.04 771.563 1884.22 
623.93 771.855 1884.23 
623.934 771.888 1884.25 
624.303 771.946 1884.35 
625.91 774.157 1884.49 
628.026 776.136 1883.25 
629.02 774.173 1884.36 
628.51 774.72 1883.66 
627.982 776.002 1883.14 
626.687 777.688 1884.02 
626.347 778.158 1884.61 
626.074 778.245 1884.84 
627.946 776.469 1883.19 
627.829 776.774 1883.17 
627.761 776.842 1883.25 
626.901 777.566 1883.79 
630.736 773.791 1886.91 
630.557 773.826 1886.87 
630.426 773.876 1886.81 
629.56 774.519 1885.77 
625.606 778.218 1885.58 
625.683 778.27 1885.37 
625.592 778.534 1885.55 
625.581 778.214 1885.69 
625.579 778.947 1885.37 
625.369 779.443 1885.36 
625.82 778.503 1885.03 
625.725 778.546 1885.11 
625.637 778.602 1885.24 
625.735 778.326 1885.21 
625.424 779.11 1885.57 
625.486 779.055 1885.48 
625.426 779.518 1885.42 
625.416 779.404 1885.45 
625.386 779.276 1885.53 
625.383 779.185 1885.6 
625.253 779.713 1885.46 
630.329 774.555 1886.51 
630.372 774.007 1886.86 
630.962 773.778 1886.93 
628.35 775.68 1884.86 
629.278 776.259 1884.92 
629.724 776.179 1885.07 
627.075 774.843 1884.68 
629.831 776.175 1885.16 
629.927 776.201 1885.23 
629.987 776.21 1885.27 
630.068 776.219 1885.33 
630.169 776.243 1885.4 
630.142 776.209 1885.38 
630.239 776.066 1885.54 
630.325 775.174 1886.15 
630.373 774.382 1886.67 
620.591 645.838 1913.45 
620.292 647.25 1912.96 
620.093 646.865 1913.07 
620.171 647.612 1912.72 
619.479 647.864 1911.91 
618.579 647.268 1911.63 
618.053 647.023 1911.66 
619.006 647.502 1912.04 
622.852 639.877 1916.08 
622.876 640.718 1915.6 
623.307 639.508 1916.21 
624.203 639.997 1915.63 
622.723 642.225 1915.73 
622.64 643.045 1915.72 
621.507 644.079 1914.58 
617.899 652.659 1911.7 
617.691 652.582 1911.88 
617.304 652.884 1911.05 
617.663 652.679 1911.61 
617.085 652.713 1911.06 
612.769 642.569 1912.48 
613.76 644.125 1912.26 
615.53 645.585 1912.76 
613.421 637.92 1911.4 
613.333 630.619 1910.73 
615.761 636.93 1911.87 
613.373 639.787 1911.9 
612.148 641.568 1912.85 
616.791 652.544 1911.11 
617.442 652.556 1911.69 
617.371 645.096 1912.29 
618.394 646.204 1912.58 
618.568 646.692 1912.45 
618.977 645.321 1913.16 
616.799 645.108 1912.04 
617.144 644.903 1912.18 
609.641 667.023 1906.61 
610.403 664.859 1907.04 
610.469 665.164 1906.89 
610.229 666.58 1905.84 
611.087 665.303 1906.09 
624.761 768.212 1884.59 
625.464 766.184 1884.65 
624.104 770.163 1884.94 
623.832 771.015 1885.28 
625.769 769.737 1884.59 
635.05 762.882 1888.08 
633.103 767.301 1886.73 
628.019 766.194 1885.72 
629.856 768.082 1886.33 
630.941 768.933 1886.61 
630.965 768.097 1886.74 
631.523 768.601 1886.8 
630.584 767.114 1886.66 
629.227 766.192 1884.91 
629.613 767.291 1884.3 
630.641 767.839 1885.25 
631.1 767.754 1885.71 
628.822 765.256 1885.54 
631.551 766.405 1885 
631.3 767.05 1884.98 
643.754 758.701 1892.33 
642.513 762.21 1892.21 
643.182 762.245 1892.75 
638.323 762.968 1891.03 
640.678 762.301 1891.78 
713.607 894.173 1865.88 
715.028 895.496 1868.45 
717.963 897.12 1872.69 
722.851 898.298 1874.31 
727.581 895.66 1875.55 
727.888 896.603 1876.4 
727.636 897.365 1877.43 
722.571 898.11 1880.23 
718.079 899.104 1881.19 
723.177 899.279 1876.75 
728.081 899.176 1875.86 
728.386 899.362 1876.24 
728.298 898.903 1875.36 
715.812 895.138 1867.52 
715.644 895.488 1868.26 
764.778 816.166 1899.55 
753.399 813.324 1902.77 
756.588 812.037 1902.3 
760.896 814.404 1900.16 
744.199 819.669 1899.76 
744.057 819.076 1900.99 
741.859 817.918 1902.25 
742.352 818.584 1901.6 
745.687 818.957 1900.4 
747.297 816.863 1901.64 
743.653 817.887 1901.98 
749.558 814.258 1903.26 
745.16 816.181 1902.54 
733.289 899.64 1874.11 
733.569 899.042 1873.85 
733.94 898.426 1873.65 
733.392 898.226 1873.42 
732.998 898.238 1873.34 
732.678 898.214 1873.42 
731.871 898.085 1873.46 
730.735 898.09 1873.75 
730.26 897.953 1873.83 
731.093 897.997 1873.51 
731.071 898.211 1873.67 
729.043 897.358 1873.59 
729.041 897.597 1873.75 
729.094 897.812 1873.98 
730.881 897.055 1873.6 
732.879 899.394 1874.04 
725.913 897.826 1873.57 
718.482 896.609 1871.99 
723.142 897.723 1873.38 
767.614 821.464 1898.86 
689.73 809.068 1901.56 
699.9 807.996 1902.56 
706.604 806.655 1905.07 
708.026 805.858 1905.67 
708.365 805.089 1905.68 
709.76 803.997 1905.44 
709.457 803.325 1905.3 
708.935 802.001 1905.05 
711.344 798.636 1906 
710.35 801.43 1905.17 
710.715 802.376 1905.18 
711.88 799.479 1906.26 
710.079 797.664 1904.63 
713.723 798.192 1906.92 
712.237 801.081 1906.24 
662.243 809.259 1891.76 
665.77 812.924 1895.7 
665.695 813.012 1895.66 
665.42 812.955 1895.52 
665.031 812.687 1895.47 
661.123 805.12 1887.07 
661.39 807.836 1889.44 
661.372 808.28 1890.09 
662.779 804.543 1887.27 
662.536 806.558 1888.46 
661.7 806.264 1887.65 
662.096 805.403 1887.25 
661.716 806.932 1888.19 
660.573 807.264 1887.92 
660.631 807.63 1888.57 
662.549 804.646 1886.91 
661.435 808.719 1890.78 
657.478 810.105 1890.98 
657.57 810.257 1891.06 
657.348 809.958 1890.92 
657.193 809.66 1890.71 
657.013 809.495 1890.5 
657.122 809.698 1890.79 
657.177 809.873 1890.94 
658.342 807.225 1887.3 
657.891 807.51 1887.38 
658.778 806.955 1887.2 
657.24 808.488 1888.77 
656.882 809.246 1890.11 
657.964 810.913 1891.46 
657.926 811.061 1891.57 
657.88 810.7 1891.29 
657.722 810.527 1891.23 
657.565 810.368 1891.17 
658.078 811.133 1891.6 
659.025 810.983 1891.75 
658.034 810.573 1891.14 
657.928 810.278 1890.81 
658.637 810.063 1890.67 
659.145 809.879 1890.78 
659.59 809.632 1890.75 
660.509 809.289 1890.93 
659.783 809.327 1890.44 
660.953 808.975 1890.8 
701.216 809.807 1901.05 
691.912 812.982 1896.9 
689.99 812.765 1895.46 
697.983 812.56 1897.71 
702.304 810.185 1900.69 
690.949 809.228 1901.16 
699.886 808.561 1901.97 
701.382 808.938 1901.89 
690.494 811.764 1894.89 
626.847 778.168 1883.87 
626.411 779.17 1884.24 
626.227 778.876 1884.63 
626.419 779.024 1884.12 
625.946 778.745 1884.91 
625.837 778.712 1885.01 
626.015 778.441 1884.86 
626.353 778.408 1884.53 
625.535 779.001 1885.42 
623.931 771.666 1884.22 
624.676 772.035 1884.42 
625.227 772.593 1884.57 
625.287 772.321 1884.5 
628.476 774.757 1883.41 
627.92 776.217 1883.07 
627.858 776.681 1883.11 
626.369 778.212 1884.57 
626.006 778.328 1884.88 
627.279 777.434 1883.41 
627.091 777.47 1883.57 
626.346 778.229 1884.52 
625.351 778.39 1885.79 
625.419 778.265 1885.84 
625.494 778.368 1885.57 
625.504 778.665 1885.48 
625.436 778.325 1885.88 
625.47 778.74 1885.65 
625.421 779.117 1885.55 
625.92 778.454 1884.94 
625.342 779.106 1885.75 
625.354 779.021 1885.79 
625.423 779.011 1885.65 
625.325 779.423 1885.58 
625.329 779.32 1885.61 
625.314 779.212 1885.73 
625.265 779.49 1885.62 
630.451 773.907 1886.96 
631.204 773.781 1886.94 
627.05 774.153 1884.7 
628.169 774.838 1884.86 
629.341 775.737 1885.03 
629.765 776.176 1885.12 
629.839 776.021 1885.25 
630.009 776.052 1885.37 
629.867 775.483 1885.52 
630.11 776.156 1885.4 
630.187 775.938 1885.56 
