110.058 934.637 319.941
107.252 934.391 318.462
114.535 933.352 316.996
122.377 932.835 313.504
87.4575 937.543 318.747
90.0107 936.813 319.434
92.069 936.495 319.286
108.747 933.59 317.615
110.001 933.9 318.393
110.535 933.619 317.901
106.619 933.274 316.011
106.541 933.166 315.514
106.689 933.523 316.647
107.664 933.632 317.417
111.347 932.782 316.063
113.73 932.506 314.737
111.514 932.244 314.719
112.31 932.086 313.52
115.53 932.166 314.34
116.075 932.873 316.046
117.339 933.172 315.743
121.467 932.253 312.353
124.337 931.189 308.978
124.712 930.255 306.056
67.3585 941.657 312.366
69.0276 940.845 312.224
72.2227 940.306 313.292
84.3437 937.543 315.508
88.346 936.997 318.32
89.6285 935.422 316.793
90.3202 935.425 317.2
91.6444 936.334 318.754
93.6023 935.687 317.532
94.7745 935.368 316.682
95.7007 934.943 315.526
96.6953 934.452 313.701
108.723 932.702 316.173
109.573 932.501 315.954
110.022 932.391 315.736
105.514 933.371 313.081
108.827 932.504 315.709
108.856 932.37 314.933
113.683 931.946 313.395
111.707 931.897 312.704
111.906 931.736 312.186
110.281 932.151 315.227
111.08 932.011 314.164
115.321 931.808 313.581
115.797 930.497 311.959
116.585 932.337 314.532
117.524 932.859 314.883
119.468 932.239 312.826
119.518 930.564 309.423
121.791 930.287 307.172
121.434 929.59 304.777
124.367 929.956 303.314
65.1898 941.316 308.244
66.5608 941.239 310.109
68.7333 940.127 309.211
70.9368 939.167 309.497
70.6203 940.237 311.852
74.8682 939.397 312.844
80.9893 937.562 312.971
82.9564 937.061 313.308
87.6505 936.677 316.933
87.9939 934.639 314.295
87.605 933.697 312.476
87.1426 933.773 312.268
91.1153 935.376 317.177
88.9099 933.961 313.796
90.7196 934.481 315.728
92.257 935.177 316.886
92.868 934.936 316.265
94.7554 934.928 315.492
95.0661 934.542 313.541
96.8251 934.142 311.99
103.189 933.3 311.017
106.617 932.69 310.152
109.316 932.233 315.103
107.837 932.669 313.407
108.663 932.309 311.342
107.382 932.602 310.372
110.006 931.984 313.34
113.733 931.421 312.445
112.188 931.308 311.649
110.875 931.747 312.059
111.36 931.581 311.501
110.644 931.723 311.437
115.012 930.366 311.613
115.21 929.57 310.617
116.62 930.909 312.337
117.731 931.5 312.672
117.204 930.319 311.097
117.624 929.941 309.535
117.737 929.173 307.594
118.179 929.006 306.243
117.049 928.54 304.915
120.952 929.476 302.215
120.573 929.353 299.222
122.899 929.233 298.145
64.4934 941.225 305.625
69.2693 939.244 306.867
69.3678 939.38 307.769
74.5627 937.605 308.799
73.1079 938.58 309.95
76.2064 937.27 309.693
75.6068 938.333 311.299
80.4945 936.965 311.677
77.0221 937.948 311.425
83.2623 936.22 312.425
81.7821 936.536 311.834
85.1436 936.53 314.263
86.8891 935.375 314.225
86.1764 934.07 311.781
85.1147 933.588 310.647
85.4939 932.989 309.794
89.5459 933.989 314.098
87.2093 933.246 310.989
93.0288 934.624 315.54
91.2997 934.335 315.436
93.1431 934.454 315.031
93.0184 934.308 313.752
91.7307 934.014 312.231
94.5947 934.149 311.541
96.7898 933.896 311.312
95.233 934.131 311.445
102.767 933.109 310.543
107.52 931.658 308.469
108.248 931.649 308.779
109.764 931.423 309.653
110.1 931.983 311.832
108.927 932.103 310.605
113.723 930.236 310.85
114.332 930.36 311.295
113.366 930.137 310.328
115.508 929.003 309.139
115.62 929.359 310.347
115.587 928.393 306.498
115.796 928.276 305.652
114.947 928.042 304.516
116.843 928.577 302.648
114.799 928.211 301.411
118.6 929.08 299.038
116.617 928.747 296.06
118.899 928.618 293.692
70.0595 938.718 304.839
67.6967 939.357 301.207
72.3896 937.762 305.435
73.6232 937.629 307.391
78.1002 936.13 308.129
76.5179 936.277 306.009
79.6016 936.077 309.808
80.0481 936.098 310.261
81.2821 935.929 310.537
80.9717 935.34 309.265
82.989 934.525 310.127
82.1955 934.365 309.281
84.8385 934.587 311.574
86.074 935.019 312.823
83.9669 933.482 309.888
84.2274 933.033 309.469
86.0864 932.408 308.391
85.3912 932.111 307.482
84.3407 932.661 308.692
85.1083 931.942 306.903
88.5237 933.237 311.11
90.8395 934.178 315.032
90.4277 934.028 314.221
92.0961 933.804 311.43
89.2353 933.478 311.786
94.4574 933.923 310.937
95.1642 933.76 310.619
97.1066 933.57 310.73
101.594 933.031 310.322
106.643 931.504 308.076
108.732 929.527 304.552
109.846 929.494 304.733
110.811 929.215 304.567
112.627 928.771 305.534
112.668 929.603 307.968
114.631 929.491 310.214
114.475 929.097 308.893
114.216 929.378 309.379
114.973 929.204 309.703
114.901 928.185 305.854
114.478 928.386 306.684
112.438 928.08 302.309
112.663 928.079 301.396
111.738 928.399 297.087
113.861 928.717 293.583
116.286 928.448 292.879
116.759 928.133 290.684
70.6373 938.102 301.393
75.673 936.192 303.762
79.9283 934.697 306.8
80.2485 935.439 308.769
80.4328 934.781 307.687
79.9659 934.485 305.985
81.9778 934.126 308.619
83.6945 933.241 309.338
83.922 932.94 308.884
87.2521 932.149 307.626
87.4853 931.529 305.853
86.1291 931.444 306.07
84.1611 932.458 307.719
85.1909 931.613 305.895
85.7181 931.416 305.732
88.6046 932.236 307.583
89.6967 932.784 309.814
89.1295 932.305 308.065
89.702 933.013 310.491
92.0907 933.586 310.891
94.2588 933.687 310.438
95.1589 933.502 310.152
97.5113 933.231 310.209
102.876 931.904 308.662
104.89 930.027 305.875
105.978 929.293 304.346
106.115 928.832 303.143
110.085 928.594 302.545
112.735 928.313 304.257
112.259 928.196 303.079
108.812 928.171 300.556
109.024 928.121 299.675
104.893 928.406 297.048
109.231 928.725 291.215
111.043 929.009 287.948
114.919 928.515 290.018
115.118 928.407 292.085
75.3351 935.821 297.625
78.7325 934.735 301.055
80.4376 934.182 305.367
82.0726 933.756 307.872
82.4661 933.281 306.935
87.405 931.253 304.82
88.5668 931.82 306.347
88.7561 931.478 305.247
87.2293 931.189 304.337
83.2969 933.113 308.569
83.8795 932.46 306.917
84.4047 931.941 305.804
86.8484 931.204 303.971
90.2535 932.753 310.026
90.353 932.517 309.437
89.6167 932.261 308.27
89.1267 931.548 305.798
90.7311 932.927 310.266
92.4364 933.363 310.342
94.4011 933.369 309.92
95.1962 933.175 309.63
97.1487 932.531 309.281
99.7946 931.571 308.877
100.888 931.521 308.704
100.864 930.557 307.38
100.447 930.167 306.876
102.657 929.685 305.455
102.622 929.427 304.822
108.067 928.375 301.478
101.589 929.187 303.533
110.677 928.455 302.375
102.648 928.4 300.091
102.974 928.301 299.169
95.4862 929.223 299.775
99.5872 929.04 295.768
105.28 928.706 292.315
106.888 928.994 288.188
78.1543 934.549 294.371
82.2191 933.378 299.091
81.2023 933.879 303.325
82.9919 932.799 305.587
89.1159 931.143 304.064
89.2933 930.835 302.68
85.3182 931.473 305.368
85.9519 931.782 301.448
86.7071 931.261 303.174
91.0369 930.105 301.756
90.9041 932.639 309.82
89.2361 931.728 306.48
90.6053 931.266 307.086
91.1309 931.675 308.427
89.5844 931.258 305.071
92.6427 933.115 309.947
94.935 932.465 308.859
95.4458 932.523 308.897
95.7022 931.778 308.067
96.1251 931.494 307.739
97.7976 931.062 308.008
98.554 931.53 308.591
98.9451 930.592 307.936
99.4378 930.396 307.708
100.339 929.895 306.388
100.147 929.746 305.85
98.4771 929.499 303.447
98.8662 929.871 306.622
96.7006 929.116 300.552
94.8724 929.283 300.926
94.956 929.638 297.719
90.5173 930.391 299.993
94.8794 930.643 290.333
97.7579 930.243 289.156
103.821 929.219 289.584
98.6732 930.563 284.854
82.3273 933.35 293.084
84.744 932.627 295.281
84.631 932.19 303.08
83.3138 932.653 304.432
91.1111 930.152 302.828
92.4644 929.632 303.423
92.4456 929.587 302.27
91.9474 930.57 306.873
92.1633 930.729 307.357
90.5558 931.064 306.346
92.011 930.093 305.199
91.0093 930.441 304.319
91.7823 931.867 308.929
93.4549 932.262 308.982
95.3091 931.303 307.511
93.9808 931.306 307.921
96.0823 931.097 307.084
99.2644 930.015 307.199
97.9687 930.004 305.648
95.9798 929.795 302.899
96.4295 930.371 305.46
98.6868 930.025 307.119
94.0386 929.505 302.262
90.0069 931.22 294.68
91.8217 931.651 286.421
86.4133 932.462 289.873
92.7127 931.013 307.939
92.4612 930.411 306.709
92.5237 930.094 305.693
92.8672 930.759 307.466
92.6341 929.7 304.359
94.107 930.983 307.376
95.329 931.039 306.999
97.585 930.598 307.25
96.3773 930.756 306.454
95.7956 930.438 305.492
95.7353 930.188 304.595
94.4238 929.733 303.57
97.6179 930.228 306.352
93.011 930.456 306.823
94.1634 930.678 306.777
95.4068 930.771 306.426
94.3813 930.202 305.343
