323.998 1403.83 2051.94
323.088 1405.94 2050.24
323.008 1408.49 2048.03
323.109 1404.97 2051.36
322.008 1404.3 2052.25
321.876 1406 2050.22
323.8 1401.31 2044.39
324.851 1401.61 2047.37
324.15 1404.65 2050.57
322.644 1409.05 2047.89
322.519 1409.88 2047.56
322.563 1412.43 2045.48
322.421 1412.04 2045.19
318.177 1402.43 2049.98
315.246 1402.18 2045.14
305.347 1402.7 2033.86
303.707 1403.26 2031.58
321.362 1406.59 2049.32
321.051 1406.19 2049.45
320.713 1404.16 2051.52
322.209 1401.48 2041.6
319.807 1401.4 2037.06
322.21 1401.77 2042.03
324.66 1403.85 2049.92
324.61 1403.75 2049.25
324.434 1404.34 2050.08
324.145 1404.94 2050.1
322.929 1409.27 2047.11
322.707 1413.09 2045.65
322.971 1415.65 2044.77
322.69 1415.93 2043.99
322.49 1410.99 2045.61
322.322 1415.54 2043.49
321.949 1415.2 2043.01
321.915 1413.06 2043.55
321.547 1414.82 2042.55
319.967 1403.67 2051.17
318.006 1402.74 2049.05
315.317 1402.38 2044.55
314.464 1402.48 2043.09
305.923 1402.78 2034.01
304.676 1403.16 2032.09
299.398 1403.65 2030.4
302.148 1404.21 2028.91
322.633 1411.56 2046.73
322.29 1410.77 2046.89
320.349 1405.78 2049.1
322.941 1416.98 2043.9
318.731 1401.87 2036.38
323.744 1402.08 2045.56
324.517 1402.61 2047.75
320.982 1402.21 2039.99
324.433 1403.8 2048.39
322.988 1407.82 2046.75
323.065 1407.31 2046.68
322.942 1408.69 2046.87
322.419 1417.51 2042.74
322.065 1416.94 2042.44
322.162 1411.16 2044.7
321.582 1416.82 2041.7
321.219 1416.08 2041.47
321.094 1414.29 2042.05
320.855 1415.54 2041.13
319.864 1405.61 2048.59
317.9 1403.2 2048.07
315.402 1402.76 2044.01
314.523 1402.8 2042.71
312.487 1403.27 2040.83
305.888 1402.98 2033.37
304.618 1403.73 2030.93
302.986 1404.31 2028.94
300.082 1404.31 2028.9
294.635 1403.62 2030.93
301.79 1406.11 2025.55
321.914 1410.67 2046.55
322.796 1418.98 2042.6
335.089 1397.22 2010.9
335.037 1397.52 2007.84
331.152 1398.54 2012.77
325.632 1400.55 2014.2
317.831 1403.21 2023.01
314.841 1403.37 2025.78
315.69 1404.05 2023.66
314.415 1403.45 2026.28
314.167 1403.53 2026.87
314.8 1402.91 2031.19
314.223 1403.39 2029.54
314.029 1403.66 2027.48
322.959 1402.59 2044.17
324.007 1403.46 2046.66
324.1 1404.34 2047.38
320.342 1402.81 2039.2
318.02 1402.43 2035.83
315.491 1402.77 2032.63
322.311 1408.43 2044.79
321.939 1410.95 2044.16
321.611 1410.94 2043.4
321.807 1418.07 2041.42
320.996 1413.45 2042.1
321.214 1416.92 2040.98
321.492 1417.87 2040.94
320.924 1416.45 2040.7
320.498 1414.65 2041
322.323 1419.9 2041.32
317.872 1404.01 2046.93
321.133 1410.12 2045.73
318.59 1406.74 2044.66
315.51 1403.53 2043.18
314.619 1403.18 2042.32
312.683 1403.72 2040.39
306.448 1403.29 2033.3
305.228 1404 2031
302.843 1406.09 2026.02
302.29 1406.1 2025.67
299.428 1405.96 2026.4
293.871 1405.89 2027.68
291.821 1403.69 2030.79
289.334 1403.56 2030.31
301.764 1407.75 2022.83
301.28 1407.81 2022.69
300.728 1407.75 2022.99
322.815 1419.65 2042.28
322.832 1420.46 2041.9
287.269 1403.6 2029.16
335.242 1397.31 2006.44
332.714 1398.92 2008.7
332.353 1399 2009.52
332.571 1399.05 2008.21
331.692 1399.17 2010.09
328.591 1400 2011.65
323.851 1401.49 2013.44
326.179 1401.16 2011.4
324.261 1401.48 2012.51
322.655 1402.02 2013.87
320.731 1402.79 2016.34
318.436 1403.75 2019
317.195 1404 2021.98
314.032 1405.41 2022.92
314.963 1405.44 2021.91
313.576 1405.8 2022.85
314.183 1403.75 2029.96
313.898 1404.05 2027.99
312.999 1406.67 2022.91
322.436 1403.49 2043.4
323.014 1405.14 2045.14
321.848 1408.52 2043.67
317.562 1403.38 2035.44
317.644 1402.81 2035.47
320.323 1404.38 2039.4
315.392 1403.25 2032.74
320.098 1412.23 2041.14
320.38 1413.49 2041.29
322.028 1419.27 2041.13
321.932 1419.8 2040.62
321.376 1418.51 2040.32
320.237 1414.4 2040.62
320.576 1415.35 2040.7
322.696 1421.27 2041.23
316.029 1405.89 2041.31
319.996 1410.27 2042.96
317.645 1410.22 2038.78
314.869 1403.96 2041.78
313.017 1404.32 2039.98
310.634 1404.09 2038.54
308.59 1403.41 2036.33
306.361 1403.98 2032.1
303.43 1406.26 2026.35
302.811 1407.85 2023.31
302.277 1407.74 2022.99
297.298 1408.01 2023.7
293.926 1408.04 2024.64
291.947 1406.31 2027.25
292.055 1408.47 2024.3
290.855 1406.15 2027.32
289.901 1406.06 2027.13
301.832 1408.48 2021.01
301.424 1408.54 2020.69
300.624 1408.34 2021.5
295.743 1408.76 2022.72
322.588 1420.78 2041.41
286.48 1403.94 2027.78
285.269 1403.69 2026.77
289.16 1406.16 2026.61
334.538 1397.04 2004.15
333.508 1398.11 2006.43
332.379 1399.14 2007.71
330.054 1400.44 2008.49
329.517 1400.49 2009.24
330.727 1400.2 2008
322.735 1401.95 2010.99
327.684 1401.17 2009.33
325.583 1401.47 2010.78
323.397 1401.77 2010.51
321.831 1402.45 2011.25
318.791 1404.72 2013.02
318.866 1404.58 2013.78
316.539 1405.98 2017.17
314.588 1407.18 2019.01
316.214 1405.91 2019.04
313.095 1408.3 2018.55
312.433 1409.06 2018.14
314.592 1403.9 2031.36
313.931 1404.95 2029.47
313.6 1405.19 2027.49
312.863 1407.15 2023.09
312.207 1409.4 2018.6
320.769 1409.4 2041.52
320.559 1410.61 2041.43
319.717 1412.72 2040.5
317.3 1404.13 2035.15
315.099 1404.78 2032.42
315.283 1403.86 2032.69
320.17 1409.94 2040.37
319.131 1410.25 2038.21
317.036 1405.61 2034.94
319.944 1413.62 2040.53
321.115 1417.99 2040.13
322.041 1420.97 2040.12
321.95 1420.27 2040.37
320.095 1414.67 2040.16
320.759 1417.11 2039.97
322.684 1421.72 2040.95
316.497 1410.06 2037.22
315.637 1407.51 2038.8
320.19 1412.82 2041.21
322.355 1418.63 2042.05
318.428 1413.49 2037.12
316.871 1413.48 2035.01
313.59 1406.86 2037.9
310.879 1404.87 2037.89
308.757 1403.83 2035.89
306.503 1404.85 2031.25
304.013 1406.59 2026.61
303.212 1408.09 2023.57
302.754 1408.53 2021.87
302.301 1408.37 2021.62
292.787 1409.01 2023.32
291.915 1409.06 2023.25
290.879 1408.49 2024.15
290.369 1408.41 2024.03
301.493 1409.47 2017.93
300.992 1409.19 2018.22
300.672 1409.03 2018.65
300.29 1408.88 2019.37
299.404 1408.76 2020.64
296.478 1408.88 2022.05
292.886 1409.42 2022.41
322.608 1422.11 2040.56
288.732 1406.38 2025.9
288.357 1406.6 2025
285.429 1404.5 2024.02
283.986 1403.35 2024.43
330.693 1397.67 2002.4
332.306 1398.17 2005.3
331.924 1399.14 2006.91
330.336 1400.25 2007.36
328.679 1400.9 2008.34
327.247 1401.35 2008.97
328.952 1400.78 2007.79
322.762 1402.01 2008.55
321.267 1402.59 2008.57
325.071 1401.61 2009.89
325.22 1401.62 2008.75
320.616 1403.06 2010.27
319.777 1404.04 2011.64
317.499 1405.68 2012.49
316.662 1406.05 2015.2
315.379 1407.22 2015.35
315.907 1406.73 2016.24
313.787 1408.39 2017.3
314.762 1407.84 2016.53
312.899 1408.78 2017.76
312.286 1409.32 2016.85
314.396 1404.87 2030.97
313.365 1407.47 2028.16
312.871 1408.34 2024.84
312.325 1409.19 2021.23
311.75 1410.38 2017.95
319.419 1412.94 2039.71
319.754 1413.77 2040.05
314.459 1408.07 2031.51
313.779 1407.84 2030.15
318.703 1412.82 2037.69
316.747 1409.44 2034.68
317.82 1413.06 2035.24
322.58 1422.92 2040.14
320.307 1415.87 2039.84
321.473 1419.58 2039.86
315.703 1412.35 2034.5
313.645 1410.51 2034.58
320.52 1416.56 2039.58
321.173 1421.92 2037.99
317.445 1416.9 2033.55
314.947 1416.72 2031.02
315.462 1419.33 2030.37
314.615 1414.63 2031.91
311.189 1407.15 2035.85
308.976 1404.43 2035.4
309.169 1405.75 2034.23
305.104 1407.42 2027.12
303.704 1408.6 2023.81
303.088 1408.98 2021.68
302.147 1409.55 2018.51
302.506 1410.14 2017.67
292.029 1409.39 2022.56
290.939 1408.96 2023.23
290.378 1408.85 2023.07
301.441 1410.07 2016.11
300.57 1409.51 2016.48
300.042 1409.24 2016.94
299.688 1409.06 2017.71
299.205 1409 2018.64
297.984 1408.98 2020.28
294.611 1409.35 2021.69
294.9 1409.35 2021.25
292.844 1409.64 2021.82
288.264 1406.86 2024.21
288.093 1406.99 2023.15
284.511 1404.46 2021.93
284.129 1404.26 2020.08
284.437 1404.81 2017.87
278.787 1402.28 2011.75
327.416 1399.1 2003.39
331.361 1399.18 2006.31
330.345 1399.22 2005.39
330.103 1400.16 2006.9
329.492 1400.52 2007.29
327.276 1401.29 2008.27
326.033 1401.25 2007.27
325.35 1401.52 2007.94
322.485 1401.86 2007.02
319.034 1403.05 2006.82
319.843 1403.41 2009.48
319.248 1404.27 2010.81
313.821 1408.27 2014.92
314.954 1407.51 2014.84
316.143 1406.41 2013.77
313.509 1408.7 2016.5
313.341 1408.8 2015.95
312.598 1409.06 2017.3
311.547 1410.14 2016.22
312.19 1413.22 2025.72
311.876 1412.06 2021.48
311.405 1411.72 2018.11
311.31 1410.83 2016.47
319.32 1414.68 2038.06
320.004 1415.26 2039.58
315.032 1414.56 2031.4
313.645 1414.12 2029.24
318.544 1414.82 2035.83
315.767 1412.82 2032.88
317.033 1414.43 2033.94
316.339 1413.69 2033.25
322.448 1423.76 2039.32
322.181 1422.21 2039.65
320.618 1417.89 2039.05
321.308 1420.07 2039.14
322.06 1423.05 2039.16
322.342 1423.29 2039.52
312.019 1412.56 2031.82
318.975 1422.51 2033.28
317.783 1423.25 2031.22
312.076 1417.78 2027.24
311.464 1414.69 2029.1
312.819 1420.01 2027.3
309.346 1408.52 2031.7
306.741 1410.85 2026.27
304.425 1409.59 2023.94
303.542 1409.5 2022.04
302.981 1410.39 2018.04
302.398 1410.8 2015.71
303.044 1411.21 2015.88
292.081 1409.58 2021.82
291.238 1409.26 2022.47
290.361 1408.99 2022.38
300.871 1409.93 2015.28
299.965 1409.4 2015.73
299.195 1409.11 2016.45
298.519 1409 2017.35
297.534 1409.05 2018.89
296.992 1409.07 2020.01
292.728 1409.74 2021.08
289.726 1408.56 2023.06
289.761 1408.74 2022.27
288.341 1407.52 2021.99
287.272 1406.72 2021.18
288.386 1407.67 2020.58
284.938 1405.02 2017.41
288.351 1407.61 2019.62
283.367 1403.61 2011.53
282.764 1403.71 2008.77
279.524 1403.02 2006.75
276.265 1401.36 2011.62
322.258 1400.69 2003.07
328.271 1399.81 2005.25
327.411 1400.68 2006.51
329.531 1400.25 2006.63
322.878 1401.46 2005.55
318.624 1401.46 2001.58
314.771 1405.11 2008.26
316.591 1405.2 2010.13
315.203 1404.39 2005.92
319.07 1403.69 2009.15
318.672 1404.47 2010.41
316.656 1405.92 2011.82
313.631 1408.26 2014.44
312.091 1409.46 2016.18
312.242 1409.27 2015.43
310.712 1409.92 2014.06
312.996 1419.18 2025.38
310.605 1422.05 2019.31
310.902 1416.87 2018.92
309.962 1413.09 2013.61
310.388 1410.84 2013.99
319.722 1416.86 2037.32
317.434 1420.68 2031.95
317.541 1419.92 2032.72
318.024 1423.76 2031.15
318.589 1415.77 2035.63
317.551 1416.14 2034.3
317.693 1419.49 2033.38
322.094 1423.5 2038.93
322.281 1424.2 2038.88
321.801 1422.18 2038.81
321.798 1423.19 2038.39
320.45 1419.72 2037.32
319.604 1417.9 2036.55
321.352 1423.49 2037.55
318.718 1424.62 2031.79
321.144 1422.79 2037.43
320.141 1424.13 2034.55
317.116 1425.2 2030.13
313.657 1423.93 2026.21
312.131 1422.27 2024.9
309.943 1422.24 2021.36
308.597 1416.61 2023.93
305.609 1411.86 2023.78
304.196 1410.54 2022.21
303.386 1410.18 2019.8
303.347 1411.19 2016.67
302.43 1410.99 2015.01
303.282 1411.57 2015.04
292.012 1409.63 2021.17
291.26 1409.41 2021.57
290.731 1409.21 2021.31
301.114 1410.12 2014.6
300.093 1409.53 2014.85
299.269 1409.09 2015.03
297.884 1408.76 2015.47
296.805 1408.64 2016.74
296.964 1408.95 2018.29
296.282 1408.97 2018.9
296.291 1409.1 2019.71
294.684 1409.45 2020.37
293.305 1409.71 2021.3
292.765 1409.74 2020.53
292.228 1409.68 2020.58
289.804 1408.79 2021.38
288.008 1407.17 2018.45
285.962 1405.32 2016.57
284.741 1404.71 2016.13
290.24 1408.95 2020.5
283.988 1403.94 2013.56
284.336 1403.9 2012.2
286.254 1404.55 2012.03
289.053 1405.24 2009
286.391 1404.55 2009.18
286.514 1404.74 2006.92
282.482 1403.93 2006.27
281.268 1404.16 2004.31
280.855 1404.12 2003.72
279.229 1403.07 2004.84
275.882 1400.9 2007.47
316.057 1403.3 2002.49
313.732 1403.07 1999.66
312.935 1407.67 2012.49
312.269 1407.02 2010.29
313.905 1405.01 2003.73
313.936 1405.18 2006.33
312.464 1406.5 2009.13
311.798 1408.79 2013.93
311.063 1409.45 2014.11
310.326 1408.95 2011.93
309.87 1409.18 2011.75
311.159 1422.45 2020.57
315.845 1424.24 2027.75
310.372 1422.64 2018.41
310.357 1424.2 2018.28
310.203 1417.81 2017
309.186 1412.03 2010.66
308.873 1416.5 2011.95
318.384 1417.7 2035.04
318.723 1421.05 2034.35
321.51 1423.98 2037.6
320.901 1424.35 2036.05
321.801 1424.43 2037.99
320.901 1421.15 2037.61
320.686 1422.35 2036.98
319.861 1420.55 2036.34
319.152 1419.03 2035.75
320.425 1423.96 2035.2
311.408 1424.97 2023.59
311.176 1424.67 2021.65
310.484 1424.57 2020.27
309.587 1423.99 2019.78
307.87 1418.4 2021.68
305.554 1413.77 2021.64
303.906 1411.2 2019.62
303.793 1411.91 2016.46
302.775 1411.26 2014.39
303.744 1412.09 2014.53
303.39 1411.7 2014.17
304.14 1412.67 2015.06
291.482 1409.49 2020.75
291.07 1409.32 2020.34
301.824 1410.52 2013.88
300.414 1409.48 2013.87
299.655 1409 2013.1
298.52 1407.88 2009.45
295.396 1407.54 2012.17
295.753 1408.52 2017.13
293.923 1407.7 2014.77
295.629 1409.02 2019.02
295.33 1408.68 2017.84
294.572 1409.4 2019.84
292.861 1409.69 2020.02
291.912 1409.56 2020.07
289.461 1408.09 2018.52
290.644 1409.03 2019.64
287.827 1406.29 2016.08
288.283 1405.66 2013.74
287.962 1405.33 2013.09
288.869 1405.34 2011.12
285.325 1404.31 2012.64
291.371 1406.2 2010.92
294.031 1406.53 2008.58
293.78 1406.59 2005.44
290.332 1405.78 2005.74
286.329 1404.83 2005.99
290.744 1406.18 2002.06
284.497 1404.74 2005.62
282.811 1404.37 2005.09
283.155 1405.81 2002.29
282.789 1405.78 2001.84
282.272 1405.5 2001.31
281.048 1404.36 2002.53
277.035 1401.66 2002.94
313.275 1399.78 1991.84
312.506 1399.13 1988.81
311.432 1398.87 1987.3
313.075 1405.37 2003.19
312.775 1405.82 2003.74
311.133 1404.59 2000.16
312.338 1404.96 2002
311.122 1408.23 2011.82
312.814 1406.01 2004.35
313.397 1405.54 2004.55
313.17 1405.72 2006.48
311.709 1407.15 2009.54
310.688 1408.34 2010.81
310.281 1408.83 2011.1
309.746 1409.32 2010.88
309.616 1409.52 2011.34
310.877 1423.16 2020.06
315.809 1425.04 2027.97
309.729 1417.64 2015.71
310.363 1419.56 2017.69
309.485 1411.06 2009.53
308.354 1414.17 2008.03
308.283 1415.31 2009.15
308.9 1417.38 2012.58
317.157 1425.69 2030.25
320.188 1423.59 2035.46
320.669 1424.11 2035.64
321.527 1424.89 2037.24
321.166 1424.55 2036.56
317.909 1425.13 2030.98
314.196 1427.25 2027.56
311.179 1426.61 2024.06
310.79 1425.54 2020.51
310.81 1425.46 2021.75
310.22 1426.62 2021.77
310.63 1426 2022.65
310.299 1425.56 2019.47
308.871 1424.49 2019.03
308.518 1422.82 2019.68
307.973 1423.72 2018.83
308.374 1423.97 2019.03
308.3 1421.43 2020.14
308.023 1424.26 2018.71
307.954 1419.62 2020.76
305.972 1415.74 2020.1
305.179 1414.73 2018.24
305.106 1415.09 2016.19
303.304 1411.54 2013.5
304.062 1412.44 2014
303.709 1411.92 2013.62
305.254 1415.33 2014.88
304.573 1413.3 2014.17
291.501 1409.39 2019.66
302.751 1411 2013.15
301.755 1410.09 2012.48
301.093 1409.36 2011.5
300.415 1408.47 2009.17
301.62 1409.12 2009.82
301.724 1408.46 2007.44
298.917 1407.68 2007.79
291.355 1406.56 2012.81
294.275 1408.12 2016.03
293.052 1407.73 2015.27
291.417 1407.23 2014.81
294.392 1409.25 2019.22
294.012 1409.03 2018.33
293.466 1408.8 2017.51
293.27 1409.62 2019.71
292.876 1409.56 2019.3
292.019 1409.38 2019.06
289.501 1407.65 2017.23
291.104 1409.06 2018.94
289.821 1406.74 2014.74
298.634 1407.57 2007.19
298.572 1407.63 2006.28
295.71 1407.01 2003.92
295.491 1406.85 2001.94
292.917 1406.55 2001.28
289.415 1405.96 2002.34
286.492 1405.03 2005.27
290.159 1406.38 2000.51
285.498 1405.01 2005.12
284.32 1405.88 2003.2
284.926 1405.97 2003.36
283.674 1405.83 2002.78
283.836 1406.86 2000.58
284.197 1406.91 2001.01
280.413 1403.57 2000.63
280.811 1403.95 2000.61
279.979 1403.31 2000.78
278.886 1402.65 2000.68
277.405 1401.63 1999.43
312.798 1399.43 1989.76
312.841 1400.06 1992.17
311.86 1399.33 1988.61
311.14 1399.06 1987.73
309.381 1399.22 1987.25
307.916 1399.43 1987.49
305.155 1399.83 1987.32
311.927 1401.14 1994.19
312.251 1406.17 2003.55
311.826 1405.57 2002.51
312.053 1406.72 2004.13
310.606 1404.7 1999.67
310.671 1402.74 1995.77
310.731 1405.57 2001.66
312.625 1406.4 2005.16
311.646 1407.66 2005
312.272 1406.55 2007.18
310.495 1408.32 2010.03
310.921 1408.2 2007.85
310.195 1409.45 2008.57
311.956 1424.12 2022.56
315.884 1425.88 2028.45
310.25 1422.66 2017.89
310.197 1425.06 2018.06
309.469 1417.9 2015.04
310.043 1418.91 2016.84
309.512 1411.49 2006.51
308.358 1414.3 2006.44
308.278 1415.08 2008.57
308.554 1417.23 2011.33
318.32 1425.09 2031.41
315.166 1426.75 2028.47
316.053 1426.21 2029.27
311.915 1428.35 2025.43
309.628 1427.94 2022.31
310.28 1426.25 2019.16
310.435 1426.14 2020.41
310.115 1426.71 2020.28
309.699 1427.6 2021.07
310.04 1426.01 2018.07
307.904 1420.3 2020.21
308.027 1424.26 2017.97
307.54 1419.41 2019.7
306.437 1417.49 2018.2
306.119 1417.64 2014.74
304.006 1411.31 2011.71
304.755 1412.58 2012.19
304.397 1411.85 2011.83
305.948 1416.42 2013.11
306.122 1417.55 2014.21
305.294 1413.77 2012.15
291.674 1409.12 2018.44
303.513 1410.78 2011.59
303.085 1410.41 2011.44
302.573 1409.9 2010.77
302.466 1408.91 2008.16
302.554 1408.81 2007.28
301.97 1408.51 2006.68
301.4 1408.31 2006.98
292.926 1408.63 2017.07
292.341 1408.45 2016.84
291.666 1408.28 2016.89
290.88 1408.22 2017.34
292.562 1409.38 2018.73
292.194 1409.21 2018.36
291.055 1408.87 2018.38
301.525 1408.38 2006.25
300.384 1408.5 2004.44
301.534 1408.49 2005.47
298.358 1408.08 2004.23
296.233 1407.19 2003.21
296.574 1407.22 2002.14
296.749 1406.94 2000.37
296.003 1406.72 1999.97
294.544 1406.61 2000.32
291.395 1406.49 1999.35
290.031 1406.48 1999.61
288.953 1406.14 2001.86
289.269 1406.43 2000.6
287.584 1405.58 2003.83
289.09 1406.47 1999.93
285.622 1406 2003.32
285.152 1406.9 2001.48
284.22 1407.09 2000.32
283.481 1406.81 1999.72
283.218 1406.71 1998.97
282.7 1406.34 1999.01
281.87 1405.28 2000.64
279.748 1403.15 1998.72
280.503 1403.81 1998.88
280.791 1404.06 1999.71
280.554 1404.33 1999.3
278.194 1401.72 1998.19
311.984 1399.81 1989.33
312.314 1399.99 1989.9
312.774 1399.62 1990.42
312.342 1400.44 1992.34
311.299 1399.71 1988.62
310.845 1399.36 1988.02
309.778 1399.36 1987.6
307.62 1399.85 1988.55
306.069 1400.34 1989.47
304.005 1401.11 1990.18
311.258 1406.22 2002.88
311.559 1407.07 2003.96
311.273 1407.64 2004.33
310.13 1404.9 1999.22
311.908 1400.89 1992.56
310.496 1402.5 1994.91
310.015 1403.66 1996.51
311.787 1407.46 2005.65
311.352 1408.11 2005.4
310.767 1408.89 2005.09
310.706 1408.46 2004.38
311.801 1407.1 2007.19
310.845 1408.78 2005.75
310.483 1423.66 2019.06
314.369 1425.92 2026.35
310.863 1424.65 2020.85
314.661 1426.12 2027.77
310.082 1424.47 2017.81
310.47 1424.65 2018.51
309.971 1425.31 2017.67
309.7 1418.66 2015.75
310.386 1420.47 2017.4
310.358 1421.31 2017
309.247 1412.14 2005.5
308.264 1414.48 2005.98
308.431 1414.19 2004.39
308.018 1415.12 2003.73
320.16 1424.76 2034.43
319.825 1424.73 2033.75
319.134 1424.43 2032.49
319.378 1424.37 2033
319.805 1424.15 2033.92
320.746 1424.7 2035.66
313.385 1427.84 2026.87
315.532 1426.58 2028.83
311.513 1428.88 2025.14
309.806 1429.44 2023.4
310.178 1426.54 2018.35
309.183 1425.15 2018.11
308.369 1424.61 2017.6
307.776 1423.88 2018.29
308.027 1422.77 2019.17
307.734 1423.98 2017.66
307.332 1418.89 2019.37
307.237 1418.59 2018.65
306.472 1417.81 2017.02
306.356 1418.03 2013.96
306.798 1418.28 2012.11
304.171 1410.45 2009.59
303.718 1409.91 2009.28
305.264 1412.53 2009.7
304.704 1411.32 2009.57
306.528 1416.52 2011.14
307.524 1418.29 2009.32
306.23 1414.66 2009.78
303.106 1409.46 2009
303.166 1409.25 2007.95
302.606 1408.79 2006.72
302.116 1408.62 2005.83
301.969 1409.01 2003.84
301.362 1409.15 2002.58
300.405 1408.98 2002.56
300.347 1408.99 2001.91
298.033 1408.04 2003.61
298.002 1408.03 2002.61
298.297 1408.03 2001.78
297.408 1407.26 2000.78
297.715 1407.07 1999.48
296.709 1406.62 1999.01
295.13 1406.48 1999.02
291.944 1406.42 1998.83
289.152 1406.44 1999.19
289.268 1406.38 1998.48
287.444 1406.77 2000.92
287.113 1406.55 2001.72
286.496 1406.17 2002.83
287.467 1406.91 2000.29
285.043 1407.1 2000.91
284.785 1407.25 2000.31
282.028 1405.91 1999
281.232 1404.81 1999.68
281.401 1404.94 1998.63
279.667 1402.42 1997.23
281.161 1402.23 1994.75
311.442 1400.33 1989.28
311.639 1400.7 1990.16
312.321 1400.2 1990.48
310.756 1400.26 1988.77
310.606 1399.72 1988.33
309.991 1399.59 1987.99
309.342 1399.56 1987.9
305.292 1401.3 1991.58
300.899 1402.49 1991.89
297.461 1402.14 1990.98
310.852 1406.8 2003.17
310.271 1407.48 2003.23
309.756 1405.49 1999.62
310.45 1406.11 2002.14
311.453 1401.42 1992.69
311.874 1400.79 1990.72
310.165 1409.56 2004.55
310.212 1409.84 2005.23
309.791 1408.27 2003.13
313.323 1426.39 2025.15
309.912 1424.89 2019.86
314.036 1426.81 2026.61
310.055 1425.55 2018.51
309.229 1418.49 2014.79
308.627 1417.65 2011.83
308.154 1415.61 2008.52
310.113 1420.21 2016.91
309.067 1412.42 2004.69
308.128 1414.57 2003.4
307.832 1415.29 2002.9
316.607 1425.86 2029.76
320.36 1424.66 2034.98
313.577 1427.29 2026.45
314.653 1427.13 2027.99
310.971 1429.19 2024.59
310.456 1429.51 2024.16
309.66 1429.96 2023.45
309.248 1430.12 2022.95
309.138 1425.03 2017.54
307.601 1424.04 2016.97
307.547 1419.27 2018.97
307.729 1420 2019.41
307.889 1420.88 2019.81
307.587 1419.03 2018.16
307.364 1418.61 2017.99
306.703 1418.19 2016.29
306.984 1418.81 2012.08
304.115 1410.3 2008.63
303.694 1409.72 2008.09
306.262 1414.23 2007.83
304.527 1410.99 2008.34
307.597 1418.05 2008.26
307.709 1420.21 2010.79
307.545 1420.11 2009.83
303.153 1409.15 2007.35
302.647 1408.86 2005.82
302.423 1409.2 2003.7
301.359 1409.2 2002.03
301.876 1409.47 2001.61
299.916 1408.48 2000.67
300.479 1408.9 2001
300.271 1408.5 2000.19
299.841 1407.96 1999.51
297.55 1406.57 1998.42
295.963 1406.19 1998.13
291.702 1406.29 1998.18
292.105 1406.11 1997.66
287.585 1406.83 1998.9
287.529 1406.98 1999.38
286.179 1407.29 1999.9
285.885 1407.17 2000.72
284.987 1407.39 1999.85
285.557 1407.34 2000.12
284.342 1407.25 1999.81
283.965 1407.16 1999.25
283.601 1406.86 1998.6
282.871 1406.7 1998.5
280.906 1403.88 1998.35
280.921 1403.57 1997.72
282.189 1406.39 1998.6
281.649 1403.06 1995.83
282.638 1402.57 1993.83
310.749 1402.4 1990.26
309.715 1404.68 1991.81
310.383 1402.46 1989.86
307.11 1400.31 1989.59
303.312 1402.4 1992.62
296.496 1403.46 1993.14
293.094 1402.47 1991.25
309.964 1406.45 2001.88
309.788 1406.37 2001.3
310.767 1402.16 1993.36
311.24 1401.56 1991.43
310.542 1402.95 1991.03
309.391 1408.98 2002.95
308.976 1412.25 2004.03
309.401 1406.97 2001.36
312.263 1426.88 2023.9
310.279 1425.61 2020.7
312.825 1427.13 2025.05
310.018 1425.11 2019.33
310.132 1423.31 2017.53
309.665 1425.14 2017.18
310.365 1425.13 2018.81
309.548 1426.29 2016.97
308.452 1417.94 2011.36
309.524 1419 2015.41
307.946 1416.01 2007.76
309.936 1420.13 2016.42
308.046 1415.13 2005.22
307.519 1413.64 2001.16
306.584 1413.95 1999.57
307.117 1413.87 2000.39
306.949 1415.13 2001.2
307.574 1415.85 2002.96
313.716 1427.58 2027.14
312.392 1427.66 2025.01
310.253 1429.2 2023.44
312.944 1428.07 2026.45
311.166 1428.62 2024.21
308.124 1430.41 2021.49
308.398 1429.34 2019.62
310.232 1426.84 2019.19
310.291 1426.94 2018.63
307.778 1423.04 2018.55
307.831 1421.06 2019.06
307.794 1419.54 2018.49
308.005 1419.04 2017.42
307.716 1418.61 2017.42
306.932 1418.51 2015.64
303.796 1409.81 2006.99
303.1 1409.08 2006.31
305.583 1413.04 2007.01
304.032 1410.3 2006.18
304.497 1411.06 2007.05
307.094 1421.82 2009.84
307.092 1422.27 2010.95
306.63 1423.12 2009.27
307.629 1419.45 2009.88
302.072 1409.45 2002.18
302.414 1409.67 2001.61
301.725 1409.38 2000.91
302.524 1409.87 2000.6
301.253 1408.46 1999.41
299.106 1406.73 1997.97
297.055 1405.36 1996.3
295.237 1405.31 1996.42
287.569 1406.7 1998.39
293.424 1405.7 1996.86
291.15 1405.7 1996.54
288.069 1406.12 1996.97
286.031 1407.26 1999.14
281.784 1403.93 1997.32
282.529 1403.94 1996.1
283.403 1403.82 1994.98
284.017 1403.77 1994.32
284.496 1403.5 1993.62
308.779 1406.82 1993.45
308.27 1408.1 1994.01
309.037 1406.11 1992.47
310.594 1400.72 1989.02
310.02 1400.5 1988.79
309.806 1400.09 1988.5
308.673 1400.14 1988.8
305.251 1401.59 1992.14
303.317 1402.76 1993.18
301.009 1403.24 1993.34
299.114 1404.51 1994.71
290.148 1404.57 1994.35
290.131 1405.38 1995.7
294.689 1404.49 1994.73
288.812 1402.67 1991.63
309.284 1405.65 1998.85
309.071 1405.13 1997.56
310.435 1402.62 1993.36
310.727 1402.57 1991.7
310.191 1403.66 1991.85
309.764 1403.25 1995.4
309.905 1403 1994.73
309.702 1403.51 1995.95
309.392 1404.39 1996.72
308.515 1411.43 2002.31
308.203 1409.44 1999.84
308.825 1406.41 1998.91
309.68 1426.4 2019.68
309.636 1425.87 2019.1
311.622 1427.53 2023.62
311.305 1427.27 2022.8
308.727 1418.76 2012.85
307.864 1418.31 2009.9
307.287 1417.34 2008.84
307.742 1416.57 2007.25
307.912 1415.65 2006.78
307.784 1416.92 2008.19
307.904 1415.57 2004.94
307.389 1410.56 1997.92
307.256 1410.57 1997.43
311.127 1428.12 2023.54
307.921 1429.82 2020.89
308.85 1429.58 2021.67
309.65 1429.06 2022.32
310.25 1428.61 2022.73
306.983 1430.12 2020.63
307.611 1429.89 2020.24
307.155 1430.68 2021.15
305.893 1430.74 2020.35
306.224 1430.08 2019.95
307.299 1429.43 2019.57
307.877 1429.25 2019.58
309.767 1427.35 2019.88
310.237 1427.06 2018.07
308.754 1424.88 2017.12
307.977 1424.43 2017.08
308.175 1424.71 2016.7
307.862 1421.67 2019.08
308.085 1420.58 2018.38
308.471 1419.95 2017.31
308.146 1420.08 2018.11
308.304 1419.48 2017.26
307.758 1418.62 2016.82
308.609 1419.25 2016.44
307.204 1418.8 2015.32
306.741 1418.71 2013.56
307.185 1423.16 2012.39
307.002 1422.14 2011.97
307.415 1422.05 2011.55
307.218 1423.56 2012
307.103 1424.41 2010.29
307.241 1424.11 2011.35
306.985 1423.52 2011.37
303.187 1409.62 2003.84
307.142 1415.77 2006.76
306.761 1415.13 2006.64
305.032 1412.9 2004.6
304.075 1410.84 2004.05
303.734 1410.24 2003.9
306.876 1423.62 2010.68
307.333 1420.74 2009.65
306.364 1423.05 2008.57
306.56 1422.41 2009.04
303.213 1410.15 2001.76
303.044 1410.15 2001.25
303.053 1410.07 2000.55
302.182 1409.38 1999.77
302.118 1408.61 1999.2
301.156 1407.75 1998.63
299.672 1405.98 1996.61
285.183 1407.33 1998.92
285.292 1407.05 1998.39
285.691 1406.55 1997.42
284.52 1407.3 1998.95
284.115 1407.13 1998.54
283.795 1406.87 1998.09
282.563 1406.32 1998.13
282.2 1405.89 1998.17
283.329 1406.66 1998.09
281.893 1404.93 1998.14
282.571 1405.07 1997.17
282.997 1405.28 1996.99
283.489 1405.61 1996.94
283.909 1405.96 1997.14
285.481 1403.21 1992.91
284.543 1406.16 1997.12
286.77 1403.87 1993.44
307.835 1408.86 1995.52
308.347 1408.46 1993.52
308.868 1406.25 1992
309.843 1404.01 1990.49
309.803 1402.59 1989.77
306.904 1400.78 1990.52
308.47 1400.51 1989.26
305.54 1401.86 1992.62
302.443 1404.21 1994.71
304.157 1403.57 1994.28
301.279 1406.88 1997.53
288.381 1403.94 1993.46
310.029 1403.13 1993.45
310.098 1403.77 1992.62
309.725 1404.62 1992.69
309.022 1406.25 1993.38
309.338 1403.89 1995.8
309.374 1403.47 1995.02
308.693 1405.2 1997.08
308.335 1407.87 1998.45
307.816 1409.26 1997.53
309.429 1426.9 2019.65
310.455 1427.61 2021.84
310.505 1427.95 2022.32
309.805 1424.62 2017.39
309.255 1425.65 2016.6
308.929 1425.67 2016.16
307.84 1415.67 2006.03
307.775 1415.8 2003.53
306.54 1412.75 1998.26
307.24 1410.14 1996.6
306.797 1415.61 2001.61
307.304 1416.4 2002.91
307.086 1416.17 2002.3
309.677 1428.43 2021.59
307.439 1429.33 2020.13
308.269 1429.26 2020.53
308.694 1429.42 2020.83
306.502 1430.43 2020.48
306.74 1429.26 2019.75
306.306 1431.32 2020.98
305.81 1431.31 2020.77
305.964 1429.19 2019.3
308.797 1428.81 2019.66
310.004 1427.35 2019.08
310.083 1426.58 2017.79
309.818 1426.16 2017.6
307.291 1423.52 2017.28
307.523 1423.12 2018.09
306.969 1423.87 2015.88
306.479 1423.51 2015.82
307.013 1424.2 2014.18
306.646 1423.86 2014.86
305.116 1422.61 2015.75
306.919 1423.57 2016.67
308.379 1420.46 2017.87
307.958 1422.35 2018.59
308.033 1421.3 2018.54
308.844 1419.9 2016.78
308.957 1419.6 2016
308.322 1419.01 2015.92
307.484 1419.61 2011.61
307.539 1421.1 2011.14
307.207 1424.58 2009.72
308.035 1425.13 2012.97
306.379 1423.55 2014.21
306.814 1421.43 2010.45
306.193 1422.34 2011.38
305.859 1423.21 2012.66
306.421 1423.99 2008.75
305.991 1422.72 2007.95
303.673 1410.61 2002.29
305.808 1414.34 2005.19
305.358 1414.79 2003.15
304.86 1413.17 2002.97
304.15 1411.36 2002.39
303.495 1410.46 2000.39
303.637 1410.1 1999.73
303.057 1409.81 1999.95
302.968 1409.16 1999.25
303.144 1407 1997.59
302.661 1407.02 1997.72
302.401 1406.66 1997.42
285.193 1406.34 1997.18
307.599 1409.4 1995.3
307.639 1409.45 1997.08
309.281 1400.96 1989.19
308.339 1406.54 1992.22
308.818 1400.94 1989.38
306.814 1401.21 1991.12
308.174 1400.85 1989.7
304.778 1403.23 1993.94
309.626 1403.64 1993.79
309.681 1404.63 1993.25
308.15 1408.21 1995.73
307.905 1408.95 1996.93
308.746 1403.63 1994.79
308.778 1404.71 1996.35
308.584 1405.68 1997.55
308.411 1407.21 1998
308.083 1408.33 1996.91
309.155 1428.62 2020.87
309.913 1426.41 2018.82
309.357 1424.48 2016.83
309.731 1426.79 2017.28
309.617 1425.75 2017.08
308.597 1425.6 2015.76
308.907 1418.85 2014.15
309.213 1419.88 2015.1
308.167 1418.67 2010.69
307.667 1417.87 2008.81
307.748 1417.11 2007.35
310.336 1421.94 2016.8
307.391 1416.34 2003.83
308.385 1428.69 2020.04
306.406 1428.81 2019.03
307.015 1429.1 2019.29
305.757 1431.94 2021.22
304.44 1429.88 2019.79
309.175 1425.01 2016.54
308.542 1425.02 2016.53
305.557 1422.78 2016
304.938 1422.6 2015.24
307.083 1422.97 2017.86
308.773 1420.46 2017.24
308.975 1419.3 2015.56
309.603 1419.74 2015.65
307.523 1419.04 2014.97
307.234 1419.28 2013.35
307.391 1419.44 2012.69
306.352 1421.67 2010.01
307.28 1424.31 2008.17
305.785 1423.34 2006.7
305.382 1422.94 2011.56
305.483 1422.42 2010.46
303.918 1411.02 2001.86
303.813 1410.96 2001.29
303.473 1410.62 2001.07
304.796 1413.37 2002.32
305.504 1415.25 2002.68
305.727 1415.07 2003.67
303.737 1410.87 2000.67
303.873 1410.85 2000.12
304.15 1410.19 1999.2
303.695 1409.67 1999.27
305.063 1411.83 1999.05
304.945 1412.47 1999.98
303.718 1407.36 1997.59
305.086 1403.68 1994.16
307.447 1409.94 1995.27
309.07 1402.68 1990.03
308.721 1403.03 1990.42
308.328 1401.3 1989.89
309.278 1403.98 1994.11
308.834 1406.64 1994.66
309.296 1405.6 1993.67
308.401 1407.49 1995.37
309.055 1404.02 1995.33
309.498 1404.52 1996.05
309.188 1404.53 1994.79
308.35 1405.57 1996.98
308.364 1407 1997.48
308.874 1427.64 2019.01
308.898 1425.16 2016.14
309.301 1426.92 2018.96
308.637 1419.2 2013.16
309.93 1420.83 2016.36
310.186 1422.45 2017.08
305.802 1428.67 2019.07
306.713 1428.37 2019.08
305.696 1429.97 2019.94
303.051 1429.87 2019.78
308.198 1428.83 2019.44
309.308 1427.97 2019.67
309.98 1427.17 2017.59
306.846 1423.24 2017.05
307.551 1424.72 2013.62
308.415 1425.61 2013.33
306.533 1423.3 2016.46
306.422 1422.98 2016.92
308.821 1420.98 2017.37
309.187 1420.12 2016.25
307.776 1419.46 2013.04
307.797 1419.57 2012.15
305.974 1421.81 2008.97
306.46 1421.33 2009.11
306.112 1423.86 2007.11
306.017 1423.3 2005.94
305.545 1422.36 2007.42
304.541 1422.92 2011.67
304.778 1422.73 2010.54
305.002 1423 2012.08
304.951 1422.15 2009.25
304.809 1413.35 2001.78
307.565 1417.67 2006.95
307.46 1419.21 2008.58
307.687 1416.56 2006.72
305.973 1415.53 2003.59
305.858 1415.63 2002.74
305.696 1415.41 2002.23
304.798 1410.57 1998.72
304.885 1409.41 1997.84
304.298 1407.27 1997.11
303.71 1408.53 1998.47
304.691 1405.2 1995.28
305.449 1404.03 1994.2
305.739 1402.55 1993.13
308.071 1408.91 1993.71
306.984 1410.62 1996.59
307.879 1406.59 1992.51
307.67 1408.56 1993.58
308.005 1405.33 1991.92
308.308 1401.92 1990.28
306.893 1401.73 1991.54
308.687 1405.54 1996.09
308.404 1406.53 1996.78
307.467 1427.97 2019.13
307.341 1428.51 2019.27
309.723 1423.5 2017.25
308.818 1424.64 2016.19
308.651 1424.98 2015.71
308.794 1419.53 2014.46
307.491 1419.25 2009.2
307.714 1415.99 2005.55
310.088 1421.37 2016.5
305.365 1429.25 2019.51
305.236 1430.27 2020.04
305.151 1431.2 2020.7
304.524 1431.57 2020.96
303.739 1430.81 2020.45
309.076 1427.44 2019.5
310.109 1427.56 2018
307.653 1424.34 2016.21
308.74 1425.76 2012.97
307.194 1423.87 2006.46
305.044 1422.81 2014.61
306.059 1423.18 2015.95
305.428 1422.95 2015.05
304.635 1422.56 2014.76
308.394 1421.24 2017.96
308.231 1421.96 2018.25
308.104 1419.33 2014.41
309.16 1420.05 2015.61
309.113 1419.11 2014.82
304.044 1421.52 2006.69
306.625 1423.53 2005.96
304.142 1422.13 2004.96
306.177 1423.21 2005.38
302.769 1421.22 2005.62
304.742 1422.44 2005.56
305.938 1423.17 2013.58
304.795 1422.83 2013.01
304.476 1422.7 2012.51
302.801 1421.88 2009.23
303.934 1422.48 2012.15
303.082 1421.49 2008.24
303.494 1421.36 2007.1
306.196 1415.26 2005.02
307.01 1415.64 2006.28
305.299 1413.57 2000.9
305.537 1412.39 1998.74
305.799 1413.3 1998.8
305.552 1410.86 1997.99
305.796 1408.18 1995.73
305.704 1409.81 1997.12
305.948 1407 1994.74
305.063 1405.68 1995.16
306.19 1408.91 1995.74
306.079 1402.93 1993.1
307.099 1410.96 1997.11
307.623 1408.96 1993.99
307.214 1402.6 1991.81
307.687 1405.93 1992.46
307.169 1427.38 2019.18
308.454 1427.86 2019.26
307.961 1428.28 2019.38
308.408 1419.47 2013.68
308.334 1419.5 2011.79
309.558 1420.54 2015.73
307.615 1417.62 2007.46
307.701 1417.06 2006.8
307.524 1417.05 2005.72
309.407 1420.75 2016.22
307.588 1416.33 2004.71
306.54 1412.38 1997.91
306.921 1416.77 2002.55
305.319 1428.26 2018.92
305.16 1428.86 2019.18
304.928 1429.78 2019.94
304.39 1430.99 2020.57
303.96 1431.28 2020.67
302.639 1429.45 2019.41
309.488 1427.62 2018.83
309.635 1427.51 2017.78
307.39 1424.29 2015.59
307.487 1424.71 2014.4
307.574 1423.64 2005.65
305.792 1422.87 2005.05
305.134 1422.97 2013.72
308.615 1422.03 2017.82
309.236 1420.3 2016.76
308.249 1419.59 2012.41
308.048 1419.61 2011.37
308.135 1419.26 2010.87
307.575 1419.5 2010.52
307.942 1420.12 2011.61
307.342 1420.08 2009.31
302.097 1421.17 2004.14
301.259 1420.54 2005.59
301.511 1420.64 2006.97
300.364 1420.36 2007.45
300.834 1420.37 2007
302.444 1421.74 2010.01
307.508 1417.21 2006.22
306.546 1415.93 2004.79
306.219 1416.02 2003.22
306.076 1415.87 2002.35
306.921 1407.87 1993.89
306.567 1405.42 1993.58
305.875 1404.34 1993.98
306.601 1410.95 1996.99
307.078 1408.78 1994.29
307.028 1409.57 1995.18
306.51 1410.43 1996.61
307.245 1408.22 1993.68
307.312 1405.61 1992.81
307.135 1403.21 1992.21
309.241 1423.37 2017.31
309.808 1422.75 2017.36
310.163 1427.46 2018.55
307.622 1416.52 2006.11
307.378 1416.39 2005.3
309.603 1421.1 2016.64
309.493 1422.36 2017.39
307.012 1417.02 2003.11
304.556 1427.56 2018.59
309.73 1427.91 2018.39
307.467 1424.51 2014.96
308.941 1424.72 2008.35
308.926 1424.19 2006.69
305.542 1422.68 2004.56
307.333 1423.98 2016.54
306.168 1423.52 2015.19
307.952 1423.02 2017.72
301.282 1420.66 2004
300.796 1420.23 2003.09
300.263 1419.42 2005.12
300.037 1419.22 2005.95
299.502 1418.62 2005.63
300.711 1419.79 2003.9
300.245 1419.44 2004.31
301.38 1421.25 2009.91
299.722 1419.67 2007.51
307.044 1415.98 2005.69
306.618 1416.53 2003.47
307.12 1416.65 2003.46
306.135 1415.72 2001.76
305.71 1411.4 1998.08
306.77 1408.31 1994.28
306.154 1410.02 1996.72
306.508 1408.98 1995.31
306.392 1413.2 1998.43
306.228 1410.67 1997.19
305.823 1410.41 1997.42
308.949 1424.11 2016.76
307.164 1416.66 2004.61
309.768 1421.97 2017.15
306.69 1416.34 2001.94
303.752 1429.38 2019.58
303.207 1430.7 2020.26
307.757 1425.15 2014.38
308.848 1425.84 2013.46
307.768 1424.82 2011.78
309.145 1424 2006.01
306.072 1422.67 2004.34
302.034 1420.42 2002.38
304.451 1422.67 2014.04
304.597 1422.8 2013.51
309.295 1421.31 2017.12
308.776 1421.56 2017.59
300.266 1419.59 2002.98
299.743 1419.04 2001.97
299.883 1419.05 2002.93
299.603 1418.87 2004.51
303.379 1421.97 2013.18
300.91 1421.07 2009.8
302.786 1421.65 2012.75
299.909 1420.27 2007.89
302.604 1420.68 2002.6
302.882 1421.66 2013.41
306.456 1416.34 2002.73
306.18 1411.94 1997.89
308.234 1424.83 2016.17
303.294 1429.07 2019.34
302.422 1430.21 2019.79
308.344 1425.74 2013.83
307.97 1425.07 2012.32
307.638 1424.35 2010.46
307.172 1423.92 2009.92
306.359 1424.09 2012.62
306.814 1424.51 2013
306.929 1424.79 2014.17
309.786 1424.73 2007.8
306.65 1422.76 2004.02
309.168 1426.04 2012.82
305.227 1422.97 2012.74
303.664 1422.23 2012.57
304.026 1422.56 2013
308.603 1423.24 2017.61
308.941 1422.4 2017.65
309.309 1421.88 2017.39
298.953 1417.41 1999.78
299.32 1418.36 2002.18
299.169 1418.28 2003.26
299.191 1418.15 2004.29
299.184 1418.15 2004.97
299.574 1418.62 2001.59
302.638 1422.07 2012.25
299.777 1420.48 2008.57
300.561 1420.91 2010.38
303.614 1421.33 2003.47
301.113 1421.11 2011.48
308.142 1423.98 2016.74
307.826 1424.61 2015.68
301.544 1429.11 2019.01
302.084 1429.37 2019.26
301.793 1429.75 2019.44
307.791 1424.9 2015.09
307.201 1423.53 2008.49
305.27 1422.62 2009.88
305.461 1423.53 2012.83
305.622 1423.77 2013.8
309.681 1423.64 2004.7
309.875 1424.45 2006.93
305.594 1423.13 2014.29
303.247 1422.27 2012.23
299.611 1418.4 2000.75
299.57 1417.98 1999.33
298.689 1417.41 2001.53
299.147 1418.03 2003.76
301.062 1421.26 2010.89
304.172 1421.84 2008.55
302.283 1421.31 2009.14
303.049 1422.29 2013.61
302.531 1422.45 2013.44
301.497 1421.35 2012.37
304.237 1421.5 2003.52
300.131 1420.68 2009.43
303.419 1427.8 2018.55
301.393 1428.69 2018.71
307.711 1424.1 2009.66
306.564 1422.73 2007.18
306.384 1424.36 2014.09
309.579 1426.33 2012.85
309.461 1426.2 2012.33
309.777 1423.48 2004.18
309.967 1423.85 2005.17
298.828 1416.41 1998.99
299.113 1417.04 1998.84
299.261 1416.84 1998.33
299.537 1418.24 2000.11
299.654 1417.87 1998.74
298.083 1416.08 2000.36
298.635 1415.93 1999.19
298.896 1417.67 2003.43
298.923 1417.77 2002.93
299.343 1417.96 2001.02
302.093 1422.46 2013.7
300.89 1421.53 2011.83
301.1 1420.82 2008.64
304.626 1421.44 2005.48
303.144 1421.16 2006.58
305.929 1422.02 2005.97
301.457 1421.63 2012.86
307.174 1422.78 2003.68
304.333 1421.38 2004.25
301.824 1428.3 2018.68
306.998 1422.76 2006.29
309.811 1424.05 2005.93
309.571 1423.17 2003.84
299.195 1416.27 1998.36
299.382 1417.5 1999.27
298.839 1415.55 1998.71
299.216 1417.56 2000.59
306.732 1421.84 2003.69
306.596 1421.92 2004.17
306.123 1422.14 2003.2
307.971 1422.78 2003.3
307.35 1423.34 2007.7
309.663 1425.25 2009.37
309.825 1425.55 2010.12
309.375 1423.76 2005.22
308.941 1422.83 2003.75
309.37 1422.67 2003.22
309.826 1426.57 2013.24
299.548 1417.33 1998.12
300.356 1417.28 1997.81
298.477 1416.89 2000.27
297.8 1415.83 2001.04
298.284 1415.15 1999.48
299.377 1415.56 1998.35
297.545 1415.48 2000.74
298.742 1417.38 2002.55
298.864 1417.03 2000.96
306.616 1422.24 2003.23
307.499 1421.83 2003.14
307.773 1422.28 2003.69
307.575 1422.65 2004.88
307.083 1422.49 2005.12
308.549 1425.12 2011.92
307.976 1424.03 2009.16
307.817 1423.73 2008.33
309.914 1425.78 2010.71
309.901 1424.92 2008.27
309.239 1424.4 2007.69
308.687 1423.18 2004.95
308.17 1423.31 2005.98
308.59 1423.94 2007.23
308.336 1422.55 2003.73
308.809 1422.34 2003.2
299.616 1416.54 1998
300.092 1415.42 1998.01
299.888 1417.54 1997.74
300.902 1416.64 1997.51
302.109 1415.36 1997.35
298.843 1416.96 1999.38
298.588 1416.66 2000.72
300.786 1415.93 1997.5
301.422 1415.96 1997.21
297.829 1415.63 2000.12
298.237 1416.22 1999.88
299.649 1414.94 1998.23
297.086 1414.78 2000.7
298.381 1416.75 2001.57
308.375 1421.86 2002.81
308.279 1422.52 2002.97
308.171 1422.94 2004.92
307.554 1423.12 2006.26
307.538 1423.25 2007
308.233 1424.85 2011.4
308.209 1424.6 2010.66
308.415 1424.61 2010.08
308.594 1425.17 2009.99
308.041 1423.8 2007.56
309.462 1426.01 2011.73
309.082 1425.86 2012.14
308.924 1425.26 2010.78
308.708 1425.57 2011.43
300.927 1415.54 1997.81
300.227 1417.29 1997.28
298.216 1416.28 2001
302.541 1414.89 1996.88
301.526 1414.96 1997.54
299.208 1415.06 1998.56
298.302 1416.22 2001.65
298.467 1416.73 2002.18
308.529 1425.28 2012.42
308.481 1424.62 2009.56
308.41 1424.48 2009.08
309.739 1426.71 2013.76
300.202 1416.74 1997.4
302.347 1416.23 1997.17
300.487 1417.79 1997.75
300.615 1417.92 1997.27
301.372 1417.47 1997.53
300.164 1414.88 1997.92
298.309 1415.66 1999.73
298.319 1415.53 1999.04
301.874 1414.39 1997.02
297.139 1414.13 2000.79
309.357 1426.17 2013.46
309.551 1426.79 2014.28
301.934 1416.64 1997.08
303.287 1416.13 1997.12
300.679 1417.32 1996.87
297.79 1414.98 1999.55
297.73 1415.01 2000.07
301.241 1414.49 1997.5
298.574 1415.01 2001.28
298.089 1415.1 2001.05
299.352 1414.49 1998.47
298.465 1414.66 1999.16
299.824 1414.36 1998.12
301.798 1417.47 1997.15
302.557 1417.45 1996.94
303.06 1416.73 1997.12
302.899 1417.08 1996.7
301.075 1417.74 1996.78
300.831 1414.14 1997.49
298.291 1414.09 1999.2
300.252 1414.34 1997.82
297.429 1415.05 2001.06
297.266 1414.56 2001.29
296.611 1413.97 2000.6
299.095 1414.95 2001.59
298.517 1416.04 2002.16
309.305 1426.12 2014.02
302.567 1418.25 1996.42
302.397 1418.71 1996.52
303.834 1416.58 1996.81
299.924 1413.64 1998.03
297.662 1414.16 1999.58
298 1414.45 2001.1
296.611 1413.15 2000.69
298.201 1415.68 2001.56
304.038 1418.03 1995.93
303.049 1418.64 1996.21
303.606 1417.75 1996.38
300.345 1413.3 1997.9
298.962 1413.47 1998.67
299.108 1412.91 1998.52
298.671 1413.48 1999.08
298.342 1413.94 2001.3
297.348 1413.24 2000.98
295.982 1412.07 2000.55
297.412 1414.06 2001.45
297.628 1413.73 2001.04
296.108 1413.16 2000.49
296.285 1412.6 2000.62
295.574 1412.87 2000.43
299.069 1414.43 2001.52
298.941 1416.15 2002.45
299.558 1413.21 1998.8
298.794 1413.69 2001.51
295.161 1411.53 2000.29
294.968 1412.11 2000.23
297.77 1414.88 2001.51
296.775 1413.92 2001.21
297.048 1412.73 2000.92
295.57 1412.37 2000.37
299.551 1414.93 2001.92
299.913 1415.17 2002.26
299.653 1416.07 2002.5
298.651 1415.41 2001.66
298.968 1415.6 2002.09
300.052 1412.55 1998.08
299.285 1413.92 2001.67
295.69 1411.54 2000.5
295.472 1410.7 2000.32
297.916 1414.39 2001.59
296.744 1412.24 2000.85
299.483 1415.45 2002.27
297.963 1413.22 2001.24
296.23 1411.13 2000.63
295.883 1410.17 2000.27
298.36 1414.75 2001.71
298.552 1414.42 2001.32
298.438 1414.06 2001.78
298.156 1413.51 2001.72
297.688 1413.57 2001.55
297.487 1412.75 2001.29
297.202 1412.2 2001.05
299.047 1413.25 2001.67
299.887 1413.87 2001.91
296.431 1411.61 2000.72
296.536 1410.27 2000.42
296.884 1410.7 2000.64
296.954 1411.71 2000.99
298.484 1413.17 2001.46
300.166 1415.89 2002.48
300.602 1414.49 2002.18
297.568 1411.58 2001.12
300.209 1413.12 2001.87
299.961 1412.61 2001.72
300.458 1413.66 2002.04
299.66 1414.34 2001.76
299.519 1413.46 2001.82
300.168 1414.29 2001.96
301.132 1415.11 2002.32
298.134 1412.49 2001.4
299.352 1412.86 2001.79
298.622 1412.66 2001.58
302.043 1414.91 2002.3
300.958 1415.68 2002.46
301.253 1414.55 2002.26
299.481 1412.14 2001.6
