323.013 1096.42 665.201
322.819 1095.3 664.967
323.398 1095.76 662.915
323.311 1097.29 664.479
324.115 1099.78 664.498
324.716 1101.02 663.634
324.807 1101.28 663.618
325.818 1100.36 657.724
325.763 1100.36 658.709
325.401 1101.06 653.974
318.914 1081.06 664.524
319.287 1081.71 664.232
319.612 1082.52 663.788
319.965 1083.55 662.175
319.721 1082.34 662.649
320.196 1084.14 662.66
320.353 1084.51 662.788
320.428 1084.88 663.508
321.373 1086.38 663.736
321.908 1088.09 664.624
323.188 1089.67 663.301
323.505 1090.46 663.224
322.577 1088.28 663.465
323.675 1090.97 663.057
323.216 1091.94 664.606
323.741 1091.35 662.893
323.179 1094.54 663.343
323.343 1095.16 662.803
323.838 1095.15 660.512
323.988 1096.07 660.642
323.563 1096.64 662.96
324.043 1099.38 664.187
324.891 1101.24 663.051
324.648 1100.6 663.573
325.513 1099.96 659.918
325.135 1100.48 661.933
324.865 1097.73 658.783
324.773 1097.41 657.738
325.218 1099.4 655.242
325.309 1099.33 660.223
325.517 1099.57 659.26
324.372 1098.08 650.253
325.113 1101.85 650.001
325.085 1101.77 644.434
324.772 1102.75 641.792
318.404 1080.16 664.519
317.442 1078.78 664.328
318.976 1080.11 662.731
319.314 1080.83 662.993
319.488 1081.15 662.76
319.696 1082.09 661.196
320.154 1083.95 661.49
319.997 1083.49 660.527
319.523 1080.92 661.908
320.392 1084.42 661.838
321.39 1085.87 662.353
321.31 1085.91 662.946
322.692 1088.26 663.042
323.19 1089.25 662.682
323.67 1090.51 662.446
323.851 1091.07 662.367
323.888 1091.3 662.471
323.917 1091.7 662.309
323.724 1093.07 662.076
323.335 1093 663.636
323.64 1094.48 661.405
323.714 1094.87 661.13
323.739 1094.49 660.69
323.841 1094.66 659.819
323.996 1095.45 659.704
324.67 1097.58 659.972
324.531 1097.76 661.187
324.263 1098.35 662.732
324.818 1099.85 662.65
325.117 1099.34 661.311
323.818 1094.68 659.079
323.619 1094.26 657.934
324.279 1096.87 655.102
323.159 1095.72 650.395
324.099 1097.93 644.228
324.811 1100.32 646.298
324.224 1098.61 641.581
323.84 1099.74 638.913
317.343 1077.14 660.93
316.142 1075.6 661.124
317.874 1077.81 660.59
319.242 1080.33 662.189
319.43 1080.79 660.931
319.668 1082.22 660.107
320.459 1084.52 660.722
320.182 1084.1 659.857
319.308 1080.4 661.46
321.477 1086 661.697
322.605 1087.8 662.259
322.46 1087.55 662.683
323.452 1089.83 662.045
323.844 1090.88 661.689
323.852 1090.97 662.123
323.922 1091.24 661.811
323.986 1091.68 661.846
323.821 1093.13 661.464
323.869 1093 660.923
323.764 1094.08 660.108
323.703 1093.88 659.32
323.54 1093.72 658.44
323.058 1093.06 656.77
322.431 1093.51 653.188
319.809 1088.01 653.698
320.632 1090.27 648.114
323.101 1095.85 646.72
321.737 1093.08 645.722
323.284 1096.05 643.477
323.55 1096.67 641.839
323.558 1096.58 640.937
323.354 1093.8 639.783
323.484 1094.53 640.374
322.902 1094.93 637.765
314.048 1073.27 660.789
314.849 1073.12 657.389
315.404 1073.69 656.953
318.043 1078.03 660.101
315.632 1074 656.523
318.191 1078.39 659.739
318.573 1079.32 659.634
318.706 1080.03 659.179
319.632 1082.69 659.248
319.964 1083.93 659.188
321.494 1086.25 660.867
321.804 1087.19 660.302
320.211 1084.34 659.459
322.689 1088.04 661.864
323.253 1089.61 661.4
323.778 1090.74 661.292
323.929 1091.33 661.178
323.872 1091.27 660.843
323.964 1091.68 661.362
323.86 1092.72 660.371
323.759 1092.51 659.898
323.619 1092.35 659.437
323.394 1091.9 658.985
322.966 1091.24 658.317
321.369 1090.6 654.93
319.089 1086.1 654.767
317.866 1082.96 653.5
319.146 1086.49 651.155
317.582 1082.84 651.355
318.172 1084.33 646.978
321.357 1092.15 645.25
319.113 1086.76 645.11
323.07 1095.39 643.653
323.392 1095.94 642.206
323.524 1094.47 641.061
323.002 1090.35 640.009
323.352 1091.8 640.765
322.748 1090.08 639.172
322.177 1092.05 636.868
311.603 1069.98 657.544
310.838 1068.44 654.521
312.675 1069.6 652.616
313.69 1070.76 652.434
314.381 1071.81 652.674
315.924 1074.47 656.395
314.941 1073.23 654.378
314.716 1072.39 652.618
316.113 1074.92 656.161
316.502 1075.81 656.391
316.617 1077.54 655.63
318.676 1082.06 657.367
319.959 1085.92 657.147
321.553 1089.24 657.282
323.571 1090.67 660.65
318.242 1083.29 655.117
316.368 1079.37 652.951
316.254 1078.79 653.804
316.211 1079.57 651.267
316.227 1079.76 649.615
316.059 1079.36 648.031
317.391 1082.03 645.995
317.556 1082.39 645.372
322.233 1093.84 644.734
320.594 1090.21 644.767
319.126 1086.34 644.346
322.908 1094.69 643.7
323.206 1095.36 642.966
323.478 1094.51 641.684
323.403 1092.11 641.324
323.149 1090.75 640.692
322.565 1089.07 640.055
322.255 1088.62 639.282
322.063 1088.7 638.416
321.494 1090.58 635.978
306.689 1065.44 649.7
307.717 1066.43 653.881
310.332 1067.84 653.292
311.52 1068.12 650.811
312.197 1068.63 650.755
312.927 1069.31 650.322
313.581 1070.2 650.201
314.339 1071.38 650.488
314.955 1072.88 652.459
315.186 1073.84 653.974
314.63 1071.93 650.7
315.394 1074.35 654.216
315.592 1075.02 654.215
315.761 1076.6 654.038
315.324 1077.42 652.568
317.719 1081.19 655.66
315.284 1077.68 651.971
315.319 1078.01 651.116
315.324 1078.02 650.176
315.741 1078.52 647.999
315.151 1077.61 650.253
316.468 1078.38 645.063
318.764 1083.7 642.266
321.57 1091.97 644.629
322.317 1093.61 644.359
320.567 1089.87 644.339
319.512 1086.27 642.805
323.046 1093.4 642.964
323.225 1093.85 642.685
323.384 1094.37 642.267
323.403 1092.44 641.696
323.189 1091.09 641.39
322.811 1089.66 640.67
321.949 1087.7 639.763
321.923 1087.44 640.211
320.583 1086.32 638.042
320.768 1086.07 638.983
318.967 1085.42 635.051
320.324 1088.49 635.112
308.437 1067.8 643.382
309.499 1067.06 649.067
309.54 1067.17 651.141
311.588 1068.15 650.1
312.195 1068.57 649.868
312.977 1069.41 649.748
313.416 1070.64 647.939
314.11 1071.61 648.437
315.074 1073.22 652.219
314.951 1073.12 649.242
315.225 1074.13 653.426
314.673 1072.72 648.387
315.36 1074.7 653.453
315.357 1076.14 653.024
315.115 1077.13 651.889
315.125 1077.5 651.203
315.108 1077.32 649.613
315.62 1076.83 647.095
315.047 1077.25 650.698
315.955 1075.93 645.173
317.493 1078.57 642.458
317.585 1079.69 643.073
318.943 1082.62 641.441
319.14 1082.59 640.613
319.446 1084.26 640.672
319.489 1084.01 640.245
320.488 1088.99 643.575
322.507 1091.92 643.162
322.851 1092.85 643.174
319.907 1087.85 643.493
319.665 1085.67 641.761
319.559 1084.62 640.646
323.197 1091.65 641.841
323.001 1091.11 641.918
322.801 1089.83 641.194
322.203 1088.17 640.486
320.84 1085.97 639.503
320.96 1085.96 639.902
321.884 1087.07 640.568
318.845 1083.96 637.228
319.446 1084.16 638.832
319.774 1084.38 639.279
317.181 1082.62 634.478
318.786 1082.57 637.98
318.275 1081.83 637.225
309.98 1067.95 646.389
309.454 1067.26 647.65
312.351 1072.09 640.997
311.292 1069.23 645.812
311.562 1068.19 649.166
312.51 1068.98 649.12
311.911 1068.52 648.757
312.758 1070.07 647.144
314.74 1073.96 642.824
315.433 1074.76 643.268
315.152 1074.12 645.013
315.172 1073.88 650.75
315.065 1073.38 649.818
315.227 1074.49 647.353
315.138 1074.19 646.743
315.253 1074.56 652.869
316.467 1076.44 643.193
314.995 1073.87 646.496
315.19 1075.87 652.408
315.059 1076.98 651.46
315 1076.92 650.603
315.27 1076.3 648.362
315.311 1074.95 647.493
315.828 1075.43 644.914
317.479 1078.3 642.012
318.709 1080.61 641.078
318.697 1080.75 641.467
319.244 1082.63 640.06
319.596 1084.31 640.174
319.532 1083.85 639.805
322.21 1091.05 643.065
320.787 1089.78 643.738
320.213 1088 643.085
320.116 1086.89 642.341
319.98 1085.79 641.294
322.663 1089.97 641.7
322.257 1089.09 641.636
319.945 1085.2 640.584
319.899 1084.78 640.069
322.689 1089.74 641.414
322.483 1088.92 641.055
322.088 1088.03 640.772
319.813 1084.62 639.706
320.985 1086.07 640.235
321.821 1087.11 640.778
319.186 1083.85 638.453
319.355 1083.81 639.178
319.582 1084.16 639.681
317.635 1081.09 636.849
315.895 1078.58 636.967
319.096 1082.64 638.837
318.825 1081.49 638.832
318.574 1080.97 638.595
318.237 1080.56 638.276
318.483 1081.04 638.184
313.304 1074.19 638.477
317.154 1078.42 639.534
317.808 1079.07 640.066
317.273 1077.84 641.44
315.218 1074.32 650.283
315.11 1075.67 651.749
318.536 1080.22 640.546
315.099 1075.56 650.61
315.151 1075.99 649.294
318.821 1080.92 640.464
319.221 1082.59 639.551
321.278 1089.17 642.771
321.868 1088.08 641.438
320.977 1086.96 641.4
320.881 1086.44 640.983
320.91 1086.15 640.573
322.171 1088.36 641.13
321.786 1087.41 641.043
318.909 1081.39 639.531
318.596 1080.59 639.55
