467.82 1225.81 2322.06 
465.716 1229.56 2326.51 
466.025 1229.84 2329.73 
465.369 1229.57 2328.29 
465.529 1229.98 2329.8 
464.672 1228.44 2330.06 
465.638 1229.24 2325.2 
465.197 1230.51 2329.59 
461.859 1228.7 2325.2 
460.631 1228.57 2321.82 
462.213 1229.34 2321.39 
460.268 1228.86 2319.7 
461.464 1229.49 2319.42 
463.332 1230.07 2320.35 
463.279 1229.85 2332.95 
463.71 1230.57 2332.83 
460.833 1229.9 2317.4 
459.615 1229.19 2317.83 
461.036 1233.44 2313.79 
461.446 1233.85 2314.33 
461.78 1234.19 2314.86 
462.516 1233.37 2315.64 
462.264 1234.5 2315.92 
463.054 1233.46 2317.33 
462.699 1233.49 2316.18 
463.55 1237.66 2314.33 
463.27 1238.13 2312.61 
461.929 1236.78 2310.83 
463.687 1244.71 2307.88 
463.257 1245.45 2305.53 
462.636 1240.6 2310.15 
462.606 1241.13 2309.72 
463.884 1238.31 2314.3 
462.69 1237.6 2311.39 
462.785 1238.24 2310.96 
462.892 1239.53 2310.77 
464.322 1244.5 2310.44 
463.983 1245.34 2309.32 
463.681 1245.28 2307.42 
464.686 1255.38 2310.02 
464.119 1246.14 2309.77 
464.384 1247.31 2310.51 
465.38 1249.87 2311.46 
464.712 1248.05 2311.1 
463.457 1250.15 2309.56 
465.449 1252.31 2311.29 
465.752 1252.61 2311.69 
465.009 1254.29 2310.72 
464.775 1260.5 2312.19 
465.197 1262 2312.39 
464.288 1256.99 2309.07 
462.839 1291.21 2321.45 
463.014 1290.94 2319.55 
462.02 1292.34 2320.43 
460.674 1294.21 2320.37 
459.079 1296.83 2320.38 
457.746 1297.43 2318.65 
458.313 1293.93 2316.08 
459.246 1291.33 2315.22 
459.236 1289.18 2313.41 
460.062 1286.11 2313.2 
460.21 1286.28 2313.8 
481.641 1211.01 2360.96 
479.742 1212.84 2361.49 
484.411 1208.95 2359.92 
489.448 1204.91 2358.3 
486.561 1206.54 2359.46 
478.849 1209.11 2363.71 
479.916 1205.12 2364.7 
480.558 1203.43 2365.01 
480.553 1200.45 2366.52 
456.965 1251.73 2296.73 
459.978 1235.8 2308.97 
461.309 1236.67 2309.81 
461.541 1236.53 2310.28 
460.123 1236.36 2308.8 
459.2 1236.57 2307.85 
459.324 1238.22 2307.52 
459.436 1239.51 2307.33 
458.247 1241.76 2302.84 
459.263 1240.51 2305.65 
458.782 1240.93 2303.95 
459.112 1241.01 2304.47 
457.673 1245.51 2299.87 
457.553 1249.98 2298.39 
459.402 1220.35 2322.86 
459.773 1220.68 2322.48 
460.828 1218.48 2325.88 
460.034 1219.77 2323.69 
460.783 1219.17 2324.3 
459.071 1223.28 2322 
459.217 1223.65 2322.38 
458.78 1223.84 2322.77 
458.806 1223.66 2323.43 
460.204 1222.62 2331.05 
461.664 1226.8 2335.51 
462.514 1228.56 2334.41 
464.784 1218.44 2333.16 
470.335 1217.48 2331.1 
470.124 1217.99 2330.88 
468.855 1217.48 2334 
470.738 1217.03 2331.34 
469.446 1217.97 2338.69 
466.847 1225.48 2348.48 
463.699 1224.55 2353.74 
462.97 1225.38 2353.3 
467.969 1225.76 2347.64 
470.157 1224.16 2345.7 
472.134 1216.77 2340.66 
474.336 1218.51 2341.06 
476.715 1222.24 2342.35 
473.928 1221.43 2344.15 
476.266 1221.14 2341.55 
467.36 1218.27 2359.14 
466.953 1218.62 2359.42 
465.467 1220.72 2357.89 
464.964 1218.72 2332 
465.796 1218.89 2328.32 
465.109 1218.52 2326.21 
463.841 1218.59 2325.33 
485.608 1201.54 2362.28 
491.258 1201.16 2358.5 
481.248 1201.69 2365.3 
482.303 1203.7 2363.67 
482.239 1218.07 2357.11 
492.738 1203.41 2355.48 
489.558 1207.83 2351.36 
494.597 1202.07 2355.36 
484.96 1210.05 2356.64 
485.722 1208.85 2352.79 
498.031 1203.41 2349.83 
481.516 1221 2356.41 
481.212 1221.69 2356.13 
479.048 1221.52 2357.44 
477.625 1221.9 2357.89 
480.238 1221.42 2357 
473.207 1219.16 2356.75 
475.42 1221.08 2358.53 
463.729 1222.38 2362.72 
463.904 1221.8 2362.54 
464.38 1221.15 2361.77 
469.669 1219.85 2361.35 
470.164 1219.06 2361.64 
473.299 1219.25 2355.3 
473.791 1220.34 2351.86 
476.184 1219.68 2354.05 
476.558 1219.66 2353.13 
463.397 1223.85 2357.55 
462.521 1224.85 2356.42 
467.597 1224.39 2350.8 
476.489 1220.6 2348.39 
472.694 1222.82 2348.49 
466.008 1221.17 2361.51 
470.333 1214.43 2358.88 
470.69 1213.72 2355.4 
465.931 1219.5 2361.37 
466.905 1218.39 2360.55 
467.613 1217.82 2359.87 
462.877 1282.12 2315.7 
462.859 1283.89 2317.18 
463.252 1283.72 2320.03 
463.246 1284.23 2320.03 
462.294 1285.96 2317.33 
462.411 1286.07 2317.91 
462.536 1286.65 2318.35 
462.564 1286.19 2318.59 
462.747 1286.42 2319.53 
463.2 1284.97 2320.22 
463.25 1285.49 2320.79 
462.989 1286.12 2320.99 
463.628 1281.9 2321.86 
464.241 1282.72 2322.01 
464.336 1282.49 2322.76 
463.749 1282.6 2321.21 
463.819 1283.42 2320.86 
464.514 1282.94 2323.19 
465.842 1276.66 2312.11 
465.774 1276.05 2310.44 
465.91 1277.04 2311.79 
464.531 1279.84 2314.86 
464.585 1284.41 2322.92 
464.445 1284.65 2323.41 
464.575 1284 2323.36 
463.531 1286.08 2322.89 
462.908 1286.59 2321.91 
463.616 1285.82 2322.4 
462.11 1290.07 2323.87 
462.624 1289.36 2321.82 
462.348 1290.93 2323.49 
462.356 1291.8 2323.07 
462.968 1288.37 2319.97 
462.577 1271.66 2311.24 
464.131 1274.52 2315.35 
464.819 1275.12 2314.49 
465.475 1275.61 2312.92 
465.713 1276.14 2312.46 
465.542 1275.71 2312.14 
465.289 1262.81 2312.21 
465.311 1262.95 2311.71 
465.001 1264.11 2311.69 
465.437 1262.99 2310.12 
462.954 1265.52 2305.51 
464.476 1264.76 2309.4 
464.108 1264.78 2307.82 
464.208 1264.14 2306.92 
465.022 1263.89 2309.98 
462.55 1265.54 2303.54 
461.752 1267.5 2302.52 
462.966 1265.01 2304.94 
461.264 1269.74 2302.78 
461.472 1269.81 2303.72 
462.05 1270.14 2305.2 
461.817 1270.22 2304.57 
497.052 1215.63 2336.96 
497.185 1216.8 2337.04 
496.881 1216.77 2337.67 
496.854 1216.39 2338.05 
496.574 1216.15 2337.62 
496.415 1215.96 2338.09 
497.821 1216.27 2335.93 
496.242 1219.17 2319.94 
501.463 1213.33 2316.1 
504.727 1214.52 2310.81 
505.183 1214.14 2310.79 
502.841 1213.34 2314.59 
500.493 1212.69 2319.72 
503.771 1213.28 2314.07 
501.368 1210.13 2324.48 
501.673 1211.58 2321.86 
501.151 1212.68 2320.07 
502.154 1210.09 2325.62 
503.309 1209.32 2326.34 
500.98 1214.86 2313.95 
503.087 1215.73 2310.81 
504.26 1215.85 2309.69 
503.857 1215.16 2310.68 
505.305 1215.01 2309.45 
500.766 1215.33 2313.87 
499.913 1215.96 2316.3 
499.445 1216.83 2316.77 
484.524 1228.45 2323.92 
477.34 1229.56 2327.06 
482.965 1228.61 2324.24 
491.201 1227.45 2323.58 
486.795 1228.56 2326.08 
493.792 1226.47 2322.5 
485.565 1228.55 2325.09 
494.411 1226.61 2321.29 
470.953 1217.26 2336.3 
475.637 1220.69 2339.21 
471.035 1217.31 2337.26 
474.048 1218.76 2339.46 
471.257 1216.7 2329.65 
478.39 1225.77 2337.85 
477.324 1222.3 2340.16 
478.611 1227.48 2336.09 
471.107 1218.5 2325.74 
471.662 1217.32 2326.26 
471.766 1216.77 2327.18 
471.681 1216.55 2328.08 
468.689 1225.35 2320.05 
469.257 1224.24 2320.33 
469.852 1223.1 2320.63 
470.308 1221.87 2321.49 
470.919 1221.21 2320.96 
471.17 1219.13 2324.01 
471.393 1220.36 2321.16 
471.757 1219.23 2322.06 
476.061 1230.6 2330.8 
477.345 1229.98 2332.05 
474.46 1230.11 2328.51 
473.738 1230.53 2329.41 
474.848 1230.31 2329.7 
494.252 1226.74 2319.87 
466.156 1228.79 2322.75 
467.252 1226.94 2321.74 
467.979 1226.63 2319.88 
465.265 1229.38 2327.53 
465.003 1228.96 2326.7 
464.188 1228.19 2328.99 
464.381 1228.06 2330.58 
462.945 1225.74 2331.58 
463.981 1227.28 2330.76 
462.521 1224.88 2331.76 
463.42 1226.23 2331.06 
465.858 1228.97 2323.72 
465.384 1228.94 2324.56 
466.202 1227.92 2321.73 
466.703 1228.13 2321.43 
463.883 1227.76 2331.24 
463.583 1227.1 2331.34 
464.923 1229.76 2330.61 
465.337 1230.32 2330.26 
465.198 1230.73 2330.69 
464.751 1230.54 2330.23 
462.444 1237.62 2310.86 
462.565 1241.72 2308.9 
463.069 1243.48 2307.54 
462.727 1244.22 2305.69 
462.847 1245.11 2305.12 
462.913 1245.98 2304.52 
462.391 1240.52 2309.71 
462.288 1237.85 2310.39 
462.436 1239.21 2310.19 
463.726 1245.84 2307.44 
463.889 1245.82 2309 
463.397 1246.12 2305.35 
463.796 1246.73 2309.09 
463.643 1248.17 2309.41 
462.197 1251.59 2307.88 
462.524 1251.34 2308.44 
464.635 1251.46 2310.62 
463.575 1250.66 2309.69 
464.749 1253.62 2310.54 
464.46 1254.21 2309.98 
464.474 1254.87 2309.7 
464.198 1256.06 2308.6 
464.369 1255.85 2309.21 
464.391 1259.48 2311.22 
464.769 1260.48 2311.26 
465.209 1261.66 2311.7 
465.259 1262.34 2311.97 
464.222 1257.5 2308.48 
464.216 1256.58 2308.56 
463.232 1290.78 2320.32 
463.363 1290.24 2319.7 
461.955 1292.14 2319.81 
459.025 1294.81 2318.32 
460.844 1293.09 2319.69 
460.105 1291.01 2316.57 
460.47 1289.36 2315.85 
460.461 1288.18 2314.91 
460.386 1286.5 2314.34 
460.671 1284.66 2313.96 
460.052 1285.57 2312.33 
460.505 1284.78 2313.35 
460.766 1284.87 2314.45 
460.309 1284.57 2311.79 
460.652 1284 2311.94 
460.386 1283.97 2310.33 
460.427 1282.28 2308.48 
460.781 1283.27 2310.29 
479.623 1208.06 2363.64 
480.932 1205.97 2363.64 
490.717 1202.97 2357.77 
488.458 1204.2 2359.14 
456.992 1253.85 2296.06 
456.989 1258.22 2294.94 
461.607 1237.46 2309.76 
460.273 1237.01 2308.65 
460.755 1240.13 2308.21 
460.776 1239.53 2308.6 
458.585 1241.66 2303.31 
458.196 1244.45 2301.16 
459.087 1241.36 2304.07 
459.434 1241.46 2304.47 
459.771 1240.37 2307.16 
457.773 1249.53 2298.82 
457.993 1246.71 2299.72 
458.67 1253.24 2299.01 
459.571 1221.1 2322.22 
460.424 1220.12 2322.87 
460.736 1220.42 2322.39 
463.717 1218.94 2324.25 
462.393 1219.62 2323.12 
463.839 1219.25 2323.52 
459.135 1221.97 2321.77 
458.916 1223.1 2323.94 
458.937 1223.58 2324.58 
458.617 1222.71 2323.76 
459.072 1223.27 2325.81 
459.975 1222.2 2330.89 
460.735 1223.62 2333.68 
461.096 1224.18 2336.55 
461.875 1227.39 2335.2 
462.351 1228.33 2335.04 
462.679 1229.01 2334.66 
462.74 1228.94 2333.8 
463.425 1230.27 2333.28 
468.237 1218.41 2330.66 
471.017 1218.27 2330.48 
469.004 1217.5 2334.83 
470.984 1216.82 2330.81 
472.215 1216.48 2329.87 
471.596 1217.16 2339.52 
464.206 1222.33 2357.15 
467.459 1225.81 2348.23 
469.789 1225.75 2346.25 
475.778 1220.36 2340.63 
478.418 1222.67 2341.5 
477.943 1222.16 2343.45 
476.534 1222.71 2344.04 
471.501 1224.7 2345.56 
477.869 1222.66 2340.87 
466.619 1218.97 2359.57 
467.773 1218.79 2330.02 
467.387 1219.04 2328.06 
466.617 1218.5 2326.06 
466.692 1218.63 2325.3 
466.676 1218.73 2324.42 
482.758 1218.94 2356.29 
494.338 1206.92 2349.43 
496.87 1204.77 2350.57 
489.755 1212.41 2345.57 
486.858 1213.01 2346.47 
482.915 1212.97 2354.24 
482.662 1214.24 2349.42 
483.489 1212.34 2349.28 
485.422 1213.26 2347.05 
500.556 1207.72 2343.9 
502.285 1205.4 2342.11 
482.165 1221.09 2355.91 
481.332 1222.27 2355.39 
478.597 1222.38 2356.9 
479.911 1221.83 2356.56 
477.768 1222.88 2357.11 
475.727 1221.37 2355.95 
475.503 1221.63 2357.58 
465.91 1221.96 2362.85 
463.235 1222.7 2362.4 
476.072 1219.72 2354.62 
477.237 1219.47 2352.09 
478.255 1223.41 2356.07 
479.221 1222.65 2356.09 
480.192 1222.1 2355.73 
463.16 1222.52 2360.39 
463.779 1224.62 2354.6 
465.8 1224.89 2352.08 
469.126 1225.36 2347.64 
471.729 1224.51 2346.52 
478.143 1218.83 2352.01 
478.202 1218.6 2348.97 
478.122 1221.38 2344.98 
480.106 1220.83 2343.8 
479.781 1219.65 2345.81 
466.025 1221.18 2362.07 
470.617 1213.84 2357.5 
470.699 1214.83 2358.19 
471.312 1214.22 2355.64 
471.161 1213.7 2355.06 
471.283 1213.78 2356.4 
464.818 1220.59 2360.95 
465.373 1220 2360.75 
466.007 1219.35 2360.55 
466.365 1218.96 2360.65 
466.782 1218.7 2360.05 
461.755 1283.02 2314.43 
461.706 1283.42 2314.76 
462.687 1281.69 2314.22 
463.49 1280.83 2315.22 
461.519 1282.89 2313.05 
462.563 1283.54 2316.12 
462.593 1284.61 2316.79 
463.908 1284.03 2320.94 
462.194 1285.81 2316.82 
462.32 1286.44 2317.57 
462.969 1287.99 2318.53 
463.051 1288.08 2319.1 
463.86 1284.85 2321.24 
464.504 1283.09 2322.48 
464.442 1283.73 2321.65 
465.682 1275.54 2309.96 
465.712 1275.83 2310.99 
465.339 1274.9 2308.46 
465.738 1277.98 2312.04 
465.713 1276.09 2309.85 
465.742 1278.33 2312.66 
465.203 1279.23 2313.26 
464.401 1284.95 2322.89 
464.604 1283.48 2323.05 
463.75 1285.5 2321.96 
462.838 1290.73 2321.73 
463.303 1289.79 2320.23 
462.021 1269.77 2307.58 
463.57 1273.77 2314.52 
462.593 1270.52 2307.88 
462.188 1269.97 2306.51 
464.657 1274.37 2312.75 
465.085 1274.42 2310.81 
465.346 1274.8 2310.44 
465.598 1262.5 2308.51 
463.159 1264.89 2305.46 
465.263 1263.32 2308.53 
465.23 1262.78 2307.52 
465.28 1263.02 2308 
464.187 1263.71 2306.39 
462.497 1265.03 2303.21 
462.145 1265.77 2302.08 
461.544 1267.62 2301.94 
462.832 1264.61 2304.4 
463.235 1264.33 2305.08 
459.852 1271.37 2300.54 
461.133 1270.58 2302.95 
461.183 1271.19 2303.13 
461.593 1270.97 2303.94 
462.249 1270.84 2305.2 
462.467 1270.38 2306.12 
462.489 1270.68 2305.69 
497.17 1216.34 2337.3 
496.994 1215.16 2337.57 
497.628 1215.03 2335.82 
495.901 1222.09 2320.49 
495.382 1220.41 2321.19 
496.48 1218.82 2318.31 
496.139 1218.3 2318.63 
496.583 1219.52 2321.8 
496.517 1218.43 2317.62 
506.537 1215.06 2308.52 
505.909 1213.85 2310.39 
506.984 1214.7 2308.79 
504.301 1213.4 2314.68 
507.377 1213.93 2310.52 
502.786 1209.33 2325.64 
502.824 1210.95 2322.77 
503.327 1213.73 2317.59 
503.511 1213.74 2318.44 
504.304 1208.63 2326.93 
501.644 1215.19 2312.25 
504.08 1216.82 2309.21 
505.435 1216.61 2307.99 
505.917 1215.55 2308.53 
505.978 1215.95 2308.1 
506.715 1215.66 2307.89 
502.993 1216.71 2310.27 
499.852 1216.7 2316.49 
498.411 1217.44 2317.14 
497.48 1218.17 2317.11 
496.965 1218.02 2317.43 
499.419 1217.37 2316.82 
495.724 1223.91 2319.69 
484.562 1228.61 2324.67 
474.992 1229.85 2327.62 
478.168 1229.29 2326.04 
481.351 1228.78 2324.56 
482.93 1228.79 2325.28 
485.426 1228.8 2326.91 
483.953 1228.87 2326.2 
494.353 1226.46 2320.53 
470.925 1217.29 2338.19 
470.107 1217.1 2332.48 
471.589 1216.03 2329.99 
478.451 1224.76 2338.6 
478.745 1222.77 2340.19 
478.797 1228.02 2335.02 
471.741 1218.02 2324.33 
472.277 1216.98 2324.61 
472.308 1215.55 2328.02 
472.123 1215.67 2329.53 
468.845 1226.05 2318.33 
469.257 1224.98 2319.02 
469.763 1224.3 2318.87 
470.376 1223.63 2318.45 
470.441 1222.5 2320.08 
470.959 1222.44 2318.88 
471.932 1219.86 2320.46 
476.83 1230.33 2331.1 
478.059 1229.66 2332.16 
472.946 1230.76 2329.46 
473.123 1230.5 2330.35 
473.133 1230.55 2328.91 
494.446 1226.13 2320 
464.473 1229.11 2331.25 
466.845 1228.45 2320.26 
468.141 1227.16 2318.34 
464.835 1228.65 2325.6 
463.571 1227.46 2328.46 
463.684 1227.49 2327.26 
463.362 1226.33 2330.48 
462.996 1226.2 2332.25 
462.563 1225.23 2332.25 
462.172 1224.27 2332.13 
461.916 1224.7 2333.79 
465.417 1228.33 2323.24 
466.523 1227.52 2320.89 
465.169 1228.57 2323.76 
467.081 1228.06 2319.55 
467.343 1228.62 2318.84 
464.18 1228.41 2331.14 
463.169 1226.26 2331.52 
464.315 1231.02 2332.16 
463.962 1231.22 2333.53 
464.366 1231.31 2332.66 
463.533 1230.66 2333.9 
463.289 1230.22 2333.85 
462.28 1240.97 2309.35 
462.125 1241.69 2308.26 
462.413 1242.89 2307.03 
462.144 1243.59 2305.43 
462.229 1244.29 2304.95 
462.356 1245.19 2304.38 
462.386 1245.99 2303.83 
462.554 1246.54 2303.72 
461.968 1240.08 2309.47 
461.907 1240.52 2309.14 
462.005 1238.93 2309.78 
463.675 1246.62 2307.22 
463.521 1246.92 2305.55 
463.181 1246.94 2304.56 
463.538 1247.62 2308.51 
463.122 1249.27 2308.52 
463.331 1253.27 2309.08 
462.205 1252.82 2308.04 
461.359 1253.13 2306.96 
461.092 1253.64 2306.47 
464.093 1254.83 2309.1 
462.816 1253.89 2308.25 
464.197 1255.57 2308.76 
464.021 1256.93 2307.61 
464.316 1258.44 2309.92 
464.328 1257.98 2308.66 
464.924 1260.18 2309.52 
464.468 1259.05 2309.6 
465.313 1261.39 2310.04 
465.509 1262.46 2310.04 
464.125 1257.37 2308 
464.283 1257.91 2308.09 
463.382 1289.38 2319.53 
463.421 1289.85 2319.32 
463.202 1290.41 2319.15 
462.633 1291.04 2319.08 
461.591 1292.09 2319.17 
460.039 1292.53 2317.89 
460.758 1290.09 2316.87 
461.135 1288.43 2316.35 
460.912 1286.61 2315.2 
461.544 1287.62 2316.32 
460.819 1285.37 2314.84 
460.737 1284.3 2313.6 
461.635 1284 2315.13 
461.615 1284.75 2315.57 
460.733 1281.8 2308.48 
461.535 1282.06 2310.37 
458.602 1255.48 2298.5 
459.57 1259.04 2299.13 
459.886 1257.49 2300.62 
459.515 1259.96 2298.67 
458.769 1260.74 2297.54 
458.427 1263.3 2296.64 
460.603 1238.36 2308.69 
460.851 1240.82 2307.79 
458.726 1242.86 2302.68 
459.02 1241.76 2303.7 
458.585 1245.67 2300.85 
459.87 1241.22 2305.77 
460.614 1242.56 2304.63 
460.829 1241.15 2307.38 
458.183 1249.49 2299.16 
458.607 1252.23 2299.07 
459.014 1247.53 2300.32 
459.07 1253.07 2299.44 
459.422 1253.85 2299.84 
462.454 1220 2322.57 
461.041 1220.68 2322 
462.727 1220.37 2321.95 
460.214 1220.85 2322.16 
468.909 1218.56 2323.32 
467.941 1219.82 2321.6 
468.374 1219.43 2322.12 
468.859 1218.98 2322.69 
459.783 1222.25 2321.61 
459.856 1221.51 2321.74 
459.647 1223.1 2321.68 
459.899 1223.62 2321.72 
459.73 1223.64 2322.47 
459.346 1223.25 2323.61 
459.068 1222.73 2325.55 
458.737 1222.44 2324.8 
459.51 1222.89 2327.75 
459.723 1221.86 2330.14 
460.657 1222.75 2333.91 
459.925 1221.49 2331.16 
460.434 1221.84 2331.64 
460.971 1223.24 2336.33 
461.909 1227.34 2336.02 
462.443 1228.66 2335.47 
462.722 1229.3 2335.2 
463.045 1229.68 2334.23 
469.692 1219.9 2329.99 
473.065 1216.59 2329.75 
471.8 1217.99 2330.09 
470.536 1216.87 2332.09 
463.528 1222.9 2357.59 
479.879 1222.32 2340.39 
479.854 1221.69 2342.32 
472.874 1224.43 2345.69 
479.486 1222.71 2339.54 
465.801 1219.94 2359.19 
464.833 1221.07 2358.9 
468.662 1219.43 2329.24 
468.153 1219.01 2327.66 
467.68 1218.39 2325.53 
469.374 1217.68 2324.7 
469.129 1218.22 2323.8 
483.435 1220.19 2355.38 
493.092 1212.25 2342.79 
498.591 1208.65 2344.59 
484.32 1217.11 2344.54 
483.731 1215.97 2346.82 
481.383 1215.01 2352.45 
481.821 1216.22 2348.39 
501.483 1208.75 2340.45 
504.229 1207.85 2336.04 
505.498 1207.03 2334.24 
482.791 1220.61 2355.24 
481.422 1221.73 2354.92 
465.297 1222.08 2363.18 
464.677 1221.96 2363.42 
463.283 1222.31 2361.95 
462.885 1223.23 2362.45 
464.227 1221.21 2361.05 
464.343 1221.86 2361.02 
462.902 1222.46 2361.21 
463.661 1221.81 2361.14 
478.894 1217.38 2351.45 
480.316 1217.55 2348.06 
480.598 1217.19 2351.98 
482.442 1220.98 2340.53 
480.772 1221.88 2340.48 
466.636 1221.56 2362.27 
467.358 1221.08 2362.26 
471.174 1214.53 2358.17 
471.276 1214.8 2357.09 
471.792 1214.41 2355.74 
471.97 1214.76 2356.29 
472.015 1213.94 2356.07 
471.881 1214.04 2356.98 
464.685 1220.84 2360.46 
465.895 1219.65 2360.13 
462.96 1281.17 2313.65 
462.103 1281.83 2311.55 
464.222 1280.17 2313.94 
462.404 1285.23 2316.84 
461.939 1286.27 2316.55 
462.588 1288.22 2317.78 
463.36 1289.42 2318.99 
464.347 1284.81 2322.18 
465.468 1274.92 2309.51 
464.839 1274.17 2307.17 
465.492 1277.16 2310.46 
464.882 1275.83 2307.81 
464.96 1274.91 2307.44 
465.433 1278.85 2312.65 
464.475 1284.23 2321.87 
464.641 1283.85 2322.62 
462.524 1270.36 2306.64 
463.908 1273.31 2311.93 
463.056 1272.25 2311.21 
463.709 1272.05 2308.73 
463.496 1271.55 2307.51 
464.712 1273.36 2308.8 
465.057 1274.1 2309 
464.978 1274.02 2308.41 
464.99 1262.72 2307.02 
462.463 1264.58 2302.95 
462.004 1265.21 2301.67 
463.07 1264.04 2304.69 
461.759 1265.51 2301.25 
461.093 1267.63 2301.2 
459.891 1267.41 2299.37 
459.867 1272.78 2300.99 
460.186 1273.11 2301.49 
461.191 1272.08 2303.01 
461.916 1271.35 2304.41 
463.207 1272.59 2305.43 
463.322 1272.15 2305.96 
463.348 1271.72 2306.45 
497.527 1214.93 2336.32 
496.613 1215.51 2337.85 
497.462 1215.48 2336.58 
497.633 1215.45 2336.1 
496.324 1222.42 2320.84 
495.87 1220.47 2321.53 
496.264 1219.36 2321.4 
496.3 1218.24 2318.03 
496.11 1219.88 2321.47 
509.037 1215.26 2307.11 
507.733 1214.34 2309 
509.635 1215.13 2307.25 
510.184 1213.77 2312.14 
512.315 1213.66 2310.54 
510.815 1214.13 2309.24 
503.806 1209.57 2324.84 
504.852 1213.93 2318.24 
504.822 1212.53 2320.24 
510.283 1213.66 2313.35 
504.781 1208.67 2326.18 
505.56 1207.84 2327.75 
505.617 1216.96 2307.34 
505.377 1217.9 2307.45 
505.98 1216.41 2307.53 
506.779 1216.21 2307.31 
506.595 1216.54 2306.94 
508.467 1215.97 2306.61 
500.761 1216.24 2314.16 
500.08 1216.45 2315.95 
503.008 1217.33 2310.34 
504.969 1218.64 2307.79 
500.132 1217.17 2316.38 
498.638 1217.92 2317.24 
494.891 1225.21 2320.01 
496.17 1223.84 2320.05 
474.606 1229.76 2327.12 
476.996 1229.4 2326.17 
473.19 1230.38 2328.39 
479.883 1228.93 2324.84 
481.271 1229.1 2326.05 
482.336 1229.09 2326.79 
494.058 1225.98 2322.63 
484.14 1229.02 2327.7 
494.62 1226.15 2321.35 
494.93 1225.62 2321.25 
494.769 1225.56 2322.17 
479.257 1228.37 2334.03 
479.22 1227.2 2336.69 
479.362 1224.94 2337.92 
472.805 1215.94 2324.9 
472.631 1217.26 2322.81 
472.795 1215.12 2327.05 
472.519 1215.41 2328.74 
468.347 1226.89 2317.91 
470.099 1224.91 2316.93 
470.73 1224.09 2316.68 
477.212 1230.02 2329.6 
480.027 1229.63 2330.09 
471.909 1230.79 2329.19 
473.552 1229.67 2327.07 
494.746 1225.9 2320.67 
464.887 1229.99 2331.14 
467.652 1228.15 2318.37 
467.776 1227.51 2318.43 
464.646 1228.32 2324.61 
463.497 1227.15 2326.17 
462.53 1226.06 2328.95 
462.676 1226.31 2327.59 
462.514 1224.91 2330.81 
461.825 1223.64 2332.39 
463.428 1227.22 2332.34 
462.278 1226.85 2335.78 
462.459 1226.19 2334.22 
462.103 1225.46 2334.35 
466.77 1226.85 2320.77 
467.067 1226.87 2320.08 
467.513 1227.12 2319.11 
467.561 1227.87 2319.01 
465.655 1227.46 2322.26 
464.26 1228.99 2332.16 
463.901 1228.12 2332.07 
464.795 1230.73 2331.04 
464.683 1230.65 2332.35 
464.271 1230.78 2331.71 
464.052 1231.57 2334.12 
463.183 1230.16 2334.43 
463.441 1230.69 2334.46 
461.927 1242.6 2306.61 
461.377 1243.43 2304.55 
461.525 1244.18 2304.16 
461.597 1245.06 2303.61 
462.021 1246.16 2303.29 
462.123 1246.87 2303.01 
462.37 1248.72 2303.19 
462.388 1248.19 2303.2 
461.935 1247.95 2302.52 
461.717 1249.21 2302.07 
463.571 1247.23 2307.14 
463.393 1247.71 2305.53 
463.29 1248.29 2306.93 
462.899 1249.56 2307.77 
461.87 1251.47 2307.02 
460.961 1252.91 2306.22 
460.771 1254.24 2305.65 
463.646 1254.88 2308.41 
462.563 1254.33 2307.7 
461.329 1254.33 2306.4 
463.996 1257.79 2306.61 
464.394 1258.46 2307.18 
464.897 1259.54 2308.28 
465.501 1261.22 2308.72 
465.624 1261.96 2308.58 
464.683 1259.04 2307.67 
463.17 1289.92 2318.79 
461.553 1291.62 2318.62 
460.62 1291.34 2317.68 
461.069 1290.18 2317.31 
461.231 1288.88 2316.89 
461.488 1285.64 2315.83 
462.272 1288.98 2317.7 
461.077 1280.78 2308 
459.542 1279.22 2303.81 
463.073 1280.59 2311.47 
462.884 1280.1 2310.36 
459.463 1265.86 2298.34 
459.767 1256.53 2300.4 
459.751 1254.63 2300.37 
460.447 1258.55 2301.15 
460.846 1259.99 2301 
460.456 1260 2299.92 
460.218 1256.77 2301.6 
460.164 1262.57 2299.3 
460.601 1261.15 2300.21 
459.182 1245.67 2301.5 
459.797 1243.88 2302.81 
459.945 1243.07 2303.43 
460.208 1242.74 2303.93 
460.796 1241.82 2306.22 
459.806 1249.37 2300.41 
459.409 1250.92 2299.74 
459.608 1251.65 2299.78 
460.489 1247.53 2301.58 
459.853 1253.68 2300.43 
467.701 1220.25 2321.15 
462.56 1220.88 2321.46 
467.487 1221.09 2320.25 
468.3 1220.82 2320.4 
461.971 1221.27 2321.31 
470.672 1216.76 2324.58 
470.862 1217.38 2323.55 
470.769 1219.34 2321.09 
470.72 1220.51 2319.74 
470.661 1218.51 2322.24 
460.3 1222.28 2321.47 
460.16 1222.78 2321.51 
460.39 1221.34 2321.55 
461.806 1221.76 2321.12 
460.494 1223.27 2321.43 
460.602 1223.83 2321.41 
460.441 1223.79 2322.35 
459.975 1223.41 2323.46 
459.65 1223.09 2324.53 
459.193 1223.08 2326.86 
459.05 1222.65 2326.51 
459.625 1221.39 2330.28 
460.725 1222.26 2332.5 
460.346 1221.94 2334.61 
459.356 1222.29 2327.84 
459.887 1221.72 2329.65 
460.762 1222.02 2333.13 
461.445 1222.95 2332.64 
462.151 1228.03 2335.76 
462.45 1228.83 2336 
471.162 1223.11 2330.22 
469.537 1221.36 2329.13 
473.064 1216.04 2330 
463.859 1222.17 2358.75 
480.428 1222.31 2339.63 
480.304 1222.7 2338.97 
464.856 1220.97 2359.39 
470.086 1217.39 2325.9 
468.8 1219.14 2327.36 
469.896 1217.37 2325.18 
471.619 1216.48 2326.62 
471.564 1216.3 2325.9 
470.865 1216.59 2325.21 
495.567 1212.67 2340.29 
487.99 1219.2 2337.51 
493.589 1216.4 2335.42 
498.427 1210.2 2342.52 
499.926 1210.02 2340.82 
501.653 1209.9 2339.06 
503.704 1208.98 2335.68 
504.972 1209.27 2332.23 
505.627 1208.79 2331.51 
506.333 1207.15 2332.04 
506.424 1208.44 2330.19 
466.396 1222.13 2362.23 
462.448 1223.2 2361.79 
463.199 1223.06 2362.82 
464.573 1221.68 2361.61 
462.86 1222.78 2361.98 
463.866 1221.68 2361.77 
463.378 1222.63 2359.3 
481.489 1222.87 2338.23 
484.099 1224.76 2334.21 
482.478 1223.63 2337.05 
465.35 1221.38 2362.28 
471.383 1214.96 2358.48 
472.134 1215.22 2357.17 
472.431 1214.75 2356.05 
472.689 1215.33 2356.94 
471.974 1213.86 2355.36 
472.663 1214.23 2356.72 
472.556 1214 2355.54 
472.318 1214.31 2357.17 
464.084 1221.49 2360.51 
465.117 1220.56 2360.04 
465.43 1220.13 2360.21 
463.931 1280.35 2313.25 
462.97 1280.82 2312.29 
464.981 1274.01 2307.88 
464.209 1275.14 2305.58 
464.469 1274.11 2306.42 
464.394 1274.75 2305.9 
465.322 1277.7 2310.63 
464.61 1276.07 2307.46 
465.251 1278.23 2311.13 
464.563 1273.21 2308.02 
464.467 1273.26 2307.44 
465.392 1261.9 2307.56 
465.539 1261.65 2308.17 
465.285 1262.34 2307.27 
464.14 1263.3 2305.94 
462.739 1263.69 2303.95 
462.351 1264.14 2302.67 
461.977 1264.73 2301.34 
461.702 1265.03 2301.02 
463.129 1263.53 2304.68 
460.89 1266.51 2300.45 
460.693 1265.42 2299.89 
459.933 1274.67 2301.09 
460.712 1273.81 2302.09 
460.506 1274.45 2301.73 
461.442 1272.89 2303.2 
462.138 1272.09 2304.42 
462.993 1273.15 2304.86 
464.137 1274.19 2305.77 
463.754 1274.19 2305.26 
464.329 1273.45 2306.84 
497.26 1216.13 2336.68 
495.604 1221.23 2321.76 
495.55 1221 2321.31 
497.054 1223.19 2320.54 
496.421 1220.08 2321.91 
496.666 1219.52 2320.14 
496.925 1219.25 2318.28 
496.952 1218.97 2317.86 
510.274 1215.97 2305.93 
510.356 1215.1 2307.28 
514.432 1212.85 2311.41 
515.01 1211.76 2309.55 
513.865 1213.8 2310.18 
512.924 1214.3 2308.7 
505.704 1211.59 2321.41 
510.95 1213.14 2314.16 
510.788 1212.67 2315.23 
514.461 1212.46 2312.2 
506.696 1209.07 2325.11 
507.049 1211.01 2321.6 
506.946 1207.6 2327.6 
506.02 1217 2307.01 
505.913 1217.77 2307.01 
505.527 1218.92 2307.29 
505.957 1218.77 2306.95 
506.444 1216.87 2306.36 
508.26 1216.38 2306.24 
500.906 1216.86 2314.24 
502.584 1217.52 2311 
500.385 1217.22 2315.93 
504.846 1219.16 2307.92 
497.221 1218.57 2316.89 
500.477 1217.79 2316.38 
495.061 1225.04 2320.49 
476.974 1229.25 2325.49 
478.278 1229.12 2325.25 
472.7 1230.27 2327.69 
471.497 1230.7 2328.56 
479.862 1229.1 2325.6 
481.318 1229.38 2328.04 
483.122 1229.22 2328.51 
486.206 1228.32 2327.05 
491.258 1226.94 2324.21 
493.482 1226.17 2323.06 
495.227 1224.88 2320.96 
494.3 1225.44 2322.81 
494.996 1225.05 2322.28 
495.268 1224.85 2321.76 
480.126 1227.78 2334.65 
483.165 1228.51 2329.59 
479.989 1227.16 2336.5 
480.217 1224.98 2337.3 
472.851 1216.15 2323.83 
472.458 1216.71 2323.31 
472.89 1215.18 2328.03 
469.467 1225.58 2317.48 
468.95 1225.76 2317.68 
467.919 1226.76 2318.7 
471.155 1222.78 2317.59 
471.508 1221.31 2319.28 
472.294 1218.38 2322.08 
475.512 1229.69 2327.55 
478.841 1229.65 2328.63 
463.697 1229.41 2334.5 
463.821 1229.18 2333.84 
465.003 1227.39 2322.93 
463.468 1227 2325.01 
462.264 1225.76 2327.12 
462.564 1226.02 2326.14 
461.595 1225.03 2328.44 
461.525 1223.93 2330.23 
467.131 1226.19 2320.27 
467.574 1226.4 2319.46 
466.541 1226.29 2321.03 
462.488 1227.73 2336.19 
462.165 1227.88 2337.21 
464.757 1230.85 2331.58 
464.183 1231.07 2333.98 
463.177 1230.36 2337.93 
464.505 1231.92 2333.62 
464.806 1232.23 2333.9 
463.945 1231.58 2334.71 
464.286 1232.02 2334.4 
463.2 1230.39 2334.9 
463.497 1230.97 2335.05 
461.587 1246.06 2302.93 
461.658 1246.97 2302.56 
461.241 1248.77 2301.65 
460.848 1250.29 2300.96 
461.295 1250.84 2301.32 
462.941 1248.42 2304.5 
462.585 1249.34 2304.23 
461.896 1250.4 2302.64 
461.469 1251.36 2301.85 
462.365 1250.01 2304.71 
461.901 1251.11 2306.62 
460.713 1253.28 2305.7 
460.509 1253.34 2305.14 
460.461 1254.03 2305.09 
460.424 1255.37 2303.73 
463.596 1255.82 2307.61 
463.745 1257.35 2306.36 
461.323 1254.79 2305.99 
462.393 1255.02 2306.97 
464.694 1259.47 2306.68 
464.105 1258.51 2305.98 
463.861 1258.35 2305.54 
463.537 1258.03 2305.17 
465.473 1261.17 2307.92 
462.569 1290.38 2318.57 
461.982 1289.42 2317.66 
461.619 1290.93 2318.12 
461.824 1290.13 2317.85 
462.188 1279.44 2308.29 
460.658 1279.66 2305.61 
462.462 1277.94 2306.39 
460.111 1279.05 2304.31 
460.019 1277.56 2302.96 
464.066 1279.93 2312.03 
463.918 1279.17 2310.59 
462.833 1279.52 2309.58 
460.567 1264.52 2299.58 
460.068 1255.91 2301.37 
459.871 1255.31 2300.66 
461.04 1258.53 2302.3 
461.194 1259.37 2302.07 
461.195 1261.21 2301.52 
461.424 1260.08 2302.18 
460.906 1263.24 2300.27 
461.727 1264.48 2300.95 
461.339 1263.31 2300.93 
460.433 1245.88 2302.2 
460.265 1252.07 2300.4 
460.637 1252.33 2300.99 
466.761 1222.12 2319.78 
467.709 1221.67 2319.76 
470.29 1221.91 2318.56 
470.591 1221.45 2318.64 
466.2 1222.64 2319.77 
471.325 1216.34 2324.63 
471.543 1216.95 2323.63 
471.185 1218.06 2322.45 
471.53 1218.47 2321.69 
471.595 1219.49 2320.43 
471.104 1220.72 2319.19 
460.82 1222.29 2321.31 
460.749 1222.82 2321.34 
461.836 1222.35 2321.01 
465.835 1223.05 2319.9 
461.364 1223.41 2321.12 
460.301 1223.46 2323.99 
460.914 1224.11 2322.81 
459.936 1223.04 2325.3 
460.003 1223.09 2327.06 
459.82 1222.43 2329.64 
460.578 1222.14 2330.87 
462.489 1229.03 2336.52 
462.983 1229.82 2335.04 
471.823 1219.44 2330.04 
470.425 1221.91 2329.16 
472.824 1215.52 2329.32 
472.56 1216.05 2329.93 
473.865 1216.85 2329.84 
470.674 1216.97 2326.37 
472.088 1216.43 2327.59 
469.303 1219.38 2327.54 
472.286 1216.12 2327.16 
472.245 1216.16 2326.59 
495.906 1214.4 2337.02 
498.48 1211.09 2340.38 
497.821 1212.53 2338.48 
496.181 1213.78 2338.3 
490.202 1222.8 2330.13 
496.407 1217.92 2328.73 
497.81 1215.17 2332.79 
501.527 1210.74 2338.53 
503.229 1209.93 2335.71 
502.806 1210 2337.26 
502.594 1210.66 2336.98 
504.192 1209.94 2332.48 
504.756 1210.03 2331.47 
505.395 1210.05 2330.72 
505.84 1209.8 2330.25 
506.263 1209.18 2329.99 
506.822 1207.13 2330.95 
506.689 1208.17 2329.76 
506.535 1209.04 2329.12 
467.482 1221.58 2362.09 
465.082 1222.44 2362.78 
464.89 1221.8 2362.75 
464.417 1222.24 2363.78 
462.396 1222.71 2361.24 
464.473 1221.63 2362.21 
464.411 1221.42 2359.71 
482.224 1225.77 2335.17 
480.594 1227.21 2335.77 
489.102 1225.94 2327.18 
480.805 1225.36 2336.54 
471.786 1215.31 2358.69 
472.95 1215.71 2357.49 
472.471 1215.42 2358.32 
472.373 1213.63 2354.97 
473.028 1215.15 2356.45 
472.807 1214.58 2357.29 
463.687 1222.01 2360.35 
463.839 1222.06 2359.68 
463.908 1280.28 2312.65 
464.705 1279.76 2312.93 
464.05 1274.75 2305.29 
463.705 1275.28 2304.81 
465.407 1278.62 2312.08 
465.001 1278.27 2310.68 
464.964 1277.63 2309.77 
465.211 1261.27 2307.01 
465.017 1261.68 2306.68 
464.986 1262.19 2306.66 
463.899 1262.53 2305.4 
462.219 1262.45 2303.45 
461.918 1263.32 2302.17 
462.408 1261.55 2303.72 
460.369 1274.91 2301.59 
461.985 1274.94 2303.16 
462.171 1274.5 2303.47 
462.556 1273.85 2304.07 
497.345 1215.01 2336.84 
497.595 1219.83 2319.36 
497.022 1219.46 2318.94 
510.618 1215.46 2306.14 
510.865 1215.82 2305.7 
515.301 1210.82 2309.78 
515.684 1209.76 2307.96 
515.091 1212.52 2309.75 
511.474 1214.83 2307.6 
511.397 1215.35 2306.14 
513.472 1211.86 2314.48 
514.664 1211.96 2312.9 
515.477 1210.31 2310.43 
512.388 1211.5 2316.13 
510.828 1210.38 2319.63 
508.919 1207.59 2326.37 
506.531 1217.36 2306.43 
506.268 1218.11 2306.76 
505.889 1219.34 2306.95 
510.003 1216.46 2305.9 
501.174 1217.45 2314.04 
503.703 1218.67 2309.52 
505.007 1219.8 2307.84 
499.969 1217.82 2316.86 
499.73 1218.39 2317.39 
498.71 1218.55 2317.51 
472.439 1230.04 2327.01 
475.47 1229.39 2325.72 
471.071 1230.44 2327.95 
478.679 1229.32 2326.63 
470.28 1230.72 2328.55 
488.789 1227.23 2325.98 
493.111 1226.12 2323.51 
494.738 1224.88 2322.93 
495.153 1224.44 2322.88 
495.726 1224.22 2321.92 
495.5 1224.54 2321.31 
495.527 1224.1 2322.51 
496.474 1224.05 2320.77 
473.238 1214.97 2327.4 
473.203 1214.91 2325.61 
471.934 1217.34 2322.89 
472.13 1216.18 2324.22 
469.345 1225.05 2317.52 
468.68 1225.47 2318.46 
468.097 1225.94 2319.07 
469.847 1224.38 2317.18 
470.354 1223.74 2317.02 
470.871 1222.03 2318 
462.436 1228.9 2337.48 
463.52 1226.3 2322.87 
465.797 1226.26 2321.28 
461.989 1225.09 2324.02 
461.47 1224.6 2325.02 
461.325 1224.67 2327.48 
460.796 1223.92 2326.04 
460.769 1223.73 2328.94 
464.343 1232.2 2335.28 
463.207 1230.98 2336.58 
463.132 1230.36 2337.29 
463.804 1231.61 2335.6 
463.125 1230.44 2335.52 
461.86 1250.87 2305.42 
461.07 1252.43 2303.57 
460.842 1252.86 2301.89 
460.771 1252.57 2305.08 
460.867 1252.57 2305.65 
460.248 1254.42 2303.34 
460.692 1255.46 2304.25 
462.126 1256.24 2305.29 
463.082 1256.82 2305.86 
461.182 1255.76 2304.69 
465.16 1260.46 2307.39 
464.033 1258.93 2305.53 
463.147 1257.64 2304.86 
463.237 1278.35 2308.34 
461.699 1278.06 2305.11 
464.095 1277.44 2308.37 
463.766 1276.44 2306.31 
463.061 1276.65 2305.08 
461.521 1277.61 2304.29 
459.933 1276.24 2302.09 
461.159 1277.04 2303.43 
461.006 1276.5 2302.84 
460.024 1255.05 2301.37 
460.101 1254.53 2301.58 
460.261 1253.7 2301.18 
460.047 1254.51 2301.03 
462.185 1258.44 2303.42 
461.078 1257.61 2302.85 
460.545 1256.78 2302.67 
461.489 1261.07 2302.31 
461.118 1262.24 2301.2 
461.78 1260.88 2302.85 
461.642 1259.78 2302.54 
470.013 1222.6 2318.19 
469.178 1223.6 2318.21 
472.438 1215.65 2326.28 
471.968 1215.74 2325.19 
461.423 1222.82 2321.09 
464.981 1223.59 2320.22 
468.55 1224.15 2318.84 
461.958 1223.32 2320.91 
460.656 1223.79 2324.2 
461.375 1224.58 2322.39 
461.172 1224.33 2323.37 
462.973 1229.4 2336.94 
462.832 1229.72 2336.03 
470.446 1221.08 2328.91 
471.802 1219.02 2329.57 
473.19 1215.6 2329.75 
473.627 1215.85 2330.12 
470.825 1217.11 2327.16 
496.97 1213.88 2336.75 
493.638 1222.88 2326.89 
497.056 1219.27 2326.14 
500.091 1215.44 2328.41 
499.773 1216.89 2326.58 
498.031 1218.8 2324.8 
497.521 1219.22 2324.76 
497.343 1215.17 2334.01 
499.892 1213.26 2331.52 
498.844 1213.45 2332.4 
498.358 1214.42 2331.38 
502.767 1210.47 2335.57 
503.501 1210.37 2333.34 
504.006 1210.24 2332.09 
505.29 1210.38 2330.15 
506.316 1209.58 2329.16 
507.158 1207.12 2330.22 
506.732 1208.56 2329.09 
506.74 1209.45 2327.94 
508.06 1209.23 2327.11 
506.734 1210.28 2328.21 
464.378 1221.35 2362.71 
464.278 1222.21 2363.12 
463.794 1222.23 2363.36 
463.681 1222.74 2363.12 
462.878 1222.72 2360.77 
494.098 1224.91 2323.99 
473.664 1216.2 2358.03 
473.156 1215.61 2358.13 
473.812 1215.56 2356.84 
473.771 1215.94 2357.49 
473.547 1214.69 2356.93 
473.106 1214.45 2356.8 
473.767 1214.53 2356.44 
473.24 1214.25 2356 
473.29 1214.81 2357.38 
463.635 1274.56 2304.86 
463.322 1275.22 2304.4 
464.511 1276.95 2308.33 
463.506 1276.16 2305.19 
463.707 1275.71 2305.07 
463.226 1275.98 2304.5 
464.822 1260.49 2306.36 
464.866 1261.15 2306.36 
464.242 1260.7 2305.62 
463.099 1261.04 2304.41 
462.541 1259.33 2303.58 
461.697 1275.27 2302.87 
461.198 1275.9 2302.65 
496.064 1220.71 2321.96 
496.806 1222.74 2321.2 
496.685 1219.73 2321.2 
497.336 1219.81 2320.25 
498.319 1220.17 2319.55 
497.62 1219.53 2318.64 
497.411 1218.95 2317.62 
498.925 1219.61 2318.25 
496.942 1219.87 2322.02 
497.252 1219.9 2321.5 
498.594 1218.96 2317.81 
516.034 1208.51 2307.67 
516.265 1208.28 2306.49 
515.614 1210.75 2308.34 
515.085 1213.17 2309.97 
516.196 1209.25 2306.94 
513.493 1214.32 2308.7 
512.573 1215.58 2306.91 
512.749 1215.25 2307.54 
511.986 1215.6 2306.31 
512.71 1214.92 2307.93 
511.449 1215.61 2305.37 
514.555 1214.01 2309.85 
515.52 1210.29 2313.05 
515.515 1210.25 2311.7 
516.079 1208.43 2309.01 
515.388 1210.3 2314.43 
514.529 1210.15 2316.3 
509.32 1206.81 2327.59 
513.462 1209.12 2319.59 
506.846 1218.02 2306.4 
508.144 1217.08 2305.79 
506.298 1219.1 2306.7 
509.738 1217.18 2305.86 
510.275 1217.05 2305.67 
510.66 1216.43 2305.55 
501.588 1218 2313.51 
504.12 1219.36 2309.05 
500.597 1217.7 2315.89 
505.504 1220.38 2307.45 
500.706 1218.29 2316.64 
500.182 1218.74 2317.45 
499.783 1219.02 2317.78 
501.031 1218.75 2316.72 
501.149 1218.53 2315.98 
473.592 1229.59 2326.54 
474.154 1229.71 2326.72 
471.02 1230.27 2327.47 
476.911 1229.58 2327.43 
494.932 1224.3 2323.45 
495.493 1223.69 2323.31 
495.795 1223.53 2322.77 
495.995 1221.93 2324.79 
497.061 1224.01 2321.56 
496.176 1223.79 2322.06 
497.272 1223.2 2321.43 
475.188 1214.07 2326.78 
473.752 1214.43 2325.96 
472.638 1215.22 2325.5 
469.103 1224.64 2318.26 
469.452 1224.14 2317.82 
468.538 1225 2319.07 
467.995 1225.35 2319.6 
470.016 1223.58 2317.42 
470.633 1223.03 2317.31 
462.566 1229.37 2337.27 
463.797 1226.33 2322.19 
463.076 1225.68 2321.73 
465.859 1225.67 2320.81 
466.632 1225.9 2320.65 
467.568 1225.73 2319.91 
463.409 1230.99 2335.56 
463.048 1230.59 2336.26 
462.81 1229.96 2336.83 
460.467 1253.65 2301.9 
460.483 1253.39 2303.42 
460.942 1256.81 2303.3 
462.018 1257.32 2303.91 
462.077 1257.84 2303.63 
463.528 1258.81 2304.74 
462.7 1276.35 2304.18 
472.91 1215.25 2326.3 
468.234 1224.6 2319.22 
461.502 1223.96 2321.19 
464.652 1224.14 2320.43 
461.842 1225.26 2321.84 
471.708 1218.53 2329.22 
470.709 1220.56 2328.89 
473.213 1215.26 2328.51 
473.477 1215.43 2329.29 
473.587 1216.36 2329.96 
474.036 1216.31 2329.73 
472.535 1216.29 2327.93 
472.698 1215.79 2327.18 
471.148 1217.22 2327.6 
497.633 1213.46 2336.63 
498.27 1212.82 2337.8 
499.037 1211.77 2338.46 
499.806 1211.6 2338.27 
500.506 1212.42 2339.6 
500.733 1213.3 2339.67 
501.58 1211.87 2338.54 
502.121 1211.69 2337.85 
495.386 1222.05 2325.54 
497.087 1219.81 2324.99 
501.253 1215.45 2327.06 
503.519 1218.15 2321.56 
502.524 1216.82 2324.04 
499.448 1217.79 2325.52 
503.363 1218.84 2320.77 
497.78 1219.45 2323.45 
498.463 1218.95 2323.91 
497.273 1219.8 2324.08 
497.351 1214.77 2334.52 
497.924 1214.25 2332.28 
500.951 1212.61 2330.58 
500.27 1212.14 2332.2 
499.02 1212.81 2333.46 
502.176 1211.23 2337.59 
502.395 1210.78 2335.34 
503.256 1210.6 2332.93 
505.723 1210.39 2329.77 
506.638 1211.13 2328.95 
508.47 1207.56 2327.34 
508.085 1208.54 2326.93 
508.088 1210.17 2327.55 
509.459 1208.28 2325.43 
509.164 1209.19 2326.18 
507.968 1211.06 2328.05 
463.946 1222.63 2363.62 
462.54 1223.54 2362.84 
463.277 1222.57 2363.45 
462.556 1222.56 2362.55 
473.826 1215.47 2357.73 
474.385 1215.57 2356.98 
472.861 1213.72 2355.08 
473.37 1214.04 2355.52 
473.734 1215.14 2356.42 
474.091 1214.51 2356.05 
463.981 1259.72 2305.28 
498.075 1220.14 2320.69 
498.914 1220.44 2319.45 
498.473 1220.11 2319.02 
499.336 1219.95 2318.49 
500.52 1219.82 2317.97 
499.933 1219.56 2318.04 
497.443 1219.92 2322.05 
511.036 1216.26 2304.72 
510.793 1215.87 2304.13 
516.734 1206.54 2305.2 
516.616 1206.71 2306.45 
516.588 1207.54 2305.56 
515.421 1211.94 2309.04 
515.722 1211.38 2308.16 
514.133 1214.37 2308.61 
513.892 1214.74 2308.25 
512.737 1215.95 2306.3 
512.245 1215.8 2305.57 
513.257 1215.4 2307.46 
513.29 1214.83 2308.11 
511.598 1216.01 2304.83 
516.103 1208.42 2310.36 
516.097 1208.5 2311.8 
516.657 1206.65 2307.74 
516.138 1208.7 2313.86 
512.444 1208.31 2322.01 
508.542 1206.78 2328.52 
515.891 1209.26 2315.54 
508.269 1218.1 2306.04 
509.423 1217.83 2305.88 
506.755 1218.74 2306.43 
508.132 1218.61 2306.13 
510.791 1217.27 2305.37 
502.157 1218.54 2312.73 
504.686 1220.18 2308.52 
505.559 1220.87 2307.61 
505.732 1220.12 2307.07 
500.393 1219.26 2317.77 
500.758 1219.01 2317.34 
502.756 1219.12 2311.99 
501.836 1218.92 2314.28 
501.67 1219.15 2315.78 
472.18 1229.57 2326.18 
470.595 1229.98 2327.19 
469.795 1230.58 2328.33 
496.483 1222.26 2323.71 
497.091 1220.16 2324.43 
497.765 1223.13 2321.7 
496.974 1222.54 2322.88 
473.303 1214.84 2326.1 
466.825 1225.37 2320.19 
461.197 1224.46 2321.53 
463.254 1225.19 2321.39 
465.887 1225.22 2320.46 
463.951 1224.46 2320.74 
461.946 1224.3 2321.28 
471.749 1217.73 2328.61 
470.846 1218.96 2328.38 
473.795 1215.09 2328.23 
474.021 1215.16 2328.85 
473.365 1215.74 2328.37 
473.316 1216.85 2329.11 
474.145 1215.58 2329.53 
472.957 1215.87 2327.85 
499.032 1212.48 2334.99 
499.994 1211.66 2334.67 
499.138 1212.05 2337.8 
499.524 1211.75 2337.53 
500.671 1211.51 2338.91 
499.95 1211.48 2337.77 
500.258 1213.04 2339.54 
501.163 1212.81 2338.93 
502.013 1212.34 2338.43 
503.248 1216.46 2323.56 
504.27 1218.1 2320.94 
501.622 1213.9 2327.9 
506.99 1219.73 2316.84 
506.829 1219.26 2317.48 
501.988 1219.18 2321.25 
507.123 1220.12 2316.38 
497.901 1219.76 2322.39 
498.063 1219.54 2322.99 
497.496 1219.79 2322.98 
500.436 1219.55 2321.54 
497.121 1220.07 2323.45 
497.543 1214.36 2333.57 
501.469 1211.77 2330.63 
501.386 1211.09 2335.58 
502.868 1210.71 2333.32 
501.185 1212.24 2339.26 
503.65 1210.6 2331.65 
504.041 1210.56 2331.2 
504.407 1210.68 2330.19 
505.381 1210.64 2329.42 
506.725 1212.09 2329.49 
507.864 1211.92 2328.55 
507.614 1206.82 2329.86 
510.972 1208.37 2323.04 
509.08 1210.07 2326.63 
510.649 1208.57 2323.57 
509.554 1209.13 2325.63 
509.039 1210.97 2327.03 
463.548 1222.92 2363.82 
462.454 1222.94 2363.2 
473.63 1213.71 2355.1 
474.244 1214.97 2356.28 
474.335 1214.2 2355.6 
496.918 1220.19 2322.6 
499.184 1220.4 2319.92 
499.74 1220.24 2318.85 
500.926 1219.53 2317.66 
498.732 1220.07 2321.1 
499.706 1219.99 2320.89 
511.236 1216.18 2305.28 
510.089 1215.96 2304.02 
511.297 1215.85 2304.31 
509.968 1215.51 2303.47 
516.987 1205.74 2304.24 
515.011 1213.79 2308.99 
515.907 1210.45 2307.31 
516.309 1208.61 2305.97 
513.153 1215.83 2306.84 
513.204 1216.26 2306.18 
513.539 1216.2 2306.62 
512.785 1216.2 2305.62 
513.843 1215.55 2307.44 
514.021 1215.18 2307.89 
516.639 1206.88 2309.09 
516.682 1207.13 2309.74 
517.122 1205.71 2306.04 
516.743 1207.42 2310.15 
516.613 1208.02 2311.54 
508.55 1207.06 2328.03 
516.168 1208.41 2312.78 
508.031 1219.1 2306.2 
506.735 1219.7 2306.43 
509.437 1218.39 2305.9 
506.186 1219.9 2306.73 
510.467 1217.75 2305.49 
505.844 1220.77 2307.05 
504.278 1220.29 2309.94 
502.385 1219.37 2313.91 
504.266 1220.42 2310.48 
502.19 1219.61 2315.81 
469.954 1230.25 2327.71 
496.742 1220.76 2323.78 
496.485 1221.25 2323.29 
497.524 1222.48 2322.45 
498.383 1223 2321.76 
496.069 1221.24 2322.35 
496.251 1221.82 2322.95 
475.874 1213.89 2328.72 
480.361 1213.03 2329.45 
463.61 1224.73 2321.01 
473.679 1214.73 2326.92 
472.683 1216.7 2328.48 
474.564 1214.91 2329.41 
474.362 1214.79 2328.56 
473.038 1216.19 2328.39 
474.626 1214.45 2328.26 
500.417 1211.39 2334.31 
500.622 1211.3 2332.45 
500.167 1211.48 2335.99 
501.756 1213.01 2338.99 
501.382 1212.7 2339.44 
501.25 1213.37 2339.66 
503.134 1215.57 2324.43 
505.159 1217.23 2320.41 
505.565 1217.8 2319.57 
507.743 1218.18 2317.52 
502.916 1213.06 2326.05 
508.649 1220.06 2315.51 
508.822 1219.55 2315.63 
508.967 1219.06 2315.77 
505.371 1220.07 2317.66 
507.992 1220.65 2315.38 
505.543 1220.32 2317.11 
502.737 1212.13 2328.16 
502.757 1212.52 2327.51 
500.901 1211.24 2331.79 
501.287 1210.95 2331.63 
500.843 1211.21 2336.69 
501.008 1211.14 2333.78 
501.86 1210.83 2333.59 
500.951 1211.26 2337.7 
502.147 1210.7 2332.78 
502.442 1210.67 2332.16 
503.556 1210.85 2330.36 
504.797 1210.78 2329.46 
505.989 1211.02 2329.7 
507.779 1212.82 2329.08 
508.862 1211.96 2327.65 
511.557 1208.42 2322.4 
515.067 1209.88 2317.01 
514.113 1209.33 2318.41 
509.897 1210.18 2325.55 
510.738 1209.16 2323.89 
513.49 1209.63 2318.62 
513.25 1210.11 2318.88 
509.771 1211.57 2326.25 
463.208 1223.14 2363.32 
462.8 1223 2363.63 
496.549 1220.49 2322.44 
496.58 1220.75 2322.92 
501.124 1220.02 2318.01 
501.192 1220.23 2318.67 
501.46 1219.5 2316.86 
500.282 1220.25 2319.53 
505.474 1220.57 2316.23 
510.488 1216.62 2304.48 
509.545 1216.09 2303.51 
509.137 1215.1 2302.69 
509.311 1215.63 2303.27 
510.746 1215.37 2304.06 
511.26 1215.27 2304.5 
509.621 1214.81 2303.02 
510.082 1214.63 2303.33 
517.19 1204.95 2303.98 
516.674 1207.03 2304.95 
516.081 1209.69 2306.42 
515.284 1213.63 2308.36 
513.801 1216 2307.1 
513.253 1216.54 2305.66 
512.363 1216.22 2304.98 
514.604 1215.24 2308.01 
511.955 1216.17 2304.48 
511.739 1215.39 2304.72 
517.165 1206.01 2306.48 
517.3 1206.46 2307.01 
517.281 1206.82 2307.6 
516.926 1207.62 2309.7 
515.495 1209.55 2316.67 
516.8 1208.13 2310.26 
516.436 1209.15 2313.19 
509.983 1217.77 2305.68 
508.136 1219.64 2306.34 
509.579 1219.1 2305.98 
506.677 1220.26 2306.65 
511.161 1217.65 2305.17 
505.184 1220.91 2308.34 
505.94 1221.38 2307.9 
505.895 1221.49 2308.41 
502.572 1219.6 2314.96 
503.237 1219.8 2312.85 
504.746 1220.81 2310.35 
505.457 1221.34 2308.77 
501.829 1219.99 2316.98 
474.966 1214.39 2328.9 
475.237 1213.88 2328.33 
478.402 1213.32 2329.57 
483.248 1212.47 2330.88 
477.714 1213.56 2328.1 
473.933 1214.05 2326.35 
473.941 1214.77 2327.53 
473.99 1214.33 2327.17 
501.092 1210.85 2332.62 
501.268 1213.88 2339.68 
501.996 1214.06 2339.54 
502.379 1212.86 2338.16 
502.285 1213.77 2339.13 
504.135 1214.31 2323.68 
505.956 1215.32 2320.21 
505.447 1215.22 2321.06 
506.796 1217.83 2318.49 
506.57 1215.39 2319.76 
509.197 1218.12 2316.1 
508.616 1217.04 2317.77 
509.551 1217.15 2316.83 
509.042 1220.32 2315.17 
509.461 1219.83 2315.08 
509.499 1218.72 2315.57 
508.525 1220.74 2314.98 
503.371 1211.94 2327.59 
502.094 1211.26 2330.59 
503.125 1212.27 2326.37 
501.515 1210.67 2332.35 
504.58 1210.98 2328.89 
502.407 1210.93 2330.88 
505.519 1211.12 2330.06 
506.625 1212.71 2330.04 
505.47 1211.26 2329.46 
507.702 1213.66 2329.58 
508.904 1212.81 2327.91 
516.357 1209.8 2314.27 
514.953 1210.37 2316.69 
511.281 1209.77 2323.41 
510.674 1210.75 2324.69 
513.2 1210.57 2319.36 
514.536 1210.8 2316.74 
513.865 1211.29 2316.9 
510.975 1211.62 2324.61 
509.909 1212.69 2326.48 
461.983 1223.48 2363.23 
475.059 1215.63 2356.7 
474.332 1213.58 2354.99 
474.753 1214.92 2356.13 
504.048 1220.49 2317.03 
501.664 1220.23 2318.3 
503.639 1220.47 2316.49 
501.566 1219.97 2317.57 
507.662 1220.8 2314.95 
506.873 1220.74 2314.49 
509.88 1216.56 2303.85 
508.975 1216.2 2302.92 
508.347 1215.79 2302.31 
508.525 1215.28 2302.56 
508.429 1215.43 2301.86 
508.923 1215.17 2302 
509.312 1216.7 2303.26 
510.57 1214.45 2303.72 
511.038 1214.29 2304.06 
509.853 1214.51 2302.08 
516.448 1207.89 2305 
516.055 1210.51 2306.33 
514.541 1214.69 2308.29 
515.543 1213.71 2307.92 
515.728 1212.92 2307.35 
515.9 1212.23 2306.86 
513.703 1216.97 2305.82 
513.436 1216.98 2304.99 
513.649 1216.61 2306.25 
512.758 1216.76 2304.41 
514.327 1216.24 2307.54 
512.226 1216.44 2304.14 
514.288 1215.61 2307.78 
517.146 1205.26 2305.02 
517.563 1206.04 2305.66 
517.253 1207.43 2307.35 
516.933 1209.16 2310.37 
517.075 1208.39 2308.28 
510.057 1218.65 2305.72 
508.336 1220.24 2306.54 
510.069 1219.74 2306.01 
510.434 1219.27 2305.68 
510.839 1218.19 2305.31 
511.154 1216.95 2305.22 
510.814 1217.12 2304.62 
506.232 1221.32 2307.42 
506.439 1221.74 2308.16 
508.521 1220.77 2306.77 
502.956 1220.04 2315.49 
503.845 1220.1 2312.93 
505.748 1221.66 2309.14 
480.588 1212.87 2330.2 
485.764 1211.95 2332.04 
474.588 1214.28 2327.61 
474.873 1213.89 2327.87 
474.221 1213.84 2326.8 
502.299 1213.34 2338.76 
505.508 1213.72 2321.56 
505.07 1213.74 2322.82 
507.897 1215.68 2318.77 
506.543 1213.89 2320.31 
510.089 1218.01 2315.53 
509.947 1217.26 2315.9 
509.993 1216.86 2316.8 
509.26 1216.7 2317.39 
508.932 1215.27 2318.42 
509.047 1215.73 2318.08 
503.494 1212.29 2325.35 
504.137 1212.84 2324.57 
509.688 1220.52 2314.71 
508.951 1220.72 2314.41 
510.487 1219.32 2314.71 
510.38 1220.31 2314.42 
502.868 1211.77 2328.54 
503.685 1211.73 2326.85 
503.534 1211.85 2325.84 
503.804 1211.3 2328.53 
504.566 1210.99 2328.38 
504.426 1211.25 2327.03 
507.646 1214.47 2330.05 
508.923 1213.7 2328.22 
515.72 1210.21 2315.91 
516.4 1210.5 2314.19 
516.924 1210.13 2311.05 
515.495 1210.82 2315.57 
511.893 1210.5 2322.8 
513.071 1211 2319.63 
512.024 1211.96 2318.07 
515.089 1212.11 2314.76 
511.682 1211.14 2323.45 
512.244 1211.17 2322.68 
511.352 1212.39 2324.47 
510.563 1213.37 2325.84 
509.716 1214.11 2327.29 
509.56 1213.43 2327.24 
462.562 1223.39 2363.88 
462.337 1223.78 2364.12 
474.962 1214.35 2355.47 
474.824 1213.79 2355.17 
475.533 1214.7 2355.42 
502.008 1220.2 2319.07 
504.41 1220.54 2316.24 
503.159 1220.32 2315.98 
502.033 1220.28 2317.88 
504.076 1220.52 2315.38 
506.023 1220.7 2314.12 
507.45 1220.81 2314.29 
508.027 1220.81 2314.49 
506.504 1220.88 2313.67 
507.262 1216.18 2302.18 
508.207 1216.4 2302.15 
507.178 1216.2 2301.45 
507.923 1215.74 2302.94 
