399.186 1423.96 2660.7 
419.798 1409.47 2674.55 
413.356 1415.06 2669.82 
407.85 1420.73 2663.12 
404.568 1422.38 2660.9 
400.784 1423.71 2658.72 
399.111 1424.72 2653.95 
397.874 1424.98 2650.23 
429.796 1402.14 2671.5 
426.881 1404.33 2672.39 
422.145 1409.96 2670.33 
419.716 1411.08 2671.26 
416.651 1413.69 2669.32 
410.916 1417.8 2666.92 
412.582 1419.99 2662.99 
412.021 1421.52 2660.43 
407.789 1422.22 2659.72 
404.951 1423 2658.25 
403.786 1423.54 2655.21 
403.082 1423.53 2651.55 
402.015 1423.37 2646.77 
437.745 1394.32 2667.08 
433.071 1398.54 2670.85 
431.334 1402.72 2668.27 
428.996 1406.24 2667.42 
426.166 1406.98 2669.59 
421.151 1413.9 2665.7 
416.096 1416.52 2666.27 
413.735 1418.27 2665.26 
415.821 1421.89 2658.77 
415.546 1422.87 2657.24 
412.223 1422.55 2658.39 
411.892 1422.97 2657.37 
408.282 1422.74 2657.8 
407.054 1423.01 2656.12 
406.224 1422.98 2653.06 
405.958 1422.7 2649.72 
405.402 1422.3 2647.69 
405.361 1421.15 2643.35 
439.226 1393.43 2664.99 
436.773 1397.79 2662.84 
434.05 1400.24 2666.14 
431.947 1406.07 2663.45 
430.315 1408.04 2664.14 
427.864 1410.11 2664.96 
428.962 1411.21 2662.84 
426.598 1411.62 2664.39 
426.376 1413.16 2662.43 
421.049 1417.56 2660.29 
417.279 1419.85 2660.82 
423.711 1414.4 2661.99 
417.189 1422.23 2657.21 
416.45 1423.07 2656.34 
415.995 1423.47 2655.81 
415.104 1423.41 2656.3 
412.024 1423.26 2656.52 
415.061 1423.79 2655.3 
408.73 1422.94 2656.27 
408.234 1422.93 2653.75 
407.853 1422.75 2651.1 
407.753 1422.41 2649.52 
407.433 1421.3 2646.28 
410.075 1418.91 2642.05 
409.01 1418.76 2639.99 
440.808 1391.39 2663.4 
438.658 1394.95 2662.7 
435.744 1401.74 2660.31 
436.866 1398.64 2660.94 
437.542 1397.12 2661.4 
431.423 1408.62 2661.42 
429.057 1412.74 2661.81 
428.711 1413.38 2661.93 
428.352 1413 2662.18 
428.553 1413.3 2661.37 
426.897 1413.81 2660.64 
429.484 1415.08 2659.81 
424.258 1416.71 2657.31 
421.097 1419.23 2657.21 
417.194 1422.97 2655.66 
416.555 1423.51 2655.17 
416.186 1423.74 2654.74 
411.538 1423.37 2655.76 
414.374 1423.84 2655 
415.508 1423.89 2654.66 
411.563 1423.42 2654.86 
411.765 1423.39 2653.77 
412.173 1423.32 2652.84 
412.376 1423.09 2651.87 
412.499 1422.64 2650.53 
409.103 1421.08 2646.51 
411.074 1418.73 2642.52 
414.152 1416.89 2640.67 
411.928 1417.18 2638.85 
440.698 1391.58 2661.72 
439.052 1394.42 2661.4 
438.233 1395.93 2661.21 
437.038 1400.32 2658.96 
435.876 1403.53 2658.03 
437.34 1401.74 2656.96 
437.485 1399.79 2658.32 
437.426 1397.75 2660.02 
438.076 1396.33 2660.09 
430.81 1410.29 2660.36 
429.992 1415.49 2660.89 
429.792 1414.95 2660.53 
427.154 1413.9 2660.15 
428.725 1415.57 2659.22 
424.943 1417.09 2655.69 
425.328 1416.48 2656.84 
429.73 1417.26 2659.4 
429.012 1417.22 2658.99 
423.917 1418.15 2654.54 
425.04 1417.75 2653.95 
420.335 1420.5 2655.75 
419.552 1421.38 2654.84 
417.138 1423.3 2654.75 
416.711 1423.57 2654.4 
416.326 1423.69 2654.05 
414.695 1423.87 2654.31 
415.701 1423.83 2654.02 
414.997 1423.75 2653.57 
415.385 1422.83 2651.34 
415.607 1423.63 2653.34 
412.519 1421.68 2648.21 
413.811 1420.35 2646.03 
411.542 1419.01 2643.34 
415.303 1417.58 2642.34 
416.426 1415.24 2639.57 
416.14 1414.24 2638.02 
441.227 1389.96 2660.25 
439.977 1392.69 2660.48 
438.571 1395.07 2659.58 
436.129 1403.57 2657.26 
437.321 1402.01 2656.47 
432.472 1408.39 2658.48 
437.676 1401.45 2656.34 
437.727 1399.67 2657.6 
437.752 1397.23 2658.88 
438.267 1395.84 2658.41 
430.227 1411.97 2660.02 
429.414 1414.46 2661.68 
430.882 1417.73 2660.12 
430.857 1417.21 2660.89 
430.291 1417.85 2659.57 
426.678 1414.98 2658.8 
427.975 1415.69 2658.81 
428.313 1416.76 2658.59 
425.424 1417.1 2655.46 
425.399 1417.44 2654.62 
425.745 1416.63 2656.33 
429.384 1417.96 2658.7 
428.714 1417.4 2658.43 
424.173 1418.61 2652.69 
425.888 1417.5 2654.19 
421.47 1420.08 2653.51 
419.123 1421.76 2654.25 
417.184 1423.33 2654.23 
416.738 1423.48 2653.73 
416.261 1423.55 2653.42 
416.801 1422.32 2650.86 
419.107 1420.14 2646.87 
417.319 1419.38 2645.14 
418.123 1418.61 2644.31 
418.241 1416.72 2642.2 
419.174 1414.8 2640.64 
418.615 1413.42 2638.61 
418.017 1411.84 2636.09 
439.789 1391.43 2657.89 
439.102 1392.53 2657.04 
438.486 1393.92 2655.95 
437.613 1402.06 2655.93 
434.306 1405.57 2657.94 
433.181 1407.55 2657.45 
431.755 1409.88 2657.51 
430.58 1411.3 2658.78 
437.936 1401.28 2655.94 
437.874 1399.51 2657.14 
437.918 1396.94 2657.9 
438.12 1395.99 2657.37 
430.1 1412.71 2659.8 
430.409 1416.24 2661.65 
431.331 1419.13 2659.84 
430.573 1418.9 2659.24 
431.898 1419.64 2660.07 
431.287 1417.84 2661.11 
429.871 1418.47 2658.77 
427.335 1415.9 2658.28 
426.471 1416.06 2657.4 
427.685 1416.3 2658.27 
427.978 1416.8 2658.1 
426.796 1416.96 2656.26 
426.805 1416.36 2656.62 
428.462 1417.67 2657.69 
428.141 1417.27 2657.77 
424.889 1418.46 2651.29 
425.952 1417.72 2653.1 
423.25 1419.43 2650.72 
423.896 1419.42 2649.26 
421.887 1419.9 2652.57 
425.957 1417.67 2653.61 
426.812 1417.43 2655.37 
420.718 1420.48 2652.65 
418.961 1421.84 2653.59 
418.561 1422.03 2652.79 
417.653 1422.38 2652.04 
417.239 1422.38 2651.38 
419.394 1420.31 2648.17 
420.905 1419.75 2646.98 
422.161 1418.92 2645.7 
423.116 1419.07 2646.64 
422.223 1418.49 2645.1 
419.834 1418.05 2644.04 
420.539 1415.55 2641.97 
420.973 1417.13 2643.46 
421.201 1414.48 2641.17 
419.783 1413.01 2639.1 
421.102 1410.63 2638.26 
421.077 1409.67 2637.11 
419.516 1409.57 2634.7 
439.292 1390.17 2653.57 
438.562 1391.33 2651.44 
438.049 1393.52 2652.94 
436.971 1395.3 2651.6 
437.697 1396.29 2655.28 
437.93 1401.6 2655.39 
436.08 1403.64 2656.58 
434.623 1405.07 2656.96 
434.048 1405.87 2657.2 
433.278 1407.47 2656.75 
432.752 1408.77 2656.44 
431.595 1410.18 2656.81 
430.294 1411.74 2657.99 
437.923 1399.38 2656.63 
437.963 1396.83 2657.09 
429.912 1412.64 2658.59 
430.176 1413.42 2660.35 
430.711 1419.31 2658.9 
429.937 1418.92 2658.24 
432.29 1419.81 2660.46 
429.116 1418.37 2657.7 
427.128 1417.82 2655.09 
428.219 1418.28 2656.39 
425.086 1418.38 2650.71 
424.243 1419.19 2648.79 
422.866 1419.66 2649.84 
421.173 1420.14 2651.68 
419.892 1420.45 2650.07 
420.678 1420.04 2649.79 
421.568 1419.75 2647.64 
423.527 1419.42 2647.61 
423.038 1418.42 2645.46 
423.879 1418.7 2646.18 
423.996 1418.92 2647.07 
422.555 1417.89 2644.53 
421.808 1416.71 2643.31 
421.794 1414.37 2641.5 
422.631 1416.62 2643.66 
422.117 1411.25 2639.56 
423.23 1408.61 2638.56 
423.438 1410.27 2639.91 
422.005 1408.82 2637.12 
421.931 1407.57 2635.58 
423.451 1408.02 2638.21 
438.003 1391.84 2648.8 
436.7 1394.76 2650.17 
436.889 1396.07 2651.79 
435.611 1396.42 2648.57 
434.884 1396.48 2646.83 
437.203 1397.16 2653.31 
437.745 1397.33 2656.06 
436.119 1403.51 2656.08 
434.568 1404.92 2656.2 
434.001 1405.71 2656.29 
433.292 1407.39 2656.24 
431.666 1410.02 2656.19 
429.962 1412.05 2656.38 
438.012 1401.19 2655.09 
437.957 1400.92 2654.63 
437.911 1399.34 2656 
429.197 1413.25 2656.52 
429.894 1413.24 2659.29 
429.724 1414.26 2662.11 
430.249 1419.39 2658.06 
431.023 1419.85 2658.62 
428.932 1418.7 2656.8 
431.287 1417.03 2661.91 
431.874 1420.21 2659.41 
427.265 1418.23 2654.56 
425.302 1418.12 2650.26 
424.546 1418.94 2648.14 
422.239 1419.67 2648.94 
423.996 1419.26 2647.88 
423.351 1418.02 2645.06 
424.435 1418.69 2646.51 
422.92 1415.48 2643.01 
423.445 1417.53 2644.66 
423.372 1414.94 2643.09 
424.58 1411.72 2642.6 
425.021 1410.42 2642 
424.3 1408.43 2639.31 
422.959 1407.99 2637.43 
423.439 1407.01 2636.97 
424.458 1405.3 2637.34 
422.866 1407.61 2636.51 
436.742 1398.85 2651.68 
434.339 1397.94 2646.77 
436.081 1399.3 2650.34 
432.16 1399.05 2643.36 
432.909 1398.98 2644.9 
437.312 1399.31 2653.22 
437.536 1398.98 2654.22 
437.814 1399.18 2655.27 
436.003 1403.47 2655.57 
437.461 1402.34 2655.5 
437.725 1401.54 2654.52 
434.818 1403.83 2653.62 
434.119 1405.26 2655.7 
433.691 1405.84 2655.4 
436.327 1401.1 2651.64 
432.716 1408.74 2655.82 
430.193 1411.48 2655.41 
429.399 1412.58 2654.89 
437.796 1400.68 2654.22 
428.99 1413.72 2657.08 
428.002 1414.97 2654.15 
427.635 1414.79 2652.37 
429.261 1411.79 2653.52 
429.846 1413.83 2659.28 
430.321 1414.28 2662.51 
431.56 1416.24 2662.81 
432.417 1418.93 2661.28 
430.375 1419.75 2657.7 
426.217 1417.36 2652.66 
425.46 1417.84 2649.72 
424.88 1418.51 2647.68 
424.696 1418.72 2647.13 
426.48 1417.46 2653.35 
424.816 1418.25 2646.24 
424.344 1418 2645.64 
424.757 1413.17 2643.5 
424.949 1415.77 2645.14 
424.731 1417.02 2645.75 
424.809 1417.54 2645.86 
426.198 1411.06 2643.92 
426.775 1407.61 2642.15 
427.271 1409 2643.73 
425.052 1407.14 2639.65 
424.438 1406.14 2637.94 
425.27 1404.65 2638.29 
425.599 1404.01 2638.21 
430.198 1398.5 2638.28 
431.23 1399 2641.06 
434.376 1399.68 2647.3 
432.934 1401.09 2645.87 
436.646 1400.77 2652.03 
434.929 1400.68 2648.36 
429.896 1400.83 2640.94 
431.072 1401.01 2643.11 
431.388 1400.96 2643.84 
436.176 1402.76 2654.31 
436.939 1401.42 2653.23 
436.732 1401.92 2653.55 
435.477 1402.63 2652.82 
435.206 1402.24 2651.29 
434.345 1403.01 2650.51 
433.148 1403.81 2649.3 
432.104 1405.22 2649.95 
433.639 1405.34 2654.48 
433.267 1407.14 2655.43 
432.252 1406.57 2653.3 
433.29 1406.15 2654.85 
435.343 1401.55 2650.29 
434.737 1401.19 2648.34 
431.6 1409.77 2655.33 
432.823 1408.46 2655.4 
430.344 1410.9 2654.83 
429.864 1410.61 2653.6 
428.718 1414.34 2657.2 
427.581 1416.05 2654.39 
427.235 1416.42 2653.52 
427.408 1414.21 2649.1 
426.287 1416.39 2649.28 
426.602 1416.57 2652.15 
428.94 1411.16 2650.73 
429.498 1408.83 2649.59 
429.944 1408.67 2651.03 
429.375 1414.71 2658.14 
430.229 1414.21 2660.05 
427.72 1418.53 2654.81 
426.917 1416.85 2653.32 
431.468 1415.39 2663.37 
432.504 1418.25 2661.96 
428.759 1419.03 2655.92 
431.248 1420.21 2658.24 
431.517 1420.07 2658.67 
425.728 1417.44 2649.47 
425.235 1418.01 2647.49 
425.187 1418.02 2646.9 
425.939 1414.34 2645.32 
425.272 1417.4 2646.18 
426.229 1405.78 2640.28 
426.287 1414.11 2645.68 
427.775 1409.07 2644.63 
428.351 1406.51 2643.48 
428.102 1404.96 2641.73 
425.98 1405.13 2639.45 
425.887 1403.42 2637.92 
428.758 1401.77 2639.65 
430.334 1402.99 2643.53 
433.532 1402.11 2647.27 
429.952 1402.03 2642.45 
428.404 1403.4 2641.19 
434.323 1402.33 2648.78 
433.061 1403.31 2647.83 
430.644 1407.25 2650.66 
430.846 1406.37 2648.87 
430.22 1406.77 2647.24 
433.043 1407.04 2654.91 
431.502 1407.91 2653.52 
434.435 1401.88 2648.25 
431.536 1409.46 2654.78 
432.593 1408.43 2654.91 
428.058 1416.09 2655.28 
427.545 1417.06 2654.75 
427.342 1417.07 2654.18 
428.221 1412.4 2648.76 
426.38 1415.62 2647.24 
428.593 1410.41 2647.73 
429.989 1407.6 2648.91 
429.418 1408.07 2647.6 
428.884 1416.03 2657.22 
429.952 1414.96 2659.99 
430.674 1414.17 2662.95 
431.381 1414.59 2663.9 
432.675 1416.88 2663.36 
429.211 1419.1 2656.27 
432.815 1416.12 2664.16 
425.547 1417.15 2646.52 
427.618 1405.13 2641.28 
426.74 1413.44 2646.06 
428.742 1408.2 2645.89 
429.1 1405.18 2643.7 
429.8 1406.61 2646.2 
428.828 1403.86 2642.1 
427.395 1404.7 2640.56 
427.747 1404.31 2640.44 
426.65 1404.16 2637.12 
426.912 1405.27 2640.32 
426.054 1404.61 2639.03 
426.914 1404.99 2639.79 
428.015 1402.55 2638.55 
427.49 1403.75 2638.57 
430.264 1404.51 2644.65 
429.443 1404.67 2643.82 
431.224 1403.56 2645.04 
433.271 1402.78 2647.42 
433.777 1402.53 2647.91 
432.732 1407.24 2654.41 
432.222 1407.84 2654.12 
431.641 1408.71 2654.12 
427.888 1417.29 2655.31 
426.96 1413.68 2646.85 
428.524 1416.8 2657.22 
431.296 1413.83 2664.37 
431.342 1419.73 2659.29 
433.177 1415.64 2665.01 
427.273 1404.47 2639.77 
427.14 1404.1 2638.18 
427.389 1403.24 2637.4 
426.374 1403.95 2638.76 
428.587 1417.08 2657.92 
428.142 1417.93 2655.55 
429.92 1415.64 2660.32 
429.605 1419.23 2656.72 
432.868 1414.32 2665.71 
430.025 1419 2657.63 
431.729 1413.52 2664.89 
431.01 1414.63 2662.63 
426.862 1404.75 2639.32 
426.097 1403 2637.73 
428.943 1417.51 2657.86 
432.753 1417.46 2663.14 
431.337 1415.12 2662.64 
430.95 1418.16 2659.82 
426.932 1404.14 2639.49 
426.049 1404.7 2637.4 
426.032 1404.84 2637.93 
426.78 1404.49 2638.89 
426.604 1403.37 2638.58 
426.873 1403.99 2639.01 
426.048 1404.09 2637.98 
426.75 1402.49 2637.91 
