281.72 1040.17 594.191
248.99 1007.22 600.738
263.683 1019.1 598.809
272.832 1029.36 596.607
274.884 1031.74 591.716
279.081 1037.18 593.454
281.722 1040.27 591.764
284.404 1042.87 589.304
287.074 1045.63 588.962
246.276 1004.96 598.581
249.53 1006.96 597.079
252.978 1009.87 598.175
256.88 1012.78 597.899
259.721 1015.51 598.378
262.574 1018.11 596.372
267.139 1022.91 596.043
272.572 1028.84 591.875
275.551 1032.24 588.497
277.197 1034.71 589.954
280.993 1039.1 590.114
281.58 1039.47 588.101
283.367 1041.73 584.708
240.772 1001.54 600.709
242.075 1001.85 598.623
243.757 1002.75 597.487
243.945 1002.65 595.942
248.384 1005.75 594.012
252.956 1008.96 595.026
253.182 1009.57 596.583
256.33 1011.86 595.653
259.181 1014.49 595.317
263.428 1018.51 594.106
265.635 1020.59 592.873
268.474 1023.98 592.648
269.706 1025.25 590.06
272.806 1028.94 588.823
275.072 1032.04 586.325
272.756 1029.15 586.257
277.569 1035.34 585.799
278.041 1035.44 588.114
280.357 1038.35 586.093
281.304 1039.65 582.31
234.695 997.681 601.507
237.101 998.775 599.293
241.144 1000.84 597.038
243.095 1001.97 596.644
244.185 1002.79 592.965
240.719 1000.5 595.794
249.533 1006.32 590.248
252.297 1008.32 592.562
256.597 1011.77 594.174
260.171 1015.12 591.981
261.259 1016.29 593.56
263.497 1018.12 591.471
266.304 1020.97 590.515
266.726 1021.54 589.241
269.162 1025.04 586.143
274.403 1031.73 582.438
278.555 1036.67 582.532
216.197 986.573 603.945
220.774 988.59 600.862
222.972 990.329 603.016
225.628 992.042 604.002
227.037 992.458 599.903
231.663 995.379 599.873
235.495 997.4 597.386
242.451 1001.8 589.928
246.52 1004.56 587.394
244.628 1003.01 589.563
233.709 996.097 595.89
238.43 999.192 591.788
251.417 1008.08 587.18
256.169 1011.49 591.63
259.549 1014.73 588.902
262.694 1017.46 590.151
264.901 1019.29 589.615
266.062 1021.07 587.154
265.751 1021.46 582.46
212.118 984.379 603.956
216.476 986.322 601.01
212.808 984.449 601.434
220.909 988.237 598.012
223.889 990.184 598.916
223.364 990.174 600.582
227.223 992.285 596.344
231.321 994.85 592.052
228.221 992.921 592.516
234.407 996.432 594.338
235.01 997.046 592.601
235.473 997.503 590.637
233.923 996.569 588.205
255.475 1011.25 587.761
263.026 1017.89 588.106
264.458 1019.48 586.582
209.508 982.677 601.849
215.142 985.362 599.041
212.873 984.189 599.845
219.286 987.548 596.098
223.871 990.148 597.672
222.433 989.287 595.764
224.076 990.549 592.425
229.684 993.978 587.118
227.73 992.725 589.645
211.183 983.499 597.584
213.113 984.639 594.114
218.598 987.437 591.45
220.904 988.642 590.794
