-5.41846 999.249 424.609 
-3.41942 997.878 425.052 
-3.10687 997.728 424.196 
-2.87907 997.35 423.027 
-3.66135 998.161 425.662 
0.41071 997.392 422.207 
0.828101 997.272 421.444 
1.35727 997.031 421.487 
-2.54819 997.104 422.104 
-1.30864 997.251 421.875 
-0.0838976 997.431 421.344 
1.36608 997.108 420.282 
0.937629 997.529 418.91 
1.0222 997.317 419.792 
0.206816 998.102 417.877 
-1.60795 1000.23 414.695 
-3.73107 1002.66 410.665 
-4.51342 1003.21 409.176 
-3.00046 1001.74 412.815 
-4.75136 1003.94 407.75 
-4.63017 1003.67 408.504 
-17.1128 1015.54 416.195 
-17.0206 1015.44 416.324 
-16.9988 1015.07 415.822 
-15.5132 1011.9 415.745 
-14.9448 1011.14 415.517 
-13.776 1009.72 415.501 
-12.2647 1008.98 415.04 
-16.238 1013.62 416.028 
-15.6627 1012.06 416.04 
-8.90226 1007.47 409.165 
-9.50094 1005.98 410.632 
-9.41249 1003.71 411.27 
-9.24564 1004.8 410.378 
-9.49924 1003.57 411.908 
-6.55108 1006.45 407.196 
-6.27915 1006 407.203 
-5.65993 1004.74 407.607 
-7.42484 1007.12 408.046 
-7.01393 1006.87 407.51 
-6.75677 1006.54 407.378 
-11.2 1007.95 414.524 
-10.3072 1005.11 413.283 
-9.43163 1002.81 412.875 
-17.1636 1015.38 416.049 
-16.7902 1015.1 416.403 
-16.2148 1013.79 416.508 
-15.7312 1012.52 416.517 
-10.8964 1008.46 418.341 
-11.3572 1008.19 417.386 
-11.0757 1007.78 417.802 
-11.2589 1007.85 417.626 
-12.6938 1009.16 416.374 
-11.4413 1008.17 417.002 
-12.0552 1008.7 416.398 
-10.2802 1009.38 422.289 
-10.197 1008.58 422.148 
-10.181 1008.71 421.965 
-10.2511 1008.46 421.564 
-10.5334 1007.56 419.797 
-10.7597 1008.14 418.623 
-10.3848 1007.37 420.918 
-14.2922 1010.84 416.124 
-14.3042 1010.63 416.048 
-14.3014 1012.6 416.827 
-15.4533 1012.22 416.485 
-14.2309 1010.37 415.996 
-15.5167 1012.08 416.353 
-10.2717 1009.78 422.576 
-9.59223 1009.63 423.324 
-8.8538 1010.18 426.833 
-8.78845 1009.78 425.801 
-8.74464 1009.41 424.81 
-8.92037 1009.13 423.872 
-8.7694 1009.18 424.259 
-8.37714 1008.17 424.61 
-8.52196 1009.71 428.95 
-8.47847 1009.78 428.697 
-8.36895 1009.99 428.478 
-8.57565 1009.76 428.548 
-8.64943 1009.76 428.371 
-9.2104 1009.03 429.085 
-9.24061 1009.03 429.327 
-8.75843 1009.79 426.89 
-8.69722 1009.72 427.199 
-9.14514 1009.02 428.795 
-9.09331 1009 428.507 
-8.59012 1009.57 429.503 
-9.07658 1008.99 430.213 
-9.02652 1008.93 430.298 
-8.89121 1008.72 430.68 
-8.95122 1008.87 430.425 
-8.42307 1009.23 430.075 
-8.8145 1008.63 430.827 
-8.69608 1008.54 430.992 
-8.57387 1008.43 431.135 
-8.38016 1008.4 431.235 
-8.19209 1008.3 431.339 
-7.1292 1008.32 430.768 
-7.78249 1008.59 430.536 
-7.49149 1008.33 430.715 
-8.00825 1008.17 431.449 
-3.87185 1008.81 429.638 
-2.74175 1006.9 428.366 
-2.92637 1006.98 428.458 
-1.36061 1005.37 427.89 
-7.15305 1007.91 430.96 
-6.6071 1007.12 431.35 
-5.31629 1006.05 431.263 
-6.39897 1006.1 432.296 
-3.77445 1006.57 430.976 
-3.91924 1008.02 430.167 
-3.74397 1008.34 429.938 
-0.958252 1004.79 428.13 
-0.503868 1003.81 428.632 
-0.2154 1004.36 428.938 
-1.06104 1002.62 428.432 
-0.90644 1002.99 428.386 
-0.660504 1003.47 428.631 
-0.043097 1004.88 429.116 
-1.20169 1002.27 428.527 
-1.41047 1002.04 428.453 
-1.33438 1001.96 428.631 
-1.40202 1001.99 428.564 
-1.60443 1002.28 428.352 
-1.54234 1002.23 428.427 
-1.47697 1002.12 428.498 
-1.67387 1002.29 428.174 
-1.66662 1002.31 428.29 
-4.11022 998.317 425.2 
-3.91569 998.245 425.235 
-1.95557 1002.5 427.887 
-3.7184 1003.59 426.107 
-4.90517 1003.43 425.203 
-4.74078 1003.58 425.297 
-4.35125 1003.64 425.546 
-4.06939 1003.74 425.778 
-5.14185 1003.18 425.09 
-5.63022 1002.35 425.008 
-6.49982 1001.7 424.887 
-6.55971 1001.32 424.708 
-6.38659 1000.62 424.853 
-6.51871 1000.93 424.596 
-3.64838 1003.76 426.171 
-2.11929 1002.68 427.842 
-2.79451 1003.29 427.137 
-3.50314 1003.89 426.373 
-6.53303 1000.32 424.572 
-6.24937 1000.16 424.721 
-6.43399 1000.23 424.538 
-6.56191 1000.56 424.599 
-6.67197 1000.41 424.538 
-6.17532 1000.09 424.69 
-1.85919 1002.45 428.071 
-6.22183 1000.02 424.416 
-6.24635 999.926 424.125 
-5.378 999.068 424.01 
-4.28892 998.237 424.542 
-6.33007 999.851 423.717 
-3.70787 998.027 425.018 
-3.49667 997.639 423.845 
-3.0863 997.264 422.387 
0.26539 997.436 420.945 
0.509138 997.464 419.984 
0.96867 997.241 420.503 
-2.95186 997.098 421.602 
-2.56102 997.026 421.376 
-1.31882 997.227 421.102 
-0.0410639 997.511 420.051 
-1.34759 997.273 420.473 
0.262307 997.678 419.085 
-1.48794 997.875 418.655 
-0.561859 998.582 417.091 
-2.93183 999.488 416.396 
-4.11188 1002.77 410.766 
-4.84861 1003.19 409.427 
-5.14776 1003.71 408.823 
-3.40802 1001.74 413.02 
-5.43281 1004.15 408.206 
-17.0032 1015.12 416.084 
-16.9205 1015.07 416.266 
-15.2241 1011.36 415.771 
-14.7702 1010.49 415.723 
-13.9341 1009.34 415.859 
-12.7968 1009.17 415.37 
-11.4887 1008.33 415.289 
-16.2003 1013.66 416.244 
-15.7231 1012.19 416.194 
-15.3977 1011.62 415.972 
-7.86729 1006.87 408.605 
-8.98332 1006.16 409.564 
-9.03582 1005.14 409.633 
-9.10299 1003.59 411.034 
-9.07979 1002.79 412.242 
-9.02647 1004.78 409.899 
-6.39493 1005.92 407.401 
-6.21914 1005.36 407.561 
-5.81429 1004.61 407.975 
-7.40047 1006.84 408.152 
-7.11002 1006.76 407.776 
-6.86809 1006.46 407.623 
-6.61699 1006.14 407.463 
-10.106 1004.9 414.217 
-10.9701 1007.58 415.157 
-9.12727 1002 413.736 
-8.71552 1001.67 413.416 
-16.2149 1013.7 416.386 
-15.8034 1012.45 416.413 
-15.5762 1012.02 416.253 
-10.671 1006.93 419.288 
-11.3375 1007.9 417.457 
-10.7204 1006.64 418.951 
-11.2509 1007.4 417.417 
-12.8401 1009 416.268 
-14.1416 1010.09 415.971 
-11.1622 1007.68 416.797 
-12.0854 1008.62 416.193 
-10.0609 1008.9 422.5 
-10.2733 1007.37 421.407 
-9.76846 1007.13 422.119 
-10.0653 1007.27 421.661 
-10.5563 1006.52 420.816 
-15.5701 1011.96 416.154 
-9.48883 1009.19 423.089 
-8.54823 1009.01 425.864 
-8.38849 1008.35 424.913 
-8.64972 1008.72 424.141 
-8.81622 1008.62 423.735 
-8.40896 1007.99 424.333 
-8.07118 1007.34 425.043 
-8.12134 1007.15 424.446 
-7.90543 1006.96 425.091 
-7.99637 1007.03 424.786 
-9.12643 1009.06 430.018 
-8.69892 1009.6 428.844 
-9.17425 1009.08 429.765 
-9.20355 1009.08 429.5 
-9.38389 1008.29 430.451 
-9.32067 1008.38 430.964 
-9.51396 1008.49 430.817 
-9.03613 1008.94 427.882 
-8.97185 1008.76 427.662 
-9.0769 1009 428.199 
-9.31839 1008.27 430.145 
-9.13724 1008.26 429.866 
-9.01469 1008.63 432.117 
-9.13172 1008.71 432.172 
-8.98156 1008.46 431.842 
-8.76077 1008.45 431.938 
-8.83544 1008.5 432.001 
-8.64774 1008.4 431.884 
-8.47248 1008.35 431.92 
-8.23261 1008.2 432.068 
-8.02645 1008.06 432.167 
-7.79961 1008.02 431.575 
-7.43404 1007.93 431.134 
-7.80663 1007.91 432.287 
-3.58666 1008.69 429.675 
-3.01224 1007.28 428.644 
-1.35844 1005.42 427.998 
-1.4873 1006.08 428.281 
-0.650577 1005.12 428.563 
-7.06405 1007.52 431.302 
-7.37445 1007.45 432.298 
-8.089 1007.44 433.344 
-5.09957 1005.43 431.909 
-5.9423 1004.87 433.172 
-6.68167 1005.03 433.995 
-7.66297 1006.6 433.602 
-2.63553 1006.1 431.478 
-3.54384 1007.86 430.229 
-2.02272 1007.01 430.97 
-4.49475 1005.13 432.297 
-3.3995 1008.24 429.97 
-0.368981 1004.03 428.953 
-0.0623084 1004.62 429.281 
-1.09137 1002.54 428.548 
-0.90395 1002.96 428.563 
-0.597731 1003.55 428.877 
0.169625 1005.24 429.458 
-1.22249 1002.21 428.645 
-1.34416 1001.93 428.753 
-1.41755 1001.96 428.693 
-1.47121 1002.06 428.614 
-1.60979 1002.3 428.484 
-1.67389 1002.35 428.413 
-1.54389 1002.19 428.548 
-1.83371 1002.44 428.166 
-1.81408 1002.44 428.245 
-1.76071 1002.42 428.359 
-3.9928 997.977 424.305 
-3.67337 997.706 423.655 
-6.55051 1002.71 424.582 
-6.74586 1002.45 424.518 
-6.05713 1004.1 424.831 
-4.69832 1003.73 425.337 
-4.64872 1003.88 425.399 
-4.23843 1003.92 425.7 
-3.8615 1003.89 425.999 
-7.03609 1002.3 424.456 
-7.30451 1001.37 424.331 
-6.89935 1001.02 424.408 
-6.55057 1000.74 424.572 
-6.69163 1000.77 424.485 
-2.03254 1002.64 428.071 
-2.68075 1003.4 427.376 
-3.31423 1004.01 426.628 
-3.62984 1004.1 426.346 
-3.46032 1003.98 426.462 
-3.90496 1004.03 426.038 
-6.66894 1000.34 424.416 
-6.39269 1000.16 424.431 
-6.59441 1000.28 424.36 
-6.75607 1000.55 424.523 
-6.79082 1000.41 424.46 
-6.36856 1000.07 424.199 
-6.5267 1000.17 424.164 
-6.53147 1000.12 423.988 
-6.59199 1000.06 423.73 
-6.45113 999.785 423.15 
-5.28457 998.701 422.666 
-4.16241 997.839 422.925 
-6.70049 1000.02 423.446 
-3.62224 997.481 422.516 
-3.36803 997.248 421.729 
-2.92359 997.1 421.12 
-3.31077 997.231 421.301 
-2.65248 997.131 420.606 
-1.33955 997.461 419.645 
-2.85751 997.396 419.955 
-5.23576 999.071 417.865 
-3.276 997.7 419.363 
-5.56512 999.968 416.49 
-3.71934 1000.62 414.908 
-4.30421 1002.67 411.165 
-4.96077 1003.13 409.765 
-5.28895 1003.48 409.229 
-5.23414 1003.21 409.727 
-5.86663 1004.09 408.552 
-5.88137 1003.8 408.892 
-4.06814 1000.95 414.467 
-14.0514 1009.77 415.96 
-14.0438 1009.5 415.938 
-13.219 1009.29 415.696 
-11.9277 1008.63 415.824 
-11.088 1007.7 415.93 
-15.8134 1012.42 416.347 
-8.61794 1006.12 408.707 
-8.27912 1006.55 407.452 
-8.7435 1005.61 408.348 
-8.81087 1005.15 408.93 
-8.81509 1003.16 411.032 
-8.80133 1004.07 410.157 
-8.70698 1002.56 411.785 
-8.66886 1001.78 412.783 
-8.81894 1002.04 412.93 
-8.7223 1004.93 409.014 
-7.13374 1005.23 407.901 
-7.08923 1005.61 407.416 
-7.10542 1004.29 408.743 
-6.91987 1003.08 409.626 
-7.76979 1006.5 407.123 
-7.45759 1006.17 407.24 
-7.24656 1005.85 407.216 
-10.0158 1005.27 416.019 
-8.87959 1001.78 414.307 
-8.51347 1001.1 413.892 
-8.45328 1001.03 413.467 
-8.38501 1000.85 413.645 
-10.5422 1006.23 420.562 
-10.6549 1006.19 418.511 
-10.5191 1005.99 419.932 
-10.6544 1006.21 417.972 
-12.883 1009.08 415.952 
-9.39734 1008.57 422.925 
-9.77239 1005.9 421.638 
-10.4167 1006.33 421.029 
-8.88681 1006.89 423.143 
-9.26222 1005.2 422.619 
-9.85666 1005.65 421.275 
-8.82768 1008.33 427.459 
-8.12158 1007.52 425.939 
-8.0905 1007.47 425.355 
-8.46034 1007.72 423.992 
-8.55274 1007.44 423.694 
-7.88226 1007.07 425.444 
-7.8601 1006.98 425.289 
-8.0598 1006.83 424.371 
-7.8769 1006.73 424.814 
-7.76853 1006.68 425.128 
-7.67763 1006.64 425.394 
-9.23333 1008.78 432.2 
-9.39268 1008.6 431.437 
-8.94542 1008.29 431.628 
-8.90725 1008.09 431.219 
-9.09838 1008.58 432.011 
-8.90872 1008.45 432.104 
-9.05101 1008.18 429.583 
-8.96955 1008.04 429.405 
-8.90014 1007.92 430.772 
-8.76871 1007.77 430.5 
-8.75012 1008.55 432.225 
-8.77039 1008.57 432.333 
-8.94251 1008.67 432.329 
-8.94962 1008.68 432.42 
-8.54868 1008.41 432.098 
-8.46584 1008.37 432.218 
-8.40828 1008.32 432.076 
-8.11428 1008.12 432.255 
-7.83001 1007.91 432.434 
-7.67841 1007.82 431.641 
-7.48226 1007.68 432.089 
-7.68087 1007.75 432.486 
-7.32988 1007.59 431.383 
-7.85126 1007.68 432.795 
-3.26899 1008.73 429.639 
-2.53162 1007.42 428.781 
-0.707583 1005.96 428.727 
-0.434361 1005.49 428.909 
-0.776528 1006.99 429.176 
-7.81714 1007.59 432.828 
-8.14253 1007.55 433.371 
-8.6129 1007.19 434.228 
-8.92911 1007.55 434.391 
-5.56773 1004.42 433.551 
-6.89039 1002.96 436.389 
-8.36821 1002.03 438.374 
-7.4594 1004.2 435.353 
-2.11109 1004.81 433.309 
-1.71946 1007.15 430.88 
-1.9313 1003.47 435.137 
-3.0514 1008.3 429.936 
-0.286722 1004.15 429.216 
-0.0203517 1004.66 429.543 
0.191472 1005.09 429.642 
-1.03983 1002.64 428.668 
-0.776748 1003.17 428.86 
-0.468703 1003.77 429.183 
0.371527 1005.65 429.788 
-1.20667 1002.25 428.738 
-1.34667 1001.91 428.864 
-1.42947 1001.93 428.817 
-1.48849 1002.04 428.745 
-1.53612 1002.14 428.66 
-1.67928 1002.38 428.527 
-1.61032 1002.26 428.607 
-1.76423 1002.44 428.465 
-2.05384 1002.7 428.201 
-1.93288 1002.57 428.318 
-1.93201 1002.6 428.407 
-5.47156 1002.4 425.349 
-5.73684 1004.18 424.962 
-7.03241 1004.81 424.56 
-7.37317 1004.7 424.344 
-7.06913 1004.57 424.511 
-5.73821 1004.42 425.062 
-4.44033 1004.14 425.644 
-6.73332 1002.36 424.607 
-8.24384 1001.02 424.018 
-7.76989 1000.7 424.226 
-7.50749 1000.74 424.303 
-7.20302 1000.95 424.35 
-6.90066 1000.69 424.481 
-2.61957 1003.46 427.605 
-3.25206 1004.22 426.836 
-3.6105 1004.28 426.467 
-3.98923 1004.21 426.054 
-3.89557 1004.31 426.206 
-4.26432 1004.25 425.837 
-6.74204 1000.33 424.272 
-6.85882 1000.4 424.318 
-6.60698 1000.26 424.263 
-6.91512 1000.48 424.461 
-6.72317 1000.26 424.009 
-6.72544 1000.28 424.129 
-6.71731 1000.24 423.895 
-6.85614 1000.22 423.619 
-6.83743 999.965 422.924 
-6.5261 999.046 420.574 
-5.08107 998.325 421.32 
-5.45199 998.192 420.522 
-7.02507 1000.2 423.328 
-3.73091 997.439 421.513 
-3.1337 997.243 420.684 
-3.47963 997.344 420.931 
-5.26867 998.167 419.942 
-5.01072 998.181 419.38 
-5.03835 998.355 418.994 
-6.40249 999.504 417.508 
-6.3305 1000.1 416.536 
-6.11874 1000.15 416.384 
-5.9526 1000.22 416.142 
-5.39197 1000.25 415.845 
-4.50504 1001.69 413.071 
-5.15673 1003 410.229 
-5.59967 1003.33 409.462 
-6.30676 1001.81 410.897 
-6.66913 1002.79 409.891 
-6.4155 1002.34 410.346 
-8.5389 1005.85 407.667 
-8.39063 1005.59 407.815 
-8.49546 1002.63 411.127 
-8.53736 1003.8 409.993 
-8.58322 1004.74 408.994 
-8.21337 1001.65 411.978 
-8.3307 1001.25 412.667 
-8.35139 1000.83 413.276 
-8.23668 1005.41 407.884 
-8.30783 1004.51 409.056 
-7.92991 1003 410.215 
-8.14519 1005.25 408.022 
-7.70277 1001.5 411.35 
-7.67762 1000.96 411.883 
-7.49017 1000.88 411.791 
-8.81741 1002.98 417.801 
-9.8199 1004.68 419.262 
-8.81237 1002.57 415.545 
-8.54197 1001.06 414.251 
-8.37759 1000.82 413.846 
-8.34227 1000.79 413.475 
-8.35052 1000.8 413.653 
-9.98519 1005.4 420.758 
-10.5289 1006.07 420.457 
-9.95338 1005.11 420.037 
-9.31519 1005.07 422.29 
-8.42247 1005.24 423.544 
-9.00732 1005.15 423.012 
-7.87492 1005.59 424.124 
-7.90214 1006.15 424.258 
-8.9682 1004.33 422.764 
-9.09711 1004.25 422.403 
-9.26233 1004.71 421.468 
-9.27074 1004.84 421.884 
-8.62203 1007.89 427.478 
-8.96224 1007.97 429.203 
-7.90559 1007.12 425.891 
-7.67937 1006.79 425.808 
-7.68487 1006.75 425.511 
-7.74016 1006.28 424.576 
-7.55575 1006.28 424.888 
-7.5142 1006.31 425.289 
-7.30184 1006.42 425.829 
-7.50459 1006.34 425.566 
-8.96954 1008.66 432.465 
-9.13052 1008.72 432.279 
-8.73654 1008.2 431.848 
-8.6844 1007.98 431.439 
-8.71681 1008.51 432.619 
-8.70671 1008.37 432.336 
-8.86576 1008.55 432.433 
-8.69131 1007.67 430.196 
-8.6715 1007.64 429.865 
-8.63264 1007.8 431.071 
-8.38672 1007.64 430.915 
-8.50552 1008.39 432.325 
-8.4203 1008.33 432.527 
-8.70397 1008.52 432.505 
-8.20405 1008.18 432.316 
-8.12736 1008.12 432.511 
-7.89231 1007.91 432.573 
-8.00964 1007.69 433.017 
-8.22131 1007.66 433.449 
-2.89839 1008.64 429.72 
-2.10439 1007.82 429.178 
-2.76223 1008.76 429.559 
-0.0434414 1005.93 429.447 
0.0110395 1006.8 429.567 
-0.467746 1007.85 429.845 
0.36659 1007.32 430.581 
-8.84248 1007.77 434.228 
-8.20232 1004.95 435.522 
-9.2451 1007.38 434.856 
-9.20055 1007.59 434.62 
-9.22945 1007.81 434.478 
-9.09259 1007.99 434.166 
-3.64029 1001.3 438.768 
-4.97154 999.7 442.328 
-10.8457 1001.14 441.478 
-10.6598 999.583 445.397 
-13.3895 1000.81 445.465 
-11.0602 1001.77 440.783 
-2.13945 1007.94 430.265 
-0.704901 1006.66 431.231 
1.06047 1003.81 434.377 
0.954779 999.965 439.237 
-0.435843 1001.41 437.831 
-0.645933 1001.52 437.814 
-0.823815 1001.62 437.741 
-0.202958 1004.27 429.507 
0.0515303 1004.75 429.832 
0.236584 1005.13 429.903 
0.42869 1005.53 429.992 
-1.0787 1002.53 428.836 
-0.849786 1002.99 428.997 
-0.615966 1003.45 429.184 
-0.374866 1003.91 429.488 
0.664405 1006.04 430.258 
-1.23732 1002.16 428.87 
-1.36257 1001.86 428.987 
-1.43678 1001.89 428.936 
-1.50002 1002 428.875 
-1.59035 1002.19 428.721 
-1.55223 1002.1 428.808 
-1.74833 1002.45 428.574 
-1.68207 1002.35 428.632 
-1.66065 1002.28 428.723 
-1.92334 1002.63 428.504 
-2.11679 1002.82 428.295 
-2.60442 1003.54 427.812 
-2.12529 1002.88 428.378 
-4.79206 1001.95 425.866 
-7.57827 1005.11 424.263 
-7.31334 1005.11 424.535 
-7.92575 1004.93 423.955 
-5.51142 1004.53 425.22 
-7.0189 1005.13 424.807 
-5.60552 1004.8 425.364 
-5.24858 1001.92 425.543 
-8.76287 1001.75 423.718 
-8.67635 1001.2 423.853 
-8.24366 1000.53 424.189 
-7.90493 1000.55 424.161 
-7.69502 1000.36 424.439 
-7.21692 1000.62 424.447 
-7.46147 1000.41 424.481 
-7.06347 1000.55 424.468 
-3.06407 1004.25 427.185 
-3.46656 1004.57 426.881 
-3.63364 1004.47 426.632 
-4.01301 1004.5 426.328 
-4.22791 1004.43 426.015 
-6.858 1000.37 424.189 
-7.04272 1000.52 424.35 
-7.00264 1000.49 424.225 
-6.773 1000.32 424.083 
-6.87922 1000.38 424.096 
-6.87051 1000.34 423.823 
-7.09504 1000.39 423.532 
-7.26104 1000.25 423.059 
-7.22765 999.937 422.015 
-7.37313 999.732 420.915 
-6.79323 999.043 419.666 
-7.3473 999.604 420.4 
-7.13329 998.584 419.337 
-4.8283 998.1 420.679 
-6.15782 998.548 419.471 
-6.88589 998.502 419.033 
-4.47414 997.958 420.126 
-5.87042 998.514 419.236 
-6.9091 998.672 418.681 
-6.58261 998.61 418.702 
-6.55554 998.862 418.436 
-6.85206 998.972 418.308 
-6.79216 999.434 417.53 
-6.4611 999.993 416.732 
-6.56766 1000.13 416.557 
-6.69876 1000.03 416.783 
-6.33089 1000.27 416.147 
-6.49159 1000.24 416.285 
-6.14029 1000.31 415.947 
-5.98103 1000.32 415.724 
-5.65414 1000.35 415.626 
-4.66893 1001.62 413.152 
-5.27803 1000.5 415.218 
-5.26625 1002.41 411.02 
-6.22635 1001.34 411.368 
-7.34537 1000.6 411.918 
-7.27177 1000.26 412.271 
-7.05001 1000.12 412.443 
-8.18327 1002.48 410.877 
-7.96754 1001.24 411.916 
-8.14359 1000.81 412.599 
-8.22457 1000.67 413.09 
-8.23638 1000.57 413.355 
-8.29267 1000.69 413.299 
-8.00215 1000.8 412.25 
-7.86856 1000.54 412.264 
-7.63408 1000.46 412.142 
-8.62296 1002.84 418.607 
-7.78783 1001.25 417.462 
-7.75016 1001.41 416.849 
-7.62971 1001.05 417.014 
-9.21044 1003.74 419.304 
-9.36466 1004.13 420.065 
-8.27747 1001.46 415.66 
-8.42604 1000.83 414.275 
-8.31048 1000.73 413.817 
-8.28039 1000.77 414.244 
-8.28419 1000.66 413.572 
-9.31944 1004.5 420.829 
-9.12574 1004.42 422.118 
-8.75723 1004.35 423.191 
-8.43446 1004.36 423.595 
-7.61696 1005.75 424.422 
-7.45678 1005.41 424.474 
-7.79644 1005.2 424.091 
-7.45932 1005.84 424.634 
-9.11366 1003.55 423.113 
-9.30426 1003.67 422.79 
-9.20514 1003.84 422.053 
-9.28288 1003.54 422.503 
-9.1818 1004.29 421.166 
-9.1241 1004.32 421.598 
-8.41573 1007.57 427.603 
-8.64423 1007.61 429.459 
-7.83834 1007.01 426.284 
-7.58423 1006.75 426.336 
-7.18374 1005.9 425.021 
-7.14361 1006.14 425.633 
-7.05217 1006.01 425.349 
-6.73586 1006.02 425.913 
-7.17153 1006.44 426.319 
-6.76399 1006.13 426.307 
-8.53114 1008.2 432.3 
-8.52872 1008.04 431.887 
-8.41553 1007.84 431.476 
-8.52179 1008.37 432.698 
-8.3985 1008.31 432.725 
-8.52039 1008.39 432.62 
-8.25073 1007.46 430.539 
-8.32443 1007.41 430.104 
-7.56066 1006.5 432.734 
-7.90787 1007.47 431.343 
-8.18843 1008.17 432.579 
-8.27982 1008.18 432.836 
-8.20864 1008.08 432.887 
-7.96913 1007.96 432.626 
-8.17718 1007.97 432.974 
-8.14403 1007.89 433.025 
-8.11687 1007.79 433.104 
-8.3418 1007.79 433.575 
-8.74115 1007.92 433.932 
-1.9409 1008.22 430.086 
-0.928565 1007.9 430.113 
-1.83499 1008.52 429.882 
0.325654 1006.42 429.941 
0.614616 1007 430.689 
-0.097425 1008.02 430.232 
0.113028 1006.8 430.987 
1.07492 1006.23 431.519 
0.730472 1006.23 431.54 
-9.01256 1008.1 433.961 
-8.9102 1006.03 435.595 
-11.0115 1002.52 440.234 
-9.28943 1007.63 434.848 
-9.29912 1007.35 435.219 
-9.25272 1008.05 434.36 
-9.27455 1007.89 434.681 
-9.23242 1008.22 434.13 
-0.305623 999.39 440.392 
-7.83161 998.102 446.826 
-1.84224 999.07 441.474 
-3.65122 997.257 444.28 
-3.94208 998.226 443.903 
-3.81982 997.447 444.73 
-14.9822 1001.62 445.634 
-11.6291 999.397 447.051 
-14.1597 1000.86 446.299 
-15.0833 1001.52 445.866 
-14.8929 1001.86 445.327 
-0.520996 1006.79 431.127 
0.314392 1005.8 432.154 
2.31439 1002.66 435.378 
1.80429 999.419 440.05 
3.91263 1000.42 437.603 
-0.679904 997.055 443.312 
0.634961 997.693 441.596 
-0.131309 1004.37 429.789 
0.134738 1004.87 430.106 
0.331781 1005.28 430.198 
0.522338 1005.67 430.265 
-1.06735 1002.51 429.053 
-0.828071 1002.98 429.23 
-0.595394 1003.45 429.401 
-0.347259 1003.92 429.72 
0.862401 1006.46 430.579 
0.773449 1006.14 430.59 
-1.24824 1002.12 429.008 
-1.38266 1001.81 429.109 
-1.4512 1001.86 429.05 
-1.51699 1001.98 428.986 
-1.58403 1002.1 428.92 
-1.62921 1002.2 428.826 
-1.81432 1002.52 428.618 
-1.74427 1002.42 428.688 
-1.71163 1002.33 428.792 
-2.1732 1002.98 428.465 
-2.14422 1002.9 428.614 
-1.96798 1002.7 428.633 
-2.6312 1003.71 428.006 
-2.96889 1004.37 427.612 
-2.68799 1003.8 428.233 
-7.93911 1004.34 424.038 
-4.54722 1001.67 425.964 
-7.10488 1005.51 424.897 
-5.3806 1004.95 425.688 
-6.61645 1005.43 425.19 
-8.13037 1003.86 423.925 
-8.50528 1002.54 423.866 
-9.0004 1002.13 423.571 
-9.25347 1001.49 423.477 
-8.99354 1000.92 423.922 
-8.5663 1000.78 424.041 
-8.44136 1000.42 424.251 
-8.1233 1000.33 424.342 
-8.29653 1000.28 424.377 
-7.88704 1000.25 424.441 
-7.74373 1000.18 424.542 
-7.24854 1000.43 424.524 
-7.4945 1000.29 424.542 
-7.15691 1000.46 424.48 
-3.26916 1004.65 427.279 
-3.71044 1004.79 426.923 
-3.70821 1004.63 426.748 
-3.96344 1004.68 426.604 
-5.18842 1005.06 425.965 
-7.1622 1000.54 424.295 
-7.05801 1000.52 424.108 
-7.25562 1000.64 423.702 
-7.13921 1000.58 423.977 
-7.22967 1000.37 423.296 
-7.30249 1000.45 423.346 
-7.1628 1000.56 423.726 
-7.54299 1000.28 422.766 
-7.67323 1000.01 421.95 
-7.6873 999.886 421.349 
-7.72607 999.879 420.846 
-6.99787 999.258 419.463 
-7.42447 999.685 420.046 
-7.74635 999.893 420.476 
-7.42953 999.109 419.141 
-7.22272 998.859 418.931 
-7.22663 998.886 418.676 
-6.84345 998.819 418.487 
-7.20834 998.912 418.453 
-7.23072 998.983 418.219 
-7.07166 999.451 417.54 
-6.87568 1000.01 416.931 
-6.73113 1000.27 416.474 
-6.61054 1000.26 416.358 
-6.80549 1000.14 416.71 
-6.39952 1000.41 415.843 
-6.54033 1000.37 416.034 
-6.62939 1000.32 416.226 
-6.28165 1000.37 415.793 
-6.16175 1000.34 415.744 
-5.86561 1000.34 415.564 
-6.06899 1000.33 415.656 
-5.62523 1000.39 415.425 
-5.79711 1001.12 412.189 
-6.11525 1000.98 411.738 
-4.96399 1000.93 414.546 
-5.40712 1000.5 415.056 
-6.73156 1000.04 412.513 
-7.50929 1000.26 412.397 
-7.31532 1000.2 412.525 
-6.95644 1000.08 412.618 
-8.08121 1000.48 412.916 
-8.00644 1000.58 412.533 
-8.18593 1000.49 413.183 
-8.19346 1000.47 413.508 
-8.13106 1000.36 413.271 
-7.90682 1000.33 412.619 
-7.76447 1000.29 412.363 
-8.30595 1002.04 418.405 
-8.8272 1003.04 419.576 
-9.06024 1003.5 419.901 
-7.90454 1000.61 418.421 
-7.48455 1000.71 417.176 
-7.58475 1000.91 416.597 
-7.69876 1001.22 416.464 
-7.37439 1000.76 416.797 
-9.23331 1004.06 420.639 
-8.07349 1001.02 415.388 
-8.18298 1000.47 413.788 
-8.14408 1000.55 414.244 
-7.92747 1000.78 415.276 
-9.14584 1004.08 421.677 
-8.91218 1003.37 423.415 
-8.81355 1002.98 423.618 
-9.47387 1002.66 423.262 
-9.46978 1002.38 423.387 
-9.39434 1002.94 422.978 
-9.17121 1003.38 422.019 
-9.11183 1003.64 421.498 
-9.2967 1002.99 422.595 
-9.10285 1003.82 421.04 
-8.26436 1007.36 427.779 
-8.44157 1007.44 429.327 
-8.05066 1007.26 430.108 
-8.08617 1007.09 427.93 
-7.44172 1006.51 426.77 
-6.66438 1005.66 425.332 
-6.97226 1005.7 425.107 
-6.44785 1005.71 425.647 
-6.26762 1005.74 426.087 
-7.04349 1006.21 426.752 
-6.6657 1005.91 426.862 
-6.24655 1005.84 426.518 
-8.29718 1008.04 432.881 
-8.0716 1007.5 432.942 
-7.88807 1007.11 432.897 
-7.65979 1006.64 432.971 
-8.36014 1008.16 432.993 
-7.68526 1007.18 431.328 
-7.5522 1006.98 431.124 
-7.12365 1005.75 433.089 
-6.89737 1004.48 434.292 
-7.11049 1004.49 434.544 
-6.88355 1004.05 434.663 
-8.39333 1008.21 433.181 
-8.4621 1008.34 433.053 
-8.555 1008.4 433.121 
-8.39916 1008.16 433.273 
-8.42333 1008.12 433.367 
-8.37568 1007.96 433.477 
-8.41629 1008.05 433.436 
-8.43442 1007.93 433.595 
-8.78571 1008.11 433.706 
-9.10251 1008.27 433.781 
-0.363439 1006.96 430.991 
-0.120612 1006.81 430.936 
0.832406 1006.85 430.767 
1.28341 1006.33 431.396 
0.37624 1006.3 431.492 
2.77968 1003.87 434.087 
2.22115 1005.3 432.666 
2.04261 1005.26 432.738 
2.43399 1004.07 433.862 
-9.25769 1008.32 434.01 
-11.2568 1004.85 439.352 
-14.4839 1002.37 444.41 
-14.1559 1004.8 442.556 
-10.0015 1007.64 436.456 
-9.70502 1007.77 435.798 
-10.1968 1007.25 437.097 
-9.92607 1006.42 437.162 
-9.302 1008.07 434.558 
-9.51824 1007.87 435.334 
-9.33532 1008.22 434.424 
0.818642 997.799 441.099 
-9.02573 997.637 448.242 
-8.14455 996.874 448.85 
-4.69925 997.549 445.632 
-6.1563 997.181 447.754 
-1.53047 998.726 441.515 
-3.24252 997.104 443.95 
0.887203 997.705 440.749 
-3.31004 996.148 443.883 
-2.70928 996.211 443.819 
-2.57486 996.658 444.154 
-3.60879 996.484 444.383 
-15.2165 1001.66 445.893 
-10.5742 998.704 447.505 
-13.6832 1000.47 446.641 
-14.839 1001.29 446.043 
-15.2057 1001.6 445.902 
-15.3071 1001.77 445.927 
0.678546 1005.78 432.146 
2.59578 1003.26 434.679 
4.61245 1000.73 437.017 
3.26404 999.142 440.323 
5.4354 999.797 438.529 
-0.549718 997.575 443.697 
5.45846 1000.18 437.889 
-0.792006 996.288 442.954 
-0.0821343 1004.42 430.024 
0.537106 1005.39 430.516 
0.240111 1004.93 430.338 
0.627509 1005.76 430.549 
-1.03336 1002.52 429.319 
-0.822084 1002.95 429.439 
-0.561329 1003.47 429.653 
-0.274045 1004.01 429.98 
1.14478 1006.7 430.97 
1.39363 1006.66 430.996 
1.27855 1006.18 430.937 
-1.26607 1002.05 429.157 
-1.38312 1001.8 429.241 
-1.45853 1001.83 429.168 
-1.52369 1001.94 429.103 
-1.59319 1002.05 429.052 
-1.69136 1002.24 428.909 
-1.67188 1002.15 429.019 
-1.8673 1002.53 428.745 
-1.82062 1002.43 428.805 
-1.84744 1002.31 428.994 
-2.75868 1003.77 428.55 
-2.28332 1002.99 428.809 
-2.10181 1002.8 428.778 
-2.01691 1002.57 428.975 
-3.14396 1004.68 427.906 
-3.53243 1004.95 427.631 
-3.34536 1004.82 428.161 
-9.38576 1001.81 423.329 
-9.56064 1001.08 423.638 
-9.22235 1000.6 424.115 
-8.74366 1000.63 424.134 
-9.02481 1000.38 424.333 
-8.62929 1000.27 424.398 
-8.4172 1000.16 424.521 
-8.10654 1000.13 424.529 
-8.22402 1000.02 424.678 
-7.96072 1000.02 424.656 
-7.65121 1000.13 424.585 
-7.83102 999.965 424.735 
-7.38277 1000.26 424.578 
-7.21342 1000.31 424.557 
-3.87027 1005.06 427.341 
-4.09786 1004.94 426.877 
-5.10252 1005.17 426.21 
-7.20266 1000.55 424.176 
-7.21726 1000.36 424.432 
-7.24155 1000.6 423.916 
-7.24756 1000.5 424.121 
-7.39606 1000.59 423.591 
-7.48794 1000.41 423.156 
-7.64127 1000.52 423.347 
-7.3087 1000.57 423.852 
-7.91201 1000.26 422.469 
-8.03353 1000.16 422.096 
-8.12694 1000.02 421.624 
-7.96943 999.98 421.235 
-8.11507 1000.1 420.932 
-7.25426 999.518 419.557 
-7.83861 999.978 420.139 
-7.51585 999.666 419.41 
-8.11356 1000.14 420.583 
-7.48127 999.133 418.839 
-7.44596 999.138 418.579 
-7.38203 999.157 418.267 
-7.21545 999.565 417.564 
-7.04613 1000.11 416.918 
-6.90502 1000.23 416.657 
-6.82852 1000.37 416.414 
-6.71085 1000.43 416.096 
-6.80943 1000.43 416.247 
-6.61088 1000.47 415.775 
-6.5316 1000.39 415.707 
-6.6412 1000.46 415.932 
-6.37874 1000.33 415.713 
-6.28999 1000.31 415.636 
-6.02703 1000.28 415.48 
-5.72352 1000.42 415.189 
-5.9052 1000.39 415.275 
-6.19343 1000.27 415.499 
-5.70953 1000.88 413.088 
-6.59227 1000.11 412.843 
-6.71142 1000.11 412.648 
-5.53491 1000.61 414.73 
-7.7899 1000.17 412.557 
-7.69044 1000.33 412.386 
-7.6464 1000.19 412.577 
-7.29338 999.994 412.771 
-6.94441 1000 412.815 
-7.98963 1000.19 413.011 
-8.10823 1000.3 413.536 
-8.03593 1000.15 413.319 
-7.86903 1000.13 412.753 
-8.43636 1001.6 418.855 
-8.79034 1002.55 419.472 
-8.98666 1003 420.268 
-9.08002 1003.41 420.496 
-7.39002 1000.08 417.746 
-7.90352 1000.11 418.929 
-8.77084 1000.51 420.223 
-8.28586 1000.57 419.543 
-8.7331 1000.87 419.918 
-7.09156 1000.68 416.757 
-7.69173 1001.03 416.128 
-7.37173 1000.74 416.572 
-7.47675 1000.84 416.268 
-7.09366 1000.65 416.577 
-8.02657 1000.21 414.03 
-7.99201 1000.29 414.479 
-7.78656 1000.44 415.298 
-7.51445 1000.79 415.975 
-9.3917 1002.12 423.381 
-10.0403 1001.15 423.576 
-10.1544 1001.2 423.487 
-9.39434 1002.94 422.978 
-9.86447 1001.22 423.529 
-10.2167 1001.2 423.322 
-9.25578 1002.98 421.898 
-9.13557 1003.22 421.144 
-9.29637 1002.93 422.344 
-10.2664 1001.06 423.285 
-7.85105 1007.1 429.976 
-7.15972 1006.47 431.277 
-7.83668 1006.76 428.052 
-7.49328 1006.82 430.055 
-7.27478 1006.41 428.835 
-5.17158 1005.33 426.57 
-6.98953 1006.11 428.297 
-6.40259 1005.84 427.201 
-5.35471 1005.51 427.031 
-7.97151 1006.78 433.62 
-7.62875 1005.87 433.984 
-7.36729 1005.24 434.212 
-8.20282 1007.16 433.537 
-8.20919 1007.44 433.345 
-6.7954 1004.98 433.319 
-6.57813 1004.61 433.248 
-6.70454 1004.13 434.298 
-7.12284 1004.07 435.191 
-7.44514 1005 434.528 
-7.945 1005.64 434.981 
-7.53347 1004.85 435.069 
-8.66996 1008.34 433.223 
-8.40748 1007.45 433.503 
-8.793 1008.39 433.29 
-8.85414 1008.37 433.375 
-8.80582 1008.25 433.509 
-9.14263 1008.42 433.611 
0.718939 1005.95 431.911 
1.67353 1006.31 431.473 
3.83746 1002.68 435.286 
5.39647 1001.03 436.67 
5.13417 1000.93 436.713 
2.50207 1005.17 432.828 
4.06443 1002.7 435.344 
-9.37087 1008.35 434.32 
-9.30119 1008.42 433.986 
-14.5043 1007.72 440.636 
-13.2337 1007.78 439.747 
-11.7373 1007.37 439.041 
-15.3314 1002.01 445.778 
-14.9182 1004.42 443.674 
-15.7334 1008.7 440.627 
-15.666 1008.85 440.993 
-11.6605 1008.41 438.433 
-10.5775 1008.24 437.102 
-9.56518 1008.01 435.244 
-10.2674 1008.23 436.62 
-9.61467 1008.15 435.172 
-0.91147 995.811 442.56 
-9.09267 997.695 448.228 
-9.20754 997.006 449.505 
-9.19524 997.199 449.114 
-8.32755 996.585 449.363 
-6.52429 997.063 448.846 
-4.15408 997.68 446.107 
-4.44697 997.22 448.798 
-4.03401 997.323 448.305 
-1.29302 998.343 441.564 
-2.80926 996.481 443.824 
-3.10118 996.07 444.405 
1.00685 997.487 440.481 
-0.909462 995.359 442.192 
-2.81021 995.625 443.433 
-3.14833 994.814 443.624 
-2.94108 994.974 443.326 
-3.86457 996.558 444.689 
-3.41565 994.898 443.994 
-3.30709 995.993 444.683 
-15.3308 1001.74 445.954 
-9.73129 998.133 447.901 
-12.8764 999.898 447.061 
-14.3602 1000.89 446.391 
-15.1465 1001.5 445.933 
-15.3051 1001.67 445.956 
-15.4195 1001.86 445.984 
5.91472 1000.22 437.869 
1.53057 998.425 443.087 
-0.824642 997.975 444.491 
6.45959 999.293 439.933 
6.87283 999.646 439.317 
0.170189 1004.5 430.306 
0.836161 1004.94 430.654 
1.32442 1005.39 430.911 
1.44739 1005.84 430.996 
-1.13278 1002.29 429.434 
-0.845008 1002.81 429.666 
-0.635758 1003.24 429.78 
-0.272575 1003.7 430.037 
0.394255 1004.13 430.399 
1.88789 1006.67 431.157 
2.07357 1006.28 431.555 
2.38327 1006.23 431.516 
-0.470915 1001.16 430.148 
-1.48904 1001.8 429.294 
-0.692538 1000.86 429.994 
-1.57215 1001.88 429.269 
-1.68955 1001.96 429.303 
-1.80896 1002.02 429.337 
-1.89998 1002.2 429.198 
-1.88254 1002.11 429.31 
-1.99141 1002.38 429.069 
-2.08055 1002.29 429.285 
-2.08138 1002.2 429.377 
-2.90067 1003.74 428.953 
-3.49271 1004.64 428.747 
-3.56916 1004.92 428.432 
-2.34264 1002.92 429.101 
-2.18758 1002.74 429.084 
-2.16364 1002.49 429.322 
-3.57832 1005.11 428.052 
-3.91745 1005.27 427.894 
-3.80352 1005.26 428.131 
-3.76056 1005.18 428.29 
-9.69923 1001.22 423.519 
-9.5322 1000.48 424.066 
-9.4714 1000.1 424.419 
-9.40614 999.789 424.829 
-8.90113 1000.17 424.482 
-9.20135 999.697 424.924 
-8.61696 999.834 424.874 
-8.91725 999.697 424.968 
-8.3323 999.873 424.868 
-8.05312 999.879 424.837 
-8.15054 999.755 424.999 
-7.93372 999.818 424.924 
-7.57982 1000.05 424.665 
-7.70199 999.931 424.788 
-7.6856 999.795 424.983 
-7.84754 999.739 425.039 
-7.38662 1000.15 424.628 
-7.28988 1000.14 424.633 
-4.2314 1005.43 427.859 
-4.3654 1005.26 427.373 
-7.25184 1000.33 424.369 
-7.49852 1000.22 424.017 
-7.41717 1000.11 424.296 
-7.98983 1000.07 423.322 
-7.76033 1000.13 423.668 
-7.76223 1000.37 422.875 
-7.85139 1000.49 423.185 
-8.22931 999.94 422.968 
-8.45869 999.981 422.397 
-8.54114 999.868 422.197 
-8.62045 1000.22 422.014 
-8.32314 1000.11 421.328 
-8.52933 1000.1 421.63 
-8.48288 1000.25 421.083 
-8.22256 1000.18 420.305 
-7.94319 1000.12 419.848 
-7.69757 999.903 419.198 
-7.57711 999.365 418.7 
-8.48372 1000.31 420.753 
-7.52092 999.394 418.393 
-7.30925 999.709 417.626 
-7.05974 1000.34 416.678 
-7.03588 1000.42 416.767 
-7.02824 1000.38 416.556 
-6.93996 1000.43 416.414 
-6.92302 1000.48 416.081 
-6.79819 1000.46 415.874 
-6.86786 1000.33 415.68 
-6.72394 1000.36 415.675 
-6.55488 1000.28 415.588 
-6.75713 1000.27 415.556 
-6.41734 1000.21 415.413 
-6.08697 1000.27 415.182 
-6.25851 1000.17 415.273 
-5.83455 1000.48 414.886 
-6.31496 1000.17 414.513 
-5.93343 1000.56 413.59 
-6.5882 1000.02 413.215 
-6.77996 999.979 413.001 
-6.19944 1000.3 413.906 
-7.85119 999.972 412.906 
-7.68812 999.884 412.946 
-7.35047 999.815 413.197 
-7.0957 999.831 413.077 
-7.94876 999.979 413.203 
-7.89386 999.969 414.15 
-7.95357 1000.02 413.687 
-7.87279 999.823 413.64 
-9.48143 1000.38 421.448 
-9.54414 1000.69 421.438 
-9.05013 1002.14 420.024 
-9.04667 1002.61 420.231 
-9.19215 1002.79 420.898 
-7.34015 999.884 417.679 
-7.60406 999.595 418.473 
-8.09179 1000.33 419.655 
-8.52964 1000.28 420.144 
-9.53313 999.905 421.856 
-9.39437 999.994 421.629 
-9.67304 999.713 422.189 
-7.22749 1000.66 416.402 
-7.30687 1000.71 416.208 
-7.06944 1000.56 416.442 
-7.88413 999.883 414.644 
-7.72255 1000.03 415.246 
-7.41694 1000.55 415.812 
-7.24864 1000.58 416.101 
-10.155 999.992 424.058 
-10.328 999.886 424.069 
-10.2189 1001.15 423.422 
-10.5356 999.684 424.194 
-9.87531 1000.24 424.036 
-9.26824 1002.86 421.43 
-10.0718 1001.23 422.92 
-9.66247 1002.01 422.005 
-10.2296 1001.03 423.211 
-6.34985 1004.24 433.138 
-6.72756 1005.59 431.666 
-6.92666 1006.33 430.679 
-6.37151 1006.32 430.381 
-5.6304 1005.93 429.414 
-5.728 1005.9 428.656 
-5.49764 1005.72 427.79 
-4.6773 1005.59 427.875 
-7.90873 1006.07 434.1 
-7.72524 1005.59 434.334 
-8.2538 1006.65 434.024 
-6.74574 1003.46 435.173 
-6.59684 1003.08 435.263 
-6.45429 1002.64 435.396 
-8.37684 1005.43 436.509 
-7.86768 1004.57 436.386 
-8.3651 1006.45 434.87 
-8.6584 1006.93 435.802 
-8.66829 1006.19 436.45 
-8.66781 1007.74 433.519 
-8.45566 1007.14 433.798 
-8.84936 1007.89 433.592 
-9.13091 1008.43 433.492 
-9.30626 1008.5 433.845 
2.74997 1005.05 432.965 
5.64692 1001.14 436.639 
6.498 1000.45 437.63 
6.25737 1000.35 437.704 
4.28923 1002.69 435.41 
5.88029 1001.29 436.572 
-9.40694 1008.48 434.217 
-9.64967 1008.3 435.086 
-14.5362 1008.17 440.191 
-15.8866 1008.59 440.171 
-14.1828 1008.66 439.803 
-12.7968 1008.31 439.365 
-14.9005 1008.46 439.985 
-15.3986 1002.16 445.746 
-15.5187 1001.99 446.022 
-15.4205 1004.78 444.5 
-16.2079 1010.58 440.054 
-16.6812 1011.12 438.109 
-17.0207 1011.79 437.798 
-12.0429 1009.57 438.213 
-12.878 1008.76 439.222 
-10.9598 1008.99 437.396 
-10.2705 1008.46 436.604 
-10.856 1009.16 437.298 
-10.1888 1008.59 436.454 
-9.24291 997.744 448.309 
-9.41208 997.328 449.182 
-9.34391 996.971 449.876 
-9.41971 997.112 449.624 
-8.40609 996.526 449.689 
-6.75205 996.551 449.442 
-4.62809 996.547 449.566 
-3.45403 997.247 447.979 
-4.27129 996.012 449.711 
-3.83194 996.111 449.381 
-1.87625 998.018 442.431 
-2.2994 996.204 443.433 
-0.395361 998.418 440.898 
0.346046 998.084 440.109 
-2.62303 995.565 444.172 
-2.83076 995.352 444.533 
1.05198 997.071 440.385 
-0.946291 994.825 441.889 
-2.54231 994.905 442.892 
-3.01054 993.263 443.679 
-2.78652 993.089 443.472 
-2.45956 993.406 442.823 
-3.80391 995.45 444.522 
-4.07853 996.673 444.953 
-3.65757 996.181 444.946 
-3.28656 993.738 443.901 
-3.12236 995.429 444.836 
-15.4231 1001.79 446.012 
-15.4621 1001.86 446.017 
-10.5314 998.477 447.866 
-9.40473 997.76 448.38 
-13.217 1000.02 447.091 
-14.1667 1000.71 446.564 
-15.0871 1001.42 446.013 
-15.296 1001.62 445.965 
-15.5547 1001.99 446.05 
7.32794 999.887 439.055 
3.84322 998.645 442.517 
-1.32486 997.511 447.162 
-2.59749 997.251 447.563 
8.00444 999.539 441.457 
8.58673 999.885 440.585 
1.06104 1004.54 430.759 
1.68928 1004.96 431.118 
2.4435 1005.17 431.611 
2.25724 1005.65 431.424 
2.59885 1005.99 431.622 
0.405851 1001.82 430.707 
0.13851 1001.34 430.595 
1.05547 1002.02 431.127 
-0.288143 1003.12 430.022 
0.127003 1003.41 430.258 
0.636779 1003.68 430.559 
1.20216 1003.91 430.912 
3.03949 1004.98 433.05 
3.79506 1004.19 433.934 
1.18723 999.828 431.641 
3.51427 999.25 432.639 
3.69472 998.763 432.493 
-1.22413 1001.39 429.511 
-0.992899 1001.24 429.343 
0.485323 999.06 431.006 
2.78871 998.544 431.983 
-1.46809 1001.49 429.66 
-1.48291 1001.33 429.865 
-1.3684 1001.28 429.814 
-1.38048 1001.02 430.141 
-0.834957 1000.49 430.198 
-2.0124 1001.56 430.128 
-2.02076 1002.13 429.405 
-1.72495 1001.36 430.067 
-2.41368 1001.82 430.329 
-2.2218 1001.65 430.253 
-3.49213 1003.56 430.115 
-4.73367 1003.83 431.537 
-3.87601 1005.08 428.759 
-4.61215 1005.34 430.079 
-3.99565 1005.29 428.543 
-2.31965 1002.69 429.443 
-2.84151 1001.96 430.595 
-4.37995 1005.63 428.36 
-4.07178 1005.41 428.304 
-9.81443 999.868 424.402 
-9.74076 999.51 424.92 
-10.1801 998.545 426.084 
-9.83967 998.684 425.993 
-9.45075 998.816 425.919 
-8.55722 999.45 425.308 
-9.09545 998.837 425.996 
-8.22603 999.581 425.222 
-8.02598 999.678 425.109 
-8.04361 999.595 425.233 
-7.8245 999.683 425.138 
-7.4763 999.96 424.768 
-7.50688 999.854 424.926 
-7.42461 999.792 425.057 
-7.68366 999.744 425.07 
-7.33879 1000.03 424.563 
-7.33554 999.936 424.732 
-7.8278 999.423 423.858 
-7.65736 999.571 424.146 
-7.48962 999.686 424.438 
-8.17372 999.414 423.205 
-7.99075 999.391 423.557 
-8.20554 1000.35 422.732 
-8.38343 999.93 422.683 
-8.37274 999.391 422.834 
-8.54137 999.041 422.6 
-8.7018 999.229 422.211 
-8.77981 999.259 421.989 
-8.6672 1000.09 421.53 
-8.79868 1000.11 421.407 
-8.30024 1000.18 420.168 
-8.60115 1000.28 420.634 
-8.84204 1000.23 421.152 
-7.041 1000.51 416.237 
-6.95273 1000.42 415.947 
-7.15415 1000.39 415.946 
-7.02673 1000.32 415.783 
-6.95002 1000.23 415.528 
-7.10454 1000.2 415.577 
-6.7287 999.943 414.963 
-6.95687 999.915 414.977 
-7.15854 999.926 415.017 
-6.53365 999.985 414.833 
-6.41686 1000.04 414.679 
-6.28376 1000.19 414.154 
-6.85551 999.934 413.632 
-7.13575 999.866 413.726 
-6.87897 999.909 414.111 
-6.94795 999.89 413.336 
-7.87311 999.777 413.304 
-7.88887 999.695 413.401 
-7.46662 999.85 413.658 
-7.39725 999.839 413.749 
-7.23583 999.837 413.475 
-7.70507 999.807 414.543 
-7.80807 999.784 414.222 
-7.81692 999.745 414.258 
-7.92416 999.701 414.13 
-9.77585 998.989 422.928 
-9.2231 1001.52 420.689 
-9.99121 1000.34 422.386 
-10.03 999.228 423.119 
-9.45652 1001.56 421.092 
-9.37234 1002.37 420.904 
-9.61576 1001.88 421.71 
-8.68403 1000.23 420.523 
-9.27422 998.818 422.282 
-9.26593 999.275 421.992 
-9.47383 998.849 422.536 
-9.2219 999.443 421.821 
-9.02137 1000.2 421.087 
-9.13964 999.783 421.499 
-9.19515 999.604 421.686 
-10.2878 997.715 422.782 
-7.49664 1000.05 415.144 
-7.26894 1000.28 415.67 
-7.30259 1000.54 415.966 
-10.0342 999.741 424.39 
-10.3757 999.546 424.442 
-10.1618 999.583 424.532 
-10.5461 999.365 424.524 
-10.2167 1001.2 423.322 
-10.6503 999.615 424.232 
-10.6723 999.257 424.46 
-10.3342 1000.07 423.53 
-10.0718 1001.23 422.92 
-10.4279 1000.33 423.245 
-10.458 1000.38 423.359 
-6.0376 1002.96 434.291 
-6.53883 1005.02 432.193 
-6.05938 1002.34 435.195 
-6.5351 1005.28 431.636 
-5.87936 1005.9 430.801 
-5.05514 1005.86 429.6 
-4.79433 1005.69 429.835 
-4.22051 1005.51 428.558 
-8.48477 1006.9 434.265 
-8.7149 1007.15 434.774 
-8.96493 1007.87 433.97 
-9.03313 1007.91 434.119 
-8.85338 1004.11 437.684 
-10.1068 1003.55 439.304 
-8.04637 1003.25 437.167 
-8.94291 1002.32 438.573 
-11.4922 1006.67 439.525 
-10.2505 1005.08 438.79 
-9.24867 1007.96 436.145 
-10.4751 1007.95 437.826 
-9.32328 1006.96 436.934 
-11.4591 1008.47 438.807 
-8.8744 1007.8 433.797 
-9.29233 1008.53 433.757 
-9.42664 1008.59 434.089 
4.58035 1002.61 435.535 
6.55559 1000.82 437.239 
6.60218 1000.6 437.502 
7.48264 1000.2 438.135 
7.56106 1000.03 438.524 
6.22856 1001.33 436.636 
7.131 1000.73 437.508 
-9.66782 1008.55 434.85 
-9.65699 1008.41 434.964 
-10.1413 1008.8 436.324 
-15.7797 1008.63 439.914 
-16.3992 1011.07 438.299 
-15.5671 1009.08 439.5 
-13.9952 1009.03 439.636 
-15.6826 1008.9 439.671 
-15.5583 1002.2 445.911 
-15.6444 1002.11 446.084 
-16.1979 1005.05 446.334 
-16.199 1011.56 440.345 
-15.9607 1010.98 441.913 
-16.9763 1015.85 436.06 
-16.8364 1015.58 435.702 
-16.1663 1014.47 435.637 
-16.5773 1015.1 435.53 
-11.6909 1010.25 437.796 
-12.9229 1010.12 438.674 
-10.7764 1009.28 437.205 
-11.3471 1010.27 437.509 
-10.6121 1009.29 437.033 
-9.59942 997.575 449.019 
-9.6394 997.266 449.606 
-9.6142 997.107 449.857 
-9.44101 996.891 450.015 
-8.36984 996.493 449.85 
-6.76422 995.955 449.852 
-5.4052 995.804 449.781 
-5.32666 995.29 450.12 
-3.63846 995.669 449.315 
-5.34315 994.771 450.436 
-5.37773 994.419 450.695 
-0.814423 997.487 441.602 
-2.29558 995.596 443.692 
-2.65694 994.095 443.988 
-2.83268 994.119 444.195 
-3.04127 994.023 444.375 
1.12867 996.712 440.278 
-1.00812 994.293 441.601 
-2.24371 994.237 442.419 
-2.24495 992.861 442.734 
-2.90431 992.588 444.206 
-3.70177 994.435 444.424 
-4.055 996.182 445.073 
-3.46346 995.606 445.109 
-3.24302 994.069 444.566 
-15.4138 1001.73 446.021 
-15.5334 1001.86 446.073 
-15.5522 1001.92 446.07 
-15.6011 1002 446.082 
-9.55959 997.755 448.49 
-11.3761 998.843 447.826 
-9.78578 997.6 449.138 
-13.1389 999.913 447.218 
-13.8371 1000.43 446.819 
-14.7149 1001.1 446.28 
-15.2612 1001.52 445.989 
-15.3457 1001.63 446.001 
-15.6925 1002.09 446.141 
8.98256 999.874 440.297 
1.83642 998.368 445.005 
6.88682 998.802 446.349 
-0.925038 997.133 447.634 
-3.12733 995.073 449.696 
-3.31404 995.39 449.391 
10.1113 999.635 445.576 
9.2972 999.339 446.116 
2.18249 1004.49 431.501 
1.68972 1004.17 431.209 
2.78514 1004.82 431.859 
4.38949 1004.3 433.681 
3.81779 1005.09 432.568 
4.33213 1004.22 433.815 
4.10266 1004.09 434.049 
3.89427 999.798 433.222 
3.64472 999.599 432.88 
1.57297 1002.31 431.447 
3.59624 1000.4 433.25 
2.0361 1002.65 431.713 
2.47649 1003.03 431.94 
2.89879 1003.41 432.153 
4.96051 1002.47 435.718 
6.17369 1001.75 436.361 
5.41962 997.992 433.61 
4.73231 998.651 432.989 
5.49606 997.911 433.838 
-0.416123 1000.7 429.293 
-0.600748 1001.01 428.946 
0.409313 999.351 430.265 
0.454381 999.03 431.371 
0.412287 999.087 431.006 
2.49324 998.178 431.482 
0.663276 998.869 431.45 
4.2444 998.393 432.815 
5.504 997.889 433.937 
0.171761 999.899 429.491 
-0.065064 999.908 429.842 
0.0728766 999.456 431.18 
-0.287441 999.732 431.17 
0.237449 999.292 430.726 
0.190462 999.335 431.067 
-1.9004 1000.66 431.321 
-1.11235 1000.28 430.965 
-2.33808 1000.77 431.704 
-3.31331 1001.1 432.234 
-3.39371 1002.34 430.736 
-4.40001 1001.83 432.522 
-5.74762 1002.72 434.369 
-5.254 1001.46 435.965 
-9.92308 999.383 424.964 
-10.4879 998.411 426.148 
-10.6111 997.697 427.406 
-10.8288 997.658 427.453 
-10.3942 997.844 427.164 
-10.1727 997.866 427.207 
-8.28713 999.33 425.526 
-8.54687 998.867 426.076 
-9.40329 998.059 427.169 
-10.027 997.779 427.417 
-7.99032 999.421 425.5 
-7.83023 999.631 425.229 
-7.82907 999.537 425.374 
-7.54619 999.727 425.139 
-7.62286 999.668 425.221 
-7.2941 999.874 424.849 
-7.22435 999.842 424.967 
-7.17754 999.722 425.117 
-7.34528 999.739 425.173 
-7.20822 999.773 425.035 
-7.41376 999.679 424.591 
-7.96352 999.017 423.705 
-7.75795 999.28 424.031 
-7.59229 999.465 424.303 
-8.27364 998.805 423.165 
-8.11662 998.899 423.44 
-8.42631 998.634 422.917 
-8.59819 998.339 422.664 
-8.75337 998.144 422.417 
-8.89465 998.803 421.936 
-9.02596 998.383 421.869 
-9.03223 1000.04 421.347 
-7.31791 1000.01 415.07 
-7.35539 999.785 414.406 
-7.11296 999.839 414.407 
-7.42163 999.752 414.431 
-7.52743 999.751 414.471 
-6.89116 999.895 414.31 
-7.28104 999.838 413.863 
-7.99168 999.65 413.976 
-8.12641 999.544 413.347 
-7.50488 999.767 414.074 
-7.3021 999.822 414.097 
-9.94429 998.863 423.146 
-10.4937 997.654 423.027 
-10.3763 997.673 422.925 
-10.2902 1000.22 422.929 
-10.2506 999.4 423.286 
-9.47841 1001.71 421.203 
-9.83663 1001.19 422.029 
-10.3881 1000.26 423.131 
-8.92807 998.571 421.854 
-9.31046 998.416 422.302 
-9.70096 997.931 422.531 
-9.75409 998.034 422.647 
-8.74738 998.677 421.408 
-9.12472 998.233 421.744 
-8.80672 998.673 421.378 
-10.7367 996.994 422.794 
-10.9289 996.838 422.565 
-10.5592 996.973 422.503 
-10.5097 996.989 422.41 
-10.1106 999.258 425.017 
-10.2977 999.272 424.852 
-10.3996 999.19 424.775 
-10.3759 999.011 425.178 
-10.5137 999.089 424.673 
-10.2664 1001.06 423.285 
-10.4532 1000.49 423.555 
-10.5588 999.861 423.973 
-10.7222 999.439 424.354 
-10.7034 999.126 424.453 
-10.657 998.897 424.639 
-10.2296 1001.03 423.211 
-10.4774 1000.42 423.479 
-10.5101 999.507 423.688 
-10.5794 999.523 423.887 
-10.638 999.581 424.057 
-8.57277 1001.86 438.804 
-9.50346 1008.64 434.575 
-9.14878 1007.96 434.724 
-9.88283 1009.04 436.468 
-9.40936 1008.63 433.973 
-9.67806 1008.8 434.624 
-9.64388 1008.84 434.494 
-12.6228 1005.57 441.288 
-13.3719 1004.92 442.407 
-12.3546 1003.11 441.971 
-11.4475 1001.98 441.506 
-12.3468 1007.78 440.172 
-11.1732 1011.96 437.437 
-10.7428 1010.46 437.244 
-10.6617 1012.47 436.579 
-9.68317 1008.67 434.762 
7.5383 1000.42 437.898 
8.20789 1000.35 438.036 
8.32444 1000.16 438.303 
9.32765 999.903 439.808 
6.59703 1001.33 436.723 
7.44838 1000.86 437.428 
8.08397 1000.68 437.616 
8.1631 1000.53 437.805 
-10.1167 1009.04 436.229 
-10.5946 1009.69 436.97 
-16.3098 1009.33 439.273 
-16.1128 1010.84 438.534 
-15.9193 1012.65 437.764 
-15.7225 1014.26 435.607 
-15.3912 1009.23 439.322 
-15.9236 1010.88 438.54 
-15.0441 1010.44 438.745 
-15.7849 1002.28 446.286 
-15.7326 1002.12 446.202 
-16.6608 1012.21 443.982 
-17.2736 1011.29 446.76 
-17.1712 1002.59 449.596 
-16.3676 1002.3 447.836 
-17.1468 1016.7 435.927 
-16.2869 1014.7 439.563 
-17.327 1020.13 432.71 
-16.9465 1019.38 432.553 
-16.5251 1019.02 432.257 
-16.1695 1018.42 432.353 
-15.8363 1018.24 432.04 
-13.8201 1011.21 438.113 
-10.93 1009.96 437.235 
-11.5315 1011.03 437.475 
-10.8256 1010.09 437.12 
-9.86733 997.452 449.541 
-9.91534 997.243 449.803 
-9.81031 997.019 449.96 
-8.4433 996.319 449.93 
-9.49008 996.839 450.069 
-7.1986 995.513 450.036 
-6.04755 995.397 449.96 
-5.72756 995.108 450.104 
-5.68991 994.7 450.438 
-5.28137 994.236 451.027 
-5.82647 994.295 450.744 
-5.89829 994.115 450.988 
-2.06069 996.033 443.111 
-0.297567 997.258 441.155 
-2.42446 994.343 443.692 
1.20847 996.435 440.163 
-0.925848 993.769 441.266 
-1.85777 993.061 441.97 
-2.55023 992.365 443.905 
-2.80526 992.747 444.092 
-3.47125 994.182 444.812 
-3.95142 994.631 444.815 
-4.22034 996.009 445.353 
-3.70704 995.625 445.364 
-15.5032 1001.79 446.072 
-15.6242 1001.91 446.127 
-15.6541 1001.98 446.134 
-15.6932 1002.03 446.169 
-9.72779 997.762 448.586 
-9.93362 997.591 449.253 
-11.8008 998.99 447.871 
-10.0838 997.439 449.658 
-13.0328 999.798 447.34 
-14.2297 1000.7 446.626 
-15.0928 1001.35 446.123 
-15.3714 1001.6 446.03 
-15.4468 1001.7 446.055 
-15.7608 1001.99 446.36 
11.0812 999.835 445.201 
9.06635 999.425 443.384 
1.1579 998.121 446.929 
2.35529 998.411 450.318 
4.59124 998.825 451.052 
10.6985 999.817 448.894 
2.57504 998.524 451.513 
-0.33799 996.793 447.946 
-2.85279 994.93 449.898 
-5.41045 993.99 451.331 
12.0215 1000.21 448.07 
3.28906 1003.75 432.379 
3.62149 1004.21 432.475 
3.32102 1004.79 432.14 
4.20306 1004.94 432.723 
4.49551 1004.49 433.35 
4.88724 1003.02 434.951 
6.81867 1001.99 436.254 
6.54034 1001.86 436.345 
4.86414 998.858 433.188 
5.08483 998.868 433.35 
4.77048 999.51 433.452 
3.61148 1000.78 433.441 
4.72791 999.886 433.612 
3.64905 1001.16 433.621 
3.69934 1001.55 433.781 
3.79174 1001.95 433.97 
6.78471 1001.47 436.645 
5.44587 998.08 433.53 
5.42778 998.557 435.339 
5.70716 998.825 435.29 
5.14908 998.364 435.462 
0.623822 999.137 430.156 
0.867376 998.832 430.041 
0.469207 999.073 430.624 
0.435218 999.074 431.576 
0.35253 999.137 431.314 
0.301443 999.206 431.105 
3.21832 998.139 431.971 
2.3438 997.875 431.004 
1.07108 998.561 431.193 
0.705238 998.85 431.591 
5.20946 997.926 434.388 
4.74736 998.238 433.222 
3.84881 998.557 432.77 
4.57119 998.369 433.39 
0.303105 999.231 430.556 
0.301105 999.221 430.755 
0.118166 999.376 431.655 
