70.3786 1159.82 1509.11
71.6385 1159.75 1510.15
70.0718 1160.11 1509.36
72.0716 1159.55 1510.15
72.3128 1159.58 1510.17
72.5865 1159.81 1515.21
72.771 1159.56 1515.64
72.909 1159.44 1515.87
72.6195 1159.7 1515.45
72.4228 1159.74 1509.98
72.968 1159.69 1516.03
73.1354 1159.78 1516.6
81.5096 1145.15 1496.56
81.5639 1144.65 1496.59
81.1943 1145.52 1496.38
93.3681 1123.02 1502.7
93.2568 1122 1504.29
93.8262 1123.46 1502.53
93.5764 1123.47 1502
93.6906 1121.3 1504.82
93.3849 1121.55 1504.81
93.3198 1123.91 1503.71
93.3539 1123.83 1503.12
95.1703 1118.03 1505.22
95.5617 1117.19 1508
96.4512 1114.08 1505.66
96.3985 1112.93 1506.79
96.2942 1112.94 1507.27
96.5323 1114.4 1503.89
96.6028 1113.69 1505.63
94.0484 1120.67 1505.5
94.2381 1120.29 1505.66
93.8135 1120.98 1505.24
94.6536 1119.37 1505.56
92.6228 1124.41 1504.35
91.4153 1125.48 1506.16
91.9926 1124.88 1505.14
91.943 1125 1506
91.8227 1128.68 1508.48
92.0828 1129.46 1508.36
91.9276 1129.22 1508.08
91.9424 1129.12 1508.03
91.8368 1129.04 1508.12
91.7798 1128.94 1508.28
91.7114 1128.96 1508.21
92.0811 1130.15 1508.97
92.0503 1129.8 1508.71
92.0055 1129.55 1508.48
89.7968 1135 1511.11
90.0882 1134.38 1510.18
90.5676 1133.3 1509.74
91.0605 1132.12 1509.41
91.4958 1130.99 1509.08
86.6878 1133.79 1513.11
86.6527 1134.71 1511.66
85.1065 1134.04 1511.24
84.6881 1134.24 1510.32
88.8589 1135.06 1512.28
88.8584 1133.01 1515.44
89.1468 1135.59 1511.52
88.5363 1134.19 1516.34
88.2666 1132.87 1515.65
93.1392 1124.44 1520.03
85.7617 1124.1 1523.36
90.5465 1131.73 1523.71
86.682 1128.71 1524.48
92.0914 1131.67 1523.06
82.8028 1126.94 1525.61
86.3271 1131.59 1518.56
86.2438 1131.99 1519.51
86.1522 1130.85 1517.38
86.1634 1131.52 1516.95
86.3503 1132.54 1517
85.9423 1132.56 1520.71
85.3537 1132.43 1522.05
85.9403 1134.68 1521.41
85.1897 1132.84 1522.8
84.8873 1132.1 1523.11
86.686 1132.25 1516.06
86.0891 1132.72 1513.48
86.1394 1132.32 1513.94
86.1645 1129.48 1518.55
86.1908 1131.01 1519.54
85.8835 1131.82 1520.94
85.7652 1132.22 1521.39
85.4 1132.32 1522.15
86.2048 1129.6 1518.86
84.6873 1131.51 1523.24
90.3193 1132.2 1524.81
88.3495 1130.61 1524.99
87.8277 1121.36 1522.37
92.7341 1123.92 1521.1
89.0099 1118.32 1521.31
94.3373 1124.73 1519.54
64.1891 1147.37 1543.81
63.5583 1148.91 1542.29
76.6259 1148.19 1547.96
57.8777 1150.11 1540.2
56.3356 1151.43 1537.73
55.6133 1151.27 1536.99
55.3976 1151.38 1535.89
56.2476 1152.48 1534.11
54.1414 1151.14 1536.35
62.6421 1157.9 1522.74
64.3066 1157.61 1523.15
61.198 1158.13 1522.42
65.1987 1153.54 1531.32
62.2128 1155.62 1525.55
61.3874 1152.83 1531.81
56.4957 1153.98 1531.47
59.8931 1158.15 1522.35
83.1145 1141.5 1558.68
81.1028 1141.96 1557.1
80.8458 1142.9 1555.82
80.1224 1143.99 1554.17
78.0795 1144.83 1552.47
77.4049 1146.11 1550.8
77.0202 1147.16 1549.37
77.7929 1145.05 1552.25
79.3386 1140.99 1557.81
82.0427 1140.96 1558.71
59.2276 1146.39 1530.37
53.7562 1148.79 1531.65
44.8979 1147.22 1531.54
51.8323 1148.75 1530.61
40.8467 1143.61 1535.45
35.2205 1140.7 1538.18
29.2236 1141.46 1537.27
28.9146 1141.05 1537.85
29.5036 1138.84 1539.6
28.1754 1139.68 1539.19
26.4741 1141.59 1537.05
26.0386 1141.36 1537.38
26.1431 1141.03 1538.02
30.3524 1139.32 1539.28
30.5433 1140.31 1538.74
55.0897 1138.99 1549.64
50.7306 1140.26 1545.76
50.965 1139.01 1547.18
54.2108 1138.84 1549.23
50.4431 1142.46 1543.4
41.1519 1142.3 1539.37
45.6482 1142.92 1540.72
34.2576 1141.17 1538.51
35.9529 1141.96 1538.24
101.109 1122.48 1531.74
102.024 1123.43 1530.77
83.424 1126.43 1508.4
85.2754 1127.9 1509.85
86.593 1127.86 1510.17
86.0925 1127.67 1509.5
85.5456 1127.73 1509.37
82.7626 1127.83 1508.76
82.4931 1128.49 1508.92
80.7038 1126.84 1507.86
81.3427 1125.57 1507.5
84.6223 1129.84 1513.44
83.2138 1129.32 1510.96
84.8421 1130.2 1513.48
85.9109 1129.94 1515.85
86.1896 1130.44 1518.09
85.9934 1127.77 1518.23
86.0195 1126.87 1518.51
84.8653 1129.28 1522.41
85.0771 1129.73 1521.37
84.7252 1130.38 1522.68
86.3043 1125.79 1519.6
84.8328 1130.7 1522.54
85.5173 1130.72 1520.76
86.1362 1130.83 1519.06
85.9605 1131.62 1520.08
85.4768 1131.57 1521.38
86.0889 1128.48 1518.61
88.6242 1127.53 1511.87
91.428 1126.58 1513.88
90.6583 1128.03 1510.54
87.3949 1128.01 1510.58
88.8954 1127.92 1510.57
88.3723 1127.81 1510.72
88.1795 1128.06 1510.1
91.4549 1128.02 1511.26
91.356 1128.22 1509.44
91.4062 1128.36 1509.14
91.6539 1128.68 1508.7
91.4089 1128.57 1508.81
91.3296 1125.61 1506.75
90.1591 1126.58 1508.91
90.3445 1125.26 1508.76
90.1984 1126.89 1508.83
90.2257 1127.16 1508.73
90.2451 1127.43 1508.62
90.4535 1127.38 1508.62
90.6815 1127.31 1508.63
90.92 1127.21 1508.64
91.1577 1126.83 1508.37
90.5479 1123.88 1508.48
89.2855 1123.71 1507.9
89.673 1124.05 1508.07
92.878 1121.7 1507.49
91.9021 1122.41 1507.95
90.5734 1123.02 1508.06
94.0141 1121.05 1507.39
93.4018 1121.25 1507.05
88.9963 1123.4 1507.76
94.4387 1120.54 1507.64
94.111 1121.43 1509.54
95.0986 1118.31 1509.78
95.6382 1116.64 1509.97
96.1566 1114.63 1508.61
96.3634 1114.54 1509.05
93.8779 1120.86 1506.38
94.1315 1120.57 1506.05
96.899 1114.65 1510.1
96.6558 1114.37 1509.46
97.3495 1114.88 1512.05
97.6137 1114.78 1513.13
97.4977 1114.42 1510.82
94.0991 1135.21 1528.23
93.6943 1135.12 1527.78
115.806 1108 1515.43
112.651 1109.38 1514.13
111.381 1110.16 1513.66
110.137 1110.71 1513.48
103.549 1108.72 1512.4
103.296 1108.24 1512.53
100.399 1105.97 1512.21
102.377 1107.21 1512.48
97.7283 1106.2 1511.69
95.6435 1104.21 1512.94
96.857 1106.03 1511.39
97.0183 1106.5 1511.36
97.1712 1106.58 1511.39
93.4772 1097.88 1518.51
92.906 1086.05 1528.95
86.0445 1091.58 1524.27
87.3742 1097.21 1519.19
86.6786 1096.95 1519.27
105.697 1086.62 1528.87
109.615 1089.91 1527.54
101.029 1083.72 1531.04
106.714 1084.09 1530.94
106.322 1082.82 1532.03
114.095 1093.47 1526.2
92.0422 1099.82 1515.99
90.5084 1098.25 1517.95
91.8739 1099.12 1516.65
118.494 1095.99 1525.05
116.86 1094.92 1525.48
107.91 1110 1513.14
107.043 1109.49 1512.99
104.431 1109.2 1512.3
103.315 1109.03 1512.15
106.138 1115.18 1519.64
106.492 1114.99 1520.14
105.098 1115 1519.2
103.35 1114.86 1518.41
102.583 1114.64 1518.26
101.661 1114.24 1518.46
101.814 1113.77 1519.57
101.508 1113.92 1519.23
102.759 1113.6 1520.65
103.12 1113.5 1521.12
102.2 1113.69 1519.99
102.636 1113.71 1520.1
103.967 1115.17 1518.5
105.139 1112.94 1522.91
103.711 1113.32 1521.82
104.424 1113.06 1522.74
103.894 1113.21 1522.47
104.557 1112.96 1523.3
105.17 1114.06 1526.19
104.726 1114.29 1525.9
104.348 1115.31 1517.84
102.268 1114.55 1518.66
102.275 1113.54 1520.43
102.47 1115.04 1517.93
102.707 1115.27 1517.6
102.912 1115.29 1517.4
103.563 1115.56 1517.52
102.105 1113.59 1520.41
102.406 1113.51 1520.82
102.636 1113.53 1520.97
102.84 1113.41 1521.32
104.215 1115.63 1517.83
103.868 1113.19 1522.63
103.05 1113.43 1521.47
103.343 1113.36 1521.79
102.809 1113.48 1521.19
106.262 1115.41 1519.57
106.127 1115.64 1519.3
106.738 1115.81 1519.61
105.882 1116.15 1518.74
105.856 1115.83 1518.7
104.976 1115.55 1518.09
98.0108 1114.09 1511.24
98.3744 1113.66 1511.15
98.2944 1113.48 1510.8
98.4259 1112.89 1510.49
98.6646 1112.48 1510.6
98.7936 1111.94 1510.56
98.0026 1113.4 1510.34
98.5473 1110.56 1510.23
98.8624 1109.87 1510.52
98.6099 1110.18 1511.14
98.9345 1109.47 1510.96
96.8168 1112.37 1512.88
97.6096 1111.95 1512.03
97.9745 1111.71 1511.49
97.0895 1112.34 1512.69
98.28 1111.14 1511.29
95.1779 1109.06 1511.65
94.1021 1113.69 1515.82
94.9815 1116.25 1515.78
95.0762 1116.41 1515.82
94.9189 1116.35 1516.29
95.1329 1116.57 1515.87
96.1275 1113.63 1514.17
95.1901 1115.46 1515.5
95.2233 1115.98 1515.56
96.4743 1108.02 1509.69
96.5254 1107.53 1509.97
96.9651 1106.9 1511.41
96.2006 1107.87 1509.87
96.4536 1107.91 1509.79
96.2153 1107.98 1509.76
96.7774 1113.38 1505.34
96.7499 1111.84 1506.82
96.4026 1109.68 1508.68
95.8885 1108.6 1509.48
96.1267 1108.03 1509.75
117.061 1091.76 1524.52
117.635 1092.46 1524.35
115.884 1091.49 1525.06
117.752 1093.08 1524.52
118.112 1093.92 1524.55
118.844 1094.24 1524.19
119.785 1093.99 1524.3
114.377 1090.38 1526.31
112.257 1086.42 1529.45
105.3 1086.93 1528.47
105.853 1086 1529.27
106.632 1084.26 1530.76
107.382 1082.74 1532.06
108.191 1081.04 1533.53
108.313 1081.12 1533.47
108.291 1081.41 1533.23
108.606 1081.49 1533.18
109.271 1081.99 1532.82
110.333 1083.03 1532.06
100.933 1104.07 1512.82
98.2962 1110.74 1513.21
99.7355 1106.13 1513.06
99.1917 1107.9 1512.97
97.5727 1112.66 1513.27
97.1129 1113.45 1513.54
96.1218 1114.54 1514.92
96.2399 1114.17 1514.31
96.7927 1113.82 1513.48
100.205 1104.73 1513.02
101.488 1105.98 1511.34
100.817 1104.69 1512.36
101.651 1106.51 1510.92
101.445 1107.01 1510.31
101.323 1108.05 1509.06
102.134 1108.12 1509.08
102.591 1107.81 1509.05
101.389 1107.6 1509.53
101.158 1107.44 1509.74
104.479 1107.78 1509.03
104.916 1108.08 1508.77
105.146 1108.04 1508.53
103.311 1107.93 1509.09
106.705 1108.1 1508.19
111.683 1108.07 1507.57
108.873 1108.21 1507.89
111.197 1108.43 1507.22
110.188 1108.55 1507.3
113.653 1107.87 1507.76
112.161 1108.3 1507.39
68.431 1159.14 1483.03
69.9746 1164.46 1482.82
69.852 1163.9 1482.66
66.744 1156.34 1484.11
65.7962 1155.79 1484.56
70.0511 1164.62 1482.77
70.0083 1164.62 1482.9
65.5356 1156.06 1484.08
65.26 1155.45 1484.78
66.4981 1155.75 1483.71
69.8364 1162.3 1481.97
70.0927 1164.35 1482.52
70.0048 1164.24 1482.68
70.1004 1164.63 1482.65
67.6467 1155.05 1483.47
68.802 1154.55 1483.15
71.9668 1153.87 1482.09
72.8614 1153.76 1481.29
73.4682 1153.76 1480.24
69.9362 1153.85 1482.89
74.0228 1152.99 1480.08
74.2982 1151.45 1481.31
74.5457 1151.49 1480.49
62.7249 1188.42 1491.37
63.0835 1188.07 1491.95
63.3493 1187.64 1492.53
63.5062 1187.3 1493.05
63.4886 1187.35 1492.88
62.5998 1188.32 1491.38
62.7557 1187.57 1492.02
62.6024 1188.2 1491.44
63.2643 1187.32 1492.76
62.5567 1188.39 1491.33
62.6201 1188.38 1491.39
62.4655 1184.8 1502.62
62.4246 1184.26 1503.43
62.414 1184.21 1503.35
62.7181 1185.09 1502.57
62.4565 1184.13 1503.58
63.0027 1183.2 1504.91
63.1999 1182.95 1505.13
63.1172 1182.95 1505.22
62.9958 1182.92 1505.38
62.9223 1182.72 1505.76
62.7127 1182.4 1506.04
62.3825 1181.93 1506.67
61.8677 1181.73 1507.39
62.5821 1183.78 1504.15
61.7382 1181.83 1507.52
61.6281 1181.93 1507.62
61.5701 1182 1507.64
61.4924 1182.05 1507.64
61.4098 1181.98 1507.71
61.305 1181.97 1507.72
61.185 1181.88 1507.8
61.101 1181.81 1507.87
61.0342 1181.45 1508.3
61.2981 1181.06 1508.62
60.8698 1181.52 1508.14
60.9828 1181.73 1507.94
60.8531 1181.65 1508.01
66.0374 1171.64 1506.16
66.198 1170.01 1507.95
64.0056 1180.13 1509.11
62.8422 1180.59 1508.89
61.8033 1181.16 1508.77
63.3104 1180.48 1509.13
62.8777 1180.68 1509.03
61.5439 1181.47 1508.23
61.1904 1181.57 1508.07
61.3082 1181.58 1508.05
61.0535 1181.22 1508.38
61.0666 1181.5 1508.13
66.1677 1169.61 1508.45
65.9329 1169.26 1508.73
65.8687 1169.01 1509.13
65.6837 1168.73 1509.43
65.2808 1168.27 1509.5
65.1483 1168.15 1509.53
65.1005 1167.91 1509.58
64.0392 1167.03 1510.72
63.964 1167.25 1510.72
65.2986 1168.5 1510.01
64.9881 1168.26 1510.08
62.6782 1185.12 1502.54
71.426 1160.81 1506.01
71.4988 1160.5 1506.07
71.1669 1161.69 1505.89
71.1232 1162 1505.8
71.2729 1161.14 1506.03
71.3528 1160.91 1506.05
71.2013 1161.39 1506
70.3513 1162.41 1509.05
70.4305 1162.13 1508.82
70.524 1161.72 1508.6
70.0408 1161.81 1510.59
70.0054 1161.6 1510.76
69.9784 1161.47 1510.97
70.1161 1161.53 1511.73
70.1986 1161.57 1511.51
70.2015 1161.42 1511.18
70.2986 1161.5 1511.36
70.0243 1161.28 1510.99
70.3992 1162.38 1509.73
70.1099 1161.98 1510.29
70.4344 1162.38 1509.32
70.2782 1162.32 1508.94
70.2909 1162.36 1509.09
69.7141 1161.59 1512.23
69.6065 1161.53 1512.51
68.2537 1161.57 1513.65
68.7523 1161.5 1513.16
69.2117 1161.39 1512.83
69.6552 1161.3 1512.69
63.0839 1161.52 1516.91
62.82 1162 1515.93
62.5385 1162.78 1516.29
61.5507 1164.56 1513.57
60.2507 1164.96 1513.36
59.4855 1164.07 1514.67
60.3071 1165.31 1513.05
60.2687 1165.51 1512.8
60.2918 1165.43 1512.91
63.0069 1166.36 1511.48
62.8358 1166.21 1511.66
61.6256 1166.13 1512.07
60.3007 1165.63 1512.66
70.0739 1161.35 1512.13
70.1886 1161.38 1511.87
70.8297 1160.87 1508.2
70.7019 1161.03 1508.25
70.9407 1160.77 1508.18
71.0616 1160.64 1508.14
70.5003 1161.37 1508.39
70.5922 1161.09 1508.25
72.3021 1160.09 1509.91
72.3731 1159.92 1510.04
72.5116 1159.78 1509.83
71.2086 1160.72 1508.35
71.4507 1161.31 1509.44
71.7773 1160.95 1509.71
72.0134 1160.54 1509.83
72.1471 1160.32 1510.01
72.2808 1161.44 1505.52
73.1241 1161.11 1504.24
73.6134 1160.57 1503.27
73.6489 1160.54 1502.68
71.9674 1160.61 1505.88
71.7212 1160.13 1506.05
71.597 1160.25 1506.08
70.6213 1160.56 1503.47
69.7091 1160.51 1504.96
69.6453 1160.62 1505.1
71.2193 1162.01 1504.2
70.741 1161.42 1504.61
69.6092 1160.82 1505.41
69.6011 1160.72 1505.25
71.2302 1162.21 1504.97
71.244 1162.26 1505.2
71.6725 1160.87 1499.3
71.6197 1160.78 1499.73
71.5884 1160.72 1500.88
71.3469 1160.65 1501.92
71.5962 1160.73 1500.27
71.0499 1162.1 1505.63
70.9858 1162.01 1505.49
70.8597 1161.59 1497.38
69.9396 1162.08 1496.2
70.7658 1161.54 1497.11
71.1695 1161.14 1497.18
71.3468 1160.94 1497.71
70.1937 1161.93 1496
69.7426 1162.23 1495.22
69.6206 1162.29 1495
69.5626 1162.36 1494.76
71.5277 1160.8 1498.76
71.647 1160.74 1499.14
71.2766 1161.12 1498.19
70.2167 1161.91 1481.48
77.0226 1163.13 1477.95
76.6879 1162.79 1478.41
75.1384 1158.65 1483.56
75.615 1157.47 1484.39
73.8951 1155.89 1485.03
70.2856 1159.22 1482.65
70.0031 1160.92 1481.85
77.4588 1162.17 1477.17
77.809 1161.09 1476.49
70.864 1164.88 1481.16
70.5669 1164.71 1481.42
70.4527 1164.71 1481.7
70.4419 1164.8 1481.86
71.2709 1164.17 1480.73
70.1294 1163.37 1481.77
70.3625 1164.59 1481.97
71.6891 1162.14 1495.3
72.7933 1162.09 1496.19
73.0516 1161.93 1496.55
70.6798 1161.87 1495.63
71.4611 1161.36 1496.08
71.596 1161.16 1496.39
69.8747 1162.2 1495.08
77.5929 1148.86 1491.43
77.7363 1149.33 1491.22
74.2245 1158.44 1502.44
74.3059 1158.42 1502.81
74.5778 1158.64 1502.72
73.6807 1160.47 1502.23
74.3403 1159.64 1502.4
72.3908 1160.44 1497.19
73.3289 1159.83 1497.52
73.7742 1159.74 1497.18
73.7283 1160.43 1497.27
73.3951 1161.57 1498.1
73.4219 1161.49 1497.66
73.4448 1161.48 1497.47
73.2772 1161.79 1497.17
73.1824 1161.85 1496.87
70.2913 1161.92 1495.97
73.0622 1159 1502.54
73.8511 1158.65 1502.48
72.2756 1159.33 1502.98
71.0226 1159.45 1505
69.9314 1159.46 1506.5
70.0605 1159.36 1506.7
70.2259 1159.8 1505.09
69.7362 1159.57 1506.41
69.8761 1159.46 1506.64
71.3026 1159.95 1503.03
71.5756 1160.01 1502.06
71.8317 1160.22 1500.7
71.9797 1160.18 1499.13
77.3802 1149.72 1490.7
72.9114 1150.82 1488.13
73.947 1151.15 1488.38
73.8 1149.39 1490.01
73.8157 1145.39 1493.36
74.7212 1147.52 1492
76.6116 1149.52 1490.67
74.3477 1145.76 1493.47
76.638 1141.94 1498.2
76.3364 1141.99 1497.98
76.0756 1141.9 1497.99
77.5603 1149.31 1491.19
72.0916 1154.57 1485.59
70.8533 1153.76 1485.95
69.5027 1152.8 1486.34
71.6604 1151.54 1487.44
75.7476 1158.3 1483.03
76.0022 1158.08 1482.83
76.4339 1157.21 1483.66
76.7226 1156.87 1483.18
75.3705 1159 1482.65
77.226 1156.1 1482.5
77.5974 1156.25 1481.34
78.2745 1155.21 1480.54
79.3331 1154.62 1477.42
75.5679 1140.23 1490.66
75.2992 1142.02 1488.73
77.3166 1137.67 1491.94
77.2971 1138.1 1491.44
76.8898 1139.09 1490.48
77.0187 1139.28 1490.38
77.1603 1139.39 1490.33
77.1834 1139.87 1489.9
77.2472 1140.4 1489.56
74.83 1146.37 1484.33
74.6479 1149.7 1482.32
77.3294 1141.71 1489.15
77.2178 1141.12 1489.65
77.5512 1142.48 1489.19
77.7071 1143.2 1489.28
77.2279 1143.41 1489.76
77.3229 1144.05 1489.84
77.4183 1144.82 1489.99
77.9773 1145.98 1489.91
77.3191 1145.39 1490.23
77.8193 1146.62 1490.25
77.7138 1147.37 1490.65
77.5808 1148.15 1491.11
70.3363 1163.36 1481.18
70.5767 1164.27 1481.13
70.8754 1164.52 1480.94
71.1082 1164.74 1480.81
71.038 1164.76 1480.9
68.4401 1224.21 1511
68.751 1224.53 1510.79
62.5188 1184.79 1502.86
62.8379 1182.86 1506.23
62.4662 1182.46 1506.79
62.3983 1182.54 1507.38
62.3154 1182.45 1507.2
62.1971 1182.46 1507.59
62.8265 1183.22 1505.63
62.7998 1183 1505.83
62.8701 1183.11 1505.8
62.1023 1182.1 1508.14
62.3619 1181.84 1508.77
62.1232 1181.93 1508.36
62.7465 1183.44 1505.35
62.5159 1184.71 1503.07
62.48 1184.57 1503.53
62.4659 1184.38 1503.73
62.5306 1183.9 1504.36
62.8212 1183.41 1505.22
62.673 1181.26 1509.24
62.3212 1181.63 1508.97
62.8838 1180.84 1509.14
62.4858 1181.18 1509.12
67.2212 1172.46 1506.85
68.3427 1171.44 1509.83
67.9864 1171.8 1508.26
68.0895 1171.54 1508.76
68.2115 1171.27 1509.57
68.0235 1171 1509.65
63.0875 1165.41 1514.87
64.225 1167.49 1512.96
63.0431 1165.72 1514.49
66.1659 1168.96 1511.03
63.8136 1167.26 1512.82
67.2939 1170.23 1509.53
66.2657 1169.21 1509.91
66.5722 1169.62 1509.32
71.7604 1162.83 1514.29
69.2234 1165.19 1517
70.498 1165.53 1516.9
71.2882 1164.72 1516.39
62.8242 1161.71 1518.85
62.5736 1161.96 1518.7
62.3534 1162.7 1517.85
62.4154 1164.65 1515.58
68.6825 1166.96 1512.94
68.691 1166.96 1513.1
68.7605 1166.65 1513.07
68.8208 1166.38 1513.07
68.8489 1166.27 1513.22
68.6856 1166.9 1512.78
69.2727 1165.27 1512.79
69.7426 1164.03 1512.22
68.7159 1166.7 1512.62
68.7524 1166.5 1512.43
68.8218 1166.09 1512.19
68.7632 1166.44 1512.13
69.0329 1165.26 1511.95
68.9885 1165.53 1512.17
68.9389 1165.77 1512.3
69.1866 1165.2 1512.48
68.9482 1165.76 1512.65
68.9097 1165.92 1512.56
69.347 1164.35 1512.12
69.2246 1165.17 1512.54
68.6884 1166.85 1512.63
69.2561 1165.17 1512.62
67.4353 1161.02 1520.93
68.1441 1160.84 1521.56
68.6797 1160.38 1522.18
68.6471 1158.66 1522.32
68.7278 1159.07 1522.78
70.7652 1164.79 1518.07
69.8995 1164.88 1517.61
71.2149 1164.98 1517.38
65.4843 1160.31 1519.94
66.6238 1161.03 1520.4
65.2386 1158.65 1520.9
64.9399 1158.78 1521.21
63.4628 1160.74 1519.53
64.0713 1159.69 1520.63
64.8272 1158.51 1521.87
63.0643 1161.08 1519.22
62.724 1161.43 1518.98
65.3423 1158.1 1521.75
67.8059 1157.22 1521.29
67.3415 1156.96 1521.57
65.7729 1158.53 1520.49
66.6778 1158.21 1520.56
67.3816 1157.59 1520.98
71.6021 1164.1 1516.9
71.3292 1164.74 1517.05
71.7834 1163.61 1516.11
75.9343 1161.83 1522.83
76.4987 1160.6 1523.92
76.0287 1160.87 1522.4
72.3884 1161.63 1513.8
71.5827 1164.05 1516.08
74.0855 1160.67 1518.53
73.6896 1160.66 1517.85
73.5475 1160.2 1517.47
74.6194 1161.61 1519.8
55.7135 1150.13 1526.66
51.3375 1150.48 1524.91
58.6132 1153.68 1522.34
53.9277 1152.27 1523.52
52.1889 1151.45 1524.3
51.1347 1150.88 1524.74
62.1815 1156 1520.78
63.6705 1157.59 1519.68
63.0377 1157.64 1519.68
63.1112 1158.57 1519.05
64.1332 1159.92 1517.42
68.4965 1161.3 1513.92
71.1266 1160.05 1515.26
69.404 1160.91 1514.01
72.4185 1159.64 1515.7
73.9335 1157.67 1517.55
73.0497 1159.41 1516.38
72.7654 1159.4 1515.97
73.4462 1159.25 1517.03
72.5863 1159.62 1515.65
73.8595 1158.96 1517.65
73.5307 1158.97 1517.09
74.6216 1158.77 1518.72
74.9496 1159.98 1519.85
74.7894 1161.13 1520.22
75.0704 1160.71 1520.42
75.1584 1160.9 1520.71
77.866 1154.98 1519.61
75.2355 1156.24 1518.65
77.8407 1153.84 1521
77.9283 1154.64 1520.49
79.2354 1154.16 1521.69
80.6068 1153.99 1522.98
80.3743 1153.89 1522.43
80.1482 1154.78 1524.53
79.668 1154.58 1523.12
79.9771 1153.88 1521.64
79.5021 1156.75 1525.3
79.0631 1157.82 1525.57
77.9922 1158.38 1524.55
78.933 1157.59 1525.66
79.2219 1157.03 1525.47
77.1869 1158.83 1523.13
76.7938 1160.45 1524.7
76.8115 1159.69 1523.7
76.9034 1159.15 1523.12
76.9945 1159.37 1523.56
77.0804 1158.91 1523.07
76.7062 1160.16 1524.15
76.0513 1161.63 1522.63
75.997 1161.63 1522.22
76.149 1161.44 1522.44
75.8172 1161.98 1522.44
75.8948 1161.89 1522.7
75.3137 1162.23 1521.43
74.5435 1161.1 1519.53
79.6008 1150.16 1513.31
79.4466 1150.05 1513.2
79.6051 1150.13 1513.48
79.3785 1150.02 1512.95
79.7202 1149.56 1512.77
78.9596 1150.74 1512.95
78.4467 1151.66 1513.27
78.5212 1151.53 1513.29
81.0442 1145.51 1496.64
80.8374 1145.68 1496.4
80.8362 1145.74 1496.14
81.0234 1145.63 1496.26
81.1947 1145.09 1496.95
81.3516 1144.5 1497.4
81.4169 1144.27 1497.47
81.5867 1144.27 1496.82
81.5558 1144.02 1497.34
82.1295 1151.72 1516.56
79.5552 1150.4 1512.23
78.795 1151.43 1513.42
78.6042 1151.66 1513.39
78.541 1151.58 1512.96
78.4167 1151.73 1513.17
71.7696 1160.3 1513.93
70.5667 1160.76 1513.08
70.4183 1160.93 1512.42
70.3581 1160.89 1512.82
70.3594 1161.09 1512
72.54 1159.91 1514.98
70.543 1161.06 1511.71
70.612 1161.15 1511.44
70.398 1160.86 1511.07
69.9493 1160.22 1509.43
70.485 1161.18 1511.28
69.7331 1159.58 1507.92
69.5114 1159.74 1508.01
70.466 1159.73 1508.96
69.8626 1159.51 1507.89
71.6168 1159.68 1509.93
69.3075 1159.89 1508.02
72.1905 1159.45 1509.98
72.2872 1159.75 1510.18
72.2692 1159.58 1510.02
72.4535 1159.78 1515.39
73.4827 1159.73 1517.23
81.4186 1145.05 1496.68
93.0338 1122.96 1502.93
92.8435 1122.29 1503.92
93.3792 1123.51 1502.13
93.0488 1121.82 1504.71
93.6285 1123.61 1502.41
93.385 1123.64 1501.9
93.4879 1121.23 1505.24
93.2028 1121.4 1505.12
92.6958 1124.3 1503.74
92.757 1124.2 1503.13
93.334 1123.85 1502.48
95.2074 1118.48 1506.93
94.742 1120.01 1509.05
96.1334 1114.57 1508.11
96.2775 1112.82 1507.68
96.5048 1111.99 1507.14
96.3136 1110.39 1508.4
96.2109 1110.52 1508.51
96.6078 1111.89 1506.99
93.6312 1120.96 1505.76
94.9241 1119.4 1506.93
92.0476 1124.78 1504.43
91.3177 1125.71 1506.09
91.166 1126.98 1508.22
91.4589 1125.3 1505.15
91.7122 1128.81 1508.41
91.8607 1129.32 1508.22
91.7363 1129.09 1508
91.764 1129.05 1508.06
91.6329 1128.96 1508.16
91.5686 1128.88 1508.29
91.5353 1128.86 1508.35
91.4308 1128.9 1508.23
91.8617 1129.99 1508.76
91.8611 1129.54 1508.47
89.3365 1135.37 1510.3
89.8251 1134.24 1509.8
90.373 1133.05 1509.51
90.8267 1131.92 1509.18
91.2093 1130.9 1508.87
86.3842 1133.38 1513.72
84.392 1133.94 1510.06
84.588 1133.69 1510.52
86.8305 1135.16 1511.22
84.8356 1134.73 1510
83.7357 1134.26 1508.72
84.2695 1134.51 1509.24
87.7343 1135.67 1510.99
88.7031 1135.97 1510.79
85.9529 1133.1 1513.24
93.5285 1124.21 1519.77
86.091 1123.33 1522.98
77.9694 1123.31 1526.66
83.2404 1123.16 1524.23
92.0805 1132.23 1523.23
88.7329 1132.54 1524.56
88.7093 1133.63 1525.17
88.6793 1136.39 1526.15
87.1309 1136.51 1526.95
86.4004 1134.16 1526.32
92.5778 1132.25 1523.17
90.9506 1132.62 1524.43
91.4413 1133.56 1524.76
82.5636 1130.84 1526.6
86.2344 1131.39 1519.15
85.9734 1130.74 1515.67
86.114 1131.79 1516.03
85.7161 1132.17 1521.11
85.2857 1132.06 1522.08
85.5703 1131.77 1513.69
85.9327 1132.03 1513.9
84.3623 1132.97 1510.15
84.1147 1133.16 1509.67
86.0964 1130.61 1519.6
85.5375 1131.22 1521.32
85.0365 1131.26 1522.28
84.8778 1131.42 1522.72
84.585 1131.03 1523.27
86.1271 1128.54 1518.93
86.212 1129.28 1519.18
89.8467 1135.79 1526.46
87.8609 1135.6 1526.89
85.9545 1127.71 1525.85
82.3621 1134.49 1528.34
81.8848 1129.6 1526.99
87.3046 1124.03 1521.46
82.5996 1123.72 1525.03
86.1254 1126.73 1519.97
82.246 1116.43 1524.18
91.0713 1118.09 1520.27
92.9466 1121.56 1520.58
93.6146 1124.08 1520.21
86.7782 1112.77 1521.06
94.4651 1124.27 1519.28
60.9685 1145.66 1544.6
58.1848 1147.98 1542.1
56.1202 1151.28 1537.96
56.0345 1149.15 1540.32
53.7484 1151.27 1537.1
52.404 1151.17 1536.45
52.1389 1152.48 1534.36
50.4127 1151.05 1535.35
54.5483 1153.78 1531.94
49.2868 1150.99 1535.61
60.3273 1159.62 1520.67
62.1974 1159.13 1521.32
63.3859 1159.14 1521.36
59.1389 1159.55 1520.7
59.9987 1156.87 1523.91
59.9617 1154.04 1529.57
56.5388 1155.48 1528.62
54.0976 1155.25 1529.41
57.9328 1159.54 1520.65
58.0015 1158.95 1521.35
78.9098 1142.09 1556.29
78.5265 1143.51 1554.29
78.1755 1144.01 1553.66
42.3239 1148.48 1530.22
39.4351 1146.65 1532.3
43.1036 1149.03 1529.23
44.2953 1148.69 1529.62
49.9447 1148.85 1529.72
34.3772 1142.6 1536.4
29.5492 1141.9 1536.59
26.8291 1142.02 1535.72
26.6534 1141.89 1536.53
29.1465 1139.05 1539.71
29.7262 1139.42 1539.34
27.6435 1139.82 1539.28
25.9924 1140.87 1538.52
25.4143 1142.02 1536
25.4018 1141.81 1536.75
25.4624 1141.61 1537.61
25.5694 1141.38 1538.35
29.9712 1140.39 1538.92
30.5861 1141.32 1538.3
51.325 1141.6 1544.78
51.3233 1138.84 1547.63
53.9713 1138.77 1549.25
51.4334 1140.6 1545.92
50.6352 1143.5 1542.54
35.2335 1142.82 1537.63
40.9567 1143.26 1538.66
45.5196 1143.84 1539.85
31.2737 1142.14 1537.69
81.87 1124.94 1506.96
82.7387 1124.58 1506.9
84.0168 1126.17 1508.24
86.1069 1128.09 1508.93
87.4195 1128.16 1509.76
85.6814 1127.39 1508.79
84.494 1125.88 1508.07
79.8771 1127.44 1508.03
82.2324 1128.99 1508.99
79.7369 1128.14 1508.18
80.2813 1125.8 1507.56
79.3773 1126.52 1507.58
83.3592 1129.89 1510.82
81.7822 1129.41 1509.08
85.1051 1130.59 1513.67
83.4213 1130.39 1510.34
86.0553 1126.94 1518.81
85.2087 1128.88 1523.29
87.1903 1125.75 1521.92
84.7054 1130.49 1522.64
86.8472 1124.67 1519.56
86.3157 1125.86 1519.26
85.287 1131.28 1521.76
89.9757 1128.35 1509.59
90.6961 1128.66 1508.77
91.0781 1128.57 1508.83
89.0239 1128.75 1508.57
89.446 1128.95 1508.36
88.236 1129.05 1508.15
88.7 1129.12 1507.91
91.474 1128.8 1508.47
91.1136 1128.89 1508.38
90.1371 1125.17 1508.66
89.7683 1125.6 1508.61
90.0059 1126.91 1508.85
90.0281 1127.2 1508.74
90.1036 1127.49 1508.62
90.3157 1127.72 1508.51
90.2608 1127.84 1508.46
90.5067 1127.61 1508.53
90.7238 1127.53 1508.54
90.9303 1127.47 1508.54
88.2687 1124.88 1508.07
86.1202 1125.26 1507.91
86.6631 1125.43 1508.08
89.4145 1126.32 1508.73
91.6152 1122.28 1507.38
90.1459 1122.89 1507.64
89.1372 1123.18 1507.62
93.5131 1121.09 1506.59
92.1368 1121.86 1506.86
86.1259 1123.99 1507.43
94.5061 1120.63 1508.69
96.3677 1114.03 1508.6
96.2941 1113.58 1508.14
96.6257 1114 1509.02
93.2207 1121.16 1506.12
97.8106 1113.92 1510.57
97.3673 1113.87 1509.91
96.9699 1113.85 1509.39
93.695 1135.07 1527.87
93.4937 1134.61 1526.46
93.2543 1134.97 1527.38
95.1869 1135.3 1527.57
112.558 1109.54 1514.06
113.732 1109.5 1514.27
111.95 1110.02 1513.8
110.978 1110.66 1513.55
109.471 1111.04 1513.33
102.328 1108.24 1512.27
102.616 1108.75 1512.17
101.97 1107.54 1512.26
101.359 1106.53 1512.13
98.1982 1106.33 1511.74
97.2476 1106.58 1511.4
96.5173 1106.05 1511.24
95.1218 1104.72 1512.46
96.4957 1106.85 1511.1
96.4855 1106.94 1511.06
96.5935 1106.92 1511.09
84.377 1085.09 1529.13
86.0956 1095.1 1521.37
82.4841 1092.07 1523.7
77.9054 1087.88 1526.78
86.0928 1096.67 1519.73
86.4814 1097.72 1518.14
89.3967 1098.35 1517.96
108.131 1087.33 1528.4
107.072 1085.03 1530.14
105.96 1080.98 1533.42
107.266 1082.96 1531.9
107.352 1081.39 1533.23
107.287 1080.63 1533.85
114.176 1092.74 1526.66
92.2312 1101.35 1514.92
91.4668 1099.62 1516.07
89.2568 1098.6 1517.67
118.247 1095.6 1525.2
116.997 1094.76 1525.58
115.25 1093.44 1526.42
107.787 1109.87 1513.03
105.237 1109.54 1512.33
103.708 1109.36 1512.02
102.246 1108.98 1511.99
102.771 1109.23 1511.89
104.989 1115.22 1518.9
103.35 1115.1 1518.19
103.032 1114.97 1518.1
102.337 1114.65 1518.02
102.751 1114.9 1517.95
101.609 1114.29 1518.33
100.946 1114.13 1518.53
101.978 1113.69 1519.9
101.776 1113.74 1519.75
101.339 1113.95 1519.15
102.52 1113.61 1520.58
102.35 1113.6 1520.49
103.491 1115.33 1518.01
104.097 1115.4 1518.31
101.924 1113.64 1520.18
102.195 1115.08 1517.72
103.064 1115.45 1517.59
102.719 1115.29 1517.52
103.354 1115.68 1517.49
104.027 1115.78 1517.8
102.155 1113.62 1520.3
101.705 1113.74 1519.79
104.818 1115.9 1518.16
105.184 1115.47 1518.78
105.308 1115.87 1518.58
97.8022 1112.98 1509.94
98.1482 1112.54 1510.13
98.4642 1112.15 1510.3
98.3156 1111.05 1510.09
97.4081 1113.45 1509.69
98.4357 1109.4 1510.58
98.8333 1109.53 1510.48
99.2351 1108.89 1510.83
99.1406 1109.16 1510.54
98.5143 1110.75 1511.38
98.8853 1109.75 1511.28
99.2567 1108.79 1511.21
96.6147 1113.45 1513.55
97.8553 1112.01 1511.83
97.1725 1112.7 1512.79
98.2116 1111.56 1511.45
93.5788 1110.2 1514.48
93.6679 1115.49 1517.04
95.0164 1107.94 1511.16
91.9523 1117.25 1517.56
92.3629 1116.82 1517.19
92.112 1117.48 1517.57
95.045 1117.04 1516.08
95.0245 1116.86 1516
95.0995 1117.74 1516.8
95.9802 1114.16 1514.59
95.7049 1115.08 1515.11
96.2892 1107.54 1510.05
95.7542 1107.53 1510.32
96.2864 1107.89 1509.83
95.893 1107.52 1510.28
96.2613 1109.68 1508.75
95.7655 1108.68 1509.47
95.9478 1108.23 1509.69
96.0357 1107.85 1509.96
117.277 1092.13 1524.66
116.229 1091.38 1525.11
114.81 1090.86 1525.86
117.34 1092.66 1524.86
117.714 1093.48 1524.79
117.966 1094.14 1524.89
118.766 1094.52 1524.46
119.79 1094.36 1524.51
113.743 1088.13 1528.17
105.563 1085.96 1529.29
106.296 1084.63 1530.43
107.258 1082.58 1532.19
108.077 1080.91 1533.62
108.21 1081.68 1533.01
108.389 1082.53 1532.3
108.787 1082.42 1532.42
111.094 1083.67 1531.59
98.0518 1111.96 1512.59
99.0523 1108.97 1512.37
99.5825 1107.28 1512.43
98.5344 1110.75 1512.19
97.3216 1113.12 1512.84
100.076 1105.78 1512.42
101.119 1106 1511.35
101.188 1106.57 1510.86
100.453 1105.31 1512.09
101.125 1106.92 1510.41
100.901 1107.42 1509.98
101.109 1108.13 1509.43
101.534 1108.51 1509.51
102.73 1108.42 1509.61
100.995 1108.13 1509.85
104.003 1108.1 1509.47
105.164 1108.19 1509.4
106.088 1108.29 1508.23
105.747 1108.47 1508.94
111.564 1108.29 1507.28
108.527 1108.36 1507.83
111.119 1108.59 1507.02
110.121 1108.8 1507
112.696 1108.54 1507.13
68.6008 1158.52 1483.12
69.059 1160.61 1482.43
67.4377 1156.34 1484.08
70.0557 1164.49 1482.58
69.9163 1163.99 1482.48
66.8034 1155.07 1484.93
66.0556 1155.02 1485.12
65.2891 1154.22 1485.8
66.56 1153.3 1485.1
67.3993 1152.91 1484.63
65.9234 1153.39 1485.66
71.1704 1163.16 1480.64
69.9358 1162.63 1481.91
70.1511 1164.39 1482.4
70.2414 1164.71 1482.34
70.1869 1164.7 1482.49
70.151 1164.64 1482.5
70.1317 1164.53 1482.39
68.7828 1152.03 1484.3
69.9055 1151.62 1483.92
71.305 1152.67 1482.69
72.7219 1152.44 1482.13
73.6194 1151.75 1481.88
71.09 1151.08 1483.57
74.029 1149.58 1482.74
63.0076 1187.97 1492.05
63.2828 1187.61 1492.58
63.4091 1187.3 1492.98
62.5063 1188.27 1491.42
62.4987 1188.32 1491.37
62.5988 1187.55 1492.04
63.0968 1187.24 1492.79
62.4426 1188.21 1491.46
62.4272 1188.33 1491.35
62.5092 1188.33 1491.41
62.8568 1187.99 1491.97
62.5018 1184.79 1502.74
62.4414 1184.36 1503.41
62.4596 1184.27 1503.64
62.9903 1183.23 1505.05
62.8947 1182.98 1505.4
62.843 1182.84 1505.69
62.9634 1183.13 1505.26
62.7159 1182.6 1506.04
62.317 1182.13 1506.66
62.0034 1181.92 1507.18
62.5427 1183.84 1504.25
61.8106 1182 1507.39
61.6672 1182.09 1507.53
61.5963 1182.09 1507.62
61.4248 1182.04 1507.65
61.5308 1181.71 1507.97
61.3734 1181.72 1507.93
61.0522 1181.82 1507.85
60.8661 1181.49 1508.31
61.2227 1181.21 1508.73
61.3301 1181.14 1508.68
60.7501 1181.57 1508.09
60.7253 1181.47 1508.2
60.9285 1181.75 1507.92
60.8045 1181.68 1507.98
60.6969 1181.59 1508.06
66.1909 1171.37 1506.62
66.4133 1170.19 1507.94
66.426 1169.82 1508.55
61.8991 1181.33 1508.79
61.8003 1181.6 1508.37
60.8577 1181.28 1508.33
60.9315 1181.44 1508.19
66.1322 1169.38 1508.9
66.1566 1169.21 1509.37
65.9 1168.93 1509.62
64.9661 1168.33 1510.47
64.464 1167.92 1510.27
64.0842 1167.54 1510.58
63.1127 1166.55 1511.32
63.2231 1166.76 1511.23
64.3272 1167.93 1510.63
63.7683 1167.44 1511.11
71.4092 1160.6 1506.13
71.5581 1160.14 1506.17
71.4773 1160.33 1506.18
71.1142 1161.61 1506
71.0774 1161.9 1505.9
71.0096 1162.09 1505.75
71.3179 1160.8 1506.15
71.2317 1161.02 1506.14
71.151 1161.31 1506.1
70.3162 1162.09 1508.76
70.4121 1161.76 1508.59
69.9611 1161.54 1510.47
69.9456 1161.63 1510.26
69.9277 1161.34 1510.69
70.2934 1161.41 1511.63
70.3434 1161.34 1511.27
70.1398 1161.18 1511.19
70.4386 1161.37 1511.44
69.9135 1161.08 1510.84
69.8536 1161.15 1510.63
70.1372 1161.96 1509.96
70.3321 1162.13 1509.59
69.8776 1161.63 1510.06
70.4237 1162.22 1509.25
70.193 1162.28 1508.9
70.3138 1162.24 1509.07
69.9676 1161.31 1512.4
70.1115 1161.08 1512.61
69.2086 1161.24 1513.34
69.8269 1161.09 1512.9
62.1446 1160.28 1518.34
62.1463 1162.54 1518.26
62.1433 1162.69 1518.08
62.2581 1162.68 1518.12
62.2266 1163.23 1516.57
62.0382 1162.79 1517.84
62.1293 1162.86 1517.67
60.7263 1163.9 1514.81
59.6038 1163.78 1514.93
60.0453 1165 1513.27
59.1055 1164.42 1514.81
58.638 1163.32 1516.02
58.8136 1163.1 1516.22
59.1463 1163.23 1516.15
60.0559 1165.19 1513.07
59.7693 1165.52 1513.02
60.0717 1165.33 1512.93
61.5824 1166.29 1511.92
61.5038 1166.37 1511.8
60.378 1165.79 1512.5
60.1179 1165.62 1512.63
70.2346 1161.21 1512.05
70.2168 1161.11 1512.34
70.3003 1161.26 1511.85
70.4034 1161.24 1511.71
70.7569 1160.68 1508.06
70.8709 1160.44 1507.96
70.6565 1160.78 1508.05
70.9752 1160.41 1507.98
71.0692 1160.2 1507.89
71.1508 1160.35 1508
70.376 1161.43 1508.38
70.4517 1161.17 1508.23
70.5421 1160.99 1508.13
72.2782 1160.11 1510.13
72.2627 1159.82 1510.06
71.2887 1160.36 1508.18
71.5185 1161.1 1509.43
71.7756 1160.9 1509.81
71.9884 1160.59 1509.97
72.2031 1160.03 1509.93
72.3193 1161.43 1505.32
72.9888 1161.32 1504.22
73.4533 1160.83 1503.28
73.5061 1160.76 1502.76
73.3655 1160.96 1502.18
72.6582 1161.23 1504.64
71.8734 1159.98 1506.05
71.7284 1159.71 1506.18
71.6455 1159.94 1506.17
70.549 1160.46 1503.7
69.7698 1160.4 1504.95
68.8606 1160.59 1505.99
68.8114 1160.64 1506.06
68.8487 1160.68 1506.09
71.0637 1161.86 1504.79
70.4291 1161.28 1504.99
69.617 1160.9 1505.57
69.0054 1160.74 1506.3
68.9208 1160.71 1506.2
70.8885 1161.88 1505.26
70.9538 1161.97 1505.38
71.6498 1160.64 1499.61
71.6051 1160.6 1500.99
71.3979 1160.48 1501.81
70.5553 1160.37 1503.8
71.6315 1160.58 1500.04
71.6152 1160.53 1500.9
71.2712 1161.03 1497.94
71.6912 1160.48 1498.76
71.9096 1160.22 1499.21
71.5764 1160.66 1498.7
71.6594 1160.55 1499.19
70.1178 1162.26 1481.56
69.9422 1161.41 1481.81
77.1332 1161.77 1477.66
76.4627 1161.22 1478.89
69.9402 1159.04 1482.79
69.7192 1160.58 1482.05
78.1755 1159.94 1475.89
77.524 1160.74 1477.13
70.9085 1164.86 1481.1
70.5407 1164.64 1481.41
70.4035 1164.64 1481.75
70.3923 1164.74 1481.93
70.4082 1164.03 1481.74
71.8764 1161.98 1495.77
72.8189 1162.12 1496.36
73.0025 1162.02 1496.63
71.7527 1161.2 1496.04
72.0989 1160.92 1496.39
71.8472 1161.03 1496.4
77.3871 1148.81 1491.45
74.0457 1158.56 1502.73
74.287 1158.65 1502.74
74.6748 1158.82 1502.51
73.491 1160.72 1501.84
74.2727 1159.71 1502.13
72.3896 1160.56 1497
73.4842 1159.92 1497.11
72.7692 1160.38 1497.01
73.4848 1160.49 1497.1
73.2657 1161.82 1497.95
73.2505 1161.79 1497.52
73.2537 1161.8 1497.3
73.0883 1162.03 1496.99
73.1048 1161.96 1496.87
73.0551 1159.04 1502.68
72.4086 1159.3 1503.01
73.466 1158.87 1502.69
73.8479 1158.7 1502.82
71.1326 1159.4 1505.08
71.3378 1159.34 1504.96
70.0936 1159.33 1506.86
70.2801 1159.28 1506.89
69.9772 1159.38 1506.84
69.8051 1159.46 1506.95
69.9199 1159.38 1507.04
69.8464 1159.41 1507.18
70.1264 1159.91 1505.01
69.5706 1159.68 1506.29
69.7315 1159.52 1506.8
69.5999 1159.6 1506.64
71.0209 1160.18 1503.11
70.9687 1160.11 1503.42
71.641 1160.19 1501.53
71.6366 1160.45 1500.8
71.7444 1160.4 1499.98
77.2683 1149.17 1491.21
76.7735 1149.14 1491.07
72.4775 1150.37 1487.86
70.9349 1150.83 1487.41
73.6161 1150.7 1488.58
73.491 1149.78 1489.49
73.4279 1146.68 1492.18
74.3075 1143.55 1495.1
75.4449 1148.2 1491.59
74.8847 1146.82 1492.64
75.0956 1145.27 1494.16
77.0981 1142.05 1498.19
77.8871 1138.64 1503.11
77.3731 1138.95 1502.51
76.159 1141.47 1498.55
77.0934 1139.12 1502.21
77.1639 1148.69 1491.47
69.6025 1158.61 1483.06
68.4743 1155.37 1484.76
67.7411 1152 1486.59
67.2911 1152.97 1486.06
76.8905 1160.13 1478.32
76.184 1157.94 1483.01
77.2412 1158.66 1478.07
76.8751 1157.08 1482.56
76.459 1157.7 1482.65
77.7335 1156.4 1478.62
78.5278 1155.67 1476.62
77.1383 1137.54 1492.26
75.2784 1140.58 1491.54
76.9257 1137.61 1492.72
74.6108 1145.81 1485.04
74.8701 1142.2 1489.91
79.7756 1135.38 1494.09
80.2615 1134.43 1494.84
77.2622 1138.33 1491.18
79.039 1136.56 1493.08
77.3869 1138.45 1491.13
77.5519 1138.54 1491.12
77.7003 1138.65 1491.08
77.3152 1139.47 1490.3
77.3674 1139.96 1489.99
77.3497 1140.56 1490.08
77.1547 1141.91 1489.69
77.2923 1141.29 1490.18
77.1445 1142.67 1489.71
77.1716 1142.74 1490.32
77.1276 1143.47 1490.47
77.0602 1144.21 1490.36
77.0416 1144.74 1490.66
77.3358 1145.98 1490.4
77.0338 1145.31 1490.95
77.4276 1146.88 1490.6
77.0178 1146.15 1490.85
77.4768 1147.58 1490.83
77.3518 1148.21 1491.21
69.982 1162.74 1481.59
70.5958 1164.34 1481.15
70.7964 1164.54 1481.04
70.7129 1164.54 1481.13
70.9906 1164.79 1480.97
62.4581 1184.45 1503.47
62.7166 1182.73 1506.11
62.3181 1182.29 1506.71
62.0566 1182.31 1507.13
62.1238 1182.42 1507.32
62.0216 1182.4 1507.54
62.7582 1183.19 1505.49
62.7639 1182.9 1505.73
62.7692 1183.03 1505.6
61.8725 1182.31 1507.52
61.8717 1182.03 1507.96
62.0942 1181.73 1508.57
61.8673 1181.82 1508.18
62.4497 1184.38 1503.65
62.8946 1183.36 1505.11
62.8139 1183.11 1505.43
62.0527 1181.53 1508.76
67.1555 1171.5 1507.36
67.1821 1171.04 1507.93
67.3058 1170.85 1508.4
68.1041 1171.34 1509.1
67.383 1170.66 1508.93
62.5204 1165.43 1514.56
62.753 1165.84 1514.16
63.4433 1167.08 1512.74
65.4011 1168.51 1511.02
62.1788 1165.93 1513.75
66.652 1169.87 1508.88
65.7686 1168.87 1510.15
66.3815 1169.55 1509.03
71.6764 1163.44 1515.1
70.8902 1165.33 1517.21
62.2975 1161.56 1518.84
62.2715 1161.82 1518.7
61.9295 1161.97 1518.65
61.8974 1163.02 1517.39
61.9329 1165.09 1514.93
68.6527 1167.07 1512.74
68.6615 1167.08 1512.91
68.7333 1166.75 1512.88
68.7979 1166.46 1512.86
68.8598 1166.18 1512.9
68.6544 1167.03 1512.58
68.6897 1166.81 1512.41
68.7253 1166.63 1512.39
68.8265 1166.12 1511.81
68.8042 1166.24 1511.84
68.8276 1165.98 1512.14
69.0288 1165.25 1511.81
68.7655 1166.43 1511.87
68.7235 1166.64 1512.14
68.9642 1165.61 1511.97
68.9111 1165.86 1512.05
68.8676 1166.1 1512.44
68.885 1166 1512.25
68.9034 1165.98 1512.78
68.8463 1166.22 1512.67
68.659 1166.97 1512.41
67.644 1160.69 1521.32
67.0064 1160.69 1520.83
68.2199 1160.4 1521.86
68.4894 1160.24 1522.18
68.7022 1158.89 1522.22
68.2739 1157.52 1521.15
65.4979 1159.85 1519.91
65.8266 1159.17 1519.97
66.3566 1160.06 1520.33
62.8631 1160.7 1519.51
62.5432 1160.46 1519.79
62.681 1160.88 1519.27
62.5413 1161.2 1519.07
67.7946 1157.99 1520.74
66.8269 1158.81 1520.21
67.4344 1158.23 1520.46
75.6789 1161.66 1522.33
76.5795 1159.96 1523.09
76.0331 1160.26 1521.83
74.0336 1160.26 1518.33
54.4319 1150.21 1526.66
49.2558 1150.07 1526.06
46.3918 1150.04 1525.66
45.8907 1150.11 1525.17
50.6305 1152.17 1524.12
47.1507 1150.6 1524.47
58.0124 1155.94 1521.95
46.3572 1150.24 1524.85
60.4795 1157.7 1520.97
60.8126 1158.46 1520.55
71.2131 1160.25 1514.74
70.2408 1160.75 1513.6
69.9244 1160.97 1513.25
75.0531 1156.55 1518.32
74.6998 1157.81 1518.27
73.9343 1159.43 1517.92
73.9826 1159.84 1518.12
74.9846 1158.85 1519.27
75.0988 1159.8 1520.01
74.4269 1160.5 1519.15
75.1423 1162.24 1521.3
75.2618 1161.93 1521.47
75.2126 1160.05 1520.41
75.2698 1160.94 1520.99
77.5885 1155.37 1519.4
77.2581 1155.49 1519.22
78.4321 1157.15 1525.29
77.7362 1155.72 1520.86
79.5221 1154.95 1525.09
79.1816 1155.14 1525.28
79.2562 1156.43 1525.54
78.8957 1157.21 1525.68
79 1156.5 1525.73
77.9568 1157.92 1524.04
77.2294 1158 1522.09
78.396 1157.51 1525.2
77.7903 1157.4 1522.96
77.1187 1158.23 1522.23
76.7026 1159.34 1522.54
76.8207 1158.7 1521.93
77.0025 1158.54 1522.46
75.6449 1162.09 1522.41
75.7963 1161.99 1522.29
75.4595 1162.21 1522.07
75.4998 1161.71 1521.93
75.4603 1162.44 1522.07
79.1888 1150.98 1513.61
79.1521 1150.58 1513.54
79.3112 1150.46 1513.61
79.2043 1150.32 1513.12
79.4084 1150.59 1513.87
79.562 1150.57 1513.96
79.0018 1150.65 1513.01
78.5778 1151.41 1513.36
78.1853 1152.02 1513.5
78.2129 1151.93 1513.55
78.4158 1151.64 1513.48
80.9256 1145.42 1496.49
80.7205 1145.73 1496.19
81.0813 1145.42 1496.4
80.8027 1145.6 1496.2
81.1297 1145.02 1496.85
81.2543 1144.52 1497.31
81.3418 1144.27 1497.41
81.4347 1144.48 1496.86
81.4099 1144.09 1497.31
78.4335 1151.94 1513.55
78.5751 1152.03 1514.14
78.4831 1152.1 1513.94
78.3551 1151.9 1513.2
78.1901 1152.39 1513.75
78.1283 1152.14 1513.49
71.345 1160.34 1514.33
70.2508 1161.08 1511.31
69.6807 1160.44 1509.5
70.0492 1160.96 1511.09
69.8271 1160.33 1509.5
69.1557 1160.01 1508
69.9757 1159.34 1507.32
69.739 1159.49 1507.49
69.5316 1159.63 1507.51
70.5204 1159.64 1508.78
69.9951 1159.43 1507.83
70.1428 1159.29 1507.35
71.8082 1159.56 1509.83
69.2252 1159.85 1507.63
72.0264 1159.43 1509.73
72.2576 1159.4 1509.8
81.2027 1144.97 1496.69
92.6271 1122.85 1503.24
93.0242 1123.37 1502.54
92.4249 1122.39 1503.88
92.6234 1122.03 1504.56
93.205 1123.68 1502.04
92.8512 1121.69 1505.07
93.2552 1123.81 1501.88
93.2522 1121.32 1505.72
92.9527 1121.38 1505.5
92.0753 1124.7 1503.81
92.1039 1124.62 1503.24
92.7717 1124.16 1502.52
96.3026 1112.67 1507.88
96.2447 1110.67 1508.58
96.1194 1109.67 1508.85
95.9777 1109.65 1508.94
95.7377 1109.66 1509.08
95.8219 1109.62 1509.04
95.6214 1109.66 1509.18
91.4397 1125.32 1504.71
91.1731 1127.2 1508.17
91.2744 1126.32 1506.52
91.6829 1129.31 1508.24
91.68 1129.14 1508.04
91.5237 1129.01 1508.03
91.575 1128.99 1508.09
91.4075 1128.92 1508.17
91.2464 1128.92 1508.25
91.1564 1128.93 1508.29
91.0995 1128.98 1508.13
91.0184 1128.99 1508.16
91.6813 1129.78 1508.56
88.5088 1136.17 1510.07
89.1028 1135.14 1509.85
89.6446 1133.98 1509.57
90.1598 1132.86 1509.29
90.4357 1131.97 1508.99
91.0082 1130.7 1508.66
83.5583 1133.66 1508.79
84.2218 1133.53 1509.74
85.8551 1135.37 1510.33
83.7235 1135.25 1508.39
84.4901 1135.08 1509.14
83.425 1135.01 1508.17
80.8247 1137.52 1505.35
80.492 1136.93 1505.6
87.5153 1136.22 1510.1
86.3987 1135.89 1510.13
88.5415 1123.24 1521.83
82.0866 1121.95 1524.24
79.1575 1122.03 1525.67
75.0354 1122.95 1527.92
78.1031 1121.2 1525.8
92.8144 1132.93 1523.36
91.7502 1134.08 1523.99
89.3012 1139.14 1526.72
88.7505 1139.04 1527.05
87.4688 1138.67 1527.64
84.5362 1139.25 1529.03
83.8953 1137.01 1528.57
91.4504 1134.01 1524.76
90.2142 1136.45 1526.04
90.8089 1136.04 1525.52
74.7836 1124.99 1528.37
80.5916 1131.77 1527.55
82.3327 1135.93 1528.84
85.3765 1131.16 1513.76
83.7304 1131.56 1509.86
84.2174 1132.41 1510.19
83.7157 1132.22 1509.47
83.0922 1132.13 1508.89
83.1319 1132.86 1508.72
85.6089 1130.77 1520.91
85.8497 1130.28 1519.81
84.979 1130.65 1522
86.1209 1126.95 1519.1
86.1475 1128.38 1519.24
86.9504 1137.86 1527.62
84.3651 1137.64 1528.69
87.5879 1126.49 1524.72
84.5834 1127.12 1523.75
85.2383 1127.57 1524.16
80.7097 1133.8 1529.01
78.1582 1126.86 1527.98
77.9223 1122.22 1526.91
86.991 1124.55 1520.39
86.1153 1127.1 1519.37
85.8528 1126.73 1520.65
84.5497 1126.95 1522.72
86.1265 1128.58 1519.5
85.5987 1129.98 1520.09
76.8977 1116.56 1526.48
77.4583 1106.93 1525.63
82.4168 1107.28 1523.2
92.6964 1117.31 1518.8
90.9936 1111.53 1518.02
93.7247 1122.01 1519.92
94.148 1119.47 1518.53
94.087 1123.16 1519.55
85.3383 1102.97 1520.87
88.5332 1108.06 1519.12
93.8481 1123.74 1519.53
57.514 1144.22 1545.15
55.8623 1146.5 1542.8
55.4406 1150.5 1538.52
55.0432 1148.01 1540.8
49.1165 1150.89 1536.17
52.2357 1150.55 1537.29
49.2708 1154.1 1532.48
46.7842 1152.13 1533.78
45.7556 1150.8 1534.7
45.7598 1150.81 1535.25
60.6169 1160.12 1520.11
59.1644 1159.87 1520.33
59.7298 1160.01 1520.18
61.6486 1160.27 1519.97
58.21 1159.68 1520.5
58.5107 1155.63 1526.78
54.8636 1156.26 1525.62
57.4416 1158.48 1521.88
55.1147 1157.19 1525.67
55.9705 1157.1 1525.36
51.9132 1156.5 1527.77
46.8938 1155.46 1530.91
56.6819 1159.33 1520.84
57.1069 1159.46 1520.7
78.5496 1142.94 1555.14
39.5818 1147.77 1530.91
42.2205 1149.14 1529.2
33.9482 1145.42 1533.76
42.6114 1149.62 1528.28
43.2681 1149.51 1528.16
44.2165 1149.63 1526.92
45.4863 1149.48 1527.36
49.8522 1149.65 1528.01
30.2054 1142.75 1536.03
30.7927 1145.83 1534.94
27.6888 1142.22 1534.77
25.835 1141.27 1534.31
25.3978 1142.21 1534.52
25.4748 1142.3 1535.31
28.864 1139.28 1539.81
29.4239 1139.57 1539.47
27.147 1140 1539.33
25.6319 1140.67 1538.74
25.389 1141.17 1538.78
24.8612 1142.6 1535.57
24.9362 1142.38 1536.45
24.9765 1142.22 1537.3
25.0221 1142.05 1538.11
25.059 1141.76 1538.76
29.9301 1141.03 1538.75
29.3664 1140.07 1539.35
30.3692 1141.96 1538.23
30.9412 1142.35 1537.79
51.4523 1144.3 1542.2
51.922 1142.51 1544.27
53.1612 1138.63 1548.97
51.7573 1140.2 1546.59
34.9251 1143.64 1537.05
31.5652 1143.21 1537.19
39.6609 1144.12 1537.78
42.9679 1144.47 1538.47
47.053 1144.75 1539.73
80.8103 1125.07 1506.91
82.1425 1124.43 1506.49
82.9142 1124.01 1506.4
83.5843 1124.49 1507.15
86.8926 1127.43 1508.8
87.8595 1128.11 1509.08
88.007 1129.02 1508.23
79.0205 1126.88 1507.16
79.0319 1126.98 1508.01
79.2405 1128.35 1508.27
79.593 1126.32 1506.75
79.0244 1127.84 1505.31
81.6383 1129.68 1508.85
79.0879 1129.98 1507.89
83.6766 1131.03 1510.26
81.5068 1130.09 1508.75
84.6964 1130.27 1522.52
84.7041 1130.17 1522.32
89.9983 1128.94 1508.44
90.3207 1129.07 1508.25
90.5188 1129.05 1508.26
90.7849 1128.99 1508.3
89.625 1129.28 1507.78
90.2647 1129.16 1508.08
90.1009 1129.21 1507.96
89.6053 1129.33 1507.67
89.1973 1129.37 1507.69
90.7812 1129.02 1508.22
89.8948 1127.2 1508.75
90.0442 1127.58 1508.58
90.2143 1127.91 1508.42
90.4314 1127.97 1508.4
90.4412 1128.2 1508.29
90.3853 1128.26 1508.26
90.5471 1127.86 1508.43
90.7492 1127.78 1508.44
90.9504 1127.72 1508.44
87.5509 1126.36 1508.56
89.3768 1126.87 1508.78
88.3584 1127.39 1508.88
90.617 1122.42 1506.7
89.6985 1122.82 1507.02
86.1722 1123.68 1507.17
86.3682 1123.42 1506.89
92.507 1121.56 1506.42
91.6724 1121.97 1506.49
96.5131 1113.34 1508.56
96.3971 1112.51 1508.27
96.3681 1111.67 1508.27
96.7995 1113.51 1508.96
92.4924 1121.57 1506.01
97.1195 1113.36 1509.31
93.5889 1134.98 1527.63
94.3343 1134.36 1525.71
92.5923 1134.6 1526.6
93.5365 1134.92 1527.21
94.1766 1134.87 1526.85
95.912 1135.31 1527.02
95.4512 1135.22 1527.5
113.435 1109.84 1513.91
115.126 1109.15 1513.54
112.177 1110.11 1513.77
111.487 1110.57 1513.64
110.105 1111.07 1513.14
108.776 1110.41 1512.58
101.878 1108.63 1512.02
101.703 1107.99 1512.04
101.423 1107.26 1512.05
99.7251 1106.06 1511.83
98.2849 1107.37 1511.32
97.8052 1106.85 1511.39
97.28 1106.59 1511.39
96.5431 1106.98 1511.04
95.2355 1105.44 1511.8
96.2397 1106.75 1511.02
95.8183 1107.25 1510.76
95.8641 1107.26 1510.76
95.8274 1107.31 1510.72
95.8996 1107.3 1510.74
75.0694 1083.31 1529.74
79.9069 1080.33 1532.22
85.5442 1096.15 1520.14
85.896 1096.63 1519.74
83.0906 1093.47 1522.72
75.5242 1088.12 1526.56
73.1668 1086.41 1527.68
86.7321 1097.99 1517.78
87.6073 1098.52 1517.94
107.611 1086.5 1528.95
111.835 1088.56 1527.99
107.267 1084.37 1530.71
107.141 1080.15 1534.18
106.078 1079.54 1534.98
107.438 1082.37 1532.4
107.514 1080.81 1533.71
107.428 1080.33 1534.09
107.307 1079.84 1534.47
91.9737 1101.74 1514.64
90.9614 1099.69 1516.03
89.0173 1098.76 1517.52
118.341 1095.45 1525.24
117.199 1094.7 1525.6
116.477 1093.98 1526.08
115.262 1092.8 1526.8
113.262 1088.96 1528.02
107.361 1109.51 1512.52
104.96 1109.26 1511.9
103.378 1109.46 1511.74
101.883 1109.17 1511.72
101.621 1108.97 1511.8
102.378 1109.44 1511.66
103.033 1115.21 1517.84
102.795 1115.11 1517.76
102.424 1114.9 1517.68
102.081 1114.63 1517.85
102.531 1115.04 1517.62
101.389 1114.32 1518.16
100.55 1114.19 1518.06
100.385 1114.1 1518.12
100.976 1113.93 1518.91
103.729 1115.57 1517.89
104.428 1115.66 1518.21
101.396 1113.8 1519.48
102.01 1115.03 1517.67
102.478 1115.21 1517.41
97.2998 1112.94 1509.41
97.6517 1112.52 1509.67
97.8612 1111.98 1509.82
98.0613 1110.92 1509.96
98.3492 1108.24 1511
98.0941 1109.46 1510.42
98.9733 1108.71 1510.73
98.7152 1108.32 1510.93
99.6105 1107.97 1511.07
99.4175 1108.17 1510.8
98.6957 1110.56 1511.52
98.3861 1111.37 1511.58
99.0679 1109.59 1511.45
99.4431 1108.58 1511.35
97.7442 1112.35 1512.14
98.1422 1111.93 1511.63
92.3857 1108.14 1514.93
95.1151 1107.64 1510.86
93.6445 1106.5 1512.74
92.2552 1106.38 1514.49
89.2566 1118.04 1519.17
88.1439 1118.09 1519.72
90.2812 1117.45 1518.44
91.7983 1117.82 1517.86
89.156 1118.3 1519.32
95.0938 1117.53 1516.29
91.4993 1118.11 1518.12
94.9579 1119.55 1517.8
95.9471 1107.46 1510.25
95.8111 1107.72 1510.25
95.6715 1108.66 1509.52
95.8869 1108.27 1509.72
95.9327 1107.94 1509.95
116.703 1091.82 1525.12
115.077 1090.85 1525.82
115.817 1091.35 1525.6
114.273 1088.33 1528.03
117.398 1093.19 1525.06
116.66 1092.1 1525.4
117.492 1093.76 1525.24
118.079 1094.52 1525.1
118.807 1094.82 1524.68
119.979 1094.59 1524.79
105.921 1084.76 1530.3
106.359 1084.1 1530.87
107.116 1082.5 1532.25
107.953 1080.79 1533.71
108.124 1081.32 1533.3
108.026 1083.21 1531.71
108.651 1083.56 1531.46
110.248 1083.68 1531.51
111.77 1084.15 1531.25
97.9102 1112.52 1512.15
98.5181 1111.19 1511.78
98.9547 1109.86 1511.81
99.429 1108.42 1511.81
98.2196 1112 1511.75
