455.695 1398.4 3036.27
536.05 1346.14 3015.7
532.375 1345.7 3013.48
531.596 1343.37 3011.02
528.753 1343.97 3010.19
528.133 1343.47 3009.45
527.558 1343.68 3009.13
526.18 1344.29 3008.2
524.605 1347.67 3008.33
558.166 1340.82 3041.18
554.938 1344.03 3042.25
554.903 1343.79 3039.29
551.518 1345.64 3038.33
546.549 1347.77 3034.08
543.044 1350.65 3033.42
541.407 1352.83 3033.18
540.345 1352.8 3029.45
539.987 1350.75 3025.01
539.856 1349.16 3022.48
539.019 1348.01 3020.1
538.332 1347.78 3019.07
537.319 1344.76 3015.21
458.008 1398.48 3038.85
457.276 1398.89 3039.15
453.652 1399.86 3041.68
452.281 1399.6 3042.51
452.768 1399.88 3041.68
450.588 1399.11 3043.03
435.362 1403.54 3032.91
440.724 1402.43 3031.81
435.691 1403.98 3029.55
436.589 1403.96 3026.84
449.997 1399.39 3035.76
449.421 1399.43 3033.84
450.486 1399.41 3041.58
448.968 1399.17 3039.3
449.657 1399.37 3037.01
456.166 1399.39 3039.63
454.265 1399.96 3040.98
454.832 1399.74 3039.76
453.999 1399.96 3040.28
540.591 1313.83 3114.59
545.7 1312.53 3107.09
537.103 1313.35 3120.92
534.58 1316.89 3122.13
552.703 1312.27 3090.93
553.523 1312.47 3089.57
556 1312.6 3085.94
551.89 1317.63 3091.92
550.237 1310.84 3099.83
549.402 1312.73 3098.79
552.146 1312.31 3092.05
561.791 1325.43 3079.29
562.267 1320.92 3079.96
564.439 1323.11 3076.9
556.892 1316.46 3085.22
551.786 1332.2 3083.62
566.796 1323.4 3073.14
567.033 1324.78 3071.33
564.379 1328.48 3071.18
562.407 1332.55 3068.92
564.383 1334.04 3063.62
560.815 1336.73 3062.43
565.82 1334.1 3060.11
562.228 1336.43 3059.85
561.15 1337.13 3057.9
561.397 1336.89 3055.24
560.733 1337.55 3054.23
559.42 1339.53 3051.42
561.66 1337.13 3044.96
519.489 1371.64 3062.59
518.423 1371.4 3063.21
517.448 1371.58 3062.83
517.838 1371.68 3062.62
517.439 1372.4 3056.9
519.477 1372.05 3060.09
517.408 1372.34 3057.91
519.504 1371.86 3061.5
517.008 1371.46 3063.05
515.864 1371.49 3062.81
515.466 1371.5 3063.17
514.884 1371.6 3061.73
514.54 1371.91 3059.81
514.783 1371.67 3061.34
514.823 1371.76 3061.06
516.017 1372.35 3057.19
516.113 1372.35 3058.06
515.677 1372.23 3059.09
514.872 1371.91 3060.39
458.593 1397.99 3038.31
451.067 1399.2 3035.4
440.023 1402.8 3026.34
435.123 1404.53 3020.97
452.993 1399.52 3037.9
454.363 1399.07 3037.39
457.662 1398.56 3038.38
456.848 1398.98 3038.64
455.763 1399.38 3039.01
534.691 1342.42 3011.68
535.029 1344.37 3013.4
533.447 1344.04 3012.47
530.868 1342.57 3009.91
528.963 1342.36 3009.2
528.434 1340.91 3007.89
527.799 1340.96 3007.56
526.924 1339.23 3006.18
525.844 1340.4 3005.82
524.512 1344.64 3006.41
525.268 1342.57 3006.23
524.35 1346.84 3007.25
561.525 1337.07 3041.56
557.242 1341.38 3038.66
555.019 1342.98 3037.11
551.736 1344.17 3034.78
547.381 1345.65 3030.91
543.697 1348.83 3030.98
542.863 1349.26 3030.16
542.283 1350.26 3030.69
541.175 1351.72 3030.16
540.957 1349.22 3025.22
539.589 1347.25 3020.09
538.871 1344.65 3016.5
538.105 1344.5 3015.58
536.228 1342.73 3012.89
536.761 1310.18 3123.79
453.292 1400 3040.94
452.348 1399.92 3041.11
430.149 1405.9 3026.49
428.319 1406.08 3027.34
431.087 1405.76 3025.49
452.162 1399.69 3038.08
451.551 1399.73 3038.34
450.457 1399.56 3039.86
450.966 1399.69 3038.82
452.818 1400.01 3040.53
539.626 1312.02 3117.15
544.486 1311.66 3109.69
549.054 1310.45 3102.54
538.481 1309.21 3119.98
556.507 1309.93 3085.47
555.793 1309.94 3086.89
557.558 1309.91 3083.76
559.274 1310.51 3081.28
559.481 1307.99 3081.06
554.432 1308.27 3094
553.661 1309.41 3094.31
552.639 1311.09 3093.28
556.367 1308.69 3088.61
564.995 1318.35 3076.67
567.657 1320.65 3073.13
569.653 1321.36 3069.89
560.502 1314.13 3080.76
570.821 1321.86 3067.47
569.949 1324.77 3065.62
567.841 1329.41 3064.18
566.66 1331.9 3063.17
568.245 1332.2 3059.5
567.891 1333.13 3056.79
569.312 1331.92 3057.12
563.153 1336.1 3057.88
565.849 1334.62 3057.19
562.485 1336.05 3054.19
563.675 1334.99 3049.63
562.781 1335.72 3048.62
565.011 1333.69 3046.76
564.7 1333.59 3044.36
518.703 1371.71 3062.28
518.339 1371.6 3062.7
516.384 1371.73 3062.3
516.13 1371.59 3062.58
516.609 1371.85 3061.97
518.795 1372.04 3061.03
517.413 1372.28 3059.09
515.898 1372.25 3059.36
515.196 1372.05 3060.11
516.815 1371.94 3061.68
431.023 1406.07 3023.04
430.242 1406.55 3020.37
428.887 1406.96 3018.26
426.278 1407.71 3017.98
535.113 1339.63 3010
533.897 1339.08 3008.76
532.516 1340.81 3009.18
530.366 1341.72 3009.13
529.157 1340.75 3008.17
529.102 1339.22 3007.55
528.279 1337.93 3006.66
527.806 1337.47 3006.19
526.707 1335.71 3004.67
527.176 1335.34 3004.82
525.683 1338.25 3004.42
525.231 1339.65 3004.92
525.743 1335.68 3003.77
524.989 1341.6 3005.52
564.787 1332.77 3042.26
561.537 1336.52 3040.02
559.386 1339 3038.21
556.622 1341.11 3036.38
552.552 1342.5 3032.54
550.486 1341.68 3028.74
543.625 1346.27 3026.61
542.525 1347.8 3026.95
542.53 1346.41 3024.84
542.212 1344.64 3022.59
540.097 1343.74 3017.93
539.44 1342.78 3015.92
538.758 1342.44 3014.86
537.655 1342.42 3013.82
537.637 1343.75 3014.52
538.127 1338.81 3011.92
428.174 1407.43 3022.55
425.286 1407.78 3022.38
540.404 1308.3 3116.34
543.208 1309.57 3111.92
548.831 1309.22 3103.34
552.738 1308.16 3096.97
558.106 1307.9 3083.8
558.718 1307.52 3082.61
557.402 1308.41 3085.16
559.598 1306.19 3081.29
561.363 1309.31 3078.36
560.816 1306.15 3078.65
560.25 1304.86 3080.03
556.99 1305.88 3090.84
557.358 1307.1 3089.49
557.884 1306.15 3089.27
558.311 1306.96 3087.72
557.841 1307.74 3086.5
564.792 1314.28 3075.96
569.303 1315.8 3071.09
569.427 1318.41 3070.99
571.294 1319.02 3068.11
571.894 1320.14 3066.52
571.716 1322.8 3063.96
570.228 1328.77 3060.2
569.569 1330.79 3059.25
570.206 1331.04 3057.12
568.064 1333.07 3055.33
570.004 1331.53 3055.63
566.194 1334.46 3055.33
563.969 1335.46 3054.81
565.332 1334.4 3051.97
566.75 1333.26 3051.36
567.39 1331.47 3047.15
516.867 1372.09 3061.11
517.146 1372.23 3060.25
420.408 1409.05 3013.82
425.381 1407.92 3020.59
535.716 1337.09 3008.65
536.549 1336.16 3008.56
534.667 1336.49 3007.84
532.861 1339.63 3008.61
530.689 1340.5 3008.45
529.696 1338.48 3007.44
528.819 1336.09 3006.21
529.539 1334.74 3005.97
528.838 1332.98 3005.22
528.095 1333.39 3004.93
527.896 1331.35 3004.01
567.423 1330.75 3045.7
566.274 1330.72 3042.19
564.045 1332.15 3038.76
560.746 1336.51 3037.6
558.471 1338.73 3035.8
555.05 1340.65 3032.87
552.925 1341.12 3030.83
553.138 1339.9 3029.6
551.117 1339.19 3026.55
550.186 1340.58 3026.72
546.49 1343.42 3026.3
543.384 1343.51 3023.2
541.598 1341.87 3018.8
540.049 1341.29 3015.85
540.752 1339.42 3014.76
539.002 1340.74 3014.08
542.282 1337.37 3014.66
537.914 1336.32 3010.06
419.021 1409.21 3017.67
544.285 1301.73 3110.74
545.709 1306.36 3107.97
550.077 1304.47 3101.27
554.738 1305.61 3094.22
544.078 1297.42 3112.38
558.252 1307.36 3084.21
558.939 1306.41 3083.38
559.148 1306.33 3082.57
559.46 1305.35 3082.24
559.701 1304.28 3081.67
562.409 1304.08 3075.78
564.428 1308.04 3073.97
560.656 1303.07 3078.84
560.014 1302.68 3080.33
558.047 1304.53 3089.44
558.656 1304.94 3088.41
558.59 1306.1 3088.02
558.757 1306.49 3086.98
558.536 1306.97 3085.68
568.743 1312.95 3070.86
571.319 1313.89 3067.97
571.565 1316.12 3068.1
572.324 1317.82 3066.35
572.764 1318.84 3064.81
572.42 1321.17 3063.84
571.203 1327.84 3058.6
570.712 1330.22 3057.13
570.686 1330.74 3055.82
569.898 1331.51 3054.45
570.661 1330.86 3054.85
569.45 1330.93 3051.58
570.437 1330.91 3053.89
535.949 1335.62 3007.95
537.065 1334.07 3008.18
538.961 1333.01 3009.25
537.528 1335.36 3009.11
535.258 1333.78 3007.01
533.357 1337.37 3007.74
534.397 1334.63 3006.95
531.501 1334.54 3006.28
528.984 1334.11 3005.51
529.54 1333.99 3005.71
529.442 1332.81 3005.49
530.785 1330.09 3005.39
530.884 1328.89 3005.02
530.667 1327.51 3004.34
529.503 1327.22 3003.38
528.278 1327.71 3002.63
567.833 1329.98 3045.3
569.394 1330.37 3050.26
566.557 1330 3041.84
565.452 1330.56 3039.38
563.987 1331.4 3037.58
560.107 1336.04 3035.59
556.284 1338.9 3032.44
554.222 1340.63 3031.41
553.473 1338.65 3028.74
553.851 1336.68 3027.59
550.513 1335.22 3022.38
548.552 1338.94 3023.38
545.981 1337.18 3018.71
545.598 1341.07 3022.77
545.308 1339.46 3020.82
543.557 1340.15 3019.34
542.065 1339.52 3016.42
546.903 1334.91 3018.01
546.043 1333.2 3015.89
541.204 1336.05 3012.9
538.678 1334.67 3009.79
540.236 1334.4 3010.99
413.283 1410.21 3013.76
412.27 1409.31 3018.86
546.738 1298.46 3107.2
551.585 1298.31 3098.94
554.992 1303.26 3093.8
544.895 1295.4 3110.47
558.939 1306.31 3085.24
559.191 1305.65 3085.03
559.292 1305.37 3083.2
559.446 1304.36 3082.76
559.533 1303.04 3082.25
566.11 1304.82 3070.02
568.836 1309.43 3069.01
560.569 1301.45 3078.34
559.583 1301.18 3081.18
559.803 1300.4 3079.73
558.319 1303.53 3088.95
558.964 1303.89 3087.78
559.362 1304.59 3086.82
559.082 1305.22 3087.38
559.083 1305.79 3086.92
571.577 1311.1 3066.29
572.481 1313.69 3065.86
572.765 1315.06 3065.56
573.272 1315.56 3064.09
573.596 1316.47 3062.16
573.036 1320.59 3061.55
571.765 1326.68 3058.08
571.233 1329.77 3055.93
571.087 1330.24 3054.95
570.806 1330.54 3054.06
536.304 1333.44 3007.49
539.9 1330.03 3008.79
541.516 1331.86 3011.22
541.971 1329.01 3010.21
535.156 1332.65 3006.64
536.672 1331.45 3007.18
534.434 1333.24 3006.56
531.562 1333.69 3006.07
530.868 1331.59 3005.73
530.871 1330.69 3005.59
532.22 1329.01 3005.66
533.257 1327.52 3005.86
532.437 1327.84 3005.49
533.918 1325.85 3006
533.161 1324.19 3004.97
531.775 1323.55 3003.73
530.221 1323.71 3002.35
569.859 1329.92 3050.66
568.121 1329.44 3045.18
568.642 1329.79 3046.62
566.568 1329.57 3041.42
565.425 1330.07 3038.79
563.355 1330.72 3036.01
560.765 1333.17 3034.11
557.082 1336.44 3031.34
554.774 1334.4 3027
552.862 1334.52 3024.83
551.547 1333.51 3022.24
550.4 1332.43 3020
552.595 1332 3022.13
548.477 1330.86 3017.4
548.058 1332.24 3017.31
545.584 1332.77 3015.17
545.897 1331.58 3015.14
542.772 1333.77 3013.14
407.413 1410.35 3014.93
404.656 1411.46 3009.57
401.148 1410.88 3013.39
394.903 1411.22 3011.48
547.284 1296.35 3106.14
550.266 1295.74 3101.06
553.381 1297.03 3095.58
556.291 1301.37 3091.45
545.812 1293.57 3107.7
559.389 1304.99 3084.87
559.379 1305.21 3086.35
559.456 1304.37 3084.72
559.463 1303.37 3084.65
559.363 1300.76 3083.39
561.959 1300.53 3075.35
564.375 1301.98 3071.62
565.273 1301.42 3069.62
569.257 1307.2 3067.17
559.629 1298.85 3078.54
560.345 1299.8 3077.6
558.888 1297.64 3082.72
558.821 1296.41 3078.27
558.578 1302.38 3088.09
559.386 1303.81 3086.72
559.109 1302.52 3086.89
559.537 1304.36 3086.24
571.67 1308.37 3064.51
572.559 1311.1 3064.55
573.235 1312.29 3063.6
573.691 1313.14 3062.17
573.933 1314.31 3060.72
573.534 1319.35 3059.38
572.817 1323.14 3058.65
571.602 1328.12 3056.37
571.347 1329.54 3055.04
571.055 1330.09 3054.13
539.121 1329.81 3008.23
544.269 1327.45 3011.6
543.024 1327.62 3010.61
542.083 1330.16 3011
543.574 1328.25 3011.53
544.027 1329.29 3012.48
542.474 1331.98 3012.4
545.432 1330.21 3014.1
544.027 1329.29 3012.48
544.997 1327.62 3012.3
534.236 1332.64 3006.39
535.664 1331.41 3006.76
538.007 1329.05 3007.58
539.568 1328.75 3008.3
531.944 1332.17 3005.92
533.665 1330.56 3006.15
533.422 1328.43 3006.07
535.071 1325.94 3006.55
535.994 1324.09 3006.99
535.808 1321.61 3006.79
536.594 1321.73 3007.47
535.422 1320.76 3006.32
534.934 1320.53 3005.78
532.615 1320.14 3002.81
529.767 1322.36 3001.15
530.07 1322.86 3001.85
570.073 1329.53 3050.8
568.802 1329.37 3046.53
567.447 1329.1 3043.29
565.478 1329.74 3038.61
562.81 1330.27 3034.9
559.299 1332.88 3031.82
558.288 1331.87 3029.95
557.407 1334.05 3030.03
555.991 1332.8 3027.67
554.763 1331.88 3025.44
553.547 1332.21 3023.83
553.277 1331.22 3022.34
553.181 1329.48 3021.55
550.557 1331.93 3020.04
548.653 1332.2 3017.94
551.585 1328.88 3019.82
548.738 1326.81 3015.84
548.478 1327.77 3016.2
547.583 1328.67 3015.69
546.623 1328.55 3014.24
545.722 1330.51 3014.68
543.649 1332.11 3013.36
543.556 1330.92 3013.06
546.367 1291.19 3104.35
396.802 1412.09 3007.11
389.343 1411.21 3009.74
389.243 1412.07 3004.64
547.187 1294.17 3105.41
549.676 1294.2 3101.2
553.217 1295.35 3095.45
556.774 1298.24 3089.46
559.438 1303.36 3086.33
559.263 1301.07 3085.59
561.721 1299.42 3074.93
564.029 1299.46 3070.61
566.601 1301.55 3066.91
569.156 1305.38 3065.9
559.067 1296.2 3076.38
559.666 1297.77 3076.89
558.356 1296.69 3085.18
557.695 1292.52 3083.76
558.155 1294.09 3081.07
557.923 1292.8 3078.39
558.301 1293.88 3074.02
557.873 1297.11 3086.71
569.414 1304.59 3064.53
571.696 1307.36 3063.17
572.866 1309.87 3062.96
573.54 1311.48 3061.9
573.857 1312.08 3060.29
573.873 1312.92 3058.36
573.991 1315.32 3058.75
573.548 1319.1 3057.89
572.359 1325.09 3056.86
571.214 1329.53 3054.1
571.649 1327.75 3055.38
392.209 1412.28 3002.33
542.856 1327.21 3010.47
546.409 1327.08 3013.11
547.298 1325.75 3013.81
544.459 1329.25 3012.78
544.786 1328.18 3012.46
544.459 1329.25 3012.78
542.883 1329.64 3011.78
544.058 1329.41 3012.63
545.325 1329.35 3013.48
546.287 1327.53 3013.2
535.934 1328.3 3006.86
537.661 1326.34 3007.64
542.206 1326.96 3010.04
540.013 1325.36 3009.02
537.457 1322.13 3008.03
537.724 1317.99 3008.25
538.401 1318.52 3008.98
539.745 1318.56 3010.21
536.985 1317.4 3007.26
534.495 1317 3003.73
533.722 1318.97 3003.41
532.418 1317.99 3001.51
531.761 1317.94 3000.79
570.144 1329.13 3050.68
567.445 1328.75 3043.18
565.682 1329.26 3038.89
563.288 1329.78 3035.41
559.081 1329.93 3029.96
556.249 1330.02 3026.74
554.425 1330.92 3024.18
553.847 1328.94 3022.11
553.63 1327.07 3021.09
553.723 1327.33 3021.26
552.5 1327.02 3020.02
551.797 1325.59 3019.13
551.357 1324.31 3018.11
550.89 1323.11 3017.01
545.957 1329.21 3014.05
546.295 1329.88 3014.8
547.265 1291.43 3102.43
383.433 1411.2 3006.11
384.994 1412.12 2999.35
549.746 1291.84 3098.36
552.737 1293.89 3095.24
555.655 1293.74 3089.16
559.861 1297.28 3075.64
561.648 1298.59 3074.36
563.903 1298.59 3069.83
565.854 1299.61 3066.61
566.788 1300.88 3065.5
567.582 1302.18 3064.78
559.05 1295.24 3073.47
557.069 1292.78 3085.89
557.186 1291.57 3084.33
557.565 1291.71 3082.5
557.83 1292.45 3082.65
557.586 1291.97 3077.51
556.683 1290.9 3073.79
557.042 1290.11 3069.9
569.337 1303.64 3063.22
570.993 1305.21 3061.87
571.913 1306.88 3061.37
573.058 1309.63 3061.7
573.568 1310.66 3060.15
573.684 1311.18 3058.25
573.553 1312.26 3055.93
573.767 1314.72 3056.25
573.357 1319.01 3056.48
572.565 1323.77 3056.28
571.401 1327.95 3054.35
571.081 1329.19 3053.47
546.655 1324.2 3013.19
550.582 1322.62 3016.57
550.067 1321.76 3016
551.077 1321.68 3016.98
543.133 1329.63 3011.97
543.133 1329.63 3011.97
542.928 1329.58 3011.78
543.121 1329.77 3012.01
544.886 1324.2 3012.05
540.283 1321.85 3009.9
541.092 1318.13 3011.43
540.81 1315.74 3011.5
540.568 1315.04 3011.08
541.238 1316.11 3011.92
544.08 1313.98 3014.99
537.748 1315.25 3007.69
540.242 1314.45 3010.58
537.489 1313.4 3006.29
534.573 1314.6 3002.95
533.058 1314.7 3000.86
570.756 1327.7 3052.25
569.662 1327.19 3048.93
567.179 1328.38 3042.39
565.717 1328.69 3039.04
563.817 1329.26 3036.05
560.172 1329.59 3031.24
558.029 1327.02 3028.16
556.745 1326.88 3026.47
554.79 1328.73 3023.7
554.197 1326.82 3021.78
553.324 1325.82 3020.64
554.208 1326.21 3021.69
553.237 1323.09 3020.05
553.649 1324.19 3021.07
552.796 1322 3018.99
547.945 1281.56 3090.55
547.73 1277.48 3086.79
549.33 1282.24 3088.27
549.571 1285.15 3090.48
377.643 1410.38 3005.08
376.823 1411.18 3000.36
377.686 1411.38 2996.68
550.811 1288.74 3092.83
554.7 1291.18 3088.96
559.829 1296.48 3074.31
561.555 1297.88 3073.68
564.081 1298.22 3068.43
565.726 1298.58 3065.16
566.816 1300.23 3064.02
559.449 1294.75 3070.04
559.283 1293.14 3065.53
556.313 1290.98 3086.04
556.568 1290.49 3084.75
557.094 1290.82 3082.55
557.211 1291.24 3077.93
556.039 1290.13 3075.16
553.86 1288.31 3077.81
554.714 1288.41 3074.93
554.254 1287.08 3074.31
554.469 1284.7 3067.93
556.302 1287.79 3067
557.909 1290.17 3064.5
569.128 1302.88 3062.35
570.945 1304.9 3060.39
569.476 1303.05 3061.43
572.411 1307.74 3059.98
573.28 1309.93 3058.04
573.177 1310.41 3056.02
572.92 1311.8 3053.73
573.277 1313.62 3054.14
573.121 1318.62 3055.24
572.173 1324.02 3054.92
548.675 1321.77 3015.02
552.596 1321.59 3018.73
550.661 1320.8 3016.7
551.867 1320.97 3017.94
553.391 1320.77 3019.86
542.883 1329.64 3011.78
542.924 1329.61 3011.79
543.08 1329.78 3011.99
542.928 1329.58 3011.78
544.193 1322.07 3012.21
543.741 1318.02 3013.42
544.664 1315.09 3015.22
543.11 1313.86 3014.01
543.047 1312.99 3013.97
547.744 1312.5 3019.3
547.532 1311.58 3019.27
539.978 1313.05 3009.6
541.515 1312.65 3011.32
538.284 1311.7 3006.61
534.758 1309.95 3000.99
572.01 1322.35 3053.76
570.68 1322.88 3051.18
568.548 1326.5 3046.19
566.752 1328.07 3041.38
565.494 1328.06 3038.61
564.299 1328.72 3036.79
561.096 1329.07 3032.44
558.849 1325.58 3028.95
555.897 1326.08 3024.65
556.318 1324.62 3024.92
554.545 1326.65 3022.34
554.822 1325.98 3022.6
554.027 1325.11 3021.47
554.844 1324.44 3022.61
554.029 1322.65 3021.08
553.688 1321.43 3020.21
547.661 1273.65 3079.09
548 1275.46 3081.68
548.374 1277.88 3085.68
550.78 1279.54 3083.6
551.923 1280.36 3082.59
551.909 1281.37 3083.3
550.848 1283.66 3086.86
551.05 1285.22 3087.44
551.332 1286.12 3087.85
552.526 1287.85 3088.93
561.443 1297.33 3072.92
559.955 1295.82 3071.51
562.936 1297.61 3070.46
564.025 1297.66 3066.55
565.013 1297.73 3064.72
566.217 1298.62 3061.74
567.091 1299.85 3061.65
560.333 1294.72 3065.98
560.048 1293.82 3063.55
559.187 1292.13 3061.36
553.842 1288.43 3087.34
554.317 1288.56 3086.45
556.634 1290.2 3083.24
556.875 1290.73 3078.43
556.267 1290.1 3078.65
553.898 1288.48 3078.6
552.472 1287.28 3080.13
552.377 1287.65 3081.89
552.088 1287.42 3082.22
553.897 1286.18 3074.24
554.615 1285.15 3071.3
551.945 1286.93 3081.38
554.148 1284.08 3069.05
552.482 1279.42 3065.9
552.511 1278.84 3062.92
554.5 1282.69 3060.99
555.52 1285.37 3063.61
556.513 1286.3 3060.59
558.374 1290.85 3060.11
569.342 1302.79 3059.14
570.123 1303.56 3058.1
570.638 1304.39 3058.16
568.053 1300.93 3059.86
571.819 1306.97 3057.57
572.821 1309.48 3055.77
572.641 1310.2 3054.21
572.381 1311.49 3052.43
572.653 1312.9 3052.43
572.94 1314.89 3053.14
572.647 1317.66 3053.53
546.398 1320.63 3014
549.683 1320.41 3016.08
551.074 1319.79 3017.58
552.405 1320.12 3018.83
552.443 1319.1 3019.28
553.948 1319.63 3021.1
555.714 1320.3 3023.99
556.31 1318.75 3025.33
542.867 1329.59 3011.73
543.232 1329.53 3011.98
542.967 1329.79 3011.89
542.924 1329.61 3011.79
545.777 1317.12 3015.4
548.033 1314.45 3018.77
548.332 1313.09 3019.71
545.856 1310.57 3017.31
544.906 1308.16 3015.71
542.189 1311.44 3012.21
551.26 1310.4 3024.36
547.352 1309.18 3019.23
551.277 1307.98 3025.08
548.837 1306.33 3021.85
540.088 1311.39 3008.94
539.796 1310.38 3008.28
537.417 1309.73 3004.88
535.244 1306.83 3000.46
570.583 1319.99 3050.74
568.597 1321.41 3047.22
567.439 1325.52 3044.3
566.61 1327.55 3041.48
565.681 1327.56 3039.19
563.726 1326.54 3036.63
562.858 1327.06 3035.22
563.303 1328.32 3035.4
561.555 1328.01 3033.19
560.982 1326.64 3032.96
560.056 1325.89 3030.92
558.713 1324.17 3028.55
556.403 1323.23 3025.28
555.205 1321.78 3023.16
546.987 1269.01 3070.75
548.135 1272.74 3073.76
547.83 1270.71 3068.23
548.73 1276.31 3081.21
549.029 1274.06 3073.84
550.363 1278.44 3082.69
554.707 1279.23 3076.63
555.043 1279.56 3076.54
555.137 1279.89 3076.7
552.09 1282.14 3083.29
555.164 1280.22 3076.89
551.203 1283.69 3085.38
551.213 1285.35 3086.35
551.347 1285.95 3086.62
552.03 1286.64 3087.19
551.832 1286.37 3086.47
561.424 1297.02 3071.83
562.319 1296.59 3067.76
564.998 1297.36 3064.4
565.636 1298.02 3062.38
565.826 1297.83 3061.73
567.393 1299.59 3059.8
566.103 1297.41 3061.97
567.442 1299.56 3059.47
561.145 1295.1 3064.1
561.12 1294.7 3062.1
560.58 1294.01 3060.47
559.276 1292.44 3058.79
554.509 1288.52 3085.68
556.456 1289.96 3082.92
554.672 1288.85 3082
556.27 1289.78 3082.52
554.159 1288.73 3079.19
552.467 1287.76 3082.22
551.919 1287.23 3082.21
551.854 1286.86 3084.31
551.62 1286.6 3084.23
552.941 1286.01 3077.22
552.306 1286.55 3079.7
554.068 1284.92 3072.34
554.208 1284.52 3071.19
551.431 1285.93 3083.97
551.463 1286.34 3084.15
553.74 1282.76 3068.61
552.482 1279.55 3066.62
551.902 1277.52 3066.7
551.314 1276.37 3066.76
551.28 1276.25 3065.58
551.721 1275.15 3061.03
552.322 1276.38 3060.12
552.895 1279.01 3058.48
553.574 1280.45 3058.92
554.703 1282.4 3058.06
555.815 1284.26 3058.93
556.904 1287.04 3059.38
557.374 1289.15 3056.53
558.307 1291.48 3055.25
567.845 1300.65 3058.69
568.188 1301.08 3056.78
569.365 1302.94 3053.89
569.762 1303.99 3054.05
571.823 1307.76 3055.56
571.444 1307.93 3053.94
571.068 1308.35 3052.6
570.142 1309.17 3050.26
570.166 1310.89 3049.26
570.694 1312.29 3049.48
570.592 1313.21 3049.06
572.304 1314.18 3051.62
571.956 1315.96 3051.16
571.608 1318.26 3051.64
547.064 1318.91 3015.29
549.051 1317.93 3017.18
551.812 1318.08 3019.22
553.916 1318.14 3021.82
553.237 1317.33 3021.41
556.935 1316.94 3027.05
559.123 1320.04 3030.4
558.135 1318.69 3028.44
559.445 1315.29 3031.27
559.493 1317.25 3031.07
542.77 1329.65 3011.68
543.134 1329.46 3011.86
542.806 1329.72 3011.66
542.755 1329.86 3011.76
542.867 1329.59 3011.73
548.818 1314.72 3019.37
551.716 1312.21 3023.99
551.364 1313.6 3022.8
546.526 1306.1 3017.97
543.212 1304.57 3012.91
542.029 1306.82 3011.34
542.579 1308.67 3012.26
540.82 1309.33 3009.77
540.941 1310.61 3009.74
554.146 1310.58 3027.95
554.07 1307.67 3029.1
550.329 1302.51 3025.04
549.273 1303.56 3022.89
547.325 1304.59 3019.39
540.613 1306.89 3009.28
538.196 1305.99 3005.23
536.533 1307.06 3002.85
570.503 1317.84 3049.57
569.165 1316.74 3047.4
568.84 1319.77 3047.63
567.249 1318.74 3045.09
565.753 1320.23 3043.16
565.909 1321.51 3043.11
564.941 1322.07 3041.36
566.331 1325.62 3042.33
565.82 1326.43 3040.44
564.137 1325.11 3038.17
562.025 1323.16 3035.68
561.214 1324.71 3033.41
560.303 1324.8 3031.45
559.706 1324.22 3029.61
558.757 1323.57 3028.67
558.078 1322.31 3028.33
546.645 1266.17 3062.22
549.481 1273.02 3065.4
549.679 1273.87 3068.77
547.954 1268.96 3061.46
550.109 1275.3 3073.97
550.109 1277 3079.49
550.444 1274.97 3070.69
554.042 1278.79 3076.87
555.996 1278.87 3074.07
556.308 1279.23 3074.07
556.476 1279.57 3074.21
556.616 1279.96 3074.35
552.289 1282.7 3083.1
555.482 1280.48 3076.47
551.484 1285.46 3083.62
551.793 1285.11 3082.38
552.283 1286.73 3086.52
552.534 1286.99 3086.14
562.714 1296.16 3065.06
564.413 1296.94 3064.48
565.154 1297.52 3063.35
564.683 1296.78 3064.18
565.625 1298.03 3061.69
565.736 1298.06 3060.79
565.332 1297.68 3061.43
566.523 1297.26 3061.04
562.98 1295.99 3063.96
561.732 1295.27 3062.76
561.672 1295.41 3059.51
561.839 1295.35 3061.46
560.918 1294.99 3056.86
559.663 1293.56 3055.78
554.62 1288.52 3084.97
552.795 1287.26 3085.54
552.587 1287.48 3084.13
552.718 1287.91 3082.41
552.081 1287.11 3084.25
553.585 1285.16 3074.42
554.001 1284.37 3072.05
553.978 1283.64 3070.72
553.668 1282.28 3068.84
553.341 1281.5 3067.98
552.598 1279.55 3067.15
552.228 1278.21 3067.01
552.171 1277.52 3067.49
551.669 1276.79 3067.49
550.912 1275.58 3068.28
550.229 1272.9 3061.22
549.903 1270.53 3057.45
551.254 1272.44 3056.53
552.478 1274.95 3057.63
552.697 1275.41 3057.45
552.621 1276.94 3058.71
552.77 1277.28 3057.35
552.994 1278.94 3055.71
553.213 1279.98 3055.14
553.839 1281.35 3054.4
554.696 1282.92 3053.98
555.754 1284.06 3057.81
555.961 1285.03 3055.27
556.488 1286.76 3055.38
556.519 1288.23 3051.23
558.075 1292.86 3050.47
559.098 1294.31 3051.81
567.771 1300.62 3056.14
569.078 1302.51 3053.03
569.082 1302.99 3052.18
569.106 1303.44 3051.71
569.595 1304.4 3052.79
570.155 1305.98 3053.28
569.675 1305.85 3052.25
569.377 1306.82 3050.97
567.499 1307.74 3046.96
568.638 1311.59 3046.61
568.808 1312.33 3046.5
568.577 1312.7 3045.9
568.583 1313.48 3045.96
570.431 1314.56 3048.82
549.845 1316.59 3018.7
552.687 1316.82 3021.19
554.652 1315.49 3024.75
559.537 1314.31 3031.65
558.851 1314.15 3030.89
559.571 1321.27 3031.56
561.038 1321.08 3034.33
560.336 1318.22 3033.02
560.093 1315.35 3032.18
561.143 1313.63 3034.35
561.123 1314.21 3034.16
559.831 1316.67 3031.89
542.596 1329.75 3011.59
543.144 1329.25 3011.76
542.958 1329.39 3011.63
542.861 1329.5 3011.56
542.707 1329.56 3011.37
542.667 1329.79 3011.62
542.627 1329.65 3011.4
542.77 1329.65 3011.68
551.292 1314.21 3022.32
555.231 1313.41 3027.49
554.821 1312.21 3027.96
544.888 1303.67 3015.5
540.587 1303.85 3008.72
556.225 1310.09 3031.01
556.27 1308.17 3032.12
555.687 1304.86 3032.68
552.465 1300.82 3029.43
550.745 1298.57 3027.43
547.505 1297.13 3022.41
547.433 1299.87 3021.33
546.149 1302.82 3017.8
540.39 1306.2 3008.72
539.651 1305.58 3007.22
538.604 1303.32 3005.23
536.675 1305.21 3002.5
537.36 1300.97 3002.26
567.951 1313.51 3044.97
565.752 1315.57 3042.67
565.211 1316.43 3042.12
565.622 1318.6 3042.81
564.201 1317.99 3040.99
562.715 1317.68 3038.44
562.295 1319.99 3037.09
561.68 1322.63 3035.32
559.693 1321.94 3031.64
559.823 1322.98 3031.1
560.204 1323.95 3031.35
559.015 1322.99 3029.44
544.494 1259.66 3056.63
545.642 1261.64 3052.82
547.956 1266.34 3055.05
551.119 1276.02 3073.48
551.123 1275.68 3071.34
553.853 1278.3 3076.14
552.975 1277.55 3075.65
551.279 1275.84 3069.58
556.023 1278.62 3073.4
556.361 1279 3073.47
556.688 1279.59 3073.36
556.6 1279.2 3073.16
556.744 1279.77 3073.8
556.749 1280.19 3074.1
552.392 1283.01 3082.77
555.64 1280.72 3076.21
552.231 1285.08 3080.41
564.742 1297.12 3063.46
565.368 1297.68 3061.73
563.473 1296.37 3062.81
565.638 1297.78 3060.71
566.321 1298.22 3059.09
566.689 1298.73 3059.11
564.96 1297.33 3061.39
561.942 1296.25 3056.15
562.338 1296.08 3059.23
560.01 1295.59 3052.12
561.065 1296.84 3052.33
553.731 1284.54 3073.46
553.957 1283.87 3071.87
553.849 1283.05 3070.63
553.718 1282.16 3069.28
553.4 1281.43 3068.33
552.917 1280.16 3067.77
552.485 1278.64 3067.36
552.356 1278 3067.45
552.533 1277.55 3068.11
552.025 1277.01 3068.02
551.612 1276.47 3068.13
551.806 1276.58 3068.48
548.719 1266.84 3051.95
550.998 1271.63 3055.17
550.633 1270.25 3053.35
551.881 1273.82 3056.62
552.717 1275.08 3057.11
552.802 1275.49 3056.88
552.754 1276.99 3056.19
552.582 1277.96 3054.84
552.769 1278.79 3054.29
552.471 1280.06 3050.35
553.553 1281.53 3051.09
555.738 1286.27 3050.11
556.405 1290.12 3047.06
557.258 1292.39 3047.75
556.788 1293.91 3044.61
558.531 1296.15 3046.25
567.454 1300.37 3055.7
568.516 1302.05 3052.38
566.718 1298.64 3058.79
568.744 1302.64 3051.87
568.686 1303.22 3050.9
569.007 1303.78 3051.17
568.737 1303.59 3050.59
568.818 1303.51 3050.99
569.394 1304.69 3051.86
568.422 1306.08 3049.77
567.313 1305.05 3048.01
567.06 1304.79 3047.62
565.984 1306.01 3045.44
566.811 1308.07 3045.51
568.246 1310.7 3046.31
568.2 1311.3 3045.49
568.313 1311.87 3045.49
568.16 1312.29 3044.95
568.189 1312.97 3045.14
551.674 1315.77 3021.15
553.403 1314.83 3023.83
558.539 1313.55 3030.89
560.855 1313.05 3034.17
560.333 1312.12 3034.02
560.888 1316.19 3034.2
561.179 1314.68 3034.32
561.673 1312.88 3035.66
562.047 1313.29 3035.96
561.824 1313.84 3035.62
542.699 1329.56 3011.53
542.97 1329.17 3011.49
542.702 1329.43 3011.32
542.677 1329.42 3011.24
542.625 1329.42 3011.12
542.587 1329.5 3011.19
542.571 1329.66 3011.38
542.566 1329.7 3011.45
542.595 1329.55 3011.29
542.596 1329.75 3011.59
557.287 1311.9 3030.82
543.537 1298.87 3013.88
542.504 1295.06 3012.24
539.812 1300.99 3007.13
559.056 1309.81 3034.1
557.442 1307.77 3033.76
557.916 1305.26 3036.05
557.199 1301.86 3037.53
554.392 1299.99 3033.15
551.627 1294.54 3031.04
549.324 1294.75 3026.63
547.755 1293.33 3024.41
546.106 1297.68 3019.9
546.432 1300.65 3019.34
539.045 1299.93 3005.65
538.891 1298.55 3004.69
567.646 1313.09 3044.18
567.188 1314.07 3044.05
564.031 1315.17 3039.81
562.758 1315.43 3037.81
563.782 1316.43 3040.2
563.066 1316.71 3039.09
543.458 1255.84 3048.08
546.66 1263.63 3047.42
551.784 1276.15 3071.39
553.633 1277.39 3073.56
553.678 1277.18 3072.18
551.827 1276.18 3070.4
555.516 1278.25 3073.3
552.196 1276.56 3069.73
555.942 1278.41 3072.78
556.239 1278.71 3072.98
556.538 1278.92 3072.65
556.752 1279.33 3072.69
556.857 1279.59 3072.91
556.855 1279.7 3073.22
556.861 1279.99 3073.52
556.887 1280.27 3073.7
556.783 1280.44 3074.01
555.628 1281.01 3076.18
552.289 1284.27 3081.3
555.199 1281.52 3076.78
553.418 1284.59 3075.47
565.282 1297.34 3061.98
565.496 1297.16 3062.19
565.748 1297.21 3061.53
565.701 1297.02 3062.2
563.251 1296.5 3061.23
562.9 1296.65 3058.57
564.974 1297.26 3061.75
565.67 1297.67 3060.53
565.808 1297.29 3061.14
565.934 1297.01 3061.65
565.812 1298.07 3059.31
562.84 1297.01 3056.02
562.109 1297.53 3053.11
560.418 1297.67 3048.29
562.431 1299.22 3049.84
553.831 1283.89 3072.84
553.902 1283.46 3071.85
553.848 1282.77 3070.73
553.768 1282.06 3069.68
553.491 1281.39 3068.74
553.36 1280.76 3068.53
552.77 1279.45 3067.73
552.757 1278.8 3067.77
552.769 1278.3 3067.84
552.614 1277.92 3067.93
553.094 1277.89 3068.59
552.435 1277.19 3068.53
552.997 1277.58 3068.85
552.733 1277.13 3069.23
548.191 1265.9 3050.25
550.211 1269.81 3050.6
551.169 1271.88 3054.43
550.571 1270.62 3050.87
552.121 1274.29 3056.14
552.743 1275.63 3056.31
552.193 1274.68 3055.79
552.634 1276.6 3055.64
552.061 1275.65 3054.62
551.821 1279.87 3047.36
552.745 1283.39 3045.93
553.742 1283.5 3048.59
555.32 1286.49 3048.03
555.419 1288.43 3044.86
556.233 1291.41 3044.97
555.023 1291.87 3041.25
554.966 1293.76 3039.77
555.991 1297.3 3038.97
558.278 1298.57 3042.53
560.31 1299.39 3045.85
566.296 1298.84 3057.74
567.498 1300.98 3053.56
567.942 1302.05 3051.51
568.433 1302.63 3051.04
568.359 1303.02 3050.55
568.587 1303.33 3050.4
568.972 1303.91 3050.68
568.832 1303.79 3050.22
568.713 1303.53 3050.14
569.168 1304.89 3050.98
568.431 1304.79 3049.84
568.35 1304.26 3049.53
568.218 1303.97 3049.28
566.787 1304.62 3047.32
567.945 1303.73 3049.33
565.434 1305.49 3045.17
565.586 1307 3043.53
565.828 1307.16 3043.86
566.854 1308.69 3045.06
567.894 1310.45 3045.48
567.786 1310.81 3043.34
567.882 1311.19 3043.36
567.904 1311.48 3043.26
567.921 1312.63 3044.38
567.865 1311.72 3043.07
561.399 1312.44 3035.55
561.148 1309.93 3036.74
561.644 1315.77 3035.79
562.037 1314.48 3036.11
562.158 1313.85 3036.29
562.072 1312.64 3036.17
561.684 1312.09 3036.13
562.377 1312.85 3036.38
562.534 1313.13 3036.66
542.64 1329.39 3011.15
542.634 1329.51 3011.32
542.594 1329.68 3011.5
542.622 1329.68 3011.57
544.581 1297.17 3016.32
543.736 1290.44 3014.77
542.985 1290.7 3012.98
541.687 1290.68 3009.99
540.819 1293.8 3008.21
540.343 1296.56 3007.23
560.451 1306.53 3038.29
559.193 1302.76 3040.15
554.361 1297.03 3035.4
551.62 1290.34 3033.47
549.179 1290.27 3028.3
546.791 1288.02 3023.96
545.83 1293.75 3019.9
567.236 1313.49 3043.64
567.475 1312.32 3042.58
567.729 1312.01 3042.83
566.401 1314.24 3042.69
564.339 1314.87 3040.1
563.626 1313.65 3038.08
562.695 1314.06 3036.97
543.047 1255.67 3038.7
545.124 1259.64 3042.76
546.57 1263.17 3043.43
548.123 1266.42 3048.21
547.461 1265.59 3043.43
548.68 1267.88 3046.95
553.73 1277.15 3071.41
555.555 1278.13 3072.41
553.876 1277.27 3070.95
554.003 1277.45 3070.52
555.675 1278.13 3071.89
556.067 1278.45 3072.1
556.271 1278.67 3071.91
556.588 1279.03 3072.25
556.874 1279.62 3072.63
556.746 1279.35 3072.22
556.945 1279.82 3073.11
556.97 1280.1 3073.35
556.965 1280.44 3073.53
556.741 1280.65 3073.94
556.928 1280.67 3073.63
552.952 1284.09 3079.05
555.657 1281.45 3075.66
553.461 1284.18 3076.15
553.725 1283.99 3073.8
565.488 1296.75 3062.47
565.831 1296.6 3062.35
565.542 1296.74 3062.15
565.931 1296.59 3062.44
565.909 1296.87 3062.05
566.065 1296.69 3062.34
566.182 1296.62 3062.5
564.421 1296.88 3061.35
564.793 1297.14 3060.35
564.996 1297.62 3059.1
565.638 1299.18 3055.17
565.73 1297.63 3060.31
565.913 1297.34 3060.83
565.956 1297.12 3061.33
566.321 1296.93 3061.51
566.184 1296.82 3061.91
563.546 1298.85 3052.66
561.802 1300.61 3046.82
563.115 1301.56 3047.44
563.677 1300.08 3050.37
553.938 1283.55 3072.6
553.874 1283.12 3071.71
553.862 1282.4 3070.69
553.89 1281.83 3070.04
553.654 1281.41 3069.21
553.568 1280.52 3068.8
553.642 1281.14 3069.17
553.147 1279.92 3068.21
552.97 1279.25 3068
553.224 1278.48 3068.32
553.147 1278.84 3068.2
553.263 1278.19 3068.49
554.438 1278.08 3069.88
554.558 1278.36 3069.71
554.23 1277.74 3070.17
549.997 1269.9 3045.2
550.417 1270.87 3045.78
551.107 1271.98 3052.96
550.644 1271.59 3046.53
551.568 1273.84 3054.57
551.332 1274.55 3053.09
551.118 1275.94 3050.92
551.082 1278.25 3045.17
552.305 1283.01 3044.42
550.877 1283.79 3038.72
551.651 1285.5 3038.94
553.538 1286.5 3042.92
552.907 1284.71 3044.84
554.049 1286.14 3045.09
553.743 1288.22 3040.79
553.743 1289.48 3039.54
560.524 1303.3 3041.62
567.406 1301.34 3051.82
567.574 1301.79 3051.15
568.01 1302.54 3050.67
568.531 1303.29 3050.14
567.376 1303.8 3048.77
567.089 1303.63 3048.68
563.847 1304.92 3043.83
565.355 1304.87 3045.7
564.928 1306.13 3043.63
565.358 1307.35 3042.71
566.507 1309.09 3042.27
566.31 1309.25 3041.73
566.763 1309.09 3042.95
567.282 1309.71 3043.58
567.596 1310.36 3043.42
567.49 1310.51 3041.81
567.619 1310.87 3041.66
567.634 1311.05 3041.61
567.669 1311.28 3041.65
567.591 1311.52 3041.6
562.446 1308.86 3039.06
562.803 1313.41 3037.03
563.442 1312.28 3037.47
563.309 1312.03 3037.37
562.928 1311.35 3037.44
563.273 1311.71 3037.48
563.737 1312.45 3037.77
563.789 1312.77 3037.83
542.692 1329.35 3011.2
542.651 1329.55 3011.43
542.685 1329.57 3011.54
544.579 1289 3018.34
544.256 1289.32 3016.77
543.392 1288.47 3013.88
543.66 1288.66 3014.6
563.955 1307.12 3041.6
562.379 1305.74 3041.33
550.507 1286.25 3034.22
548.752 1285.6 3030.19
548.36 1287.49 3027.7
547.198 1285.4 3026.68
547.244 1284.05 3027.75
545.897 1284.05 3022.59
545.423 1288.12 3020.8
545.891 1286.93 3022.01
545.495 1289.89 3020.3
567.156 1312.68 3042.28
567.383 1311.62 3041.27
567.14 1311.82 3041.12
566.751 1313.02 3041.7
566.11 1313.42 3041.01
565.245 1313.46 3039.92
565.18 1312.93 3039.3
563.741 1313.15 3037.82
565.487 1312.55 3039.17
542.441 1254.34 3034.18
545.033 1259.56 3039.56
543.497 1256.94 3033.17
543.848 1258.43 3036.01
545.027 1259.83 3038.37
543.997 1258.49 3037.06
546.77 1263.28 3040.49
548.679 1267.66 3044.48
548.569 1267.18 3042.05
555.649 1278.17 3071.39
555.538 1278.18 3071.1
555.917 1278.38 3071.46
556.219 1278.72 3071.6
556.49 1279.04 3071.81
557.013 1279.91 3072.89
556.967 1279.84 3072.49
556.862 1279.62 3072.21
556.651 1279.32 3071.81
557.048 1280.27 3073.14
557.051 1280.62 3073.28
556.843 1280.84 3073.65
557.027 1280.89 3073.39
555.272 1282 3075.61
553.678 1283.88 3075.43
553.882 1283.52 3073.34
566.164 1296.51 3062.53
566.111 1296.51 3062.27
565.503 1296.7 3061.96
566.097 1296.52 3062.04
566.583 1296.54 3062.49
566.656 1296.66 3061.8
567.466 1296.58 3061.56
565.012 1296.92 3060.92
565.4 1296.75 3061.4
565.734 1297.03 3060.72
565.823 1297.32 3060.5
565.766 1297.5 3060.39
565.849 1300.1 3052.94
565.861 1297.58 3060.29
565.898 1297.44 3060.33
566.077 1297.26 3060.8
566.128 1297.11 3061.21
566.435 1297.07 3061.14
567.247 1296.72 3060.84
566.867 1296.7 3061.35
566.922 1296.86 3060.8
565.643 1300.48 3051.66
566.114 1302.25 3049.3
566.755 1303.22 3048.75
565.679 1301.2 3050.5
553.981 1283.26 3072.7
553.877 1282.89 3071.62
553.954 1282.28 3070.94
553.887 1281.39 3069.87
554.066 1281.88 3070.64
553.817 1280.3 3069.05
553.786 1280.91 3069.31
553.377 1279.79 3068.45
553.318 1279.24 3068.41
554.61 1278.58 3069.57
554.602 1278.78 3069.46
554.583 1278.99 3069.39
555.781 1278.63 3070.71
555.647 1278.4 3070.87
555.839 1278.81 3070.6
548.605 1267.32 3041.21
550.062 1270 3042.85
550.565 1271.37 3043.52
551.058 1272.13 3052.22
550.759 1272.31 3046.95
551.108 1273.65 3052.36
550.901 1275.23 3050.55
550.724 1276.68 3045.94
550.657 1278.36 3041.47
550.949 1282.5 3040
548.641 1283.49 3032.17
563.83 1306 3042.45
565.118 1307.53 3042.27
567.14 1310.09 3041.49
567.015 1310.06 3041.23
566.113 1309.33 3041.29
565.847 1308.67 3042.09
566.978 1310.3 3040.74
566.756 1310.2 3040.73
567.271 1310.14 3041.82
567.477 1310.58 3041.41
567.321 1310.34 3041.39
567.495 1310.75 3041.23
567.484 1311.12 3041.13
567.46 1310.92 3041.03
567.454 1311.31 3041.18
562.909 1310.89 3037.71
562.816 1309.47 3039.05
563.369 1307.93 3040.67
565.496 1311.86 3039.06
565.431 1311.65 3039.07
565.402 1311.43 3039.09
565.282 1310.98 3039.28
565.336 1311.17 3039.14
565.594 1312.07 3039.07
565.618 1312.28 3039.1
542.751 1329.29 3011.25
542.698 1329.43 3011.35
542.739 1329.4 3011.4
542.748 1329.47 3011.53
544.771 1285.89 3019.22
543.47 1285.61 3015.78
543.864 1287.7 3015.94
542.917 1286.44 3013.79
563.656 1306.37 3041.94
564.083 1308.25 3040.99
565.201 1308.49 3041.64
548.286 1281.81 3031.76
547.107 1281.98 3027.64
546.779 1279.96 3026.97
544.294 1280.24 3018.87
566.839 1312.06 3040.55
567.203 1311.5 3040.78
567.001 1311.76 3040.51
566.493 1312.01 3040.18
566.522 1311.94 3040.02
566.607 1311.85 3039.9
540.975 1250.14 3030.88
540.163 1247.99 3027.73
542.087 1252.58 3029.46
542.75 1253.57 3026.85
546.698 1263.28 3039.64
542.953 1254.39 3026.43
543.639 1257.62 3032.74
543.824 1260.25 3034.52
543.694 1260.22 3033.63
544.2 1259 3036.89
544.032 1260.42 3035.29
545.191 1260.43 3037.87
546.465 1263.09 3038.74
555.887 1278.48 3071.18
556.119 1278.76 3071.24
556.429 1279.09 3071.48
557.044 1280.12 3072.74
556.997 1280.01 3072.33
556.901 1279.78 3072.07
556.769 1279.54 3071.87
556.587 1279.32 3071.54
557.057 1280.46 3072.92
557.034 1280.77 3073.02
556.883 1281 3073.45
557.014 1281.01 3073.13
555.556 1281.73 3075.12
554.032 1283.36 3075.53
556.765 1281.14 3073.39
553.903 1283.48 3074.09
554.009 1283.21 3073.32
566.282 1296.46 3062.48
566.867 1296.52 3062.65
566.548 1296.47 3062.77
566.245 1296.45 3062.26
565.791 1296.61 3061.8
566.247 1296.45 3062.03
566.113 1296.5 3061.82
567.665 1296.4 3061.92
567.635 1296.57 3061.02
567.679 1296.33 3061.51
565.88 1296.79 3061.08
565.917 1296.58 3061.55
565.998 1296.64 3061.31
566.121 1296.79 3060.92
566.028 1297 3060.66
566.003 1297.19 3060.48
566.004 1297.47 3060.33
566.073 1297.31 3060.31
566.037 1297.47 3060.17
566.187 1297.4 3060.37
566.243 1297.24 3060.81
566.561 1297.19 3060.74
567.069 1296.99 3060.38
567.529 1296.72 3060.38
567.695 1296.48 3060.59
567.425 1296.83 3060.13
553.978 1282.99 3072.49
553.971 1282.57 3071.63
554.081 1281.52 3070.36
553.94 1280.97 3069.73
554.177 1281.96 3071.08
554.121 1280.46 3069.63
554.002 1280.01 3069.16
553.664 1279.63 3068.73
554.683 1279.22 3069.53
555.918 1278.94 3070.63
555.985 1279.05 3070.67
556.134 1279.29 3070.81
556.137 1278.88 3071.06
556.232 1279.01 3071.13
548.594 1267.52 3040.57
549.995 1270.21 3041.96
550.524 1271.67 3042.81
550.757 1272.23 3043.74
550.744 1271.89 3044.06
550.788 1273.42 3050.5
550.811 1274.07 3047.23
550.844 1275.62 3048.84
550.827 1276.22 3047.39
550.403 1275.97 3043.5
550.154 1276.26 3041.59
549.432 1276.91 3038.08
549.826 1275.49 3040.49
550.246 1280.43 3038.78
548.943 1280.84 3034.07
567.29 1310.46 3040.9
565.804 1309.49 3040.9
566.5 1310.23 3040.52
566.972 1310.6 3040.32
566.775 1310.53 3040.3
566.658 1310.41 3040.41
567.48 1310.66 3040.96
567.344 1310.82 3040.69
567.171 1311.26 3040.54
567.2 1310.98 3040.43
563.706 1310.73 3038.44
563.21 1309.7 3039.25
566.524 1311.29 3039.73
566.543 1311.5 3039.77
566.527 1311.11 3039.74
566.438 1310.99 3039.76
565.284 1310.72 3039.5
566.369 1310.59 3040.06
566.51 1310.82 3039.91
566.527 1310.66 3040.04
566.576 1311.68 3039.82
542.799 1329.26 3011.33
543.318 1282.21 3016.25
542.926 1283.96 3015.06
564.288 1308.85 3040.76
545.483 1276.34 3026.45
545.075 1279.11 3022.15
566.862 1311.64 3040.26
566.732 1311.87 3040.23
566.742 1311.81 3040.19
566.717 1311.58 3040.07
539.823 1246.94 3021
541.243 1250 3024.12
541.469 1250.5 3026.8
542.375 1252 3024.86
542.542 1252.53 3023.89
542.566 1253.2 3022.8
542.949 1254.83 3025.35
543.68 1258 3031.87
544.132 1264.2 3031.78
544.27 1261.65 3034.8
545.13 1261.64 3036.69
546.199 1263.89 3037.17
545.931 1261.85 3038.02
548.52 1267.84 3039.97
557.053 1280.33 3072.57
556.921 1279.94 3071.95
557.053 1280.27 3072.23
556.762 1279.7 3071.71
556.639 1279.56 3071.43
556.37 1279.2 3071.19
557.017 1280.62 3072.64
556.985 1280.93 3072.75
556.964 1281.15 3073.17
556.973 1281.14 3072.84
555.627 1281.86 3074.37
554.21 1283.11 3074.24
556.889 1281.29 3073.08
554.138 1282.97 3073.21
554.254 1282.94 3073.82
566.49 1296.4 3062.5
566.647 1296.42 3062.72
567.094 1296.48 3062.85
567.625 1296.34 3062.42
567.294 1296.43 3063.04
566.964 1296.41 3062.96
566.38 1296.39 3062.24
566.384 1296.39 3062.03
566.268 1296.43 3061.82
566.147 1296.49 3061.61
567.709 1296.08 3061.9
567.687 1296.12 3062.27
567.714 1296.29 3061.07
567.749 1296.05 3061.49
566.222 1296.6 3061.2
566.129 1296.52 3061.4
566.246 1296.59 3061.25
566.359 1296.6 3061.08
566.466 1296.61 3060.97
566.231 1296.85 3060.78
566.163 1297.06 3060.54
566.23 1297.19 3060.36
566.183 1297.37 3060.19
566.283 1297.42 3060.12
566.355 1297.36 3060.45
566.374 1297.47 3060.09
566.675 1297.32 3060.38
567.179 1297.11 3060.03
567.396 1296.96 3059.9
567.708 1296.59 3060.1
567.779 1296.18 3060.67
567.796 1296.33 3060.24
567.643 1296.75 3059.84
554.155 1282.76 3072.53
554.177 1282.45 3071.96
554.091 1281.25 3070.33
554.312 1281.54 3070.75
554.498 1281.91 3071.31
554.288 1280.82 3070.14
555.312 1280.23 3070.46
555.19 1279.86 3070.16
555.009 1279.5 3069.84
556.263 1279.65 3070.93
556.416 1279.4 3071.14
556.428 1279.77 3071.15
549.975 1270.72 3041.55
550.446 1271.98 3042.4
550.416 1273.96 3042.48
550.681 1274.3 3044.41
549.513 1275.32 3039.41
549.185 1272.63 3039.29
548.274 1274.38 3036.69
550.094 1273.48 3041.37
567.214 1310.74 3040.46
564.495 1309.13 3040.69
564.682 1309.76 3040.17
565.289 1310.36 3039.73
566.257 1310.39 3040.15
566.839 1310.84 3040.04
566.97 1310.92 3040.13
566.872 1311.31 3040.1
566.795 1311.17 3039.97
563.99 1310.54 3038.8
563.698 1309.81 3039.59
546.877 1271.84 3034.09
538.724 1243.73 3015.69
540.584 1248.63 3019.46
541.71 1251.03 3022.74
541.84 1251.72 3021.79
541.859 1252.4 3021.07
542.498 1253.62 3022.05
542.587 1254.19 3022.39
542.79 1256.07 3024.15
543.244 1258.4 3027
543.503 1258.99 3028.51
543.569 1259.51 3030.78
545.487 1265.7 3033.83
545.03 1263.77 3034.44
548.213 1268.65 3038.7
557.051 1280.54 3072.33
556.799 1279.98 3071.64
556.966 1280.21 3071.94
557.008 1280.55 3072.06
556.611 1279.81 3071.34
556.973 1280.79 3072.39
556.95 1281.03 3072.45
556.942 1281.39 3072.79
556.948 1281.21 3072.59
555.641 1281.99 3073.81
554.385 1282.72 3073.17
555.706 1282.07 3073.43
554.658 1282.51 3073.32
566.897 1296.37 3062.77
566.606 1296.35 3062.46
567.661 1296.13 3062.67
567.625 1296.21 3062.94
567.464 1296.36 3063.26
567.449 1296.22 3063.15
566.555 1296.31 3062.24
566.571 1296.3 3062.05
566.461 1296.35 3061.84
566.363 1296.39 3061.65
566.275 1296.44 3061.44
567.787 1295.79 3061.9
567.768 1295.8 3062.36
567.712 1295.92 3062.67
567.788 1295.99 3061.1
567.823 1295.77 3061.45
566.449 1296.52 3061.08
566.368 1296.42 3061.25
566.498 1296.47 3061.1
566.548 1296.54 3060.97
566.476 1296.68 3060.84
566.655 1296.55 3060.86
566.622 1296.6 3060.84
566.327 1296.89 3060.63
566.422 1296.94 3060.53
566.402 1297.08 3060.39
566.375 1297.24 3060.25
566.749 1297.13 3060.23
566.764 1297.24 3060.13
566.495 1297.47 3060.13
566.772 1297.35 3060.04
566.776 1297.45 3060.01
567.079 1297.24 3059.93
567.141 1297.11 3059.98
567.176 1296.98 3060.05
567.653 1296.65 3059.83
567.935 1295.99 3060.32
567.892 1295.87 3060.79
567.891 1296.27 3059.9
554.541 1282.46 3072.67
554.601 1282.11 3072.07
554.454 1281.17 3070.62
554.583 1281.43 3071.01
555.907 1281.55 3071.62
555.81 1281.73 3071.93
555.501 1280.72 3070.82
556.335 1280.37 3071.26
556.435 1280.74 3071.42
556.244 1280.02 3071.01
556.526 1280.17 3071.27
556.718 1280.15 3071.48
548.762 1270.31 3038.96
545.986 1268.2 3033.66
536.799 1237.2 3009.05
537.685 1241.8 3009.1
538.81 1244.22 3012.32
540.485 1248.41 3017.69
541.094 1250.21 3020.78
541.182 1250.9 3020.16
541.12 1251.49 3019.63
541.692 1253.12 3020.2
542.405 1254.17 3021.35
556.929 1280.77 3072.18
556.905 1280.34 3071.79
556.819 1280.67 3071.86
556.773 1280.9 3072.04
556.903 1281.08 3072.25
556.971 1281.3 3072.43
557.061 1281.87 3072.76
556.962 1281.44 3072.59
556.086 1282.23 3073.13
556.258 1282.34 3072.69
556.564 1282.69 3072.88
567.425 1296.08 3062.98
566.937 1296.33 3062.67
566.793 1296.3 3062.46
567.679 1295.96 3063.06
567.212 1295.77 3062.35
567.282 1295.76 3062.44
567.28 1295.7 3062.27
566.658 1296.26 3061.9
566.575 1296.3 3061.69
566.505 1296.31 3061.5
566.357 1296.49 3061.28
567.866 1295.52 3061.78
567.832 1295.52 3062.25
567.804 1295.52 3062.73
567.747 1295.72 3062.9
567.935 1295.6 3061.19
566.634 1296.47 3060.96
566.543 1296.41 3061.11
566.683 1296.41 3060.98
566.735 1296.48 3060.85
566.492 1296.76 3060.7
566.674 1296.62 3060.77
566.829 1296.44 3060.73
566.779 1296.52 3060.73
566.76 1296.73 3060.55
566.736 1296.86 3060.46
566.75 1296.95 3060.4
566.747 1297.02 3060.32
567.088 1296.9 3060.2
567.269 1296.85 3060.09
567.449 1296.71 3060.01
567.843 1296.47 3059.59
568.021 1295.99 3059.92
568.082 1295.69 3060.29
568.02 1295.63 3060.72
567.99 1296.18 3059.62
556.057 1282.03 3072.39
556.011 1281.48 3071.37
556.1 1281.53 3071.09
556.888 1281.52 3071.94
556.942 1281.57 3072.18
557.026 1281.73 3072.36
556.778 1281.28 3071.65
556.694 1280.65 3071.58
556.692 1280.97 3071.67
556.799 1280.46 3071.61
536.088 1234.78 3007.96
536.817 1236.5 3004.74
537.219 1239.09 3007.22
537.657 1242.43 3005.07
538.996 1245.22 3011.2
540.534 1248.85 3017.17
540.586 1249.6 3017.14
540.411 1251.89 3016.48
556.672 1280.95 3071.86
556.83 1281.21 3072.11
556.98 1281.43 3072.31
557.009 1281.67 3072.51
567.391 1295.89 3062.67
567.702 1295.73 3063.19
567.339 1295.79 3062.5
567.836 1295.28 3063.07
567.754 1295.51 3063.13
567.433 1295.59 3062.13
567.901 1295.04 3063.02
566.74 1296.22 3061.76
566.763 1296.22 3061.59
566.635 1296.28 3061.53
566.594 1296.3 3061.34
566.632 1296.3 3061.16
566.572 1296.36 3061.14
567.914 1295.25 3062.12
567.994 1295.31 3061.57
567.857 1295.27 3062.61
567.803 1295.45 3063.04
568.065 1295.37 3061.08
566.817 1296.38 3060.83
566.718 1296.36 3061
566.86 1296.3 3060.84
566.945 1296.27 3060.65
566.809 1296.6 3060.6
566.936 1296.44 3060.52
567.076 1296.14 3060.47
566.942 1296.32 3060.58
567.061 1296.28 3060.42
567.129 1296.63 3060.31
567.146 1296.51 3060.31
567.122 1296.57 3060.32
567.089 1296.75 3060.3
567.301 1296.7 3060.14
567.625 1296.55 3059.85
567.789 1296.39 3059.62
567.934 1296.35 3059.44
568.166 1295.68 3059.9
568.095 1295.97 3059.6
568.279 1295.09 3060.2
568.142 1295.42 3060.61
568.015 1296.22 3059.33
556.773 1281.26 3071.93
533.822 1229.8 3002.27
535.391 1233.37 3005
535.798 1234.4 3002.69
535.651 1234.58 3001.29
536.851 1238.95 3002.53
537.097 1238.7 3004.58
537.052 1237.25 3005.24
537.954 1243.93 3005.47
539.015 1245.77 3010.68
539.374 1246.84 3011.93
539.62 1249.87 3013.89
539.372 1251.04 3013.11
567.58 1295.42 3062.13
567.951 1294.87 3062.93
567.938 1295.02 3062.55
567.669 1295.21 3062.18
566.758 1296.22 3061.42
567.616 1295.24 3061.76
566.761 1296.23 3061.27
566.786 1296.22 3061.11
566.877 1296.18 3060.97
566.761 1296.3 3061.02
568.122 1294.32 3061.79
568.087 1294.59 3062.11
568.173 1294.86 3061.27
568.136 1294.84 3061.65
568.221 1294.88 3060.89
567.013 1296.15 3060.64
566.905 1296.21 3060.85
567.036 1296.08 3060.67
567.14 1296.03 3060.45
567.196 1296.39 3060.27
567.517 1296.11 3059.97
567.344 1295.88 3060.19
567.239 1296.01 3060.27
567.164 1296.13 3060.33
567.476 1296.02 3060.04
567.502 1296.36 3059.97
567.567 1296.45 3059.91
567.525 1296.24 3059.96
567.81 1296.27 3059.58
568.323 1295.16 3059.88
568.195 1295.8 3059.5
568.251 1295.62 3059.63
568.069 1296.1 3059.27
568.265 1295.02 3060.52
568.363 1294.14 3059.74
568.327 1293.93 3060.06
568.284 1294.19 3060.48
532.279 1225.3 3001.58
533.558 1228.99 2999.34
533.021 1227.64 2997.85
533.767 1231.26 2997.45
535.845 1237.47 2999.75
537.248 1243.79 3001.03
537.478 1243.86 3002.21
537.986 1246.42 3005.96
538.342 1247.61 3008.56
538.909 1247.97 3010.96
568.037 1294.56 3062.68
568.069 1294.5 3062.37
567.574 1295.25 3061.39
568.111 1294.19 3062.23
567.539 1295.26 3060.98
567.57 1295.19 3060.61
567.04 1296.01 3060.78
567.786 1294.93 3060.3
568.191 1293.78 3061.38
568.223 1293.68 3061.23
568.159 1293.95 3061.79
568.25 1293.58 3061.04
