244.899 1303.07 695.871 
242.214 1305.13 700.826 
244.999 1303.03 690.667 
244.376 1303.76 692.202 
243.883 1304.11 698.512 
244.589 1303.45 695.282 
241.661 1305.66 700.849 
238.707 1307.83 702.792 
238.258 1308.3 702.582 
243.511 1304.32 690.675 
243.986 1304.27 692.541 
244.016 1304.19 697.407 
243.452 1304.58 698.808 
244.33 1303.89 694.621 
242.732 1305.17 699.5 
240.292 1306.72 701.617 
238.799 1308.15 702.659 
237.859 1308.47 702.447 
238.256 1308.63 702.307 
238.589 1308.59 702.451 
243.323 1304.74 691.203 
243.707 1304.83 692.766 
244.048 1304.37 696.448 
243.598 1304.78 697.802 
243.372 1304.83 698.541 
244.147 1304.34 694.706 
243.092 1305.18 698.788 
242.354 1305.69 699.465 
240.001 1307.15 701.595 
238.907 1308.56 702.582 
237.863 1308.69 702.318 
238.184 1308.84 702.242 
237.398 1309 701.978 
238.545 1308.99 702.23 
238.706 1308.85 702.359 
238.848 1309.07 702.291 
236.71 1309.52 701.462 
236.869 1309.85 688.708 
237.693 1309.6 688.514 
238.169 1309.09 688.14 
238.914 1308.53 687.973 
239.606 1307.68 687.619 
241.501 1306.43 688.981 
242.507 1305.56 689.946 
240.579 1307.37 688.522 
243.112 1305.52 691.379 
243.607 1305.37 693.078 
243.953 1304.85 694.401 
244.041 1304.76 695.75 
243.708 1304.95 697.002 
243.339 1305.34 697.992 
242.903 1305.81 698.548 
240.017 1307.46 701.318 
239.096 1308.99 702.404 
237.64 1309.07 702.034 
238.041 1309.16 702.106 
238.35 1309.27 702.08 
238.661 1309.4 702.12 
238.483 1309.4 702.076 
239.071 1309.4 702.207 
238.896 1309.55 702.099 
235.957 1310.04 700.864 
235.236 1310.6 700.019 
234.161 1311.35 698.006 
233.561 1311.81 695.562 
237.199 1309.5 701.627 
234.681 1311.71 691.975 
236.339 1310.42 689.458 
237.236 1310.11 688.99 
238.414 1309.55 688.716 
237.98 1310.19 689.043 
239.063 1309.06 688.657 
239.752 1308.46 688.64 
242.183 1306.73 690.408 
241.358 1307.57 689.668 
240.419 1308.37 689.189 
243.073 1306.46 692.007 
243.552 1306.19 693.594 
243.857 1305.39 694.295 
243.959 1305.21 695.095 
243.942 1305.31 695.688 
243.878 1305.33 696.199 
243.693 1305.59 696.766 
243.486 1305.55 697.435 
243.178 1306.07 697.873 
242.719 1306.4 698.445 
242.19 1306.47 699.076 
242.341 1306.19 699.034 
240.396 1307.26 700.599 
238.967 1308.37 702 
238.855 1308.73 701.576 
237.782 1309.49 701.867 
238.144 1309.65 701.897 
238.328 1309.72 701.933 
238.718 1309.78 701.914 
238.519 1309.75 701.988 
239.81 1308.43 700.975 
239.568 1308.81 701.076 
236.704 1310.02 701.137 
235.766 1310.45 700.465 
235.536 1310.94 699.828 
234.66 1311.68 698.027 
234.069 1311.78 696.777 
233.969 1312 695.802 
237.612 1309.68 701.529 
234.323 1312.32 694.21 
234.782 1312.47 693.336 
235.093 1312.28 692.434 
235.575 1311.91 691.471 
236.236 1310.95 689.972 
236.498 1311.88 690.566 
236.877 1310.61 689.471 
237.386 1310.8 689.516 
238.764 1310.29 689.328 
239.099 1309.67 689.157 
238.08 1310.81 689.45 
239.702 1309.17 689.172 
241.801 1308 690.659 
242.534 1307.38 691.457 
241.072 1308.66 690.076 
240.307 1309.19 689.517 
243.075 1307.24 692.733 
243.611 1306.96 694.22 
243.856 1305.91 694.799 
243.911 1305.85 695.403 
243.874 1305.91 695.838 
243.774 1306.02 696.28 
243.565 1306.12 696.94 
243.658 1306.36 696.55 
243.381 1306.42 697.348 
243.192 1306.38 697.744 
242.822 1306.73 698.229 
241.976 1306.81 699.17 
241.7 1306.74 699.504 
240.257 1307.54 700.576 
237.984 1309.9 701.72 
238.182 1310.08 701.766 
238.361 1310.11 701.822 
238.566 1310.08 701.836 
238.878 1309.7 701.496 
239.762 1308.71 700.678 
242.11 1307.2 698.939 
241.887 1307.61 699.099 
237.106 1310.2 701.166 
236.298 1310.63 700.636 
235.923 1311.19 699.904 
235.337 1311.65 698.918 
235.276 1312.3 698.147 
234.521 1312.01 697.173 
234.363 1312.15 696.258 
234.574 1312.65 694.866 
237.653 1309.84 701.296 
237.873 1310.04 701.4 
237.928 1309.93 701.548 
234.847 1312.78 694.064 
235.461 1313.25 693.445 
235.66 1313.05 692.793 
235.932 1312.71 692.056 
236.345 1312.42 691.354 
236.918 1311.45 690.063 
237.767 1315.01 692.291 
238.095 1314.62 691.766 
238.734 1313.54 690.914 
239.07 1313.12 690.599 
239.581 1312.88 690.53 
240.075 1312.41 690.476 
239.35 1310.19 689.41 
239.859 1309.83 689.417 
241.558 1309.01 690.552 
242.198 1308.37 691.396 
242.696 1308.12 692.134 
241.068 1309.55 690.248 
240.532 1309.8 689.816 
243.231 1307.91 693.307 
243.807 1306.57 695.172 
243.734 1307.23 694.845 
243.575 1307.85 694.254 
243.816 1306.59 695.68 
243.728 1306.73 696.188 
243.526 1306.91 696.862 
243.142 1306.89 697.729 
242.705 1307.31 698.305 
238.044 1310.26 701.648 
238.083 1310.1 701.722 
238.356 1310.26 701.697 
238.217 1310.4 701.638 
238.758 1310.09 701.63 
239.199 1309.6 701.211 
240.148 1308.75 700.461 
241.893 1307.97 699.157 
242.601 1307.75 698.464 
237.556 1310.23 701.14 
237.032 1310.83 700.927 
236.69 1311.21 700.531 
236.322 1311.71 699.944 
235.779 1312.02 699.108 
235.476 1312.93 697.727 
234.82 1312.48 696.93 
235.948 1312.9 698.589 
234.78 1312.72 696.12 
234.893 1312.99 695.429 
235.058 1313.2 694.835 
237.764 1310.62 701.296 
237.962 1310.62 701.465 
237.984 1310.43 701.564 
235.351 1313.43 694.22 
236.868 1316.05 694.565 
237.094 1315.97 694.009 
237.325 1315.78 693.478 
237.525 1315.4 692.908 
238.535 1314.31 691.41 
239.161 1318.16 693.932 
238.761 1318.09 694.111 
239.663 1317.99 693.636 
240.44 1316.62 692.68 
240.116 1317.64 693.324 
240.794 1315.49 691.975 
241.359 1315.52 692.136 
240.643 1312.06 690.549 
242.046 1314.99 692.146 
241.374 1311.89 690.812 
243.178 1311.64 691.942 
242.098 1309.22 691.267 
242.717 1309 692.066 
243.167 1308.57 692.934 
242.141 1311.93 691.247 
242.779 1311.88 691.646 
243.52 1308.47 693.94 
243.788 1307.28 695.351 
243.725 1307.9 694.912 
243.797 1307.2 695.71 
243.715 1307.3 696.261 
243.549 1307.47 696.806 
243.282 1307.24 697.372 
242.978 1307.51 697.944 
245.035 1310.39 701.48 
238.124 1310.55 701.532 
238.428 1310.44 701.564 
238.649 1310.31 701.627 
239.137 1309.93 701.257 
239.462 1309.57 701.01 
240.419 1308.94 700.347 
242.594 1308.11 698.557 
241.829 1308.38 699.34 
242.972 1307.99 698.1 
237.484 1310.97 701.114 
237.377 1311.54 700.901 
237.195 1311.92 700.631 
236.851 1312.19 700.21 
236.373 1312.54 699.44 
237.066 1315.58 698.464 
236.749 1315.64 697.698 
235.28 1313.19 696.831 
237.422 1315.25 699.309 
236.449 1315.73 696.038 
236.49 1315.69 696.601 
236.558 1315.91 695.589 
236.669 1315.99 695.117 
237.922 1311.29 701.347 
238.065 1310.97 701.482 
238.199 1310.7 701.468 
238.034 1318.43 695.688 
238.338 1318.6 695.246 
238.503 1318.51 694.828 
238.617 1318.31 694.441 
239.302 1318.81 694.56 
239.875 1319.06 694.532 
239.094 1319.03 694.991 
240.345 1319.03 694.402 
241.142 1317.24 693.173 
240.805 1318.39 693.88 
242.065 1316.72 693.115 
242.856 1314.5 692.258 
243.29 1315.71 693.136 
243.711 1314.36 692.647 
244.047 1312.13 692.687 
245 1314.5 693.499 
245.861 1314.85 694.083 
244.319 1311.95 693.005 
243.237 1309.37 692.838 
243.59 1309.07 693.732 
243.768 1308.8 694.492 
243.798 1308.35 694.928 
243.774 1307.89 695.52 
243.747 1307.81 695.872 
243.675 1307.88 696.422 
243.572 1307.91 697.047 
243.229 1307.71 697.612 
245.277 1310.13 701.148 
245.228 1310.58 701.484 
238.336 1310.55 701.478 
238.556 1310.53 701.459 
238.664 1310.41 701.529 
238.94 1310.24 701.411 
239.388 1310 701.146 
239.761 1309.68 700.94 
240.467 1309.26 700.46 
242.449 1308.46 698.888 
242.906 1308.45 698.465 
241.73 1308.8 699.594 
243.35 1308.02 697.568 
243.14 1308.25 698.066 
237.762 1311.62 701.181 
238.567 1312.88 701.556 
238.301 1313.42 701.258 
238.026 1314.09 700.757 
237.745 1314.73 700.129 
238.473 1318.42 698.645 
238.792 1318.19 699.381 
238.005 1318.19 697.934 
236.58 1315.67 697.071 
238.822 1317.47 700.005 
237.922 1318.43 696.745 
238.158 1318.67 697.466 
237.926 1318.41 696.151 
238.773 1312.42 701.795 
238.183 1311.37 701.502 
238.308 1311.06 701.559 
238.491 1310.83 701.504 
238.485 1319.11 696.175 
238.735 1319.24 695.868 
238.898 1319.18 695.444 
239.669 1319.39 695.122 
240.177 1319.52 695.137 
239.457 1319.54 695.575 
240.909 1319.2 694.62 
240.749 1319.56 695.124 
241.351 1319.09 694.594 
241.616 1318.28 694.017 
242.85 1317.31 694.018 
244.274 1314.92 693.276 
244.639 1315.74 694.201 
245.084 1314.93 693.652 
246.497 1315.2 694.211 
245.96 1315.34 693.974 
247.051 1315.54 694.095 
245.15 1312.64 693.764 
247.778 1315.55 694.371 
245.148 1311.28 694.467 
245.874 1313.26 694.321 
243.975 1309.38 694.393 
244.027 1308.92 695.285 
243.85 1308.49 695.416 
243.881 1308.25 696.084 
243.779 1308.31 696.731 
243.601 1308.24 697.222 
238.797 1310.47 701.453 
238.932 1310.81 701.596 
239.137 1310.31 701.331 
239.519 1310.19 701.211 
239.804 1309.9 701.006 
240.254 1309.69 700.793 
240.83 1309.4 700.369 
242.478 1308.79 699.057 
242.964 1308.8 698.671 
243.201 1308.53 698.202 
241.811 1309.1 699.724 
243.418 1308.34 697.727 
239.797 1314.65 702.066 
239.698 1315.78 701.642 
239.328 1316.05 701.282 
239.031 1316.71 700.791 
239.23 1319.07 699.063 
238.651 1318.94 698.256 
239.386 1318.7 699.668 
239.363 1317.95 700.258 
238.351 1319.05 696.662 
238.449 1319.16 697.222 
238.802 1319.28 697.969 
238.884 1311.77 701.873 
240.041 1313.22 702.393 
240.298 1314.54 702.33 
239.401 1311.45 701.943 
241.085 1310.99 702.33 
238.738 1319.43 696.815 
238.974 1319.56 696.487 
239.237 1319.6 696.06 
239.936 1319.73 695.683 
240.498 1319.85 695.748 
239.919 1319.9 696.311 
241.338 1319.58 695.244 
241.159 1319.85 695.7 
242.015 1318.72 694.615 
241.813 1319.39 695.199 
244.312 1316.9 695.142 
242.637 1319.08 695.423 
245.692 1315.55 694.442 
245.745 1315.47 695.059 
248.886 1315.79 694.335 
246.535 1315.59 694.822 
247.336 1315.75 694.382 
249.134 1315.9 694.211 
249.687 1315.81 694.733 
250.129 1315.94 694.674 
245.355 1310.95 695.135 
246.81 1313.23 695.868 
247.215 1315.02 694.723 
247.328 1315.12 694.826 
244.311 1309.62 694.992 
244.253 1309.29 695.776 
244.045 1308.79 695.97 
243.975 1308.61 696.407 
243.908 1308.69 696.96 
243.67 1308.51 697.356 
239.189 1310.54 701.659 
239.79 1310.88 702.068 
239.377 1310.19 701.6 
239.982 1310.04 701.09 
239.705 1310.22 701.353 
241.199 1309.56 700.291 
240.459 1309.82 700.852 
242.48 1309.13 699.339 
243.012 1309.11 698.954 
243.29 1308.86 698.448 
243.507 1308.7 697.991 
241.847 1309.48 699.979 
243.716 1308.76 697.656 
240.229 1315.63 702.032 
240.345 1316.9 701.505 
239.88 1317.53 700.947 
239.735 1319.34 699.251 
239.301 1319.41 698.59 
240.032 1318.69 700.286 
240.254 1319.33 699.858 
239.069 1319.6 697.58 
239.447 1319.68 698.204 
239.886 1312.09 702.206 
240.526 1312.85 702.5 
240.726 1314.15 702.518 
240.813 1315.46 702.288 
241.077 1312.37 702.562 
242.591 1310.76 702.656 
242.509 1311.26 702.572 
242.932 1310.62 702.626 
241.845 1311.9 702.529 
242.732 1310.62 702.523 
239.421 1319.82 697.109 
239.693 1319.92 696.728 
240.415 1320.02 696.344 
241.04 1320.06 696.345 
240.301 1320.13 697.285 
240.621 1320.2 697.15 
241.754 1319.74 695.713 
241.651 1320.04 696.441 
242.441 1319.58 695.979 
244.647 1317.33 696.005 
246.366 1315.47 696.013 
243.048 1319.52 696.553 
246.496 1315.5 695.412 
250.398 1316.05 694.519 
247.201 1315.89 695.702 
248.028 1316.07 695.221 
250.341 1316.15 694.654 
249.872 1315.84 695.481 
249.651 1315.73 694.954 
250.02 1315.98 695.653 
245.573 1310.89 695.659 
246.482 1311.8 696.421 
247.027 1313.3 696.388 
247.244 1314.51 695.723 
247.423 1315.2 694.95 
249.321 1315.63 694.97 
245.442 1310.58 695.984 
244.323 1309.3 696.411 
245.428 1310.4 696.502 
244.122 1308.98 696.683 
244.005 1309 697.265 
239.533 1310.42 701.979 
239.652 1309.96 702.067 
239.808 1309.97 701.731 
240.077 1310.1 701.362 
240.353 1310.04 701.077 
241.15 1309.8 700.574 
242.679 1309.54 699.625 
243.617 1309.27 698.577 
243.384 1309.5 699.114 
243.851 1309.16 698.094 
241.826 1309.85 700.392 
244.04 1309.22 697.725 
240.792 1316.2 702.037 
241.094 1317.51 701.56 
240.577 1318.28 700.922 
240.428 1319.71 699.498 
239.888 1319.71 698.85 
240.792 1319.13 700.381 
240.895 1319.56 700 
239.823 1319.95 697.913 
240.026 1319.92 698.563 
241.256 1313.76 702.668 
241.277 1315.03 702.499 
241.637 1315.34 702.393 
241.429 1316.37 702.138 
242.086 1312.94 702.716 
242.172 1313.8 702.779 
242.557 1311.45 702.564 
242.314 1311.95 702.562 
242.614 1310.84 702.385 
242.562 1312.62 702.7 
240.022 1320.05 697.517 
240.967 1320.21 697.02 
241.475 1320.23 697.154 
240.942 1320.32 697.942 
240.51 1320.21 698.134 
241.374 1320.32 697.759 
242.181 1319.89 696.421 
242.005 1320.17 697.176 
242.367 1320.07 697.192 
242.697 1319.86 696.904 
245 1317.58 696.877 
247.074 1315.86 696.367 
246.666 1316.47 697.171 
243.474 1319.66 697.631 
244.881 1318.26 697.751 
249.672 1316.2 696.208 
247.706 1316.28 696.756 
248.004 1316.26 696.346 
249.788 1316.42 696.06 
248.896 1316.51 696.99 
249.582 1315.71 695.43 
249.253 1315.73 695.918 
249.313 1315.89 696.188 
248.835 1316.16 696.644 
247.216 1313.45 696.889 
246.541 1311.67 696.769 
247.412 1314.56 696.348 
247.486 1314.9 695.856 
247.674 1315.28 695.098 
249.216 1315.56 695.211 
244.343 1309.33 696.946 
245.373 1310.31 697 
246.5 1311.35 697.42 
246.659 1311.77 697.214 
246.517 1311.5 697.805 
245.193 1310.19 697.897 
240.074 1309.53 702.38 
239.933 1309.77 702.115 
240.199 1309.91 701.744 
240.454 1310.03 701.371 
240.822 1310.01 700.965 
243.737 1310.65 700.6 
244.34 1310.6 700.099 
244.682 1310.49 699.547 
244.897 1310.35 698.923 
243.005 1310.75 701.112 
241.427 1310.14 700.911 
245.013 1310.22 698.332 
241.707 1317.66 701.634 
241.166 1318.55 700.998 
240.525 1319.95 699.154 
240.96 1319.88 699.628 
241.252 1319.2 700.536 
241.367 1319.69 700.091 
240.467 1320.1 698.679 
242.032 1314.81 702.688 
242.706 1315.68 702.475 
242.232 1316.57 702.172 
242.9 1313.22 702.783 
242.752 1313.71 702.784 
242.834 1314.58 702.693 
242.659 1311.39 702.493 
242.804 1311.91 702.638 
243.029 1312.42 702.731 
242.395 1310.82 702.254 
243.32 1312.7 702.726 
241.954 1320.3 697.849 
241.484 1320.34 698.469 
241.11 1320.25 698.835 
241.988 1320.31 698.481 
242.487 1320.16 697.97 
242.994 1319.92 697.835 
247.173 1316.87 697.533 
246.36 1317.22 698.095 
243.773 1319.58 698.422 
244.949 1318.45 698.5 
248.625 1316.33 697.114 
247.937 1316.93 697.543 
249.219 1316.73 697.044 
248.786 1316.77 697.446 
248.656 1316.57 697.597 
249.415 1315.64 695.483 
248.892 1315.63 695.833 
248.567 1315.78 696.375 
248.443 1315.97 696.723 
248.432 1316.1 697.08 
247.472 1313.79 697.358 
247.715 1314.9 696.484 
248.156 1315.43 695.471 
247.72 1315.07 696.14 
248.073 1315.37 695.947 
248.994 1315.55 695.534 
245.315 1310.2 697.415 
246.395 1311.34 698.271 
246.918 1312.19 697.803 
246.817 1312.02 698.385 
246.512 1311.69 698.942 
246.2 1311.4 699.225 
240.214 1309.68 702.286 
240.231 1310.07 702.004 
240.485 1310.26 701.629 
240.839 1310.28 701.259 
244.16 1311.54 701.649 
244.959 1311.5 701.429 
245.313 1311.51 700.93 
245.667 1311.62 700.543 
246.003 1311.52 699.886 
242.134 1310.69 701.312 
243.449 1311.47 701.833 
242.275 1317.98 701.489 
241.625 1318.68 700.999 
241.002 1320.1 699.228 
241.421 1319.98 699.7 
241.669 1319.32 700.523 
241.796 1319.75 700.111 
243.21 1316.04 702.316 
243.391 1314.88 702.62 
242.954 1317.08 701.942 
243.799 1313.31 702.692 
243.237 1313.77 702.75 
242.81 1311.65 702.517 
242.474 1311.24 702.249 
243.367 1312.26 702.735 
243.14 1311.99 702.61 
243.613 1312.49 702.697 
244.056 1313.06 702.636 
242.478 1320.19 698.513 
241.787 1320.29 698.96 
241.52 1320.18 699.331 
242.434 1320.16 698.98 
243.128 1319.92 698.563 
247.136 1317.26 698.253 
246.398 1317.4 698.714 
245.129 1318.34 698.994 
243.825 1319.53 698.964 
248.444 1316.19 697.604 
248.54 1316.41 697.73 
248.464 1317.06 697.921 
247.827 1317.28 698.397 
248.557 1316.94 698.171 
248.404 1316.66 698.252 
248.054 1315.44 696.393 
248.031 1315.47 696.738 
247.839 1314.63 697.378 
247.902 1314.77 697.679 
247.998 1315.09 697.842 
247.86 1314.98 696.72 
247.166 1312.76 698.54 
246.91 1312.48 699.111 
246.698 1312.46 699.739 
246.392 1311.98 699.732 
241.019 1310.51 701.941 
241.558 1310.75 701.487 
241.077 1310.77 701.699 
244.83 1311.47 702.077 
244.003 1311.84 702.103 
243.438 1311.76 702.137 
245.258 1311.85 701.671 
245.376 1311.81 701.262 
245.71 1311.94 700.918 
246.173 1311.94 700.28 
242.757 1311.4 701.932 
242.932 1318.31 701.239 
242.166 1318.75 701.008 
241.889 1319.94 699.808 
242.15 1319.27 700.584 
242.383 1319.56 700.236 
243.899 1316.32 702.053 
243.864 1315.1 702.474 
244.156 1314.01 702.625 
243.636 1317.39 701.639 
244.553 1313.68 702.52 
242.629 1311.5 702.27 
243.078 1311.83 702.444 
242.209 1311.05 702.063 
243.566 1312.21 702.667 
243.786 1312.46 702.703 
244.217 1312.89 702.596 
244.519 1313.23 702.53 
243.064 1319.93 699.048 
242.072 1320.13 699.37 
242.674 1319.94 699.506 
243.19 1319.74 699.495 
247.224 1317.49 698.952 
246.476 1317.42 699.172 
245.11 1318.37 699.391 
243.882 1319.42 699.359 
247.926 1314.97 698.324 
248.295 1316.34 698.125 
247.914 1315.25 698.552 
248.374 1317.34 698.71 
247.842 1317.59 699.254 
248.329 1317.15 698.902 
248.205 1316.49 698.519 
248.177 1316.95 699.07 
247.436 1313.45 699.099 
247.054 1313.14 699.779 
246.508 1312.6 700.309 
242.401 1311.33 701.993 
244.491 1312.03 702.438 
244.909 1312.23 702.059 
243.939 1312.15 702.539 
243.427 1311.98 702.431 
242.963 1311.66 702.244 
245.52 1312.14 701.417 
245.327 1312.21 701.727 
246.039 1312.17 700.835 
243.575 1318.31 701.073 
242.79 1318.97 700.778 
242.544 1319.79 699.851 
242.959 1319.33 700.338 
244.513 1315.47 702.157 
244.425 1317.01 701.509 
245.154 1316.23 701.545 
244.735 1314.42 702.348 
245.181 1313.81 702.243 
244.163 1312.5 702.647 
244.578 1312.58 702.373 
244.769 1312.86 702.359 
245.251 1313.12 702.154 
243.137 1319.55 699.939 
243.823 1319.23 699.877 
247.148 1317.49 699.481 
246.255 1317.23 699.567 
245.051 1318.33 699.849 
247.353 1313.78 699.655 
247.755 1315.31 698.971 
247.698 1315.81 699.13 
248.22 1317.55 699.442 
247.56 1317.51 699.723 
247.851 1317.36 699.733 
247.97 1316.72 699.157 
247.704 1317.13 699.671 
246.891 1313.17 700.207 
246.396 1312.66 700.669 
245.057 1312.5 702.109 
245.822 1312.51 701.368 
245.549 1312.56 701.713 
244.417 1317.8 701.009 
243.644 1318.77 700.686 
243.817 1318.95 700.349 
245.328 1315 701.917 
245.461 1317.16 700.9 
246.197 1315.64 701.167 
246.027 1316.42 701.021 
245.775 1314.44 701.815 
245.166 1314.24 702.204 
245.642 1313.65 701.916 
245.697 1312.99 701.767 
245.353 1312.78 702.001 
245.128 1318.13 700.217 
246.503 1317.4 699.813 
247.229 1314.11 700.094 
246.891 1313.4 700.415 
247.291 1315.54 699.823 
247.038 1317.27 699.985 
247.258 1317.07 700.114 
247.362 1316.43 699.793 
247.105 1316.56 700.143 
246.221 1313 701.159 
244.779 1317.97 700.633 
246.163 1317.43 700.299 
246.727 1317 700.519 
246.618 1315.55 700.867 
246.709 1316.47 700.57 
246.204 1314.39 701.433 
246.382 1313.93 701.571 
246.754 1313.84 700.679 
246.792 1314.56 700.778 
246.9 1315.43 700.502 
