131.512 1261.06 2114.74
131.075 1261.96 2112.2
131.408 1259.11 2115.51
134.283 1283.15 2094.03
133.323 1279.73 2095.83
134.346 1281.14 2097.86
130.968 1259.59 2114.19
131.433 1269.31 2102.68
130.989 1264.29 2108.65
130.648 1261.15 2111.76
132.732 1248.1 2117.6
130.759 1258.6 2114.36
131.015 1257.87 2115.14
131.324 1256.88 2115.79
132.038 1253.14 2116.6
134.302 1282.69 2091.43
132.713 1278.12 2094.95
131.434 1273.93 2096.35
131.053 1271.7 2098.23
133.769 1276.09 2102
132.331 1274.11 2099.52
130.471 1259.43 2113.13
129.194 1257.69 2112.65
130.106 1264.53 2105.49
129.332 1264.9 2101.56
129.692 1265.31 2102.76
129.255 1260.41 2109.43
128.982 1259.42 2110.62
129.115 1258.95 2111.3
130.421 1243.8 2113.16
131.238 1242.74 2114.72
129.134 1257.03 2112.89
129.451 1256.47 2113.38
129.598 1255.66 2113.64
129.835 1253.91 2113.77
129.301 1249.23 2112.47
132.629 1277.53 2093.78
132.39 1275.26 2091.46
131.704 1274.95 2095.48
130.885 1271.92 2095.76
130.324 1269.31 2098.08
130.104 1268.85 2096.84
129.201 1258.26 2112.17
128.059 1257.36 2111.31
127.881 1256.58 2111.57
129.038 1262.17 2105.84
129 1264.33 2099.2
128.113 1260.62 2101.77
128.692 1261.62 2104.87
128.413 1258.86 2109.08
127.856 1257.35 2110.69
129.049 1246.96 2111.85
128.575 1244.76 2109.92
128.438 1244.38 2109.52
128.592 1241.94 2110.52
128.519 1240.92 2110.56
130.434 1239.88 2112.79
128.958 1240.46 2111.03
130.992 1240.13 2114.04
128.002 1256.1 2111.79
128.229 1255.53 2112.03
128.467 1253.3 2111.89
128.303 1251.33 2111.01
127.815 1249.8 2110.38
127.378 1248.49 2109.91
131.717 1236.2 2113.9
131.139 1238.52 2113.61
132.008 1274.92 2093.78
131.209 1271.2 2092.55
131.156 1271.85 2094.3
130.11 1267.81 2094.5
129.981 1268.31 2096.13
129.014 1264.37 2097.24
127.652 1256.1 2111.37
127.826 1260.21 2098.53
126.607 1255.16 2099.99
126.751 1255.29 2101
127.898 1257.58 2106.42
127.991 1257.93 2108.88
127.704 1256.73 2111.02
128.472 1246.3 2110.73
127.305 1247.87 2109.74
127.757 1246.27 2109.45
127.899 1244.88 2108.62
127.987 1244.18 2108.54
127.854 1242.25 2109.22
126.889 1241.03 2108.19
128.691 1239.97 2110.46
130.479 1238.74 2112.27
127.918 1255.38 2111.6
128.077 1254.91 2111.79
128.068 1253.3 2111.23
128.016 1251.31 2110.38
127.356 1250.23 2109.42
127.027 1248.99 2109.28
130.854 1236.83 2111.5
130.195 1267.02 2092.43
128.676 1262.25 2095.72
126.634 1255.14 2099.33
127.161 1254.03 2103.03
127.588 1255.06 2106.92
126.618 1253.79 2101.52
126.074 1253.01 2100.24
127.784 1256.92 2108.92
127.571 1256.69 2110.52
127.376 1246.27 2108.69
127.63 1245.03 2107.85
127.666 1244.49 2107.58
127.756 1244.02 2107.89
127.321 1242.28 2108.14
126.691 1241.07 2107.68
126.424 1240.36 2107.38
126.926 1240.51 2108.27
128.757 1239.43 2110.18
130.418 1237.93 2111.42
127.807 1253.62 2110.78
127.705 1251.87 2109.45
127.097 1250.71 2108.43
126.984 1247.94 2109.07
130.26 1237.32 2110.44
130.794 1234.78 2108.31
128.522 1259.75 2092.49
127.602 1258.06 2096.67
127.588 1255.44 2111.18
127.692 1253.44 2110.22
127.579 1254.05 2110.09
126.96 1255.69 2098.43
126.444 1253.96 2099.38
127.153 1253.05 2103.8
126.568 1252.41 2101.91
126.898 1251.37 2102.98
127.64 1255.61 2109.03
126.932 1252.1 2106.83
127.096 1252.46 2104.37
127.459 1253.26 2108.48
127.503 1254.7 2109.5
126.92 1251.45 2107.65
127.436 1255.87 2110.5
126.775 1247.96 2108.45
127.183 1246.5 2108.12
127.501 1244.96 2107.17
127.068 1246.62 2107.54
127.606 1244.06 2107.24
127.532 1244.5 2106.91
126.918 1242.08 2107.21
126.375 1240.99 2106.86
127.467 1243.6 2106.98
128.49 1239.12 2109.5
126.496 1239.93 2107.09
127.523 1252.6 2108.82
127.396 1252.67 2108.03
126.617 1249.24 2108.23
126.61 1248.34 2107.95
126.672 1248.53 2108.59
128.204 1238.82 2108.55
129.579 1235.79 2106.08
130.207 1235.77 2107.68
130.217 1233.73 2104.98
132.319 1228.85 2103.87
128.132 1256.01 2092.3
127.433 1255.49 2096.31
127.558 1253.12 2108.95
126.566 1253.44 2098.75
126.094 1252.52 2099.68
125.985 1251.9 2099.79
126.362 1250.63 2099.23
126.506 1249.3 2099.21
126 1252.21 2100.34
126.939 1251.1 2103.67
126.447 1251.64 2101.6
126.699 1249.69 2101.42
126.819 1251.74 2105.58
126.472 1250.13 2106.68
126.463 1250.5 2106.1
126.689 1250.83 2104.9
126.618 1250.05 2107.33
127.425 1245.24 2106.63
126.995 1246.81 2106.86
126.579 1248.41 2107.21
127.47 1244.1 2106.42
127.348 1244.34 2104.35
126.736 1242.07 2106.59
127.278 1243.56 2106.19
125.936 1240.15 2106.02
126.076 1240.49 2106.51
126.25 1239.73 2106.46
126.554 1249.33 2107.55
128.412 1238.11 2107.79
129.095 1236.36 2106.19
128.901 1235.45 2103.96
127.367 1238.13 2105.48
129.366 1234.11 2103.19
131.604 1228.82 2101.59
128.084 1251.45 2091.24
127.463 1250.11 2095.41
126.754 1251.68 2098.03
126.372 1249.87 2100
127.717 1246.13 2094.33
127.102 1244.03 2101.33
127.335 1241.23 2100.64
127.31 1244.36 2097.6
126.86 1250.39 2103.56
126.608 1250.3 2104.68
127.09 1249.41 2103.09
127.182 1245.8 2102.65
127.421 1245.74 2104.95
126.334 1249.97 2105.92
126.418 1249.52 2106.43
127.263 1247.31 2104.54
126.469 1249 2105.98
126.929 1247.55 2105.72
127.327 1243.94 2104.71
127.22 1242.91 2103.37
127.274 1241.85 2102.45
126.712 1242.29 2105.97
126.162 1241.02 2106.08
127.226 1243.48 2105.33
126.015 1239.75 2105.68
127.367 1238.87 2106.55
128.282 1237.62 2106.45
128.186 1236.6 2104.07
126.909 1238.73 2105.39
129.303 1233.85 2102.2
131.29 1229.18 2100.71
128.202 1245.49 2091.11
127.652 1245.13 2094.81
128.109 1243.77 2093.29
127.957 1244.09 2094.36
127.436 1241.44 2099.01
127.414 1240.4 2102.05
127.372 1239.35 2102.45
127.54 1239.27 2100.71
127.62 1239.59 2098.72
127.854 1243.45 2096.23
127.862 1242.59 2097.14
127.908 1241.28 2097.29
127.007 1249.69 2103.56
126.59 1249.69 2104.58
126.33 1249.49 2105.74
126.771 1248.79 2104.7
127.118 1242.97 2104.32
127.206 1241.43 2102.91
127.093 1242.21 2103.52
126.605 1242.03 2105.32
125.942 1240.66 2105.71
126.748 1238.87 2104.75
128.005 1236.91 2103.54
129.077 1234.3 2101.26
128.184 1242.94 2094.95
128.009 1239.75 2097.24
126.626 1240.57 2103.89
126.716 1239.75 2103.8
127.455 1238.66 2102.64
127.99 1237.48 2100.8
127.975 1238.04 2098.69
128.306 1242.25 2095.79
128.309 1241.09 2095.62
128.305 1240.06 2095.65
126.615 1241.79 2104.85
126.58 1241.44 2104.45
125.901 1240.15 2105.35
126.088 1240.84 2105.16
126.677 1239.22 2104.22
127.786 1237.62 2102.85
128.545 1235.4 2099.96
129.209 1234 2099.98
129.983 1231.97 2100.02
130.391 1230.76 2100.06
131.116 1229.56 2099.41
128.738 1239.32 2094.01
128.874 1238.05 2095.2
128.394 1238.08 2097.07
128.661 1235.73 2098.82
129.194 1235.85 2096.49
129.657 1233.87 2097.81
129.802 1233.04 2099.61
130.022 1232.06 2099.33
130.264 1231.05 2099.37
129.609 1235.64 2095.23
129.012 1235.12 2097.92
129.961 1234.49 2095.8
129.496 1234.77 2096.61
130.789 1231.74 2097.47
130.336 1231.72 2098.32
130.486 1230.66 2099.07
