-2.78184 1072.11 1211.48
-2.80809 1091.21 1172.72
-9.73449 1087.71 1177.29
-11.6239 1087.71 1178.48
-12.6773 1088.08 1179.62
-13.1311 1087.42 1180.66
-14.2159 1086.7 1182.34
-15.3972 1086.89 1182.9
-16.9465 1086.67 1184.17
-18.132 1086.07 1185.33
-22.9778 1084.58 1187.95
-23.0739 1085.08 1187.47
-25.0223 1084.37 1190.18
-20.4732 1086.3 1185.59
-16.4846 1092.62 1177.74
-17.0003 1093.24 1177.94
-2.63887 1072.51 1210.32
0.14316 1072 1214.86
-0.746521 1070.62 1218.53
-0.53644 1070.37 1219.17
-3.12357 1071.03 1217.63
-0.0839716 1071.16 1217.38
1.21792 1071.9 1215.62
2.91173 1075.48 1207.15
3.02354 1074.93 1208.15
6.58445 1076.06 1205.26
6.0379 1075.87 1205.87
5.3986 1075.28 1207.24
5.90359 1075.22 1207.56
7.81442 1075.97 1205.13
4.98596 1076.38 1205.76
3.76985 1077.18 1204.4
3.24863 1077.25 1203.95
2.29248 1076.66 1204.66
0.865858 1071.49 1216.65
1.49699 1071.53 1216.55
3.92286 1089.04 1166
1.34368 1088.48 1167.94
-2.93802 1087.14 1169.98
-8.0626 1085.35 1173.05
-13.3017 1083.67 1177.9
3.00121 1089 1164.64
3.88766 1089.06 1165.3
-20.6036 1086.47 1184.73
-25.1934 1085.19 1188.84
-29.8142 1077.75 1192.13
-30.9823 1079.75 1193.11
-27.0595 1078.72 1189.03
-23.1653 1080.64 1186.03
-24.6113 1079.86 1187.42
-28.7263 1075.55 1193.22
-29.2796 1075.79 1193.55
-29.4542 1076.32 1193.69
-28.1068 1075.28 1192.92
-29.7467 1077.31 1193.85
-32.6107 1081.59 1193.15
-16.7002 1082.12 1178.64
-20.1235 1080.95 1181.91
-18.9629 1081.37 1180.93
-17.7103 1082.01 1179.99
11.2461 1089.23 1161.91
9.61047 1089.14 1163.35
7.31432 1089.02 1166.2
7.74568 1089.75 1163.23
7.56658 1090.09 1164.5
6.67994 1089.42 1163.43
2.49819 1085.94 1162.42
3.34676 1088.74 1164.03
3.357 1087.81 1162.98
3.59821 1088.98 1164.77
4.36911 1085.99 1161.79
4.61069 1086.53 1161.52
4.206 1085.37 1162.04
5.05188 1086.97 1161.17
-17.2095 1092.53 1178.12
13.5968 1089.22 1161.19
30.0634 1075.03 1173.81
29.0954 1077.98 1174.41
29.5815 1076.39 1174.18
60.0404 1039.18 1229.45
59.1189 1035.79 1228.5
56.7896 1037.13 1223.39
59.1453 1040.27 1227.44
59.8111 1039.6 1228.7
56.3716 1044.72 1219.06
55.6192 1045.88 1217.75
56.7176 1042.13 1221.26
56.5439 1042.65 1220.64
54.8642 1046 1217.05
54.6269 1045.59 1216.81
53.8589 1045.65 1216.05
61.6159 1069.56 1221.24
62.6899 1061.8 1226.05
62.5171 1065.15 1225.23
-88.1715 1105.48 1243.58
-89.2464 1105.43 1244.61
-86.6188 1105.56 1243.22
-98.7189 1111.8 1258.54
-101.894 1110.75 1256.18
-101.79 1111.02 1257.07
-101.974 1110.54 1254.86
-102.431 1110.76 1255.7
-99.03 1108.98 1251.75
-102.2 1110.21 1254.17
-92.7145 1106.31 1246.19
-91.0651 1105.58 1244.96
-90.0379 1105.4 1244.45
-82.8682 1104.99 1241.39
-84.3877 1105.85 1241.58
-80.5343 1104.19 1240.08
-80.8915 1103.81 1238.61
-84.2253 1105.19 1239.61
-85.9498 1106.41 1241.08
-79.0502 1104.15 1233.86
-81.4403 1104.44 1235.65
-81.7535 1104.77 1234.65
-83.339 1106.04 1236.3
-72.722 1106.43 1229.64
-79.0975 1107.11 1234.07
-46.7283 1085.1 1230.69
-46.4783 1085.17 1230.21
-46.9682 1079.42 1231.2
-46.1284 1076.52 1229
-46.313 1076.05 1229.4
-46.8205 1077.8 1227.67
-46.6386 1079.72 1228.09
-46.963 1083.93 1230.4
-47.2744 1079 1231.11
-46.282 1085.26 1226.85
-46.6231 1084.37 1226.98
-45.8153 1088.1 1225.99
-45.7664 1086.64 1226.76
-45.861 1085.71 1227.08
-45.9752 1085.96 1227.93
-46.2783 1084.72 1228.23
-46.3056 1084.53 1228.84
-46.4015 1081.39 1228.22
-46.115 1092.27 1224.86
-45.706 1092.47 1224.39
-45.3795 1092.78 1223.82
-45.0753 1093.25 1223.19
-47.8495 1085.2 1231.99
-47.7334 1083.6 1230.43
-47.5248 1084.3 1230.25
-47.051 1084.78 1230.26
-47.9236 1080.93 1230.24
-48.2207 1079.92 1230.85
-47.8689 1080.88 1231.21
-47.2673 1088.73 1231.41
-46.1444 1089.05 1230.44
-45.2965 1089.18 1229.67
-45.7736 1089.57 1229.94
-45.6653 1090.04 1229.59
-45.7589 1091.05 1228.81
-43.2752 1093.77 1223.58
-48.2632 1086.72 1232.04
-48.6676 1086.02 1232.32
-71.3136 1100.06 1232.19
-72.2178 1102.32 1231.98
-71.8538 1102.29 1231.45
-71.915 1098.97 1232.03
-71.3198 1098.33 1232.14
-71.3666 1093.58 1229.42
-70.4335 1092.45 1227.74
-70.8561 1091.38 1227.07
-69.8977 1090.02 1225.41
-72.0464 1094.16 1230.34
-71.8433 1095.79 1231.9
-71.655 1097.73 1232.42
-71.9475 1096.76 1232.52
-67.6878 1088.5 1223.72
-61.3486 1086.39 1218.11
-63.3126 1085.67 1219.77
-58.4964 1087.4 1215.43
-55.8596 1087.58 1212.33
-61.1005 1085.33 1218.42
-51.9454 1085.83 1208.17
-50.1938 1086.77 1207.1
-50.8207 1086.02 1207.3
-72.9743 1101.82 1232
-74.1413 1100.5 1231.76
-77.6653 1100.13 1232.43
-76.0246 1099.28 1231.82
-77.264 1098.78 1232.09
-79.405 1100.45 1233.3
-79.8675 1101.08 1233.72
-79.6609 1101.57 1233.73
-79.0817 1103.21 1233.76
-79.3551 1110.54 1233.62
-79.7211 1102.33 1233.73
-79.9847 1103.02 1233.95
-79.4408 1102.74 1233.88
-56.2119 1092.2 1213.63
-55.6997 1090.08 1211.5
-53.0798 1087.89 1209.46
-51.2336 1088 1207.93
-56.1496 1094.08 1214.68
-55.9067 1093.44 1213.69
-55.9559 1092.58 1213.23
-56.1681 1095.46 1215.31
-44.645 1095.39 1220.4
-44.7136 1095.61 1221.29
-43.0263 1093.02 1223.12
-43.6505 1093.22 1222.97
-44.2373 1093.18 1222.93
-44.2827 1093.63 1222.69
-55.9537 1095.79 1215
-55.0854 1095.39 1213.04
-55.311 1094.94 1213.28
-55.5899 1094.6 1213.71
-54.8348 1095.87 1212.77
-54.5709 1096.33 1212.47
-51.2775 1103.9 1215.48
-54.8681 1095.94 1212.21
-3.03376 1074.99 1204.4
-0.685927 1077.18 1200.73
-5.27876 1073.2 1207.64
-5.28103 1070.03 1217.47
-3.61504 1070.22 1218.32
-5.6584 1071.11 1211.9
-6.58328 1069.84 1216.31
-0.918715 1070.83 1216.85
0.286911 1071.41 1216.29
0.468763 1070.93 1217.65
-5.73897 1089.94 1174.73
-9.3868 1087.28 1177.24
-2.96066 1090.31 1172.92
-11.274 1086.83 1178.58
-12.1997 1087.28 1179.13
-11.9723 1086.79 1179.07
-13.8012 1087.1 1181.91
-20.6836 1084.92 1187.28
-25.0077 1084.88 1189.44
-25.6932 1084.76 1190.24
-24.0155 1084.15 1190.3
-25.4502 1084 1190.9
-28.8224 1084.01 1193.45
-29.2746 1084.39 1193.45
-1.98684 1072.7 1211.19
0.613434 1071.74 1216.01
-2.7027 1069.25 1222.23
-8.46257 1068.14 1224.86
3.37819 1075.72 1206.64
6.65106 1076.6 1204.37
6.96607 1076.37 1204.74
6.00756 1076.22 1205.32
3.98702 1075.88 1206.1
6.30382 1075.27 1207.06
9.3051 1076.67 1203.21
4.0527 1077.86 1203.02
0.14101 1070.59 1218.8
6.17392 1089.5 1164.46
6.22848 1089.54 1165.15
-3.49294 1086.85 1170.8
-9.88723 1084.36 1174.85
-11.1709 1084.05 1176.29
-12.8394 1083.58 1177.73
-14.2312 1083.61 1177.84
-15.3448 1083.2 1178.12
4.80056 1089.1 1164.77
-29.1989 1085.09 1192.17
-28.5887 1078.98 1193.65
-29.8114 1078.87 1193.51
-25.947 1079.49 1188.37
-28.0137 1076.22 1192.25
-27.5825 1075.48 1192.76
-29.824 1072.04 1196.31
-28.9187 1072.55 1195.09
-30.3584 1074.84 1194.6
-30.0474 1078.65 1191.26
-31.195 1078.94 1193.47
-28.2574 1071.65 1195.23
-17.3926 1081.8 1179.19
-22.443 1081.12 1184
-18.4601 1081.63 1180.99
-18.0805 1082.02 1180.86
11.3345 1088.79 1162.4
10.0297 1088.69 1163.52
7.19322 1089.5 1163.92
6.19046 1089.27 1163.51
6.5467 1088.81 1161.76
6.14192 1088.56 1161.07
3.79368 1084.77 1162.36
2.31346 1085.23 1162.39
3.93465 1088.84 1163.94
4.39662 1088.48 1163.38
1.72473 1086.27 1163.15
4.26785 1084.87 1162.13
11.5542 1089.86 1160.72
29.4301 1075 1174.06
28.932 1076.23 1174.3
28.5073 1077.83 1174.52
60.2274 1038.96 1230.22
60.8319 1039.6 1231.12
60.3844 1036.85 1230.78
60.3649 1033.49 1231.68
59.4856 1032.49 1230.05
57.1469 1035.84 1224.32
56.3909 1041.21 1221.32
60.9351 1039.66 1230.25
55.4196 1045.37 1217.53
62.0723 1069.82 1221.08
63.2092 1061.57 1226.44
61.9668 1067.05 1223.64
63.2948 1065.99 1225.06
-88.8323 1105.27 1243.77
-88.3371 1108.79 1238.11
-88.7938 1107.83 1239.77
-101.99 1112.57 1262
-103.982 1111.77 1259.86
-103.505 1110.99 1257.04
-103.629 1110.92 1256.35
-104.265 1111.34 1258.62
-103.814 1111.01 1255.04
-103.743 1110.88 1255.72
-99.3221 1108.34 1251.11
-102.995 1110.19 1253.93
-103.755 1111.14 1254.52
-93.0875 1105.74 1245.61
-91.6593 1105.37 1244.7
-90.8885 1105.57 1244.38
-83.3675 1104.57 1240.24
-81.4778 1104.86 1233.79
-79.2177 1103.72 1234.24
-83.3394 1106.55 1234.84
-83.9254 1107.15 1233.93
-84.9622 1106.72 1236.43
-75.0805 1107.65 1231.29
-79.1057 1108.39 1234.03
-47.5378 1081.26 1231.32
-46.701 1075.48 1229.47
-46.1129 1076.01 1228.08
-45.7389 1074.9 1228.45
-46.5832 1076.47 1227.38
-47.1568 1078.8 1228.17
-47.0126 1076.03 1227.77
-46.5608 1082.88 1228.28
-46.8553 1081.66 1228.47
-47.6171 1077.08 1230.79
-47.0684 1074.82 1229.52
-46.84 1084.38 1227.68
-46.555 1083.65 1227.73
-45.3619 1086.51 1227.19
-45.5682 1088.67 1225.41
-45.5014 1087.29 1226.66
-46.3866 1084.98 1227.81
-46.3337 1083.89 1227.17
-46.1786 1082.7 1227.78
-45.7857 1091.02 1225.02
-44.8655 1092.77 1223.43
-48.4182 1085.55 1232.03
-47.4772 1083.73 1229.84
-47.6095 1081.45 1229.74
-46.5684 1085.09 1229.32
-46.2061 1085.53 1229.74
-48.2269 1075.96 1229.75
-47.9942 1075.92 1229.28
-47.7445 1076.97 1228.96
-48.4248 1074.92 1230.25
-47.9036 1076.02 1230.61
-47.2083 1085.74 1231.01
-46.0904 1085.87 1230.11
-46.5224 1088.6 1230.84
-45.6776 1088.32 1230.16
-44.7078 1088.81 1229.31
-44.4796 1089.31 1228.94
-44.5235 1089.91 1228.85
-44.5282 1091.11 1227.76
-43.539 1092.97 1225
-46.83 1087.65 1231.07
-47.2544 1086.98 1231.29
-47.4301 1086.35 1231.31
-71.7318 1099.73 1232.12
-74.0995 1099.27 1231.5
-72.1652 1097.93 1232.54
-73.041 1091.95 1228.48
-73.6091 1091.4 1228.32
-72.9339 1090.67 1227.2
-72.4537 1094.57 1230.73
-73.3783 1093.09 1229.48
-72.148 1096.16 1232.25
-72.7458 1095.01 1230.92
-73.7758 1097.18 1231.83
-68.7711 1089.37 1224.52
-65.5244 1087.04 1221.77
-63.1434 1083.95 1220.54
-61.4079 1079.83 1220.61
-69.1862 1088.87 1224.66
-59.2845 1086.43 1216.65
-57.9008 1086.93 1215.21
-51.2919 1085.23 1207.66
-60.0637 1082.63 1219.07
-49.3295 1085.29 1206.13
-78.6646 1099.2 1233.27
-78.5723 1098.46 1233.33
-75.9688 1098.04 1231.66
-78.7893 1097.56 1233.59
-77.8634 1097.52 1232.47
-76.5654 1098.51 1231.9
-80.3039 1100.78 1233.62
-80.9127 1099.7 1234.25
-80.5866 1102.14 1233.8
-80.4507 1102.62 1233.85
-82.1287 1104.01 1233.25
-55.1445 1089.36 1210.59
-54.1659 1088.85 1210.14
-49.6831 1087.21 1206.41
-55.8548 1094.26 1214.1
-55.549 1093.61 1212.95
-55.63 1092.71 1212.55
-55.6664 1091.77 1212.01
-42.2458 1093.21 1223.14
-43.5781 1092.52 1223.19
-44.4095 1092.75 1223.13
-54.6982 1094.83 1211.85
-54.9491 1094.24 1211.98
-55.2758 1094.01 1212.58
-54.3848 1095.32 1211.6
-54.0926 1095.72 1211.33
-52.8472 1102.67 1215.7
-54.7788 1097.74 1213.83
-54.3102 1095.12 1210.8
-4.1822 1075.04 1205.26
-6.14274 1074.33 1208.55
-6.75477 1070.9 1211.67
-7.03741 1069.86 1218.6
-9.11288 1069.65 1218.29
-8.68309 1069.69 1217.32
-3.05057 1070.09 1219.44
-6.93695 1069.82 1219.3
-7.72201 1069.62 1215.32
-9.57824 1069.56 1216.1
0.62306 1070.54 1219.01
-0.949385 1069.6 1221.15
-5.21784 1089.67 1174.4
-3.1104 1089.51 1172.76
-12.7382 1086.63 1180.6
-16.238 1086.39 1183.82
-22.9224 1084.18 1188.43
-23.8846 1083.75 1189.87
-26.7666 1085.13 1190.68
-27.8915 1085 1192.03
-4.36438 1068.32 1224.55
-7.19689 1067.12 1227.55
-1.56784 1069.45 1221.78
-4.72033 1067.99 1225.34
-4.98762 1067.72 1225.98
-10.9884 1065.83 1231.13
-13.7726 1065.95 1230.66
-12.9518 1067.19 1227.5
-12.0289 1068.76 1224.05
6.47376 1077.04 1203.99
5.82657 1077.06 1204.26
4.41841 1076.12 1205.47
6.16284 1075.78 1206.37
7.82793 1076.44 1204.32
7.1736 1076.71 1204.42
9.56985 1077.21 1202.15
9.96938 1077.56 1201.51
8.24823 1077.82 1201.9
8.8484 1077.73 1201.72
5.80121 1077.79 1203.01
5.47993 1078.19 1202.27
3.02975 1077.21 1203.24
2.4988 1076.83 1203.94
-1.21122 1069.2 1222.18
-4.76947 1086.4 1171.68
-8.24322 1085.11 1173.74
-9.80275 1084.31 1175.66
-11.213 1083.96 1176.93
-13.4891 1083.57 1178.38
-15.2394 1082.89 1178.75
4.4589 1088.97 1164.39
-29.5384 1084.9 1193.01
-29.0496 1078.12 1193.64
-29.8157 1078.31 1193.65
-27.543 1076.58 1191.97
-25.6507 1079.28 1188.9
-27.2905 1075.87 1192.59
-27.98 1072.64 1194.56
-29.7673 1065.33 1199.65
-28.4348 1067.07 1197.76
-28.048 1066.61 1197.63
-27.435 1069.83 1196.19
-27.0503 1066.41 1197.41
-21.4162 1080.87 1183.1
-19.2288 1080.34 1181.06
-22.4099 1080.82 1184.52
5.25342 1088.67 1163.11
4.83648 1088.83 1163.68
5.83649 1087.96 1160.98
6.01215 1088.23 1161.71
6.52582 1087.4 1160.23
3.7469 1084.26 1162.31
2.9477 1084.91 1162.2
3.14607 1085.82 1162.48
3.76418 1087.36 1162.66
4.77393 1088.33 1162.92
4.96336 1085.91 1161.48
5.23708 1086.34 1161.21
13.7107 1088.23 1161.55
28.6328 1075.7 1174.34
28.3336 1076.83 1174.49
60.3016 1039 1230.84
61.0798 1039.45 1231.53
61.5758 1039.52 1231.78
62.7058 1039.99 1230.2
61.0815 1038.48 1231.19
61.3461 1037.5 1232.29
60.8751 1033.17 1233.18
60.5433 1027.94 1233.84
60.1135 1028.42 1232.82
59.5787 1030.89 1230.48
56.6785 1036.53 1223.48
58.6418 1032.04 1227.72
55.9531 1041.03 1220.92
58.0431 1041.3 1226.25
61.7611 1039.92 1229.48
56.2644 1044.21 1219.02
55.7974 1044.22 1218.75
55.0957 1044.09 1218.36
53.5625 1044.86 1216.75
62.3698 1069.43 1221.82
63.4053 1071.06 1219.04
63.3998 1063.56 1225.75
63.1721 1067.97 1223.78
63.2599 1069.56 1221.61
64.134 1066.6 1224.94
-89.2217 1107.62 1240.27
-89.313 1105.63 1243.36
-87.4263 1107.93 1237.78
-89.2257 1109.74 1237.39
-88.7996 1109.29 1238.17
-89.2247 1108.96 1238.83
-99.6574 1113.18 1266.03
-105.992 1112.84 1264.34
-106.056 1112.93 1261.5
-105.812 1112.32 1259.97
-104.674 1111.06 1257.3
-104.86 1110.94 1258.17
-104.49 1111.32 1256.6
-105.412 1111.89 1258.75
-103.987 1112.23 1254.77
-104.107 1111.95 1255.3
-104.293 1111.64 1255.94
-96.0153 1107.47 1248.16
-100.488 1107.83 1251.26
-103.849 1111.74 1254.24
-94.0576 1105.15 1245.45
-92.6479 1104.96 1244.8
-92.1932 1105.25 1244.71
-90.6196 1105.63 1243.69
-89.705 1105.43 1243.76
-86.865 1107.41 1237.39
-83.7022 1106.67 1233.09
-84.9428 1107.43 1234.06
-86.0209 1107.3 1236.1
-46.0918 1074.4 1228.67
-45.873 1075.4 1227.89
-46.5276 1075.53 1227.77
-47.4487 1075.8 1228.26
-47.4005 1079.77 1228.89
-47.1457 1081.3 1228.86
-47.0895 1075.04 1228.26
-46.889 1083.75 1228.41
-47.1193 1083.3 1229.2
-47.3675 1074.08 1229.5
-47.1154 1084.28 1228.53
-46.5195 1085 1228.65
-45.0671 1087.33 1227.11
-44.9525 1086.56 1227.72
-45.7461 1086.24 1228.48
-45.4908 1087.58 1226.12
-45.6146 1091.55 1224.72
-44.7795 1092.37 1223.78
-47.2885 1084.41 1229.57
-47.3135 1082.25 1229.44
-48.0587 1073.69 1229.34
-47.6038 1074.51 1228.75
-48.5499 1073.18 1230.1
-44.4719 1088.18 1229.23
-45.5642 1087.8 1230.08
-46.2285 1086.92 1230.46
-43.8226 1088.93 1228.52
-43.1517 1088.69 1227.57
-43.4174 1089.2 1228.08
-43.922 1089.44 1228.42
-43.3503 1089.86 1227.79
-43.2041 1090.3 1227.36
-43.5044 1091.01 1227.04
-42.6342 1092.93 1224.44
-73.7539 1098.3 1231.35
-75.2091 1094.22 1229.85
-74.9144 1093.05 1228.77
-74.3328 1090.91 1228.51
-70.9256 1089.93 1225.44
-74.1294 1095.13 1230.78
-75.344 1095.44 1230.76
-72.9404 1095.61 1231.32
-73.3869 1096.28 1231.59
-64.275 1084.93 1221.23
-67.3966 1087.85 1223.52
-63.1373 1079.28 1222.11
-67.9986 1088.39 1224.15
-69.2137 1088.01 1224.81
-70.8733 1089.43 1225.59
-58.2343 1085.23 1216.86
-58.7274 1084.38 1217.75
-59.4884 1083.55 1218.56
-57.1254 1086.45 1214.86
-55.3762 1086.95 1211.78
-50.6588 1084.7 1207.33
-48.8267 1083.11 1206.69
-48.2644 1083.07 1206.27
-49.1275 1086.59 1205.98
-79.9252 1098.86 1234.04
-79.5305 1098.27 1234.05
-81.9032 1097.52 1234.79
-81.1913 1098.53 1234.99
-79.8478 1097.49 1234.53
-77.3965 1096.2 1231.46
-80.4534 1096.25 1234.33
-78.6642 1095.8 1232.12
-80.8138 1101.68 1233.73
-80.9213 1100.48 1233.94
-82.1711 1099.83 1235.15
-82.6943 1098.56 1235.31
-82.5047 1099.24 1235.4
-82.7539 1103.1 1233.18
-81.4095 1104.89 1233.24
-83.8707 1105.34 1232.61
-83.6069 1105.76 1232.79
-50.6577 1088.12 1207.64
-49.525 1087.81 1206.42
-55.0567 1093.25 1211.59
-55.3109 1092.85 1211.89
-43.9591 1092.22 1223.33
-54.4065 1093.78 1210.79
-53.8253 1094.74 1210.4
-53.5776 1095.13 1210.17
-54.4494 1101.16 1215.76
-55.0222 1095.24 1211.64
-54.4507 1094.63 1210.47
-54.1295 1094.28 1210.63
1.72823 1078.81 1196.88
-3.43049 1076.16 1204.02
-7.32326 1071.31 1210.66
-7.67557 1075.68 1210.8
0.569852 1078.79 1198.17
-9.69203 1069.42 1214.54
-10.1745 1069.51 1219.23
-12.8352 1069.03 1219.81
-13.6237 1068.77 1219.9
-12.3989 1069.22 1218.4
-13.9163 1068.91 1219.11
-6.13924 1069.43 1220.65
-4.45462 1068.97 1222.15
-10.5488 1068.57 1222.02
-11.5713 1068.94 1220.82
-9.2524 1086.68 1177.27
-5.09282 1088.75 1173.99
-4.84273 1088.32 1173.57
-11.9816 1085.96 1179.28
-11.3798 1085.96 1178.76
-13.2473 1086.53 1182.29
-12.5386 1085.93 1180.6
-13.6976 1086.45 1182.73
-23.4999 1083.02 1189.35
-23.9028 1083.2 1189.75
-6.78386 1066.79 1228.26
-8.77986 1066.11 1230.42
-6.41995 1066.61 1228.57
-13.051 1063.81 1237.36
-14.8792 1064.38 1235.53
-18.2451 1065.01 1233.95
-17.8116 1065.61 1232.18
-17.2976 1066.11 1230.54
-18.8292 1065.67 1232.04
-13.9547 1067.49 1227.04
-13.1282 1069.45 1223.69
-14.3299 1067.92 1226.28
-4.41134 1067.68 1225.96
-2.5522 1068.58 1223.52
5.94284 1077.59 1203.45
6.56968 1077.47 1203.58
4.80236 1077.52 1203.55
5.09751 1076.87 1204.65
6.90533 1077.85 1202.7
7.04658 1076.3 1205.69
9.2785 1077.22 1202.84
6.62201 1078.16 1202.08
7.68178 1077.96 1202.1
9.11176 1077.54 1202.35
3.66302 1077.6 1202.67
5.00118 1078.01 1202.44
3.50842 1077.51 1203.37
-2.55116 1068.46 1224.03
-2.73176 1068.21 1224.54
-3.37363 1067.77 1225.49
-12.858 1083.56 1178.27
-14.5432 1082.95 1179.37
-16.9648 1082.02 1179.37
-28.171 1079.25 1193.56
-27.1968 1078.1 1189.93
-26.959 1076.31 1192.66
-25.6553 1071.63 1195.74
-22.9518 1080.33 1186.5
-24.3855 1079.65 1188.02
-28.8172 1060.38 1200.91
-28.0765 1059.31 1200.94
-24.6533 1065.31 1198.39
-27.1767 1059.35 1200.45
-17.3349 1081.99 1180.32
-20.0145 1080.03 1181.86
-22.356 1080.67 1185.14
10.58 1088.1 1163.34
5.50415 1088.27 1162.37
5.91524 1087.44 1161.14
5.66577 1087.76 1161.68
1.95865 1085.39 1162.77
2.47827 1084.64 1162.11
4.89729 1087.13 1161.94
5.10483 1087.84 1162.26
1.90075 1085.93 1162.7
4.79179 1085.36 1161.71
3.83675 1083.67 1162.14
4.31776 1083.88 1162.29
27.8583 1076.65 1174.61
27.8381 1077.28 1174.59
27.2655 1076.36 1174.79
61.6758 1038.73 1232.34
61.7589 1039.55 1232.85
64.5281 1040.52 1229.03
65.428 1040.57 1229.77
61.429 1037.04 1233.31
60.9699 1032.46 1235.39
60.7536 1024.75 1236.76
60.55 1022.5 1236.92
60.3809 1021.85 1236.5
59.7604 1027.19 1232.74
60.1989 1021.81 1235.92
59.2408 1026.71 1232.23
56.4879 1035.99 1223.48
58.2027 1031.96 1226.77
58.9357 1029 1229.81
56.2116 1039.08 1221.46
55.8474 1042.43 1220.39
60.0968 1040.38 1227.9
63.9777 1040.55 1228.19
56.1106 1042.74 1220.06
54.6262 1044.23 1218.2
53.7754 1044.41 1217.57
64.297 1071.13 1218.7
63.754 1064.37 1225.29
64.3372 1067.93 1224.22
64.1218 1069.57 1221.69
64.6273 1066.77 1224.82
-89.7198 1108.38 1239.53
-89.9161 1106.87 1241.72
-88.786 1108.79 1237.18
-89.36 1109.99 1237.87
-89.7584 1110.02 1238.32
-89.2303 1109.96 1238.59
-89.5531 1109.28 1239.08
-97.8729 1112.87 1268.84
-102.569 1114.26 1273.89
-105.703 1114.54 1273.09
-107.872 1113.99 1269.95
-110.515 1113.07 1265.9
-109.817 1112.88 1265.08
-107.845 1112.89 1263.1
-107.62 1113.36 1262.5
-106.927 1113.96 1261.12
-107.381 1113.78 1262.22
-106.406 1113.06 1260.16
-105.362 1112.27 1258.24
-105.22 1112.61 1257.56
-104.911 1113.7 1256.07
-105.065 1112.91 1256.89
-97.1518 1106.23 1248.27
-95.7628 1105.61 1246.86
-95.3889 1105.13 1246.14
-100.608 1107.46 1250.91
-103.921 1112.2 1254
-94.7558 1104.52 1245.29
-93.5508 1104.28 1244.91
-92.8853 1104.48 1244.65
-91.4597 1105.46 1244.09
-90.4981 1105.83 1243.19
-88.2005 1107.95 1236.9
-84.3245 1106.9 1233.07
-85.4298 1107.05 1234.18
-86.9007 1107.19 1236.2
-46.6934 1074.52 1228.32
-46.1682 1074.7 1227.98
-47.1551 1074.01 1228.77
-44.5675 1087.55 1227.47
-45.0279 1087.69 1226.64
-44.5568 1086.93 1228.12
-45.2497 1089.31 1224.85
-45.4216 1090.68 1224.66
-45.1286 1092.03 1224.38
-44.6703 1086.92 1228.87
-47.9602 1072.85 1229.63
-46.7024 1073.51 1228.97
-43.5607 1088.14 1228.22
-45.1754 1087.25 1229.68
-44.2825 1087.39 1228.94
-43.5754 1088.42 1227.35
-43.6686 1088.68 1226.55
-43.143 1089.15 1226.36
-43.0546 1089.39 1227.7
-42.721 1089.17 1227.17
-42.3479 1089.79 1226.9
-42.4986 1091.08 1226.12
-42.5896 1091.97 1225.43
-75.1514 1092.61 1228.54
-76.8758 1093.58 1228.98
-77.639 1094.86 1229.87
-75.4945 1091.98 1228.77
-64.1418 1085.58 1221.29
-64.1573 1083.17 1223.76
-64.456 1081.45 1223.85
-65.9475 1086.92 1222.39
-66.2469 1079.36 1228.18
-70.9841 1088.32 1225.84
-73.0814 1089.97 1227.36
-57.5767 1085.56 1216.3
-56.2161 1085.71 1214.88
-56.0598 1086.58 1213.48
-54.6559 1086.26 1211.27
-53.4026 1085.6 1209.11
-49.8317 1083.64 1207.32
-48.9855 1082.74 1207.05
-47.603 1081.13 1206.89
-46.3871 1079.2 1205.99
-48.8142 1085.36 1205.63
-81.4802 1097.44 1235.13
-83.4653 1097.49 1235.12
-82.908 1096.18 1234.06
-81.9424 1096 1233.52
-81.6068 1096.13 1234.07
-81.4367 1096.48 1234.74
-80.9011 1095.75 1233.8
-79.249 1095.46 1232.02
-82.9718 1102.33 1233.41
-82.8234 1099.69 1235.54
-83.271 1098.62 1235.35
-83.163 1099.19 1235.42
-84.2817 1104.26 1232.88
-84.0539 1104.75 1232.65
-84.4106 1103.71 1233.03
-84.3961 1106.33 1232.85
-84.3463 1105.53 1232.76
-51.9517 1089 1208.81
-49.1778 1087.21 1206
-48.9263 1086.21 1205.51
-54.974 1092.12 1210.79
-42.0644 1092.84 1223.47
-42.722 1092.49 1223.32
-43.0884 1091.87 1223.42
-43.942 1091.78 1223.75
-54.4301 1092.78 1210.2
-54.1636 1093.35 1210.1
-53.9551 1093.84 1210.01
-53.7432 1094.34 1209.93
-55.2083 1096.38 1212.91
-55.0577 1094.61 1211.01
-54.8932 1094.11 1210.6
-2.79784 1077.18 1202.64
-7.31756 1073.52 1210.57
0.926583 1079.29 1197.35
-12.0676 1069.45 1216.45
-11.9036 1069.35 1219.61
-16.2943 1067.55 1222.77
-14.403 1068.19 1222.06
-15.7945 1067.88 1220.8
-16.7181 1067.27 1222.66
-15.4534 1067.89 1221.42
-10.2717 1067.9 1223.75
-7.30507 1067.45 1225.51
-9.082 1067.61 1224.74
-17.3815 1066.46 1225.05
-17.3559 1066.69 1224.56
-17.9226 1066.76 1224.21
-15.2983 1069.05 1220.07
-6.87785 1088.35 1175.47
-6.73943 1087.57 1174.77
-9.20251 1086.12 1177.14
-12.05 1085.43 1179.16
-12.867 1085.92 1182.37
-13.6661 1085.89 1183.27
-16.0652 1085.91 1183.93
-20.9023 1084.29 1187.51
-23.652 1082.53 1189.55
-11.4051 1064.34 1235.76
-6.11784 1066.32 1229.2
-6.76566 1066.06 1230.45
-13.3687 1063.2 1240.49
-16.5607 1063.33 1239.78
-15.1349 1063.12 1241.69
-19.4115 1063.25 1238.74
-19.5787 1063.96 1236.33
-20.5032 1064.53 1233.84
-20.0234 1065 1233.11
-17.6684 1066.31 1230.02
-19.2798 1066.03 1231.24
-19.8667 1065.53 1232.03
-16.3512 1066.84 1228.04
-14.8036 1068.32 1225.74
-15.3239 1069.44 1224.82
-16.5187 1067.06 1227.46
6.36626 1077.85 1202.82
7.18688 1076.6 1205.28
8.8143 1077.21 1203.28
7.29018 1077.44 1203.61
7.85588 1077.73 1202.75
8.61284 1077.64 1202.45
-4.8324 1067.37 1226.67
-4.74004 1067.12 1227.18
-4.75376 1066.8 1227.86
-6.95607 1066.93 1226.93
-8.30009 1085.1 1174.46
-14.1205 1083.19 1179.56
-16.2255 1082.26 1180.23
-16.4139 1082.2 1179.46
-28.6024 1078.35 1193.61
-26.4559 1078.36 1190.11
-27.1044 1077.23 1191.55
-25.1074 1079.38 1189.37
-25.7815 1078.77 1190.12
-24.6593 1071.75 1195.65
-23.8132 1079.86 1187.7
-28.9896 1056.08 1202.32
-18.2753 1066.26 1197.91
-24.5202 1063 1199.49
-26.3331 1057.94 1200.96
-19.3126 1058.08 1201.64
-22.3317 1057.8 1202.04
-28.9266 1053.19 1202.89
-22.5764 1080.37 1184.31
-20.5416 1079.88 1182.31
-19.3712 1079.88 1181.21
-18.7147 1080.84 1180.24
-21.6985 1080.58 1185.12
-22.4755 1080.55 1186.19
5.51916 1087.14 1160.91
3.3865 1083.62 1161.92
3.32149 1085.52 1162.03
5.14982 1084.83 1161.63
4.734 1084.33 1162
4.22008 1083.29 1162.17
27.2527 1077.48 1174.81
26.6398 1076.71 1175.01
27.8965 1078.03 1174.68
61.4637 1038.14 1233.95
61.3996 1038.29 1234.72
61.9886 1039.85 1233.37
63.3658 1039.88 1231.57
67.6055 1041.17 1228.61
66.8917 1041.17 1227.8
60.8431 1027.01 1239.78
58.5763 1025.38 1232.14
59.9803 1021.48 1235.56
58.0726 1031.47 1226.37
58.3098 1028.2 1228.8
57.9599 1024.76 1231.83
55.7785 1039.12 1221.07
55.4233 1040.77 1220.64
58.1397 1041.62 1226.69
65.6386 1041.11 1227.12
54.7528 1042.98 1219.76
53.1277 1044.62 1217.14
54.1191 1042.99 1219.53
64.9205 1069.7 1221.15
65.0238 1071.23 1218.36
64.6578 1064.85 1224.32
64.8581 1067.78 1224.27
-89.968 1109.16 1239.41
-90.2614 1108.73 1239.67
-90.5513 1107.61 1240.95
-89.6315 1109.09 1237.61
-89.9392 1109.64 1237.91
-90.3468 1110.04 1238.44
-89.8191 1109.8 1239.26
-100.685 1114.03 1275.39
-97.558 1112.95 1273.74
-108.554 1115.33 1277.76
-113.083 1115.12 1274.48
-110.547 1114.47 1272.64
-110.523 1113.34 1267.35
-108.593 1114.21 1261.67
-107.849 1115.06 1261.38
-108.12 1114.62 1261.68
-106.933 1114.15 1260.07
-106.11 1113.2 1259.08
-105.998 1113.66 1258.35
-104.624 1114.11 1255.55
-105.741 1114.9 1257.47
-106.093 1114.41 1258.12
-96.7119 1105.99 1247.78
-96.2483 1105.19 1246.75
-103.655 1110.28 1253.66
-101.162 1107.37 1251.04
-98.5047 1106.48 1248.98
-103.746 1112.84 1254.04
-104.116 1114.12 1254.76
-95.3593 1104.27 1245.03
-96.2152 1102.89 1245.17
-93.939 1103.7 1244.86
-93.4242 1103.81 1244.64
-87.2867 1106.87 1236.22
-46.1289 1073.78 1228.64
-45.6125 1074.27 1228.36
-47.6188 1073.24 1229.49
-44.0256 1087.95 1227.7
-44.0732 1087.45 1228.33
-45.4061 1087.92 1225.56
-44.4197 1091.56 1224.2
-45.0657 1091.34 1224.5
-48.6281 1072.48 1230.06
-48.4297 1071.97 1229.71
-46.9307 1073.04 1229.06
-44.5014 1087.95 1226.91
-44.1627 1088.52 1226.06
-44.0403 1088.86 1225.44
-42.6967 1089.37 1226.64
-43.502 1089.26 1225.42
-42.5361 1089.83 1225.88
-41.9582 1090.28 1226.08
-42.1074 1093.17 1223.92
-77.6445 1093.57 1229.63
-78.1333 1094.19 1229.99
-77.4479 1093.03 1229.45
-64.2234 1084.08 1223.6
-66.2151 1082.28 1227.78
-64.7826 1084.16 1226.1
-67.4206 1087.42 1224.01
-68.0996 1087.59 1224.4
-66.3523 1086.82 1222.86
-66.9464 1087.2 1223.48
-69.6207 1078.67 1232.67
-71.8986 1076.43 1234.86
-69.9574 1080.92 1232.49
-70.4147 1087.74 1225.58
-71.266 1088.11 1226.2
-73.3117 1089.46 1227.68
-73.9508 1089.53 1228.24
-74.851 1090.5 1228.78
-53.3303 1085.04 1209.41
-52.1894 1085.05 1208.4
-48.6858 1081.78 1207.53
-48.1965 1081.06 1207.48
-47.145 1079 1206.88
-45.3517 1078.6 1205.02
-46.6484 1076.41 1206.84
-46.6039 1077.19 1206.63
-46.1528 1080.17 1205.63
-46.1973 1079.58 1205.65
-48.4668 1085.41 1205.16
-83.9416 1097.62 1235.04
-83.8721 1096.43 1234.56
-82.6672 1095.43 1234.27
-81.4155 1095.76 1233.47
-80.8983 1095.63 1233.3
-81.3524 1100.99 1233.92
-81.6533 1100.16 1234.49
-82.497 1100.43 1234.76
-83.6263 1100.57 1235.94
-84.4869 1099.09 1235.75
-83.941 1099.75 1235.79
-84.6761 1101.02 1236.7
-84.0287 1098.7 1235.38
-85.0612 1104.34 1233.27
-84.883 1105.03 1233.12
-85.6284 1106.48 1233.86
-85.0215 1106.02 1233.18
-54.27 1089.35 1210.2
-51.2354 1089.02 1208.21
-48.9541 1087.73 1206.08
-48.6822 1086.95 1205.61
-48.6312 1086.01 1205.04
-54.6779 1092.44 1210.48
-55.0182 1091.61 1210.44
-55.5136 1090.55 1210.86
-42.4186 1092.05 1223.53
-41.7647 1092.65 1224.07
-43.5152 1091.4 1223.78
-55.3264 1098.38 1214.41
-55.4523 1095.25 1212.11
-55.5881 1094.17 1211.12
-55.4133 1093.56 1210.91
-8.27354 1072.51 1211.55
-10.0817 1069.49 1213.56
1.50063 1079.85 1196.36
-18.2581 1066.69 1223.81
-15.3463 1066.55 1225.65
-13.5464 1066.53 1226.33
-12.9528 1066.51 1226.91
-18.9034 1066.23 1224.86
-19.8544 1065.91 1224.73
-16.7002 1067.61 1222.12
-16.6567 1068.18 1222.01
-5.17774 1087.83 1173.61
-6.86195 1086.99 1174.59
-10.3341 1085.28 1178
-11.5887 1085.31 1178.8
-12.7838 1085.37 1182.44
-16.2539 1085.05 1184.32
-13.4215 1085.27 1183.37
-21.1314 1083.59 1187.71
-10.9015 1064.37 1235.72
-12.7501 1063.21 1240.27
-6.95027 1065.74 1231.2
-14.608 1062.94 1244.12
-13.781 1063.01 1244.22
-18.896 1062.87 1243.8
-21.4682 1062.61 1240.95
-16.1301 1063.06 1246.92
-21.1372 1063.24 1237.67
-20.836 1064.05 1235
-21.7865 1066.37 1231.67
-19.1899 1066.36 1230.83
-20.2189 1066.82 1230.85
-21.3292 1066.72 1231.3
-14.9697 1069.97 1224.5
-16.4898 1068.65 1225.8
-16.9374 1067.13 1227.07
-17.582 1067.06 1227.93
-5.83744 1066.59 1228.46
7.63615 1076.9 1203.67
7.9764 1077.37 1203.68
8.25563 1077.56 1203.06
-5.5354 1066.35 1228.99
-6.03619 1065.98 1230.24
-7.73379 1065.91 1231.08
-12.56 1065.18 1231.96
-12.4608 1066.04 1229
-16.9337 1064.79 1232.47
-4.96283 1086.44 1172.23
-8.28132 1085.28 1175.07
-9.59917 1084.36 1176.22
-15.1877 1082.61 1180.48
-15.6524 1082.34 1180.28
-16.8715 1082.17 1181.15
-29.0486 1078.69 1193.61
-26.8673 1077.63 1191.31
-23.1042 1075.54 1193.89
-16.9815 1073.12 1194.22
-9.61386 1066.59 1196.91
-11.9403 1058.4 1200.8
-24.7827 1055.99 1202.47
-28.4483 1052.24 1203.14
-13.9718 1051.3 1204.06
-19.734 1049.27 1205.74
-22.7652 1050.2 1205.58
-23.9798 1050.7 1205.42
-20.8348 1079.55 1182.59
-19.6434 1079.28 1181.45
5.91432 1086.52 1160.68
1.50302 1085.6 1162.93
5.28556 1084.34 1161.68
5.69548 1085.92 1161.05
6.17846 1086.92 1160.49
61.696 1039.48 1234.92
61.2794 1038.09 1235.89
62.0452 1040.09 1234.02
64.7289 1039.79 1234.35
69.9705 1041.81 1227.42
69.3583 1041.82 1226.6
59.3545 1020.83 1235.19
56.3408 1034.4 1224.19
55.7076 1036.39 1222.74
57.5895 1031.59 1225.84
56.7975 1034.22 1224.94
55.9583 1034 1224.41
57.5971 1027.48 1227.8
57.0413 1026.4 1229.72
57.5195 1024.07 1231.75
57.5476 1022.66 1233.53
55.116 1039.28 1220.68
58.5108 1041.84 1227.48
59.8945 1040.85 1227.98
63.0219 1041.06 1227.1
68.9021 1041.97 1225.87
55.0861 1042.29 1220.09
52.2804 1044.82 1216.99
53.11 1043.28 1218.69
52.7485 1042.73 1219.26
53.7093 1042.47 1219.93
65.4565 1069.49 1220.91
65.851 1069.9 1219.81
65.2253 1067.77 1223.69
64.9577 1066.75 1224.4
-90.3851 1109.54 1239.67
-90.6161 1108.97 1239.93
-91.1153 1107.98 1240.69
-91.0634 1108.81 1240.25
-90.2437 1109.02 1237.9
-90.6378 1109.6 1238.34
-90.9633 1110.4 1238.99
-90.3455 1110.57 1239.33
-89.9792 1110.32 1238.86
-104.824 1114.79 1277.2
-99.6756 1113.51 1277.08
-112.452 1115.73 1277.59
-108.413 1114.86 1278.57
-116.228 1115.51 1275.93
-114.466 1116.16 1271.83
-113.567 1114.48 1271.21
-113.238 1114.49 1272.71
-111.912 1114.02 1270.85
-111.189 1113.85 1269.41
-110.684 1113.05 1264.77
-109.93 1113.47 1263.03
-109.393 1114.24 1261.77
-109.183 1114.06 1261.23
-108.767 1114.12 1260.76
-107.999 1116.01 1261.14
-107.031 1114.84 1259.78
-104.582 1114.65 1255.44
-105.281 1115.27 1256.64
-106.418 1116.23 1258.59
-106.874 1115.72 1259.42
-97.7683 1105.84 1248.3
-103.854 1109.73 1253.67
-101.37 1106.01 1251
-99.058 1105.36 1248.48
-104.598 1115.17 1255.5
-97.001 1104.17 1246.98
-95.7702 1102.65 1245.13
-96.8641 1103.31 1246.92
-96.7181 1101.69 1244.95
-99.7186 1101.13 1246.28
-99.5508 1101.87 1246.24
-93.9551 1103.19 1244.67
-97.3618 1101.03 1245.29
-90.9406 1105.97 1242.95
-88.8854 1107.89 1236.92
-86.7988 1106.55 1235.36
-88.5128 1106.85 1236.81
-45.4479 1073.52 1228.19
-46.0765 1072.95 1228.54
-44.7488 1088.13 1226.02
-44.9502 1089.58 1224.52
-44.7176 1090.58 1224.37
-47.9835 1072.02 1229.41
-46.9695 1072.49 1229.04
-48.8032 1071.62 1230.01
-48.453 1071.46 1229.55
-44.9967 1088.44 1225.04
-44.5415 1088.68 1225.01
-44.1219 1089.73 1224.3
-43.1439 1089.39 1225.76
-43.4499 1090.42 1224.13
-42.7672 1091 1224.1
-42.2277 1091.27 1224.76
-41.7245 1091.44 1225.41
-41.5645 1092.58 1224.71
-78.208 1093.4 1230.22
-78.3242 1093.91 1230.36
-79.2225 1095.09 1231.39
-80.4891 1095.42 1232.44
-77.7338 1092.86 1229.86
-64.3255 1084.63 1223.51
-64.6398 1084.51 1225.66
-68.0596 1082.91 1229.62
-65.7934 1084.22 1226.68
-65.164 1086.35 1221.95
-67.0532 1086.91 1224.07
-74.5517 1080.78 1237
-75.6986 1079.04 1238.38
-77.2694 1079.28 1239.75
-78.2847 1074.17 1241.1
-74.8174 1083.2 1236.45
-70.6751 1087.46 1226.03
-74.2391 1089.4 1228.7
-73.1732 1088.15 1228.34
-76.2636 1091.07 1229.4
-75.9743 1091.42 1229.13
-55.7993 1085.78 1214.49
-55.5011 1086.24 1213.15
-54.2263 1085.9 1210.98
-51.8701 1084.59 1208.51
-49.5381 1083.04 1207.68
-48.7473 1081.53 1207.99
-48.0398 1079.15 1207.89
-47.4465 1078.8 1207.27
-47.7235 1076.8 1208.12
-45.1868 1078.98 1204.54
-46.0207 1075.52 1206.1
-47.6957 1076.27 1208.21
-45.9145 1079.78 1205.24
-45.6141 1079.47 1204.67
-47.7523 1083.09 1205.87
-84.4505 1097.38 1235.07
-84.1666 1095.71 1234.94
-82.3604 1095 1234.65
-80.9627 1094.41 1234.37
-81.7246 1095.57 1233.01
-84.7474 1103.33 1233.3
-82.1269 1100.75 1234.15
-85.2301 1103.76 1233.42
-83.169 1100.64 1235.36
-84.224 1101.25 1236.49
-85.5083 1100.38 1236.72
-84.5392 1098.03 1235.68
-83.9798 1096.03 1237.59
-85.3108 1098.33 1237.93
-85.3881 1102.43 1237.63
-85.338 1101.63 1237.32
-85.8875 1101.35 1237.41
-85.4202 1104.71 1233.48
-85.6556 1104 1233.68
-85.4427 1105.51 1233.47
-86.7294 1106.01 1234.61
-87.5195 1106.33 1235.87
-55.4127 1089.82 1210.74
-52.4419 1089.28 1209.49
-49.6407 1088.35 1206.78
-48.9881 1088.53 1206.09
-48.6661 1087.45 1205.73
-48.583 1086.57 1205.3
-42.2338 1091.94 1224.06
-41.8819 1092.19 1224.55
-41.2535 1092.62 1225.46
-54.6017 1093.2 1210.79
-56.0131 1097.79 1214.24
-55.3122 1092.75 1210.84
-55.7224 1093.07 1211.14
-2.93857 1077.74 1202.38
0.0598935 1079.26 1198.31
-0.762306 1079.2 1199.22
-8.35624 1073.29 1212.02
-12.5733 1070.52 1215.91
-12.1136 1069.89 1215.95
-19.5777 1066.22 1224.3
-20.2038 1065.32 1225.61
-18.8285 1065.85 1226.1
-18.7069 1066 1226.84
-15.3548 1066.3 1227.56
-19.8365 1065.66 1225.2
-20.3849 1065.6 1224.62
-20.7648 1065.23 1224.84
-18.3634 1067.09 1223.4
-5.28912 1087.03 1173.4
-7.98308 1086.31 1175.8
-9.20144 1085.21 1176.94
-11.7147 1084.82 1178.9
-12.554 1085.22 1180.39
-13.0715 1084.92 1182.63
-15.2106 1085.28 1183.29
-17.6083 1084.33 1185.08
-18.9189 1083.68 1186.25
-13.9846 1085.16 1183.86
-23.4796 1081.75 1189.24
-21.0074 1082.66 1187.58
-11.1422 1064.02 1236.89
-13.3124 1062.97 1243.49
-7.02035 1065.49 1231.69
-8.11122 1065.4 1232.69
-12.1705 1063.5 1250.99
-9.75106 1063.42 1249.69
-19.9169 1062.93 1249.92
-24.1547 1061.98 1244.13
-22.1504 1062.64 1239.51
-14.1283 1063.79 1254.82
-21.9977 1063.52 1236.44
-21.4223 1064.12 1234.71
-20.832 1067.98 1229.95
-19.2521 1066.91 1230.53
-18.2326 1066.56 1229.8
-20.1672 1067.87 1229.96
-16.8376 1069.67 1225.46
-17.1188 1068.53 1226.38
-17.891 1069.09 1226.66
-17.9396 1067.76 1227.7
-19.0559 1067.27 1229.18
-6.43677 1065.79 1230.76
-8.07421 1064.99 1233.48
-8.74506 1065.25 1232.43
-17.0567 1063.91 1235.54
-18.4618 1063.91 1235.17
-20.1095 1063.84 1234.96
-18.8062 1065.83 1228.49
-19.1739 1064.83 1231.91
-5.15584 1086.76 1172.84
-9.49571 1084.55 1176.69
-11.0613 1084.08 1177.47
-12.5495 1083.79 1178.69
-14.8362 1082.86 1180.79
-17.8919 1081.88 1181.56
-27.8106 1078.84 1193.43
-27.8564 1079.69 1193.52
-20.225 1075.55 1193.49
-22.3999 1076.8 1193.03
-17.2746 1075.81 1192.86
-12.6998 1073.28 1193.8
-22.5659 1080.48 1186.97
-22.114 1080.56 1186.7
-4.86852 1068.05 1196.11
-7.73168 1073.01 1193.94
-4.74802 1060.31 1198.61
-8.62044 1053.12 1202.38
-24.8572 1051.35 1205.12
-25.695 1051.01 1205.16
-27.3483 1051.19 1204.18
-11.307 1044.08 1206.28
-20.3581 1044.81 1207.66
-23.104 1045.36 1207.61
-19.0005 1080.83 1180.89
-18.4952 1081.52 1181.59
-21.4281 1080.38 1183.94
1.34143 1086.1 1163.48
3.24724 1084.74 1161.79
3.18969 1084.34 1162.1
1.92308 1084.78 1162.67
1.29433 1084.98 1162.58
5.68063 1084.63 1161.38
5.11914 1083.74 1161.92
6.22743 1085.66 1160.81
6.69158 1086.89 1160.2
7.11105 1087.21 1159.99
61.7865 1039.49 1235.61
61.919 1040.03 1235.6
63.0561 1040.19 1234.61
67.2827 1039.85 1235.77
72.5323 1042.5 1226.13
72.7585 1042.7 1225.17
59.0342 1020 1235.13
54.5029 1034.22 1223.91
58.0203 1028.08 1226.63
55.9111 1033.32 1225.6
55.1275 1033.83 1224.57
56.3174 1025.82 1229.3
56.3632 1026.84 1228.11
56.8241 1022.4 1233.43
56.9806 1024.01 1231.53
55.0173 1038.62 1220.79
54.5497 1039.38 1220.48
54.9221 1040.55 1220.31
62.9856 1041.39 1226.62
54.3913 1042.53 1219.7
51.2628 1043.3 1218.21
51.8188 1041.04 1219.68
50.9561 1039.11 1220.44
52.7863 1041.01 1219.93
66.2988 1069.35 1220
64.8128 1063.99 1224.72
65.7576 1067.45 1223.15
65.6242 1066.69 1223.6
-91.0609 1110.21 1239.8
-91.1492 1109.6 1240.05
-91.8172 1108.19 1240.89
-92.1501 1108.71 1240.83
-90.78 1106.4 1242.65
-92.5345 1109.16 1240.88
-89.5239 1108.57 1237.28
-90.0752 1108.63 1237.56
-90.7499 1108.51 1237.95
-90.9887 1109.04 1238.33
-91.2922 1109.53 1238.74
-91.6858 1110.47 1239.51
-91.7624 1109.77 1239.25
-91.1385 1110.82 1239.69
-89.9534 1111.3 1239.75
-90.38 1110.87 1239.77
-98.3496 1112.89 1278.2
-107.363 1114.43 1278.87
-112.131 1116.13 1278.81
-117.023 1115.44 1276.16
-114.736 1117.67 1271.32
-113.595 1115.61 1270.31
-113.018 1114.59 1270.07
-112.402 1114.21 1270.21
-111.637 1113.44 1267.5
-111.18 1113.17 1265.81
-110.424 1113.31 1264.17
-110.078 1112.97 1264.45
-110.079 1113.09 1263.79
-109.788 1113.84 1262.39
-109.764 1113.76 1260.6
-108.512 1113.82 1259.73
-108.265 1117.15 1261
-105.472 1116.19 1256.93
-106.364 1117.23 1258.44
-107.341 1117.59 1259.94
-108.21 1117.75 1260.71
-95.6324 1109.18 1247.59
-95.2867 1109.51 1247.04
-94.2806 1108.36 1245.75
-104.215 1109.82 1254.15
-102.695 1105.69 1252.33
-102.106 1103.69 1250.48
-99.9603 1103.75 1249.48
-97.4602 1102.11 1245.14
-99.5098 1103.57 1249.07
-100.356 1100.65 1246.86
-100.027 1101.83 1246.79
-100.465 1101.61 1247.12
-99.4751 1102.57 1246.48
-94.94 1102.2 1244.75
-98.5146 1100.16 1245.87
-100.922 1100.22 1247.66
-91.3451 1105.3 1243.29
-90.7584 1105.8 1242.38
-94.4986 1101.9 1244.54
-47.5272 1072.49 1229.27
-46.0926 1072.16 1228.48
-46.8166 1072.01 1228.9
-47.9525 1071.2 1229.08
-41.8404 1090.89 1225.8
-41.8732 1091.88 1224.96
-78.5304 1093.33 1230.84
-80.9407 1095.34 1232.7
-77.6504 1092.2 1229.85
-77.4318 1092.51 1229.37
-79.0303 1092.67 1231.4
-79.4037 1093.05 1231.72
-64.4753 1085.03 1225.26
-69.3393 1083.85 1230.89
-73.9685 1084.24 1235.11
-66.3919 1084.68 1226.94
-65.5158 1086.18 1222.67
-64.4805 1085.48 1223.38
-69.2094 1087.47 1224.98
-66.2863 1086.44 1223.49
-77.4582 1082.94 1239.64
-77.3854 1084.29 1238.8
-78.303 1081.46 1240.61
-82.0267 1072.32 1246.21
-79.074 1080.59 1241.47
-72.3638 1087.56 1227.79
-70.7991 1087.17 1226.43
-74.553 1089.23 1229.11
-73.5989 1087.41 1229.17
-74.0405 1087.78 1229.18
-78.4355 1092.07 1231.01
-55.1246 1085.82 1213.17
-53.7275 1085.6 1210.64
-50.3767 1084.1 1207.54
-48.9021 1081.93 1208.34
-48.1981 1079.55 1208.17
-48.4302 1080.54 1208.59
-47.969 1077.14 1208.55
-44.661 1078.73 1204.17
-45.0269 1077.05 1204.97
-45.4399 1076.44 1205.43
-46.2906 1074.6 1206.53
-46.6907 1074.55 1207.19
-47.907 1075.84 1208.74
-47.978 1076.38 1208.89
-45.2917 1079.72 1203.68
-44.6543 1079.02 1203.69
-48.0556 1084.78 1205.18
-48.2106 1085.8 1204.72
-46.0819 1081.58 1205.6
-46.0399 1080.72 1205.53
-84.3409 1096.44 1235.99
-84.5733 1096.02 1235.01
-83.5987 1095.14 1235.78
-82.0642 1094.58 1234.9
-81.4928 1094.89 1234.02
-83.3361 1101.99 1233.53
-82.7727 1100.99 1234.36
-84.2628 1101.9 1236.66
-86.9093 1098.11 1239.78
-87.4098 1100.13 1239.51
-83.3182 1092.47 1238.59
-83.9498 1092.08 1238.99
-86.4419 1102.56 1238.28
-86.9549 1102.09 1238.27
-86.3423 1104.97 1234.17
-86.4592 1104.39 1234.27
-86.3038 1103.82 1234.13
-87.4773 1105.61 1235.1
-88.8312 1106.07 1236.68
-89.1129 1106.76 1236.92
-54.5829 1089.66 1210.61
-53.5682 1089.44 1210.44
-53.205 1089.37 1210.04
-50.7342 1089.08 1208.15
-51.3476 1089.23 1208.84
-50.7263 1088.62 1207.76
-50.043 1088.8 1206.97
-49.4427 1088.82 1206.33
-48.5269 1088.03 1205.86
-55.767 1094.44 1211.52
-55.6409 1091.88 1210.96
-3.11872 1078.6 1202.29
-11.0994 1070.91 1214.06
-15.3739 1069.57 1219.82
3.22342 1081.38 1194.64
1.02136 1080.8 1196.51
-0.423525 1079.75 1198.54
-20.4203 1065.89 1224.17
-21.946 1064.2 1225.07
-20.9525 1064.14 1229.68
-21.0184 1064.38 1231.15
-21.3669 1065.02 1224.05
-21.2624 1065.32 1224.57
-18.4002 1067.73 1223.16
-21.1806 1065.42 1225.1
-7.19196 1086.56 1174.61
-10.5701 1084.78 1178.01
-12.1771 1084.57 1179.24
-13.3134 1084.54 1182.33
-13.8768 1084.58 1183.98
-19.0044 1082.95 1186.29
-15.2966 1084.67 1183.32
-12.6853 1063.08 1240.93
-12.1011 1063.11 1245.5
-8.40813 1064.75 1234.21
-7.4371 1065.26 1232.52
-6.33354 1064.25 1259.97
-4.0999 1064.06 1257.16
-5.33241 1063.86 1254.49
-23.9079 1062.62 1254.61
-19.5307 1063.7 1260.09
-24.5867 1061.78 1249.62
-25.7115 1061.37 1248.14
-27.1009 1061.66 1246.23
-27.0789 1061.98 1245.25
-25.2692 1062.19 1242.41
-22.5941 1062.72 1238.99
-11.4103 1064.47 1263.15
-21.9033 1064.34 1234.18
-22.4958 1064.02 1235.11
-22.8459 1063.25 1237.28
-22.036 1066.02 1232.02
-19.7672 1067.17 1230.35
-20.1382 1068.49 1228.76
-19.6956 1067.74 1229.83
-19.6054 1068.27 1228.85
-16.3333 1070.17 1224.81
-17.6086 1069.6 1225.94
-18.3444 1068.86 1227.12
-14.9474 1070.58 1224.14
-7.66897 1065.11 1233.09
-9.233 1064.64 1234.57
-15.8583 1063.77 1236.32
-18.6618 1062.93 1237.18
-20.3935 1062.6 1236.72
-21.6681 1062.54 1236.16
-21.3427 1064.2 1232.6
-21.8081 1063.44 1233.98
-13.6056 1083.57 1179.97
-12.5267 1084.06 1179.14
-15.0715 1082.61 1181.22
-16.488 1082.31 1181.48
-17.3639 1082.11 1181.77
-27.2595 1079.63 1193.32
-28.5515 1077.76 1193.61
-26.9403 1078.47 1193.19
-26.9286 1079.24 1193.17
-27.4686 1080.23 1193.48
-28.8227 1079.47 1193.59
-21.9463 1076.88 1192.07
-20.2854 1076.43 1192.15
-11.6349 1075.74 1192.8
-2.46501 1072.61 1194.66
-1.58892 1068.94 1195.37
1.24751 1066.21 1195.47
-3.65785 1075.41 1193.69
-26.2496 1050.8 1205.04
-25.786 1048.03 1206.92
-24.6038 1048.43 1207.16
-14.064 1036.3 1209.96
-21.6573 1038.32 1210.77
-22.9511 1041.47 1209.04
-24.5098 1046.07 1207.51
-23.7963 1042.99 1208.39
-23.9375 1041.56 1209.03
-24.6558 1043.11 1208.03
-25.985 1045.94 1207.21
-22.5931 1079.66 1184.02
-21.3662 1078.68 1183.1
-20.6556 1078.58 1182.5
-21.8459 1080.28 1183.44
-20.4119 1080.74 1184.7
-21.1584 1080.72 1186.16
5.41158 1085.39 1161.35
3.74772 1083.05 1161.88
1.87224 1083.98 1162.44
2.8869 1083.94 1161.83
2.30613 1084.13 1161.95
1.68401 1084.5 1162.31
0.885144 1083.8 1162.55
4.85553 1082.99 1162.2
6.47789 1086.46 1160.39
4.37764 1082.74 1162.03
4.90243 1082.31 1162.11
7.06879 1086.15 1160.25
65.5031 1040.25 1235.91
69.6164 1039.92 1237.1
75.6976 1043.35 1224.58
74.3163 1043.27 1224.06
58.2176 1019.3 1234.81
55.9168 1037.39 1222.08
57.0319 1031.15 1225.69
57.0889 1028.19 1226.84
55.3006 1032.68 1225.73
53.6294 1033.58 1224.33
54.5654 1033.26 1224.87
54.8412 1037.32 1221.84
55.9597 1025.43 1229.65
55.4166 1027.25 1227.96
55.4591 1025.72 1229.46
56.2036 1022.32 1233.25
56.4111 1023.86 1231.57
53.9612 1038.4 1220.84
54.1214 1038.98 1220.55
53.824 1039.68 1220.15
54.3412 1040.98 1219.94
59.8161 1041.47 1227.88
62.7382 1041.72 1226.21
67.7852 1042.6 1224.96
53.3499 1038.88 1220.26
53.0213 1037.89 1220.68
53.1771 1032.76 1224.84
52.8539 1032.29 1225.37
47.8923 1032.24 1226.77
66.6607 1068.23 1220.38
66.6986 1066.96 1221.62
65.3792 1063.89 1224.42
66.7551 1066.37 1221.71
-92.0661 1110.89 1240.07
-92.6898 1109.77 1240.76
-91.6636 1107.23 1241.57
-91.8932 1109.58 1240.15
-92.3436 1109.84 1240.4
-89.4786 1107.49 1236.97
-90.4398 1108.06 1237.57
-91.1597 1108.12 1237.97
-91.438 1108.59 1238.44
-91.7175 1109.14 1238.91
-91.8978 1108.82 1239.63
-90.7935 1111.4 1239.73
-90.3835 1111.7 1240.26
-90.9731 1111.21 1240.16
-91.6101 1111.11 1239.83
-96.8046 1112.16 1279.92
-103.044 1113.83 1279.19
-108.126 1113.75 1279.6
-111.515 1116.62 1279.9
-117.225 1114.63 1278.4
-118.227 1114.5 1276.56
-117.475 1115.11 1275.35
-116.8 1119.21 1274.55
-117.381 1116.9 1275.12
-114.59 1119.06 1269.89
-113.575 1117.12 1269.06
-112.946 1115.85 1268.66
-111.872 1114.13 1269.35
-111.57 1113.85 1268.89
-111.596 1113.29 1266.66
-109.986 1113.99 1261.62
-109.733 1113.98 1261.12
-108.009 1113.87 1259.21
-106.196 1118.1 1258.1
-107.462 1118.74 1259.81
-108.161 1118.42 1260.54
-95.1521 1110.81 1247.08
-96.2962 1112.36 1248.37
-95.506 1110.36 1246.97
-94.2454 1109.3 1245.32
-93.8845 1108.56 1245.02
-105.725 1110.59 1255.29
-103.452 1105.89 1253.14
-102.052 1102.59 1249.71
-103.083 1103.35 1251.18
-104.384 1112.6 1254.5
-100.871 1102.24 1248.07
-100.576 1102.63 1247.93
-104.759 1116.17 1255.91
-96.5136 1102.74 1246.29
-96.3636 1102.31 1245.29
-97.4011 1103.27 1247.7
-98.1691 1103.72 1248.1
-99.7667 1103.16 1248.22
-99.0086 1102.43 1246.05
-98.7455 1099.76 1246.17
-101.235 1099.65 1248.12
-102.454 1101.85 1249.71
-91.0465 1105.36 1242.39
-92.278 1098.82 1243.58
-91.1064 1106.49 1242.07
-45.297 1072.11 1228.02
-45.9627 1071.67 1228.36
-45.4258 1072.75 1228.11
-46.5978 1071.98 1228.43
-47.2923 1071.5 1228.74
-46.6432 1071.43 1228.75
-41.4858 1091.25 1225.97
-79.4195 1094.49 1231.56
-79.8888 1093.74 1232.19
-79.9052 1092.56 1232.27
-65.0505 1085.11 1225.41
-64.6452 1085.51 1224.83
-72.2051 1085.16 1233.13
-74.5172 1085.66 1234.82
-77.4888 1086.25 1237.88
-65.052 1085.84 1223.67
-67.7904 1086.98 1224.68
-69.1949 1086.9 1225.45
-65.9065 1085.99 1224.49
-65.4776 1085.96 1223.91
-66.875 1086.04 1225.51
-77.8169 1083.79 1240.18
-77.7906 1084.16 1239.74
-78.003 1083.32 1240.43
-78.1502 1085.2 1239
-81.3351 1074.74 1245.56
-82.7145 1073.75 1247.95
-80.3425 1080.82 1246.05
-84.0479 1069.7 1249.58
-79.6972 1080.84 1243.58
-78.8128 1083.25 1242.28
-72.1222 1087.04 1228
-71.0115 1086.86 1226.99
-75.3285 1090.19 1229.28
-77.2801 1091.19 1230.46
-79.6979 1091.85 1232.11
-54.7134 1086.02 1212.29
-52.9386 1084.82 1209.71
-49.9111 1083.56 1207.9
-49.442 1082.87 1208.39
-48.0397 1077.86 1208.66
-44.6658 1077.42 1204.59
-45.2303 1076.09 1205.11
-45.8151 1075.08 1205.79
-47.2123 1074.95 1207.89
-45.5885 1080.05 1204.6
-45.0341 1079.16 1204.04
-44.3136 1077.73 1204.2
-46.3947 1082.41 1205.64
-83.5845 1094.91 1235.16
-83.0741 1094.73 1235.44
-80.7397 1094.6 1233.83
-81.3755 1095.19 1233.08
-80.6221 1093.98 1234.14
-80.3674 1094.92 1232.54
-85.3702 1103.19 1233.53
-85.8261 1103.34 1233.69
-83.7513 1101.87 1233.79
-85.0016 1102.82 1233.52
-84.7096 1103.03 1237.23
-85.8111 1103.75 1238.23
-86.6304 1103.83 1238.87
-84.2236 1103.04 1236.86
-83.8355 1102.55 1236.49
-91.3683 1102.34 1242.22
-88.4797 1101.99 1239.97
-90.8979 1103.38 1241.58
-85.7867 1091.83 1241.63
-83.1377 1093.48 1237.97
-84.594 1091.86 1239.78
-84.6361 1090.89 1241.31
-86.6388 1103.29 1238.68
-87.4857 1102.84 1238.9
-87.8956 1105.55 1240.2
-88.7747 1105.47 1236.17
-89.4897 1105.45 1236.63
-86.8766 1103.84 1234.43
-89.4973 1104.92 1236.64
-89.6043 1106.23 1236.96
-89.8543 1107.13 1237.03
-50.3164 1088.67 1207.42
-48.1996 1087.35 1205.47
-56.6934 1097.24 1214.46
-56.4924 1095.59 1213.25
-56.375 1094.54 1212.14
-55.7839 1093.75 1211.5
-55.9257 1093.41 1211.93
-55.3503 1091.95 1211.39
-0.589303 1080.38 1198.69
-10.187 1071.5 1213.07
-13.1454 1070.83 1216.27
1.6571 1081.48 1195.89
-21.5212 1064.99 1225.33
-21.2257 1063.98 1228.98
-21.5497 1064.43 1225.52
-22.75 1062.54 1233.21
-23.6679 1062.44 1231.77
-21.7646 1064.6 1223.78
-22.1648 1063.15 1231.75
-22.4749 1062.53 1234.02
-21.8692 1064.53 1224.37
-21.2882 1064.73 1224.92
-20.6546 1065.9 1225.18
-16.6929 1068.9 1221.89
-12.5085 1084.58 1180.38
-13.6308 1084.1 1182.08
-13.912 1084.35 1183.5
-15.3875 1083.92 1183.1
-17.5608 1083.66 1184.95
-23.4489 1081.04 1189.08
-22.6948 1081.95 1188.54
-12.1173 1063.16 1240.11
-12.2779 1063.04 1244.26
-11.1402 1063.12 1244.91
-6.83971 1063.66 1251.79
-9.89197 1064 1236.85
-8.78522 1064.53 1234.95
-29.0399 1063.12 1259.93
-27.3031 1063.58 1263.28
-31.158 1062.79 1257.74
-27.0572 1062.61 1252.68
-22.2953 1064.59 1264.34
-16.1491 1064.92 1266
-24.8301 1064.16 1264.6
-26.1463 1061.36 1249.65
-26.3978 1061.9 1250.67
-26.6575 1061.23 1248.69
-27.6615 1061.62 1246.52
-27.6898 1062.05 1245.21
-25.6871 1062.22 1242.09
-23.4041 1062.55 1239.2
-22.8023 1065.82 1232.09
-22.9357 1064.27 1234.45
-23.2985 1063.58 1236.39
-23.571 1062.72 1238.37
-21.601 1067.41 1230.51
-17.8286 1069.86 1225.57
-17.9204 1070.15 1224.95
-16.426 1070.86 1223.4
-15.5673 1071.8 1222.63
-19.022 1068.91 1227.59
-18.8093 1068.32 1227.78
-16.1364 1070.55 1224.34
-15.0391 1071.18 1223.71
-9.62181 1064.5 1235.45
-15.2822 1063.14 1238.23
-16.3295 1063.23 1237.59
-18.101 1062.48 1237.86
-19.5403 1062.38 1237.23
-21.0691 1062.28 1236.56
-22.7195 1062.46 1235.65
-12.6873 1083.66 1180.24
-14.0335 1083.13 1181.28
-15.9067 1082.51 1181.96
-17.5416 1082.21 1182.64
-27.3137 1078.89 1193.27
-27.9354 1078.24 1193.41
-27.2905 1078.02 1193.32
-26.7152 1079.75 1193.26
-27.4903 1081.02 1193.15
1.2264 1071.36 1194.06
-26.5502 1050.02 1205.35
-26.6865 1046.18 1206.95
-26.7904 1047.5 1206.89
-27.2718 1046.05 1206.58
-26.9804 1049.89 1205.13
-13.989 1026.9 1214.81
-21.9201 1029.76 1213.5
-20.6146 1035.16 1212.18
-23.1914 1038.56 1210.85
-25.4217 1036.18 1212.61
-24.7723 1035.94 1212.92
-24.2251 1038.66 1211.04
-25.9557 1040.75 1208.94
-24.8905 1038.66 1211.06
