-30.0518 982.163 950.696
-29.7413 982.569 951.307
-30.3088 983.237 950.347
-54.3824 961.997 992.073
-53.9518 962.096 991.509
-50.159 964.572 984.732
-49.8754 965.066 984.334
-49.1802 966.592 984.076
-48.5548 965.74 983.1
-48.8729 966.249 983.673
-53.8659 961.542 991.739
-56.9069 962.752 988.344
-52.2638 964.193 984.124
-50.1817 964.209 984.168
-49.5943 963.692 984.197
-48.7071 964.035 983.533
-48.7685 964.702 983.374
-51.6055 964.812 980.903
-52.2518 964.676 980.703
-50.6522 965.262 981.396
-54.2889 963.588 982.489
-56.3076 962.359 982.519
-50.3627 967.182 985.855
-50.2093 967.813 986.096
-48.9287 967.869 984.108
-49.4901 968.166 984.882
-57.1062 963.476 988.832
-57.124 963.25 989.303
-57.7728 963.161 988.603
-56.4002 962.893 989.438
-59.39 962.301 992.254
-58.254 962.74 990.822
-59.848 962.053 993.084
-58.1212 961.759 993.589
-57.3051 963.348 986.804
-56.5251 963.651 987.19
-64.6082 966.438 991.117
-63.0715 966.756 990.925
-65.6112 966.381 991.253
-64.567 964.053 992.478
-66.4584 965.634 992.298
-66.2208 966.387 991.502
-59.5484 963.489 989.513
-60.6276 962.605 992.284
-58.5103 962.874 986.813
-58.2966 963.019 988.286
-49.9143 965.681 983.784
-50.2361 965.452 982.136
-44.3722 964.764 979.421
-48.0286 970.031 981.9
-46.7835 970.873 979.856
-46.7394 971.355 979.041
-50.3202 968.903 985.906
-49.6646 968.672 984.96
-52.3822 969.223 988.614
-51.6877 968.044 987.135
-51.0007 967.657 985.9
-51.676 969.327 987.828
-51.3927 968.772 987.681
-51.6939 968.017 988.113
-50.9957 968.674 987.056
-36.7012 954.952 977
-37.0261 954.195 977.659
-56.2843 937.436 984.671
-55.8057 939.713 984.852
-55.6722 941.573 984.955
-56.2887 934.53 984.859
-55.5711 946.079 985.698
-55.8257 944.931 985.119
-36.9292 953.788 978.796
-36.3691 955.085 976.19
-36.7148 955.366 976.426
-29.8673 992.141 948.17
-28.2686 994.961 946.797
-28.7843 994.244 947.313
-27.179 995.166 945.824
-26.0398 995.895 940.151
-26.7649 995.474 941.026
-28.5637 993.525 945.664
-28.4669 994.747 945.155
-28.7291 994.447 945.515
-27.923 995.613 945.605
-23.869 994.779 938.273
-24.6715 995.05 938.245
-26.6526 994.972 941.562
-32.9152 983.575 925.453
-31.8782 984.067 923.563
-27.3387 985.46 920.329
-26.2233 986.08 922.233
-26.7412 986.342 924.533
-34.6663 983.073 926.254
-28.315 981.67 950.765
-31.6781 985.033 950.305
-30.3313 984.062 950.667
-28.8065 986.658 949.644
-30.5736 987.344 949.854
-29.9437 985.27 950.228
-30.7843 986.784 950.38
-30.404 987.104 950.314
-29.053 987.825 949.42
-27.8603 987.979 948.982
-29.8388 990.071 949.01
-27.6524 988.727 948.271
-28.3248 991.627 946.969
-28.19 992.619 946.394
-35.9145 955.368 976.162
-34.9062 955.1 977.03
-35.2009 955.203 976.546
-32.8304 987.004 950.036
-33.7567 987.172 950.006
-31.5051 986.386 950.275
-30.7254 985.824 950.199
-33.1543 991.075 949.358
-31.2375 990.958 948.992
-30.2096 991.385 948.46
-31.197 983.163 949.919
-56.709 961.569 993.467
-57.4509 961.575 993.691
-56.1034 961.835 989.254
-54.1341 960.957 991.389
-54.2888 962.739 983.167
-52.2993 964.709 984.199
-49.1432 963.954 983.958
-52.2452 964.536 981.283
-50.273 965.22 980.936
-56.3911 963.083 984.9
-53.2841 964.338 982.807
-56.8728 962.37 982.855
-56.1579 963.466 985.188
-48.5857 967.559 983.653
-50.6991 967.369 986.433
-49.8549 968.301 985.407
-48.7858 968.536 983.616
-48.391 968.234 983.082
-49.1306 968.62 984.134
-57.8107 963.145 989.293
-58.1981 963.064 988.987
-59.2507 962.421 991.728
-59.5083 961.517 994.506
-60.1288 962.144 995.6
-62.0518 961.734 994.598
-61.0935 961.675 994.203
-57.7269 964.103 988.283
-55.9104 964.084 987.367
-55.7144 964.025 986.897
-64.4146 966.826 990.257
-66.4132 966.708 990.894
-66.1029 964.406 993.304
-66.8084 964.844 993.218
-66.8469 966.491 991.488
-60.2296 963.013 990.109
-60.3759 962.408 992.933
-58.9617 962.7 986.392
-59.2419 962.609 986.913
-58.9277 962.73 987.285
-58.5079 962.875 987.621
-50.3147 965.235 980.431
-50.7165 965.091 979.988
-48.56 968.94 982.477
-48.0973 969.474 982.17
-47.2115 970.176 980.388
-47.2593 969.817 980.757
-46.9535 970.405 979.912
-50.5523 967.968 986.625
-49.0103 965.383 982.794
-49.972 965.638 983.128
-49.5211 965.552 983.385
-49.5217 965.995 983.641
-51.4669 967.433 986.85
-51.1314 966.959 986.402
-50.5149 966.497 984.992
-52.2509 968.671 988.745
-51.9744 968.121 988.565
-50.7706 966.76 985.807
-51.231 967.738 987.379
-56.2319 938.315 984.154
-55.9791 940.452 984.324
-56.0555 944.171 984.578
-56.1076 943.033 984.223
-56.9411 934.693 984.1
-36.539 954.104 977.583
-29.61 993.573 947.931
-27.1472 995.147 941.758
-25.0283 995.411 938.191
-25.2673 995.69 938.657
-28.8538 994.582 945.991
-28.7615 995.203 946.067
-28.0257 995.905 946.012
-27.4222 995.545 942.545
-33.1597 983.793 924.62
-30.7354 984.656 921.459
-28.787 985.133 920.484
-24.861 985.885 918.613
-25.1801 985.762 919.274
-34.5802 983.243 925.733
-29.817 983.379 950.454
-30.8248 989.651 949.511
-31.2523 987.543 949.916
-31.7591 988.793 949.71
-28.4928 989.826 948.687
-27.9989 990.134 947.686
-31.5658 993.478 948.54
-28.9251 993.195 946.831
-28.9872 993.952 946.329
-35.7669 954.993 976.556
-35.4406 954.794 977.069
-46.6676 970.343 979.325
-32.3153 991.294 949.078
-30.5049 980.872 950.839
-30.5905 982.544 950.149
-57.6652 961.381 994.164
-57.0577 961.299 994.194
-58.7348 961.395 994.612
-47.8163 967.055 982.095
-48.2956 967.392 983.113
-47.9519 966.359 982.117
-54.7931 961.403 993.268
-54.9363 959.811 991.087
-54.3131 964.264 984.996
-53.3969 964.954 985.003
-50.0204 964.66 983.586
-50.7279 965.146 983.652
-49.3046 964.761 983.705
-48.5652 966.485 982.457
-51.5911 964.998 981.68
-51.2199 965.082 981.106
-55.0236 964.303 985.745
-57.8982 962.432 985.608
-59.9315 962.049 988.977
-60.4519 961.781 989.314
-54.7904 964.049 984.738
-57.9224 962.009 983.132
-57.4701 962.772 984.462
-48.0993 968.104 982.648
-47.939 968.399 982.127
-50.0184 966.468 984.861
-59.0796 962.587 990.843
-58.9916 962.695 990.198
-60.1959 962.068 992.325
-59.5534 962.016 995.427
-59.3585 962.442 996.204
-58.8689 962.282 996.08
-61.0526 962.813 995.658
-60.8768 961.665 994.74
-62.2156 961.162 995.602
-57.6598 963.662 987.949
-57.9087 963.114 986.377
-58.4045 962.922 985.927
-64.7627 966.914 989.763
-67.2103 966.992 990.927
-65.923 967.168 989.855
-63.3741 962.716 994.181
-66.7678 964.491 993.853
-67.2845 964.949 993.648
-66.8631 966.09 992.135
-59.9706 962.558 991.787
-60.0079 963.374 989.776
-60.4579 962.205 993.653
-59.964 961.63 994.318
-60.4266 961.913 993.006
-59.4537 962.51 985.975
-59.9034 962.409 986.375
-59.6687 962.646 987.209
-59.3538 962.776 987.62
-59.2761 962.818 988.357
-49.7431 965.288 979.703
-49.8306 965.356 980.356
-46.5896 969.733 979.833
-46.6977 969.384 980.448
-46.9934 969.378 981.004
-47.55 969.639 981.567
-47.5705 966.008 982.043
-48.4409 965.408 981.626
-56.2271 939.384 983.292
-56.1121 940.751 983.708
-56.2294 942.805 983.571
-57.0887 935.289 983.376
-36.4645 954.499 977.014
-28.9808 995.866 947.006
-28.4479 995.801 946.519
-29.3409 992.28 948.258
-29.2296 992.82 947.425
-29.917 994.009 948.013
-30.3526 992.112 948.534
-27.096 996.115 941.26
-29.2198 994.896 946.958
-28.4545 995.451 945.574
-28.6439 995.474 946.909
-32.0604 984.419 922.308
-25.9057 986.218 917.395
-23.4902 986.204 917.411
-24.4163 986.391 919.954
-25.5813 986.188 921.803
-22.2874 986.158 917.775
-34.4827 983.43 925.216
-32.1876 993.46 948.702
-32.4392 992.193 949.019
-32.699 991.719 949.116
-28.6143 991.256 948.008
-30.2527 992.654 948.375
-30.9153 993.313 948.419
-31.1071 992.827 948.475
-29.2933 993.96 947.086
-35.1328 954.193 978.318
-35.9324 954.557 977.091
-35.5566 953.931 978.448
-35.8397 953.566 978.833
-31.1773 991.461 948.794
-31.2693 982.04 950.358
-58.0512 961.275 994.757
-58.7924 961.77 995.547
-55.173 961.189 993.762
-55.3276 960.471 991.8
-54.6823 960.888 991.806
-54.3239 961.263 992.158
-53.9507 961.274 992.987
-52.6201 964.66 982.583
-52.9243 964.89 984.227
-53.8109 964.524 984.463
-55.1136 963.834 985.275
-56.4865 963.548 985.602
-58.5359 962.161 985.441
-55.8922 963.674 985.629
-56.3519 963.703 986.611
-60.1923 961.864 990.701
-58.7881 961.892 983.547
-58.4128 962.566 984.479
-47.2953 967.105 981.693
-46.9645 967.878 981.299
-47.7516 969.163 981.861
-60.3397 962.103 991.723
-60.8355 962.495 996.001
-60.6305 962.626 995.207
-60.7989 962.115 995.267
-62.0075 961.4 995.008
-62.7355 960.865 996.503
-60.34 963.889 995.859
-57.8641 963.12 987.904
-57.3776 963.29 985.94
-55.5357 964.299 986.497
-67.3502 966.907 991.468
-66.3281 967.659 989.702
-63.7659 968.679 993.952
-64.7984 963.289 994.793
-67.3258 964.684 994.097
-67.0934 964.389 994.479
-67.0458 965.579 992.737
-67.7129 965.095 993.947
-67.2938 966.508 992.437
-67.4118 966.835 991.961
-59.4092 962.97 989.246
-59.804 962.792 989.845
-60.1207 961.769 993.803
-60.1926 962.252 985.823
-59.7537 962.715 988.001
-60.2529 962.406 989.475
-60.8793 961.925 991.87
-48.2314 967.443 980.06
-46.4133 968.614 980.119
-46.9266 968.82 981.063
-46.3788 968.128 980.353
-48.337 966.064 982.272
-48.6945 965.643 982.439
-49.1978 965.403 981.199
-48.8396 965.312 981.977
-56.0097 941.614 982.264
-56.1279 942.585 982.849
-36.5299 953.814 978.458
-29.4913 995.965 947.317
-30.4517 996.014 947.651
-30.8792 992.242 948.544
-26.2503 996.577 940.226
-29.8163 995.276 947.261
-29.2262 995.459 947.303
-25.5469 997.092 938.629
-25.2162 996.063 938.303
-26.1904 997.343 939.832
-30.3254 985.398 919.939
-26.0511 987.132 915.798
-22.5035 986.673 915.647
-21.5401 986.529 916.356
-23.7195 987.018 920.124
-31.8785 991.971 948.772
-29.4016 994.42 947.676
-36.1355 953.336 979.27
-24.5122 987.007 943.976
-31.6369 991.294 948.927
-57.2397 961.159 994.814
-58.0429 961.525 995.658
-57.8784 961.196 995.28
-58.3758 962.606 996.708
-56.0613 960.71 993.06
-54.0194 961.624 992.442
-50.408 965.495 982.737
-49.8042 965.573 982.416
-49.7618 965.399 980.961
-51.8699 965.117 983.299
-49.4282 965.475 982.024
-56.2463 963.676 986.029
-57.937 963.04 985.364
-59.3084 961.954 985.511
-60.8156 961.709 990.738
-59.6277 962.273 989.409
-60.894 961.662 992.344
-59.4404 962.275 984.359
-59.3592 962.526 984.996
-47.0421 966.019 981.038
-61.5863 961.57 993.003
-59.045 962.637 996.629
-57.9892 962.989 997.396
-61.2531 963.495 995.986
-62.1242 960.071 997.017
-61.8545 959.456 997.85
-60.8335 963.933 996.077
-61.4979 961.455 993.639
-57.1113 963.42 987.538
-55.5186 964.025 986.055
-59.6982 962.418 985.397
-62.6795 967.64 992.993
-61.2784 966.647 992.153
-63.5251 969.072 994.381
-67.913 967.8 990.945
-67.9912 967.35 991.593
-66.9798 967.83 989.598
-62.2433 969.388 994.826
-63.4982 961.39 996.757
-64.0161 962.615 996.271
-65.5545 963.547 995.143
-63.16 960.321 997.384
-62.1707 959.898 997.905
-67.5641 964.605 994.558
-67.4521 966.348 993.04
-67.8246 966.764 992.474
-61.8322 961.354 994.104
-60.6787 962.103 985.408
-60.9838 962.246 986.016
-60.2168 962.52 986.862
-60.2367 962.612 987.644
-60.7555 962.312 988.995
-61.1745 961.563 991.536
-29.6944 996.449 947.356
-28.7675 996.679 946.288
-30.2638 994.431 947.983
-30.5945 995.52 947.77
-29.7985 994.916 947.689
-30.0987 995.619 947.579
-28.6011 996.179 946.026
-28.5013 996.788 945.862
-25.0085 995.955 937.807
-25.7619 997.75 938.682
-25.1175 996.687 937.733
-21.4773 987.665 914.355
-20.5598 987.245 914.92
-22.9766 986.994 919.985
-24.0624 987.835 921.769
-57.0159 961.027 995.359
-55.7169 961.075 994.419
-57.5054 962.335 996.856
-57.3838 961.689 996.197
-57.0184 961.34 995.995
-57.5287 963.279 997.925
-56.1946 959.922 992.434
-56.7737 959.716 993.063
-55.2996 961.177 992.426
-55.9623 961.331 993.66
-61.1312 961.597 990.283
-59.6222 961.961 990.733
-61.3292 961.411 992.519
-60.0984 961.946 984.94
-60.8902 962.964 996.344
-58.7892 963.242 997.432
-60.4609 963.183 995.437
-61.3438 961.409 995.138
-61.5855 958.903 997.663
-59.6611 964.456 996.296
-64.3302 968.659 994.51
-60.3197 966.061 992.406
-62.7211 969.77 995.395
-68.8751 968.025 989.485
-68.6007 967.926 991.531
-67.8098 967.926 989.196
-68.7265 967.282 992.037
-61.9722 970.172 995.584
-62.1726 969.908 996.376
-60.7843 968.664 994.5
-61.4318 969.843 996.957
-64.0765 961.656 997.349
-64.6707 962.922 996.217
-64.5604 962.805 996.792
-60.6181 957.967 999.288
-67.9627 964.959 994.591
-68.3273 966.965 992.349
-59.7082 962.107 991.37
-61.1098 961.981 985.062
-61.4023 962.1 985.566
-61.397 962.311 986.356
-60.6041 962.377 986.419
-60.7534 962.493 987.368
-61.372 962.175 988.6
-61.3987 961.993 990.06
-61.6373 961.763 991.911
-28.9247 996.303 946.714
-30.3858 995.038 947.85
-30.4808 996.574 947.625
-29.0613 996.904 946.679
-29.2281 997.069 946.219
-29.7527 996.091 946.796
-29.576 996.617 946.492
-22.5814 986.579 920.07
-23.7176 987.188 921.627
-25.5304 986.965 922.736
-23.5924 986.682 942.919
-22.559 986.239 941.933
-56.5957 961.039 994.973
-57.1343 962.844 997.922
-56.9797 962.471 997.484
-57.703 963.797 998.494
-58.6105 964.723 998.434
-58.2182 964.011 998.166
-59.048 961.08 992.011
-57.211 958.77 992.913
-57.407 959.339 993.863
-56.749 960.505 994.034
-54.0858 961.082 993.635
-50.0892 965.404 981.545
-60.8972 961.708 985.777
-61.5505 961.583 990.715
-61.8421 961.465 992.377
-62.2273 961.312 992.671
-62.1455 961.271 993.453
-61.1369 963.451 996.616
-61.2569 964.079 996.347
-60.2602 964.38 996.378
-61.7078 963.287 996.127
-60.7853 963.53 995.769
-61.7406 960.978 995.836
-61.9354 959.603 997.112
-61.6284 961.196 996.489
-61.6013 961.369 997.381
-60.164 957.654 999.518
-60.3272 957.367 1001
-59.7305 963.716 995.431
-62.2002 968.071 993.347
-64.1236 969.093 995.028
-60.8289 966.757 992.889
-59.8054 966.253 992.952
-69.6925 968.101 989.935
-73.3348 968.628 989.111
-68.636 967.986 990.376
-69.0669 968.366 991.978
-69.1995 967.676 992.084
-61.0888 970.282 995.995
-61.7145 970.429 996.619
-60.4985 969.202 995.029
-58.6344 966.921 993.784
-60.6382 969.01 998.167
-61.3302 958.93 998.88
-63.7041 960.488 997.94
-65.2315 963.173 996.433
-64.6205 962.77 997.31
-66.1474 963.728 995.203
-60.8273 958.119 1000.23
-66.5543 963.984 995.761
-68.1462 965.287 994.219
-67.6721 965.638 993.446
-67.6478 966.14 993.594
-67.8108 964.654 995.065
-68.2111 966.965 992.965
-61.1136 961.662 993.376
-61.2206 961.841 984.462
-61.8157 961.857 984.767
-61.9433 962.093 985.667
-61.8094 962.252 986.704
-61.3041 962.367 987.037
-62.0169 962.022 988.26
-62.0062 961.849 989.741
-30.2959 997.052 947.528
-28.6997 997.389 945.993
-31.065 996.169 947.856
-31.0812 996.903 947.813
-30.7959 996.364 947.271
-28.3654 997.288 945.531
-24.2292 986.446 922.687
-24.7744 986.432 922.997
-56.4934 961.747 996.993
-56.9684 962.054 998.076
-56.6096 961.305 997.719
-57.3533 963.055 998.79
-58.9066 965.206 998.639
-55.7475 960.926 995.001
-57.9827 959.134 996.088
-56.4522 960.685 993.631
-54.5854 960.936 994.402
-61.4467 961.585 985.944
-61.8585 961.356 989.749
-62.1948 961.46 991.932
-61.4225 963.913 996.854
-61.867 963.836 996.426
-60.7472 963.513 997.18
-61.0016 964.792 998.44
-60.7907 964.39 997.129
-61.4089 959.023 997.089
-60.4207 957.957 998.461
-61.4873 961.711 998.766
-61.6215 960.278 999.14
-61.3999 959.224 998.095
-59.8444 957.125 1001.21
-59.4193 956.556 1002.27
-60.6063 957.637 1001.32
-59.8722 956.156 1002.39
-59.1942 964.105 995.625
-59.896 964.807 996.746
-59.1965 964.697 996.35
-61.1113 969.491 996.724
-59.553 966.406 993.366
-60.1693 968.879 997.556
-70.565 968.135 990.513
-74.2212 968.868 989.52
-74.7944 968.893 989.152
-75.7472 969.165 990.055
-69.1675 968.805 992.524
-69.2064 968.059 992.548
-69.1473 967.444 992.668
-61.1696 970.314 997.254
-61.2037 969.969 997.754
-61.33 970.681 996.908
-59.8078 969.812 995.831
-60.1891 970.422 996.591
-58.9803 968.378 994.832
-58.2179 967.089 994.054
-58.0916 966.238 993.493
-61.5697 968.626 999.429
-60.8077 968.134 999.233
-59.5993 967.828 998.664
-59.4844 968.172 998.002
-61.8223 959.602 999.016
-61.0794 958.334 1000.68
-61.1677 958.748 999.924
-63.5317 960.808 998.393
-63.5795 961.61 999.081
-65.2246 963.153 997.017
-60.9734 958.043 1001.37
-68.5595 964.478 995.167
-67.2856 966.623 993.638
-62.784 961.82 986.036
-62.281 962.158 986.294
-62.8091 961.838 988.204
-62.8172 961.726 988.992
-62.6487 961.351 992.189
-29.5154 996.948 947.196
-29.0028 997.655 946.339
-29.4394 997.618 946.896
-31.0883 995.073 948.056
-30.8952 997.464 947.704
-31.2246 996.559 947.441
-30.3242 996.451 946.974
-30.2032 996.953 946.722
-29.8541 997.273 946.425
-22.3128 986.282 920.561
-23.319 986.293 922.286
-22.9793 986.458 921.64
-56.1129 961.056 996.255
-56.3531 960.976 997.258
-55.6596 960.721 996.001
-57.2227 962.597 998.422
-56.8389 961.379 998.193
-57.9846 964.25 999.001
-59.6387 965.799 998.684
-59.7695 965.156 998.32
-55.0528 960.791 995.188
-57.7893 959.083 994.774
-59.2414 958.178 996.745
-57.9097 959.392 997.593
-57.2726 959.971 996.361
-56.3077 961.23 994.113
-56.8039 960.709 994.618
-61.7581 964.277 997.143
-60.96 963.167 998.173
-60.906 964.355 996.587
-59.8134 964.048 995.903
-61.0832 958.833 997.72
-60.6077 958.307 997.718
-59.629 957.601 999.79
-60.7108 959.647 998.1
-61.4801 961.927 999.708
-61.5544 960.948 999.825
-61.2931 960.047 999.668
-59.1483 957.319 1000.89
-58.878 956.65 1001.94
-58.0623 955.87 1006.4
-58.6301 956.174 1003.85
-59.4428 955.824 1004.18
-60.3826 957.165 1001.72
-60.749 957.213 1002.09
-60.1526 955.717 1002.55
-60.4527 955.223 1002.82
-59.7386 954.98 1003.82
-60.1947 954.636 1005
-59.2701 963.706 995.068
-58.9044 965.342 996.929
-61.8461 967.993 993.83
-62.1344 969.32 995.575
-60.262 966.524 993.158
-58.8927 966.302 993.247
-71.2367 968.197 991.304
-75.9181 969.427 990.551
-77.3465 968.91 990.105
-76.0156 968.402 989.136
-77.4804 969.384 990.667
-68.9279 968.898 993.287
-69.0345 968.418 992.966
-71.6768 968.692 992.091
-69.6022 969.031 993.209
-68.8673 967.786 993.239
-68.3538 967.406 993.799
-67.8684 967.099 993.779
-61.8468 969.892 998.44
-61.0008 970.964 997.26
-61.7229 970.851 997.706
-58.5785 970.069 996.628
-58.9492 969.362 995.697
-59.4115 970.718 997.389
-61.7766 970.446 998.016
-57.6942 967.66 994.675
-58.4919 966.154 993.855
-62.4223 969.397 999.22
-59.5792 967.312 999.219
-60.6455 967.308 999.525
-59.0196 967.673 998.681
-63.3929 960.934 1001.77
-62.2568 960.372 1000.25
-62.9337 960.151 1002.12
-65.7691 963.817 998.667
-65.7581 963.706 997.631
-66.2689 964.122 997.993
-65.4167 963.568 1000.58
-61.347 958.005 1002
-67.607 966.417 994.128
-68.4889 964.947 994.696
-62.5209 961.943 985.358
-62.0762 961.517 986.175
-62.2001 961.25 989.041
-63.6194 961.408 989.039
-64.192 961.495 987.821
-64.5842 961.268 989.097
-64.6922 961.393 988.504
-63.4394 961.822 987.656
-62.9464 961.894 987.456
-62.7645 961.402 991.669
-28.3942 997.896 945.418
-28.5637 998.367 945.549
-31.1181 995.595 947.93
-31.48 996.559 947.949
-31.6993 997.27 947.761
-31.753 995.906 948.106
-57.163 961.965 998.744
-57.0222 961.479 998.688
-58.3889 965.676 999.014
-59.1043 966.651 998.531
-57.5176 963.007 999.379
-57.2943 962.41 998.992
-59.0356 966.574 997.857
-58.3827 966.747 997.055
-58.7579 966.276 997.206
-59.922 966.318 998.687
-60.2467 965.992 998.373
-55.6916 960.83 995.494
-57.796 959.752 998.85
-56.8359 960.246 998.128
-56.6455 960.42 997.032
-56.7 960.571 996.03
-57.0538 960.379 995.396
-55.1067 961.014 994.372
-62.3534 961.4 990.315
-61.3672 964.912 997.322
-58.503 965.79 996.99
-57.809 965.018 996.198
-59.1205 965.971 997.508
-60.1972 965.286 997.545
-61.586 965.956 1000.88
-61.7591 966.552 1001.37
-61.3129 962.247 1000.06
-61.4903 965.859 1001.47
-61.7371 966.125 1000.32
-60.9741 964.702 997.581
-60.4853 964.815 997.088
-59.7036 957.932 998.945
-59.9661 958.394 998.664
-60.9953 959.106 998.403
-60.9715 959.475 999.689
-61.2516 961.294 1000.93
-61.0896 960.541 1000.59
-58.3726 956.829 1001.68
-57.9104 956.209 1002.57
-57.0213 956.388 1005.84
-56.1009 955.949 1006.88
-57.5444 954.077 1008.95
-59.3409 955.265 1007.53
-61.7728 954.906 1005.77
-60.8829 954.847 1003.25
-61.4196 957.124 1003.1
-61.3914 954.168 1003.8
-60.7822 953.284 1003.71
-61.6188 952.385 1004.16
-60.957 953.554 1004.21
-65.7382 955.656 1004.63
-60.4271 967.106 993.494
-60.7845 968.91 995.878
-59.9246 966.865 993.605
-60.2012 969.028 996.877
-59.5215 968.384 996.735
-59.4435 968.315 997.516
-58.3314 966.318 994.589
-74.8851 969.365 990.483
-76.0368 969.673 991.063
-77.0365 969.78 991.221
-78.0452 970.95 990.462
-78.0423 971.686 989.3
-76.8382 970.082 988.34
-68.6774 968.32 993.614
-71.1381 968.96 993.209
-74.3025 969.519 991.886
-70.1084 969.106 993.725
-67.5019 967.067 994.143
-62.3576 970.104 998.531
-59.5282 971.79 997.555
-62.315 971.058 998.07
-57.2097 970.883 997.735
-56.7906 970.316 997.005
-58.0067 969.177 995.862
-57.4136 971.274 998.396
-57.7303 966.513 993.863
-57.3401 967.975 995.031
-57.2663 966.865 994.352
-61.9821 968.38 1000.05
-60.7544 966.813 999.977
-61.4755 967.334 1000.24
-58.8303 965.379 999.751
-58.8839 964.75 1000.02
-59.4471 966.141 999.649
-59.5893 965.048 1000.15
-58.7783 966.514 999.26
-59.0634 968.031 997.156
-59.0811 967.887 998.093
-64.883 962.743 1001.72
-65.318 963.276 1001.19
-65.7406 963.143 1002.73
-65.0301 961.627 1003.76
-63.273 959.839 1002.93
-63.7884 959.033 1004.28
-67.2206 963.488 999.294
-66.2362 964.001 999.515
-67.2562 963.782 1000.21
-66.3066 963.804 1002.83
-66.0342 963.641 1002.28
-62.5469 957.787 1003.55
-66.9452 964.271 996.039
-66.4692 964.31 997.502
-68.6191 965.385 994.399
-68.061 966.21 994.048
-66.9108 967.462 993.745
-66.9772 967.184 994.761
-66.8756 966.924 994.167
-62.7107 961.608 986.533
-62.6494 961.337 988.704
-63.464 961.386 990.048
-63.933 961.39 990.478
-63.9523 961.645 989.982
-63.6224 961.582 991.013
-63.1041 961.404 991.189
-30.4144 997.755 947.514
-29.8934 997.455 947.309
-30.8416 998.098 947.558
-31.3943 997.864 947.611
-29.5606 997.682 946.238
-28.8741 998.421 945.98
-31.9831 996.532 947.902
-32.122 997.688 947.566
-31.0683 997.12 947.148
-30.2475 997.752 946.543
-29.1439 998.057 945.636
-28.0586 997.626 944.987
-27.8315 997.867 944.512
-56.2192 960.59 996.668
-56.4934 960.937 995.483
-57.2256 961.669 999.17
-56.8555 960.553 998.662
-56.7022 960.772 997.811
-56.9843 960.072 998.986
-57.1077 960.687 999.294
-58.2321 964.8 999.558
-57.7279 962.672 999.841
-57.659 961.969 999.931
-58.5966 967.445 998.192
-58.139 966.528 996.406
-59.8024 965.876 997.958
-61.193 965.223 998.178
-58.6698 958.859 998.072
-57.3078 959.947 998.605
-62.208 961.592 991.391
-62.9918 961.554 990.627
-62.4545 964.305 997.832
-61.9689 964.802 997.123
-57.4131 964.887 995.677
-61.5271 965.423 1000.77
-61.4099 962.567 1001.31
-62.0027 967.049 1001.23
-60.6728 965.193 997.758
-58.057 957.383 1000.7
-58.6996 957.553 1000.66
-60.8191 959.936 1000.63
-60.4468 958.784 998.643
-57.2186 956.354 1002.1
-56.2052 956.646 1005.38
-55.5437 954.517 1007.27
-59.6971 950.435 1016.05
-56.3315 952.191 1011.5
-62.4771 952.607 1014.01
-63.493 955.214 1008.52
-65.6583 955.275 1005.73
-62.1243 950.23 1005.2
-61.3799 954.746 1003.82
-61.8669 956.012 1004.2
-61.7515 951.336 1004.5
-65.1806 952.181 1005.4
-61.9951 949.397 1005.44
-67.7484 956.89 1004.96
-66.7416 958.073 1002.26
-67.0573 958.676 1001
-60.5822 968.204 994.784
-59.2439 967.786 995.793
-58.8164 966.684 994.533
-59.0379 967.89 996.589
-75.2844 969.825 991.316
-77.1606 970.064 991.633
-76.5271 970.143 991.819
-77.9046 970.734 991.122
-78.7315 972.638 990.623
-79.0088 973.415 989.367
-77.6392 972.504 988.817
-79.0048 973.152 989.992
-68.2258 967.766 994.341
-69.4133 969.745 994.899
-70.7274 970.096 994.791
-74.5328 969.995 992.778
-68.0761 969.364 995.211
-67.6229 967.381 994.636
-63.0027 970.192 998.694
-61.6873 972.247 997.432
-57.353 971.985 997.487
-56.799 971.508 997.773
-62.828 970.655 998.458
-63.2413 971.31 998.376
-58.4009 965.808 993.236
-58.0906 965.726 993.82
-57.8737 966.001 994.671
-57.992 966.671 995.711
-62.9505 969.199 999.701
-60.3711 965.616 1000.43
-61.1962 966.832 1000.66
-62.9861 969.652 999.249
-58.2652 963.32 1000.35
-59.0999 963.663 1000.67
-66.1353 963.04 1003.73
-64.0675 959.433 1004.72
-62.7511 956.832 1004.41
-63.1605 957.422 1005.16
-62.8292 956.752 1005.08
-67.7475 964.192 1000.1
-67.9758 963.76 999.729
-66.2887 963.885 998.726
-67.0749 964.671 1001.64
-62.227 955.929 1004.59
-67.4337 966.667 994.679
-67.7754 966.294 994.645
-67.9345 964.79 995.608
-67.3243 964.579 996.175
-66.7087 967.681 994.505
-67.6184 968.303 995.467
-62.8983 961.269 989.683
-29.9122 998.002 947.146
-29.674 998.34 945.89
-28.1192 998.367 944.886
-28.4334 998.95 945.06
-28.8289 999.121 945.525
-29.2786 998.845 945.818
-31.6916 997.985 947.184
-32.0787 998.436 947.429
-30.5864 998.148 946.675
-57.9455 962.332 1000.36
-57.7093 961.436 1000.23
-57.4474 961.204 999.77
-57.4917 966.137 995.597
-57.9611 965.96 996.117
-61.6999 965.04 998.026
-58.6897 958.95 998.789
-58.3039 959.483 999.437
-57.7191 959.944 999.572
-62.5713 961.532 991.026
-61.0327 965.43 1001
-60.9099 966.065 1000.67
-61.6794 964.765 1001.04
-61.6463 965.665 1002.16
-61.2402 965.111 1001.93
-61.286 964.308 1001.66
-60.7632 963.247 1001.44
-62.0158 966.577 1000.64
-61.7082 966.168 999.657
-61.4409 965.719 998.937
-60.7807 965.567 998.142
-58.7617 957.697 1000.07
-57.6719 957.269 1001.31
-56.7188 956.509 1001.92
-60.5477 959.605 1000.89
-61.6956 961.358 1001.86
-61.4046 961.817 1001.65
-55.6521 956.671 1005.04
-54.7792 956.716 1006.12
-53.9568 954.057 1007.56
-55.4989 956.024 1006.77
-54.4591 948.696 1018.09
-56.2161 946.831 1022.1
-59.3748 946.822 1023.63
-61.7889 948.484 1020.99
-53.1054 950.677 1014.01
-65.9456 950.863 1017.52
-66.9387 954.236 1011.65
-69.1423 954.977 1009.29
-68.0891 955.582 1007.77
-66.3739 955.646 1006.56
-66.8341 956.127 1005.82
-62.493 952.943 1004.74
-61.7713 955.281 1004.44
-62.5149 949.313 1005.68
-64.0409 950.305 1005.77
-64.9806 953.784 1005.29
-65.5121 952.895 1005.51
-70.0107 955.456 1009.05
-72.454 957.517 1007.86
-70.5463 959.237 1003.21
-74.3263 960.084 1005.38
-67.786 959.503 1000.64
-66.4969 958.321 1001.55
-66.2698 958.754 1000.22
-66.6745 958.994 999.69
-67.2246 959.438 1000.07
-66.1562 949.721 1006.05
-58.8174 964.46 995.844
-58.1968 964.636 995.839
-59.1707 967.055 994.545
-58.3959 967.085 995.921
-76.0098 970.304 992.083
-75.4717 970.365 992.589
-77.4898 970.984 991.855
-78.4367 972.231 990.877
-79.2211 972.839 991.118
-79.4883 973.193 990.783
-68.2604 970.208 995.539
-70.4071 971.35 995.701
-69.8759 970.905 995.578
-73.8167 970.324 993.641
-74.1346 971.737 994.213
-67.8857 969.873 995.581
-63.2637 972.777 997.91
-63.1235 972.045 998.077
-63.1077 974.313 997.439
-60.972 974.581 996.957
-62.3633 974.716 997.429
-57.0744 972.047 997.04
-56.4656 971.383 997.178
-63.6484 970.265 998.885
-64.6369 970.512 998.803
-64.6561 971.068 998.526
-55.9236 969.969 996.11
-58.0109 965.211 993.849
-55.9534 968.222 995.114
-55.8767 969.263 995.609
-61.7834 967.54 1000.73
-63.5584 969.636 999.306
-60.3422 964.782 1000.82
-58.789 962.299 1000.77
-58.5157 961.827 1000.8
-59.2376 962.882 1000.84
-65.6721 963.691 1006.54
-64.3445 959.927 1004.94
-67.1144 964.73 1000.11
-66.8071 964.375 1000.69
-63.4782 958.168 1005.36
-62.5106 956.036 1005.14
-62.7413 956.579 1005.7
-66.6367 964.567 998.199
-66.5349 964.467 998.711
-66.9562 964.222 999.492
-66.7993 965.092 997.754
-62.3298 955.52 1004.91
-68.2391 965.766 994.749
-68.4274 965.075 995.177
-67.142 966.825 995.183
-67.2488 966.423 995.544
-66.6896 964.605 997.077
-67.478 965.295 996.216
-66.9522 967.269 995.482
-67.2595 967.668 995.821
-28.7693 1000.17 944.492
-28.436 999.694 944.375
-29.2702 999.465 945.486
-31.2243 998.189 946.862
-30.1547 998.537 946.722
-28.0268 998.74 944.529
-27.6275 998.477 943.988
-27.942 998.947 944.06
-57.2851 960.232 999.571
-57.7168 960.762 1000.14
-58.0178 961.224 1000.83
-57.4569 965.488 995.632
-59.2035 958.505 998.477
-58.4637 959.43 999.911
-57.7581 964.739 994.85
-57.8749 964.492 995.368
-60.0504 963.861 1001.05
-60.0473 963.132 1001.13
-60.5135 961.751 1001.53
-59.9559 961.861 1001.33
-61.1021 966.278 999.187
-61.0009 965.72 998.613
-59.5556 965.329 997.24
-59.3333 965.528 996.607
-55.4849 957.113 1002.95
-58.1973 958.004 1000.5
-55.9605 956.288 1002.03
-55.226 956.599 1004.44
-60.7891 960.268 1001.65
-61.9701 960.895 1002.06
-60.0076 958.705 999.094
-60.3107 959.119 1000.06
-60.0259 959.405 1001.25
-61.0762 961.255 1001.77
-54.1389 956.401 1005.98
-54.3113 956.878 1005.77
-52.8278 953.682 1008.44
-53.0499 954.937 1006.9
-56.3842 944.171 1027.71
-58.2673 944.549 1028.16
-61.7961 945.047 1028.44
-62.5864 945.799 1026.75
-63.4041 946.656 1025.11
-66.604 947.688 1023.62
-68.1724 949.758 1019.36
-71.2834 951.124 1017.5
-70.3012 953.2 1013.76
-72.565 953.007 1013.77
-73.3301 953.38 1013.42
-62.5414 954.55 1004.97
-62.6767 953.765 1004.81
-62.9797 951.856 1005.08
-62.2842 947.24 1006.33
-62.7186 946.122 1006.65
-61.9389 948.509 1005.85
-63.2318 948.698 1005.97
-66.1961 950.973 1005.93
-61.9601 947.585 1006.07
-66.189 957.339 1003.27
-65.8207 951.483 1005.79
-73.4508 953.936 1012.62
-74.4956 957.225 1009.47
-73.5881 954.322 1012.07
-76.399 960.452 1006.36
-74.4572 960.897 1004.03
-70.0528 959.99 1001.48
-68.2512 960.048 1000.33
-67.8588 960.201 999.838
-66.0175 959.039 999.613
-66.786 959.49 999.428
-58.6592 965.565 995.844
-58.6832 964.104 995.27
-75.8061 970.71 992.818
-77.0687 971.178 992.127
-75.2824 970.806 993.355
-78.1118 971.792 991.312
-78.9145 972.627 991.513
-79.826 973.094 991.545
-79.8222 973.579 990.138
-80.4948 973.518 991.002
-78.4322 972.37 991.475
-77.6714 972.064 991.779
-69.5462 970.438 995.479
-68.8718 970.303 995.514
-72.3545 972.214 995.359
-70.3851 972.183 995.939
-69.7453 971.584 995.77
-72.887 971.624 994.635
-74.2032 972.554 995.332
-74.7094 971.556 993.973
-64.487 974.186 997.282
-63.4597 974.855 997.196
-61.5128 975.062 996.756
-62.7499 975.201 997.161
-59.4803 974.186 996.319
-56.7685 972.118 996.53
-65.4044 970.224 998.391
-56.1083 970.725 996.687
-55.8143 970.55 996.265
-55.7361 967.768 994.757
-56.826 966.624 994.521
-57.7113 965.526 994.668
-59.1785 961.786 1000.96
-58.5036 961.023 1000.82
-59.5189 962.175 1000.99
-64.611 960.476 1005.32
-66.2558 962.995 1004.97
-66.9093 964.595 1006.05
-65.9478 964.976 1008.05
-63.9251 959.319 1005.32
-67.1767 965.343 999.863
-63.1226 957.425 1006.03
-63.5534 958.722 1006
-62.1994 955.904 1005.6
-62.5966 956.322 1006.3
-63.5698 959.145 1008.21
-66.6991 964.939 998.774
-67.0768 966.076 998.466
-67.0707 965.723 997.813
-67.2435 965.273 1000.43
-67.6389 965.978 995.468
-66.9586 965.043 997.015
-67.0567 966.404 996.235
-67.4918 968.273 996.107
-67.672 969.464 996.147
-30.6802 998.483 947.155
-30.1122 998.756 946.256
-28.9327 1000.69 944.111
-29.355 1000.46 944.678
-29.3589 999.923 945.123
-29.7745 999.632 945.55
-31.478 998.501 947.417
-29.2011 998.932 945.194
-28.8286 999.529 945.153
-57.8906 960.127 1000.23
-58.0954 960.676 1000.62
-59.1662 958.404 998.977
-58.1823 964.387 994.555
-60.9924 961.009 1001.3
-60.2324 960.857 1001.34
-62.4579 968.551 1000.34
-60.3095 967.169 998.889
-59.9803 966.947 998.349
-59.6937 966.643 997.803
-58.6926 966.386 996.455
-56.2568 956.872 1002
-54.1282 956.057 1003.21
-54.2801 957.189 1005.36
-60.7071 959.712 1001.9
-61.7149 960.129 1002.23
-60.335 960.027 1001.62
-53.7394 957.087 1005.72
-52.5281 956.654 1005.6
-52.9982 955.811 1005.99
-53.2695 957.758 1005.46
-57.7847 942.917 1032.98
-56.7885 942.008 1034.21
-59.7336 943.414 1032.95
-62.9032 943.818 1033.05
-68.887 947.561 1023.84
-66.689 949.713 1021.68
-68.5424 948.349 1022.42
-67.3284 950.052 1019.84
-70.1748 947.786 1023.43
-75.6873 947.912 1021.44
-74.1414 948.655 1020.02
-72.1529 950.577 1018.31
-75.6698 952.166 1016.3
-62.4169 946.68 1006.42
-62.6053 947.652 1006.08
-63.0211 954.124 1005.01
-63.2974 952.603 1005.08
-62.4986 955.267 1005.82
-64.0175 948.816 1006
-62.914 946.658 1006.67
-63.6887 948.385 1006.12
-66.1344 958.071 1001.8
-65.8868 958.574 1000.6
-65.5439 956.225 1004.42
-64.49 955.387 1004.78
-64.5988 954.204 1005.16
-65.1737 949.632 1005.89
-78.5915 955.162 1013.1
-74.9764 954.991 1011.73
-81.3365 959.456 1009.14
-79.6433 960.919 1006.53
-77.1913 961.836 1004.42
-71.3178 960.712 1001.54
-76.4445 962.25 1003.84
-68.3602 960.32 999.9
-68.1386 960.324 999.398
-66.267 959.457 998.485
-67.214 959.751 999.221
-66.6756 959.472 998.922
-67.0258 959.516 997.431
-67.8036 960.044 998.977
-65.6076 949.185 1006.1
-58.7795 964.745 995.415
-58.0146 965.588 995.108
-57.4855 966.368 995.031
-75.9454 972.599 994.02
-75.2524 971.506 993.57
-77.2821 972.237 992.229
-79.1264 972.928 991.912
-80.5867 973.42 991.687
-79.8455 973.175 992.172
-77.9641 972.526 992.017
-69.0451 971.198 995.663
-71.0192 972.589 995.993
-72.796 972.583 995.398
-69.7937 972.477 996.021
-70.5238 972.924 996.148
-69.1993 971.923 995.876
-74.0821 972.828 996.063
-73.6652 973.017 996.767
-75.0162 972.389 994.927
-64.4443 974.788 997.03
-66.0404 974.874 997.052
-64.2421 975.389 997.05
-62.6518 976.119 996.679
-63.3625 975.721 997.112
-57.9716 973.314 995.994
-59.8562 974.778 995.997
-65.6016 971.601 997.845
-55.8588 971.091 996.307
-56.3607 971.431 996.676
-55.4278 968.45 994.725
-55.773 967.099 994.387
-55.3702 967.674 994.411
-57.5349 965.985 994.033
-58.2754 964.695 994.074
-64.4104 969.448 999.137
-63.9677 969.556 999.64
-65.1392 968.998 999.127
-65.2202 969.73 998.667
-59.5684 961.507 1001.18
-58.9797 960.882 1000.9
-64.3097 960.461 1005.96
-63.7897 959.596 1006.2
-65.8212 965.083 1007.54
-65.8247 965.029 1008.66
-68.0769 970.641 1005.12
-67.4309 965.892 1006.47
-63.7506 960.021 1008.15
-64.0231 961.181 1008.07
-63.6462 958.779 1008.84
-64.3484 959.637 1011.62
-64.3304 961.351 1010.05
-66.9391 965.705 998.996
-67.4624 966.932 997.864
-67.609 967.34 996.776
-67.171 966.812 996.778
-67.1946 965.887 997.328
-62.9575 956.684 1007.26
-67.1029 965.653 996.769
-67.1869 970.53 996.451
-67.3524 971.128 996.064
-29.9449 1000.23 945.282
-30.021 1000.89 945.023
-30.7656 1000.83 945.76
-30.6883 999.996 946.084
-31.7633 998.74 947.02
-30.4841 999.532 946.103
-58.4218 959.996 1000.46
-59.0392 960.367 1000.91
-59.0391 958.988 1000.33
-58.2313 964.099 994.98
-62.5924 968.404 1000.91
-62.2586 967.637 1001.08
-61.0524 968.136 1000.05
-60.428 969.009 999.446
-58.911 967.601 997.555
-58.5936 967.615 997.002
-57.963 967.306 996.242
-57.5209 967.189 995.644
-56.9852 967.117 994.968
-57.0933 957.532 1001.38
-54.6033 956.286 1003.79
-54.029 957.237 1004.69
-59.7815 958.83 1000.03
-59.5362 958.92 1000.95
-59.7058 959.877 1001.42
-59.8013 960.573 1001.26
-51.7221 957.557 1005.7
-52.5326 959.626 1004.76
-51.5875 959.319 1005.52
-50.9988 958.592 1005.84
-60.3181 941.953 1037.38
-61.3369 942.709 1036.84
-57.5653 941.006 1036.86
-61.2883 943.578 1033.36
-62.1073 943.434 1035.61
-62.324 943.172 1036.32
-62.8924 943.604 1033.97
-66.6964 943.219 1035.66
-78.7436 947.939 1020.59
-76.5845 948.606 1019.38
-73.9466 949.042 1019.55
-71.8234 950.183 1019.04
-73.0042 951.062 1017.84
-73.7435 951.067 1017.65
-76.6718 950.401 1017.97
-81.2348 951.499 1017.17
-63.104 946.261 1006.36
-62.7775 955.048 1005.15
-63.4746 953.887 1004.99
-64.2 951.927 1005.33
-64.215 951.181 1005.43
-64.8719 953.182 1005.22
-62.4545 955.403 1006.39
-62.7653 955.574 1006.81
-65.0816 951.15 1005.64
-64.8344 948.907 1006.05
-62.9638 945.545 1006.78
-63.1141 948.103 1006.05
-67.0107 949.61 1006.22
-64.5122 948.457 1006.18
-66.3821 950.375 1006.03
-65.5394 959.149 999.328
-65.7946 956.877 1003.89
-65.1234 955.934 1004.59
-82.7519 957.378 1011.5
-84.0377 961.83 1007.36
-65.8438 959.511 997.581
-66.4144 959.482 997.5
-67.5255 959.484 997.53
-68.7997 959.721 997.073
-69.3604 960.356 995.65
-68.8304 960.396 995.506
-66.8116 948.882 1006.41
-66.2538 948.653 1006.39
-57.2646 965.638 994.282
-56.8594 966.212 994.205
-56.0527 967.393 994.087
-56.4711 966.778 994.147
-74.8621 972.924 995.677
-75.0887 974.139 996.407
-73.0642 972.903 997.856
-76.876 973.701 993.785
-76.8007 975.496 994.767
-76.5882 974.628 994.862
-77.2114 972.599 992.656
-80.0256 973.147 992.659
-78.5874 972.903 992.154
-78.9632 972.994 992.482
-68.634 971.482 995.741
-68.4058 970.789 995.553
-67.8055 970.565 995.522
-71.1288 973.244 996.18
-73.5919 972.621 995.573
-69.0673 972.555 995.956
-70.0697 973.2 996.202
-69.3745 973.237 996.054
-70.6107 973.478 996.304
-67.4566 970.566 995.967
-67.3606 972.768 997.173
-68.5457 972.444 997.334
-68.59 973.245 997.307
-69.3016 972.881 997.641
-69.2209 973.544 997.411
-60.88 975.495 995.805
-62.1809 976.399 996.155
-63.304 977.455 996.55
-63.602 976.31 997.011
-57.4891 973.178 995.831
-65.1505 970.93 998.287
-55.9303 965.823 994.163
-55.2071 966.384 993.906
-57.3079 965.229 993.785
-63.3851 969.062 1000.14
-64.6305 969.191 999.628
-65.5702 969.119 998.861
-64.0224 961.563 1007.5
-64.3681 962.214 1007.3
-65.6698 962.086 1005.38
-64.3445 964.259 1010.01
-64.5179 964.317 1009.02
-64.68 964.238 1008.05
-67.3115 965.251 1007.03
-65.8574 964.905 1009.24
-64.4862 964.579 1010.88
-64.3573 964.12 1010.7
-64.1762 962.069 1009.38
-64.0709 962.604 1008.71
-63.7785 957.988 1009.67
-64.6147 958.193 1013.11
-64.525 959.792 1012.77
-64.8345 958.83 1014.03
-64.3004 960.959 1010.94
-64.1869 962.243 1010.25
-67.546 968.189 1001.35
-67.5058 967.444 1000.05
-67.2301 966.67 998.728
-67.103 969.63 1003.55
-67.7367 967.426 997.465
-69.1791 968.929 998.943
-67.9262 967.407 997.995
-68.1698 967.775 996.887
-67.7838 968.749 996.507
-67.6841 968.223 1001.9
-64.0155 957.3 1010.96
-63.381 957.298 1008.63
-30.7839 999.25 946.527
-31.2537 998.85 946.925
-31.378 1000.65 946.416
-31.5318 999.258 947.045
-32.3749 999.027 947.227
-31.987 999.512 947.175
-59.0167 959.715 1001.11
-59.262 959.338 1001.37
-58.771 963.684 994.651
-61.8765 969.488 1000.77
-61.6062 970.03 1000.46
-62.8658 968.852 1001.4
-61.4992 971.321 1000.3
-60.249 970.503 999.189
-59.1976 969.825 998.247
-58.2664 968.815 997.38
-57.8714 968.255 996.795
-57.5472 968.018 996.251
-56.4424 968.237 995.38
-56.4972 967.443 994.937
-55.5994 958.059 1002.68
-55.8443 957.533 1002.6
-54.5272 956.928 1003.66
-53.8388 957.57 1005.12
-53.6209 959.559 1004.14
-61.2435 941.131 1039.04
-62.9539 941.997 1039.01
-65.4171 942.28 1038.98
-58.3351 940.337 1038.4
-65.5247 942.837 1037.29
-65.5298 942.571 1038.27
-68.4785 942.966 1037.06
-80.241 948.441 1019.74
-76.1074 948.95 1019
-73.4878 950.043 1018.69
-75.2109 950.057 1018.2
-63.3995 946.765 1006.77
-63.1136 947.407 1006.47
-63.6988 947.87 1006.16
-63.3693 955.296 1004.86
-63.2773 955.59 1005.59
-63.267 955.803 1006.56
-63.9695 953.958 1005.01
-63.948 955.513 1004.69
-62.906 956.248 1007.55
-64.3271 946.372 1007.12
-63.8572 945.926 1007.24
-64.9477 947.976 1006.47
-63.2069 945.012 1006.92
-63.5017 944.62 1007.02
-64.4369 947.891 1006.23
-66.5159 949.252 1006.24
-64.2845 956.159 1004.41
-65.6027 957.18 1003.35
-65.1832 948.431 1006.32
-66.802 959.766 996.079
-67.7451 959.734 996.402
-69.9557 960.466 995.426
-71.39 960.791 994.108
-70.7171 960.946 993.743
-68.1416 960.371 995.466
-70.1931 960.858 993.687
-69.5089 959.95 996.864
-67.9039 959.812 998.408
-58.3743 963.804 994.304
-56.8531 965.573 993.869
-55.6103 968.013 994.007
-74.9031 974.661 996.902
-75.5236 977.476 996.597
-72.2805 973.415 998.69
-76.9752 976.146 994.411
-75.47 978.349 996.914
-75.6434 978.876 996.809
-77.5815 972.97 992.905
-79.383 973.028 992.852
-81.8324 973.364 993.309
-80.8046 973.359 992.254
-78.1317 972.809 992.454
-78.6464 973.025 993.162
-67.7947 971.533 995.726
-71.0438 973.856 996.387
-72.4009 973.356 995.881
-73.5737 972.732 996.36
-68.6399 973.168 995.976
-68.4045 972.557 995.869
-69.9581 973.902 996.242
-69.1641 973.843 996.079
-73.2859 972.865 997.387
-72.4169 972.387 998.257
-67.4629 972.245 997.313
-68.6068 971.868 997.649
-69.0588 971.912 997.955
-69.732 972.716 997.843
-69.4473 972.231 998.056
-66.1928 975.383 997.039
-61.9029 975.846 995.653
-60.0936 975.273 995.549
-62.8129 976.443 995.894
-62.7847 977.458 996.154
-64.6983 976.44 996.4
-63.8197 977.581 996.707
-64.4201 976.397 997.039
-58.7992 974.47 995.653
-56.4554 972.334 996.182
-66.5589 972.724 997.401
-56.0781 971.906 996.284
-55.3281 969.091 994.869
-55.3845 969.778 995.418
-55.303 970.541 995.906
-58.2193 965.197 993.36
-54.8443 967.17 993.731
-55.335 964.87 993.632
-54.8177 965.048 993.105
-54.5376 966.019 993.108
-65.2319 968.606 999.547
-65.62 968.626 999.218
-65.6736 969.75 998.438
-64.884 962.849 1007.01
-64.2776 963.094 1007.87
-66.3384 963.315 1005.65
-66.6336 963.773 1005.67
-65.8684 964.938 1007.04
-64.8703 964.178 1007.55
-64.2338 963.276 1010.36
-64.1864 963.54 1009.53
-64.1935 963.504 1008.74
-67.8023 964.871 1007.46
-65.9972 964.732 1009.75
-64.5406 963.774 1011.43
-64.3653 963.155 1011.01
-64.1013 962.628 1009.36
-64.9898 956.8 1014.2
-65.1493 957.803 1014.9
-64.9386 959.682 1014.44
-64.512 960.348 1012.66
-64.2404 961.681 1011.01
-67.0276 970.205 1004.6
-67.6313 967.332 999.534
-67.825 967.115 998.66
-68.3863 967.49 998.246
-67.7552 968.048 1000.6
-67.1835 969.165 1002.66
-69.8856 969.877 999.547
-68.8137 969.118 998.339
-70.0318 970.29 999.015
-68.5485 968.7 997.334
-67.8086 967.331 1002.43
-67.5513 969.354 1004.32
-64.1524 956.846 1011.66
-64.9117 955.738 1013.95
-63.7519 957.399 1010.02
-67.4426 972.92 996.165
-67.3448 972.034 996.203
-68.2343 969.483 997.853
-66.9358 971.226 996.742
-31.2928 999.485 946.578
-31.677 1000.28 946.845
-63.9841 969.251 1000.24
-63.5649 969.128 1000.79
-62.7545 969.642 1001.32
-61.4004 972.713 999.988
-61.5778 972.133 1000.26
-62.3119 970.854 1000.92
-62.0033 971.529 1000.64
-60.0178 972.299 998.873
-59.0967 971.684 998.046
-57.8461 969.766 996.985
-56.6277 969.201 996.165
-56.5083 968.748 995.546
-55.7428 968.797 995.175
-54.5054 957.874 1003.64
-53.9103 957.769 1004.6
-55.1346 960.509 1002.95
-62.7748 940.08 1040.85
-64.9227 941.541 1040.15
-64.1867 940.897 1040.62
-65.127 941.966 1039.71
-67.1831 941.711 1039.95
-67.8385 942.321 1039.02
-67.5885 942.533 1038.28
-58.7408 939.213 1040.03
-68.3736 942.625 1038.03
-63.7025 945.591 1006.54
-63.9837 946.055 1006.5
-64.0118 946.647 1006.41
-64.1378 947.221 1006.33
-63.7217 947.488 1006.53
-63.6166 956.185 1004.68
-63.5065 956.021 1005.39
-63.5136 956.34 1006.37
-63.1287 956.231 1008.11
-63.5019 956.798 1009.16
-65.5282 946.213 1007.16
-64.9485 945.79 1007.2
-65.6227 946.926 1006.91
-64.3356 945.465 1007.23
-63.6799 945.326 1007.17
-65.3388 947.578 1006.38
-65.4654 958.366 1000.92
-64.6921 959.59 999.112
-65.2993 959.755 997.574
-66.1643 959.664 995.86
-65.1925 956.87 1004.04
-65.0338 957.348 1003.63
-65.0756 957.534 1003.12
-68.2552 960.137 998.775
-67.5187 963.005 998.249
-67.1344 960.242 995.593
-66.7359 959.72 995.225
-72.0545 960.921 993.66
-72.2391 960.778 994.166
-71.9644 961.123 993.139
-71.4266 961.218 992.929
-68.7374 960.656 994.469
-70.2563 960.826 993.033
-67.1428 948.523 1006.59
-66.5202 948.159 1006.64
-65.8115 948.274 1006.46
-56.3874 966.308 993.823
-55.8877 967.041 993.751
-74.8136 976.46 997.195
-72.6905 976.3 999.077
-73.5494 979.144 999.174
-73.7553 979.818 999.717
-71.9863 976.636 999.943
-71.8016 972.842 998.844
-71.4673 973.911 999.373
-75.5427 979.36 997.07
-77.2779 975.375 994.254
-74.0793 980.358 999.973
-77.5582 974.822 993.983
-79.4205 973.212 993.645
-79.993 972.95 994.011
-82.0814 973.048 994.622
-80.2112 972.92 994.834
-85.4272 972.754 997.664
-83.4828 973.578 992.675
-88.856 973.117 995.959
-77.9846 973.815 993.283
-78.2571 975.359 994.281
-71.3028 974.278 996.461
-72.0134 974.017 996.027
-73.1692 972.867 996.045
-67.826 973.767 996.3
-70.2615 974.789 996.37
-69.7589 974.417 996.23
-68.2752 974.383 996.35
-69.5043 971.651 998.389
-70.0951 972.332 998.139
-70.3152 973.293 997.666
-68.4274 974.562 997.136
-62.2757 974.952 996.122
-63.4255 974.916 996.102
-59.4686 975.028 995.442
-66.6 974.902 996.802
-63.9428 976.746 996.971
-65.7169 976.599 996.59
-67.3204 974.396 996.642
-67.9635 975.023 996.597
-65.248 977.297 996.723
-65.7821 976.22 996.992
-56.9544 973.205 995.653
-58.3014 974.371 995.438
-65.6328 970.739 998.059
-66.1178 970.728 997.932
-66.0695 972.107 997.592
-55.2742 971.112 995.919
-55.7443 972.243 995.751
-55.251 968.588 993.973
-57.4611 964.699 993.484
-54.9117 967.879 993.374
-54.0923 965.882 992.351
-65.5209 968.206 999.687
-66.0567 968.03 999.407
-67.1267 964.269 1009.65
-64.948 964.287 1011.63
-64.4365 961.728 1011.87
-64.8729 962.515 1012.49
-65.3407 958.364 1015.5
-64.9501 960.949 1013.52
-67.1833 969.966 1005.17
-68.767 968.047 998.892
-70.3563 971.07 999.502
-70.4554 970.664 999.128
-70.7583 971.63 999.386
-67.9019 967.695 1002.96
-64.2236 955.975 1012.02
-64.8042 954.892 1013.83
-65.1975 956.072 1014.66
-67.3159 973.475 996.475
-67.1464 972.438 996.571
-67.3318 969.973 996.876
-67.2403 970.541 997.168
-31.1024 999.952 946.413
-58.6536 964.295 994.017
-64.5447 969.34 1000.61
-63.9564 969.317 1001.16
-62.4525 970 1001.06
-63.3919 969.136 1001.3
-59.9552 973.152 998.753
-63.1946 971.764 1000.58
-65.1425 971.542 1003.48
-64.6584 971.411 1002.43
-62.1103 972.621 1001.02
-65.6915 971.413 1005.11
-62.1884 971.418 1001.13
-59.1266 972.767 998.072
-58.2169 971.652 997.233
-58.3653 972.325 997.38
-57.3785 970.967 996.482
-56.4756 970.42 995.67
-55.4085 970.202 994.686
-55.8946 970.613 995.124
-55.6389 959.111 1002.64
-54.2101 958.759 1004.05
-63.3196 938.531 1042.38
-66.4691 940.93 1041.16
-68.2071 942.095 1039.65
-64.909 937.812 1043.56
-69.0834 943.102 1037.12
-69.0083 942.337 1038.73
-63.8386 945.004 1006.66
-64.1971 945.562 1006.61
-64.634 947.064 1006.86
-65.8257 947.52 1006.68
-63.803 956.76 1004.33
-63.688 956.671 1005.8
-63.928 956.806 1005.34
-63.746 956.598 1006.77
-63.5078 956.376 1007.27
-64.4798 957.019 1003.97
-63.6075 956.225 1008.94
-64.0415 956.504 1010.79
-63.8013 956.828 1009.88
-66.0851 945.834 1007.21
-64.7646 945.185 1007.25
-64.1086 944.503 1007.11
-63.83 943.942 1006.97
-65.5122 960.037 999.644
-65.6003 959.617 996.084
-65.6405 957.902 1001.99
-65.7153 958.822 1002.96
-66.8275 959.989 1000.83
-68.7102 962.3 1000
-68.53 961.868 999.177
-67.7191 960.363 994.468
-68.8117 960.755 993.779
-67.0054 960.264 994.517
-72.6157 961.184 993.189
-72.7171 961.023 993.714
-71.7212 960.699 994.621
-71.663 961.582 992.434
-71.0817 961.28 992.561
-69.9117 960.44 996.874
-56.2689 965.808 993.52
-56.6266 965.148 993.514
-57.5036 964.341 993.845
-55.0676 967.342 993.269
-72.9213 979.615 1000.33
-72.994 980.582 1000.93
-71.3655 976.675 1000.65
-72.1649 980.178 1001.63
-70.8377 973.546 999.766
-71.2443 972.024 999.059
-71.3614 972.922 999.153
-70.7393 972.364 999.49
-73.9732 981.192 1000.8
-73.2302 981.176 1001.35
-77.6688 975.638 994.465
-77.1035 977.183 994.888
-78.9228 974.79 994.704
-79.0545 973.98 995.386
-80.1308 972.393 996.032
-79.7012 971.498 998.292
-79.1203 971.276 997.925
-78.6306 973.027 996.437
-79.8893 971.266 999.713
-84.1685 971.992 1005.56
-90.1032 971.534 1005.03
-80.5288 971.549 1003.48
-88.0862 973.452 993.265
-94.0169 972.757 1002.31
-81.348 973.183 992.48
-77.0645 977.782 996.033
-77.7871 976.119 995.554
-77.0078 977.677 995.347
-70.6812 974.302 996.431
-72.0938 973.638 996.393
-73.0214 972.765 996.516
-69.8399 975.061 996.323
-71.6765 973.786 996.679
-69.2072 974.692 996.227
-71.6666 971.962 998.732
-72.0859 971.948 998.387
-67.404 971.656 997.43
-70.7061 972.121 998.142
-66.6158 975.861 996.96
-69.7013 974.205 997.162
-62.3775 974.454 996.81
-63.1629 973.849 997.08
-62.9947 974.387 996.386
-63.7472 974.288 996.323
-66.4341 974.22 997.112
-61.1326 975.258 996.248
-59.2578 974.547 996.031
-67.2412 975.277 996.896
-66.4077 976.788 996.864
-57.5584 973.957 995.464
-65.2911 972.083 997.669
-66.4777 971.717 997.454
-66.9055 971.415 997.397
-55.4929 971.59 995.881
-55.0015 970.677 995.463
-54.9529 968.021 994.083
-57.9393 964.926 992.965
-55.8994 964.526 993.904
-54.2813 967.629 992.85
-54.3729 965.195 992.716
-65.9166 967.677 999.834
-66.4816 967.504 999.815
-66.3104 968.234 999.803
-68.4366 964.942 1007.72
-68.1829 965.719 1007.4
-68.4696 963.623 1009.86
-65.9751 963.481 1012.02
-65.6786 962.478 1013.3
-65.3455 961.482 1014.17
-65.23 956.714 1014.82
-65.288 957.46 1015.33
-65.2381 960.545 1015.01
-65.32 959.98 1015.65
-65.2612 959.504 1015.41
-67.6196 970.193 1005.41
-68.1422 970.034 1005.36
-67.5301 969.471 1005.55
-67.7434 968.911 1005.87
-67.9578 967.873 999.956
-69.456 969.406 999.979
-67.1553 970.522 1005.18
-66.8818 970.182 1004.04
-70.7633 971.292 998.98
-68.7817 969.875 998.402
