200.202 1372.67 1297.3 
201.297 1373.28 1293.33 
186.15 1371.97 1294.45 
203.019 1373.76 1287.37 
201.111 1373.91 1290.25 
197.885 1373.32 1294.71 
195.838 1372.58 1297.12 
199.136 1373.99 1291.95 
191.607 1372.79 1295.2 
188.169 1373.02 1293.3 
186.255 1372.99 1291.84 
182.822 1371.44 1291.78 
202.268 1374.11 1284.56 
200.275 1374.77 1286.53 
199.211 1374.57 1289.84 
195.054 1373.46 1294.63 
196.129 1374.33 1292.35 
197.526 1374.7 1290.94 
191.081 1373.45 1293.7 
190.723 1375.2 1290.56 
189.84 1375.29 1289.8 
189.358 1375.47 1288.89 
186.255 1373.69 1289.38 
181.288 1371.38 1288.43 
202.953 1373.49 1280.99 
201.806 1373.36 1279.11 
199.602 1375.15 1283.51 
198.957 1375.59 1285.24 
198.328 1375.89 1284.84 
198.993 1375.07 1288.05 
196.59 1377.01 1286.56 
197.726 1375.19 1289.67 
198.028 1375.35 1288.88 
193.846 1374.25 1292.69 
195.939 1375.02 1290.95 
194.364 1375.17 1291.03 
196.563 1375.61 1289.61 
192.799 1375.02 1291.38 
191.773 1375.24 1290.89 
192.155 1376.93 1288.73 
191.723 1376.98 1288.43 
191.354 1377 1288.06 
190.621 1376.84 1287.42 
190.308 1376.75 1287.04 
185.872 1373.81 1287.19 
182.795 1372.09 1285.11 
198.932 1375.2 1282.66 
198.242 1375.12 1281.84 
198.634 1373.35 1277.3 
197.225 1376.3 1284.55 
196.26 1377.23 1286.23 
196.508 1376.88 1287.19 
195.986 1377.03 1287.65 
195.511 1375.62 1290.02 
193.594 1376.86 1289.06 
194.243 1376.85 1288.93 
195.615 1377.04 1288.07 
194.774 1376.95 1288.63 
193.046 1376.9 1289.01 
192.728 1378.25 1287.37 
192.147 1378.03 1287.11 
190.485 1376.99 1286.54 
192.277 1378.28 1286.4 
189.864 1376.58 1286.02 
189.604 1376.36 1285.53 
184.836 1373.07 1282.99 
182.279 1371.43 1280.07 
196.678 1376.43 1284.38 
197.584 1374.69 1280.6 
196.32 1375.95 1283.28 
196.147 1373.87 1278.69 
195.849 1377.42 1285.62 
194.588 1378.31 1286.79 
194.164 1378.13 1287.54 
192.549 1378.42 1286.83 
190.163 1376.67 1285.33 
186.775 1374.14 1283.03 
185.972 1372.63 1280.32 
185.016 1371.72 1278.16 
195.328 1377.43 1285.02 
195.726 1375.33 1281.91 
195.738 1376.28 1283.67 
195.189 1375.91 1282.99 
192.508 1372.91 1277.19 
194.356 1374.61 1280.61 
191.087 1373.5 1279.52 
190.827 1373.06 1278.62 
194.502 1378.35 1285.87 
194.125 1378.63 1286.22 
194.133 1378.57 1286.77 
193.579 1378.75 1286.61 
193.366 1378.27 1287.56 
193.212 1378.64 1286.97 
192.877 1378.68 1286.26 
191.095 1377.27 1285.4 
188.016 1374.67 1283.04 
188.613 1374.28 1281.93 
194.115 1375.65 1282.45 
194.56 1377.19 1284.3 
194.08 1377.05 1284.02 
192.323 1375.31 1282.15 
190.697 1374.91 1281.92 
193.666 1378.61 1285.73 
191.57 1377.26 1284.86 
194.172 1378.32 1285.45 
193.502 1376.99 1283.93 
192.867 1376.91 1283.94 
193.637 1378.26 1285.22 
192.257 1376.99 1284.19 
192.899 1378.19 1285.19 
192.967 1378.49 1285.61 
