-314.062 -2559.73 2912.6
-314.055 -2560.23 2910.95
-314.013 -2560.14 2911.82
-314.012 -2560.44 2909.84
-313.848 -2560.76 2908.38
-312.439 -2562.57 2902.29
-312.027 -2563.1 2901.66
-311.562 -2563.72 2900.93
-311.22 -2563.9 2900.28
-310.435 -2564.57 2899.12
-308.704 -2567.22 2897.6
-307.467 -2569.23 2896.4
-307.037 -2570.59 2896.36
-308.059 -2568.27 2897.05
-307.68 -2569.19 2896.93
-313.585 -2561.29 2906.79
-313.244 -2561.95 2905.59
-312.901 -2562.53 2904.48
-312.669 -2562.93 2903.62
-312.49 -2563.01 2902.9
-312.279 -2563.05 2902.27
-313.449 -2560.14 2932.08
-313.842 -2560.12 2929.65
-313.855 -2559.49 2928.93
-313.803 -2560.69 2930.15
-313.713 -2561.19 2930.63
-314.112 -2561.27 2928.52
-314.169 -2561.21 2927.98
-314.202 -2561.29 2927.57
-314.23 -2561.3 2927.15
-314.233 -2561.37 2926.9
-313.915 -2558.9 2923.89
-314.086 -2560.2 2925.3
-313.776 -2558.83 2923.06
-313.579 -2558.73 2922.29
-313.66 -2559.05 2922.77
-313.522 -2558.64 2921.55
-313.498 -2558.92 2921.97
-313.872 -2559.14 2923.72
-314.223 -2561.35 2926.62
-314.224 -2561.58 2926.51
-313.427 -2558.68 2921.1
-313.27 -2558.99 2920.7
-313.095 -2559.25 2919.91
-313.083 -2559.27 2919.38
-313.134 -2559.19 2918.79
-313.185 -2559.22 2918.12
-313.074 -2559.39 2920.32
-313.112 -2559.62 2917.5
-313.708 -2559.6 2914.89
-313.086 -2559.87 2916.9
-313.491 -2559.93 2915.12
-313.877 -2560.1 2912.83
-313.902 -2560.58 2911.17
-313.845 -2560.78 2910.06
-313.869 -2560.5 2912.04
-313.704 -2561.09 2908.64
-313.591 -2561.33 2907.4
-311.864 -2563.61 2901.69
-311.378 -2564.28 2901
-310.597 -2564.98 2899.85
-310.019 -2565.42 2898.92
-309.111 -2566.9 2898.3
-308.382 -2568.03 2897.63
-307.283 -2570.7 2897.06
-307.136 -2571.61 2897.17
-306.94 -2571.88 2896.9
-306.652 -2571.84 2896.35
-308.006 -2568.81 2897.39
-307.741 -2569.58 2897.46
-307.47 -2570.53 2897.46
-313.02 -2562.42 2905.88
-312.889 -2562.69 2905.18
-312.648 -2563.13 2904.25
-312.438 -2563.4 2903.41
-312.218 -2563.52 2902.7
-312.035 -2563.64 2902.23
-313.194 -2561.05 2933.14
-313.56 -2561.68 2931.24
-312.84 -2561.63 2934.8
-314.006 -2561.74 2929.22
-313.84 -2562.41 2930.01
-314.119 -2561.83 2928.56
-314.192 -2561.89 2928.06
-314.23 -2561.92 2927.61
-314.24 -2561.96 2927.31
-314.243 -2561.96 2927.01
-314.078 -2560.33 2925.14
-314.221 -2561.76 2926.36
-313.781 -2559.34 2923.3
-313.51 -2559.28 2922.48
-313.629 -2559.63 2923.03
-313.403 -2559.01 2921.57
-313.381 -2559.35 2922.04
-313.855 -2559.66 2923.86
-314.051 -2560.51 2925.01
-314.246 -2562.18 2926.83
-313.303 -2559.04 2921.13
-313.142 -2559.34 2920.76
-312.876 -2559.69 2919.87
-312.854 -2559.73 2919.49
-312.909 -2559.66 2918.93
-312.717 -2560.04 2919.06
-312.929 -2559.7 2918.31
-312.896 -2559.77 2920.48
-312.773 -2559.92 2920.09
-312.771 -2560.11 2918.01
-312.863 -2560.1 2917.47
-312.734 -2560.44 2917.11
-313.267 -2560.28 2915.32
-313.678 -2560.45 2913.13
-313.739 -2560.92 2911.27
-313.683 -2561.11 2910.09
-313.53 -2561.47 2908.56
-313.707 -2560.85 2912.18
-313.276 -2561.95 2907.08
-311.577 -2564.3 2901.57
-310.425 -2565.69 2900.3
-310.091 -2565.81 2899.56
-308.771 -2567.62 2898.24
-308.295 -2568.57 2897.91
-307.347 -2571.34 2897.5
-307.104 -2572.48 2897.45
-307.257 -2572.29 2897.72
-306.838 -2572.69 2897.05
-306.539 -2572.72 2896.56
-306.18 -2573.11 2896.23
-307.952 -2569.39 2897.8
-307.58 -2570.6 2897.81
-307.723 -2570.05 2897.9
-307.47 -2571.37 2897.85
-303.003 -2575.43 2893.22
-302.679 -2575.72 2892.54
-302.731 -2575.78 2892.9
-303.165 -2575.54 2893.83
-302.178 -2576.22 2891.45
-301.602 -2577.03 2890.69
-312.545 -2563.33 2905.12
-312.444 -2563.56 2904.47
-312.385 -2563.67 2903.93
-312.21 -2563.84 2903.24
-312.005 -2564.03 2902.74
-311.727 -2564.34 2902.14
-313.193 -2562.87 2932.68
-313.423 -2562.27 2931.78
-312.228 -2563.91 2936.26
-312.849 -2563.79 2933.73
-314.017 -2562.28 2929.22
-313.643 -2563.18 2930.77
-313.892 -2562.78 2929.8
-314.096 -2562.4 2928.76
-314.197 -2562.45 2928.15
-314.236 -2562.51 2927.79
-314.241 -2562.51 2927.5
-314.244 -2562.52 2927.24
-314.213 -2561.86 2926.16
-314.247 -2562.43 2926.7
-313.749 -2559.91 2923.56
-313.415 -2559.69 2922.47
-313.496 -2560 2922.89
-313.619 -2560.23 2923.35
-313.28 -2559.36 2921.57
-313.272 -2559.71 2921.97
-313.955 -2560.93 2924.76
-314.021 -2560.81 2924.97
-314.196 -2561.98 2926.01
-314.244 -2562.72 2927.14
-313.168 -2559.42 2921.14
-312.936 -2559.78 2920.81
-312.586 -2560.23 2919.69
-312.569 -2560.29 2919.34
-312.684 -2560.14 2918.61
-312.413 -2560.6 2918.94
-312.373 -2560.7 2918.59
-312.624 -2560.24 2920.17
-312.679 -2560.23 2920.5
-312.319 -2560.73 2919.78
-312.431 -2560.65 2918.22
-312.529 -2560.61 2917.7
-312.257 -2561.15 2917.36
-312.482 -2560.98 2916.75
-313.076 -2560.61 2915.35
-313.505 -2560.87 2913.01
-313.528 -2561.4 2910.3
-313.552 -2561.21 2911.51
-313.393 -2561.73 2908.79
-312.844 -2562.72 2906.34
-310.685 -2565.6 2900.91
-309.459 -2567.08 2899.57
-309.282 -2567.01 2898.93
-308.657 -2568.02 2898.39
-308.385 -2568.68 2898.3
-308.085 -2569.24 2898.04
-307.328 -2572.3 2897.97
-306.92 -2574.35 2897.81
-307.034 -2574.56 2898.09
-307.252 -2574.44 2898.47
-307.14 -2574.43 2898.25
-306.608 -2574.66 2897.48
-306.753 -2574.68 2897.68
-306.443 -2574.69 2897.27
-305.781 -2573.5 2895.92
-306.267 -2574.85 2897.14
-307.816 -2569.98 2898.14
-307.511 -2571.46 2898.13
-307.624 -2570.68 2898.08
-307.356 -2572.48 2898.24
-307.423 -2572.29 2898.38
-303.155 -2575.8 2894.16
-301.747 -2578.11 2893.78
-301.445 -2578.37 2893.29
-301.336 -2578 2892.1
-301.062 -2578.78 2892.69
-301.778 -2578.36 2894.17
-300.181 -2579.86 2891.3
-299.527 -2580.74 2890.27
-312.12 -2564.11 2904.5
-312.057 -2564.23 2903.99
-312.045 -2564.26 2903.6
-311.999 -2564.24 2903.24
-311.728 -2564.59 2902.8
-311.591 -2564.77 2902.36
-310.599 -2565.85 2901.11
-311.574 -2565.42 2938.31
-311.56 -2566.16 2937.97
-312.323 -2565.72 2935.26
-313.227 -2564.4 2931.91
-312.474 -2566.77 2934.26
-313.982 -2562.85 2929.41
-313.729 -2563.44 2930.4
-314.108 -2562.74 2928.72
-314.171 -2562.91 2928.35
-314.216 -2562.89 2927.94
-314.235 -2562.9 2927.59
-314.231 -2562.46 2926.45
-314.236 -2562.85 2926.84
-314.239 -2562.98 2927.15
-313.891 -2561.1 2924.57
-313.286 -2560.03 2922.34
-313.346 -2560.34 2922.7
-313.464 -2560.59 2923.14
-313.828 -2561.29 2924.4
-313.168 -2559.74 2921.53
-313.168 -2560.09 2921.93
-314.176 -2562.11 2925.85
-314.203 -2562.57 2926.27
-314.232 -2563.1 2927.51
-313.011 -2559.8 2921.17
-312.738 -2560.21 2920.85
-312.221 -2560.91 2919.4
-312.132 -2561.08 2919.04
-312.023 -2561.3 2918.62
-312.058 -2561.3 2918.23
-312.28 -2560.84 2920.08
-312.338 -2560.83 2920.42
-311.374 -2562.37 2919.24
-311.504 -2562.18 2919.53
-312.18 -2561.16 2917.86
-311.815 -2561.85 2917.27
-311.97 -2561.76 2916.77
-312.293 -2561.48 2916.21
-312.951 -2560.99 2914.88
-313.386 -2561.23 2912.51
-313.094 -2562.19 2908.57
-313.28 -2561.8 2910.12
-313.357 -2561.55 2911.27
-312.733 -2562.86 2906.67
-312.11 -2564.1 2904.88
-309.402 -2567.39 2899.91
-309.063 -2567.72 2899.33
-309.075 -2567.49 2898.97
-308.746 -2568.14 2898.78
-308.188 -2569.23 2898.38
-308.482 -2568.72 2898.66
-307.972 -2569.73 2898.35
-307.355 -2574.46 2898.68
-306.888 -2576.03 2898.38
-307.039 -2576.32 2898.66
-307.176 -2576.16 2898.78
-307.264 -2576.15 2898.97
-306.749 -2576.23 2898.28
-306.595 -2576.33 2898.13
-305.48 -2573.82 2895.79
-305.847 -2575 2896.81
-306.083 -2575 2897.03
-306.45 -2576.49 2898.04
-303.167 -2576.05 2894.49
-307.784 -2570.32 2898.43
-307.679 -2570.65 2898.31
-307.561 -2571.44 2898.37
-307.474 -2572.25 2898.59
-307.407 -2574.29 2898.83
-307.429 -2574.37 2898.98
-301.831 -2578.6 2894.58
-300.808 -2580.21 2893.97
-300.526 -2580.39 2893.47
-300.022 -2581 2892.85
-299.998 -2580.54 2892.03
-299.141 -2582.08 2891.82
-301.012 -2580.23 2894.47
-298.513 -2582.69 2890.66
-311.66 -2564.81 2904.15
-311.694 -2564.8 2903.82
-311.682 -2564.82 2903.46
-311.644 -2564.81 2903.08
-310.696 -2565.95 2901.76
-310.473 -2566.11 2901.27
-310.896 -2567.88 2939.52
-311.984 -2566.71 2936.43
-311.454 -2568.64 2937.61
-311.629 -2567.76 2937.3
-312.173 -2568.22 2935.43
-312.619 -2566.82 2933.54
-313.303 -2564.56 2931.5
-312.281 -2568.39 2934.9
-314.036 -2563.09 2929.16
-313.821 -2563.54 2930
-314.092 -2563.27 2928.87
-314.14 -2563.3 2928.52
-314.189 -2563.19 2928.07
-314.187 -2563.37 2928.01
-314.2 -2562.95 2926.65
-314.209 -2563.26 2927.1
-314.227 -2563.34 2927.44
-314.144 -2562.24 2925.68
-313.172 -2560.46 2922.31
-313.313 -2560.84 2922.93
-313.779 -2561.56 2924.38
-313.694 -2561.75 2924.27
-313.025 -2560.12 2921.55
-313.017 -2560.45 2921.89
-314.17 -2562.66 2926.07
-314.159 -2563.03 2926.41
-314.192 -2563.5 2927.83
-312.876 -2560.14 2921.24
-312.369 -2560.87 2920.73
-312.689 -2560.45 2921.14
-311.172 -2562.68 2918.58
-311.226 -2562.59 2918.91
-311.091 -2562.8 2918.19
-311.131 -2562.75 2917.87
-311.713 -2561.92 2917.65
-311.064 -2562.88 2917.42
-311.37 -2562.45 2919.77
-311.39 -2562.46 2920.04
-311.491 -2562.41 2920.36
-310.516 -2563.91 2919.34
-310.235 -2564.25 2918.57
-311.29 -2562.85 2916.05
-310.971 -2563.18 2916.29
-311.819 -2562.23 2915.82
-312.87 -2561.33 2914.31
-312.624 -2561.71 2914.23
-313.205 -2561.58 2912.2
-310.108 -2569.84 2941
-310.42 -2569.64 2940.14
-312.571 -2562.99 2907.59
-312.215 -2563.77 2905.81
-312.837 -2562.38 2909.64
-313.039 -2562 2911.01
-311.66 -2564.78 2904.54
-309.403 -2567.55 2900.26
-308.997 -2568.02 2899.66
-308.806 -2568.2 2899.18
-308.066 -2569.72 2898.65
-308.28 -2569.27 2898.73
-308.569 -2568.72 2899
-307.865 -2570.27 2898.67
-307.314 -2576.07 2899.16
-306.916 -2576.75 2898.69
-307.056 -2576.89 2898.96
-307.16 -2576.71 2899.03
-307.235 -2576.7 2899.23
-306.742 -2576.81 2898.51
-306.618 -2576.98 2898.45
-305.712 -2575.33 2896.84
-305.246 -2574.24 2895.8
-306.273 -2576.55 2897.9
-306.469 -2577.09 2898.36
-303.615 -2575.83 2894.95
-303.116 -2576.45 2894.77
-301.784 -2579.21 2895.01
-307.744 -2570.75 2898.64
-307.639 -2571.19 2898.56
-307.552 -2571.94 2898.74
-307.468 -2574.1 2899.08
-307.469 -2572.61 2898.92
-307.349 -2576.27 2899.39
-307.402 -2575.84 2899.42
-301.127 -2580.58 2895.01
-299.603 -2582.16 2893.21
-300.034 -2581.84 2893.91
-299.047 -2582.69 2892.42
-298.35 -2583.41 2891.46
-300.271 -2581.95 2894.51
-310.665 -2566.12 2903.23
-310.593 -2566.21 2902.7
-310.57 -2566.25 2902.91
-310.646 -2566.14 2902.51
-310.594 -2566.19 2902.19
-310.555 -2566.2 2901.89
-309.54 -2567.45 2900.71
-311.245 -2569.3 2937.99
-312.023 -2569.06 2935.72
-312.659 -2567.22 2933.28
-312.379 -2568.51 2934.41
-313.342 -2564.79 2931.21
-312.178 -2569.17 2935.07
-313.879 -2563.72 2929.7
-313.984 -2563.77 2929.25
-314.108 -2563.6 2928.57
-314.081 -2563.77 2928.35
-314.167 -2563.36 2926.89
-314.11 -2563.74 2927.3
-314.177 -2563.62 2927.5
-314.099 -2562.45 2925.55
-314.136 -2562.71 2925.85
-313.036 -2560.81 2922.28
-313.197 -2561.01 2922.78
-313.581 -2561.89 2924.13
-314.001 -2562.68 2925.44
-312.846 -2560.51 2921.56
-312.881 -2560.84 2921.97
-314.117 -2563.08 2926.11
-314.12 -2563.4 2926.59
-314.084 -2563.83 2928.01
-311.575 -2562.42 2920.69
-312.376 -2561 2921
-312.694 -2560.79 2921.51
-309.883 -2564.72 2916.89
-309.998 -2564.55 2917.64
-309.856 -2564.74 2916.24
-310.65 -2563.57 2916.42
-309.79 -2564.86 2915.38
-310.49 -2564.1 2919.72
-310.556 -2564.14 2920.14
-310.645 -2564.23 2920.61
-310.183 -2564.49 2918.99
-309.726 -2565.16 2917.81
-309.601 -2565.3 2917.12
-310.5 -2564.17 2914.24
-309.967 -2564.82 2914.05
-309.688 -2565.15 2914.1
-311.425 -2563.01 2914.78
-312.437 -2562.1 2913.78
-312.833 -2562.14 2911.65
-309.419 -2572.07 2942.55
-309.509 -2571.87 2942.04
-309.37 -2572.11 2943.07
-309.743 -2571.41 2941.32
-310.063 -2570.86 2940.44
-310.963 -2569.88 2938.5
-312.097 -2563.72 2906.91
-311.708 -2564.61 2905.16
-312.428 -2562.87 2909.51
-310.602 -2566.19 2903.43
-309.06 -2568.1 2900.16
-308.666 -2568.55 2899.43
-308.827 -2568.36 2899.81
-307.929 -2570.29 2898.94
-308.117 -2569.83 2898.99
-308.31 -2569.4 2899.06
-308.479 -2569.01 2899.22
-307.809 -2570.78 2898.92
-307.286 -2576.77 2899.43
-306.857 -2577.19 2898.82
-306.953 -2577.2 2899
-307.023 -2577.25 2899.18
-307.122 -2577.01 2899.23
-307.18 -2577.11 2899.41
-306.746 -2577.48 2898.83
-306.606 -2577.58 2898.73
-305.553 -2575.59 2896.81
-306.122 -2576.88 2897.92
-304.956 -2574.68 2895.75
-306.304 -2577.08 2898.19
-306.429 -2577.57 2898.56
-303.119 -2577.18 2895.36
-302.182 -2578.72 2895.23
-301.054 -2582.22 2896.12
-301.58 -2581.47 2896.38
-307.7 -2571.23 2898.86
-307.595 -2571.83 2898.93
-307.477 -2572.58 2899.12
-307.491 -2574.34 2899.27
-307.331 -2576.92 2899.61
-307.39 -2576.5 2899.64
-307.446 -2575.91 2899.63
-300.601 -2583.16 2896.05
-298.965 -2583.53 2893.21
-298.311 -2584.15 2892.34
-299.463 -2583.25 2893.99
-297.933 -2584.37 2891.57
-300.15 -2584.03 2895.91
-309.27 -2572.59 2945.51
-308.506 -2575.34 2945.21
-309.468 -2567.65 2902.15
-309.451 -2567.65 2901.46
-309.448 -2567.68 2901.78
-309.513 -2567.54 2901.23
-309.285 -2567.84 2900.74
-311.831 -2569.65 2936.09
-312.705 -2567.44 2933
-312.423 -2568.66 2934.09
-312.277 -2569.14 2934.63
-313.401 -2564.93 2930.87
-312.046 -2569.71 2935.36
-313.394 -2565.15 2930.71
-313.946 -2564 2929.2
-313.97 -2564.05 2928.9
-313.951 -2564.16 2928.65
-314.051 -2563.79 2927.01
-313.988 -2564.08 2927.4
-314.044 -2563.99 2927.8
-314.085 -2563.03 2925.79
-312.9 -2561.3 2922.43
-313.087 -2561.33 2922.79
-313.434 -2561.95 2923.89
-313.828 -2562.81 2925.17
-313.986 -2563.08 2925.54
-312.752 -2561.09 2921.93
-314.067 -2563.42 2926.21
-313.987 -2563.85 2926.73
-313.932 -2564.24 2928.39
-311.501 -2562.75 2921.02
-310.561 -2564.66 2921.03
-312.425 -2561.22 2921.37
-309.376 -2565.61 2916.24
-309.437 -2565.43 2915.76
-309.494 -2565.34 2914.94
-309.419 -2565.6 2913.37
-310.151 -2564.72 2919.39
-310.242 -2564.74 2919.95
-310.362 -2564.79 2920.52
-309.773 -2565.24 2918.37
-309.322 -2565.92 2917.13
-309.191 -2566.05 2916.32
-310.434 -2564.44 2912.94
-309.802 -2565.58 2910.59
-309.64 -2565.71 2911.08
-309.44 -2565.99 2911.08
-309.243 -2566.35 2910.8
-312.191 -2562.58 2913.05
-312.306 -2562.89 2910.63
-309.081 -2573.21 2943.53
-309.066 -2573.61 2942.35
-309.293 -2573.04 2941.65
-309.515 -2572.41 2941.31
-309.833 -2571.73 2940.59
-310.827 -2570.36 2938.62
-310.715 -2570.8 2938.68
-311.65 -2564.37 2906.47
-311.416 -2564.98 2905.16
-310.528 -2566.24 2903.66
-311.631 -2564.13 2907.62
-309.407 -2567.66 2902.55
-308.908 -2568.38 2900.32
-308.638 -2568.71 2899.89
-308.467 -2569.07 2899.59
-307.941 -2570.36 2899.24
-307.826 -2570.81 2899.17
-308.104 -2569.97 2899.38
-308.302 -2569.5 2899.45
-307.715 -2571.3 2899.13
-307.23 -2577.27 2899.56
-306.842 -2577.56 2899.02
-306.922 -2577.58 2899.16
-306.979 -2577.7 2899.33
-307.079 -2577.43 2899.36
-307.124 -2577.61 2899.52
-306.73 -2577.87 2899.07
-306.643 -2577.92 2898.99
-306.533 -2577.96 2898.87
-305.374 -2575.78 2896.73
-305.939 -2577.08 2897.84
-306.259 -2577.51 2898.37
-306.095 -2577.39 2898.15
-304.494 -2575.46 2895.7
-305.161 -2576.05 2896.66
-303.339 -2577.28 2895.7
-306.391 -2577.97 2898.73
-302.414 -2580.15 2896.55
-302.043 -2580.63 2896.41
-301.6 -2583 2897.55
-301.208 -2583.72 2897.53
-302.107 -2582.32 2897.75
-307.617 -2571.75 2899.13
-307.491 -2572.48 2899.29
-307.511 -2574.3 2899.41
-307.527 -2574.26 2899.55
-307.281 -2577.4 2899.71
-307.341 -2577.04 2899.78
-307.398 -2576.6 2899.82
-307.471 -2575.95 2899.8
-300.9 -2584.58 2897.65
-298.632 -2584.58 2893.44
-297.938 -2585.13 2892.36
-299.479 -2584.97 2895.28
-300.224 -2585.6 2897.08
-307.061 -2580.08 2949.03
-307.469 -2578.9 2947.15
-308.042 -2577 2944.27
-308.64 -2575.11 2942.93
-306.826 -2580.67 2950.57
-308.98 -2568.27 2901.97
-309.01 -2568.29 2901.56
-309.021 -2568.27 2901.18
-309 -2568.27 2900.77
-311.674 -2570.1 2936.36
-312.752 -2567.51 2932.65
-312.444 -2568.86 2933.81
-312.331 -2569.27 2934.3
-312.154 -2569.69 2934.91
-311.883 -2570.11 2935.71
-313.422 -2565.25 2930.45
-312.78 -2567.49 2932.25
-313.461 -2565.31 2930.16
-313.475 -2565.42 2929.91
-313.908 -2564.21 2927.15
-313.875 -2564.42 2927.56
-313.96 -2564.23 2927.78
-313.88 -2564.45 2928.32
-314.013 -2563.47 2925.88
-313.133 -2562.44 2923.66
-313.233 -2562.26 2923.71
-312.766 -2561.56 2922.39
-313.386 -2562.22 2923.96
-313.757 -2563.17 2925.18
-313.903 -2563.43 2925.56
-312.611 -2561.39 2921.91
-313.924 -2563.9 2926.39
-313.834 -2564.31 2926.88
-313.546 -2565.29 2929.5
-311.681 -2562.59 2921.3
-310.731 -2564.75 2921.58
-310.39 -2565.37 2921.38
-310.237 -2565.4 2920.93
-312.311 -2561.76 2921.69
-309.097 -2566.13 2915.21
-309.177 -2565.93 2914.85
-309.28 -2565.7 2914.45
-309.172 -2566.14 2912.52
-309.011 -2566.83 2910.24
-309.807 -2565.37 2918.89
-309.991 -2565.27 2919.68
-310.137 -2565.27 2920.35
-309.391 -2566.04 2917.85
-309.01 -2566.6 2916.8
-308.989 -2566.48 2916.05
-308.947 -2566.46 2914.99
-311.582 -2563.33 2912.58
-311.1 -2564.09 2910.8
-309.863 -2565.77 2909.12
-309.07 -2567.1 2907.42
-308.932 -2567.18 2907.94
-308.587 -2567.66 2907.72
-308.408 -2567.91 2907.83
-308.999 -2574.26 2941.64
-309.342 -2573.43 2940.81
-309.762 -2572.33 2940.26
-309.551 -2572.96 2940.39
-310.562 -2571.26 2938.8
-311.522 -2570.53 2936.58
-310.491 -2566.08 2904.67
-310.484 -2566.2 2904.11
-309.516 -2567.45 2903.07
-310.619 -2565.23 2907.74
-310.06 -2566.34 2905.61
-309.003 -2568.14 2902.52
-308.717 -2568.7 2900.35
-308.436 -2569.18 2900.01
-308.281 -2569.59 2899.85
-307.941 -2570.46 2899.57
-307.844 -2570.79 2899.4
-307.723 -2571.32 2899.39
-308.107 -2570.04 2899.75
-307.636 -2571.7 2899.38
-307.174 -2577.76 2899.69
-306.805 -2577.92 2899.22
-306.868 -2577.96 2899.35
-306.886 -2578.16 2899.53
-307.006 -2577.9 2899.52
-307.049 -2578.05 2899.71
-306.599 -2578.31 2899.22
-306.701 -2578.19 2899.27
-306.537 -2578.22 2899.07
-306.431 -2578.35 2899.02
-305.794 -2577.31 2897.82
-305.981 -2577.6 2898.15
-306.191 -2577.87 2898.49
-303.985 -2576.7 2895.97
-305.023 -2576.67 2896.85
-303.234 -2578.4 2896.3
-302.775 -2579.94 2896.85
-306.331 -2578.29 2898.85
-302.485 -2581.58 2897.67
-302.827 -2580.94 2897.62
-301.648 -2583.41 2897.96
-302.121 -2582.78 2898.18
-301.38 -2584.27 2898.28
-302.534 -2582.17 2898.27
-307.551 -2572.12 2899.41
-307.471 -2572.85 2899.55
-307.543 -2574.39 2899.71
-307.471 -2576.04 2899.96
-307.229 -2577.76 2899.85
-307.293 -2577.46 2899.87
-307.342 -2577.12 2899.94
-307.396 -2576.71 2899.98
-300.797 -2585.24 2897.97
-298.75 -2585.9 2894.46
-297.709 -2585.87 2892.42
-297.261 -2586 2891.49
-299.28 -2586.85 2896.02
-299.694 -2586.97 2897.05
-306.626 -2581.61 2949.5
-306.817 -2580.97 2948.34
-306.903 -2580.66 2947.16
-307.482 -2578.86 2945.44
-308.009 -2577.19 2942.84
-308.449 -2575.92 2942.35
-308.823 -2575.02 2941.19
-306.517 -2581.89 2950.77
-308.692 -2568.75 2901.48
-308.721 -2568.64 2902
-308.734 -2568.71 2901.11
-308.776 -2568.64 2900.78
-312.47 -2569.02 2933.53
-312.337 -2569.49 2934.11
-312.128 -2569.92 2934.88
-311.822 -2570.37 2935.77
-312.777 -2567.58 2931.93
-312.487 -2569.19 2933.25
-312.758 -2567.7 2931.67
-312.692 -2567.95 2931.53
-312.976 -2566.74 2930.49
-313.784 -2564.54 2927.28
-313.737 -2564.81 2927.99
-313.837 -2564.59 2928.12
-313.684 -2564.82 2927.69
-313.461 -2565.51 2929.33
-313.839 -2563.9 2926.05
-313.03 -2562.67 2923.66
-313.604 -2563.31 2925.01
-313.441 -2563.61 2925.04
-312.577 -2561.92 2922.34
-313.749 -2563.74 2925.64
-313.748 -2564.38 2926.6
-313.648 -2564.72 2927.09
-311.5 -2563.36 2921.77
-310.541 -2566.12 2922.67
-310.815 -2565.76 2922.96
-310.282 -2566.86 2922.79
-310.101 -2566.96 2922.3
-310.04 -2565.84 2920.75
-311.69 -2563.34 2922.14
-312.269 -2562.51 2922.35
-308.786 -2566.97 2912.77
-308.873 -2566.8 2912.39
-308.794 -2567.23 2910.06
-308.213 -2568.22 2907.9
-309.71 -2565.83 2919.22
-309.433 -2566.24 2918.42
-309.906 -2565.8 2920.12
-308.985 -2566.88 2917.29
-308.756 -2567.26 2916.39
-308.835 -2566.86 2915.89
-308.788 -2566.87 2914.97
-308.671 -2567.25 2912.91
-308.568 -2567.54 2913.1
-309.208 -2567.37 2905.31
-308.253 -2568.37 2906.14
-308.697 -2568.09 2904.72
-307.941 -2568.81 2906.02
-307.791 -2568.97 2906.39
-309.185 -2574.17 2940.49
-309.486 -2573.52 2939.84
-309.749 -2572.85 2939.61
-310.684 -2571.46 2938.26
-311.533 -2570.79 2936.27
-309.435 -2567.46 2903.57
-308.967 -2568.08 2903.1
-308.708 -2568.54 2902.67
-308.534 -2569.01 2900.39
-308.241 -2569.71 2900.26
-308.347 -2569.37 2900.48
-308.085 -2570.15 2900.15
-307.859 -2570.81 2899.68
-307.951 -2570.51 2899.89
-307.745 -2571.27 2899.61
-307.633 -2571.77 2899.68
-307.554 -2572.12 2899.64
-307.091 -2578.06 2899.89
-306.761 -2578.32 2899.46
-306.797 -2578.54 2899.68
-306.92 -2578.32 2899.72
-306.957 -2578.34 2899.9
-306.468 -2578.56 2899.23
-306.522 -2578.68 2899.4
-306.637 -2578.53 2899.44
-306.351 -2578.74 2899.22
-306.323 -2578.59 2899.05
-305.815 -2577.79 2898.09
-305.579 -2577.64 2897.8
-306.035 -2578.06 2898.44
-306.197 -2578.31 2898.72
-304.599 -2577.32 2896.84
-304.16 -2577.99 2896.86
-304.239 -2578.66 2897.31
-303.261 -2579.77 2897.18
-303.275 -2580.51 2897.71
-306.226 -2578.63 2898.96
-302.875 -2581.57 2898.2
-303.328 -2581.01 2898.18
-301.798 -2583.67 2898.46
-302.131 -2583.08 2898.48
-302.556 -2582.46 2898.62
-301.484 -2584.56 2898.87
-302.93 -2581.88 2898.59
-307.474 -2572.8 2899.74
-307.549 -2574.27 2899.85
-307.479 -2575.74 2900.07
-307.392 -2576.84 2900.13
-307.448 -2576.38 2900.17
-307.264 -2577.69 2900.03
-307.152 -2577.96 2900.05
-307.301 -2577.48 2900.06
-307.336 -2577.27 2900.12
-300.622 -2585.91 2898.25
-297.563 -2588.55 2893.6
-297.894 -2586.98 2893.46
-297.118 -2587.79 2892.35
-296.725 -2588.01 2891.63
-297.947 -2588.61 2894.42
-299.385 -2587.78 2897.05
-297.69 -2589.27 2894.37
-306.338 -2582.91 2949.18
-306.474 -2582.32 2948.22
-306.527 -2581.97 2947.3
-306.525 -2581.83 2946.3
-306.943 -2580.48 2946.02
-307.455 -2578.83 2944.1
-307.748 -2578.01 2942.24
-308.243 -2576.76 2941.09
-308.52 -2575.98 2941.07
-309.014 -2574.84 2940.09
-306.294 -2582.94 2950.83
-308.423 -2569.15 2901.46
-308.433 -2569.15 2901.08
-308.428 -2569.07 2901.95
-308.468 -2569.11 2900.73
-312.359 -2569.56 2933.83
-312.161 -2570 2934.64
-311.921 -2570.45 2935.38
-312.462 -2569.37 2933.07
-312.334 -2569.74 2933.71
-312.418 -2569.48 2932.92
-312.603 -2568.2 2931.32
-312.39 -2569.5 2932.67
-312.869 -2566.92 2930.19
-313.535 -2565.02 2927.56
-313.367 -2565.7 2929.12
-313.257 -2565.88 2928.88
-313.116 -2566.12 2928.73
-313.654 -2564.33 2926.29
-312.914 -2562.89 2923.64
-313.278 -2563.86 2925.04
-313.591 -2563.8 2925.44
-313.451 -2564.19 2925.63
-312.78 -2563.11 2923.61
-313.576 -2564.25 2925.98
-313.515 -2564.86 2926.88
-313.398 -2565.18 2927.37
-310.734 -2567.61 2924.95
-310.313 -2568.55 2924.93
-311.375 -2564.96 2923.23
-311.078 -2566.79 2924.85
-309.946 -2569.13 2924.51
-309.909 -2567.62 2922.35
-309.796 -2567.39 2921.6
-312.614 -2563.55 2923.75
-308.514 -2567.73 2910.46
-308.459 -2567.87 2911.02
-308.614 -2567.55 2910.15
-308.049 -2568.5 2908.08
-307.641 -2569.19 2906.56
-309.43 -2566.57 2918.95
-309.632 -2566.5 2919.82
-309.056 -2567.1 2917.98
-309.607 -2567.78 2921.3
-308.749 -2567.59 2917
-308.602 -2567.73 2916.28
-308.643 -2567.37 2915.37
-308.477 -2567.98 2915.47
-308.472 -2567.85 2913.34
-308.355 -2568.22 2911.22
-308.47 -2568.47 2904.37
-308.193 -2568.83 2904.35
-307.675 -2569.26 2905.56
-307.969 -2569.18 2904.13
-307.507 -2569.45 2905.94
-309.355 -2574.1 2939.41
-309.668 -2573.46 2939.07
-310.667 -2571.73 2938.03
-310.487 -2572.21 2938.02
-311.404 -2571.16 2936.3
-311.72 -2570.84 2935.62
-308.437 -2568.94 2902.64
-308.059 -2570.09 2900.56
-308.194 -2569.68 2900.68
-308.263 -2569.47 2900.94
-307.933 -2570.48 2900.53
-307.955 -2570.56 2900.19
-307.779 -2571.18 2899.86
-307.872 -2570.86 2900.01
-307.677 -2571.62 2899.86
-307.53 -2572.28 2899.92
-307.588 -2572.04 2900
-307.478 -2572.86 2899.95
-307.003 -2578.28 2900.09
-306.681 -2578.7 2899.63
-306.713 -2578.83 2899.84
-306.829 -2578.62 2899.91
-306.901 -2578.52 2900.11
-306.404 -2578.84 2899.39
-306.559 -2578.83 2899.58
-306.434 -2578.97 2899.55
-306.227 -2578.84 2899.15
-306.292 -2578.98 2899.37
-305.848 -2578.33 2898.42
-305.594 -2578.12 2898.07
-305.323 -2578.03 2897.79
-306.042 -2578.64 2898.78
-304.309 -2579.2 2897.7
-305.294 -2578.53 2898.08
-304.311 -2579.62 2897.99
-304.334 -2579.96 2898.27
-306.036 -2578.92 2899.01
-303.256 -2581.4 2898.49
-303.671 -2580.94 2898.48
-304.49 -2580.13 2898.55
-301.981 -2583.86 2898.95
-302.344 -2583.24 2898.97
-302.605 -2582.7 2898.95
-302.994 -2582.15 2898.94
-301.051 -2585.67 2899.02
-301.942 -2584.33 2899.46
-303.374 -2581.64 2898.85
-307.518 -2574.43 2900.04
-307.441 -2575.91 2900.29
-307.39 -2576.96 2900.3
-307.35 -2577.24 2900.3
-307.429 -2576.62 2900.37
-307.22 -2577.85 2900.21
-307.289 -2577.62 2900.25
-307.071 -2578.16 2900.23
-307.319 -2577.45 2900.35
-296.676 -2589.42 2892.3
-296.771 -2589.85 2892.85
-299.414 -2588.07 2897.47
-297.546 -2589.84 2894.61
-296.607 -2590.44 2893.05
-306.153 -2583.92 2950.16
-306.148 -2584.13 2948.97
-306.248 -2583.46 2948.15
-306.268 -2583.12 2947.26
-306.251 -2582.9 2946.27
-306.515 -2581.73 2945.38
-306.19 -2582.79 2945.27
-306.95 -2580.24 2944.84
-307.165 -2579.51 2943.2
-307.394 -2578.83 2941.51
-307.972 -2577.46 2940.58
-308.823 -2575.46 2939.63
-308.636 -2576.03 2939.26
-309.211 -2574.65 2939.02
-306.051 -2583.64 2952.67
-308.25 -2569.47 2901.31
-308.24 -2569.44 2901.74
-308.244 -2569.31 2902.4
-312.209 -2569.98 2934.33
-311.989 -2570.49 2935.01
-312.299 -2569.93 2933.62
-312.17 -2570.16 2934.31
-312.268 -2570.02 2933.41
-312.518 -2568.32 2931.03
-312.343 -2569.6 2932.49
-312.228 -2570.11 2933.22
-312.765 -2567.07 2929.87
-312.866 -2566.4 2928.29
-313.003 -2566.25 2928.5
-312.375 -2568.26 2930.31
-312.436 -2568.31 2930.67
-313.422 -2564.86 2926.6
-313.089 -2564.15 2925.03
-313.272 -2564.36 2925.52
-313.359 -2564.74 2926.25
-313.254 -2564.74 2926.01
-313.277 -2565.3 2927.14
-312.713 -2566.53 2928.05
-311.078 -2568.3 2926.75
-310.499 -2569.63 2926.9
-309.943 -2570.41 2926.33
-312.233 -2564.19 2923.8
-312.102 -2565.22 2924.72
-312.18 -2565.63 2925.34
-311.981 -2566.46 2926.16
-312.072 -2566.06 2925.76
-309.598 -2570.64 2925.49
-309.706 -2569.51 2924.12
-309.564 -2569.36 2923.29
-312.901 -2564.58 2925.21
-307.931 -2568.74 2908.34
-307.766 -2569.06 2908.31
-308.229 -2568.37 2909.99
-308.143 -2568.66 2910.23
-307.494 -2569.4 2906.74
-307.343 -2569.68 2906.09
-309.203 -2567.34 2918.91
-309.362 -2568.17 2920.72
-308.789 -2567.93 2917.73
-309.275 -2569.88 2922.61
-308.564 -2568.3 2916.91
-308.39 -2568.49 2915.85
-308.378 -2568.2 2913.51
-308.226 -2568.86 2914.08
-308.269 -2568.62 2913.41
-308.258 -2568.57 2911.38
-308.061 -2568.97 2910.36
-307.84 -2569.44 2903.89
-307.476 -2569.58 2905.34
-307.303 -2569.8 2905.6
-309.601 -2573.91 2938.56
-310.565 -2572.4 2937.54
-311.455 -2571.33 2935.92
-311.75 -2570.98 2935.29
-307.914 -2570.35 2900.9
-308.059 -2569.92 2900.97
-308.093 -2569.78 2901.27
-307.863 -2570.84 2900.38
-307.832 -2570.74 2900.76
-307.714 -2571.51 2900.1
-307.797 -2571.17 2900.2
-307.632 -2571.87 2900.15
-307.462 -2572.89 2900.18
-307.493 -2572.44 2900.25
-307.527 -2572.19 2900.41
-307.48 -2574.55 2900.23
-307.439 -2574.57 2900.4
-306.971 -2578.45 2900.32
-306.592 -2578.97 2899.75
-306.725 -2578.89 2900.03
-306.6 -2579.06 2899.94
-306.82 -2578.75 2900.12
-306.881 -2578.69 2900.3
-306.316 -2579.13 2899.54
-306.477 -2579.08 2899.7
-306.361 -2579.26 2899.71
-306.17 -2579.08 2899.31
-305.991 -2579.15 2899.18
-306.134 -2579.31 2899.49
-305.566 -2578.58 2898.34
-305.729 -2578.82 2898.65
-305.815 -2579.06 2898.91
-305.367 -2578.93 2898.43
-305.5 -2579.21 2898.74
-305.771 -2579.3 2899.09
-303.696 -2581.19 2898.75
-304.582 -2580.4 2898.87
-305.336 -2579.6 2898.9
-302.408 -2583.51 2899.34
-302.72 -2582.83 2899.3
-302.677 -2583.05 2899.53
-303.055 -2582.38 2899.27
-303.44 -2581.85 2899.15
-301.14 -2585.96 2899.58
-302.07 -2584.41 2899.92
-302.4 -2583.72 2899.69
-304.537 -2580.81 2899.28
-304.586 -2580.63 2899.11
-307.405 -2576.14 2900.5
-307.38 -2577.1 2900.47
-307.349 -2577.31 2900.52
-307.398 -2576.93 2900.58
-307.245 -2577.83 2900.42
-307.136 -2578.05 2900.38
-307.294 -2577.65 2900.49
-307.057 -2578.29 2900.45
-307.318 -2577.52 2900.61
-299.306 -2588.48 2897.76
-297.488 -2590.31 2895.06
-296.547 -2590.91 2893.41
-305.978 -2584.85 2951.34
-306.008 -2585.03 2949.9
-305.986 -2585.19 2948.94
-306.062 -2584.44 2948.06
-306.083 -2584 2947.23
-306.059 -2583.76 2946.3
-306.144 -2582.54 2944.31
-306.518 -2581.46 2944.49
-305.923 -2583.4 2944.55
-305.986 -2583.67 2945.41
-306.71 -2580.65 2943.54
-306.856 -2580.1 2942.06
-307.104 -2579.27 2939.95
-307.667 -2578.08 2939.82
-308.457 -2576.43 2938.66
-309.076 -2575.1 2938.52
-308.953 -2575.5 2937.97
-309.487 -2574.35 2938.12
-308.085 -2569.76 2901.67
-308.087 -2569.6 2902.34
-311.944 -2570.66 2934.85
-312.157 -2570.37 2934
-312.143 -2570.33 2934.25
-312.121 -2570.46 2933.8
-312.284 -2569.72 2932.31
-312.177 -2570.24 2933.07
-312.066 -2570.57 2933.6
-312.136 -2568.55 2929.98
-312.259 -2568.45 2930.21
-312.161 -2569.88 2932.14
-313.183 -2565.35 2926.87
-312.99 -2564.93 2925.77
-313.095 -2565.32 2926.59
-312.967 -2565.27 2926.25
-312.554 -2566.64 2927.8
-311.965 -2568.8 2929.82
-312.06 -2566.72 2926.73
-311.082 -2569.57 2928.42
-309.883 -2571.08 2927.22
-309.336 -2571.73 2926.38
-309.181 -2571.64 2925.47
-309.374 -2570.82 2924.77
-309.311 -2570.44 2923.78
-307.584 -2569.4 2908.25
-307.3 -2569.69 2906.81
-307.471 -2569.64 2908.33
-307.18 -2569.91 2906.19
-307.141 -2570.04 2905.69
-309.083 -2568.71 2920.05
-308.816 -2569.11 2919.16
-308.962 -2570.24 2921.4
-308.55 -2569.64 2918.41
-308.888 -2571.12 2922.57
-308.341 -2569.97 2917.65
-308.216 -2569.87 2916.67
-308.039 -2570.55 2916.02
-308.115 -2569.49 2914.07
-308.176 -2568.88 2911.65
-308.066 -2569.35 2912.07
-308.016 -2569.19 2910.62
-307.298 -2570.14 2908.54
-307.377 -2569.88 2908.47
-307.716 -2569.69 2903.69
-307.301 -2569.89 2905.05
-307.127 -2570.16 2905.18
-310.646 -2572.54 2937.08
-310.337 -2573.15 2937.18
-311.534 -2571.42 2935.49
-311.711 -2571.11 2935.06
-307.906 -2570.2 2901.28
-307.808 -2570.6 2901.15
-307.92 -2570.08 2901.64
-307.762 -2571.11 2900.59
-307.724 -2570.96 2901.02
-307.689 -2571.45 2900.44
-307.597 -2571.84 2900.48
-307.408 -2572.93 2900.47
-307.405 -2574.47 2900.57
-307.399 -2572.57 2900.67
-307.446 -2572.26 2900.78
-307.362 -2575.95 2900.68
-306.934 -2578.67 2900.5
-307.013 -2578.49 2900.58
-306.479 -2579.22 2899.87
-306.633 -2579.08 2900.14
-306.75 -2578.93 2900.27
-306.506 -2579.26 2900.08
-306.837 -2578.86 2900.45
-306.202 -2579.41 2899.65
-306.252 -2579.51 2899.81
-306.38 -2579.4 2899.92
-305.932 -2579.4 2899.35
-305.736 -2579.54 2899.27
-305.924 -2579.75 2899.69
-305.821 -2579.7 2899.52
-305.574 -2579.42 2898.98
-305.505 -2579.75 2899.23
-305.349 -2579.78 2899.09
-303.021 -2582.61 2899.55
-303.438 -2582.19 2899.63
-303.454 -2582.01 2899.39
-304.547 -2580.93 2899.47
-301.332 -2585.97 2900.14
-302.266 -2584.22 2900.22
-302.596 -2583.51 2900.06
-305.553 -2579.95 2899.5
-307.364 -2576.68 2900.75
-307.345 -2577.24 2900.71
-307.3 -2577.48 2900.8
-307.324 -2577.19 2900.86
-307.241 -2577.89 2900.64
-307.155 -2578.08 2900.58
-307.271 -2577.76 2900.75
-307.09 -2578.32 2900.68
-307.256 -2577.7 2900.9
-299.48 -2588.5 2898.42
-297.41 -2590.67 2895.46
-296.459 -2591.32 2893.77
-305.763 -2586.01 2952.72
-305.886 -2586.12 2950.76
-305.912 -2586.18 2949.7
-305.906 -2585.6 2948.28
-305.889 -2586.37 2948.92
-305.91 -2585.05 2947.52
-305.905 -2584.67 2946.71
-305.84 -2584.51 2945.87
-305.813 -2583.27 2943.54
-306.055 -2582.43 2943.32
-306.334 -2581.65 2943.39
-305.628 -2584.18 2944.11
-305.733 -2584.35 2944.98
-306.302 -2581.43 2942.46
-306.178 -2581.41 2941.43
-306.566 -2580.47 2940.74
-306.439 -2580.43 2939.05
-307.995 -2577.32 2938.2
-307.448 -2578.29 2937.48
-308.712 -2575.98 2937.44
-309.364 -2574.76 2937.62
-309.162 -2575.15 2937.08
-310.352 -2573.29 2936.73
-293.335 -2597.69 2887.75
-293.427 -2597.47 2888.15
-307.913 -2569.9 2902.29
-311.923 -2570.78 2934.6
-311.934 -2570.83 2934.3
-311.87 -2570.93 2934.03
-312.106 -2570.38 2932.94
-311.946 -2570.77 2933.44
-311.788 -2571.05 2933.79
-311.909 -2570.13 2931.72
-312.036 -2570.02 2931.95
-311.939 -2570.6 2932.74
-312.458 -2566.6 2927.47
-312.267 -2566.71 2927.18
-311.735 -2569.09 2929.51
-311.7 -2570.28 2931.27
-310.605 -2570.79 2928.87
-309.374 -2572.24 2927.59
-308.777 -2572.86 2926.35
-308.851 -2572.11 2924.77
-308.976 -2571.44 2923.84
-307.078 -2570.07 2906.81
-307.037 -2570.17 2906.37
-306.99 -2570.26 2907.1
-307 -2570.27 2905.98
-306.993 -2570.36 2905.57
-308.551 -2570.81 2919.91
-308.584 -2571.24 2921.01
-308.203 -2571.57 2918.89
-308.473 -2572.16 2922.34
-308.309 -2572.03 2921
-307.966 -2571.72 2917.65
-307.752 -2572.29 2916.7
-307.652 -2572.6 2914.59
-307.867 -2571.18 2914.15
-307.97 -2569.94 2912.26
-308.025 -2569.37 2911.3
-307.866 -2569.95 2911.27
-307.825 -2569.65 2910.38
-307.21 -2570.47 2908.64
-306.861 -2570.64 2907.24
-307.581 -2569.94 2903.54
-307.018 -2570.43 2905.09
-307.434 -2570.18 2903.54
-311.301 -2571.88 2935.67
-311.542 -2571.48 2935.14
-311.692 -2571.21 2934.78
-307.776 -2570.44 2901.57
-307.688 -2570.79 2901.44
-307.724 -2570.19 2902.25
-307.643 -2571.29 2900.88
-307.6 -2571.13 2901.32
-307.572 -2571.63 2900.82
-307.496 -2571.97 2900.88
-307.349 -2573.07 2900.8
-307.357 -2574.72 2900.75
-307.322 -2572.68 2901.06
-307.356 -2572.35 2901.18
-307.313 -2576.31 2900.95
-306.804 -2578.96 2900.62
-306.931 -2578.77 2900.72
-306.983 -2578.62 2900.83
-306.599 -2579.18 2900.32
-306.689 -2579.09 2900.47
-306.411 -2579.43 2900.24
-306.306 -2579.55 2900.11
-305.972 -2579.88 2899.9
-306.186 -2579.69 2900.01
-305.599 -2580.14 2899.74
-305.658 -2580.24 2899.94
-302.922 -2583.1 2900.09
-303.356 -2582.44 2899.86
-303.267 -2582.7 2900.09
-304.489 -2581.36 2900.01
-304.583 -2581.17 2899.85
-304.587 -2581.03 2899.66
-301.529 -2585.88 2900.65
-302.297 -2584.36 2900.7
-302.567 -2583.74 2900.38
-302.885 -2583.31 2900.35
-307.295 -2577.02 2901.03
-307.26 -2577.5 2901.02
-307.194 -2577.8 2901.16
-307.247 -2577.42 2901.15
-307.135 -2578.19 2900.81
-307.164 -2578.06 2900.93
-307.166 -2577.97 2901.07
-307.007 -2578.5 2900.96
-300.34 -2587.7 2899.88
-298.558 -2589.75 2897.77
-297.25 -2591.05 2895.68
-305.508 -2587.26 2954.11
-305.755 -2586.94 2951.95
-305.816 -2587.25 2950.42
-305.842 -2587.18 2949.57
-305.853 -2586.06 2947.83
-305.851 -2586.76 2948.47
-305.841 -2587.43 2948.99
-305.797 -2585.71 2947.08
-305.71 -2585.45 2946.29
-305.603 -2585.19 2945.42
-305.464 -2583.96 2942.85
-305.672 -2583.09 2942.49
-305.904 -2582.32 2942.32
-305.403 -2585.29 2944.49
-305.339 -2584.83 2943.53
-305.673 -2582.46 2941.25
-305.392 -2582.72 2940.04
-305.652 -2582.09 2939.67
-305.41 -2582.2 2937.8
-306.226 -2580.31 2935.55
-308.382 -2576.49 2936.85
-308.061 -2576.87 2935.89
-308.89 -2575.6 2936.58
-310.303 -2573.44 2936.33
-310.148 -2573.69 2936.03
-309.862 -2574.08 2935.8
-311.255 -2572.02 2935.34
-293.821 -2596.53 2890.21
-293.536 -2597.24 2888.55
-293.65 -2597.08 2889.28
-293.735 -2596.83 2889.68
-293.581 -2597.34 2889.01
-293.165 -2598.4 2887.17
-293.301 -2598.17 2887.61
-293.392 -2597.96 2888
-293.48 -2597.78 2888.39
-311.674 -2571.31 2934.5
-311.604 -2571.42 2934.21
-311.815 -2570.97 2933.26
-311.607 -2571.36 2933.74
-311.788 -2570.71 2932.41
-311.567 -2570.89 2931.99
-311.594 -2571.21 2932.94
-311.424 -2570.54 2930.83
-311.197 -2571.2 2931.49
-310.486 -2571.43 2929.69
-309.28 -2572.95 2928.88
-308.69 -2573.58 2927.9
-308.049 -2574.03 2925.32
-308.118 -2574.68 2927.76
-308.492 -2572.5 2923.49
-306.895 -2570.5 2906.36
-306.88 -2570.57 2906.72
-306.854 -2570.59 2905.99
-306.861 -2570.66 2905.56
-308.213 -2571.89 2919.76
-307.883 -2572.43 2918.43
-307.925 -2573.17 2921.49
-307.942 -2572.76 2920.36
-307.923 -2572.58 2919.4
-307.63 -2572.95 2917.25
-307.509 -2573.23 2914.95
-307.297 -2574 2912.67
-307.385 -2573.53 2912.34
-307.761 -2571.44 2912.7
-307.791 -2570.49 2911.51
-307.698 -2570.13 2910.43
-307.607 -2570.83 2910.7
-307.153 -2570.81 2908.84
-306.795 -2571 2907.62
-306.689 -2571.08 2907.11
-306.745 -2570.91 2906.83
-306.92 -2570.71 2905.02
-307.351 -2570.42 2903.46
-307.621 -2570.57 2902.06
-311.481 -2571.63 2934.9
-307.559 -2570.95 2901.79
-307.522 -2571.45 2901.24
-307.47 -2571.3 2901.67
-307.456 -2571.76 2901.27
-307.402 -2572.06 2901.27
-307.276 -2574.64 2901.12
-307.292 -2573.19 2901.15
-307.325 -2574.61 2900.91
-307.249 -2576.1 2901.21
-307.254 -2572.74 2901.46
-307.289 -2572.32 2901.59
-307.239 -2576.81 2901.29
-306.53 -2579.32 2900.6
-306.672 -2579.15 2900.75
-306.796 -2578.97 2900.9
-306.863 -2578.83 2901.08
-306.421 -2579.45 2900.44
-306.243 -2579.69 2900.4
-306.131 -2579.84 2900.35
-306.011 -2579.98 2900.28
-305.62 -2580.37 2900.18
-305.882 -2580.08 2900.15
-303.221 -2582.91 2900.34
-304.3 -2581.62 2900.18
-304.317 -2581.67 2900.35
-301.657 -2585.88 2901.15
-302.39 -2584.33 2901.13
-302.643 -2583.71 2900.73
-302.94 -2583.3 2900.63
-303.26 -2582.91 2900.61
-307.218 -2577.26 2901.32
-307.18 -2577.72 2901.32
-307.067 -2578.15 2901.36
-307.082 -2578.03 2901.47
-307.168 -2577.63 2901.46
-307.033 -2578.39 2901.1
-307.051 -2578.28 2901.23
-306.905 -2578.7 2901.24
-299.654 -2588.65 2899.51
-300.72 -2587.53 2900.9
-297.366 -2591.21 2896.7
-296.872 -2591.6 2895.66
-305.575 -2588.17 2953
-305.72 -2587.81 2951.48
-305.733 -2588.54 2950.65
-305.778 -2588.22 2950.02
-305.801 -2588.11 2949.47
-305.812 -2587.08 2948.07
-305.732 -2586.8 2947.4
-305.775 -2588.01 2948.52
-305.785 -2588.65 2948.94
-305.636 -2586.47 2946.64
-305.499 -2586.07 2945.69
-305.334 -2585.96 2944.87
-305.244 -2583.81 2941.6
-305.073 -2584.59 2941.95
-305.333 -2583.28 2941.17
-305.106 -2586.46 2944.27
-305.111 -2585.78 2943.61
-305.072 -2585.21 2942.75
-304.82 -2583.86 2939.54
-304.709 -2583.74 2938.4
-304.593 -2583.72 2937.44
-304.184 -2584.17 2936.07
-304.837 -2582.91 2935.67
-307.338 -2577.72 2933.73
-306.6 -2579.11 2932.57
-305.48 -2581.44 2931.87
-305.026 -2582.38 2933.64
-308.752 -2575.73 2935.89
-307.993 -2576.52 2933.75
-308.651 -2575.72 2935.03
-309.979 -2573.89 2935.28
-311.164 -2572.19 2935.11
-311.038 -2572.43 2934.95
-293.836 -2596.58 2891.59
-293.687 -2596.95 2893.14
-293.818 -2596.67 2890.91
-293.718 -2597.12 2890.4
-293.73 -2597.15 2891.1
-293.534 -2597.69 2888.75
-293.599 -2597.58 2889.44
-293.659 -2597.32 2889.82
-293.55 -2597.87 2889.09
-293.262 -2598.67 2887.48
-293.177 -2598.85 2887.21
-293.023 -2598.74 2886.85
-293.336 -2598.53 2887.78
-293.41 -2598.39 2888.09
-293.477 -2598.3 2888.39
-293.52 -2598.17 2888.67
-292.834 -2598.84 2886.45
-292.638 -2598.92 2886.04
-292.42 -2598.97 2885.57
-311.388 -2571.82 2934.65
-311.358 -2571.81 2934.19
-311.54 -2571.45 2933.46
-311.281 -2571.89 2933.82
-311.464 -2571.23 2932.45
-311.18 -2571.57 2932.23
-311.27 -2571.84 2933.39
-311.19 -2571.79 2932.88
-310.297 -2572.09 2930.49
-310.827 -2571.98 2931.98
-308.989 -2573.83 2930.21
-308.53 -2574.4 2929.63
-308.199 -2575.12 2929.76
-307.542 -2576.1 2928.07
-306.765 -2576.94 2925.54
-306.708 -2576.15 2923.14
-307.791 -2573.82 2922.79
-307.767 -2576.06 2929.73
-306.748 -2570.85 2906.4
-306.713 -2570.9 2906.01
-306.767 -2570.92 2905.46
-307.638 -2573.16 2918.26
-307.588 -2573.52 2919.8
-307.628 -2573.28 2919.01
-307.444 -2573.52 2917.07
-307.368 -2573.72 2915.12
-307.155 -2574.54 2912.59
-306.722 -2575.38 2910.3
-306.646 -2575.76 2910.46
-307.607 -2571.99 2911.91
-306.928 -2574.67 2910.64
-307.446 -2572.23 2911.21
-307.158 -2571.15 2909.14
-307.146 -2571.57 2909.41
-306.723 -2571.46 2907.79
-306.594 -2571.47 2907.15
-306.571 -2571.43 2906.67
-306.63 -2571.18 2906.52
-306.818 -2570.99 2904.93
-307.284 -2570.66 2903.36
-307.218 -2570.89 2903.29
-307.385 -2571.62 2901.73
-307.141 -2571.11 2903.29
-307.323 -2571.97 2901.72
-307.225 -2574.66 2901.36
-307.154 -2576.15 2901.63
-307.24 -2573.27 2901.48
-307.172 -2576.65 2901.57
-307.177 -2572.59 2901.9
-307.135 -2572.98 2901.96
-306.947 -2572.01 2903.25
-306.906 -2572.31 2903.16
-307.155 -2577.05 2901.61
-306.274 -2579.68 2900.63
-306.395 -2579.53 2900.74
-306.528 -2579.35 2900.91
-306.642 -2579.16 2901.06
-306.727 -2579.01 2901.27
-306.121 -2579.9 2900.65
-306.002 -2580.07 2900.61
-305.794 -2580.31 2900.57
-305.65 -2580.41 2900.42
-304.231 -2581.79 2900.52
-304.393 -2581.68 2900.69
-301.823 -2585.78 2901.67
-302.471 -2584.25 2901.49
-302.723 -2583.67 2901.1
-303.015 -2583.24 2900.92
-303.35 -2582.83 2900.9
-304.301 -2581.8 2900.89
-307.139 -2577.45 2901.63
-307.083 -2577.93 2901.62
-306.945 -2578.47 2901.51
-306.945 -2578.38 2901.66
-306.959 -2578.24 2901.78
-307.072 -2577.83 2901.8
-306.924 -2578.6 2901.39
-306.77 -2578.91 2901.48
-300.482 -2588.05 2901.24
-299.276 -2589.23 2899.53
-301.099 -2587.26 2901.75
-297.249 -2591.53 2897.22
-305.527 -2589.17 2952.96
-305.662 -2588.88 2951.61
-305.745 -2589.39 2950.12
-305.689 -2589.61 2951.02
-305.765 -2589.14 2949.51
-305.699 -2587.73 2947.55
-305.724 -2588.12 2947.98
-305.574 -2587.48 2946.83
-305.646 -2589.16 2947.94
-305.717 -2589.15 2948.44
-305.769 -2589.88 2949.06
-305.733 -2590.2 2948.63
-305.422 -2587.12 2945.98
-305.236 -2586.96 2945.15
-304.591 -2585.07 2940.64
-304.663 -2584.52 2940.09
-304.598 -2585.91 2941.72
-304.337 -2585.8 2940.72
-304.957 -2587.36 2944.39
-304.87 -2586.76 2943.55
-304.786 -2586.26 2942.75
-304.056 -2585.27 2938.8
-304.058 -2584.95 2938.08
-303.718 -2585.22 2936.87
-303.336 -2585.54 2935.66
-303.665 -2584.83 2934.76
-307.917 -2576.18 2931.5
-307.349 -2577.29 2931.23
-305.747 -2580.79 2930.12
-306.352 -2579.4 2930.05
-304.826 -2582.51 2928.56
-309.879 -2573.97 2934.91
-309.845 -2573.93 2934.42
-308.649 -2575.33 2933.27
-308.409 -2575.32 2931.71
-309.807 -2573.87 2933.89
-310.97 -2572.44 2934.21
-311.077 -2572.34 2934.58
-293.626 -2597.24 2892.93
-293.695 -2597.18 2891.95
-293.247 -2598.63 2895.08
-293.664 -2597.56 2891.02
-293.635 -2597.64 2890.38
-293.581 -2597.75 2892.03
-293.532 -2598.3 2888.96
-293.572 -2598.09 2889.48
-293.617 -2597.82 2889.86
-293.543 -2598.46 2889.26
-293.228 -2599.17 2887.45
-293.301 -2599.03 2887.73
-293.135 -2599.34 2887.17
-293.057 -2599.13 2886.95
-292.911 -2599.17 2886.62
-293.376 -2598.92 2888
-293.457 -2598.85 2888.28
-293.515 -2598.71 2888.56
-293.545 -2598.83 2888.82
-292.747 -2599.22 2886.26
-292.559 -2599.34 2885.87
-292.254 -2599.52 2885.43
-292.028 -2599.4 2885.09
-291.686 -2599.71 2884.61
-291.23 -2600.23 2883.97
-310.947 -2572.38 2933.73
-310.773 -2572.33 2932.67
-310.895 -2572.36 2933.26
-310.012 -2572.76 2931.17
-309.758 -2573.37 2931.97
-308.791 -2574.66 2931.74
-307.038 -2577.67 2929.37
-306.36 -2578.74 2927.61
-306.587 -2571.27 2906.08
-306.636 -2571.17 2905.75
-306.685 -2571.22 2905.28
-307.384 -2573.79 2917.89
-307.307 -2574.02 2918.41
-307.235 -2574.09 2916.74
-307.204 -2574.26 2915
-307.03 -2574.94 2912.62
-306.51 -2576.25 2910.57
-306.294 -2576.26 2908.84
-306.422 -2575.58 2908.89
-306.131 -2576.91 2908.83
-306.76 -2574.76 2909.83
-306.952 -2573.82 2910.07
-307.081 -2572.1 2909.57
-306.688 -2571.87 2907.99
-306.562 -2572.33 2907.84
-306.501 -2571.96 2907.24
-306.477 -2571.83 2906.7
-306.506 -2571.6 2906.14
-306.439 -2571.88 2906.24
-306.733 -2571.3 2904.78
-307.035 -2571.66 2903.19
-307.076 -2571.34 2903.3
-307.168 -2574.69 2901.64
-307.089 -2576.77 2901.92
-307.067 -2576.32 2902.02
-307.072 -2573.41 2902.09
-306.817 -2572.71 2903.25
-306.753 -2573.08 2903.32
-306.578 -2572.27 2904.39
-306.597 -2571.93 2904.61
-306.705 -2571.65 2904.49
-306.616 -2572.55 2904.08
-307.074 -2577.16 2901.94
-306.023 -2580.09 2900.9
-306.142 -2579.91 2900.93
-306.307 -2579.67 2900.97
-306.389 -2579.54 2901.16
-306.529 -2579.31 2901.24
-306.588 -2579.2 2901.47
-305.845 -2580.35 2900.92
-305.714 -2580.46 2900.79
-301.877 -2585.81 2902.14
-302.593 -2584.07 2901.88
-302.793 -2583.64 2901.49
-302.044 -2585.52 2902.5
-303.084 -2583.2 2901.27
-303.412 -2582.78 2901.18
-304.381 -2581.76 2901.09
-307.036 -2577.57 2902.02
-306.926 -2578.12 2902.04
-306.799 -2578.82 2901.7
-306.799 -2578.68 2901.88
-306.738 -2578.58 2902.2
-306.772 -2578.39 2902.28
-306.801 -2578 2902.55
-306.645 -2579.09 2901.74
-301.205 -2587.32 2902.43
-299.376 -2589.32 2900.27
-297.318 -2591.72 2898.4
-305.087 -2590.39 2956.25
-305.391 -2589.78 2953.79
-305.586 -2589.88 2952.17
-305.762 -2590.48 2950.43
-305.783 -2590.36 2949.72
-305.706 -2590.68 2951.26
-305.571 -2589.08 2947.45
-305.548 -2588.34 2947.09
-305.429 -2588.02 2946.41
-305.604 -2590.2 2947.8
-305.669 -2590.23 2948.23
-305.864 -2592.19 2949.8
-305.86 -2592.48 2949.46
-305.847 -2592.66 2949.09
-305.269 -2587.87 2945.75
-305.087 -2587.97 2945.15
-304.107 -2585.59 2939.57
-303.741 -2586.5 2939.49
-304.175 -2587.08 2941.47
-303.93 -2586.77 2940.42
-304.763 -2588.36 2944.38
-304.626 -2587.64 2943.45
-304.419 -2587.28 2942.45
-303.222 -2586.87 2938.18
-302.844 -2587.06 2937.1
-302.87 -2586.67 2936.48
-304.968 -2582.05 2927.67
-305.555 -2580.76 2927.86
-309.786 -2573.75 2933.3
-309.571 -2573.84 2932.68
-304.275 -2594.15 2961.09
-304.079 -2595.28 2961.82
-304.457 -2593.94 2960.2
-290.892 -2600.88 2883.65
-293.447 -2597.98 2893.36
-292.978 -2599.68 2895.58
-293.598 -2598.01 2890.95
-293.558 -2598.06 2891.68
-293.585 -2598.14 2890.37
-293.396 -2598.5 2892.68
-293.231 -2598.81 2893.92
-293.568 -2598.94 2889.08
-293.562 -2598.63 2889.56
-293.579 -2598.35 2889.91
-293.614 -2599.17 2889.34
-293.581 -2600.38 2887.81
-293.504 -2600.41 2887.62
-293.629 -2600.29 2888
-293.415 -2600.67 2887.27
-293.505 -2600.67 2887.47
-292.985 -2599.57 2886.81
-292.823 -2599.58 2886.45
-293.663 -2600.19 2888.18
-293.672 -2600.05 2888.36
-293.734 -2600.22 2888.53
-293.766 -2600.32 2888.71
-293.789 -2600.38 2888.88
-292.682 -2599.67 2886.15
-292.46 -2599.78 2885.75
-291.952 -2599.85 2885
-292.186 -2600.01 2885.35
-291.549 -2600.3 2884.44
-291.19 -2600.7 2884.05
-306.571 -2571.5 2905.53
-306.501 -2571.72 2905.68
-306.618 -2571.57 2905.03
-307.092 -2574.44 2917
-306.809 -2575.14 2918.38
-307.037 -2574.59 2917.74
-306.992 -2574.89 2914.7
-306.85 -2575.46 2912.72
-306.397 -2576.64 2910.79
-306 -2577.47 2908.91
-306.07 -2576.65 2908.01
-306.253 -2575.9 2908.2
-306.359 -2575.24 2908.28
-306.52 -2574.79 2908.77
-305.864 -2577.39 2907.76
-306.904 -2573.01 2909.44
-306.568 -2573.56 2908.41
-306.645 -2572.67 2908.36
-306.367 -2572.7 2907.16
-306.479 -2572.86 2907.77
-306.384 -2572.31 2906.77
-306.347 -2572.37 2906.34
-306.424 -2572 2905.78
-306.338 -2572.34 2905.97
-307.07 -2574.77 2902.04
-306.971 -2576.83 2902.37
-306.97 -2576.3 2902.43
-306.968 -2574.79 2902.47
-306.69 -2573.45 2903.42
-306.5 -2572.92 2904.33
-306.356 -2573.32 2904.72
-306.448 -2572.28 2904.93
-306.42 -2572.75 2904.73
-306.516 -2571.87 2905.17
-306.893 -2577.29 2902.58
-305.753 -2580.47 2901.21
-305.837 -2580.34 2901.37
-306.076 -2580.02 2901.26
-306.148 -2579.91 2901.43
-306.226 -2579.79 2901.58
-306.419 -2579.49 2901.47
-306.487 -2579.37 2901.73
-304.46 -2581.71 2901.29
-302.961 -2583.46 2902.06
-302.68 -2583.98 2902.45
-302.099 -2585.52 2903.07
-303.137 -2583.19 2901.69
-301.574 -2586.89 2903.3
-303.493 -2582.72 2901.5
-306.801 -2577.72 2902.77
-306.661 -2578.32 2902.71
-306.576 -2579.03 2902.13
-306.593 -2578.86 2902.35
-306.476 -2578.85 2902.76
-306.559 -2578.62 2902.77
-306.25 -2578.21 2904.3
-306.324 -2577.94 2904.22
-306.47 -2579.29 2902.07
-300.938 -2587.81 2902.65
-299.307 -2589.58 2900.87
-301.291 -2587.45 2903.48
-304.896 -2592.39 2957.96
-304.698 -2593.61 2959.13
-305.159 -2591.49 2956.29
-305.33 -2590.69 2954.62
-305.497 -2590.82 2953.26
-305.622 -2590.91 2952.2
-305.883 -2592.82 2951.37
-305.885 -2592.53 2950.79
-305.913 -2592.82 2950.43
-305.862 -2593.07 2951.99
-305.544 -2590.27 2947.47
-305.479 -2589.42 2947.07
-305.413 -2588.82 2946.64
-305.269 -2588.7 2946.14
-305.817 -2592.6 2948.74
-305.781 -2592.45 2948.4
-306.006 -2594.58 2950.34
-306.051 -2594.82 2950.95
-305.978 -2594.67 2949.77
-305.967 -2594.91 2949.42
-305.11 -2588.72 2945.62
-304.849 -2588.97 2944.96
-303.045 -2587.67 2938.64
-302.477 -2588.08 2937.31
-303.674 -2587.95 2940.8
-303.313 -2587.89 2939.71
-304.365 -2589.29 2943.77
-304.175 -2588.62 2942.82
-303.946 -2588.27 2941.88
-303.797 -2596.54 2962.93
-304.25 -2595.05 2961.03
-303.943 -2596.36 2961.9
-304.158 -2595.99 2961.13
-304.655 -2594.58 2959.37
-304.432 -2595.07 2960.25
-303.544 -2597.87 2963.39
-290.755 -2601.41 2883.69
-291.071 -2601.23 2884.06
-290.586 -2601.81 2883.68
-290.296 -2602.54 2883.71
-290.443 -2602.16 2883.69
