-291.062 -2513.03 2153.66
-290.885 -2513.22 2153.29
-291.152 -2512.99 2153.49
-290.665 -2513.36 2153.22
-291.623 -2512.47 2153.97
-291.604 -2512.56 2153.77
-291.412 -2512.74 2153.73
-291.746 -2512.26 2154.16
-291.755 -2512.19 2154.3
-291.713 -2512.35 2153.99
-291.686 -2512.17 2154.59
-291.757 -2512.14 2154.42
-291.753 -2512.1 2154.55
-291.815 -2512.02 2154.51
-291.928 -2511.9 2154.39
-291.878 -2511.98 2154.38
-290.735 -2513.32 2153.08
-290.666 -2513.36 2152.92
-290.788 -2513.29 2152.78
-291.974 -2511.81 2154.38
-292.157 -2511.19 2154.21
-292.134 -2511.24 2154.3
-292.111 -2511.29 2154.39
-292.181 -2511.17 2153.9
-292.173 -2511.21 2154.01
-292.149 -2511.25 2154.12
-292.14 -2511.22 2153.75
-291.881 -2511.28 2152.95
-291.928 -2511.35 2153.08
-291.964 -2511.43 2153.17
-292.012 -2511.37 2153.33
-292.066 -2511.35 2153.5
-292.11 -2511.33 2153.66
-291.807 -2511.5 2152.72
-291.827 -2511.35 2152.78
-291.697 -2512.07 2152.51
-291.782 -2511.87 2152.65
-291.851 -2511.72 2152.78
-291.864 -2511.58 2152.84
-291.359 -2512.66 2151.95
-291.47 -2512.46 2152.13
-291.594 -2512.29 2152.34
-290.775 -2513.14 2151.55
-291.028 -2513.08 2151.7
-291.264 -2513 2151.85
-291.385 -2512.8 2152
-290.319 -2513.36 2151.06
-289.131 -2514.28 2150.42
-290.525 -2513.2 2151.36
-272.179 -2541.77 2154.25
-272.139 -2541.97 2154.17
-271.917 -2543.45 2154.91
-271.895 -2543.52 2154.57
-272.196 -2541.82 2154.52
-272.244 -2541.69 2154.73
-272.308 -2541.44 2154.83
-273.891 -2543.4 2144.83
-273.44 -2541.7 2147.09
-273.706 -2543.1 2145.88
-273.765 -2543.46 2145.5
-272.188 -2543.99 2151.63
-272.549 -2542.76 2150.43
-271.894 -2544.66 2153.15
-271.846 -2544.51 2153.66
-271.959 -2544.85 2152.49
-271.803 -2544.35 2154.01
-271.77 -2544.12 2154.34
-273.187 -2542.59 2148.01
-271.754 -2544.07 2154.71
-273.843 -2544.19 2145.05
-273.807 -2544.59 2144.8
-273.771 -2544.97 2144.35
-273.812 -2543.81 2145.23
-273.665 -2545.58 2143.69
-273.654 -2545.46 2144.16
-272.018 -2549.54 2141.86
-271.192 -2551.13 2141.88
-271.316 -2550.98 2142.16
-271.753 -2550.17 2142.14
-272.392 -2548.89 2142.54
-272.191 -2549.28 2142.2
-272.628 -2548.33 2142.97
-273.492 -2546.05 2143.73
-273.346 -2546.46 2143.66
-273.12 -2547.08 2143.56
-272.836 -2547.82 2143.45
-269.117 -2554.19 2141.49
-270.398 -2552.51 2142.01
-269.753 -2553.43 2141.94
-270.8 -2551.88 2142.23
-263.315 -2560.77 2137.85
-261.991 -2562 2137.8
-264.734 -2559.64 2138.52
-265.799 -2558.61 2139.16
-265.292 -2559.19 2138.94
-267.423 -2556.62 2140.76
-266.158 -2558.19 2139.55
-266.847 -2557.45 2140.52
-256.856 -2573.43 2144.11
-257.891 -2572.2 2144.43
-257.465 -2572.84 2144.68
-258.33 -2570.84 2143.2
-258.302 -2571.26 2143.8
-258.474 -2570.16 2142.47
-258.327 -2571.61 2144.44
-249.602 -2581.82 2138.19
-248.216 -2582.55 2136.05
-249.398 -2582.16 2138.22
-249.141 -2582.43 2138.08
-258.826 -2568.42 2140.88
-258.633 -2569.49 2141.89
-258.866 -2568.72 2141.43
-256.295 -2575.47 2158.87
-255.517 -2576.21 2158.74
-257.634 -2574.31 2158.52
-256.357 -2575.46 2158.02
-256.638 -2575.23 2157.58
-264.883 -2566.86 2168.82
-264.854 -2566.98 2168.5
-264.625 -2567.24 2168.27
-260.335 -2571.55 2162.41
-259.247 -2572.9 2159.55
-258.583 -2573.48 2159.13
-265.857 -2565.44 2169.53
-266.239 -2564.91 2169.51
-266.182 -2565.24 2169.31
-266.135 -2564.43 2169.92
-266.267 -2564.66 2169.62
-266.427 -2564.23 2169.66
-266.578 -2563.93 2169.71
-265.196 -2566.67 2168.66
-266.123 -2565.96 2168.81
-266 -2566.25 2168.58
-266.143 -2565.62 2169.05
-265.716 -2566.52 2168.38
-266.893 -2563.62 2169.47
-267.066 -2563.02 2169.57
-267.328 -2562.54 2169.42
-267.47 -2561.79 2169.38
-267.767 -2560.74 2169.27
-267.135 -2563.23 2169.33
-268.367 -2550.52 2159.22
-268.359 -2550.62 2159.44
-268.378 -2551.07 2160.2
-268.465 -2551.3 2160.68
-268.382 -2551.26 2160.36
-268.566 -2551.48 2160.92
-268.309 -2550.8 2159.45
-268.308 -2550.9 2159.7
-268.31 -2551.03 2159.92
-268.681 -2551.65 2161.09
-268.867 -2551.7 2161.52
-268.375 -2550.42 2158.99
-269.536 -2551.64 2162.91
-270.137 -2551.82 2163.91
-270.423 -2552.04 2164.29
-270.59 -2552.25 2164.54
-270.681 -2552.49 2164.62
-270.773 -2552.75 2164.7
-270.852 -2553.06 2164.72
-270.925 -2553.05 2164.91
-271.287 -2554.52 2165.09
-271.214 -2554.37 2164.95
-271.154 -2553.87 2165.08
-271.082 -2553.65 2165
-271.181 -2555.13 2165.9
-271.22 -2554.96 2165.65
-271.123 -2555.29 2166.09
-271.075 -2555.52 2166.13
-271.288 -2554.85 2165.34
-270.952 -2555.83 2166.33
-271.037 -2555.77 2166.15
-271.376 -2554.9 2165.05
-270.931 -2556.09 2166.32
-270.558 -2556.38 2166.83
-270.693 -2556.26 2166.65
-270.86 -2556.31 2166.38
-270.3 -2556.66 2167.16
-270.13 -2556.78 2167.36
-269.973 -2556.64 2167.62
-269.744 -2556.82 2167.82
-270.458 -2556.57 2166.93
-269.529 -2557.04 2167.99
-271.005 -2553.32 2164.97
-268.752 -2558.49 2168.5
-269.319 -2557.8 2168
-269.055 -2549.01 2158.1
-268.937 -2549.24 2158.03
-268.799 -2549.48 2158.08
-270.1 -2547.36 2157.69
-269.275 -2548.68 2157.99
-269.52 -2548.31 2157.98
-268.392 -2550.3 2158.76
-268.474 -2550.02 2158.5
-268.57 -2549.86 2158.27
-268.684 -2549.69 2158.09
-268.432 -2550.19 2158.48
-271.138 -2545.55 2156.98
-271.348 -2545.13 2156.53
-271.533 -2544.75 2156.08
-271.742 -2544.2 2156.07
-271.936 -2543.72 2156.28
-270.641 -2546.52 2157.1
-270.912 -2546.06 2156.95
-272.067 -2543.07 2155.61
-271.94 -2543.65 2155.96
-292.078 -2511.4 2154.4
-292.047 -2511.5 2154.4
-292.018 -2511.61 2154.41
-291.997 -2511.71 2154.39
-290.223 -2513.63 2152.14
-290.2 -2513.61 2151.93
-290.211 -2513.57 2151.73
-290.231 -2513.52 2151.53
-290.243 -2513.47 2151.29
-290.656 -2513.37 2152.56
-290.896 -2513.23 2152.65
-291.25 -2512.95 2153.31
-291.007 -2513.15 2153.11
-291.517 -2512.69 2153.55
-291.691 -2512.43 2153.79
-291.653 -2512.53 2153.58
-291.821 -2512.16 2154.14
-291.807 -2512.23 2153.99
-291.821 -2512.11 2154.26
-291.782 -2512.31 2153.81
-291.821 -2512.06 2154.38
-291.984 -2511.86 2154.25
-291.941 -2511.94 2154.24
-291.885 -2512.02 2154.24
-290.931 -2513.2 2152.94
-291.069 -2513.12 2152.78
-292.006 -2511.76 2154.26
-292.126 -2511.29 2154.21
-292.103 -2511.34 2154.31
-292.158 -2511.28 2153.84
-292.155 -2511.31 2153.99
-292.125 -2511.35 2154.11
-291.877 -2511.43 2152.9
-291.915 -2511.51 2153
-291.95 -2511.59 2153.1
-291.996 -2511.53 2153.25
-292.038 -2511.46 2153.4
-292.074 -2511.44 2153.55
-292.115 -2511.4 2153.71
-291.702 -2512.18 2152.56
-291.804 -2511.96 2152.73
-291.88 -2511.8 2152.87
-291.905 -2511.67 2152.94
-291.499 -2512.58 2152.2
-291.599 -2512.39 2152.39
-290.775 -2513.2 2151.71
-290.984 -2513.14 2151.85
-291.21 -2513.05 2151.96
-291.38 -2512.88 2152.05
-291.479 -2512.67 2152.21
-290.55 -2513.26 2151.51
-272.006 -2543.17 2155.17
-271.811 -2543.92 2155.14
-271.93 -2543.58 2155.51
-273.556 -2543.59 2146.4
-273.688 -2543.9 2145.84
-272.28 -2544.87 2150.89
-272.705 -2544.14 2149.38
-273.064 -2543.63 2148.18
-271.749 -2545.44 2153.2
-271.706 -2545.18 2153.79
-271.666 -2544.99 2154.2
-272.13 -2545.56 2151.24
-271.636 -2544.83 2154.52
-271.618 -2544.63 2154.84
-271.68 -2544.39 2155.19
-273.731 -2544.27 2145.5
-273.672 -2544.67 2145.33
-273.716 -2544.98 2144.76
-273.615 -2545.42 2144.6
-273.471 -2545.97 2144.18
-273.407 -2545.95 2144.75
-271.497 -2550.71 2142.51
-271.008 -2551.57 2142.58
-271.966 -2549.84 2142.51
-272.182 -2549.34 2142.86
-272.382 -2548.85 2143.22
-273.268 -2546.51 2144.19
-273.12 -2546.94 2144
-272.876 -2547.59 2143.93
-272.563 -2548.37 2143.69
-270.254 -2552.84 2142.43
-269.694 -2553.62 2142.35
-268.458 -2555.26 2141.77
-270.491 -2552.49 2142.78
-263.395 -2560.83 2138.24
-263.252 -2561.03 2138.51
-264.721 -2559.75 2138.94
-265.723 -2558.8 2139.48
-265.208 -2559.36 2139.35
-266.119 -2558.35 2139.97
-266.994 -2557.32 2141.06
-268.438 -2555.34 2142.08
-256.873 -2573.59 2144.91
-253.027 -2578.05 2142.76
-258.089 -2572.17 2144.96
-257.796 -2572.67 2145.28
-257.389 -2573.1 2145.29
-258.599 -2570.31 2143
-258.618 -2570.69 2143.62
-258.672 -2570.97 2144.15
-258.756 -2569.68 2142.44
-258.818 -2571.15 2144.71
-258.526 -2571.68 2145.06
-252.086 -2578.69 2140.78
-252.264 -2578.8 2141.51
-250.55 -2580.65 2138.96
-250.083 -2581.16 2138.4
-249.895 -2581.56 2138.48
-250.394 -2582.04 2140.14
-250.542 -2581.76 2140.1
-247.913 -2582.97 2135.98
-248.963 -2582.69 2138.08
-250.027 -2582.35 2139.76
-249.889 -2582.59 2139.84
-259.385 -2567.67 2141.67
-258.887 -2569.14 2142.04
-259.156 -2568.52 2141.98
-259.463 -2567.89 2142.14
-255.556 -2576.19 2157.92
-257.994 -2574.13 2157.49
-257.154 -2574.84 2156.97
-255.773 -2576.01 2157.02
-256.036 -2575.8 2155.94
-264.36 -2567.57 2167.97
-264.073 -2567.93 2167.63
-263.847 -2568.24 2167.19
-265.044 -2567.07 2168.08
-265.359 -2566.81 2168.23
-264.705 -2567.36 2167.89
-260.357 -2571.8 2161.14
-259.769 -2572.47 2159.84
-259.508 -2572.95 2158.24
-258.787 -2573.5 2157.82
-266.556 -2565.06 2169.03
-266.641 -2564.75 2169.11
-266.505 -2565.41 2168.81
-266.518 -2564.49 2169.39
-266.758 -2564 2169.39
-266.747 -2564.28 2169.21
-266.499 -2565.75 2168.55
-266.491 -2566.08 2168.3
-266.292 -2566.38 2168.09
-265.971 -2566.66 2167.92
-267.227 -2563.42 2169.08
-267.047 -2563.76 2169.15
-267.383 -2562.85 2169.19
-267.611 -2562.14 2169.12
-268.109 -2560.18 2168.92
-267.853 -2561.41 2168.99
-267.469 -2563.13 2168.95
-268.314 -2550.71 2159.2
-268.325 -2550.62 2158.99
-268.298 -2551.22 2160.04
-268.444 -2551.45 2160.55
-268.356 -2551.42 2160.23
-268.505 -2551.65 2160.7
-268.263 -2550.98 2159.48
-268.268 -2550.9 2159.23
-268.251 -2551.09 2159.67
-268.89 -2551.84 2161.46
-268.638 -2551.83 2160.95
-268.341 -2550.5 2158.76
-269.522 -2551.82 2162.82
-270.12 -2552.1 2163.77
-269.496 -2551.98 2162.67
-270.42 -2552.31 2164.17
-270.583 -2552.6 2164.33
-270.695 -2552.88 2164.42
-270.779 -2553.13 2164.49
-270.858 -2553.42 2164.52
-270.952 -2553.49 2164.72
-271.307 -2554.74 2164.87
-271.134 -2554.19 2164.83
-271.231 -2554.61 2164.73
-271.044 -2553.86 2164.77
-271.302 -2555.38 2165.6
-271.249 -2555.55 2165.71
-271.326 -2555.18 2165.43
-271.19 -2555.73 2165.8
-271.153 -2555.95 2165.84
-271.41 -2555.21 2165.16
-271.111 -2556.24 2166
-271.12 -2556.11 2165.93
-271.494 -2555.3 2164.89
-271.404 -2555.04 2164.82
-271.071 -2556.43 2166.05
-270.729 -2556.51 2166.52
-270.599 -2556.67 2166.67
-270.934 -2556.61 2166.2
-270.448 -2556.83 2166.86
-270.292 -2556.93 2167.07
-270.075 -2557.1 2167.28
-269.899 -2556.97 2167.56
-269.708 -2557.2 2167.72
-269.587 -2557.65 2167.77
-268.742 -2559.01 2168.35
-269.085 -2549 2157.86
-269.023 -2549.14 2157.72
-268.894 -2549.37 2157.8
-268.765 -2549.6 2157.82
-270.001 -2547.6 2157.34
-269.46 -2548.43 2157.67
-269.225 -2548.8 2157.68
-268.383 -2550.38 2158.49
-268.498 -2550.05 2158.17
-268.611 -2549.86 2157.91
-268.447 -2550.24 2158.18
-271.138 -2545.66 2156.65
-271.33 -2545.27 2156.27
-271.472 -2544.96 2155.85
-271.636 -2544.49 2155.75
-271.787 -2544.09 2155.63
-270.62 -2546.66 2156.81
-270.863 -2546.25 2156.61
-292.07 -2511.45 2154.31
-292.047 -2511.56 2154.29
-292.029 -2511.65 2154.27
-290.64 -2513.36 2152.37
-290.634 -2513.33 2152.15
-290.634 -2513.3 2151.95
-290.623 -2513.27 2151.75
-290.889 -2513.24 2152.52
-291.153 -2513.07 2152.63
-291.565 -2512.69 2153.35
-291.353 -2512.91 2153.12
-291.198 -2513.04 2152.94
-291.752 -2512.4 2153.61
-291.678 -2512.54 2153.39
-291.887 -2512.07 2154.11
-291.892 -2512.11 2153.99
-291.876 -2512.18 2153.84
-291.851 -2512.26 2153.67
-291.997 -2511.9 2154.09
-292.014 -2511.81 2154.14
-291.949 -2511.99 2154.09
-291.331 -2512.96 2152.76
-292.037 -2511.7 2154.15
-292.096 -2511.4 2154.22
-292.15 -2511.37 2153.86
-292.131 -2511.42 2153.97
-292.106 -2511.44 2154.1
-291.926 -2511.72 2153.03
-291.972 -2511.64 2153.19
-292.022 -2511.56 2153.37
-292.062 -2511.53 2153.53
-292.101 -2511.49 2153.69
-291.677 -2512.28 2152.59
-291.784 -2512.05 2152.76
-291.888 -2511.86 2152.95
-291.576 -2512.49 2152.42
-290.867 -2513.21 2151.99
-291.124 -2513.1 2152.09
-291.358 -2512.94 2152.12
-291.47 -2512.73 2152.26
-273.421 -2544.13 2146.73
-273.535 -2544.43 2146.18
-273.024 -2545.1 2147.61
-273.05 -2544.65 2147.76
-271.912 -2546.15 2151.9
-271.557 -2545.92 2153.76
-271.522 -2545.55 2154.35
-271.486 -2545.38 2154.72
-272.851 -2545.61 2147.93
-271.482 -2545.16 2155
-271.507 -2544.9 2155.25
-271.577 -2544.67 2155.46
-273.586 -2545.11 2145.22
-273.473 -2544.84 2146.03
-273.428 -2545.6 2145.31
-273.271 -2546.38 2144.58
-273.13 -2546.49 2145.21
-273.195 -2546.1 2145.66
-271.776 -2550.19 2142.92
-271.309 -2551.04 2142.95
-270.826 -2551.94 2143.14
-272.007 -2549.71 2143.3
-272.173 -2549.29 2143.63
-272.936 -2547.3 2144.36
-273.031 -2546.96 2144.67
-272.627 -2548.07 2144.26
-272.315 -2548.86 2144.07
-269.679 -2553.71 2142.82
-270.116 -2553.11 2143.22
-262.017 -2562.2 2138.61
-263.48 -2560.91 2138.85
-264.849 -2559.72 2139.45
-265.59 -2559.01 2139.76
-266.422 -2558.09 2140.75
-265.91 -2558.7 2140.23
-267.286 -2556.98 2141.72
-268.591 -2555.17 2142.47
-259.852 -2566.58 2141.98
-257.116 -2573.49 2145.7
-253.644 -2577.52 2144.03
-253.067 -2578.22 2143.45
-253.218 -2578.12 2144.03
-254.134 -2577.02 2144.67
-252.484 -2578.76 2142.16
-252.133 -2579.86 2142.58
-258.31 -2572.2 2145.56
-258.007 -2572.65 2145.88
-257.668 -2573.04 2146.03
-258.871 -2570.23 2143.47
-258.885 -2569.81 2142.91
-258.97 -2570.52 2144.06
-259.078 -2570.77 2144.6
-259.046 -2569.29 2142.61
-259.036 -2571.27 2145.28
-259.328 -2570.86 2145.15
-258.799 -2571.75 2145.69
-251.806 -2579.92 2141.53
-251.606 -2579.97 2140.93
-251.212 -2580.12 2140
-251.942 -2579.96 2142.05
-250.8 -2581.42 2140.27
-251.093 -2580.98 2140.56
-250.39 -2582.26 2140.42
-250.731 -2582 2140.88
-250.763 -2581.78 2140.66
-251.007 -2581.44 2140.82
-247.809 -2583.25 2136.32
-248.851 -2582.92 2138.21
-247.441 -2583.52 2135.98
-249.741 -2582.83 2139.93
-250.221 -2582.52 2140.46
-259.879 -2566.94 2142.38
-259.201 -2568.81 2142.38
-259.485 -2568.25 2142.54
-259.753 -2567.62 2142.62
-235.855 -2589.98 2119.75
-236.144 -2589.82 2120.05
-236.401 -2589.7 2120.33
-254.919 -2576.71 2156.98
-258.505 -2573.85 2156.31
-257.455 -2574.73 2155.49
-254.752 -2576.78 2155.71
-254.918 -2576.66 2153.68
-257.591 -2574.71 2154.14
-264.347 -2567.72 2167.56
-264.152 -2568.04 2167.14
-263.716 -2568.45 2166.64
-265.647 -2566.91 2167.78
-265.336 -2567.15 2167.67
-264.876 -2567.47 2167.52
-260.571 -2572.01 2159.66
-260.109 -2572.45 2158.94
-260.099 -2572.67 2157.61
-259.407 -2573.19 2156.86
-261.028 -2571.47 2160.87
-266.925 -2565.26 2168.48
-266.972 -2564.98 2168.62
-266.906 -2564.51 2168.91
-267.1 -2564.75 2168.59
-266.887 -2565.56 2168.27
-267.006 -2564.08 2168.99
-267.257 -2564.37 2168.6
-266.874 -2565.88 2168.03
-266.815 -2566.22 2167.82
-266.59 -2566.5 2167.62
-266.287 -2566.74 2167.49
-267.386 -2563.66 2168.77
-267.602 -2563.45 2168.67
-267.26 -2563.92 2168.79
-267.754 -2562.48 2168.89
-267.771 -2562.93 2168.75
-268.048 -2561.84 2168.73
-268.283 -2560.44 2168.6
-267.865 -2563.25 2168.52
-268.272 -2550.83 2159
-268.294 -2550.68 2158.77
-268.224 -2551.23 2159.74
-268.264 -2551.37 2159.9
-268.423 -2551.61 2160.4
-268.333 -2551.56 2160.08
-268.493 -2551.81 2160.58
-268.207 -2551.22 2159.47
-268.227 -2551.08 2159.32
-268.219 -2551.06 2159.09
-268.843 -2551.99 2161.28
-268.595 -2552 2160.81
-268.334 -2550.58 2158.48
-270.114 -2552.33 2163.62
-269.442 -2552.14 2162.46
-270.395 -2552.57 2163.99
-270.55 -2552.92 2164.12
-270.694 -2553.29 2164.22
-270.928 -2553.81 2164.47
-270.796 -2553.66 2164.25
-271.018 -2554.08 2164.55
-271.344 -2554.99 2164.65
-271.122 -2554.37 2164.63
-271.232 -2554.75 2164.54
-271.415 -2555.54 2165.3
-271.398 -2555.82 2165.3
-271.334 -2555.94 2165.44
-271.329 -2556.1 2165.51
-271.33 -2556.24 2165.58
-271.512 -2555.59 2165.02
-271.342 -2556.4 2165.64
-271.292 -2556.56 2165.71
-271.589 -2555.63 2164.75
-271.474 -2555.34 2164.68
-271.154 -2556.74 2165.86
-270.779 -2556.79 2166.37
-270.611 -2556.94 2166.57
-270.992 -2556.9 2166.05
-270.453 -2557.1 2166.77
-270.271 -2557.22 2166.98
-269.906 -2557.35 2167.42
-270.118 -2557.49 2167.12
-269.82 -2557.67 2167.49
-269.455 -2558.39 2167.7
-269.146 -2549.01 2157.42
-268.991 -2549.28 2157.45
-268.868 -2549.49 2157.51
-268.738 -2549.7 2157.59
-269.97 -2547.77 2156.96
-269.453 -2548.54 2157.25
-268.393 -2550.44 2158.22
-268.515 -2550.09 2157.85
-268.621 -2549.91 2157.61
-268.459 -2550.29 2157.89
-271.095 -2545.85 2156.37
-271.298 -2545.44 2156.04
-271.418 -2545.13 2155.62
-270.603 -2546.8 2156.48
-270.837 -2546.41 2156.23
-292.075 -2511.5 2154.19
-292.063 -2511.61 2154.13
-290.862 -2513.25 2152.38
-290.848 -2513.25 2152.2
-291.141 -2513.09 2152.5
-291.416 -2512.91 2152.62
-291.604 -2512.68 2153.16
-291.498 -2512.83 2152.95
-291.792 -2512.38 2153.44
-291.709 -2512.53 2153.22
-291.96 -2512.03 2153.94
-291.96 -2512.08 2153.8
-291.918 -2512.19 2153.59
-292.013 -2511.94 2153.94
-292.03 -2511.85 2153.99
-292.042 -2511.77 2154.03
-291.548 -2512.8 2152.78
-292.065 -2511.68 2154.01
-292.135 -2511.46 2153.83
-292.119 -2511.52 2153.91
-292.094 -2511.53 2154.05
-291.946 -2511.75 2153.13
-291.99 -2511.67 2153.28
-292.027 -2511.64 2153.42
-292.065 -2511.6 2153.58
-292.107 -2511.56 2153.74
-291.662 -2512.36 2152.64
-291.749 -2512.17 2152.77
-291.856 -2511.97 2152.95
-291.934 -2511.84 2153.11
-291.56 -2512.57 2152.46
-291.078 -2513.13 2152.22
-291.356 -2512.95 2152.24
-291.462 -2512.79 2152.31
-271.735 -2546.6 2152.26
-272.421 -2546.37 2149.15
-271.417 -2546.25 2154.04
-271.348 -2545.92 2154.78
-271.339 -2545.69 2155.18
-273.331 -2545.33 2146.1
-271.365 -2545.4 2155.42
-273.02 -2545.96 2146.72
-272.873 -2546.78 2146.02
-272.833 -2547.17 2145.37
-272.56 -2546.83 2147.57
-271.589 -2550.52 2143.37
-271.122 -2551.4 2143.48
-270.484 -2552.55 2143.63
-271.67 -2550.3 2143.92
-271.885 -2549.8 2144.33
-272.721 -2547.69 2144.79
-272.378 -2548.58 2144.7
-272.051 -2549.36 2144.69
-269.411 -2554.11 2143.23
-269.764 -2553.66 2143.68
-262.177 -2562.15 2139.07
-263.443 -2561 2139.12
-264.767 -2559.83 2139.72
-265.384 -2559.27 2139.97
-266.369 -2558.22 2141.11
-265.787 -2558.9 2140.55
-267.122 -2557.22 2141.92
-268.423 -2555.44 2142.82
-262.099 -2562.3 2139.5
-260.179 -2566.2 2142.67
-260.545 -2565.46 2143.32
-257.332 -2573.55 2146.6
-256.745 -2574.1 2146.44
-256.174 -2574.79 2146.51
-255.498 -2575.57 2146.23
-254.777 -2576.41 2145.78
-254.172 -2577.09 2145.36
-253.518 -2577.8 2144.58
-252.243 -2579.78 2143.01
-252.384 -2579.59 2143.44
-253.072 -2578.43 2144.53
-253.632 -2577.74 2145.09
-251.574 -2581.29 2142.32
-251.372 -2581.41 2141.83
-251.579 -2580.95 2142.03
-258.546 -2572.2 2146.13
-258.239 -2572.66 2146.48
-257.933 -2573.11 2146.92
-259.1 -2569.83 2143.38
-259.219 -2570.14 2143.95
-259.232 -2569.44 2143.19
-259.398 -2570.38 2144.58
-259.612 -2570.51 2145.09
-259.377 -2568.99 2142.95
-259.358 -2571.32 2145.89
-259.593 -2570.95 2145.68
-260.413 -2570.43 2146.11
-259.129 -2571.74 2146.27
-251.295 -2580.94 2141.07
-251.473 -2580.89 2141.59
-250.625 -2582.26 2140.98
-251.041 -2581.68 2141.22
-250.908 -2582.08 2141.54
-251.047 -2581.83 2141.52
-251.286 -2581.28 2141.45
-248.622 -2583.17 2138.14
-249.588 -2583.06 2140.01
-247.391 -2583.78 2136.5
-248.507 -2583.38 2138.33
-250.06 -2582.74 2140.57
-250.492 -2582.51 2141.04
-260 -2567.14 2142.86
-260.124 -2566.58 2142.75
-259.579 -2568.45 2142.93
-259.856 -2567.82 2143.05
-236.683 -2589.69 2120.84
-235.46 -2590.26 2119.56
-236.389 -2590.75 2122
-236.562 -2590.59 2121.98
-236.179 -2590.89 2121.93
-236.702 -2590.45 2121.97
-236.939 -2590.33 2122.18
-252.856 -2578.2 2155.37
-258.767 -2573.75 2155.17
-259.525 -2573.19 2155.79
-252.398 -2578.47 2154.15
-253.334 -2577.79 2152.48
-255.518 -2576.23 2152.04
-257.922 -2574.44 2153.24
-259.335 -2573.39 2154.31
-264.604 -2567.76 2167.24
-264.591 -2567.96 2166.86
-264.195 -2568.24 2166.63
-263.788 -2568.61 2166.09
-266.011 -2566.96 2167.37
-265.839 -2567.15 2167.19
-265.321 -2567.33 2167.36
-265.073 -2567.64 2167.03
-260.76 -2572.16 2158.28
-261.19 -2571.75 2159.22
-260.784 -2572.29 2157.19
-260.279 -2572.66 2156.44
-261.585 -2571.27 2160.41
-267.541 -2565.32 2167.92
-267.464 -2565.59 2167.77
-267.58 -2565.05 2168.02
-267.597 -2564.72 2168.14
-267.385 -2565.87 2167.6
-267.598 -2564.26 2168.33
-267.949 -2564.6 2167.88
-267.322 -2566.14 2167.41
-267.239 -2566.36 2167.25
-266.987 -2566.57 2167.14
-266.696 -2566.79 2167.03
-267.811 -2563.81 2168.32
-267.772 -2564.08 2168.26
-267.98 -2563.58 2168.26
-268.168 -2562.34 2168.49
-268.146 -2563.01 2168.35
-268.404 -2561.5 2168.38
-268.628 -2559.68 2168.28
-268.245 -2563.36 2168.11
-268.218 -2551.01 2158.89
-268.25 -2550.86 2158.76
-268.285 -2550.76 2158.49
-268.194 -2551.35 2159.52
-268.216 -2551.46 2159.66
-268.405 -2551.77 2160.27
-268.275 -2551.61 2159.84
-268.479 -2551.97 2160.46
-268.19 -2551.22 2159.2
-268.178 -2551.37 2159.23
-268.177 -2551.21 2158.91
-268.821 -2552.15 2161.18
-268.565 -2552.17 2160.69
-268.336 -2550.66 2158.18
-269.381 -2552.29 2162.24
-269.349 -2552.44 2162.09
-270.129 -2552.55 2163.52
-270.348 -2552.83 2163.77
-270.481 -2553.18 2163.87
-270.599 -2553.48 2163.95
-270.882 -2554.03 2164.19
-271.012 -2554.27 2164.32
-270.686 -2553.82 2163.91
-271.121 -2554.51 2164.43
-271.437 -2555.39 2164.45
-271.329 -2555.13 2164.39
-271.22 -2554.9 2164.27
-271.548 -2555.89 2164.99
-271.666 -2556.13 2164.88
-271.544 -2556.11 2165.11
-271.558 -2556.25 2165.15
-271.538 -2556.37 2165.25
-271.551 -2556.53 2165.3
-271.667 -2555.89 2164.74
-271.529 -2556.72 2165.35
-271.383 -2556.86 2165.52
-271.697 -2555.84 2164.58
-271.567 -2555.67 2164.52
-271.216 -2557.02 2165.71
-270.83 -2557.08 2166.23
-270.657 -2557.23 2166.44
-271.078 -2557.19 2165.87
-270.532 -2557.43 2166.6
-270.338 -2557.6 2166.82
-270.036 -2557.81 2167.19
-270.336 -2557.98 2166.8
-269.927 -2558.14 2167.28
-269.305 -2558.88 2167.73
-269.092 -2549.26 2157.1
-269.391 -2548.75 2157.02
-268.96 -2549.52 2157.07
-268.831 -2549.71 2157.17
-268.705 -2549.9 2157.26
-269.965 -2547.92 2156.55
-268.398 -2550.49 2157.96
-268.551 -2550.12 2157.47
-268.485 -2550.3 2157.53
-268.422 -2550.46 2157.61
-271.082 -2546 2156
-271.272 -2545.58 2155.79
-270.609 -2546.93 2156.11
-270.888 -2546.55 2155.72
-292.091 -2511.61 2153.96
-291.084 -2513.12 2152.36
-291.365 -2512.95 2152.47
-291.535 -2512.77 2152.61
-291.599 -2512.69 2152.79
-291.649 -2512.65 2152.98
-291.843 -2512.33 2153.33
-291.756 -2512.47 2153.14
-292.03 -2511.97 2153.79
-292.018 -2512.03 2153.65
-291.93 -2512.18 2153.44
-292.05 -2511.88 2153.84
-292.061 -2511.78 2153.9
-292.087 -2511.7 2153.86
-292.108 -2511.62 2153.8
-291.984 -2511.75 2153.28
-292.025 -2511.72 2153.45
-292.071 -2511.67 2153.63
-291.633 -2512.47 2152.65
-291.735 -2512.27 2152.83
-291.81 -2512.11 2152.93
-291.907 -2511.95 2153.11
-291.97 -2511.83 2153.26
-291.533 -2512.68 2152.48
-291.3 -2512.99 2152.34
-291.483 -2512.82 2152.44
-235.013 -2590.69 2119.72
-271.595 -2547.03 2152.42
-272.077 -2547.09 2149.93
-271.242 -2546.62 2154.25
-271.144 -2546.31 2155.02
-271.173 -2546.01 2155.52
-272.027 -2547.84 2148.62
-272.352 -2547.76 2146.77
-272.473 -2548.04 2145.47
-271.798 -2547.73 2150.59
-271.173 -2551.25 2144.01
-270.622 -2552.28 2144.13
-269.959 -2553.36 2144.14
-271.273 -2550.88 2144.83
-271.001 -2551.46 2144.71
-271.409 -2550.46 2145.32
-271.919 -2549.08 2146.17
-271.611 -2549.85 2145.91
-269.107 -2554.55 2143.66
-269.387 -2554.16 2144.54
-263.536 -2560.98 2139.49
-265.059 -2559.6 2140.13
-266.295 -2558.33 2141.45
-265.675 -2559.01 2140.82
-266.944 -2557.44 2142.15
-268.081 -2555.94 2143.21
-262.275 -2562.16 2140.11
-263.541 -2561 2139.84
-260.523 -2565.78 2143.47
-260.764 -2565.24 2143.96
-257.643 -2573.63 2147.63
-256.938 -2574.19 2147.37
-256.344 -2574.75 2147.19
-255.642 -2575.55 2147.12
-255.875 -2575.41 2147.79
-254.856 -2576.43 2146.85
-254.324 -2577 2146.14
-253.782 -2577.64 2145.67
-253.137 -2578.45 2145.03
-251.675 -2581.28 2142.73
-252.342 -2579.75 2143.71
-252.33 -2579.91 2144
-253.207 -2578.45 2145.5
-251.194 -2581.83 2141.92
-251.334 -2581.84 2142.27
-258.912 -2572.17 2146.72
-258.701 -2572.55 2147.18
-258.431 -2573 2147.74
-259.408 -2569.74 2143.83
-259.656 -2570.02 2144.51
-259.527 -2569.34 2143.63
-260.57 -2570.08 2145.87
-260.724 -2570.2 2146.24
-259.691 -2569.01 2143.56
-259.714 -2568.66 2143.35
-260.283 -2571.16 2147.11
-260.522 -2570.84 2146.93
-260.706 -2570.56 2146.75
-261.661 -2570.38 2147.96
-261.773 -2570.52 2148.38
-260.085 -2571.48 2147.37
-250.784 -2582.33 2141.62
-250.981 -2582.16 2142.11
-246.79 -2584.12 2135.69
-249.455 -2583.28 2140.14
-249.9 -2582.96 2140.66
-247.26 -2584.03 2136.81
-248.381 -2583.62 2138.62
-250.337 -2582.72 2141.15
-250.648 -2582.59 2141.68
-242.442 -2586.33 2129.03
-241.917 -2586.78 2128.74
-241.627 -2586.88 2128.05
-260.112 -2567.4 2143.29
-260.193 -2566.87 2143.14
-260.36 -2566.28 2143.24
-259.897 -2568.19 2143.37
-260.106 -2567.86 2143.51
-236.891 -2589.52 2120.98
-237.133 -2590.2 2122.32
-237.32 -2590.07 2122.44
-235.978 -2591.07 2121.93
-237.213 -2591.06 2123.69
-237.416 -2590.88 2123.65
-237.589 -2590.68 2123.64
-236.979 -2591.22 2123.67
-237.909 -2590.49 2123.99
-259.908 -2572.99 2154.96
-260.45 -2572.6 2155.68
-250.948 -2579.55 2153.31
-252.466 -2578.44 2152.06
-253.732 -2577.56 2150.7
-254.59 -2576.92 2151
-255.425 -2576.25 2150.89
-256.567 -2575.42 2151.86
-258.453 -2573.96 2152.52
-259.849 -2573.04 2153.56
-260.633 -2572.51 2154.34
-263.244 -2569.11 2165.26
-264.845 -2567.96 2166.55
-264.392 -2568.31 2166.2
-263.895 -2568.76 2165.52
-266.455 -2567.01 2166.88
-266.217 -2567.23 2166.72
-265.613 -2567.39 2166.99
-265.346 -2567.7 2166.61
-261.956 -2570.76 2161.77
-261.481 -2571.87 2157.41
-261.567 -2571.7 2158.32
-261.929 -2571.35 2159.18
-261.094 -2572.17 2156.48
-262.349 -2570.96 2160.13
-268.15 -2565.4 2167.35
-268.107 -2565.67 2167.19
-267.987 -2565.89 2167.08
-268.132 -2565.11 2167.49
-268.247 -2564.93 2167.47
-267.912 -2566.09 2166.93
-268.25 -2564.48 2167.68
-268.619 -2564.9 2167.17
-267.847 -2566.28 2166.76
-267.687 -2566.48 2166.67
-267.436 -2566.69 2166.56
-267.162 -2566.91 2166.44
-268.294 -2564.21 2167.76
-268.359 -2563.95 2167.79
-268.475 -2563.71 2167.77
-268.671 -2561.86 2168.06
-268.468 -2562.56 2168.13
-268.576 -2563.11 2167.89
-268.736 -2560.59 2168.08
-268.713 -2563.51 2167.62
-268.223 -2550.98 2158.57
-268.179 -2551.14 2158.72
-268.263 -2550.89 2158.27
-268.171 -2551.49 2159.35
-268.186 -2551.6 2159.47
-268.348 -2551.81 2160.03
-268.232 -2551.71 2159.62
-268.43 -2552.03 2160.25
-268.169 -2551.32 2158.98
-268.154 -2551.44 2158.92
-268.154 -2551.52 2159.08
-268.163 -2551.3 2158.55
-268.153 -2551.37 2158.7
-268.76 -2552.32 2161.03
-268.527 -2552.26 2160.52
-268.354 -2550.65 2157.76
-268.291 -2550.84 2157.91
-269.338 -2552.6 2161.95
-268.744 -2552.47 2160.9
-270.129 -2552.79 2163.39
-270.294 -2553.1 2163.55
-270.444 -2553.5 2163.62
-271 -2554.42 2164.06
-270.847 -2554.21 2163.85
-271.116 -2554.67 2164.17
-270.607 -2553.89 2163.59
-271.418 -2555.52 2164.17
-271.547 -2555.68 2164.3
-271.312 -2555.27 2164.12
-271.212 -2555.09 2163.97
-271.769 -2556.12 2164.65
-271.853 -2556.34 2164.6
-271.788 -2556.4 2164.78
-271.775 -2556.53 2164.87
-271.746 -2556.63 2164.98
-271.754 -2556.83 2165.01
-271.78 -2556.06 2164.53
-271.649 -2557.06 2165.12
-271.452 -2557.13 2165.38
-271.694 -2555.82 2164.39
-271.796 -2556 2164.38
-271.397 -2557.37 2165.48
-270.952 -2557.38 2166.06
-270.886 -2557.6 2166.17
-271.288 -2557.55 2165.65
-270.702 -2557.91 2166.39
-270.965 -2557.89 2166.09
-270.228 -2558.24 2166.9
-270.757 -2558.6 2166.3
-270.785 -2558.3 2166.28
-269.982 -2558.61 2167.12
-269.307 -2559.73 2167.63
-269.092 -2549.46 2156.68
-269.269 -2549.04 2156.88
-269.945 -2548.11 2156.27
-268.91 -2549.78 2156.72
-268.774 -2549.98 2156.82
-268.638 -2550.19 2157.02
-268.529 -2550.47 2157.06
-268.444 -2550.66 2157.15
-268.376 -2550.76 2157.31
-270.647 -2547.12 2155.64
-270.972 -2546.61 2155.25
-291.642 -2512.56 2152.8
-291.589 -2512.61 2152.64
-291.7 -2512.52 2152.97
-291.813 -2512.33 2153.17
-292.058 -2511.9 2153.69
-292.004 -2512.02 2153.53
-291.91 -2512.15 2153.34
-292.077 -2511.8 2153.76
-292.084 -2511.72 2153.71
-292.002 -2511.82 2153.39
-292.042 -2511.77 2153.55
-291.689 -2512.42 2152.82
-291.786 -2512.26 2153
-291.84 -2512.12 2153.04
-291.95 -2511.94 2153.26
-234.393 -2590.95 2119.24
-235.22 -2591.38 2121.37
-235.783 -2591.27 2122
-271.399 -2547.47 2152.68
-270.991 -2547.07 2154.49
-271.622 -2548.63 2149.68
-271.537 -2548.4 2150.92
-271.783 -2548.79 2147.8
-270.525 -2552.37 2144.75
-269.955 -2553.32 2144.63
-270.467 -2551.87 2147.13
-270.213 -2552.49 2146.62
-269.896 -2553.1 2146.36
-270.621 -2551.32 2147.84
-270.794 -2550.48 2149.73
-270.737 -2550.84 2148.79
-268.607 -2555.24 2144
-269.018 -2554.5 2146.13
-269.313 -2554.07 2146.2
-268.726 -2554.91 2145.97
-264.967 -2559.71 2140.38
-266.049 -2558.59 2141.58
-265.289 -2559.39 2140.88
-266.747 -2557.69 2142.33
-267.77 -2556.36 2143.57
-262.471 -2561.99 2140.68
-263.583 -2560.98 2140.24
-260.608 -2565.98 2143.87
-260.771 -2565.49 2144.18
-260.907 -2565.06 2144.49
-258.237 -2573.36 2148.41
-257.323 -2574.1 2148.26
-256.455 -2574.85 2148.02
-255.159 -2576.17 2147.78
-256.177 -2575.32 2148.81
-255.505 -2575.92 2148.5
-254.169 -2577.21 2147
-254.522 -2576.86 2147.8
-253.877 -2577.55 2146.33
-253.424 -2578.17 2146.12
-252.401 -2579.87 2144.35
-251.441 -2581.84 2142.62
-251.762 -2581.19 2143.16
-251.764 -2581.22 2143.6
-251.584 -2581.62 2143.04
-253.005 -2578.85 2145.62
-252.29 -2580.18 2144.52
-251.103 -2582.2 2142.49
-260.027 -2571.71 2147.76
-260.027 -2572.07 2148.7
-260.221 -2571.84 2148.45
-259.832 -2572.31 2148.97
-259.812 -2569.7 2144.42
-261.009 -2569.94 2146.32
-260.926 -2569.79 2146.02
-259.961 -2569.39 2144.34
-262.618 -2570.02 2148.99
-262.976 -2569.82 2149.36
-263.087 -2569.92 2149.75
-260.235 -2569.15 2144.51
-260.096 -2568.8 2144.08
-259.997 -2568.49 2143.71
-261.557 -2571.07 2149.19
-261.709 -2570.86 2148.97
-261.78 -2570.67 2148.67
-263.212 -2569.94 2150.08
-263.238 -2570 2150.29
-261.489 -2571.24 2149.49
-250.806 -2582.48 2142.27
-246.455 -2584.46 2135.85
-246.987 -2584.28 2136.88
-242.449 -2586.51 2129.56
-249.225 -2583.53 2140.26
-249.743 -2583.19 2140.76
-250.15 -2582.91 2141.22
-248.193 -2583.88 2138.82
-250.455 -2582.81 2141.69
-250.638 -2582.71 2142.3
-241.961 -2586.87 2129.22
-241.576 -2587.23 2129.04
-241.414 -2587.27 2128.47
-241.063 -2587.46 2127.71
-260.355 -2567.71 2143.85
-260.377 -2567.28 2143.69
-260.442 -2566.51 2143.55
-260.405 -2566.92 2143.58
-260.219 -2568.18 2143.89
-237.324 -2589.15 2121.45
-237.519 -2589.94 2122.6
-238.054 -2590.28 2124.01
-236.761 -2591.38 2123.68
-237.496 -2591.14 2124.29
-237.703 -2590.95 2124.25
-237.857 -2590.78 2124.27
-237.969 -2590.63 2124.29
-237.246 -2591.33 2124.27
-238.254 -2590.46 2124.64
-238.395 -2590.27 2124.66
-260.89 -2572.33 2155.04
-261.248 -2572.1 2155.75
-250.247 -2580.14 2152.62
-251.886 -2578.9 2151.55
-252.929 -2578.19 2150.36
-254.224 -2577.16 2149.98
-253.571 -2577.69 2149.82
-254.84 -2576.67 2150.06
-256.267 -2575.56 2150.76
-255.516 -2576.1 2149.98
-257.354 -2574.72 2151.46
-258.894 -2573.53 2151.74
-260.534 -2572.54 2153.01
-261.398 -2572.01 2153.99
-261.589 -2571.89 2154.72
-263.329 -2569.34 2164.46
-264.963 -2568.09 2166.09
-264.559 -2568.48 2165.6
-264.087 -2569 2164.68
-266.906 -2567.14 2166.28
-265.955 -2567.47 2166.52
-266.656 -2567.35 2166.12
-265.608 -2567.86 2165.98
-262.686 -2570.08 2162.98
-262.639 -2570.54 2161.37
-262.022 -2571.64 2156.92
-262.243 -2571.43 2157.71
-262.352 -2571.26 2158.47
-262.749 -2570.96 2159.24
-261.984 -2571.69 2156.23
-263.168 -2570.61 2160.06
-268.792 -2565.69 2166.63
-268.737 -2565.43 2166.82
-268.668 -2565.88 2166.52
-268.531 -2566.05 2166.43
-268.855 -2565.23 2166.81
-268.456 -2566.25 2166.26
-268.799 -2564.54 2167.18
-268.878 -2564.8 2166.99
-270.141 -2565.05 2165.84
-268.295 -2566.43 2166.18
-268.148 -2566.62 2166.07
-267.893 -2566.83 2165.96
-267.654 -2567.03 2165.8
-268.863 -2564.31 2167.22
-268.953 -2564.06 2167.22
-269.154 -2563.8 2167.12
-268.864 -2562.42 2167.75
-269.007 -2561.16 2167.8
-269.15 -2561.82 2167.58
-269.212 -2563.38 2167.21
-269.195 -2562.94 2167.33
-270.755 -2563.67 2165.84
-268.186 -2551.14 2158.38
-268.221 -2551.04 2158.03
-268.146 -2551.64 2159.15
-268.16 -2551.75 2159.28
-268.29 -2551.86 2159.79
-268.201 -2551.86 2159.42
-268.374 -2552.07 2160.03
-268.14 -2551.52 2158.61
-268.135 -2551.57 2158.81
-268.126 -2551.68 2158.86
-268.153 -2551.49 2158.34
-268.169 -2551.35 2158.18
-268.49 -2552.31 2160.31
-268.31 -2550.87 2157.48
-268.244 -2551.02 2157.64
-269.332 -2552.76 2161.8
-268.728 -2552.59 2160.73
-270.035 -2553.02 2163.08
-270.269 -2553.36 2163.33
-270.406 -2553.72 2163.25
-271.006 -2554.66 2163.75
-271.095 -2554.79 2163.92
-270.804 -2554.35 2163.55
-270.604 -2554.09 2163.33
-271.329 -2555.46 2163.88
-271.468 -2555.63 2163.93
-271.552 -2555.7 2164.1
-271.696 -2555.83 2164.18
-271.15 -2555.09 2163.71
-271.263 -2555.41 2163.68
-271.876 -2556.29 2164.44
-271.939 -2556.48 2164.42
-271.95 -2556.59 2164.51
-271.973 -2556.72 2164.58
-271.963 -2556.86 2164.68
-271.929 -2557.14 2164.75
-271.867 -2556.2 2164.34
-271.967 -2557.43 2164.75
-271.709 -2557.43 2165.09
-271.82 -2555.98 2164.23
-271.912 -2556.22 2164.16
-271.675 -2557.71 2165.18
-271.231 -2557.76 2165.75
-271.314 -2558.06 2165.67
-271.588 -2557.9 2165.32
-271.143 -2558.33 2165.89
-271.39 -2558.35 2165.6
-270.426 -2558.71 2166.65
-271.238 -2558.76 2165.76
-271.079 -2559.14 2165.89
-270.611 -2559.11 2166.39
-270.022 -2559.07 2167.02
-269.75 -2559.86 2167.21
-269.411 -2561 2167.44
-269.295 -2549.15 2156.54
-269.249 -2549.37 2156.27
-269.039 -2549.73 2156.33
-269.922 -2548.31 2156.01
-268.857 -2550.06 2156.37
-268.726 -2550.31 2156.51
-268.612 -2550.57 2156.61
-268.495 -2550.84 2156.69
-268.399 -2551.04 2156.81
-268.341 -2551.15 2156.96
-270.762 -2547.16 2155.12
-270.565 -2547.55 2155.24
-291.743 -2512.39 2152.99
-291.844 -2512.22 2153.16
-292.051 -2511.83 2153.61
-292.024 -2511.92 2153.53
-291.954 -2512.03 2153.36
-292.002 -2511.89 2153.43
-291.895 -2512.08 2153.2
-234.033 -2591.43 2119.82
-236.422 -2591.54 2123.5
-235.207 -2591.66 2122.03
-233.329 -2591.79 2119.57
-271.154 -2547.82 2153.06
-270.687 -2547.68 2154.63
-270.79 -2549.98 2151.04
-270.858 -2550.12 2150.41
-270.817 -2549.58 2151.68
-269.59 -2553.62 2146.29
-269.841 -2552.83 2148.46
-270.009 -2552.39 2148.99
-269.561 -2553.38 2148.18
-269.324 -2553.8 2148.02
-270.105 -2552.08 2149.48
-270.18 -2551.78 2150
-270.228 -2551.45 2150.57
-268.387 -2555.41 2145.53
-268.853 -2554.58 2147.49
-269.107 -2554.19 2147.81
-268.576 -2555.02 2147.22
-265.458 -2559.21 2141.33
-266.188 -2558.37 2142.11
-263.803 -2560.79 2140.67
-267.076 -2557.23 2143.18
-268.046 -2555.84 2145.53
-262.715 -2561.76 2141.14
-262.538 -2561.81 2142.28
-260.716 -2566.38 2144.21
-260.848 -2565.82 2144.51
-260.948 -2565.33 2144.77
-258.349 -2573.44 2149.08
-259.816 -2572.44 2149.37
-257.652 -2574.06 2149.22
-256.956 -2574.58 2148.82
-254.904 -2576.51 2148.57
-256.217 -2575.45 2149.79
-256.887 -2574.82 2149.57
-255.524 -2576 2149.24
-254.023 -2577.35 2147.79
-253.725 -2577.71 2147.12
-254.414 -2576.96 2148.54
-253.416 -2578.11 2146.62
-253.031 -2578.75 2146.11
-251.267 -2582.05 2142.81
-251.626 -2581.56 2143.62
-251.441 -2581.86 2143.14
-252.271 -2580.29 2144.77
-252.221 -2580.34 2145.04
-251.626 -2581.51 2144.11
-250.914 -2582.44 2142.7
-262.661 -2570.86 2151.42
-262.817 -2570.71 2151.3
-262.865 -2570.62 2151.11
-262.519 -2571.01 2151.57
-261.065 -2569.64 2146.04
-262.849 -2569.77 2149.05
-262.731 -2569.69 2148.76
-261.465 -2569.52 2146.52
-263.889 -2569.43 2150.63
-263.853 -2569.34 2150.43
-264.12 -2569.38 2150.93
-260.941 -2569.1 2145.51
-261.951 -2569.48 2147.26
-260.463 -2568.57 2144.51
-261.071 -2568.95 2145.63
-263.317 -2570.23 2151.08
-263.269 -2570.18 2150.82
-263.405 -2570.04 2150.78
-263.119 -2570.14 2150.34
-264.269 -2569.39 2151.2
-264.181 -2569.54 2151.34
-263.243 -2570.34 2151.23
-246.727 -2584.54 2137.07
-246.144 -2584.8 2136.07
-247.972 -2584.14 2138.98
-242.46 -2586.67 2130.09
-241.984 -2587 2129.69
-249.538 -2583.41 2140.89
-248.979 -2583.77 2140.41
-249.977 -2583.1 2141.29
-250.23 -2583.03 2141.77
-250.468 -2582.91 2142.29
-250.737 -2582.64 2142.79
-241.556 -2587.37 2129.43
-241.025 -2587.91 2128.91
-240.982 -2587.88 2128.53
-240.839 -2587.96 2128.06
-240.618 -2588.01 2127.52
-240.622 -2587.71 2127.09
-260.54 -2567.97 2144.3
-260.626 -2567.69 2144.37
-260.6 -2567.34 2144.18
-260.584 -2566.91 2143.98
-260.658 -2568.36 2144.69
-237.806 -2588.79 2122.07
-237.699 -2589.78 2122.73
-237.94 -2589.57 2123.01
-238.276 -2590.1 2124.21
-236.946 -2591.53 2124.22
-237.716 -2591.17 2124.8
-237.956 -2590.97 2124.79
-238.128 -2590.78 2124.82
-238.271 -2590.58 2124.84
-237.435 -2591.38 2124.75
-238.597 -2590.26 2125.08
-238.852 -2589.93 2125.25
-238.655 -2589.95 2124.85
-261.932 -2571.71 2155.39
-247.715 -2582.39 2152.04
-249.391 -2580.93 2151.89
-251.384 -2579.34 2151.14
-252.98 -2578.2 2149.54
-252.376 -2578.68 2150
-253.719 -2577.6 2149.13
-254.285 -2577.08 2149.23
-254.844 -2576.6 2149.24
-256.965 -2574.91 2150.46
-258.029 -2574.08 2150.92
-259.768 -2572.82 2151.16
-261.298 -2572.02 2152.71
-262.088 -2571.58 2153.75
-262.325 -2571.45 2154.31
-262.41 -2571.43 2154.72
-262.645 -2571.32 2155.19
-263.661 -2569.5 2163.64
-265.221 -2568.27 2165.42
-264.823 -2568.69 2164.81
-264.43 -2569.13 2163.93
-267.427 -2567.24 2165.63
-266.353 -2567.63 2165.86
-267.15 -2567.43 2165.53
-265.942 -2568.04 2165.28
-263.194 -2570.06 2162.34
-263.443 -2570.29 2161
-262.896 -2571.16 2157.35
-262.866 -2571.22 2156.74
-262.977 -2571.04 2158.08
-263.185 -2570.86 2158.72
-263.599 -2570.58 2159.35
-262.767 -2571.28 2156.02
-264.096 -2570.25 2160.07
-270.09 -2565.81 2165.47
-270.024 -2565.96 2165.4
-270.051 -2565.63 2165.61
-270.215 -2565.43 2165.59
-269.944 -2566.11 2165.31
-269.882 -2566.26 2165.21
-270.351 -2565.23 2165.58
-269.869 -2566.4 2165.06
-269.621 -2566.51 2165.07
-270.621 -2564.44 2165.75
-270.475 -2564.64 2165.77
-270.559 -2564.84 2165.6
-271.934 -2565.04 2164.44
-271.649 -2565.13 2164.62
-269.716 -2566.63 2164.84
-269.511 -2566.75 2164.82
-269.412 -2566.86 2164.72
-269.243 -2567 2164.64
-269.067 -2567.14 2164.54
-270.691 -2564.23 2165.78
-270.802 -2564.05 2165.73
-270.962 -2563.86 2165.64
-269.482 -2562.32 2167.17
-269.686 -2561.62 2167.09
-270.788 -2563.27 2165.88
-270.942 -2563.48 2165.72
-270.94 -2563.09 2165.8
-272.437 -2563.92 2164.44
-272.324 -2564.1 2164.48
-268.183 -2551.23 2158.04
-268.196 -2551.2 2157.71
-268.122 -2551.79 2158.99
-268.13 -2551.9 2159.08
-268.246 -2551.96 2159.57
-268.169 -2552.02 2159.2
-268.305 -2552.09 2159.75
-268.138 -2551.66 2158.31
-268.126 -2551.68 2158.54
-268.114 -2551.81 2158.53
-268.107 -2551.83 2158.74
-268.164 -2551.51 2157.9
-268.15 -2551.65 2157.99
-268.18 -2551.37 2157.77
-268.434 -2552.32 2160.06
-268.293 -2551.24 2157.11
-268.258 -2551.34 2157.24
-269.312 -2552.91 2161.62
-268.675 -2552.65 2160.5
-270.14 -2553.37 2162.98
-269.399 -2553.08 2161.64
-270.202 -2553.69 2162.77
-270.469 -2554.07 2162.99
-271.083 -2555.04 2163.51
-270.926 -2554.71 2163.43
-270.711 -2554.44 2163.18
-271.419 -2555.6 2163.7
-271.574 -2555.75 2163.76
-271.649 -2555.8 2163.96
-271.809 -2555.95 2164.02
-271.197 -2555.38 2163.45
-271.359 -2555.56 2163.49
-271.958 -2556.4 2164.21
-272.016 -2556.57 2164.23
-272.069 -2556.74 2164.27
-272.111 -2556.89 2164.32
-272.155 -2557.06 2164.36
-272.13 -2557.22 2164.47
-272.211 -2557.59 2164.4
-272.2 -2557.84 2164.48
-271.993 -2557.74 2164.77
-271.905 -2556.11 2164.05
-272.103 -2556.57 2163.95
-272.057 -2556.42 2163.9
-271.98 -2558.19 2164.86
-271.999 -2558 2164.81
-271.602 -2558.16 2165.32
-271.757 -2558.55 2165.16
-271.969 -2558.38 2164.88
-271.584 -2558.8 2165.38
-271.779 -2558.79 2165.15
-271.646 -2559.36 2165.29
-270.79 -2559.93 2166.14
-271.222 -2559.75 2165.7
-270.265 -2559.53 2166.71
-269.903 -2560.82 2167
-270.342 -2560.38 2166.59
-269.897 -2548.53 2155.71
-269.213 -2549.75 2155.8
-269.921 -2548.83 2155.21
-269.019 -2550.14 2155.78
-268.899 -2550.39 2155.85
-268.786 -2550.65 2155.92
-268.662 -2550.91 2156.03
-268.537 -2551.17 2156.16
-268.48 -2551.37 2156.27
-268.425 -2551.51 2156.45
-234.663 -2591.85 2121.76
-236.25 -2591.73 2123.74
-232.957 -2592.28 2120.38
-234.328 -2592.08 2121.88
-232.219 -2592.83 2120.89
-231.382 -2593.46 2121.72
-270.793 -2548.82 2152.86
-270.29 -2551.05 2151.15
-270.263 -2550.78 2151.74
-270.242 -2550.42 2152.35
-269.599 -2553.29 2148.85
-269.721 -2552.98 2149.08
-269.855 -2552.62 2149.48
-269.408 -2553.66 2148.72
-269.222 -2554 2148.51
-269.984 -2552.26 2149.89
-270.03 -2552.03 2150.31
-270.11 -2551.69 2150.75
-268.32 -2555.39 2146.8
-268.731 -2554.77 2147.86
-268.989 -2554.38 2148.19
-268.245 -2555.44 2147.28
-268.422 -2555.22 2147.63
-265.549 -2559.07 2141.82
-263.962 -2560.63 2141.04
-266.416 -2558.02 2142.81
-267.572 -2556.46 2144.93
-267.729 -2556.11 2146.49
-267.975 -2555.8 2146.84
-262.822 -2561.65 2141.6
-262.82 -2561.41 2142.81
-262.915 -2561.49 2142.07
-260.794 -2566.78 2144.47
-260.914 -2566.14 2144.8
-261.004 -2565.58 2145.06
-261.094 -2565.05 2145.32
-258.497 -2573.47 2149.76
-259.913 -2572.49 2149.87
-262.39 -2571.15 2151.77
-257.64 -2574.25 2150.05
-253.931 -2577.4 2148.53
-253.625 -2577.78 2147.87
-253.333 -2578.16 2147.26
-253.048 -2578.63 2146.69
-252.788 -2579.14 2146.01
-251.111 -2582.22 2143.01
-251.431 -2581.86 2143.68
-251.304 -2582.01 2143.35
-252.067 -2580.54 2145.23
-251.499 -2581.69 2144.33
-263.842 -2570.27 2152.47
-263.672 -2570.43 2152.64
-264.033 -2570.1 2152.42
-264.019 -2570 2152.1
-263.42 -2570.62 2152.82
-263.008 -2569.52 2149.09
-263.706 -2569.33 2150.16
-263.278 -2569.31 2149.41
-264.466 -2569.07 2151.21
-264.267 -2569.11 2150.9
-264.413 -2568.88 2151.02
-264.136 -2569.03 2150.65
-264.565 -2569.17 2151.46
-262.132 -2569.38 2147.51
-263.11 -2569.26 2149.09
-261.202 -2568.81 2145.75
-262.163 -2569.27 2147.5
-264.192 -2569.83 2152.01
-264.179 -2569.69 2151.7
-264.626 -2569.34 2151.75
-264.489 -2569.52 2151.85
-245.072 -2585.27 2133.98
-243.383 -2586.18 2131.47
-242.323 -2586.89 2130.58
-246.345 -2584.86 2137.11
-247.716 -2584.38 2139.17
-245.474 -2585.19 2135.36
-248.758 -2583.98 2140.57
-241.97 -2587.16 2130.19
-241.556 -2587.49 2129.81
-249.294 -2583.62 2141.06
-249.85 -2583.27 2141.47
-250.02 -2583.25 2141.95
-250.296 -2583.1 2142.32
-250.581 -2582.82 2142.82
-250.934 -2582.42 2143.16
-241.02 -2588.01 2129.25
-239.934 -2589.34 2128.15
-239.922 -2589.31 2127.9
-239.932 -2589.25 2127.7
-239.888 -2589.26 2127.43
-239.861 -2589.19 2127.14
-239.862 -2589.03 2126.87
-239.897 -2588.79 2126.63
-260.918 -2568.32 2145.06
-260.931 -2568.06 2145.02
-261.046 -2567.89 2145.22
-260.827 -2567.55 2144.75
-260.774 -2567.24 2144.52
-261.357 -2568.7 2145.94
-238.202 -2589.28 2123.3
-238.59 -2589.74 2124.5
-236.707 -2591.75 2124.39
-237.219 -2591.57 2124.8
-237.812 -2591.19 2125.21
-238.107 -2590.97 2125.22
-238.326 -2590.75 2125.29
-238.488 -2590.56 2125.29
-238.674 -2590.34 2125.34
-237.538 -2591.39 2125.18
-238.967 -2590.03 2125.63
-239.127 -2589.58 2125.51
-239.192 -2589.81 2125.97
-238.992 -2589.51 2125.12
-263.002 -2571.16 2155.69
-248.426 -2581.84 2151.25
-248.843 -2581.55 2150.86
-251.315 -2579.5 2150.52
-253.16 -2578.14 2148.89
-252.479 -2578.72 2149.26
-251.95 -2579.14 2149.62
-253.452 -2577.9 2148.41
-258.718 -2573.43 2150.37
-260.132 -2572.47 2150.53
-261.88 -2571.61 2152.41
-262.661 -2571.22 2153.58
-262.873 -2571.14 2154.16
-263.1 -2571.06 2154.64
-263.328 -2570.98 2155.15
-263.639 -2570.86 2155.77
-264.215 -2569.52 2162.94
-265.545 -2568.45 2164.72
-265.326 -2568.79 2164.07
-265.205 -2569.11 2163.26
-268.965 -2567.29 2164.39
-268.821 -2567.44 2164.26
-266.728 -2567.87 2165.02
-267.019 -2567.61 2165.33
-268.756 -2567.61 2164.02
-266.469 -2568.17 2164.52
-263.987 -2569.92 2161.84
-264.297 -2570.03 2160.82
-263.629 -2570.8 2157.79
-263.568 -2570.88 2157.33
-263.521 -2570.94 2156.77
-263.753 -2570.66 2158.44
-264.078 -2570.46 2158.94
-264.652 -2570.21 2159.4
-263.643 -2570.88 2156.29
-265.171 -2569.8 2160.48
-265.202 -2569.93 2159.85
-271.511 -2565.5 2164.53
-271.48 -2565.74 2164.4
-271.457 -2565.96 2164.27
-271.69 -2565.3 2164.52
-271.425 -2566.16 2164.14
-271.35 -2566.33 2164.04
-271.216 -2566.51 2163.97
-272.062 -2564.48 2164.59
-272.091 -2564.73 2164.46
-271.829 -2564.84 2164.61
-272.526 -2565.16 2163.91
-272.233 -2565.26 2164.12
-272.428 -2564.99 2164.08
-271.399 -2566.64 2163.65
-271.057 -2566.82 2163.66
-270.894 -2567 2163.52
-270.726 -2567.17 2163.4
-270.578 -2567.34 2163.26
-272.208 -2564.29 2164.53
-270.92 -2562.77 2165.86
-271.174 -2562.19 2165.72
-271.07 -2562.47 2165.78
-272.389 -2563.68 2164.55
-272.439 -2563.38 2164.57
-272.893 -2564.2 2163.94
-272.949 -2563.96 2163.95
-272.848 -2564.42 2163.93
-268.232 -2551.47 2157.33
-268.096 -2551.95 2158.77
-268.101 -2552.05 2158.88
-268.212 -2552.11 2159.35
-268.156 -2552.2 2159
-268.278 -2552.2 2159.57
-268.136 -2551.81 2157.99
-268.125 -2551.83 2158.25
-268.112 -2551.97 2158.22
-268.1 -2551.98 2158.48
-268.206 -2551.6 2157.44
-268.182 -2551.73 2157.54
-268.161 -2551.85 2157.62
-268.445 -2552.42 2159.93
-268.383 -2551.65 2156.58
-268.337 -2551.76 2156.75
-268.704 -2552.77 2160.41
-269.455 -2553.26 2161.57
-269.49 -2553.45 2161.45
-270.176 -2553.98 2162.4
-270.479 -2554.4 2162.65
-271.153 -2555.38 2163.19
-271.036 -2555.08 2163.27
-270.831 -2554.81 2163.05
-271.511 -2555.7 2163.53
-271.661 -2555.86 2163.56
-271.747 -2555.9 2163.8
-271.911 -2556.08 2163.81
-271.297 -2555.52 2163.3
-271.428 -2555.71 2163.18
-272.211 -2556.82 2163.92
-272.288 -2557.02 2163.93
-272.355 -2557.21 2163.95
-272.368 -2557.37 2164.03
-272.31 -2557.51 2164.19
-272.524 -2558.01 2163.97
-272.541 -2558.22 2164.05
-272.351 -2558.3 2164.39
-272.708 -2558.63 2163.98
-272.034 -2556.31 2163.8
-272.344 -2556.96 2163.5
-272.43 -2557.14 2163.53
-272.294 -2556.87 2163.37
-272.595 -2558.82 2164.15
-272.561 -2559.01 2164.21
-271.976 -2558.6 2164.89
-272.313 -2559.22 2164.53
-272.175 -2559.28 2164.7
-272.464 -2559.15 2164.34
-272.015 -2559.35 2164.9
-272.224 -2560.78 2164.84
-272.017 -2561.02 2165.05
-271.532 -2561.74 2165.45
-271.581 -2561.4 2165.42
-271.827 -2561.28 2165.22
-271.344 -2561.96 2165.59
-269.759 -2549.9 2154.22
-270.074 -2549.2 2154.31
-269.609 -2550.29 2154.12
-269.476 -2550.53 2154.2
-269.361 -2550.71 2154.31
-269.19 -2551.07 2154.42
-269.289 -2550.9 2154.33
-269.107 -2551.27 2154.46
-269.044 -2551.44 2154.49
-269.048 -2551.6 2154.39
-268.971 -2551.71 2154.59
-268.879 -2551.82 2154.85
-235.835 -2591.96 2123.78
-234.026 -2592.37 2122.25
-235.486 -2592.18 2123.89
-233.347 -2592.71 2122.37
-232.919 -2593.03 2122.83
-231.079 -2593.84 2122.77
-233.052 -2593.13 2123.59
-270.107 -2551.13 2151.81
-270.113 -2551.42 2151.32
-270.058 -2550.81 2152.41
-269.443 -2553.65 2149.17
-269.558 -2553.36 2149.31
-269.643 -2553.11 2149.47
-269.769 -2552.76 2149.81
-269.228 -2554.06 2149.06
-269.042 -2554.33 2148.7
-269.833 -2552.51 2150.2
-269.888 -2552.25 2150.62
-269.974 -2551.93 2150.99
-268.546 -2555.06 2147.97
-268.79 -2554.69 2148.32
-267.9 -2555.83 2147.32
-268.091 -2555.59 2147.64
-268.138 -2555.55 2147.82
-268.324 -2555.35 2147.96
-265.692 -2558.78 2142.59
-264.04 -2560.54 2141.38
-267.136 -2556.96 2144.74
-267.381 -2556.46 2146.52
-267.59 -2556.21 2147.01
-262.817 -2560.96 2144.44
-263.054 -2560.72 2144.42
-263.149 -2561.12 2142.69
-264.326 -2560.14 2142.32
-264.128 -2560.42 2141.76
-260.985 -2566.51 2145.05
-260.968 -2567.04 2144.91
-261.073 -2565.9 2145.38
-261.126 -2565.35 2145.54
-262.312 -2571.28 2152.12
-263.427 -2570.69 2153.18
-253.161 -2578.29 2147.79
-252.876 -2578.74 2147.18
-252.692 -2579.2 2146.42
-252.062 -2580.43 2145.57
-251.329 -2581.91 2143.99
-251.103 -2582.23 2143.48
-251.155 -2582.14 2143.73
-251.393 -2581.73 2144.66
-264.093 -2570.24 2153.07
-264.258 -2570.09 2152.99
-263.862 -2570.42 2153.13
-264.451 -2569.93 2152.99
-264.376 -2569.88 2152.57
-263.757 -2569.15 2150.15
-264.158 -2568.88 2150.62
-263.792 -2568.95 2150.17
-264.634 -2568.88 2151.43
-264.77 -2569 2151.77
-264.516 -2568.67 2151.08
-264.722 -2568.71 2151.49
-264.78 -2569.18 2151.91
-263.186 -2569.09 2149.15
-263.609 -2568.94 2149.89
-262.164 -2569.15 2147.44
-263.043 -2569.03 2148.88
-264.58 -2569.62 2152.25
-264.578 -2569.71 2152.55
-264.822 -2569.43 2152.28
-264.954 -2569.25 2152.23
-243.625 -2586.2 2132.75
-242.219 -2587.09 2131.15
-241.81 -2587.38 2130.67
-246.942 -2584.88 2139.27
