-264.658 -2704.87 3423.27
-265.482 -2704.46 3423.99
-259.939 -2705.67 3416.49
-260.287 -2706.28 3417.97
-261.92 -2703.7 3416.54
-262.33 -2703.31 3416.44
-263.174 -2702.63 3416.67
-263.743 -2702.24 3417.31
-259.455 -2707.59 3422.53
-257.823 -2708.34 3422.06
-261.144 -2706.81 3423.19
-262.509 -2706.15 3423.79
-263.619 -2705.57 3424.34
-264.556 -2705.07 3424.66
-265.272 -2704.67 3424.75
-254.445 -2709.85 3422.32
-256.467 -2708.93 3422.13
-296.746 -2660.72 3430.7
-298.278 -2658.98 3429.97
-299.664 -2657.49 3428.87
-296.069 -2661.6 3431.24
-295.638 -2662.19 3431.21
-294.146 -2664.46 3432.9
-293.558 -2668.14 3446.41
-293.375 -2668.63 3445.73
-293.192 -2669.19 3445.62
-292.999 -2669.75 3445.38
-292.881 -2669.88 3445.02
-292.788 -2669.89 3444.59
-293.032 -2669.8 3445.82
-292.648 -2669.51 3443.39
-292.677 -2669.87 3444.09
-292.955 -2667 3437.12
-292.681 -2668.01 3439.39
-292.714 -2668.36 3440.81
-292.627 -2668.81 3441.79
-292.473 -2669.27 3442.3
-292.652 -2669.19 3442.74
-293.293 -2665.98 3434.99
-300.124 -2656.78 3427.51
-300.105 -2656.76 3427.26
-299.904 -2657.13 3427.99
-299.85 -2657.27 3428.37
-299.919 -2657.02 3427.66
-295.299 -2662.61 3430.92
-296.426 -2660.97 3430.17
-297.975 -2659.29 3429.15
-299.128 -2657.96 3428.03
-299.448 -2657.46 3427.5
-299.697 -2657.18 3427.29
-292.612 -2667.48 3437.07
-292.216 -2668.08 3437.37
-291.809 -2668.54 3437.36
-291.376 -2668.98 3437.33
-290.714 -2669.61 3437.28
-299.921 -2656.97 3427.38
-277.779 -2679.88 3423.88
-277.533 -2680.01 3424.78
-277.357 -2680.12 3425.7
-277.324 -2680.17 3426.36
-277.301 -2680.23 3426.92
-278.128 -2680.54 3432.83
-278.677 -2680.31 3433.73
-279.2 -2680.13 3434.54
-277.28 -2680.51 3428.91
-277.229 -2680.38 3427.76
-277.186 -2680.58 3428.68
-277.718 -2680.07 3423.72
-287.334 -2672.74 3436.47
-279.676 -2679.8 3434.58
-281.059 -2679.31 3436.14
-281.478 -2679.41 3437.36
-282.995 -2678.41 3437.86
-284.124 -2677.34 3438.01
-285.977 -2675.09 3438.24
-284.823 -2676.72 3438.56
-283.676 -2677.96 3438.39
-279.534 -2679.16 3417.97
-279.509 -2678.96 3418.49
-279.188 -2679.12 3419.45
-278.552 -2679.65 3421.05
-277.706 -2680.22 3423.5
-277.779 -2680.32 3423.06
-279.654 -2679.42 3416.72
-279.529 -2679.49 3417.36
-280.211 -2679.26 3402.15
-280.083 -2678.43 3402.01
-280.411 -2680.04 3402.67
-280.35 -2679.63 3402.5
-280.347 -2678.33 3403.01
-280.425 -2679.49 3402.78
-280.519 -2679.46 3403.07
-280.332 -2679.19 3402.51
-280.561 -2680.41 3403.11
-280.267 -2682.61 3404.38
-280.574 -2681.32 3403.99
-280.603 -2681.59 3404.31
-280.658 -2680.98 3403.91
-280.647 -2680.73 3403.55
-280.485 -2682.24 3404.54
-280.609 -2681.96 3404.69
-280.159 -2676.84 3403.47
-280.44 -2678.52 3403.3
-280.493 -2678.58 3403.56
-280.22 -2676.81 3403.9
-280.261 -2676.92 3404.4
-280.189 -2676.42 3404.79
-279.951 -2677.24 3408.08
-279.642 -2679.13 3411.09
-279.523 -2680.16 3412.71
-279.586 -2679.81 3413.04
-279.6 -2680.05 3413.74
-279.626 -2680.07 3414.24
-279.618 -2680.13 3415.09
-279.555 -2680.42 3414.62
-279.623 -2679.79 3416.12
-279.568 -2680.27 3415.51
-278.029 -2688.64 3407.38
-277.567 -2689.3 3407.3
-276.703 -2690.74 3407.96
-277.225 -2689.92 3407.58
-279.025 -2686.43 3406.69
-279.409 -2685.51 3406.43
-278.639 -2687.55 3407.35
-278.346 -2688.07 3407.34
-280.022 -2683.32 3404.75
-279.971 -2684.01 3405.66
-274.094 -2693.71 3407.69
-272.78 -2695.22 3407.38
-272.045 -2696.05 3407.21
-271.394 -2696.57 3406.53
-271.56 -2696.62 3407.23
-275.663 -2691.99 3408.06
-269.745 -2698.37 3407.67
-270.364 -2697.84 3407.52
-271.085 -2697.05 3407.06
-270.858 -2697.43 3407.85
-267.208 -2700.4 3408.07
-268.213 -2699.69 3408.15
-269.706 -2698.51 3408.36
-268.992 -2699.15 3408.63
-262.27 -2703.36 3409.37
-262.114 -2703.49 3411.38
-262.782 -2703.01 3413.52
-265.252 -2701.58 3408.17
-264.756 -2701.92 3408.75
-264.565 -2702.09 3409.53
-267.115 -2700.58 3408.8
-265.044 -2701.27 3416.55
-265.071 -2701.29 3416.16
-263.427 -2702.41 3415.89
-265.588 -2700.89 3417.12
-263.297 -2702.48 3416.2
-263.243 -2702.54 3416.46
-262.463 -2705.88 3420.85
-264.815 -2704.72 3423.09
-262.472 -2705.7 3420.48
-265.812 -2704.36 3424.74
-265.938 -2704.23 3424.36
-266.283 -2704.05 3424.69
-265.964 -2704.12 3423.94
-266.368 -2703.91 3424.28
-260.584 -2705.44 3417.27
-262.28 -2703.56 3417.13
-261.78 -2705.72 3419.38
-263.847 -2702.27 3417.88
-263.92 -2702.16 3417.68
-265.765 -2700.86 3418.04
-265.699 -2700.86 3417.82
-265.992 -2700.77 3418.39
-260.712 -2706.88 3424.3
-262.254 -2706.19 3424.76
-258.85 -2707.7 3423.88
-263.422 -2705.66 3424.93
-264.285 -2705.22 3424.98
-265.042 -2704.8 3425.08
-265.608 -2704.48 3425.11
-266.062 -2704.21 3425.1
-256.254 -2708.69 3424.47
-298.101 -2659.16 3429.82
-296.731 -2660.65 3430.32
-299.459 -2657.75 3428.73
-293.284 -2669.09 3446.38
-293.398 -2668.78 3446.82
-293.174 -2669.44 3446.19
-293.037 -2669.95 3446.3
-292.909 -2670.38 3445.96
-292.835 -2670.37 3445.59
-292.685 -2670.52 3445.21
-292.55 -2670.5 3444.61
-292.932 -2670.54 3446.44
-292.394 -2669.76 3442.88
-292.439 -2670.04 3443.52
-292.414 -2670.54 3444.14
-292.434 -2668.44 3439.54
-292.418 -2668.76 3440.7
-292.38 -2669.01 3441.33
-292.271 -2669.36 3441.81
-292.172 -2669.82 3442.36
-299.692 -2657.33 3427.9
-299.611 -2657.56 3428.27
-299.704 -2657.21 3427.55
-297.981 -2659.29 3429.41
-299.31 -2657.86 3428.24
-299.503 -2657.49 3427.78
-292.013 -2668.91 3439.52
-291.542 -2669.35 3439.24
-291.03 -2669.77 3438.91
-290.4 -2670.24 3438.41
-277.481 -2680.19 3424.62
-277.307 -2680.28 3425.51
-277.186 -2680.42 3426.33
-277.196 -2680.41 3426.77
-277.156 -2680.47 3427.54
-278.277 -2680.71 3433.97
-278.659 -2680.57 3434.73
-277.913 -2680.93 3433.33
-279.037 -2680.51 3435.44
-279.489 -2680.42 3436.15
-279.881 -2680.06 3435.89
-277.094 -2680.66 3428.55
-288.827 -2671.71 3438.23
-281.659 -2679.69 3438.42
-280.113 -2680.41 3437.39
-283.261 -2678.61 3438.95
-284.296 -2677.46 3438.84
-287.546 -2673.3 3438.79
-289.117 -2671.75 3439.08
-286.135 -2675.21 3439.05
-284.946 -2676.83 3439.25
-283.895 -2678.06 3439.22
-279.388 -2679.54 3418.03
-279.239 -2679.36 3418.9
-278.49 -2680.06 3420.63
-278.298 -2680.05 3421.38
-279.511 -2679.94 3416.69
-279.371 -2680.05 3417.31
-280.494 -2679.98 3402.87
-280.572 -2679.93 3403.06
-280.67 -2679.95 3403.34
-280.595 -2679.45 3403.28
-280.635 -2680.37 3403.32
-280.215 -2682.96 3404.83
-280.677 -2681.4 3404.51
-280.687 -2681.06 3404.23
-280.662 -2681.81 3404.87
-280.692 -2680.68 3403.84
-280.386 -2682.59 3404.93
-280.522 -2682.37 3405.16
-280.501 -2678.57 3403.8
-280.681 -2679.67 3403.46
-280.5 -2678.59 3404.02
-280.265 -2677.04 3405.01
-280.507 -2678.7 3404.22
-280.501 -2678.67 3404.46
-280.229 -2676.86 3405.63
-280.206 -2677.27 3406.22
-280.072 -2677.38 3407.32
-279.723 -2678.83 3410.26
-279.561 -2680.31 3412.18
-279.507 -2680.55 3413.48
-279.494 -2681.05 3413.13
-279.517 -2680.69 3414.12
-279.495 -2680.71 3415.08
-279.43 -2681.21 3414.62
-279.501 -2680.27 3416.07
-279.382 -2680.91 3415.86
-278.121 -2688.58 3407.72
-277.707 -2689.22 3407.61
-276.199 -2691.4 3408.3
-276.934 -2690.45 3408.11
-277.429 -2689.71 3407.84
-278.943 -2686.83 3407.17
-279.656 -2685.02 3406.51
-279.136 -2686.44 3407.25
-278.807 -2687.3 3407.68
-278.587 -2687.81 3407.89
-278.388 -2688.13 3407.73
-280.085 -2683.61 3405.46
-274.056 -2693.88 3408.2
-272.698 -2695.51 3408.05
-272.04 -2696.25 3407.83
-271.447 -2696.92 3407.93
-270.308 -2697.99 3408.27
-270.917 -2697.5 3408.59
-268.107 -2699.9 3408.85
-270.329 -2698.05 3408.86
-269.8 -2698.54 3409.08
-269.041 -2699.22 3409.35
-264.501 -2702.18 3410.43
-264.691 -2702.08 3411.4
-263.885 -2702.37 3413.4
-265.057 -2701.39 3415.42
-266.539 -2700.99 3409.27
-266.777 -2700.88 3410.18
-267.489 -2700.41 3409.76
-268.199 -2699.9 3409.56
-267.267 -2699.85 3417.02
-267.395 -2699.77 3417.33
-267.088 -2699.99 3416.62
-265.777 -2700.77 3417.44
-267.422 -2699.74 3417.65
-265.813 -2700.77 3417.66
-264.96 -2704.57 3422.92
-266.221 -2703.91 3423.8
-264.658 -2704.56 3422.23
-265.246 -2704.32 3422.83
-266.463 -2703.97 3425.08
-266.636 -2703.78 3424.59
-266.742 -2703.77 3424.99
-266.951 -2703.59 3424.88
-266.693 -2703.65 3424.18
-266.913 -2703.54 3424.48
-262.223 -2703.77 3417.52
-261.6 -2705.33 3418.6
-263.918 -2702.31 3418.23
-263.345 -2705.01 3420.83
-265.657 -2701.22 3419.09
-265.852 -2701.01 3418.89
-265.987 -2700.85 3418.66
-267.326 -2699.95 3418.67
-267.45 -2699.79 3418.31
-267.4 -2699.95 3419
-261.698 -2706.34 3425.63
-263.071 -2705.74 3425.7
-264.043 -2705.28 3425.65
-259.404 -2707.27 3425.53
-264.831 -2704.89 3425.58
-265.389 -2704.61 3425.48
-265.853 -2704.34 3425.49
-266.312 -2704.07 3425.52
-266.682 -2703.83 3425.47
-298.527 -2658.73 3429.24
-293.096 -2669.92 3446.92
-293.161 -2669.68 3447.21
-293.217 -2669.45 3447.51
-293.02 -2670.23 3446.8
-292.926 -2670.78 3446.89
-292.839 -2671.03 3446.51
-292.769 -2671.02 3446.2
-292.697 -2671.02 3445.9
-292.529 -2670.93 3445.14
-292.593 -2671.19 3445.67
-292.347 -2671.13 3444.74
-292.806 -2671.38 3446.87
-292.054 -2670.37 3442.85
-292.171 -2670.58 3443.47
-292.165 -2671.09 3444.08
-293.495 -2668.16 3448.58
-293.331 -2667.74 3451.12
-293.273 -2669.12 3448.02
-292.061 -2669.17 3440.53
-292.04 -2669.44 3441.2
-291.974 -2669.81 3441.79
-291.845 -2670.33 3442.33
-291.646 -2669.55 3440.13
-291.125 -2670 3439.79
-290.556 -2670.45 3439.4
-277.136 -2680.55 3426.16
-276.999 -2680.76 3427
-277.051 -2680.66 3427.23
-277.047 -2680.64 3427.71
-277.001 -2680.76 3428.51
-278.323 -2680.94 3434.86
-278.625 -2680.91 3435.52
-278.94 -2680.89 3436.21
-278.018 -2681.09 3434.38
-279.301 -2680.8 3436.8
-279.713 -2680.99 3438
-277.757 -2681.27 3434
-282.046 -2679.83 3439.5
-280.339 -2680.86 3438.88
-283.548 -2678.7 3439.85
-284.472 -2677.57 3439.58
-289.116 -2671.97 3439.58
-287.631 -2673.51 3439.49
-290.619 -2670.66 3439.99
-286.125 -2675.48 3439.63
-285.111 -2676.89 3439.82
-284.079 -2678.23 3440.02
-279.098 -2679.84 3418.8
-279.16 -2680.13 3418.17
-278.299 -2680.42 3420.81
-277.652 -2680.75 3422.87
-279.352 -2680.59 3416.58
-279.185 -2680.69 3417.36
-280.681 -2680.3 3403.5
-280.72 -2680.41 3403.86
-280.729 -2680.13 3403.78
-280.219 -2683.39 3405.57
-280.35 -2682.95 3405.37
-280.705 -2681.69 3405.06
-280.73 -2681.23 3404.69
-280.735 -2680.8 3404.27
-280.633 -2682.19 3405.39
-280.472 -2682.78 3405.64
-280.695 -2679.74 3403.77
-280.72 -2679.87 3404.11
-280.353 -2677.76 3405.19
-280.514 -2678.85 3404.7
-280.746 -2680.02 3404.45
-280.718 -2679.89 3404.69
-280.316 -2677.78 3405.63
-280.272 -2677.95 3406.11
-280.142 -2677.92 3407.11
-279.82 -2678.53 3409.46
-279.613 -2680.36 3411.63
-279.549 -2681.33 3412.56
-279.464 -2681.34 3413.93
-279.455 -2681.96 3413.37
-279.352 -2681.42 3415.33
-279.302 -2682.03 3414.81
-279.362 -2682.1 3414.17
-279.151 -2681.39 3416.77
-279.172 -2681.76 3416.08
-277.928 -2688.94 3407.96
-278.279 -2688.39 3408.09
-276.339 -2691.26 3408.58
-274.916 -2692.94 3408.61
-277.062 -2690.3 3408.31
-277.672 -2689.38 3408.16
-279.941 -2684.41 3406.48
-279.361 -2685.94 3407.25
-279.011 -2686.9 3407.89
-278.787 -2687.47 3408.13
-278.51 -2688.05 3408.31
-272.815 -2695.54 3408.85
-272.092 -2696.39 3408.75
-271.622 -2696.87 3408.56
-270.831 -2697.69 3409.33
-271.285 -2697.25 3409.07
-270.37 -2698.12 3409.57
-269.88 -2698.57 3409.82
-269.148 -2699.19 3410.09
-266.905 -2700.81 3411.02
-265.657 -2701.43 3412.21
-266.11 -2700.98 3413.57
-266.669 -2700.31 3415.9
-267.794 -2700.21 3410.78
-268.419 -2699.78 3410.37
-268.325 -2699.16 3417.28
-268.259 -2699.22 3416.92
-268.339 -2699.15 3417.59
-268.167 -2699.36 3416.21
-267.593 -2699.64 3418
-268.207 -2699.23 3417.91
-266.377 -2703.71 3423.59
-266.81 -2703.5 3423.97
-265.56 -2703.82 3422.45
-266.526 -2703.4 3423.28
-266.963 -2703.63 3425.28
-267.126 -2703.43 3424.76
-267.229 -2703.42 3425.15
-267.486 -2703.19 3425.03
-267.287 -2703.25 3424.49
-267.144 -2703.31 3424.23
-267.452 -2703.17 3424.76
-262.422 -2703.81 3418.02
-263.942 -2702.45 3418.57
-262.522 -2704.13 3418.61
-263.223 -2704.84 3420.39
-265.737 -2701.31 3419.45
-265.384 -2703.7 3422.03
-266.98 -2700.44 3419.71
-267.178 -2700.18 3419.32
-267.893 -2699.51 3418.67
-268.016 -2699.38 3418.36
-267.795 -2699.69 3419.25
-268.062 -2699.42 3418.99
-263.51 -2705.46 3426.39
-262.081 -2706.01 3426.7
-264.366 -2705.07 3426.23
-265.114 -2704.7 3426.15
-259.696 -2706.81 3427.72
-265.599 -2704.46 3425.99
-265.996 -2704.26 3425.89
-266.479 -2703.97 3425.91
-266.854 -2703.72 3425.84
-267.139 -2703.52 3425.64
-260.743 -2705.36 3433.44
-262.03 -2704.4 3435
-262.619 -2704.01 3435.61
-261.246 -2704.74 3435.95
-292.969 -2670.56 3447.5
-292.919 -2670.85 3447.31
-292.99 -2670.38 3447.88
-293.025 -2670.14 3448.22
-292.802 -2671.43 3447.21
-292.686 -2671.61 3446.55
-292.602 -2671.68 3446.25
-292.513 -2671.77 3445.96
-292.41 -2671.5 3445.37
-292.406 -2671.91 3445.66
-292.133 -2671.59 3444.62
-292.21 -2671.83 3445.07
-292.677 -2671.93 3446.95
-292.596 -2672.05 3446.68
-291.907 -2671.08 3443.43
-291.724 -2670.98 3442.85
-291.935 -2671.53 3444.02
-293.256 -2668.94 3448.84
-293.145 -2668.52 3450.83
-292.649 -2669.21 3453.71
-292.797 -2668.64 3454.23
-293.051 -2669.84 3448.75
-291.712 -2669.72 3440.77
-291.712 -2669.96 3441.35
-291.658 -2670.3 3441.81
-291.531 -2670.92 3442.37
-291.295 -2670.08 3440.38
-277.055 -2680.73 3426.24
-276.912 -2680.98 3427.09
-276.912 -2680.89 3427.91
-276.849 -2681.11 3427.92
-276.907 -2680.92 3428.51
-278.238 -2681.35 3435.66
-278.523 -2681.28 3436.14
-278.963 -2681.2 3436.94
-279.33 -2681.21 3437.75
-278.009 -2681.45 3435.26
-279.94 -2681.49 3439.62
-280.51 -2681.35 3440.39
-277.817 -2681.56 3434.85
-282.453 -2679.95 3440.53
-281.154 -2681.09 3440.91
-283.547 -2679.03 3440.49
-284.515 -2677.97 3440.36
-289.04 -2672.25 3440.01
-290.365 -2671.12 3440.42
-286.794 -2674.87 3440.12
-291.007 -2670.56 3440.61
-285.094 -2677.23 3440.36
-286.566 -2675.34 3440.42
-284.025 -2678.68 3440.68
-278.426 -2680.59 3420.16
-278.928 -2680.71 3418.4
-277.614 -2681 3422.6
-278.923 -2681.31 3417.85
-280.743 -2680.55 3404.28
-280.743 -2680.25 3404.19
-280.279 -2683.49 3406.14
-280.063 -2684.17 3406.6
-280.698 -2682.02 3405.59
-280.724 -2681.52 3405.18
-280.738 -2681.01 3404.75
-280.542 -2682.57 3405.89
-280.35 -2683.2 3406.22
-280.749 -2680.37 3404.6
-280.513 -2679.03 3405.07
-280.743 -2680.45 3405.01
-280.7 -2680.14 3405.12
-280.498 -2679.2 3405.45
-280.47 -2679.37 3405.88
-280.194 -2678.39 3406.98
-279.947 -2678.72 3408.78
-279.696 -2679.88 3410.67
-279.802 -2681.55 3410.63
-279.743 -2682.24 3410.97
-279.624 -2682.83 3411.53
-279.458 -2683.18 3412.47
-279.141 -2682.59 3415.2
-279.322 -2683.45 3413.13
-278.861 -2682.94 3416.25
-279.003 -2683.54 3414.82
-278.134 -2688.68 3408.35
-276.305 -2691.33 3408.92
-275.055 -2692.84 3409.13
-273.215 -2695.14 3409.43
-276.952 -2690.5 3408.75
-277.354 -2689.89 3408.43
-277.765 -2689.29 3408.55
-279.56 -2685.53 3407.31
-279.198 -2686.51 3408.05
-278.974 -2687.12 3408.42
-278.744 -2687.67 3408.51
-278.41 -2688.27 3408.58
-272.3 -2696.28 3409.62
-271.729 -2696.9 3409.46
-271.313 -2697.31 3409.82
-270.921 -2697.69 3410.11
-270.494 -2698.09 3410.34
-269.993 -2698.55 3410.57
-269.282 -2699.14 3410.9
-267.672 -2700.27 3411.69
-267.449 -2700.16 3413.66
-268.167 -2699.58 3414.57
-268.499 -2699.72 3411.24
-269.023 -2698.68 3417.67
-269.068 -2698.66 3417.21
-269.133 -2698.7 3416.43
-268.792 -2698.83 3418.05
-269.025 -2699.03 3414.34
-268.375 -2699.12 3418.32
-267.002 -2703.25 3423.8
-267.456 -2702.99 3424.12
-266.757 -2703 3422.98
-267.12 -2703.03 3423.57
-267.404 -2703.32 3425.44
-267.669 -2703.1 3425.32
-267.914 -2702.88 3425.23
-267.834 -2702.9 3424.98
-267.766 -2702.91 3424.72
-267.64 -2702.96 3424.44
-264.109 -2702.48 3418.96
-265.647 -2701.56 3419.75
-263.269 -2703.84 3419.39
-264.478 -2703.39 3420.53
-266.963 -2700.72 3420.19
-265.695 -2702.67 3421.19
-266.737 -2702.12 3421.76
-267.394 -2700.28 3419.96
-267.584 -2699.97 3419.6
-268.476 -2699.12 3419.01
-268.316 -2699.2 3418.7
-268.643 -2698.95 3418.67
-268.246 -2699.38 3419.41
-268.064 -2699.66 3419.71
-268.508 -2699.14 3419.36
-264.629 -2704.87 3426.86
-263.79 -2705.2 3427.22
-261.627 -2705.93 3428.23
-265.341 -2704.54 3426.71
-265.757 -2704.34 3426.49
-260.826 -2705.88 3430.26
-266.241 -2704.09 3426.45
-266.55 -2703.93 3426.23
-266.971 -2703.63 3426.25
-267.29 -2703.41 3426.03
-267.58 -2703.21 3425.8
-261.893 -2705.15 3431.67
-261.802 -2704.81 3433.43
-263.58 -2703.64 3434.49
-261.19 -2704.76 3436.48
-264.354 -2703.13 3435
-263.74 -2703.39 3436.01
-265.161 -2702.69 3435.36
-263.343 -2703.58 3436.57
-292.852 -2671.18 3448.03
-292.812 -2671.38 3447.73
-292.771 -2671.57 3447.47
-292.84 -2671.08 3448.54
-292.874 -2670.72 3448.93
-292.668 -2672.04 3447.23
-292.502 -2672.22 3446.43
-292.434 -2672.33 3446.21
-292.372 -2672.44 3446.01
-292.233 -2672.21 3445.38
-292.299 -2672.6 3445.86
-291.912 -2672.02 3444.43
-292.004 -2672.22 3444.84
-292.063 -2672.5 3445.23
-292.585 -2672.52 3447.17
-292.552 -2672.59 3447.04
-292.513 -2672.68 3446.89
-291.654 -2671.62 3443.53
-291.44 -2671.56 3442.99
-291.718 -2671.99 3444
-292.928 -2669.28 3451.05
-293.005 -2669.7 3449.63
-292.362 -2670.15 3453.97
-292.205 -2670.51 3457.16
-292.032 -2671.05 3456.31
-292.579 -2669.37 3456.87
-292.87 -2670.47 3449.53
-291.387 -2670.22 3440.96
-291.371 -2670.5 3441.43
-291.361 -2670.83 3441.94
-291.201 -2671.51 3442.5
-278.571 -2681.58 3436.9
-278.257 -2681.76 3436.53
-278.895 -2681.46 3437.36
-279.209 -2681.66 3438.51
-279.68 -2681.83 3439.92
-277.988 -2681.88 3436.01
-280.316 -2682.56 3442.68
-280.663 -2682.28 3442.64
-281.053 -2682.16 3442.95
-277.618 -2681.76 3434.56
-277.765 -2681.96 3435.48
-282.744 -2680.01 3441.1
-281.437 -2681.94 3443.06
-283.839 -2679.12 3441.15
-283.38 -2679.56 3441.19
-284.469 -2678.47 3441.08
-288.938 -2672.56 3440.4
-290.284 -2671.45 3440.87
-290.784 -2671.04 3441.01
-291.097 -2670.76 3441.19
-286.491 -2675.63 3440.75
-285.14 -2677.51 3440.89
-288.958 -2672.77 3440.78
-278.083 -2681.02 3420.87
-278.197 -2681.36 3420.18
-278.572 -2682.73 3417.66
-280.742 -2680.74 3404.76
-279.901 -2684.7 3407.22
-280.083 -2684.14 3407.17
-280.7 -2681.83 3405.7
-280.575 -2682.38 3406.14
-280.724 -2681.32 3405.24
-280.392 -2682.98 3406.41
-280.153 -2683.86 3407.22
-280.732 -2680.81 3405.17
-280.714 -2681.02 3405.65
-280.698 -2680.65 3405.56
-280.65 -2680.31 3405.59
-280.36 -2679.57 3406.8
-280.565 -2680.49 3406.27
-280.175 -2679.72 3408.03
-280.007 -2680.32 3409.1
-279.909 -2680.97 3409.83
-280.223 -2682.09 3408.4
-280.307 -2681.55 3408.03
-279.996 -2682.77 3409.19
-279.728 -2683.61 3410.39
-279.235 -2684.04 3413.07
-279.543 -2684.21 3411.26
-278.694 -2684.66 3414.93
-278.946 -2684.75 3413.68
-279.299 -2684.67 3412.14
-278.156 -2688.71 3408.75
-275.379 -2692.51 3409.66
-276.545 -2691.02 3409.32
-273.557 -2694.8 3410.14
-272.692 -2695.9 3410.34
-277.239 -2690.1 3408.9
-277.715 -2689.4 3408.94
-279.429 -2685.96 3407.97
-279.232 -2686.54 3408.55
-278.858 -2687.45 3408.91
-279.046 -2687 3408.85
-278.63 -2687.92 3408.84
-278.405 -2688.28 3409.07
-272.176 -2696.52 3410.36
-271.737 -2696.97 3410.22
-271.391 -2697.31 3410.6
-271.03 -2697.67 3410.98
-270.583 -2698.09 3411.13
-270.068 -2698.54 3411.44
-269.438 -2699.01 3412.02
-268.57 -2699.63 3412.21
-269.356 -2698.43 3418.23
-269.486 -2698.33 3417.69
-269.641 -2698.28 3416.9
-269.647 -2698.58 3414.5
-270.032 -2698.22 3414.98
-268.959 -2698.72 3418.53
-267.506 -2702.81 3423.85
-267.897 -2702.64 3424.28
-267.84 -2702.55 3423.96
-267.246 -2702.66 3423.15
-267.539 -2702.62 3423.53
-267.838 -2703.01 3425.61
-268.029 -2702.82 3425.49
-268.219 -2702.6 3425.4
-268.14 -2702.64 3425.17
-268.065 -2702.66 3424.92
-267.981 -2702.69 3424.64
-265.589 -2701.86 3420.1
-266.858 -2701.08 3420.57
-267.282 -2700.75 3420.7
-267.526 -2700.37 3420.34
-267.078 -2701.82 3421.8
-267.868 -2699.97 3420.04
-268.842 -2698.85 3419.04
-268.836 -2698.9 3419.39
-269.106 -2698.65 3418.97
-268.381 -2699.47 3419.97
-268.576 -2699.21 3419.81
-268.192 -2699.75 3420.23
-268.824 -2698.96 3419.76
-265.211 -2704.49 3427.45
-264.597 -2704.71 3427.93
-262.99 -2705.24 3428.86
-265.735 -2704.22 3427.42
-265.997 -2704.14 3427.04
-266.453 -2703.87 3427.09
-266.735 -2703.76 3426.66
-267.101 -2703.47 3426.81
-267.366 -2703.3 3426.53
-267.668 -2703.1 3426.29
-267.941 -2702.91 3426.01
-263.483 -2704.79 3429.91
-263.23 -2704.26 3432.58
-263.684 -2703.74 3433.72
-265.016 -2702.87 3434.27
-264.782 -2703.13 3433.67
-261.982 -2704.35 3437.59
-263.372 -2703.58 3437.1
-265.578 -2702.49 3434.75
-265.389 -2702.55 3436.01
-265.949 -2702.26 3435.44
-265.697 -2702.41 3436.76
-292.759 -2671.81 3448.13
-292.731 -2671.87 3447.83
-292.663 -2672.16 3447.49
-292.749 -2671.47 3449.1
-292.748 -2671.83 3448.49
-292.739 -2671.23 3449.65
-292.578 -2672.77 3447.49
-292.468 -2672.82 3446.76
-292.42 -2672.93 3446.61
-292.365 -2673.05 3446.44
-292.17 -2672.87 3445.76
-292.251 -2673.29 3446.32
-291.693 -2672.47 3444.37
-291.829 -2672.5 3444.7
-291.904 -2672.79 3445.12
-292.034 -2673.16 3445.66
-292.514 -2673.22 3447.57
-292.486 -2673.28 3447.4
-292.457 -2673.39 3447.27
-291.41 -2672.07 3443.53
-291.2 -2671.98 3443.06
-291.532 -2672.31 3444.02
-292.465 -2670.33 3452.74
-292.752 -2670.33 3450.73
-291.769 -2672.1 3455.61
-291.667 -2672.31 3456.87
-291.714 -2672.05 3458.64
-292.662 -2671.02 3450.57
-291.121 -2671.07 3441.81
-290.935 -2671.7 3442.31
-290.953 -2672.13 3442.85
-278.744 -2682 3438.11
-278.966 -2682.03 3438.68
-278.495 -2682.03 3437.57
-279.171 -2681.98 3439.08
-279.991 -2682.53 3442.04
-278.073 -2682.14 3436.69
-280 -2683.72 3444.71
-280.297 -2683.57 3444.91
-280.7 -2683.4 3445.11
-281.09 -2683.25 3445.26
-277.56 -2682.14 3435.16
-277.783 -2682.28 3436.14
-282.66 -2680.58 3442.13
-281.75 -2681.91 3443.43
-281.475 -2683.06 3445.32
-283.842 -2679.45 3441.63
-284.3 -2678.93 3441.55
-283.525 -2679.88 3441.85
-284.832 -2678.38 3441.57
-290.117 -2671.93 3441.33
-290.518 -2671.58 3441.43
-290.887 -2671.28 3441.61
-286.489 -2675.88 3441.09
-288.959 -2673.03 3441.17
-285.377 -2677.58 3441.4
-277.889 -2682.92 3419.78
-278.355 -2684.57 3416.46
-280.724 -2681.14 3405.31
-279.652 -2685.4 3407.89
-279.768 -2685.08 3408.07
-280.693 -2681.64 3405.82
-280.601 -2682.18 3406.37
-280.426 -2682.78 3406.65
-280.227 -2683.53 3407.21
-279.921 -2684.59 3408.16
-280.698 -2681.38 3405.8
-280.62 -2681.24 3406.38
-280.621 -2681.62 3406.46
-280.596 -2680.85 3406.34
-280.459 -2680.95 3407.2
-280.255 -2682.41 3408.12
-280.48 -2681.38 3407.22
-280.464 -2681.81 3407.37
-280.035 -2683.1 3408.76
-279.779 -2684 3409.92
-279.532 -2684.67 3410.86
-278.618 -2685.54 3414.17
-278.889 -2685.42 3413.23
-279.154 -2685.13 3412.37
-279.36 -2685.1 3411.37
-278.145 -2688.7 3409.26
-275.434 -2692.43 3410.31
-273.616 -2694.75 3411
-276.768 -2690.69 3409.66
-272.847 -2695.78 3411.14
-272.318 -2696.41 3411.14
-277.326 -2689.95 3409.35
-277.771 -2689.27 3409.43
-279.409 -2686.1 3408.64
-279.149 -2686.68 3409.23
-278.91 -2687.23 3409.44
-278.684 -2687.78 3409.32
-278.405 -2688.23 3409.57
-271.818 -2696.94 3411.03
-271.44 -2697.32 3411.51
-271.089 -2697.68 3411.97
-270.6 -2698.11 3411.97
-270.229 -2698.38 3412.58
-269.389 -2698.4 3418.8
-269.714 -2698.13 3418.67
-269.763 -2698.09 3418.15
-269.952 -2697.97 3417.61
-270.104 -2697.93 3416.77
-270.529 -2697.87 3414.82
-270.803 -2697.89 3412.95
-267.833 -2702.4 3423.64
-268.154 -2702.47 3424.5
-268.112 -2702.35 3424.12
-268.102 -2702.18 3423.74
-267.586 -2702.17 3422.92
-267.43 -2701.66 3422.04
-267.824 -2702.2 3423.27
-268.14 -2702.74 3425.79
-268.3 -2702.56 3425.64
-268.53 -2702.32 3425.7
-268.461 -2702.36 3425.41
-268.351 -2702.41 3425.13
-268.252 -2702.45 3424.82
-267.726 -2700.38 3420.79
-267.561 -2700.76 3421.08
-267.937 -2700.08 3420.51
-269.172 -2698.66 3419.46
-269.119 -2698.75 3419.84
-269.375 -2698.45 3419.24
-268.536 -2699.51 3420.47
-268.724 -2699.25 3420.28
-268.988 -2698.96 3420.21
-268.31 -2699.82 3420.7
-265.293 -2704.25 3428.41
-264.261 -2704.4 3429.98
-265.893 -2703.93 3428.41
-266.285 -2703.87 3427.67
-266.674 -2703.62 3427.65
-266.848 -2703.58 3427.19
-267.155 -2703.32 3427.48
-267.44 -2703.19 3427.07
-267.718 -2703 3426.8
-267.975 -2702.82 3426.5
-268.217 -2702.64 3426.2
-264.577 -2704 3430.88
-264.426 -2703.55 3432.84
-265.731 -2702.49 3434.1
-265.603 -2702.7 3433.52
-265.212 -2703.11 3432.77
-264.569 -2703.01 3437.59
-266.179 -2702.15 3434.86
-266.185 -2702.19 3434.26
-266.174 -2702.15 3436.21
-266.632 -2701.89 3435.67
-266.762 -2701.82 3435.12
-266.529 -2702.18 3438.76
-266.556 -2701.98 3436.95
-292.663 -2672.45 3447.97
-292.674 -2672.53 3448.26
-292.637 -2672.49 3447.73
-292.577 -2672.97 3447.79
-292.694 -2672.22 3448.67
-292.674 -2672.06 3449.18
-292.646 -2671.79 3449.86
-292.518 -2673.59 3447.99
-292.43 -2673.5 3447.13
-292.404 -2673.59 3446.99
-292.348 -2673.73 3446.86
-292.133 -2673.64 3446.3
-292.273 -2673.97 3446.76
-291.546 -2673.05 3444.57
-291.701 -2672.92 3444.79
-291.449 -2672.74 3444.21
-291.831 -2673.31 3445.32
-291.941 -2673.72 3445.9
-292.079 -2674.06 3446.4
-292.498 -2673.93 3448.02
-292.482 -2673.94 3447.84
-292.464 -2674.06 3447.72
-292.442 -2674.13 3447.57
-291.114 -2672.36 3443.39
-291.293 -2672.51 3443.84
-292.263 -2671.27 3452.88
-291.679 -2672.62 3455.36
-291.318 -2673.43 3458.17
-291.294 -2673.69 3457.49
-291.43 -2672.92 3458.86
-291.598 -2672.23 3459.92
-292.509 -2671.48 3451.18
-290.701 -2671.78 3442.02
-290.682 -2672.17 3442.46
-290.753 -2672.48 3442.94
-290.885 -2672.66 3443.36
-279.208 -2682.68 3440.52
-279.498 -2682.64 3441.15
-279.765 -2682.57 3441.63
-278.555 -2682.33 3438.26
-279.15 -2682.9 3440.85
-279.847 -2683.62 3444.03
-280.038 -2684 3445.38
-280.271 -2684.02 3445.89
-280.406 -2683.91 3445.96
-280.633 -2683.82 3446.13
-280.928 -2683.74 3446.32
-281.19 -2683.66 3446.47
-282.78 -2680.9 3442.77
-281.999 -2682.33 3444.5
-281.729 -2683.15 3445.83
-281.285 -2683.81 3446.95
-284.195 -2679.53 3442.17
-284.372 -2679.15 3441.95
-283.887 -2679.88 3442.26
-284.928 -2678.67 3442.1
-283.508 -2680.37 3442.57
-290.096 -2672.3 3441.81
-290.4 -2672.01 3441.87
-286.449 -2676.2 3441.46
-288.71 -2673.53 3441.51
-285.455 -2677.91 3441.94
-277.454 -2684.44 3419.82
-278.32 -2685.68 3415.15
-279.552 -2685.69 3408.83
-280.606 -2681.97 3406.54
-280.456 -2682.6 3406.89
-280.279 -2683.29 3407.31
-279.994 -2684.26 3408.32
-279.675 -2685.23 3408.97
-280.491 -2682.15 3407.25
-280.26 -2682.76 3407.87
-280.035 -2683.5 3408.57
-279.755 -2684.47 3409.72
-279.513 -2685.16 3410.3
-278.634 -2686.17 3413.32
-278.889 -2685.91 3412.62
-279.136 -2685.52 3412.06
-279.297 -2685.55 3411.11
-278.105 -2688.72 3409.81
-275.876 -2691.83 3410.59
-273.661 -2694.69 3411.89
-272.932 -2695.7 3412
-276.957 -2690.38 3410.07
-272.412 -2696.33 3411.96
-271.904 -2696.89 3411.88
-277.532 -2689.59 3409.83
-279.274 -2686.28 3409.41
-279.059 -2686.78 3409.9
-278.869 -2687.26 3409.92
-278.687 -2687.72 3409.79
-278.441 -2688.13 3410.06
-271.546 -2697.24 3412.39
-271.252 -2697.48 3413.05
-269.661 -2698.16 3419.21
-270.042 -2697.85 3418.56
-269.995 -2697.87 3419.14
-270.294 -2697.66 3418.12
-270.452 -2697.61 3417.23
-270.902 -2697.54 3415.03
-268.122 -2701.97 3423.35
-268.345 -2702.21 3424.35
-268.433 -2702.21 3424.67
-268.312 -2702.07 3423.96
-268.313 -2701.88 3423.58
-267.861 -2701.81 3422.77
-267.746 -2701.34 3422.02
-268.1 -2701.67 3422.92
-268.393 -2702.47 3425.97
-268.624 -2702.23 3426.13
-268.746 -2702.09 3425.92
-268.764 -2702.06 3425.61
-268.629 -2702.16 3425.31
-268.505 -2702.21 3424.98
-267.888 -2700.49 3421.24
-268.154 -2700.08 3421.02
-269.407 -2698.5 3419.91
-269.53 -2698.33 3419.6
-269.291 -2698.67 3420.28
-268.634 -2699.55 3420.91
-268.839 -2699.28 3420.78
-269 -2699.06 3420.6
-269.269 -2698.78 3420.62
-268.572 -2699.76 3421.21
-265.206 -2703.71 3430.66
-265.735 -2703.41 3430.59
-266.434 -2703.58 3428.49
-266.89 -2703.32 3428.29
-267.527 -2703.01 3427.65
-267.234 -2703.06 3428.37
-267.783 -2702.87 3427.29
-268.014 -2702.71 3426.97
-268.261 -2702.54 3426.67
-268.483 -2702.38 3426.36
-266.222 -2702.32 3433.47
-265.877 -2702.73 3432.72
-267.576 -2701.74 3441.79
-268.258 -2701.36 3441.36
-266.724 -2701.87 3434.55
-266.656 -2701.96 3433.89
-266.943 -2701.73 3436.3
-267.235 -2701.51 3435.64
-267.139 -2701.58 3434.98
-267.308 -2701.75 3438.63
-268.81 -2701.01 3441.18
-267.296 -2701.55 3437
-292.589 -2673.05 3448.09
-292.601 -2673.08 3448.37
-292.567 -2673.5 3448.86
-292.639 -2672.89 3448.65
-292.527 -2673.7 3448.26
-292.631 -2672.84 3448.99
-292.609 -2672.65 3449.4
-292.54 -2672.22 3450.23
-292.583 -2675.57 3448.9
-292.584 -2675.53 3449.06
-292.422 -2674.28 3447.46
-292.376 -2674.41 3447.34
-292.321 -2674.56 3447.22
-292.224 -2674.46 3446.83
-292.262 -2674.77 3447.13
-291.556 -2673.79 3445.11
-291.696 -2673.6 3445.25
-291.351 -2673.35 3444.51
-291.216 -2673 3444.08
-291.829 -2674.13 3445.92
-291.99 -2674.34 3446.31
-292.154 -2674.69 3446.73
-292.595 -2675.8 3448.81
-292.583 -2675.82 3448.65
-292.526 -2675.86 3448.33
-292.563 -2675.89 3448.51
-292.494 -2675.9 3448.18
-291.048 -2672.81 3443.74
-291.984 -2672.33 3453.53
-291.483 -2673.48 3455.94
-291.161 -2674.27 3457.62
-291.036 -2674.4 3458.84
-291.123 -2673.89 3459.48
-291.264 -2673.28 3459.96
-291.377 -2672.73 3460.81
-292.319 -2672.19 3451.68
-290.382 -2672.36 3442.3
-290.509 -2672.61 3442.76
-290.624 -2672.95 3443.29
-290.829 -2673.19 3443.75
-279.503 -2683.53 3442.89
-279.58 -2683.42 3442.94
-279.719 -2683.47 3443.38
-278.872 -2682.92 3440.08
-279.417 -2683.59 3442.67
-279.876 -2684 3444.88
-278.672 -2683.06 3439.61
-279.987 -2684.28 3445.85
-280.1 -2684.41 3446.47
-280.143 -2684.58 3447.19
-280.279 -2684.47 3447.3
-280.439 -2684.41 3447.49
-280.641 -2684.41 3447.74
-280.875 -2684.35 3447.87
-281.121 -2684.38 3448.24
-282.301 -2682.09 3444.41
-282.861 -2681.25 3443.51
-282.119 -2682.86 3445.62
-281.599 -2683.62 3446.83
-281.394 -2684.18 3448
-284.814 -2679.09 3442.4
-284.725 -2679.45 3442.66
-284.398 -2679.8 3442.7
-284.093 -2680.15 3442.82
-285.404 -2678.5 3442.44
-283.727 -2680.63 3443.18
-290.029 -2672.66 3442.2
-286.495 -2676.44 3441.83
-288.653 -2673.85 3441.82
-285.801 -2677.8 3442.26
-277.715 -2685.79 3417.17
-278.31 -2686.38 3414.25
-279.377 -2685.92 3409.68
-280.463 -2682.48 3407.16
-280.29 -2683.06 3407.53
-280.018 -2683.9 3408.48
-279.731 -2684.8 3409.36
-279.541 -2685.41 3409.67
-279.359 -2685.76 3410.29
-278.564 -2686.68 3412.83
-278.878 -2686.36 3412.09
-279.107 -2685.97 3411.56
-279.175 -2686.11 3410.8
-278.191 -2688.5 3410.32
-277.765 -2689.18 3410.25
-274.302 -2693.76 3412.13
-276.066 -2691.5 3411.1
-273.197 -2695.23 3413.25
-272.838 -2695.75 3413
-272.402 -2696.29 3412.88
-277.208 -2689.96 3410.48
-271.985 -2696.78 3412.73
-279.189 -2686.38 3410.1
-278.882 -2687.12 3410.42
-279.033 -2686.65 3410.63
-278.693 -2687.62 3410.31
-278.432 -2687.98 3410.68
-271.669 -2697.06 3413.39
-271.179 -2697.23 3415.31
-269.841 -2698.01 3419.63
-270.315 -2697.6 3418.81
-270.146 -2697.72 3419.75
-270.293 -2697.59 3419.36
-270.598 -2697.32 3418.5
-270.694 -2697.33 3417.63
-268.352 -2701.58 3423.17
-268.552 -2701.93 3424.21
-268.617 -2701.98 3424.54
-268.698 -2701.97 3424.85
-268.559 -2701.75 3423.88
-268.59 -2701.44 3423.46
-268.057 -2701.04 3422.09
-268.337 -2700.87 3422.33
-268.743 -2702.11 3426.52
-268.855 -2701.97 3426.28
-268.926 -2701.86 3426.03
-268.89 -2701.89 3425.47
-268.991 -2701.75 3425.84
-268.738 -2702 3425.13
-268.2 -2700.24 3421.42
-268.505 -2699.95 3421.51
-269.559 -2698.37 3420.32
-269.718 -2698.18 3419.98
-269.501 -2698.48 3420.68
-268.922 -2699.34 3421.23
-269.171 -2698.97 3420.98
-269.474 -2698.63 3420.98
-268.832 -2699.65 3421.62
-266.224 -2703.07 3430.76
-266.666 -2702.9 3430.34
-267.041 -2702.67 3430.17
-267.55 -2702.77 3428.42
-267.853 -2702.62 3427.99
-267.389 -2702.39 3430.11
-268.092 -2702.53 3427.49
-268.315 -2702.4 3427.18
-268.55 -2702.26 3426.82
-266.752 -2702.04 3433.13
-266.31 -2702.44 3432.65
-266.432 -2702.33 3442.56
-268.598 -2701.16 3443.25
-269.274 -2700.77 3443.19
-269.433 -2700.64 3442.74
-267.105 -2701.64 3434.32
-267.098 -2701.71 3433.64
-267.441 -2701.39 3436.43
-267.727 -2701.17 3435.92
-267.489 -2701.31 3435.35
-267.389 -2701.4 3434.74
-268.045 -2701.32 3438.76
-269.427 -2700.6 3441.44
-269.82 -2700.36 3442.77
-268.278 -2700.98 3437.41
-292.534 -2673.74 3448.53
-292.539 -2673.81 3448.81
-292.569 -2673.59 3449.18
-292.577 -2675.33 3449.7
-292.566 -2675.25 3449.89
-292.584 -2675.52 3449.24
-292.575 -2673.48 3449.42
-292.514 -2673.48 3449.93
-292.525 -2672.87 3450.01
-292.392 -2672.82 3450.95
-292.678 -2676.99 3449.38
-292.675 -2676.94 3449.6
-292.454 -2676.01 3448.05
-292.409 -2675.98 3447.88
-292.374 -2676.18 3447.79
-292.152 -2676.27 3447.32
-292.228 -2676.2 3447.46
-292.318 -2676.32 3447.66
-291.553 -2674.55 3445.63
-291.708 -2674.36 3445.79
-291.391 -2674.1 3445.13
-291.195 -2673.84 3444.71
-291.033 -2673.37 3444.15
-291.867 -2674.78 3446.26
-292.04 -2674.84 3446.55
-292.071 -2676.34 3447.18
-292.679 -2677.2 3449.27
-292.677 -2677.27 3449.11
-292.662 -2677.22 3448.89
-292.608 -2677.33 3448.65
-291.748 -2673.28 3454.26
-291.36 -2674.12 3456.2
-291.104 -2674.76 3457.51
-290.913 -2675.09 3458.46
-290.872 -2674.71 3459.83
-290.806 -2675.17 3459.27
-290.916 -2674.29 3460.46
-291.002 -2673.8 3460.93
-291.101 -2673.25 3461.74
-292.109 -2672.95 3452.53
-290.226 -2672.81 3442.62
-290.376 -2673.03 3443.05
-290.564 -2673.52 3443.73
-290.298 -2673.44 3443.35
-290.8 -2673.76 3444.19
-279.571 -2684.09 3443.96
-279.683 -2684.13 3444.46
-279.74 -2683.97 3444.31
-279.243 -2683.41 3441.95
-279.439 -2684 3443.27
-279.533 -2684.29 3444.19
-279.817 -2684.21 3445.24
-278.539 -2683.29 3439.45
-279.139 -2683.47 3441.66
-279.936 -2684.95 3447.51
-279.842 -2684.68 3446.41
-280.056 -2685.04 3448.23
-280.175 -2684.99 3448.54
-280.274 -2684.9 3448.67
-280.438 -2684.83 3448.84
-280.69 -2684.76 3448.97
-280.956 -2684.7 3449.16
-281.361 -2684.49 3448.97
-281.207 -2684.71 3449.66
-282.608 -2682.05 3444.67
-282.496 -2682.71 3445.7
-283.072 -2681.48 3444.09
-281.941 -2683.43 3446.76
-281.662 -2684.06 3447.98
-281.66 -2684.38 3449.02
-285.228 -2679.06 3442.79
-285.155 -2679.57 3443.21
-285.495 -2679.26 3443.25
-284.834 -2679.88 3443.22
-284.525 -2680.2 3443.31
-285.702 -2678.6 3442.85
-285.926 -2678.09 3442.67
-284.277 -2680.52 3443.49
-283.77 -2681.08 3443.96
-289.867 -2673.1 3442.47
-288.575 -2674.24 3442.16
-286.568 -2676.84 3442.33
-277.728 -2686.44 3416.17
-278.202 -2687 3413.67
-278.406 -2687.21 3412.57
-278.745 -2686.87 3411.79
-279.001 -2686.49 3411.26
-278.124 -2688.36 3411.07
-277.822 -2688.93 3410.82
-277.31 -2689.64 3411.15
-274.036 -2693.98 3413.12
-276.249 -2691.12 3411.56
-273.098 -2695.16 3414.36
-272.661 -2695.76 3414.31
-272.36 -2696.21 3413.95
-272.037 -2696.64 3413.69
-278.644 -2687.48 3410.95
-278.83 -2687 3411.07
-278.355 -2687.84 3411.43
-271.455 -2696.92 3415.62
-270.006 -2697.88 3420.08
-270.532 -2697.33 3419.21
-270.458 -2697.36 3419.87
-270.29 -2697.55 3420.22
-270.956 -2697.02 3417.95
-270.831 -2697.02 3418.9
-268.582 -2700.79 3422.6
-268.851 -2701.54 3424.18
-268.827 -2701.68 3424.47
-268.855 -2701.72 3424.74
-268.918 -2701.79 3425.23
-268.896 -2701.74 3424.99
-268.865 -2701.36 3423.87
-268.77 -2700.73 3422.86
-268.809 -2701.96 3427.02
-268.927 -2701.87 3426.64
-269.019 -2701.72 3426.45
-269.098 -2701.59 3426.28
-269.062 -2701.65 3425.58
-269.149 -2701.52 3425.99
-269.719 -2698.2 3420.76
-269.84 -2698.06 3420.4
-269.698 -2698.32 3421.08
-269.081 -2699.42 3421.76
-269.211 -2699.05 3421.37
-269.471 -2698.72 3421.28
-269.708 -2698.41 3421.41
-268.939 -2700.48 3422.89
-266.709 -2702.25 3432.32
-267.104 -2702.01 3432.15
-267.754 -2702.13 3429.9
-268.051 -2701.88 3429.86
-268.159 -2702.3 3428.12
-267.468 -2701.76 3432.04
-268.419 -2702.15 3427.8
-268.617 -2702.07 3427.37
-267.229 -2701.76 3432.88
-267.327 -2701.75 3443.97
-269.186 -2700.74 3444.26
-268.537 -2701.05 3444.58
-269.623 -2700.47 3444.23
-269.84 -2700.37 3443.67
-267.342 -2701.47 3434.13
-267.386 -2701.51 3433.49
-268.038 -2701.01 3436.62
-268.327 -2700.77 3436.38
-267.977 -2700.97 3435.73
-267.716 -2701.13 3435.12
-267.638 -2701.22 3434.52
-269.055 -2700.79 3440.27
-270.032 -2700.2 3442.24
-270.447 -2699.98 3443.05
-270.448 -2700.07 3443.52
-268.761 -2700.64 3437.39
-269.16 -2700.67 3439.66
-292.581 -2675.45 3449.4
-292.588 -2675.57 3449.62
-292.557 -2675.31 3450.14
-292.663 -2676.98 3450.11
-292.644 -2676.8 3450.31
-292.668 -2676.91 3449.84
-292.529 -2675.29 3450.41
-292.414 -2673.54 3450.63
-292.473 -2675.25 3450.77
-292.299 -2673.54 3451.4
-292.683 -2677.67 3449.53
-292.691 -2677.53 3449.66
-292.694 -2677.57 3449.86
-292.504 -2677.42 3448.35
-292.403 -2677.51 3448.14
-292.196 -2677.68 3447.77
-292.301 -2677.6 3447.95
-291.311 -2674.66 3445.39
-291.497 -2675.1 3445.85
-291.69 -2674.98 3446.09
-290.984 -2673.93 3444.55
-291.072 -2674.47 3445.03
-291.79 -2676.41 3446.72
-291.901 -2676.38 3446.88
-291.989 -2676.34 3447.02
-292.074 -2677.7 3447.58
-292.664 -2677.81 3449.37
-292.664 -2677.75 3449.16
-292.663 -2677.69 3448.95
-292.613 -2677.71 3448.72
-291.276 -2674.71 3456.29
-291.577 -2674.07 3454.76
-291.037 -2675.3 3457.45
-290.835 -2675.64 3458.39
-290.638 -2675.9 3459.26
-290.607 -2675.56 3459.8
-290.641 -2675.09 3460.37
-290.632 -2674.78 3461.07
-290.742 -2674.21 3461.68
-290.378 -2674.1 3463.59
-290.592 -2674.12 3462.6
-292.069 -2673.66 3452.65
-290.102 -2673.28 3442.94
-290.296 -2673.96 3443.8
-290.58 -2674.15 3444.26
-290.023 -2673.74 3443.29
-290.824 -2674.41 3444.71
-279.645 -2684.46 3445.18
-279.73 -2684.46 3445.58
-279.381 -2684.08 3443.12
-279.498 -2684.51 3444.31
-279.558 -2684.93 3445.49
-279.601 -2684.72 3445.41
-278.361 -2683.49 3439.13
-279.003 -2683.6 3441.24
-279.246 -2683.9 3442.41
-279.888 -2685.22 3448.05
-280.055 -2685.34 3449.07
-279.754 -2685.16 3447.28
-280.189 -2685.31 3449.49
-280.31 -2685.23 3449.71
-280.426 -2685.15 3449.87
-280.548 -2685.07 3450.05
-280.741 -2685 3450.2
-281.021 -2684.95 3450.5
-281.523 -2684.65 3449.97
-281.387 -2684.86 3450.72
-283.018 -2682.3 3445.36
-282.742 -2682.85 3446.25
-282.264 -2683.32 3446.85
-283.448 -2681.8 3444.84
-281.993 -2683.87 3447.89
-281.976 -2684.27 3449.05
-281.838 -2684.54 3450
-285.876 -2678.88 3443.27
-285.48 -2679.87 3443.78
-285.787 -2679.61 3443.82
-286.072 -2679.24 3443.74
-285.201 -2680.14 3443.84
-284.932 -2680.45 3444
-286.148 -2678.38 3443.18
-286.301 -2677.86 3442.95
-284.564 -2680.8 3444.13
-284.217 -2681.33 3444.65
-289.692 -2673.56 3442.73
-288.684 -2674.44 3442.51
-287.313 -2676.34 3442.74
-277.659 -2687.05 3415.46
-277.93 -2687.62 3413.58
-278.568 -2687.36 3411.63
-278.198 -2687.74 3412.35
-277.677 -2688.93 3411.55
-277.97 -2688.32 3411.9
-277.039 -2689.78 3412.16
-276.105 -2691.13 3412.31
-274.397 -2693.34 3413.49
-273.34 -2694.6 3415.17
-272.442 -2695.61 3416.27
-272.529 -2695.27 3417.12
-271.954 -2696.07 3416.99
-271.977 -2696.27 3415.96
-271.723 -2696.6 3415.86
-270.13 -2697.74 3420.51
-270.691 -2697.1 3419.64
-270.73 -2697.01 3420.14
-270.532 -2697.22 3420.46
-270.363 -2697.43 3420.75
-271.208 -2696.68 3418.4
-270.968 -2696.8 3419.5
-269.133 -2701.13 3424.14
-269.106 -2701.3 3424.45
-269.146 -2701.33 3424.76
-269.067 -2701.51 3425.03
-269.091 -2701.57 3425.31
-269.093 -2700.32 3423.01
-268.947 -2701.78 3427.02
-268.761 -2701.81 3427.7
-268.879 -2701.73 3427.5
-269.08 -2701.61 3426.84
-269.208 -2701.42 3426.7
-269.256 -2701.35 3426.41
-269.221 -2701.41 3425.68
-269.29 -2701.31 3426.08
-269.911 -2698 3421.14
-269.978 -2697.9 3420.8
-269.908 -2698.12 3421.49
-269.289 -2699.31 3421.97
-269.49 -2698.83 3421.63
-269.698 -2698.53 3421.77
-269.893 -2698.24 3421.93
-267.714 -2701.55 3432.04
-268.294 -2701.68 3429.75
-267.937 -2701.36 3431.99
-267.551 -2701.51 3432.83
-268.443 -2701.5 3429.8
-268.647 -2701.86 3428.01
-269.822 -2700.4 3445.16
-269.445 -2700.57 3445.47
-270.353 -2700.21 3444.84
-270.483 -2700.09 3444.3
-267.571 -2701.3 3433.99
-267.685 -2701.25 3433.53
-268.329 -2700.71 3435.89
-268.638 -2700.52 3436.48
-268.912 -2700.47 3437.29
-268.086 -2700.86 3435.33
-267.919 -2700.99 3434.74
-267.84 -2701.08 3434.15
-270.055 -2700.16 3441.45
-270.478 -2699.9 3442.35
-270.981 -2699.67 3443.07
-271.271 -2699.65 3443.63
-271.12 -2699.81 3444.06
-269.407 -2700.45 3439.46
-270.038 -2700.11 3440.84
-292.612 -2676.82 3450.64
-292.683 -2677.58 3450.1
-292.653 -2677.7 3450.38
-292.637 -2677.54 3450.53
-292.617 -2677.36 3450.7
-292.575 -2676.92 3450.98
-292.398 -2675.16 3451.21
-292.496 -2676.95 3451.46
-292.314 -2675.39 3451.77
-292.212 -2675.32 3452.3
-292.648 -2678 3449.6
-292.672 -2677.9 3449.8
-292.67 -2677.91 3450.08
-292.515 -2677.8 3448.55
-292.419 -2677.89 3448.37
-292.321 -2677.98 3448.2
-292.219 -2678.08 3448.02
-291.303 -2675.21 3445.62
-291.083 -2674.94 3445.28
-291.45 -2676.63 3446.4
-291.567 -2676.61 3446.52
-291.671 -2676.46 3446.59
-290.828 -2675 3445.04
-291.848 -2677.75 3447.27
-291.975 -2677.84 3447.48
-292.124 -2678.19 3447.86
-292.62 -2678.16 3449.47
-292.621 -2678.08 3449.27
-292.622 -2678.02 3449.08
-292.626 -2677.93 3448.89
-292.572 -2678.03 3448.74
-291.031 -2675.82 3457.2
-291.245 -2675.26 3456.24
-291.643 -2674.39 3454.32
-291.341 -2675.39 3455.66
-290.782 -2676.22 3458.18
-290.598 -2676.43 3458.98
-290.463 -2676.62 3459.52
-290.407 -2676.34 3460.02
-290.418 -2675.89 3460.42
-290.384 -2675.58 3460.87
-290.299 -2675.49 3461.43
-290.484 -2674.84 3461.74
-289.843 -2674.97 3464.21
-290.07 -2674.93 3463.3
-290.295 -2674.86 3462.5
-292.044 -2675.47 3453.04
-289.998 -2674.27 3443.7
-290.307 -2674.54 3444.2
-290.594 -2674.77 3444.66
-289.597 -2674.01 3443.06
-279.56 -2685.29 3446.79
-279.654 -2685.14 3446.81
-279.373 -2684.45 3443.56
-279.456 -2684.66 3444.26
-279.522 -2685.05 3445.39
-279.438 -2685.6 3446.7
-279.477 -2685.47 3446.8
-278.186 -2683.7 3438.86
-278.854 -2683.79 3440.84
-279.13 -2683.93 3441.98
-279.29 -2684.34 3443.04
-279.834 -2685.49 3448.61
-279.969 -2685.5 3449.23
-280.25 -2685.79 3451.38
-280.134 -2685.86 3451.19
-280.391 -2685.78 3451.79
-280.523 -2685.7 3451.91
-280.638 -2685.59 3451.89
-280.827 -2685.61 3452.5
-280.948 -2685.49 3452.46
-281.103 -2685.4 3452.53
-281.319 -2685.29 3452.6
-281.773 -2684.75 3450.87
-281.562 -2685.19 3452.74
-283.272 -2682.44 3445.88
-282.887 -2683.04 3446.84
-282.506 -2683.54 3447.62
-283.949 -2681.84 3445.24
-282.349 -2683.98 3448.56
-282.478 -2684.17 3449.49
-282.148 -2684.42 3450.01
-282.106 -2684.62 3450.8
-286.545 -2678.41 3443.57
-286.399 -2678.83 3443.72
-285.777 -2680.3 3444.44
-286.056 -2679.95 3444.35
-286.364 -2679.51 3444.24
-286.691 -2679.08 3444.17
-285.558 -2680.59 3444.62
-285.3 -2680.87 3444.78
-286.827 -2677.68 3443.32
-285.01 -2681.22 3445.05
-284.791 -2681.6 3445.49
-288.949 -2674.69 3442.98
-287.829 -2676.18 3443.1
-276.877 -2688.54 3415.37
-277.692 -2688.27 3413.11
-277.476 -2688.9 3412.53
-276.259 -2690.31 3413.79
-275.299 -2691.79 3413.89
-274.289 -2693.23 3414.53
-273.183 -2694.3 3416.98
-272.491 -2695.01 3418.24
-271.731 -2695.93 3418.85
-271.841 -2695.64 3419.56
-271.335 -2696.38 3419.13
-270.195 -2697.65 3421.05
-270.817 -2696.85 3420.64
-271.014 -2696.65 3420.15
-270.631 -2697.06 3420.95
-270.463 -2697.28 3421.21
-269.258 -2700.19 3423.18
-269.333 -2700.87 3424.39
-269.314 -2701.17 3425.06
-269.426 -2700.77 3424.63
-269.263 -2701.34 3425.39
-269.016 -2701.59 3427.36
-268.582 -2701.36 3429.76
-268.816 -2701.6 3428.17
-268.938 -2701.52 3427.94
-269.162 -2701.4 3427.18
-269.381 -2701.14 3426.68
-269.298 -2701.2 3427.11
-269.41 -2701.09 3426.29
-269.384 -2701.15 3425.82
-270.101 -2697.8 3421.45
-270.082 -2697.92 3421.87
-269.502 -2699.13 3422.18
-269.716 -2698.7 3422.25
-269.896 -2698.42 3422.46
-270.078 -2698.02 3422.3
-267.826 -2701.27 3432.87
-268.154 -2701.16 3431.99
-268.058 -2701.08 3432.81
-268.367 -2701.01 3431.83
-270.256 -2700.26 3446.42
-270.773 -2700.11 3445.8
-269.448 -2700.53 3447.39
-271.254 -2699.96 3445.21
-271.496 -2699.8 3444.7
-267.968 -2701 3433.67
-268.625 -2700.45 3436.03
-268.373 -2700.62 3435.46
-269.125 -2700.28 3437.31
-269.04 -2700.22 3436.75
-269.476 -2700.28 3438.86
-268.202 -2700.74 3434.9
-268.116 -2700.84 3434.34
-270.537 -2699.81 3441.73
-270.918 -2699.61 3442.47
-271.456 -2699.4 3442.94
-271.759 -2699.37 3443.41
-272.174 -2699.33 3443.99
-271.877 -2699.55 3444.33
-270.063 -2700.02 3440.27
-270.517 -2699.73 3441.22
-292.585 -2677.5 3451.01
-292.633 -2677.99 3450.41
-292.597 -2677.99 3450.72
-292.59 -2677.82 3450.89
-292.551 -2677.58 3451.32
-292.482 -2677.67 3451.71
-292.373 -2677.03 3452.08
-292.624 -2678.26 3449.69
-292.647 -2678.12 3449.81
-292.649 -2678.12 3450.03
-292.615 -2678.19 3450.35
-292.482 -2678.14 3448.59
-292.389 -2678.2 3448.42
-292.295 -2678.3 3448.26
-292.2 -2678.4 3448.1
-291.071 -2675.5 3445.49
-291.331 -2676.67 3446.28
-291.627 -2678.11 3447.2
-291.721 -2677.88 3447.2
-290.795 -2675.58 3445.27
-290.591 -2675.36 3444.97
-291.91 -2678.26 3447.57
-292.036 -2678.38 3447.78
-292.109 -2678.49 3447.98
-292.589 -2678.36 3449.34
-292.597 -2678.41 3449.56
-292.581 -2678.32 3449.13
-292.585 -2678.23 3448.94
-292.539 -2678.37 3448.78
-291.116 -2676.13 3456.67
-290.891 -2676.67 3457.57
-291.779 -2675.77 3454.04
-291.574 -2676.96 3454.97
-291.737 -2676.55 3454.36
-290.676 -2677.02 3458.34
-290.523 -2677.34 3458.89
-290.339 -2677.21 3459.69
-290.202 -2676.6 3460.62
-290.116 -2676.27 3461.23
-290.17 -2675.41 3462.13
-289.971 -2676.11 3461.96
-289.591 -2675.01 3465.15
-289.644 -2675.59 3463.85
-289.381 -2675.65 3464.69
-289.893 -2675.53 3462.97
-292.202 -2677.13 3452.79
-289.956 -2674.89 3444.08
-289.606 -2674.52 3443.49
-290.349 -2675.12 3444.6
-279.634 -2685.66 3448.21
-279.722 -2685.55 3448.33
-279.394 -2684.85 3444.14
-279.48 -2685.1 3445.06
-279.411 -2685.67 3446.42
-279.529 -2685.92 3447.86
-279.582 -2685.8 3448.08
-278.21 -2684.12 3439.21
-278.977 -2684.01 3441.43
-279.204 -2684.4 3442.69
-279.332 -2684.88 3443.83
-279.86 -2686.05 3450.6
-279.944 -2686.01 3450.92
-280.038 -2685.99 3451.27
-280.543 -2686.25 3453.96
-280.342 -2686.27 3453.29
-280.23 -2686.37 3453.22
-280.69 -2686.13 3453.99
-280.895 -2686 3454.09
-281.573 -2686.05 3456.05
-281.686 -2685.91 3455.84
-281.822 -2685.75 3455.66
-282.011 -2685.63 3455.7
-282.245 -2685.51 3455.78
-281.868 -2685.06 3452.73
-282.555 -2685.38 3455.94
-283.481 -2682.77 3446.75
-283.767 -2682.31 3446.02
-283.068 -2683.43 3447.82
-283.546 -2683.12 3447.53
-282.868 -2683.8 3448.69
-284.516 -2682 3445.91
-283.299 -2683.85 3449.35
-282.512 -2684.34 3450.23
-283.014 -2684.12 3450.04
-282.452 -2684.49 3450.78
-282.197 -2684.85 3452.27
-287.095 -2677.98 3443.78
-286.977 -2678.63 3444.11
-287.31 -2680.52 3445.73
-287.173 -2680.74 3445.84
-287.503 -2680.28 3445.66
-287.672 -2680.06 3445.58
-287.826 -2679.83 3445.48
-288.046 -2679.63 3445.47
-287.195 -2681.11 3446.25
-287.027 -2680.92 3445.94
-286.742 -2681.25 3446.12
-287.539 -2677.06 3443.5
-286.808 -2681.45 3446.41
-286.477 -2681.85 3446.81
-286.797 -2681.64 3446.67
-289.023 -2675.14 3443.41
-288.457 -2676.02 3443.53
-276.715 -2689.31 3414.37
-275.465 -2690.51 3416.29
-274.667 -2692.08 3415.94
-273.623 -2693.53 3417.04
-272.546 -2694.59 3419.45
-271.384 -2696.17 3420.01
-271.51 -2695.9 3420.66
-270.319 -2697.48 3421.48
-270.913 -2696.67 3421.2
-271.122 -2696.43 3420.73
-270.695 -2696.96 3421.41
-270.523 -2697.19 3421.77
-269.405 -2700 3423.28
-269.551 -2699.8 3423.44
-269.427 -2701.04 3425.37
-269.526 -2700.69 3424.91
-269.676 -2699.58 3423.57
-269.09 -2701.4 3427.66
-268.672 -2701.16 3430.03
-268.53 -2700.76 3432.13
-268.805 -2701.04 3429.85
-269.009 -2701.31 3428.3
-269.217 -2701.22 3427.62
-269.447 -2700.93 3427.03
-269.515 -2700.87 3426.56
-269.349 -2700.98 3427.55
-269.516 -2700.87 3426.11
-269.53 -2700.84 3425.67
-270.277 -2697.59 3421.86
-270.262 -2697.71 3422.27
-269.783 -2699.42 3423.75
-270.068 -2698.2 3422.74
-270.265 -2697.8 3422.68
-268.321 -2700.85 3432.74
-268.19 -2700.84 3433.42
-268.951 -2700.6 3450.08
-272.314 -2699.61 3447.5
-272.353 -2699.62 3446.83
-271.995 -2699.69 3448.11
-272.843 -2699.48 3446.39
-271.109 -2699.94 3448.99
-272.94 -2699.42 3445.91
-273.333 -2699.26 3445.76
-273.258 -2699.23 3445.35
-268.284 -2700.71 3433.96
-268.967 -2700.18 3436.22
-268.65 -2700.39 3435.61
-268.476 -2700.5 3435.02
-269.478 -2700.06 3437.83
-269.462 -2699.92 3437.11
-269.872 -2700.01 3439.29
-268.416 -2700.55 3434.49
-270.982 -2699.47 3442.06
-271.462 -2699.28 3442.62
-272.085 -2699.12 3443.03
-272.523 -2699.08 3443.62
