-259.219 -2484.17 1628
-260.311 -2478.86 1623.62
-258.909 -2485.14 1628.73
-260.551 -2477.08 1621.19
-252.268 -2498.39 1642.1
-252.575 -2497.87 1641.86
-253.102 -2497.12 1641.14
-252.8 -2497.62 1641.32
-253.419 -2496.54 1640.41
-253.691 -2496.05 1639.52
-253.806 -2495.9 1638.61
-254.377 -2494.36 1636.85
-254.121 -2495.03 1637.27
-254.569 -2494.05 1635.29
-254.873 -2493.4 1635.33
-255.218 -2492.71 1635.07
-256.24 -2490.79 1634.53
-257.315 -2488.76 1632.62
-258.255 -2486.94 1630.25
-257.709 -2488.01 1631.33
-258.587 -2485.98 1629.02
-258.271 -2486.8 1629.68
-259.468 -2482.02 1625.6
-259.063 -2483.87 1626.94
-258.848 -2485.06 1628.24
-258.792 -2484.9 1627.72
-259.852 -2479.74 1623.51
-259.465 -2479.01 1620.81
-251.354 -2500.06 1641.85
-251.867 -2499.24 1641.74
-252.272 -2498.79 1640.98
-251.984 -2499.34 1640.93
-252.534 -2498.42 1640.65
-252.979 -2497.81 1639.87
-252.72 -2498.24 1640.2
-253.293 -2497.28 1639.24
-253.54 -2496.75 1638.7
-253.718 -2496.45 1637.95
-253.873 -2495.82 1637.89
-254.343 -2494.52 1635.81
-254.004 -2495.55 1636.96
-254.185 -2494.97 1636.08
-254.279 -2494.71 1634.53
-254.62 -2493.93 1634.33
-254.373 -2494.44 1634.03
-254.865 -2493.36 1633.89
-255.433 -2492.2 1634.02
-256.562 -2490.14 1633.06
-244.967 -2509.31 1645.89
-247.574 -2506.39 1640.74
-248.696 -2504.57 1639.8
-246.414 -2507.94 1642.36
-257.846 -2487.71 1630.61
-256.647 -2489.88 1632.1
-258.546 -2485.82 1628.52
-258.242 -2486.68 1629.13
-257.892 -2487.53 1629.99
-259.125 -2482.56 1625.25
-258.7 -2484.59 1626.89
-258.529 -2485.5 1627.85
-258.973 -2481.01 1622.55
-257.65 -2482.89 1620.98
-250.932 -2500.89 1641.11
-251.579 -2500.05 1640.88
-252.407 -2499.09 1639.95
-252.155 -2499.48 1640.03
-251.876 -2499.91 1640.08
-252.665 -2498.82 1639.49
-252.921 -2498.49 1639.09
-253.157 -2498.1 1638.72
-253.364 -2497.64 1638.36
-253.535 -2497.17 1638.12
-253.666 -2496.98 1637.61
-253.841 -2496.22 1637.31
-253.73 -2496.94 1637.13
-254.208 -2494.93 1634.97
-254.078 -2495.39 1635.92
-253.923 -2496.05 1636.44
-254.107 -2495.29 1635.01
-254.145 -2495.07 1633.8
-254.278 -2494.61 1633.47
-254.592 -2493.87 1633.32
-254.48 -2494.06 1632.94
-254.798 -2493.33 1632.77
-255.065 -2492.81 1633.06
-255.506 -2491.97 1633.08
-238.009 -2519.84 1647.76
-237.34 -2520.59 1648.74
-241.034 -2515.31 1648.98
-242.311 -2513.36 1648.65
-241.699 -2514.42 1648.64
-243.081 -2512.06 1648.3
-244.109 -2510.6 1646.85
-245.37 -2509.29 1643.67
-246.047 -2509.13 1641.05
-247.868 -2506.3 1639.15
-249.152 -2504.07 1638.76
-248.667 -2504.96 1638.28
-245.478 -2509.81 1641.91
-256.768 -2489.55 1631.32
-255.698 -2491.53 1632.04
-258.223 -2486.44 1628.56
-257.849 -2487.41 1629.35
-256.719 -2489.52 1630.74
-258.57 -2483.11 1624.43
-258.475 -2484.78 1626.53
-258.288 -2485.87 1627.7
-257.424 -2484.17 1622.46
-250.011 -2502.51 1640.11
-251.013 -2501.06 1640.36
-251.559 -2500.43 1640.04
-252.768 -2499.8 1638.01
-252.616 -2500 1638.07
-252.419 -2500.16 1638.27
-252.055 -2500.56 1638.46
-252.322 -2500.41 1638.1
-253.035 -2499.43 1637.76
-252.903 -2499.61 1637.93
-253.204 -2499.34 1637.37
-253.339 -2499.15 1637.11
-253.509 -2498.46 1636.9
-253.421 -2498.78 1637.05
-253.59 -2498.4 1636.47
-253.661 -2498.35 1636.01
-253.779 -2496.82 1636.73
-253.715 -2498.2 1635.66
-254.046 -2495.43 1634.05
-254.003 -2495.7 1635.29
-253.926 -2496.16 1635.32
-253.843 -2496.61 1635.97
-253.97 -2495.81 1634.38
-254.102 -2495.15 1633.17
-254.212 -2494.73 1633
-254.351 -2494.31 1632.43
-254.665 -2493.52 1632.21
-254.494 -2493.88 1631.9
-254.971 -2492.87 1631.93
-255.222 -2492.41 1632.3
-235.775 -2522.36 1650.97
-236.354 -2521.84 1649.99
-238.612 -2519.35 1646.49
-237.659 -2520.97 1646.05
-237.253 -2521.37 1646.8
-236.439 -2522.15 1648.8
-236.812 -2521.81 1647.82
-240.107 -2516.86 1647.99
-241.813 -2515.25 1646.5
-241.45 -2515.81 1646.28
-242.207 -2514.68 1646.49
-242.485 -2514.12 1646.69
-242.872 -2512.7 1647.6
-243.49 -2511.77 1646.95
-244.729 -2510.28 1644.3
-245.002 -2510.48 1642.39
-245.075 -2510.8 1641.34
-245.35 -2510.38 1640.94
-246.379 -2508.81 1640.3
-247.818 -2506.56 1638.59
-249.553 -2503.58 1638.5
-249.164 -2504.29 1637.73
-248.836 -2504.8 1637.72
-248.449 -2505.5 1637.54
-244.932 -2510.86 1641.85
-255.652 -2491.4 1631.12
-255.269 -2492.19 1631.43
-257.919 -2486.98 1628.6
-256.758 -2489.1 1629.44
-256.709 -2489.4 1630.15
-255.597 -2491.23 1630.2
-257.923 -2484.61 1624.74
-258.144 -2485.74 1627.03
-257.897 -2486.68 1627.93
-256.514 -2486.6 1623.7
-250.412 -2502.16 1639.52
-251.245 -2501.06 1639.65
-252 -2500.87 1638.06
-253.259 -2500.21 1636.21
-253.18 -2500.39 1636.16
-252.966 -2500.51 1636.52
-252.682 -2500.84 1636.55
-252.962 -2500.7 1636.22
-253.381 -2500.06 1636.12
-253.558 -2500.03 1635.69
-253.653 -2499.84 1635.54
-253.696 -2499.48 1635.4
-253.777 -2499.32 1635.01
-253.829 -2499.15 1634.63
-253.767 -2498 1635.37
-253.991 -2495.6 1633.57
-253.94 -2496.23 1634.63
-253.856 -2497.43 1634.82
-253.879 -2497.42 1634.42
-253.814 -2497.72 1635.12
-253.932 -2496.15 1633.87
-254.027 -2495.41 1632.81
-254.136 -2494.96 1632.61
-254.048 -2495.28 1632.47
-254.189 -2494.75 1632.15
-254.263 -2494.42 1631.51
-254.688 -2493.31 1631.27
-254.431 -2493.87 1631.04
-254.89 -2492.81 1630.88
-235.044 -2523.36 1651.32
-235.336 -2523.63 1649.97
-234.542 -2525.14 1649.82
-235.246 -2524.27 1649.09
-238.815 -2519.85 1644.63
-240.323 -2517.46 1645.59
-237.29 -2521.61 1645.79
-238.216 -2520.86 1644.47
-236.697 -2522.28 1646.86
-236.877 -2522.18 1646.12
-235.019 -2525.01 1648.57
-235.498 -2524.2 1648.22
-236.22 -2522.97 1647.37
-242.129 -2515.65 1644.59
-242.512 -2515.12 1644.74
-240.998 -2517.16 1644.2
-242.873 -2514.61 1644.74
-242.807 -2513.95 1646.05
-243.098 -2513.31 1645.95
-243.495 -2512.79 1645.29
-243.985 -2512.04 1644.28
-244.178 -2512.08 1643.26
-244.124 -2512.42 1642.99
-244.15 -2512.53 1642.65
-244.161 -2512.6 1642.37
-244.86 -2511.3 1641.18
-245.224 -2510.7 1640.57
-246.249 -2509.15 1639.95
-247.781 -2506.74 1638.14
-249.927 -2503.12 1638.45
-249.565 -2503.81 1637.6
-249.207 -2504.31 1637.19
-248.885 -2504.83 1637.07
-248.623 -2505.27 1637.15
-248.308 -2505.85 1637.01
-255.158 -2492.14 1630.5
-256.868 -2488.6 1628.65
-255.371 -2491.27 1629.07
-254.944 -2492.18 1629.4
-257.419 -2486.07 1625.51
-257.138 -2487.21 1626.67
-256.767 -2488.29 1627.63
-255.839 -2488.7 1625.33
-254.594 -2491.61 1626.4
-255.495 -2490.37 1627.51
-250.471 -2502.46 1638.54
-250.894 -2501.75 1639.09
-251.86 -2501.14 1637.92
-252.674 -2501.04 1636.18
-253.493 -2500.24 1635.55
-253.399 -2500.39 1635.58
-253.207 -2500.62 1635.77
-253.337 -2500.55 1635.49
-252.967 -2500.89 1635.79
-253.151 -2500.79 1635.57
-253.729 -2500.09 1635.03
-253.639 -2500.23 1635.12
-253.791 -2499.86 1634.92
-253.827 -2499.63 1634.57
-253.871 -2498.96 1634.25
-253.857 -2499.43 1634.23
-253.958 -2495.72 1633.12
-253.892 -2497.27 1633.73
-253.889 -2497.28 1634.15
-253.889 -2498.75 1633.9
-253.889 -2498.58 1633.47
-253.915 -2496.24 1633.46
-253.948 -2495.64 1632.26
-253.914 -2495.89 1632.48
-254.069 -2495.15 1631.97
-253.957 -2495.54 1631.87
-254.104 -2494.84 1631.37
-254.12 -2494.44 1630.65
-254.276 -2493.93 1630.28
-254.508 -2493.41 1630.26
-254.677 -2492.87 1629.83
-234.507 -2523.83 1651.83
-234.212 -2525.49 1650.09
-234.256 -2526.3 1648.89
-233.85 -2526.94 1649
-234.172 -2526.82 1648.42
-239.802 -2518.93 1643.34
-236.891 -2522.27 1645.48
-237.29 -2521.84 1645.1
-238.118 -2521.18 1644.03
-238.865 -2520.6 1642.84
-236.02 -2523.36 1646.88
-236.372 -2522.89 1646.26
-236.517 -2522.73 1645.72
-234.236 -2526.81 1648.13
-235.098 -2525.06 1648.01
-235.026 -2525.27 1647.74
-242.444 -2515.46 1643.99
-241.838 -2516.19 1644.04
-242.871 -2514.84 1644.15
-243.261 -2514 1644.52
-243.2 -2514.32 1644.13
-243.522 -2513.65 1643.89
-243.509 -2513.88 1643.48
-243.514 -2513.99 1643.11
-244.083 -2512.82 1642.17
-243.498 -2514.13 1642.77
-244.766 -2511.55 1641.04
-245.148 -2510.92 1640.23
-246.242 -2509.26 1639.48
-247.735 -2506.91 1637.71
-250.105 -2503.15 1637.81
-249.405 -2504.13 1636.79
-249.814 -2503.63 1637.19
-249.011 -2504.68 1636.65
-248.877 -2504.97 1636.28
-248.616 -2505.38 1636.63
-248.269 -2506 1636.53
-247.649 -2507.1 1637.28
-254.511 -2492.45 1628
-254.347 -2493.04 1628.75
-251.231 -2502.26 1637
-251.514 -2501.84 1637.3
-251.762 -2501.44 1637.58
-252.469 -2501.22 1636.29
-252.914 -2501.06 1635.5
-252.71 -2501.2 1635.69
-253.558 -2500.38 1635.1
-253.473 -2500.51 1635.14
-253.319 -2500.72 1635.25
-253.446 -2500.65 1634.93
-253.086 -2500.97 1635.29
-253.259 -2500.88 1635.08
-253.796 -2500.02 1634.57
-253.715 -2500.19 1634.66
-253.633 -2500.34 1634.73
-253.839 -2499.88 1634.24
-253.877 -2499.23 1633.9
-253.866 -2499.68 1633.88
-253.911 -2496.07 1632.88
-253.892 -2498.19 1632.91
-253.897 -2498.59 1633.08
-253.882 -2497.08 1633.32
-253.881 -2499 1633.59
-253.892 -2498.95 1633.25
-253.869 -2496.11 1631.63
-253.869 -2496.18 1631.93
-253.838 -2496.96 1632.27
-253.813 -2496.98 1631.88
-253.977 -2495.23 1631.28
-253.881 -2495.55 1631.35
-253.975 -2494.92 1630.74
-253.937 -2494.65 1630.13
-254.062 -2494.15 1629.76
-254.251 -2493.58 1629.41
-228.052 -2529.82 1653.98
-229.565 -2528.28 1654.11
-228.844 -2529.14 1653.74
-230.304 -2527.49 1654.1
-234.037 -2524.45 1651.87
-233.939 -2525.62 1650.48
-233.464 -2524.95 1652.26
-233.572 -2527.09 1649.37
-233.541 -2527.46 1649.02
-233.831 -2527.39 1648.57
-233.539 -2527.76 1648.69
-233.86 -2527.55 1648.26
-239.636 -2519.42 1642.65
-241.446 -2516.83 1643.5
-237.003 -2522.28 1644.8
-236.563 -2522.74 1645.12
-237.994 -2521.44 1643.69
-238.751 -2520.93 1642.32
-239.149 -2520.42 1642.19
-235.797 -2523.77 1646.57
-234.951 -2525.46 1647.51
-236.022 -2523.39 1645.88
-236.159 -2523.2 1645.37
-234.201 -2526.99 1647.89
-233.875 -2527.58 1648.07
-234.113 -2527.22 1647.71
-242.866 -2515.02 1643.47
-242.295 -2515.81 1643.37
-243.191 -2514.51 1643.67
-243.18 -2514.65 1643.2
-243.165 -2514.76 1642.78
-243.95 -2513.14 1641.98
-243.334 -2514.53 1642.47
-244.664 -2511.81 1640.92
-245.103 -2510.97 1639.93
-246.205 -2509.34 1639.06
-250.284 -2503.12 1637.29
-249.239 -2504.39 1636.25
-249.786 -2503.82 1636.56
-249.678 -2503.97 1636.08
-250.915 -2502.84 1636.24
-248.603 -2505.42 1636.16
-249.215 -2504.47 1635.82
-248.922 -2504.93 1635.81
-247.55 -2507.26 1636.89
-248.258 -2505.95 1636.09
-246.113 -2509.48 1638.68
-253.988 -2493.59 1628.3
-251.058 -2502.58 1636.58
-251.875 -2502.01 1635.87
-252.428 -2501.4 1635.99
-252.359 -2501.59 1635.67
-253.034 -2501.14 1634.98
-252.879 -2501.24 1635.14
-252.677 -2501.36 1635.38
-253.547 -2500.51 1634.7
-253.413 -2500.78 1634.75
-253.512 -2500.63 1634.52
-253.193 -2501.03 1634.82
-253.344 -2500.91 1634.68
-253.769 -2500.13 1634.25
-253.691 -2500.28 1634.31
-253.621 -2500.42 1634.38
-253.843 -2500.04 1633.91
-253.883 -2499.42 1633.53
-253.896 -2499.89 1633.58
-253.866 -2496.99 1632.78
-253.894 -2498.47 1632.73
-253.86 -2497.86 1632.55
-253.931 -2498.98 1632.89
-253.921 -2499.32 1633.16
-253.793 -2497.01 1631.34
-253.796 -2497.01 1631.56
-253.856 -2496.2 1631.33
-253.843 -2498.05 1632.37
-253.811 -2497.87 1632.05
-253.848 -2495.45 1630.93
-253.816 -2496.13 1631.01
-253.844 -2495.15 1630.43
-253.827 -2494.52 1629.37
-253.769 -2494.98 1629.78
-253.919 -2494.04 1628.89
-227.627 -2530.4 1653.27
-228.391 -2529.7 1653.35
-229.488 -2528.5 1653.7
-229.099 -2529.14 1653.2
-230.456 -2527.48 1653.7
-229.756 -2528.33 1653.48
-231.348 -2526.72 1653.34
-232.066 -2526.45 1652.52
-232.807 -2525.67 1652.42
-233.616 -2525.88 1650.77
-233.286 -2527.4 1649.5
-233.289 -2526.19 1650.98
-233.254 -2527.75 1649.16
-233.267 -2527.96 1648.87
-233.557 -2527.96 1648.4
-233.282 -2528.17 1648.59
-233.573 -2528.01 1648.22
-240.367 -2518.45 1642.53
-236.613 -2522.73 1644.68
-237.005 -2522.38 1644.31
-237.861 -2521.68 1643.42
-236.186 -2523.2 1644.88
-238.475 -2521.31 1642.23
-238.76 -2521.06 1641.88
-239.131 -2520.56 1641.86
-239.838 -2519.34 1641.89
-234.845 -2525.62 1647.3
-235.499 -2524.2 1646.46
-234.052 -2527.36 1647.57
-235.688 -2523.85 1645.69
-235.759 -2523.71 1645.13
-233.845 -2527.68 1647.92
-233.578 -2528.03 1648.07
-233.722 -2527.9 1647.76
-242.812 -2515.21 1643.01
-241.844 -2516.5 1642.96
-242.911 -2515.19 1642.39
-242.711 -2515.43 1642.69
-243.926 -2513.19 1641.69
-243.295 -2514.58 1642.12
-242.917 -2515.17 1642.14
-243.809 -2513.44 1641.46
-244.618 -2511.8 1640.56
-245.035 -2511.01 1639.63
-249.67 -2504.01 1635.61
-250.943 -2502.95 1635.83
-250.994 -2502.97 1635.42
-251.018 -2502.97 1635.01
-252.233 -2501.84 1635.32
-251.977 -2502.15 1635.12
-248.617 -2505.33 1635.72
-249.258 -2504.45 1635.33
-249.672 -2504.04 1635.17
-248.949 -2504.84 1635.35
-247.417 -2507.43 1636.59
-246.073 -2509.52 1638.3
-248.445 -2505.5 1635.43
-248.149 -2506.07 1635.77
-252.658 -2501.51 1635.02
-253.158 -2501.14 1634.54
-253.005 -2501.27 1634.64
-252.822 -2501.39 1634.88
-253.606 -2500.52 1634.25
-253.498 -2500.74 1634.39
-253.59 -2500.63 1634.12
-253.295 -2501.01 1634.44
-253.429 -2500.87 1634.34
-253.771 -2500.21 1633.97
-253.707 -2500.37 1634.01
-253.855 -2500.14 1633.67
-253.93 -2499.73 1633.26
-253.928 -2500.09 1633.32
-253.883 -2498.69 1632.53
-253.964 -2499.58 1632.9
-253.934 -2499.18 1632.66
-253.79 -2497.01 1631.09
-253.773 -2497.97 1631.61
-253.791 -2497.99 1631.86
-253.838 -2498.43 1632.21
-253.747 -2495.75 1630.65
-253.755 -2496.26 1630.62
-253.782 -2497.02 1630.81
-253.689 -2495.48 1630.13
-253.632 -2495.02 1629.12
-253.591 -2495.49 1629.59
-227.154 -2531.05 1652.5
-227.893 -2530.36 1652.81
-226.282 -2531.77 1651.94
-228.537 -2529.85 1652.76
-229.581 -2528.84 1652.95
-229.072 -2529.44 1652.71
-230.663 -2527.49 1653.26
-230.055 -2528.21 1653.14
-231.212 -2527.14 1652.88
-232.223 -2527.19 1651.38
-232.608 -2526.94 1651.14
-232.974 -2526.57 1651.05
-233.008 -2527.67 1649.65
-233.014 -2527.92 1649.33
-218.371 -2538.39 1644.27
-220.929 -2536.53 1645.05
-233.012 -2528.15 1649.05
-233.021 -2528.35 1648.78
-233.3 -2528.32 1648.34
-233.028 -2528.56 1648.51
-233.315 -2528.34 1648.17
-236.275 -2523.13 1644.5
-236.708 -2522.72 1644.13
-237.712 -2521.92 1643.15
-235.859 -2523.59 1644.65
-238.439 -2521.45 1641.88
-238.768 -2521.17 1641.44
-239.013 -2520.82 1641.6
-239.404 -2520.24 1641.4
-240.179 -2518.86 1641.69
-234.701 -2525.79 1647.08
-233.999 -2527.4 1647.37
-235.219 -2524.57 1646.23
-234.504 -2526.09 1646.89
-233.705 -2527.96 1647.6
-235.298 -2524.33 1645.55
-235.466 -2524.01 1644.87
-233.592 -2528.04 1647.91
-233.32 -2528.37 1648.02
-233.368 -2528.34 1647.87
-233.417 -2528.32 1647.73
-241.875 -2516.55 1642.62
-242.036 -2516.39 1642.35
-243.011 -2515.01 1641.81
-242.136 -2516.25 1642.06
-243.572 -2513.81 1641.26
-244.275 -2512.35 1640.82
-244.568 -2511.74 1640.12
-244.968 -2511.05 1639.3
-250.982 -2503.02 1634.66
-252.121 -2502.07 1634.59
-252.108 -2502.15 1634.23
-252.489 -2501.73 1634.72
-248.713 -2505.11 1635.22
-249.155 -2504.5 1634.88
-249.594 -2504.12 1634.76
-250.614 -2503.29 1634.2
-250.893 -2503.09 1634.36
-248.847 -2504.85 1634.81
-247.412 -2507.36 1636.17
-246.051 -2509.49 1637.94
-248.2 -2505.86 1635.26
-248.509 -2505.29 1634.86
-252.757 -2501.53 1634.6
-253.16 -2501.2 1634.22
-253.306 -2501.05 1634.15
-253.03 -2501.35 1634.22
-252.902 -2501.4 1634.51
-253.684 -2500.5 1633.89
-253.558 -2500.76 1634.04
-253.656 -2500.64 1633.78
-253.462 -2500.9 1634
-253.797 -2500.29 1633.69
-253.766 -2500.42 1633.61
-253.875 -2500.23 1633.39
-253.977 -2500.03 1632.98
-253.936 -2500.24 1633.04
-253.879 -2498.9 1632.31
-253.978 -2499.84 1632.68
-253.927 -2499.38 1632.47
-253.757 -2497.99 1631.35
-253.772 -2498.48 1631.64
-253.82 -2498.56 1631.95
-253.669 -2496.12 1630.29
-253.731 -2497.08 1630.51
-253.734 -2497.95 1631.08
-253.572 -2496.05 1629.93
-253.439 -2495.65 1629.04
-253.373 -2495.36 1628.41
-253.47 -2496.15 1629.43
-227.026 -2531.38 1651.65
-227.691 -2530.84 1652.02
-228.118 -2530.4 1652.3
-226.226 -2532.04 1651.06
-228.559 -2530.22 1652
-229.03 -2529.78 1652.16
-225.36 -2532.91 1649.64
-229.527 -2529.27 1652.35
-229.932 -2528.7 1652.57
-230.414 -2528.07 1652.73
-231.397 -2528.09 1651.44
-231.805 -2527.6 1651.48
-232.501 -2528.06 1650.04
-232.754 -2527.96 1649.74
-232.803 -2528.19 1649.4
-232.8 -2528.41 1649.13
-216.117 -2540.06 1643.31
-218.54 -2538.63 1642.28
-220.989 -2536.96 1642.7
-222.98 -2535.28 1644.33
-232.808 -2528.6 1648.86
-232.82 -2528.77 1648.6
-233.049 -2528.66 1648.29
-232.828 -2528.93 1648.34
-233.047 -2528.7 1648.14
-236.317 -2523.14 1644.04
-235.949 -2523.52 1644.26
-237.574 -2522.1 1642.93
-236.685 -2522.82 1643.66
-235.525 -2523.96 1644.47
-238.459 -2521.54 1641.46
-238.137 -2521.75 1641.83
-239.107 -2520.79 1641.26
-238.81 -2521.15 1641.02
-238.506 -2521.51 1641.07
-239.508 -2520.14 1640.95
-240.208 -2518.84 1641.32
-233.742 -2527.88 1647.4
-234.894 -2525 1645.99
-234.425 -2526.12 1646.65
-233.762 -2527.7 1647.13
-233.434 -2528.34 1647.59
-235.064 -2524.53 1645.22
-235.115 -2524.39 1644.61
-233.043 -2528.75 1648
-233.087 -2528.73 1647.88
-233.13 -2528.71 1647.74
-240.374 -2518.6 1641.09
-242.493 -2515.69 1641.49
-242.034 -2516.35 1641.74
-240.384 -2518.61 1640.77
-243.471 -2513.86 1641.01
-244.118 -2512.47 1640.49
-244.45 -2511.84 1639.87
-244.856 -2511.14 1639.03
-252.004 -2502.28 1633.92
-252.567 -2501.76 1634.29
-252.445 -2501.93 1633.91
-249.071 -2504.5 1634.39
-249.485 -2504.15 1634.31
-250.662 -2503.25 1633.88
-251.861 -2502.37 1633.64
-248.723 -2504.91 1634.41
-246.001 -2509.5 1637.62
-247.46 -2507.19 1635.74
-248.191 -2505.71 1634.71
-248.445 -2505.24 1634.35
-253.061 -2495.76 1627.75
-252.732 -2496.27 1627.29
-252.095 -2497.08 1626.48
-252.868 -2501.51 1634.22
-253.26 -2501.15 1633.87
-253.132 -2501.29 1633.9
-253.383 -2501.02 1633.82
-252.994 -2501.45 1633.92
-253.736 -2500.55 1633.5
-253.604 -2500.77 1633.69
-253.687 -2500.67 1633.41
-253.489 -2500.91 1633.61
-253.848 -2500.35 1633.3
-253.812 -2500.47 1633.21
-253.976 -2500.19 1632.66
-253.896 -2500.35 1632.94
-253.877 -2499.15 1632.13
-253.939 -2499.73 1632.36
-253.714 -2498.48 1631.35
-253.831 -2498.98 1631.79
-253.743 -2498.84 1631.5
-253.647 -2497.25 1630.28
-253.693 -2498.3 1631.01
-253.564 -2497.44 1630.06
-253.288 -2496.4 1628.94
-253.19 -2496.01 1628.5
-253.47 -2497.57 1629.77
-227.717 -2531.09 1651.29
-227.091 -2531.59 1650.87
-228.195 -2530.65 1651.57
-226.422 -2532.17 1650.23
-229.552 -2530.25 1650.7
-229.466 -2530.52 1650.29
-229.984 -2529.93 1650.71
-230.208 -2529.62 1650.94
-224.898 -2533.49 1648.06
-227.146 -2532.35 1648.28
-227.489 -2532.07 1648.79
-230.485 -2529.27 1651.13
-230.811 -2528.89 1651.2
-231.097 -2528.52 1651.31
-232.162 -2528.49 1650.02
-231.811 -2528.84 1650.03
-232.54 -2528.53 1649.46
-232.607 -2528.62 1649.22
-232.618 -2528.8 1648.93
-215.214 -2540.77 1642.27
-217.472 -2539.41 1641.63
-220.339 -2537.6 1641.31
-222.392 -2535.96 1642.83
-225.082 -2533.7 1646.23
-226.934 -2532.57 1647.67
-226.64 -2532.79 1647.18
-209.072 -2544.29 1650.28
-209.801 -2544.23 1648.33
-210.654 -2543.58 1648.39
-211.655 -2542.87 1647.84
-232.633 -2528.95 1648.67
-232.661 -2529.09 1648.4
-232.84 -2528.99 1648.16
-232.634 -2529.23 1648.17
-232.838 -2529.05 1647.98
-235.98 -2523.52 1643.77
-236.412 -2523.11 1643.52
-235.676 -2523.82 1644.08
-237.441 -2522.29 1642.72
-237.316 -2522.44 1642.48
-235.291 -2524.19 1644.19
-238.134 -2521.84 1641.45
-239.163 -2520.71 1640.81
-238.86 -2521.07 1640.59
-238.507 -2521.48 1640.67
-238.239 -2521.76 1640.98
-239.626 -2519.96 1640.48
-233.453 -2528.31 1647.41
-234.227 -2526.42 1646.49
-234.12 -2526.53 1646.31
-234.696 -2525.19 1645.62
-233.619 -2527.89 1647.03
-233.142 -2528.73 1647.61
-234.794 -2524.83 1645.01
-234.909 -2524.51 1644.24
-234.702 -2524.77 1644.53
-232.805 -2529.15 1647.81
-232.9 -2529.04 1647.73
-232.884 -2529.1 1647.58
-241.984 -2516.27 1641.08
-240.514 -2518.44 1640.56
-240.485 -2518.46 1640.23
-243.375 -2513.88 1640.73
-239.724 -2519.76 1640.01
-243.919 -2512.66 1640.17
-244.277 -2511.96 1639.63
-244.724 -2511.19 1638.77
-252.275 -2502.05 1633.61
-252.817 -2501.63 1633.91
-252.649 -2501.77 1633.58
-248.926 -2504.57 1633.96
-249.379 -2504.19 1633.9
-250.38 -2503.43 1633.72
-250.46 -2503.35 1633.42
-251.99 -2502.25 1633.34
-251.746 -2502.43 1633.12
-248.591 -2504.95 1633.9
-245.913 -2509.53 1637.31
-247.456 -2507.08 1635.34
-248.22 -2505.44 1633.98
-247.457 -2506.91 1634.83
-252.919 -2496.37 1627.93
-252.446 -2496.91 1627.11
-252.648 -2497.05 1627.7
-251.678 -2497.79 1626.26
-252.172 -2497.61 1627
-253.348 -2501.08 1633.53
-253.208 -2501.23 1633.59
-253.068 -2501.39 1633.63
-252.921 -2501.55 1633.63
-253.759 -2500.58 1633.13
-253.61 -2500.79 1633.32
-253.7 -2500.69 1633.05
-253.492 -2500.93 1633.22
-253.841 -2500.46 1632.85
-253.95 -2500.08 1632.24
-253.919 -2500.32 1632.55
-253.891 -2499.53 1632
-253.676 -2498.75 1631.17
-253.829 -2499.34 1631.66
-253.719 -2499.17 1631.39
-253.654 -2498.55 1630.85
-253.603 -2498.7 1630.57
-253.374 -2497.87 1629.58
-253.06 -2496.74 1628.5
-228.716 -2531.12 1649.88
-229.101 -2530.82 1650.09
-228.319 -2531.42 1649.63
-227.903 -2531.73 1649.28
-230.875 -2530.08 1649.35
-230.712 -2530.32 1649.11
-231.279 -2529.78 1649.33
-231.388 -2529.55 1649.6
-229.231 -2531.44 1648.24
-229.009 -2531.61 1647.92
-229.561 -2531.21 1648.53
-231.719 -2529.23 1649.62
-232.185 -2528.89 1649.48
-232.377 -2528.89 1649.22
-232.465 -2528.95 1648.99
-232.421 -2529.18 1648.72
-211.965 -2542.96 1645.99
-212.001 -2543.1 1644.57
-211.71 -2543.43 1643.5
-214.943 -2541.01 1641.42
-216.886 -2539.83 1641.04
-219.697 -2538.1 1640.46
-221.164 -2537.11 1640.86
-222.74 -2535.78 1642.33
-224.107 -2534.59 1643.85
-225.477 -2533.57 1645.61
-226.119 -2533.15 1646.39
-227.559 -2532.39 1647.1
-228.855 -2531.74 1647.63
-208.072 -2544.96 1649.97
-208.444 -2545.2 1647.92
-209.092 -2544.78 1647.99
-209.925 -2544.64 1646.03
-209.188 -2545.27 1645.58
-210.518 -2544.2 1645.95
-232.486 -2529.26 1648.48
-232.487 -2529.38 1648.25
-232.677 -2529.26 1647.99
-232.501 -2529.49 1647.96
-232.388 -2529.58 1648.05
-232.62 -2529.41 1647.8
-235.494 -2523.94 1643.77
-235.693 -2523.76 1643.33
-236.192 -2523.35 1643.26
-237.106 -2522.65 1642.36
-237.877 -2522.08 1641.32
-235.096 -2524.27 1643.84
-239.274 -2520.53 1640.29
-238.652 -2521.29 1640.24
-239.005 -2520.85 1640.06
-238.385 -2521.57 1640.27
-238.209 -2521.76 1640.59
-237.94 -2522.02 1640.9
-233.326 -2528.41 1647.24
-233.15 -2528.75 1647.47
-234.014 -2526.62 1646.11
-233.445 -2528.1 1646.93
-234.511 -2525.33 1645.29
-232.923 -2529.06 1647.45
-234.552 -2525.07 1644.79
-234.692 -2524.61 1643.87
-234.574 -2524.81 1644.15
-234.375 -2525.15 1644.4
-232.538 -2529.58 1647.61
-232.689 -2529.38 1647.59
-232.595 -2529.49 1647.39
-232.703 -2529.33 1647.35
-243.077 -2514.29 1640.54
-240.675 -2518.05 1639.99
-239.725 -2519.67 1639.65
-239.733 -2519.58 1639.31
-239.371 -2520.27 1639.78
-243.73 -2512.8 1639.85
-244.189 -2511.93 1639.25
-244.651 -2511.14 1638.44
-252.364 -2501.97 1633.31
-252.718 -2501.71 1633.28
-248.805 -2504.6 1633.43
-249.331 -2504.19 1633.52
-250.448 -2503.34 1633.16
-251.83 -2502.35 1632.79
-252.071 -2502.19 1633.02
-248.433 -2505.03 1633.44
-245.945 -2509.34 1636.79
-248.067 -2505.37 1633.12
-247.395 -2506.76 1634.19
-246.617 -2508.19 1635.23
-252.865 -2497.05 1628.16
-252.427 -2497.58 1627.51
-252.849 -2498.4 1628.6
-253.024 -2498.39 1628.93
-251.9 -2498.06 1626.83
-251.524 -2498.33 1626.46
-251.133 -2498.56 1626.06
-252.623 -2498.9 1628.39
-252.459 -2499.02 1628.19
-250.862 -2498.82 1625.9
-250.622 -2499.21 1625.91
-250.345 -2499.62 1625.91
-253.24 -2501.21 1633.29
-253.37 -2501.07 1633.2
-253.11 -2501.35 1633.34
-252.974 -2501.51 1633.38
-253.781 -2500.57 1632.77
-253.594 -2500.84 1632.92
-253.718 -2500.68 1632.67
-253.423 -2501.03 1632.86
-253.856 -2500.43 1632.44
-253.922 -2500.29 1632.12
-253.9 -2499.87 1631.86
-253.634 -2498.9 1630.88
-253.648 -2499.13 1631.13
-253.812 -2499.68 1631.55
-253.701 -2499.56 1631.28
-253.587 -2499.05 1630.63
-253.494 -2498.86 1630.31
-253.283 -2498.17 1629.41
-253.156 -2498.25 1629.16
-230.354 -2530.61 1648.91
-230.095 -2530.87 1648.62
-231.312 -2529.95 1648.95
-231.213 -2530.16 1648.69
-231.606 -2529.73 1648.98
-231.666 -2529.54 1649.26
-229.858 -2531.18 1648.07
-230.055 -2531.01 1648.27
-229.776 -2531.28 1647.82
-232.004 -2529.22 1649.27
-232.233 -2529.21 1648.97
-232.124 -2529.5 1648.71
-232.283 -2529.5 1648.48
-210.434 -2544.49 1644.72
-210.331 -2544.69 1643.49
-211.442 -2543.69 1642.61
-209.867 -2545.17 1642.07
-215.88 -2540.48 1640.52
-218.498 -2538.88 1640.03
-220.536 -2537.59 1639.88
-221.63 -2536.83 1640.38
-223.165 -2535.5 1641.95
-224.347 -2534.47 1643.42
-227.242 -2532.61 1646.48
-227.37 -2532.57 1646.22
-228.666 -2531.9 1647.1
-229.192 -2531.62 1647.46
-205.419 -2546.38 1649.58
-206.891 -2545.7 1649.41
-207.76 -2545.63 1647.68
-203.159 -2547.51 1649.8
-203.086 -2547.62 1648.88
-208.635 -2545.63 1645.52
-208.07 -2546.02 1645.29
-209.584 -2545.15 1644.74
-208.862 -2545.74 1644.1
-232.337 -2529.54 1648.29
-232.222 -2529.71 1648.13
-232.245 -2529.77 1647.88
-232.416 -2529.66 1647.77
-232.07 -2529.87 1647.99
-235.16 -2524.16 1643.31
-236.031 -2523.52 1642.92
-235.481 -2523.92 1642.84
-236.963 -2522.79 1642.12
-237.64 -2522.29 1641.18
-234.791 -2524.47 1643.43
-238.802 -2521.02 1639.78
-238.586 -2521.25 1639.78
-239.072 -2520.63 1639.51
-238.115 -2521.81 1640.22
-238.36 -2521.5 1639.88
-237.91 -2522.03 1640.53
-237.574 -2522.33 1640.87
-233.093 -2528.76 1647.19
-232.911 -2529.04 1647.29
-233.888 -2526.74 1645.91
-233.428 -2528.01 1646.7
-233.161 -2528.56 1646.93
-234.323 -2525.43 1644.87
-232.648 -2529.35 1647.16
-234.386 -2524.79 1643.41
-234.369 -2524.92 1643.75
-234.323 -2525.07 1644.03
-234.08 -2525.39 1644.03
-234.102 -2525.58 1644.5
-232.302 -2529.8 1647.63
-232.269 -2529.84 1647.49
-232.426 -2529.7 1647.4
-232.436 -2529.62 1647.12
-232.302 -2529.77 1647.22
-242.593 -2515.02 1640.39
-240.689 -2517.87 1639.6
-239.743 -2519.42 1638.95
-239.421 -2520.07 1639.36
-239.41 -2519.97 1638.98
-243.714 -2512.6 1639.37
-243.288 -2513.47 1639.72
-244.13 -2511.84 1638.85
-244.557 -2511.12 1638.15
-252.409 -2501.94 1633.04
-252.999 -2501.49 1633.11
-252.752 -2501.69 1632.97
-248.66 -2504.66 1632.96
-249.221 -2504.21 1633.02
-250.402 -2503.34 1632.91
-251.85 -2502.28 1632.48
-252.259 -2502.03 1632.71
-252.219 -2502.03 1632.48
-248.225 -2505.05 1632.69
-245.497 -2509.82 1636.87
-247.162 -2506.87 1633.61
-247.14 -2506.54 1632.78
-245.527 -2509.63 1636.27
-246.372 -2508.25 1634.52
-252.761 -2498.75 1628.56
-253.148 -2499.49 1629.67
-253.269 -2499.26 1629.84
-253.386 -2499.05 1630.08
-252.272 -2499.1 1627.96
-251.852 -2499.3 1627.51
-252.044 -2499.18 1627.68
-251.853 -2499.58 1627.75
-252.962 -2499.65 1629.44
-251.507 -2499.58 1627.3
-251.267 -2500.07 1627.42
-251.548 -2499.93 1627.65
-250.082 -2500.13 1626.08
-251.095 -2500.35 1627.51
-246.297 -2506.26 1629.94
-244.847 -2506.88 1627.73
-253.137 -2501.34 1633.04
-253.275 -2501.19 1632.93
-253.794 -2500.54 1632.36
-253.537 -2500.88 1632.64
-253.659 -2500.72 1632.49
-253.733 -2500.59 1632.22
-253.452 -2500.94 1632.46
-253.32 -2501.11 1632.6
-253.864 -2500.39 1632
-253.893 -2500.18 1631.72
-253.609 -2499.28 1630.87
-253.623 -2499.59 1631.05
-253.788 -2500.03 1631.44
-253.703 -2500.05 1631.22
-253.505 -2499.25 1630.47
-230.985 -2530.41 1648.45
-230.692 -2530.65 1648.25
-231.603 -2529.91 1648.65
-231.567 -2530.08 1648.35
-231.885 -2529.52 1648.99
-231.834 -2529.73 1648.7
-230.569 -2530.79 1648.01
-230.547 -2530.86 1647.82
-229.985 -2531.24 1647.6
-230.537 -2530.92 1647.63
-232.038 -2529.73 1648.43
-232.117 -2529.75 1648.27
-209.664 -2545.24 1643.5
-209.241 -2545.69 1642.04
-211.154 -2543.94 1641.84
-209.753 -2545.29 1640.93
-209.233 -2545.72 1640.9
-213.484 -2541.96 1639.57
-210.868 -2544.19 1641
-215.365 -2540.78 1639.58
-217.684 -2539.39 1639.48
-219.799 -2538.09 1639.24
-220.586 -2537.6 1639.12
-221.247 -2537.15 1639.55
-222.181 -2536.46 1640.07
-223.583 -2535.21 1641.66
-224.661 -2534.26 1643.03
-226.088 -2533.24 1645.23
-229.221 -2531.67 1646.99
-228.063 -2532.24 1646.21
-229.523 -2531.54 1646.87
-229.715 -2531.42 1647.33
-203.117 -2547.74 1647.79
-205.253 -2546.65 1648.34
-206.99 -2546.11 1647.19
-207.496 -2546.39 1644.82
-200.437 -2549.13 1647.52
-200.69 -2549.14 1645.5
-208.425 -2546.02 1644.14
-207.865 -2546.43 1643.36
-209.132 -2545.66 1643.43
-208.411 -2546.2 1642.81
-208.413 -2546.27 1642.11
-231.964 -2529.91 1648.11
-232.111 -2529.92 1647.72
-231.936 -2530.02 1647.84
-231.799 -2530.09 1647.94
-234.834 -2524.39 1642.84
-236.729 -2522.99 1641.93
-236.53 -2523.13 1641.73
-235.536 -2523.87 1642.41
-234.47 -2524.68 1643.01
-238.817 -2520.87 1639.31
-238.526 -2521.2 1639.44
-239.116 -2520.45 1639.08
-238.18 -2521.63 1639.77
-237.886 -2521.99 1640.11
-237.58 -2522.3 1640.46
-237.23 -2522.57 1640.8
-232.855 -2529.04 1646.92
-232.793 -2529.14 1647.06
-232.555 -2529.42 1646.96
-233.763 -2526.87 1645.75
-233.278 -2528.21 1646.56
-232.97 -2528.86 1646.78
-233.635 -2527.04 1645.63
-232.325 -2529.69 1646.92
-234.022 -2525.03 1642.95
-234.062 -2525.12 1643.34
-234.179 -2524.88 1642.65
-234.075 -2525.25 1643.66
-233.786 -2525.62 1643.74
-233.809 -2525.92 1644.29
-233.613 -2526.82 1645.26
-232.034 -2530.02 1647.54
-232.109 -2529.94 1647.35
-232.17 -2529.84 1647.04
-232.048 -2529.96 1647.18
-242.255 -2515.44 1640.07
-240.717 -2517.59 1639.17
-239.811 -2519.08 1638.61
-239.409 -2519.73 1638.51
-239.155 -2520.18 1638.63
-243.665 -2512.45 1638.89
-243.258 -2513.24 1639.26
-242.749 -2514.29 1639.6
-244.045 -2511.76 1638.39
-244.477 -2511.05 1637.72
-252.535 -2501.84 1632.76
-253.03 -2501.46 1632.81
-252.898 -2501.56 1632.64
-248.442 -2504.72 1632.34
-249.129 -2504.2 1632.56
-250.344 -2503.34 1632.63
-250.515 -2503.15 1632.28
-251.78 -2502.28 1632.21
-252.32 -2501.9 1632.14
-252.726 -2501.66 1632.46
-252.596 -2501.73 1632.28
-247.864 -2505.19 1631.93
-246.821 -2506.61 1631.98
-246.104 -2508.28 1633.82
-244.378 -2510.98 1637.16
-245.342 -2509.64 1635.72
-253.308 -2499.61 1630.11
-253.21 -2499.75 1629.97
-253.395 -2499.4 1630.25
-252.77 -2499.82 1629.27
-252.661 -2500.01 1629.25
-252.641 -2500.18 1629.34
-252.42 -2500.3 1629.08
-253.047 -2499.82 1629.75
-252.095 -2500.64 1629.05
-252.385 -2500.49 1629.23
-249.88 -2500.74 1626.44
-249.495 -2501.42 1626.81
-251.046 -2500.66 1627.77
-252.041 -2500.83 1629.21
-247.454 -2504.57 1629.25
-247.571 -2505.2 1631.02
-245.821 -2508.16 1632.83
-245.018 -2507.88 1630.41
-247.812 -2504.82 1630.68
-243.969 -2507.87 1628.02
-253.175 -2501.29 1632.7
-253.8 -2500.46 1631.93
-253.587 -2500.75 1632.27
-253.674 -2500.62 1632.04
-253.725 -2500.5 1631.79
-253.501 -2500.81 1632.07
-253.378 -2500.98 1632.24
-253.236 -2501.16 1632.38
-253.819 -2500.3 1631.59
-253.568 -2499.55 1630.73
-253.589 -2499.89 1630.92
-253.615 -2500.16 1631.07
-253.699 -2500.26 1631.35
-253.475 -2499.61 1630.5
-231.403 -2530.27 1648.16
-231.123 -2530.47 1648.02
-231.808 -2529.91 1648.39
-231.677 -2530.08 1648.18
-231.145 -2530.51 1647.87
-230.963 -2530.65 1647.72
-230.376 -2531.06 1647.46
-230.866 -2530.76 1647.57
-231.899 -2529.92 1648.23
-208.743 -2546.06 1642.02
-208.777 -2546.09 1640.88
-208.993 -2545.96 1639.98
-209.429 -2545.57 1639.91
-208.644 -2546.23 1640.04
-212.407 -2542.74 1639
-213.145 -2542.17 1638.77
-213.974 -2541.57 1638.43
-210.411 -2544.59 1640.01
-211.738 -2543.3 1639.22
-216.555 -2540.03 1638.8
-215.136 -2540.82 1638.14
-219.297 -2538.4 1638.63
-220.471 -2537.66 1638.5
-221.269 -2537.14 1638.56
-221.753 -2536.82 1639.07
-222.529 -2536.21 1639.61
-223.932 -2534.93 1641.34
-224.921 -2534.03 1642.23
-226.384 -2533.05 1644.89
-228.16 -2532.19 1645.97
-230.208 -2531.18 1647.24
-229.736 -2531.42 1646.75
-230.363 -2531.09 1647.08
-201.611 -2548.78 1644.61
-203.532 -2547.74 1646.26
-206.159 -2546.65 1646.28
-207.009 -2546.78 1643.71
-199.601 -2549.98 1642.16
-200.451 -2549.52 1642.02
-206.942 -2547.03 1642.26
-207.606 -2546.77 1642.05
-207.866 -2546.66 1641.67
-208.372 -2546.39 1640.93
-207.992 -2546.64 1640.92
-231.744 -2530.08 1648.06
-231.844 -2530.14 1647.67
-231.669 -2530.24 1647.76
-231.563 -2530.26 1647.9
-234.482 -2524.63 1642.48
-235.088 -2524.17 1642.31
-236.331 -2523.27 1641.47
-238.719 -2520.85 1638.97
-238.95 -2520.54 1638.78
-238.499 -2521.1 1639.04
-238.292 -2521.41 1639.36
-237.96 -2521.81 1639.7
-237.621 -2522.19 1640.01
-237.153 -2522.6 1640.49
-232.626 -2529.27 1646.63
-232.558 -2529.38 1646.79
-232.318 -2529.66 1646.72
-233.054 -2528.65 1646.53
-232.785 -2529.06 1646.55
-233.021 -2528.62 1646.3
-232.005 -2529.95 1646.89
-232.12 -2529.84 1646.76
-233.734 -2525.34 1642.96
-233.743 -2525.18 1642.47
-234.05 -2524.92 1642.23
-233.744 -2525.49 1643.34
-234.375 -2524.67 1642.11
-233.428 -2525.92 1643.57
-233.516 -2526.11 1644.07
-233.405 -2527.13 1645.22
-233.25 -2527.24 1645.05
-231.781 -2530.22 1647.51
-231.848 -2530.14 1647.36
-231.887 -2530.07 1647.03
-231.809 -2530.15 1647.19
-241.85 -2515.78 1639.53
-240.643 -2517.42 1638.56
-239.779 -2518.85 1638.09
-239.428 -2519.45 1638.04
-239.211 -2519.86 1638.17
-239.021 -2520.22 1638.31
-243.264 -2512.89 1638.65
-243.578 -2512.31 1638.32
-242.943 -2513.56 1638.99
-242.469 -2514.48 1639.19
-243.954 -2511.65 1637.85
-253.098 -2501.34 1632.49
-253.03 -2501.39 1632.32
-248.188 -2504.79 1631.71
-248.972 -2504.21 1632.07
-250.447 -2503.13 1631.99
-251.954 -2502.1 1631.91
-252.855 -2501.49 1631.97
-252.59 -2501.66 1631.82
-252.972 -2501.42 1632.13
-244.921 -2509.94 1635.44
-243.911 -2511.18 1636.49
-243.809 -2511.6 1637.28
-253.391 -2499.81 1630.37
-253.292 -2499.91 1630.23
-253.175 -2499.95 1630.04
-252.969 -2499.98 1629.72
-252.931 -2500.12 1629.74
-252.684 -2500.36 1629.5
-252.93 -2500.27 1629.83
-252.39 -2500.7 1629.5
-252.697 -2500.54 1629.7
-250.912 -2500.9 1627.86
-250.772 -2501.14 1627.98
-249.149 -2502.03 1627.21
-250.64 -2501.43 1628.22
-251.908 -2501.02 1629.27
-252.343 -2500.89 1629.68
-248.203 -2504.1 1629.86
-244.563 -2510.02 1634.77
-244.1 -2509.89 1633.33
-243.35 -2509.51 1630.67
-248.423 -2504.27 1630.76
-248.608 -2504.35 1631.46
-242.312 -2509.74 1628.94
-253.754 -2500.38 1631.61
-253.614 -2500.64 1631.86
-253.632 -2500.51 1631.63
-253.652 -2500.39 1631.46
-253.539 -2500.69 1631.76
-253.422 -2500.85 1631.8
-253.316 -2501.02 1632.06
-253.175 -2501.2 1632.18
-253.505 -2499.94 1630.67
-253.511 -2500.15 1630.84
-253.581 -2500.27 1631.18
-231.508 -2530.25 1648.02
-231.343 -2530.43 1647.75
-230.658 -2530.91 1647.4
-231.286 -2530.51 1647.61
-231.1 -2530.65 1647.44
-208.208 -2546.55 1639.96
-208.231 -2546.54 1639.26
-208.663 -2546.22 1639.18
-209.216 -2545.71 1639.02
-207.832 -2546.8 1639.1
-211.885 -2543.09 1637.99
-212.632 -2542.49 1637.83
-213.414 -2541.9 1637.7
-214.481 -2541.16 1637.48
-210.367 -2544.57 1639.07
-210.525 -2544.33 1638.16
-217.656 -2539.35 1638.16
-215.886 -2540.28 1637.33
-220.092 -2537.87 1637.87
-221.125 -2537.21 1637.88
-221.869 -2536.71 1637.91
-222.297 -2536.39 1638.39
-223.811 -2535.07 1640.49
-222.855 -2535.93 1638.97
-224.224 -2534.68 1640.32
-225.367 -2533.61 1641.82
-228.182 -2532.15 1645.63
-226.799 -2532.75 1644.47
-226.534 -2532.85 1643.86
-229.904 -2531.33 1646.61
-230.733 -2530.87 1647.25
-230.474 -2531.02 1646.9
-230.847 -2530.8 1647.08
-202.503 -2548.56 1643.13
-201.344 -2549.13 1641.77
-205.522 -2547.16 1644.9
-204.61 -2547.74 1643.53
-206.182 -2547.29 1642.5
-199.967 -2549.94 1639.18
-199.056 -2550.47 1639.01
-201.061 -2549.47 1639.24
-205.782 -2547.63 1641.08
-206.746 -2547.27 1641.09
-207.491 -2546.96 1640.97
-207.874 -2546.77 1640.11
-207.43 -2547.04 1640.17
-231.558 -2530.37 1647.58
-234.896 -2524.27 1641.95
-236.122 -2523.39 1641.24
-238.818 -2520.55 1638.44
-238.59 -2520.83 1638.55
-238.347 -2521.14 1638.74
-238.104 -2521.55 1639.24
-237.803 -2521.9 1639.51
-237.482 -2522.23 1639.72
-237.006 -2522.67 1640.21
-232.5 -2529.28 1646.27
-232.344 -2529.5 1646.35
-232.282 -2529.65 1646.53
-232.06 -2529.87 1646.58
-232.711 -2529.04 1646.26
-232.829 -2528.73 1646.01
-231.879 -2530.05 1646.71
-231.739 -2530.19 1646.85
-233.413 -2525.5 1642.62
-233.414 -2525.75 1643.14
-233.382 -2525.32 1642.05
-233.745 -2525.02 1641.82
-234.234 -2524.7 1641.71
-234.698 -2524.37 1641.62
-233.222 -2526.4 1643.99
-232.987 -2526.07 1643.02
-233.05 -2526.26 1643.48
-233.06 -2527.43 1644.93
-232.625 -2528.67 1645.54
-231.518 -2530.4 1647.4
-231.591 -2530.35 1647.23
-231.636 -2530.3 1647.02
-241.773 -2515.57 1638.99
-239.695 -2518.59 1637.37
-240.61 -2517.14 1638
-239.427 -2519.05 1637.33
-239.226 -2519.51 1637.52
-239.069 -2519.89 1637.81
-238.893 -2520.24 1637.97
-242.776 -2513.3 1638.24
-243.047 -2512.72 1637.88
-243.425 -2512.19 1637.7
-242.506 -2513.86 1638.47
-242.097 -2514.6 1638.48
-253.125 -2501.23 1631.99
-250.306 -2503.14 1631.64
-251.808 -2502.14 1631.62
-252.3 -2501.81 1631.62
-252.958 -2501.33 1631.63
-253.064 -2501.26 1631.8
-252.738 -2501.46 1631.44
-242.698 -2511.75 1635.14
-243.133 -2512.02 1636.77
-243.095 -2511.21 1634.64
-253.395 -2500.05 1630.51
-253.269 -2500.11 1630.32
-253.131 -2500.12 1630.07
-253.101 -2500.28 1630.13
-252.93 -2500.44 1629.92
-253.069 -2500.42 1630.18
-252.723 -2500.71 1629.95
-252.986 -2500.55 1630.15
-251.857 -2501.2 1629.44
-250.433 -2501.74 1628.42
-250.224 -2502.08 1628.73
-251.785 -2501.38 1629.61
-252.267 -2501.06 1629.81
-252.659 -2500.9 1630.13
-250.085 -2502.42 1629.23
-249.792 -2502.83 1629.69
-249.853 -2503.05 1630.29
-241.87 -2511.01 1631.25
-250.027 -2503.1 1630.78
-250.139 -2503.15 1631.21
-241.408 -2511.54 1631.42
-253.529 -2500.54 1631.48
-253.548 -2500.41 1631.32
-253.47 -2500.67 1631.51
-253.277 -2501.03 1631.87
-253.385 -2500.72 1631.37
-253.312 -2500.89 1631.56
-253.384 -2500.21 1630.63
-253.483 -2500.29 1630.96
-231.176 -2530.61 1647.25
-207.54 -2546.99 1639.38
-208.095 -2546.58 1638.5
-208.428 -2546.37 1638.62
-208.843 -2546 1638.37
-209.29 -2545.56 1638.19
-207.683 -2546.84 1638.37
-207.338 -2547.08 1638.74
-210.265 -2544.44 1637.31
-211.632 -2543.13 1636.79
-212.431 -2542.48 1636.66
-213.525 -2541.7 1636.65
-214.943 -2540.74 1636.44
-218.534 -2538.75 1637.34
-217.128 -2539.44 1636.52
-220.341 -2537.63 1637.11
-221.131 -2537.12 1637.2
-221.845 -2536.64 1637.2
-222.384 -2536.25 1637.5
-222.924 -2535.82 1637.83
-223.39 -2535.42 1638.53
-224.413 -2534.48 1639.82
-225.612 -2533.36 1641.4
-228.359 -2532.02 1645.34
-230.093 -2531.22 1646.47
-227.15 -2532.47 1644.06
-226.847 -2532.57 1643.61
-230.573 -2530.96 1646.72
-230.965 -2530.73 1646.91
-231.303 -2530.53 1647.08
-204.848 -2547.88 1641.71
-203.052 -2548.62 1640.6
-197.139 -2551.71 1639.15
-201.069 -2549.58 1637.69
-199.734 -2550.24 1636.95
-197.763 -2551.4 1636.74
-203.763 -2548.47 1639.69
-203.667 -2548.56 1638.9
-205.767 -2547.74 1640.13
-206.776 -2547.36 1640.16
-207.044 -2547.25 1639.34
-206.529 -2547.5 1639.34
-235.939 -2523.48 1640.98
-238.686 -2520.54 1638.06
-238.449 -2520.78 1638.06
-238.206 -2521.05 1638.15
-238.113 -2521.35 1638.69
-237.897 -2521.65 1638.98
-237.662 -2521.95 1639.22
-237.357 -2522.26 1639.42
-236.882 -2522.7 1639.93
-232.146 -2529.54 1646.01
-232.318 -2529.23 1645.83
-232.049 -2529.78 1646.26
-231.778 -2530.12 1646.53
-231.894 -2529.97 1646.38
-232.487 -2528.99 1645.75
-231.628 -2530.27 1646.65
-231.504 -2530.39 1646.78
-233.082 -2525.8 1642.65
-232.954 -2525.67 1642.06
-233.065 -2525.39 1641.57
-233.305 -2525.11 1641.23
-233.887 -2524.79 1641.31
-234.437 -2524.46 1641.26
-235.687 -2523.6 1640.77
-235.455 -2523.69 1640.54
-232.975 -2526.7 1643.95
-232.85 -2527.6 1644.74
-232.632 -2526.06 1642.4
-232.57 -2526.41 1642.9
-232.751 -2526.65 1643.53
-232.483 -2528.56 1645.12
-232.301 -2528.94 1645.31
-231.377 -2530.49 1646.91
-241.587 -2515.42 1638.33
-239.672 -2518.18 1636.67
-239.36 -2518.56 1636.37
-240.497 -2516.84 1637.27
-239.214 -2519.09 1636.72
-239.033 -2519.55 1636.99
-238.87 -2519.9 1637.23
-238.699 -2520.23 1637.46
-242.282 -2512.98 1636.65
-242.066 -2513.37 1636.8
-242.552 -2512.53 1636.43
-241.841 -2513.79 1636.95
-241.544 -2514.41 1637.05
-253.196 -2501.07 1631.68
-251.755 -2502.09 1631.26
-252.301 -2501.73 1631.3
-253.084 -2501.11 1631.46
-252.928 -2501.23 1631.3
-252.709 -2501.38 1631.09
-241.991 -2512.13 1634.2
-253.24 -2500.27 1630.39
-253.226 -2500.39 1630.48
-253.153 -2500.49 1630.44
-252.924 -2500.73 1630.31
-253.112 -2500.61 1630.49
-252.221 -2501.22 1629.98
-251.442 -2501.7 1629.74
-252.081 -2501.46 1630.16
-252.63 -2501.07 1630.33
-252.867 -2500.9 1630.49
-251.335 -2501.95 1630.06
-251.37 -2502.13 1630.45
-251.577 -2502.12 1630.87
-240.897 -2511.94 1631.08
-253.451 -2500.43 1631.08
-253.426 -2500.55 1631.2
-253.279 -2500.77 1631.17
-253.342 -2500.61 1631.04
-253.187 -2500.94 1631.32
-253.369 -2500.33 1630.73
-208.479 -2546.25 1637.91
-208.007 -2546.56 1637.86
-209.007 -2545.72 1637.62
-207.133 -2547.14 1638.05
-207.485 -2546.89 1637.75
-206.883 -2547.3 1638.62
-210.072 -2544.46 1636.57
-211.432 -2543.1 1635.75
-212.399 -2542.28 1635.33
-213.858 -2541.28 1635.19
-215.495 -2540.2 1635.28
-219.515 -2538.03 1636.37
-217.69 -2538.95 1635.6
-220.722 -2537.28 1636.39
-221.445 -2536.8 1636.47
-222.394 -2536.15 1636.82
-221.948 -2536.42 1636.47
-222.904 -2535.76 1637.07
-223.406 -2535.33 1637.5
-223.895 -2534.9 1637.97
-224.649 -2534.2 1639.39
-225.84 -2533.08 1640.98
-228.592 -2531.85 1645.15
-230.272 -2531.1 1646.28
-230.711 -2530.88 1646.56
-227.489 -2532.19 1643.77
-227.077 -2532.34 1643.32
-231.11 -2530.65 1646.74
-201.475 -2549.45 1636.95
-200.193 -2550.03 1636.09
-199.018 -2550.67 1635.25
-195.607 -2552.72 1636.3
-196.68 -2552.11 1634.11
-203.879 -2548.5 1638.36
-205.644 -2547.85 1639.32
-206.412 -2547.53 1638.59
-205.756 -2547.82 1638.64
-238.42 -2520.38 1637.17
-238.197 -2520.7 1637.35
-237.972 -2521.03 1637.59
-237.942 -2521.35 1638.28
-237.71 -2521.66 1638.54
-237.457 -2521.97 1638.78
-237.079 -2522.32 1639.01
-236.724 -2522.73 1639.62
-231.974 -2529.6 1645.74
-231.872 -2529.81 1645.95
-232.134 -2529.26 1645.51
-231.755 -2529.98 1646.11
-231.5 -2530.34 1646.43
-231.621 -2530.17 1646.27
-231.322 -2530.52 1646.58
-231.717 -2525.99 1640.67
-231.71 -2526.18 1641.07
-231.794 -2525.77 1640.29
-232.101 -2525.49 1640.06
-232.371 -2525.21 1639.78
-233.373 -2524.91 1640.74
-234.052 -2524.55 1640.82
-235.196 -2523.77 1640.26
-232.536 -2527.72 1644.37
-232.245 -2528.58 1644.76
-231.473 -2526.68 1641.56
-231.44 -2526.48 1641.16
-232.471 -2526.81 1643.24
-231.453 -2526.94 1641.9
-231.371 -2527.21 1642.12
-232.246 -2527.81 1644.02
-232.17 -2528.9 1645
-232 -2529.26 1645.22
-241.173 -2515.01 1636.94
-239.424 -2517.73 1635.49
-238.978 -2518.59 1635.45
-238.905 -2517.99 1634.46
-240.232 -2516.1 1635.7
-238.917 -2519.16 1636.05
-238.739 -2519.56 1636.33
-238.549 -2519.94 1636.63
-241.39 -2512.64 1633.76
-240.947 -2513.06 1633.39
-240.65 -2513.51 1633.37
-240.687 -2512.38 1631.44
-240.579 -2513.97 1633.88
-240.257 -2514.6 1633.89
-252.255 -2501.67 1630.96
-253.037 -2501.02 1631.11
-252.853 -2501.17 1630.97
-252.612 -2501.35 1630.74
-253.341 -2500.46 1630.82
-253.257 -2500.54 1630.72
-253.071 -2500.76 1630.64
-253.238 -2500.65 1630.83
-252.494 -2501.26 1630.41
-252.058 -2501.67 1630.54
-252.764 -2501.14 1630.66
-252.955 -2500.97 1630.77
-253.148 -2500.83 1630.95
-208.15 -2546.37 1637.3
-208.591 -2546.03 1637.26
-207.629 -2546.73 1637.26
-208.976 -2545.59 1636.91
-206.494 -2547.46 1637.95
-206.999 -2547.12 1637.19
-206.639 -2547.34 1637.49
-209.949 -2544.4 1635.86
-211.467 -2542.87 1634.69
-212.935 -2541.67 1633.88
-214.88 -2540.34 1633.9
-217.615 -2538.75 1634.5
-219.636 -2537.79 1635.57
-220.763 -2537.09 1635.67
-221.476 -2536.58 1635.68
-222.821 -2535.71 1636.34
-222.191 -2536.12 1636.02
-223.267 -2535.35 1636.52
-223.603 -2535.09 1636.92
-224.109 -2534.63 1637.46
-227.253 -2532.15 1643.07
-226.371 -2532.53 1641.18
-224.914 -2533.87 1639.07
-226.074 -2532.74 1640.52
-229.012 -2531.61 1645.19
-230.465 -2530.92 1646.07
-230.859 -2530.77 1646.41
-227.733 -2531.99 1643.61
-229.194 -2531.47 1645.04
-201.414 -2549.48 1636.2
-203.794 -2548.54 1637.66
-200.178 -2550.03 1635.11
-199.366 -2550.48 1634.24
-197.473 -2551.63 1633.18
-195.096 -2553.06 1631.78
-205.725 -2547.81 1637.9
-237.791 -2520.08 1635.47
-237.567 -2520.34 1635.53
-237.416 -2520.59 1635.74
-237.725 -2521.35 1637.79
-237.314 -2520.83 1636
-237.399 -2521.7 1638.02
-237.015 -2522.06 1638.23
-236.467 -2522.79 1639.28
-236.51 -2522.51 1638.53
-231.833 -2529.61 1645.45
-231.69 -2529.84 1645.63
-231.603 -2529.99 1645.81
-231.445 -2530.2 1645.98
-231.235 -2530.43 1646.07
-231.082 -2530.6 1646.25
-230.787 -2526.05 1639.16
-230.617 -2526.42 1639.56
-231.093 -2525.66 1638.78
-231.558 -2525.23 1638.4
-232.64 -2524.92 1639.45
-233.661 -2524.63 1640.37
-234.881 -2523.87 1639.98
-231.928 -2528.77 1644.52
-231.832 -2529.1 1644.76
-230.385 -2526.76 1639.82
-230.311 -2527.15 1640.31
-231.942 -2527.89 1643.67
-230.866 -2528.29 1642.66
-229.995 -2528.49 1641.63
-230.083 -2527.43 1640.36
-231.546 -2528.99 1644.27
-231.681 -2529.55 1645.08
-239.439 -2516.24 1633.75
-238.543 -2516.34 1631.82
-238.267 -2518.63 1633.85
-237.675 -2518.24 1632.03
-237.724 -2517.64 1631.43
-238.142 -2519.04 1634.19
-237.952 -2519.39 1634.47
-237.824 -2519.74 1634.89
-208.277 -2546.14 1636.67
-207.739 -2546.54 1636.7
-208.756 -2545.61 1636.35
-207.161 -2546.93 1636.65
-205.769 -2547.75 1637.23
-206.119 -2547.53 1636.79
-206.404 -2547.32 1636.44
-209.681 -2544.44 1635.19
-211.423 -2542.7 1633.69
-213.179 -2541.21 1632.65
-215.666 -2539.51 1632.65
-218.464 -2537.97 1633.5
-219.993 -2537.35 1634.75
-221.096 -2536.63 1634.79
-222.039 -2536.08 1635.29
-222.742 -2535.64 1635.69
-223.299 -2535.19 1635.77
-223.761 -2534.77 1635.79
-223.938 -2534.69 1636.36
-224.345 -2534.32 1637.06
-227.426 -2531.96 1642.8
-227.925 -2531.82 1643.45
-226.639 -2532.11 1640.61
-225.147 -2533.56 1638.64
-226.158 -2532.54 1639.89
-230.656 -2530.76 1645.88
-229.346 -2531.32 1644.86
-201.327 -2549.5 1635.44
-203.778 -2548.55 1636.99
-200.358 -2549.92 1634.32
-198.559 -2550.97 1632.91
-200.164 -2550.01 1633.52
-195.926 -2552.54 1631.3
-193.522 -2553.88 1631.41
-192.976 -2554.09 1629.76
-193.863 -2553.61 1629.67
-236.734 -2519.94 1632.91
-236.567 -2520.32 1633.42
-236.408 -2520.75 1634.11
-236.975 -2521.03 1635.81
-236.52 -2521.65 1636.45
-236.896 -2521.3 1636.26
-236.202 -2522 1636.74
-235.086 -2523.59 1639.4
-235.7 -2522.36 1636.8
-235.319 -2522.78 1637.28
-231.514 -2529.86 1645.31
-231.255 -2530.15 1645.44
-231.226 -2530.27 1645.68
-230.856 -2530.58 1645.69
-231.019 -2525.53 1638.25
-232.089 -2524.73 1637.88
-231.487 -2525.11 1637.89
-233.168 -2524.49 1639.02
-231.332 -2529.5 1644.58
-230.412 -2529.39 1643.26
-229.186 -2529.95 1642.14
-230.296 -2529.74 1643.49
-231.192 -2529.85 1644.86
-237.451 -2516.48 1629.67
-236.732 -2518.81 1630.8
-236.541 -2518.07 1629.47
-236.644 -2519.34 1631.42
-236.772 -2519.65 1632.31
-237.232 -2516.28 1628.87
-235.905 -2517.49 1627.16
-234.705 -2519.1 1626.42
-233.221 -2520.44 1624.34
-207.807 -2546.34 1636.11
-208.381 -2545.76 1635.77
-207.193 -2546.77 1636.07
-206.485 -2547.17 1635.9
-203.236 -2548.72 1636.13
-204.254 -2548.28 1636.08
-204.537 -2548.08 1635.56
-204.847 -2547.85 1635.13
-209.422 -2544.45 1634.5
-211.164 -2542.64 1632.76
-212.998 -2540.95 1631.35
-215.789 -2538.97 1630.97
-218.995 -2537.28 1632.2
-220.262 -2536.9 1633.72
-221.873 -2535.97 1634.38
-221.084 -2536.29 1633.49
-222.723 -2535.35 1634.5
-223.22 -2535.03 1634.89
-223.754 -2534.5 1634.73
-224.277 -2533.7 1633.83
-224.359 -2533.98 1635.13
-224.503 -2533.95 1635.76
-224.765 -2533.73 1636.33
-227.532 -2531.74 1642.48
-228.02 -2531.68 1643.22
-229.461 -2531.18 1644.68
-226.669 -2531.92 1639.9
-227.017 -2531.61 1640.48
-225.383 -2533.16 1637.82
-226.09 -2532.46 1639.06
-191.807 -2554.69 1630.74
-201.271 -2549.49 1634.66
-196.8 -2551.98 1630.99
-199.275 -2550.5 1632.34
-200.599 -2549.68 1632.86
-201.228 -2549.46 1633.87
-194.635 -2553.14 1629.31
-190.706 -2555.21 1628.46
-191.137 -2554.93 1627.09
-192.581 -2554.13 1626.98
-235.717 -2520.75 1632.25
-235.874 -2520.36 1631.67
-235.799 -2520.95 1633.14
-235.891 -2521.22 1634.29
-235.722 -2521.53 1634.82
-235.258 -2522.04 1635.24
-234.385 -2523.59 1638.21
-234.71 -2522.52 1635.56
-233.634 -2523.58 1636.92
-231.047 -2530.15 1645.09
-229.935 -2530.78 1644.53
-230.852 -2530.48 1645.4
-230.953 -2525.43 1637.83
-231.967 -2524.65 1637.32
-233.451 -2523.5 1636.33
-231.389 -2525.06 1637.49
-230.225 -2530 1643.71
-230.105 -2530.24 1643.87
-228.595 -2530.5 1641.99
