-387.062 -2809.92 4823.4
-387.671 -2809.55 4823.97
-382.897 -2812.98 4821.23
-383.411 -2812.6 4821.73
-384.024 -2812.16 4822.23
-382.375 -2813.56 4820.67
-382.25 -2813.4 4819.85
-381.316 -2814.6 4818.96
-380.072 -2815.77 4817.25
-380.306 -2815.88 4818.17
-379.522 -2815.72 4815.92
-379.629 -2815.93 4816.48
-379.218 -2815.6 4815.16
-379.055 -2816.11 4815.57
-374.345 -2819.02 4811.18
-374.987 -2818.62 4811.96
-375.665 -2818.06 4812.33
-377.444 -2817.01 4813.98
-373.694 -2819.63 4810.6
-372.585 -2820.8 4809.33
-373.127 -2820.23 4810.16
-371.682 -2821.94 4807.47
-371.002 -2822.76 4805.91
-370.702 -2823.08 4805.52
-370.396 -2823.55 4805.58
-365.218 -2829.97 4803.89
-365.34 -2829.75 4804.39
-365.07 -2830.42 4803.57
-365.455 -2829.53 4804.96
-364.747 -2831.82 4803.06
-364.808 -2831.82 4803.37
-364.855 -2831.95 4803.77
-365.539 -2829.48 4805.89
-364.353 -2833.82 4803.04
-364.49 -2833.93 4803.84
-364.382 -2834.07 4803.42
-364.588 -2833.84 4804.29
-364.681 -2833.29 4804.1
-367.12 -2827.14 4805.6
-367.422 -2826.75 4805.32
-368.735 -2825.39 4805.13
-370.379 -2823.63 4806.02
-369.989 -2824.11 4805.9
-363.774 -2834.41 4802.19
-363.936 -2834.39 4802.55
-364.092 -2834.42 4802.93
-362.768 -2834.78 4801.01
-362.633 -2835.31 4801.35
-362.555 -2835.8 4801.79
-362.5 -2836.47 4802.56
-362.776 -2835.95 4802.27
-363.037 -2834.72 4801.31
-363.583 -2834.41 4801.83
-363.476 -2834.8 4802.04
-363.3 -2834.74 4801.71
-363.224 -2835.09 4801.93
-362.549 -2836.76 4803.09
-362.216 -2839.24 4806.52
-362.345 -2838.08 4804.88
-361.968 -2840.06 4807.23
-362.624 -2837.92 4805.21
-362.88 -2836.68 4803.55
-362.085 -2840.72 4808.35
-362.354 -2841.12 4809.17
-362.087 -2842.19 4809.74
-361.485 -2844.41 4810.54
-361.827 -2843.84 4810.61
-361.167 -2845.21 4810.71
-360.25 -2845.53 4809.76
-357.977 -2855.4 4815.21
-357.739 -2855.49 4814.74
-357.608 -2856.96 4815.93
-357.247 -2857.64 4815.66
-356.46 -2859.52 4815.14
-355.946 -2859.79 4813.44
-355.08 -2859.62 4809.85
-356.83 -2859.06 4815.91
-357.179 -2858.5 4816.39
-352.961 -2861.06 4802.92
-351.355 -2865.75 4801.14
-351.123 -2866.7 4801.54
-350.752 -2866.51 4799.6
-350.952 -2867.49 4801.96
-346.055 -2872.53 4792.9
-347.313 -2870.64 4795.41
-346.963 -2871.81 4795.95
-346.182 -2872.94 4794.06
-345.534 -2874.18 4792.85
-345.236 -2874.4 4791.92
-344.703 -2874.78 4790.57
-341.453 -2877.39 4785.77
-341.989 -2876.96 4786.77
-342.307 -2876.56 4786.9
-343.534 -2875.74 4788.83
-340.658 -2878.24 4783.93
-340.149 -2878.64 4781.41
-341.023 -2877.93 4785.13
-344.536 -2875.16 4790.74
-339.52 -2879.37 4778.75
-339.788 -2879.07 4779.46
-338.268 -2880.5 4776.64
-336.66 -2881.9 4775.32
-334.858 -2883.65 4774
-333.811 -2884.82 4772.81
-338.705 -2880.28 4777.9
-339.103 -2879.86 4778.3
-339.378 -2879.58 4778.87
-332.42 -2886.11 4769.73
-331.853 -2886.27 4767.42
-331.448 -2886.63 4766.9
-331.541 -2886.75 4767.96
-329.206 -2889.05 4768.37
-328.338 -2890.31 4770.98
-330.694 -2887.58 4767.97
-331.507 -2887 4769.18
-391.014 -2804.81 4829.84
-391.247 -2803.24 4828.22
-391.523 -2801.54 4827.34
-391.424 -2801.68 4826.62
-393.159 -2796.45 4823.09
-393.992 -2794.67 4822.2
-389.782 -2806.99 4842.35
-390.289 -2806.47 4837.69
-389.719 -2807.78 4840.27
-390.627 -2805.93 4835.24
-390.824 -2805.3 4834.44
-390.913 -2805.24 4832.89
-390.913 -2805.43 4831.97
-390.904 -2805.48 4830.99
-390.862 -2805.53 4830.06
-394.857 -2792.89 4820.25
-395.107 -2792.31 4819.61
-395.502 -2791.25 4818
-395.586 -2790.9 4817.54
-395.314 -2791.83 4818.61
-390.622 -2804.02 4826.15
-390.928 -2803.69 4826.88
-390.201 -2806.03 4827.08
-389.882 -2806.23 4826.07
-389.559 -2806.88 4825.59
-389.331 -2807.33 4825.39
-393.889 -2794.96 4821.66
-394.234 -2794.35 4820.56
-388.357 -2808.15 4823.27
-389.162 -2807.75 4825.32
-388.953 -2808.04 4825.04
-388.723 -2808.29 4824.65
-395.466 -2791.38 4817.76
-395.169 -2792.24 4818.93
-394.796 -2793.09 4819.45
-395.067 -2792.53 4819.08
-387.871 -2808.99 4823.35
-388.185 -2808.72 4823.63
-388.46 -2808.5 4824.09
-388.012 -2809.35 4824.46
-385.65 -2811.02 4822.99
-387.195 -2810.2 4824.37
-387.586 -2809.9 4824.6
-387.978 -2809.75 4825.27
-382.656 -2813.49 4821.76
-383.053 -2813.11 4822.26
-383.536 -2812.75 4822.67
-384.128 -2812.35 4823.15
-381.337 -2814.86 4819.63
-381.397 -2815.05 4820.49
-382.321 -2813.95 4821.61
-379.963 -2816.26 4818.07
-379.73 -2816.17 4817.14
-380.384 -2816.15 4819.16
-379.155 -2816.35 4816.17
-374.025 -2819.51 4811.38
-374.625 -2819.09 4812.06
-375.385 -2818.67 4813.01
-375.843 -2818.18 4812.97
-377.46 -2817.19 4814.34
-373.489 -2820.03 4810.97
-371.487 -2822.23 4807.8
-372.401 -2821.08 4809.66
-372.903 -2820.57 4810.53
-370.766 -2823.13 4806.21
-365.159 -2830.53 4804.21
-365.282 -2830.09 4804.67
-365.4 -2829.84 4805.23
-364.912 -2831.96 4804.15
-365.478 -2829.76 4806
-364.708 -2833.58 4804.69
-364.766 -2833.53 4805.23
-364.195 -2834.56 4803.31
-364.339 -2834.5 4803.82
-364.481 -2834.34 4804.3
-364.614 -2834.15 4804.8
-367.27 -2827.03 4806.33
-367.567 -2826.68 4805.8
-368.929 -2825.27 4805.6
-370.575 -2823.43 4806.79
-370.161 -2823.95 4806.69
-363.629 -2834.87 4802.43
-363.773 -2834.86 4802.72
-363.932 -2834.83 4803.04
-364.068 -2834.94 4803.6
-363.042 -2835.31 4801.9
-362.862 -2836.08 4802.63
-363.169 -2835.57 4802.42
-363.377 -2835.24 4802.38
-363.505 -2835.22 4802.63
-362.922 -2836.23 4802.99
-362.453 -2839.06 4806.84
-362.91 -2837.68 4805.46
-362.225 -2839.95 4807.61
-363.196 -2836.47 4803.84
-363.155 -2836.11 4803.25
-362.42 -2840.32 4808.52
-362.598 -2840.77 4809.33
-362.377 -2841.81 4809.97
-362.299 -2842.9 4810.67
-361.773 -2846.75 4812.91
-361.403 -2847.68 4813.15
-361.981 -2845.73 4812.38
-360.092 -2848.11 4811.71
-358.186 -2855.1 4815.31
-358.157 -2856.64 4816.89
-357.865 -2856.92 4816.51
-353.614 -2860.56 4805.63
-353.076 -2861.27 4804.5
-357.522 -2857.83 4816.66
-356.612 -2859.86 4816.18
-355.778 -2860.78 4814.03
-355.253 -2860.65 4811.81
-354.516 -2860.42 4808.91
-353.769 -2860.93 4807.06
-357.074 -2859.23 4817.01
-357.453 -2858.54 4817.35
-352.264 -2863.87 4805.33
-352.418 -2863.84 4806.45
-351.922 -2864.21 4802.59
-351.508 -2866.22 4803.07
-351.338 -2867.12 4803.21
-351.192 -2867.78 4803.37
-350.375 -2867.43 4799.78
-350.754 -2868.06 4801.97
-350.986 -2868.22 4803.17
-347.789 -2870.43 4796.78
-347.305 -2871.79 4797.26
-346.285 -2873.25 4795.02
-346.92 -2872.62 4796.97
-345.426 -2874.65 4793.04
-345.052 -2874.81 4791.85
-341.427 -2877.59 4786.23
-342.158 -2876.99 4787.42
-343.412 -2876.05 4789.01
-343.406 -2876.27 4789.37
-344.406 -2875.55 4791
-340.519 -2878.49 4784.04
-340.066 -2878.84 4781.74
-340.858 -2878.24 4785.33
-344.939 -2875.23 4792.21
-339.804 -2879.16 4780.93
-338.086 -2880.81 4777.06
-336.369 -2882.29 4775.56
-334.87 -2883.79 4774.67
-333.498 -2885.26 4773.05
-338.794 -2880.33 4779.29
-339.152 -2879.92 4779.29
-338.388 -2880.69 4778.08
-339.491 -2879.53 4780.19
-332.352 -2886.33 4770.69
-330.037 -2888.63 4770.58
-330.145 -2888.88 4773.13
-331.333 -2887.42 4770.81
-332.205 -2886.62 4771.79
-389.467 -2807.63 4846.26
-390.814 -2805.28 4829.1
-391.09 -2803.62 4827.63
-394.731 -2793.2 4820.19
-389.349 -2808.45 4843.86
-389.195 -2809.36 4842.35
-390.185 -2806.97 4837.25
-390.556 -2806.29 4834.61
-389.338 -2808.93 4840.77
-389.664 -2808.08 4839.44
-390.785 -2805.73 4833.34
-390.817 -2805.91 4831.51
-390.786 -2805.92 4832.71
-390.766 -2806.04 4830.46
-390.661 -2805.99 4829.44
-390.479 -2805.59 4827.62
-390.598 -2805.71 4828.44
-389.845 -2806.74 4826.52
-390.044 -2806.71 4827.33
-390.298 -2806.29 4827.89
-389.62 -2807.24 4826.4
-389.439 -2807.7 4826.38
-389.21 -2808.07 4826.09
-388.97 -2808.37 4825.71
-388.717 -2808.62 4825.22
-388.246 -2809.05 4824.49
-388.472 -2808.83 4824.76
-388.26 -2809.62 4825.89
-388.298 -2809.36 4825.35
-385.714 -2811.25 4823.79
-387.256 -2810.41 4825.22
-387.728 -2810.07 4825.57
-388.131 -2809.88 4826.36
-382.691 -2813.67 4822.72
-383.09 -2813.25 4823.19
-383.619 -2812.88 4823.65
-384.171 -2812.58 4824.23
-381.359 -2815.39 4821.48
-380.501 -2816.41 4820.4
-382.225 -2814.39 4822.98
-380.012 -2816.57 4819.02
-379.617 -2816.6 4817.87
-379.274 -2816.53 4816.76
-374.003 -2819.73 4811.88
-374.628 -2819.28 4812.55
-377.249 -2817.68 4814.9
-375.277 -2818.99 4813.55
-376.785 -2818.14 4814.93
-377.912 -2817.17 4815.21
-373.315 -2820.29 4811.41
-371.348 -2822.42 4808.26
-372.246 -2821.33 4810.1
-371.145 -2822.7 4808.57
-372.699 -2820.89 4810.93
-365.231 -2830.65 4804.97
-364.952 -2832.14 4804.67
-365.343 -2830.16 4805.47
-365.416 -2830.12 4806.53
-364.679 -2834.08 4805.38
-364.815 -2833.61 4806.01
-364.732 -2834.07 4806
-364.228 -2834.84 4803.97
-364.392 -2834.78 4804.45
-364.522 -2834.66 4804.91
-364.59 -2834.6 4805.54
-367.663 -2826.67 4807.52
-367.702 -2826.6 4806.41
-368.919 -2825.33 4806.09
-370.046 -2824.12 4807.12
-370.973 -2822.94 4809.04
-363.632 -2835.32 4803.04
-363.782 -2835.25 4803.29
-363.922 -2835.18 4803.6
-364.115 -2835.26 4804.37
-363.967 -2835.46 4804.22
-363.235 -2835.7 4802.78
-363.414 -2835.63 4803.04
-363.149 -2837.48 4805.74
-362.699 -2838.86 4807.18
-362.437 -2839.69 4807.77
-363.398 -2836.32 4804.12
-363.426 -2835.91 4803.48
-362.739 -2840.13 4808.99
-362.622 -2839.65 4808.21
-362.671 -2841.21 4809.99
-362.584 -2842.35 4810.85
-362.183 -2844.55 4811.77
-362.118 -2848.55 4815.03
-361.954 -2849.66 4815.66
-361.308 -2849.33 4814.42
-361.792 -2850.59 4816.18
-362.276 -2847.59 4814.54
-360.29 -2849.88 4813.51
-360.383 -2851.92 4815.47
-358.465 -2854.98 4815.73
-358.387 -2856.14 4816.8
-358.597 -2856.83 4817.92
-357.805 -2857.78 4817.37
-358.204 -2857.43 4817.82
-352.916 -2863.29 4807.95
-352.622 -2863.66 4807.26
-356.675 -2860.15 4816.94
-356.033 -2860.86 4815.29
-355.092 -2861.94 4813.06
-354.628 -2861.63 4811
-353.644 -2862.24 4808.75
-357.248 -2859.3 4817.76
-357.651 -2858.6 4818.07
-351.876 -2865.43 4804.85
-352.191 -2865.17 4807.3
-352.32 -2865.12 4808.18
-351.537 -2867.06 4804.4
-351.365 -2867.69 4804.27
-349.91 -2868.29 4799.62
-351.195 -2868.22 4804.26
-350.393 -2868.64 4801.61
-350.726 -2868.6 4802.74
-350.916 -2868.67 4803.64
-348.924 -2868.81 4797.67
-347.821 -2871.36 4798.38
-348.898 -2869.81 4799.15
-347.175 -2872.65 4798.1
-346.164 -2873.83 4795.35
-346.4 -2873.76 4796.54
-345.604 -2874.72 4794.02
-345.243 -2875.06 4793.01
-341.243 -2877.95 4786.42
-341.874 -2877.37 4787.39
-343.293 -2876.55 4789.58
-344.328 -2875.89 4791.35
-344.24 -2876.24 4791.69
-344.845 -2875.61 4792.6
-340.053 -2879 4782.98
-340.341 -2878.79 4784.42
-340.741 -2878.49 4785.65
-345.172 -2875.38 4793.45
-336.91 -2881.96 4776.58
-334.452 -2884.37 4775.2
-335.86 -2882.97 4776.2
-333.182 -2885.72 4773.86
-338.431 -2880.74 4779.58
-339.16 -2880.03 4781.88
-339.443 -2879.7 4781.88
-339.684 -2879.42 4782.21
-337.824 -2881.28 4778.12
-331.497 -2887.61 4774.1
-388.938 -2810.14 4846.1
-388.106 -2811.89 4852.95
-388.763 -2811.19 4845.09
-388.759 -2811.29 4844.22
-389.019 -2810.03 4842.26
-390.159 -2807.19 4836.37
-390.516 -2806.5 4833.98
-389.213 -2809.32 4840.3
-389.609 -2808.31 4838.71
-390.704 -2806.24 4832.26
-390.639 -2806.4 4831.02
-390.552 -2806.46 4829.85
-390.425 -2806.41 4828.79
-389.832 -2807.17 4827.15
-390.179 -2806.84 4828.23
-389.992 -2807.18 4827.96
-389.662 -2807.59 4827.18
-389.451 -2807.99 4827.03
-389.194 -2808.35 4826.68
-388.943 -2808.66 4826.26
-388.702 -2808.93 4825.83
-388.504 -2809.14 4825.58
-388.443 -2809.64 4826.75
-388.502 -2809.39 4826.27
-385.862 -2811.42 4824.76
-387.595 -2810.36 4826.28
-387.03 -2810.83 4826.09
-387.911 -2810.14 4826.63
-388.105 -2810.1 4827.57
-388.368 -2809.85 4827.57
-382.52 -2814.24 4824.31
-382.917 -2813.83 4824.51
-383.393 -2813.45 4824.93
-383.958 -2813.12 4825.65
-385.374 -2812.05 4825.78
-381.363 -2815.85 4823.35
-380.536 -2817.15 4823.18
-380.171 -2816.91 4820.59
-380.218 -2817.75 4823.68
-382.241 -2815.01 4825.84
-379.699 -2816.92 4819.02
-378.965 -2816.88 4816.87
-379.257 -2816.97 4817.9
-373.753 -2820.07 4812.2
-374.406 -2819.61 4812.8
-378.624 -2817.28 4817.06
-375.07 -2819.39 4814.1
-377.024 -2818.31 4815.91
-373.041 -2820.67 4811.86
-371.826 -2821.89 4810.6
-372.339 -2821.38 4811.38
-365.007 -2832.19 4805.21
-365.069 -2832.13 4805.81
-365.279 -2830.81 4805.78
-365.347 -2830.45 4806.55
-364.638 -2834.66 4806.31
-364.843 -2833.78 4806.97
-364.754 -2834.27 4807.07
-364.673 -2834.65 4807.02
-364.26 -2835.18 4804.69
-364.366 -2835.2 4805.45
-364.439 -2835.2 4806.15
-364.373 -2835.71 4807.39
-368.897 -2825.37 4806.91
-369.326 -2824.86 4808.41
-370.519 -2823.5 4809.22
-363.633 -2835.73 4803.69
-363.797 -2835.64 4804
-363.957 -2835.9 4804.92
-364.102 -2835.74 4805.17
-363.779 -2836.05 4804.66
-363.383 -2837.28 4806.04
-363.584 -2836.2 4804.4
-362.86 -2838.89 4807.7
-362.901 -2840.32 4809.59
-362.856 -2839.52 4808.65
-362.772 -2841.45 4810.5
-362.766 -2842.45 4811.36
-362.382 -2844.24 4811.92
-362.404 -2846.72 4814.08
-362.551 -2850.09 4817.09
-362.471 -2850.69 4817.37
-362.339 -2851.3 4817.65
-361.482 -2851.43 4816.48
-362.175 -2851.88 4817.84
-362.692 -2849.68 4817.07
-360.281 -2853 4816.39
-361.74 -2852.47 4817.78
-358.793 -2855.11 4816.44
-358.71 -2856.1 4817.32
-358.99 -2856.77 4818.58
-358.454 -2857.65 4818.67
-357.949 -2858.24 4818.35
-353.027 -2863.94 4809.37
-352.566 -2864.72 4808.79
-356.915 -2860.04 4817.78
-355.878 -2861.37 4815.51
-356.546 -2860.78 4817.45
-354.247 -2863.04 4811.89
-353.911 -2862.88 4810.59
-357.432 -2859.35 4818.45
-357.818 -2858.94 4819.02
-351.907 -2866.04 4806.2
-352.11 -2865.84 4808.05
-352.205 -2865.8 4808.81
-352.361 -2865.49 4809.26
-351.47 -2867.6 4805.06
-351.796 -2866.68 4806.47
-349.973 -2869.21 4801.18
-351.096 -2868.59 4804.63
-351.36 -2868.1 4805.35
-350.397 -2869.09 4802.34
-350.646 -2869.05 4803.23
-350.827 -2869.04 4804.03
-347.786 -2871.93 4799.21
-348.899 -2870.31 4799.9
-347.051 -2873.11 4798.49
-346.239 -2874.19 4796.6
-345.51 -2875.01 4794.23
-341.704 -2877.69 4787.64
-341.015 -2878.34 4786.62
-343.1 -2876.83 4789.69
-344.747 -2875.94 4792.9
-344.151 -2876.52 4791.98
-344.676 -2876.15 4793.13
-345.098 -2875.64 4793.84
-340.258 -2878.98 4784.86
-345.429 -2875.27 4794.56
-334.622 -2884.3 4776.44
-336.541 -2882.44 4777.5
-332.717 -2886.41 4775.92
-337.883 -2881.32 4779.45
-338.735 -2880.52 4782.21
-340.018 -2879.28 4784.9
-339.728 -2879.62 4784.86
-387.379 -2813.56 4856.69
-387.613 -2813.17 4854.95
-388.316 -2812.86 4847.55
-388.225 -2812.4 4849.96
-387.834 -2813.3 4851.62
-387.421 -2814.25 4853.03
-388.373 -2812.91 4846.49
-388.6 -2812.01 4844.28
-388.88 -2810.49 4842.07
-390.058 -2807.48 4835.94
-390.455 -2806.77 4833.51
-389.217 -2809.28 4839.25
-388.981 -2810.07 4840.89
-389.519 -2808.57 4838.05
-390.564 -2806.64 4831.85
-390.44 -2806.85 4830.41
-390.331 -2806.86 4829.32
-389.833 -2807.54 4827.92
-390.149 -2807.19 4828.91
-390.001 -2807.53 4828.86
-389.648 -2807.92 4827.82
-389.394 -2808.28 4827.48
-389.125 -2808.7 4827.22
-388.887 -2808.98 4826.81
-388.7 -2809.2 4826.59
-388.625 -2809.5 4827.38
-387.259 -2810.86 4827.29
-387.76 -2810.46 4827.66
-385.655 -2812.15 4827.17
-387.981 -2810.39 4828.82
-388.25 -2810.11 4828.98
-388.502 -2809.79 4828.48
-382.587 -2814.83 4827.22
-382.988 -2814.37 4827.37
-383.564 -2814 4828.08
-384.253 -2813.45 4828.28
-381.945 -2815.63 4826.48
-381.174 -2816.56 4824.95
-380.479 -2818.26 4826.64
-380.109 -2818.84 4826.67
-379.776 -2817.44 4820.82
-379.692 -2818.6 4824.33
-379.634 -2819.41 4826.7
-382.404 -2815.87 4830.22
-382.073 -2816.14 4829.41
-379.288 -2817.26 4818.75
-373.395 -2820.58 4812.89
-374.161 -2820.07 4813.6
-378.684 -2817.54 4817.92
-376.518 -2818.84 4816.21
-374.437 -2820.45 4815.77
-378.183 -2818.15 4818.54
-372.649 -2821.24 4812.49
-371.242 -2822.62 4811.2
-371.896 -2821.96 4811.99
-365.06 -2832.4 4806.65
-365.231 -2831.27 4806.93
-365.277 -2831.04 4808.66
-364.302 -2836.07 4808.46
-364.75 -2834.31 4808.56
-364.51 -2835.41 4809.03
-364.374 -2835.87 4808.86
-364.206 -2835.67 4805.72
-363.996 -2836.74 4807.59
-364.051 -2836.83 4808.23
-363.932 -2837.53 4809.63
-369.779 -2824.18 4811.89
-363.554 -2837.19 4806.45
-363.732 -2836.99 4806.79
-363.847 -2836.92 4807.26
-363.16 -2838.54 4808
-363.074 -2839.8 4809.51
-362.991 -2840.72 4810.29
-363.068 -2839.15 4808.74
-362.922 -2841.58 4811.03
-362.893 -2842.68 4811.87
-362.558 -2844.32 4812.35
-362.572 -2846.41 4814.2
-362.716 -2848.79 4816.46
-362.88 -2851.06 4818.43
-363.03 -2850.91 4818.69
-362.719 -2851.52 4818.46
-362.551 -2852.09 4818.58
-362.212 -2852.64 4818.57
-363.063 -2850.29 4818.36
-361.321 -2853.32 4818.02
-359.923 -2854.18 4817.06
-361.781 -2853.17 4818.49
-359.171 -2855.98 4817.94
-360.09 -2854.79 4817.92
-359.375 -2856.67 4819.15
-358.958 -2857.53 4819.55
-358.253 -2858.33 4819.19
-353.182 -2864.16 4810.28
-352.705 -2864.97 4809.75
-357.148 -2860.03 4818.64
-356.777 -2860.61 4818.36
-355.82 -2861.71 4816.05
-354.828 -2862.74 4813.44
-356.397 -2861.25 4817.88
-353.504 -2864.16 4811.32
-357.556 -2859.71 4819.44
-358.185 -2858.86 4819.82
-352.028 -2866.33 4808.67
-351.75 -2867.02 4807.04
-352.168 -2866.16 4809.51
-352.436 -2865.74 4810.16
-349.967 -2869.63 4801.87
-351.06 -2868.78 4805.18
-351.283 -2868.37 4805.91
-351.662 -2867.41 4807.35
-350.37 -2869.46 4802.98
-350.573 -2869.4 4803.74
-350.787 -2869.22 4804.62
-348.91 -2870.68 4800.58
-347.705 -2872.24 4799.63
-346.938 -2873.44 4798.77
-346.027 -2874.64 4796.44
-341.489 -2878.05 4787.9
-342.912 -2877.09 4789.84
-340.629 -2878.77 4786.52
-345.049 -2875.85 4794.27
-343.954 -2876.78 4792.21
-344.58 -2876.35 4793.26
-344.943 -2876.07 4794.46
-345.389 -2875.45 4795.03
-345.941 -2874.86 4796.72
-336.189 -2882.86 4778.19
-333.99 -2885.15 4778.59
-337.75 -2881.54 4780.88
-338.416 -2880.94 4784.05
-339.53 -2879.9 4785.5
-340.358 -2879.12 4786.85
-386.037 -2817.11 4856.97
-386.815 -2815.7 4854.3
-387.945 -2813.94 4848.87
-388.055 -2813.91 4847.68
-387.527 -2814.83 4850.5
-388.2 -2813.66 4846.41
-388.569 -2812.03 4843.44
-388.166 -2813.7 4845.5
-388.738 -2810.94 4841.61
-389.949 -2807.76 4835.58
-390.363 -2807.07 4833.07
-388.984 -2809.95 4840
-389.17 -2809.39 4838.57
-388.728 -2810.67 4840.57
-389.519 -2808.64 4837.05
-390.394 -2807.06 4831.2
-390.223 -2807.28 4829.94
-389.819 -2807.89 4828.66
-390.023 -2807.7 4829.73
-389.587 -2808.22 4828.31
-389.345 -2808.54 4827.97
-389.016 -2809.04 4827.91
-389.231 -2808.85 4828.54
-388.806 -2809.28 4827.67
-388.678 -2809.58 4828.7
-386.063 -2812.11 4828.91
-386.954 -2811.47 4829.83
-387.459 -2811.08 4830.36
-387.758 -2810.89 4831.47
-388.514 -2809.9 4829.9
-388.128 -2810.46 4831.3
-382.917 -2815.27 4830.47
-383.547 -2814.6 4830.74
-385.014 -2813.39 4831.67
-385.587 -2812.77 4831.13
-381.181 -2817.52 4828.82
-381.262 -2816.91 4826.94
-381.003 -2818.11 4830.29
-380.161 -2819.39 4829.82
-379.523 -2820.23 4829.94
-379.181 -2817.94 4820.49
-379.172 -2819.08 4824.13
-378.69 -2820.6 4827.69
-378.933 -2820.82 4829.5
-381.882 -2817.22 4832.99
-382.644 -2816.13 4832.56
-381.119 -2818.24 4832.42
-372.574 -2821.76 4814.49
-371.655 -2822.52 4814.04
-373.23 -2821.37 4815.26
-377.311 -2819.36 4820.12
-375.836 -2819.83 4817.66
-374.916 -2821.06 4819.09
-372.619 -2822.38 4816.78
-378.475 -2818.86 4821.54
-370.927 -2823.13 4813.53
-370.304 -2823.67 4812.78
-365.01 -2832.76 4807.73
-365.178 -2831.56 4809.42
-363.96 -2837.82 4810.5
-364.66 -2834.85 4810.54
-364.415 -2836.17 4810.98
-364.07 -2837.63 4811.09
-364.123 -2837.65 4811.88
-363.391 -2838.41 4808.55
-363.55 -2838.41 4809.11
-363.605 -2838.57 4809.79
-363.629 -2838.85 4810.45
-363.253 -2839.32 4809.46
-363.157 -2840.48 4810.5
-363.019 -2841.52 4811.39
-362.975 -2842.77 4812.28
-362.718 -2844.46 4812.93
-362.723 -2846.5 4814.66
-362.922 -2849 4817.13
-362.976 -2851.74 4819.22
-362.831 -2851.95 4819.07
-363.196 -2851.16 4819.32
-363.106 -2851.7 4819.52
-362.622 -2852.37 4819.06
-362.33 -2852.88 4819.07
-361.965 -2853.54 4819.17
-363.259 -2850.51 4819.02
-361.503 -2853.89 4818.85
-360.268 -2855.31 4818.76
-360.442 -2856.16 4820.09
-360.46 -2855.74 4819.54
-358.748 -2858.15 4820.05
-360.367 -2856.6 4820.6
-352.867 -2865.06 4810.65
-357.06 -2860.52 4819.29
-356.678 -2861.08 4818.98
-355.512 -2862.28 4815.93
-354.254 -2863.59 4812.86
-356.134 -2861.69 4817.9
-353.106 -2864.94 4811.47
-357.971 -2859.51 4820.32
-357.442 -2860.26 4820.07
-358.621 -2858.74 4820.69
-351.978 -2866.66 4809.28
-352.184 -2866.32 4810.16
-352.556 -2865.7 4810.9
-350.008 -2869.96 4802.66
-350.956 -2869.04 4805.58
-351.149 -2868.65 4806.3
-351.493 -2867.97 4808.05
-351.601 -2867.66 4807.82
-350.349 -2869.78 4803.68
-350.594 -2869.57 4804.64
-348.886 -2870.94 4801.09
-347.562 -2872.55 4799.89
-348.824 -2871.22 4801.52
-346.873 -2873.62 4799.11
-341.197 -2878.43 4788.04
-342.696 -2877.38 4790.05
-345.296 -2875.68 4795.46
-344.511 -2876.53 4793.5
-343.776 -2877.02 4792.58
-344.838 -2876.26 4794.74
-345.198 -2875.87 4795.84
-345.875 -2874.99 4797.12
-335.663 -2883.48 4779.56
-336.513 -2882.76 4782.34
-338.528 -2881.1 4787.12
-336.439 -2883.01 4784.94
-340.058 -2879.51 4787.55
-340.964 -2878.76 4788.62
-385.222 -2818.88 4859.04
-385.045 -2819.84 4857.36
-385.874 -2818.3 4854.73
-386.499 -2816.99 4853.46
-387.189 -2815.77 4851.12
-387.691 -2814.82 4848.87
-387.826 -2814.71 4847.69
-387.923 -2814.62 4846.67
-388.395 -2812.44 4843.12
-388.002 -2814.06 4844.83
-387.894 -2814.61 4845.89
-388.524 -2811.43 4841.22
-390.031 -2807.72 4833.84
-390.326 -2807.25 4832.11
-388.814 -2810.3 4839.67
-389.041 -2809.71 4838.48
-388.477 -2811.15 4840.05
-389.28 -2809.16 4837
-389.746 -2808.25 4834.77
-390.196 -2807.5 4830.81
-389.799 -2808.11 4829.48
-390.004 -2807.92 4830.63
-389.517 -2808.49 4829.06
-388.897 -2809.35 4828.94
-389.133 -2809.11 4829.35
-389.423 -2808.75 4829.74
-388.818 -2809.56 4830.11
-386.413 -2812.24 4832.37
-387.027 -2811.73 4832.82
-387.123 -2811.74 4833.8
-387.597 -2811.26 4833.99
-388.236 -2810.42 4832.53
-388.544 -2810.04 4832.41
-383.391 -2815.26 4832.52
-385.137 -2813.55 4832.91
-386.395 -2812.42 4833.54
-379.526 -2820.68 4832.87
-378.279 -2822.13 4832.12
-377.745 -2820.59 4824.84
-377.807 -2821.22 4827.02
-377.623 -2822.28 4830.18
-376.471 -2822.72 4828.08
-381.801 -2817.91 4834.82
-380.299 -2820.08 4835.18
-383.022 -2816.2 4834.15
-371.25 -2823.39 4815.94
-376.621 -2820.81 4822.71
-364.975 -2832.74 4809.71
-364.858 -2833.68 4811.64
-363.554 -2839.54 4811.18
-363.648 -2839.48 4811.89
-364.212 -2837.99 4814.73
-363.68 -2839.72 4813.02
-363.331 -2839.63 4810.16
-363.401 -2839.95 4810.89
-363.225 -2840.73 4811.14
-363.086 -2841.75 4811.91
-363.02 -2842.94 4812.77
-362.857 -2844.3 4813.35
-362.827 -2846.31 4814.9
-363.037 -2848.88 4817.39
-362.982 -2852.4 4819.88
-362.766 -2852.61 4819.66
-363.273 -2851.6 4819.91
-363.129 -2852.18 4820.06
-362.526 -2852.95 4819.57
-362.215 -2853.55 4819.64
-361.534 -2854.46 4819.58
-361.872 -2854.27 4819.9
-363.335 -2850.19 4819.09
-363.401 -2851.25 4820
-361.508 -2855.11 4820.36
-360.203 -2857.09 4821.1
-361.433 -2855.71 4821.12
-356.997 -2860.94 4819.96
-356.435 -2861.53 4819.07
-355.273 -2862.74 4815.97
-354.037 -2864.01 4813.01
-355.884 -2862.15 4818.04
-352.981 -2865.21 4811.81
-358.172 -2859.68 4821.19
-357.522 -2860.45 4820.76
-359.639 -2858.22 4821.99
-360.15 -2857.43 4821.61
-351.93 -2866.93 4809.83
-352.198 -2866.42 4810.66
-352.484 -2865.92 4811.37
-349.898 -2870.3 4803.21
-351.012 -2868.94 4806.67
-350.79 -2869.36 4805.64
-351.376 -2868.23 4808.33
-351.828 -2867.2 4810.16
-350.197 -2870.12 4804.16
-350.469 -2869.84 4804.94
-347.487 -2872.77 4800.24
-348.669 -2871.56 4801.79
-346.792 -2873.74 4799.51
-342.555 -2877.64 4790.56
-345.836 -2875.09 4797.59
-344.395 -2876.71 4793.8
-343.674 -2877.21 4793.08
-344.728 -2876.45 4795.05
-345.101 -2876.03 4796.16
-345.865 -2875.08 4798.23
-339.553 -2880.18 4788.85
-338.068 -2881.95 4791.09
-340.628 -2879.17 4789.28
-342.325 -2877.96 4791.01
-384.774 -2819.92 4860.71
-384.475 -2821.11 4859.33
-385.04 -2820.06 4856.49
-384.464 -2821.33 4858.38
-386.001 -2818.36 4853.32
-386.786 -2816.86 4851.44
-387.36 -2815.68 4849.74
-387.489 -2815.64 4848.56
-387.594 -2815.48 4847.54
-388.177 -2812.94 4842.86
-387.744 -2814.86 4845.31
-387.796 -2814.32 4844.13
-387.673 -2815.29 4846.49
-388.256 -2812 4841.06
-390.092 -2807.76 4832.07
-388.662 -2810.53 4839.05
-388.875 -2809.99 4838.11
-388.339 -2811.19 4839.17
-388.095 -2811.93 4839.99
-389.135 -2809.4 4836.54
-389.625 -2808.51 4834.29
-389.74 -2808.33 4830.28
-389.867 -2808.18 4831.74
-389.103 -2809.25 4830.5
-389.38 -2808.91 4830.81
-389.634 -2808.54 4831.25
-388.797 -2809.75 4832.81
-386.849 -2812.15 4834.55
-387.314 -2811.65 4834.75
-387.794 -2811.15 4834.95
-388.178 -2810.7 4834.96
-384.907 -2813.99 4833.6
-384.469 -2814.66 4834.24
-386.364 -2812.71 4834.51
-378.587 -2822.63 4835.58
-377.049 -2824.05 4833.58
-376.192 -2822.24 4825.68
-375.69 -2821.87 4823.3
-381.921 -2818.24 4836.06
-380.358 -2820.66 4837.18
-384.066 -2815.5 4835.3
-363.471 -2840.53 4812.26
-363.381 -2840.62 4811.87
-363.524 -2840.55 4812.97
-363.717 -2839.67 4814.37
-363.525 -2840.66 4813.96
-363.238 -2840.99 4811.74
-363.173 -2841.76 4812.33
-363.091 -2842.87 4813.15
-362.988 -2844.27 4813.91
-362.925 -2845.94 4815.03
-363.084 -2848.41 4817.25
-363.06 -2852.77 4820.6
-362.885 -2852.98 4820.42
-362.67 -2853.24 4820.26
-363.221 -2852.09 4820.35
-363.339 -2851.8 4820.48
-363.146 -2852.57 4820.67
-362.414 -2853.62 4820.15
-362.144 -2854.21 4820.33
-361.82 -2854.9 4820.65
-363.372 -2849.78 4819
-363.495 -2850.89 4820.1
-363.456 -2851.55 4820.66
-361.805 -2855.31 4821.27
-361.402 -2856.17 4821.9
-356.454 -2861.7 4819.67
-357.078 -2861.1 4820.68
-354.593 -2863.65 4815.01
-353.752 -2864.43 4813.09
-355.957 -2862.28 4819.11
-355.439 -2862.74 4817.42
-352.924 -2865.39 4812.21
-359.203 -2859.02 4822.53
-357.809 -2860.38 4821.54
-360.967 -2857.06 4822.68
-352.102 -2866.63 4811.05
-352.372 -2866.17 4811.76
-349.688 -2870.67 4803.52
-351.233 -2868.48 4808.52
-350.859 -2869.22 4806.93
-351.182 -2868.51 4809.24
-350.645 -2869.64 4805.86
-351.709 -2867.47 4810.48
-349.784 -2870.67 4804.12
-350.162 -2870.29 4804.92
-347.446 -2872.9 4800.63
-348.638 -2871.7 4802.2
-346.754 -2873.8 4799.99
-344.277 -2876.87 4794.29
-343.218 -2877.6 4793.14
-343.808 -2877.24 4794.08
-344.655 -2876.59 4795.49
-345.022 -2876.16 4796.54
-345.82 -2875.12 4798.8
-346.939 -2873.63 4800.79
-340.241 -2879.72 4790.61
-338.992 -2881.07 4792
-341.792 -2878.48 4791.21
-383.967 -2822.56 4862.26
-383.949 -2822.65 4861.2
-384.937 -2820.39 4856.25
-384.347 -2821.74 4858
-383.901 -2822.81 4860.49
-385.648 -2819.18 4853.57
-386.589 -2817.51 4850.86
-386.98 -2816.67 4850.1
-387.181 -2816.45 4848.74
-387.307 -2816.2 4847.72
-387.916 -2813.31 4842.27
-387.553 -2815.34 4845.37
-387.473 -2815.83 4846.6
-387.542 -2814.86 4844.13
-388.447 -2810.77 4838.24
-388.81 -2810.03 4837.33
-388.007 -2811.66 4838.8
-387.794 -2812.35 4839.54
-387.725 -2813.44 4841.74
-389.007 -2809.6 4835.93
-389.501 -2808.75 4833.71
-389.064 -2809.41 4833.1
-389.288 -2809.1 4833.43
-388.568 -2810.25 4835.25
-387.021 -2812.17 4835.46
-386.699 -2812.63 4835.51
-387.42 -2811.67 4835.52
-387.731 -2811.4 4835.99
-388.169 -2810.83 4835.89
-386.077 -2813.23 4835.21
-385.669 -2813.89 4835.76
-378.1 -2823.84 4837.89
-379.571 -2822.25 4838.8
-376.689 -2825.17 4835.71
-374.833 -2823.43 4824.85
-381.894 -2818.85 4837.29
-380.734 -2820.55 4838.21
-383.998 -2816.19 4836.57
-385.356 -2814.65 4836.58
-363.358 -2841.31 4812.95
-363.282 -2841.41 4812.48
-363.403 -2841.29 4813.61
-363.566 -2840.47 4814.88
-363.446 -2841.22 4814.58
-363.195 -2842.42 4813.27
-363.079 -2843.93 4814.12
-363.034 -2846.04 4815.57
-363.134 -2848.01 4817.17
-362.971 -2853.37 4821.19
-363.109 -2853.15 4821.34
-362.727 -2853.64 4820.94
-362.443 -2854.01 4820.74
-363.237 -2852.33 4820.74
-363.351 -2852.06 4820.9
-363.192 -2852.91 4821.36
-362.123 -2854.63 4820.93
-363.489 -2849.96 4819.51
-363.311 -2848.64 4818.15
-363.585 -2850.74 4820.4
-363.56 -2851.37 4820.91
-363.467 -2851.84 4821.13
-361.988 -2855.32 4821.69
-361.703 -2856.04 4822.39
-356.56 -2861.81 4820.44
-357.265 -2861.12 4821.41
-354.247 -2864.13 4815.04
-353.324 -2865.01 4813.13
-355.883 -2862.53 4819.74
-355.298 -2863 4817.79
-352.7 -2865.78 4812.43
-360.337 -2858.14 4823.63
-358.857 -2859.68 4823.11
-361.182 -2857.01 4823.33
-351.97 -2866.86 4811.42
-352.177 -2866.53 4812.08
-350.683 -2869.5 4807.13
-350.996 -2868.8 4809.35
-351.679 -2867.45 4811.32
-350.419 -2870.01 4805.8
-349.619 -2870.96 4804.43
-348.706 -2871.73 4802.73
-349.936 -2870.64 4805.27
-347.513 -2872.93 4801.14
-344.23 -2876.97 4795
-343.264 -2877.7 4794.11
-342.003 -2878.51 4792.43
-343.937 -2877.23 4795.12
-344.569 -2876.7 4795.99
-344.953 -2876.25 4796.99
-345.703 -2875.24 4799.28
-346.815 -2873.77 4801.31
-348.262 -2872.32 4803.01
-348.63 -2871.91 4803.09
-341.548 -2878.98 4793.13
-339.803 -2880.36 4792.81
-383.339 -2824.57 4864.61
-383.345 -2824.53 4863.47
-384.755 -2820.88 4856.2
-384.183 -2822.2 4857.94
-383.681 -2823.41 4860.63
-385.296 -2819.95 4854.06
-386.23 -2818.28 4851.21
-386.906 -2817.08 4848.92
-387.055 -2816.79 4847.55
-387.316 -2815.85 4845.44
-387.221 -2816.36 4846.5
-387.339 -2815.16 4843.91
-388.476 -2810.56 4837.23
-388.041 -2811.37 4837.89
-388.772 -2810 4836.01
-387.635 -2812.19 4838.48
-387.472 -2812.85 4839.36
-387.478 -2813.83 4841.56
-388.39 -2810.59 4836.54
-387.182 -2812.17 4836.32
-386.858 -2812.68 4836.4
-386.427 -2813.21 4836.26
-387.481 -2811.87 4836.75
-387.919 -2811.26 4836.58
-386.028 -2813.95 4836.83
-378.383 -2824.11 4840.74
-377.266 -2825.39 4840.55
-376.486 -2825.97 4838.31
-380.383 -2821.6 4839.94
-379.249 -2823.31 4841.56
-374.436 -2824.05 4825.01
-374.156 -2823.52 4822.95
-373.977 -2823.15 4821.67
-383.72 -2817.63 4838.68
-382.814 -2818.87 4839.34
-381.269 -2820.31 4839.19
-384.899 -2816.36 4838.8
-385.656 -2815.37 4838.68
-363.273 -2842.13 4813.66
-363.345 -2841.86 4814.33
-363.457 -2841.03 4816.05
-363.413 -2841.08 4817.86
-363.36 -2841.86 4815.25
-363.166 -2843.16 4814.01
-363.125 -2844.38 4814.9
-363.117 -2845.62 4815.64
-363.271 -2847.89 4817.64
-362.793 -2853.9 4821.51
-362.965 -2853.66 4821.81
-363.103 -2853.44 4822.08
-362.58 -2854.12 4821.23
-362.301 -2854.66 4821.38
-363.274 -2852.6 4821.28
-363.365 -2852.31 4821.27
-363.213 -2853.15 4822.09
-363.547 -2849.68 4819.59
-363.649 -2851.18 4821.16
-363.655 -2850.5 4820.55
-363.576 -2851.68 4821.42
-363.478 -2852.07 4821.48
-362.208 -2855.22 4822.12
-361.796 -2856.09 4822.98
-356.661 -2861.91 4821.36
-357.539 -2860.98 4822.13
-354.062 -2864.42 4815.43
-353.137 -2865.36 4813.56
-352.577 -2866.02 4812.72
-355.766 -2862.8 4820.29
-355.087 -2863.35 4818.12
-360.69 -2858.01 4824.39
-359.94 -2859 4824.63
-358.755 -2860.1 4823.93
-361.341 -2857.02 4824.03
-352.004 -2866.84 4812.41
-350.776 -2869.15 4809.35
-350.489 -2869.83 4807.06
-351.459 -2867.77 4811.71
-350.182 -2870.35 4806.13
-349.439 -2871.22 4804.87
-349.785 -2870.88 4805.93
-343.313 -2877.76 4795.16
-341.373 -2879.27 4794.66
-343.857 -2877.32 4796.3
-344.349 -2876.9 4796.29
-344.83 -2876.4 4797.35
-345.536 -2875.42 4799.62
-346.601 -2874.01 4801.76
-348.06 -2872.54 4803.4
-349.225 -2871.48 4805.26
-341.551 -2879.25 4796.28
-382.682 -2826.59 4867.45
-382.542 -2827.05 4868.42
-382.79 -2826.21 4866.35
-382.712 -2826.3 4865.7
-383.12 -2825.08 4863.53
-384.521 -2821.49 4856.15
-383.924 -2822.81 4858.19
-383.568 -2823.66 4860.12
-383.067 -2825.12 4862.89
-384.99 -2820.57 4854.39
-385.917 -2818.97 4851.34
-386.656 -2817.61 4849.25
-386.792 -2817.31 4847.47
-387.112 -2816.12 4845.12
-386.905 -2816.91 4846.41
-387.115 -2815.49 4843.73
-388.007 -2811.25 4837.13
-387.542 -2812.03 4837.58
-387.321 -2812.66 4838.31
-387.207 -2814.3 4841.52
-386.987 -2814.46 4841.05
-387.096 -2813.38 4839.1
-387.204 -2812.51 4837.4
-386.938 -2812.86 4837.22
-386.527 -2813.38 4837.06
-386.165 -2814.29 4837.92
-378.4 -2824.81 4843.79
-377.559 -2825.61 4842.96
-381.212 -2821.05 4840.96
-380.02 -2822.66 4842.31
-379.24 -2824.18 4844.83
-374.251 -2825.46 4827.79
-374.416 -2824.6 4826.32
-373.945 -2824.47 4824.27
-373.84 -2824.01 4823.01
-373.573 -2823.66 4821.59
-384.861 -2817.62 4841.38
-384.486 -2818.24 4841.89
-382.953 -2819.44 4841.11
-385.32 -2817.01 4841.29
-385.859 -2815.98 4840.55
-372.931 -2823.85 4820.42
-363.244 -2842.68 4814.42
-363.274 -2842.56 4815.12
-363.37 -2841.43 4817.06
-363.31 -2842.4 4815.99
-363.337 -2841.77 4817.17
-363.157 -2843.67 4814.71
-363.198 -2845.93 4816.32
-363.176 -2844.84 4815.72
-363.314 -2847.72 4817.77
-363.563 -2849.29 4819.55
-362.772 -2854.16 4822.11
-362.54 -2854.55 4821.89
-362.907 -2853.97 4822.44
-363.079 -2853.66 4822.69
-363.305 -2852.84 4821.98
-363.4 -2852.49 4821.83
-363.222 -2853.36 4822.82
-363.692 -2850.09 4820.49
-363.654 -2851.52 4821.81
-363.709 -2850.87 4821.31
-363.532 -2852.01 4821.96
-362.268 -2855.33 4822.73
-361.888 -2856.16 4823.62
-356.395 -2862.33 4821.89
-357.137 -2861.57 4822.43
-353.805 -2864.8 4815.95
-353.031 -2865.61 4814.1
-352.479 -2866.23 4813.14
-355.356 -2863.34 4820.6
-354.769 -2863.8 4818.45
-360.868 -2858.02 4825.32
-360.371 -2858.78 4825.68
-359.771 -2859.52 4825.72
-358.288 -2860.69 4824.15
-361.435 -2857.08 4824.92
-351.861 -2867.07 4813
-350.405 -2869.85 4808.3
-351.324 -2867.95 4812.22
-350.727 -2869.06 4810.68
-350.179 -2870.3 4807.07
-349.889 -2870.72 4807.04
-349.483 -2871.24 4806.48
-342.292 -2878.7 4797.42
-342.929 -2878.1 4798.43
-344.378 -2876.78 4798.05
-345.09 -2875.9 4799.68
-346.237 -2874.39 4802.36
-347.952 -2872.69 4803.98
-348.973 -2871.77 4806
-343.296 -2877.65 4799.93
-382.375 -2827.58 4869.27
-382.323 -2827.69 4869.93
-382.151 -2828.56 4868.47
-382.313 -2827.85 4867.86
-382.12 -2828.75 4868.98
-382.395 -2827.51 4867.29
-382.581 -2826.5 4865.04
-382.431 -2827.29 4866.56
-384.287 -2822.02 4856.16
-383.607 -2823.48 4858.45
-383.253 -2824.47 4860.88
-382.723 -2825.92 4863.33
-385.585 -2819.63 4851.68
-384.735 -2821.07 4854.4
-386.382 -2818.19 4849.45
-386.51 -2817.87 4847.96
-386.804 -2816.91 4845.84
-386.84 -2816.48 4844.84
-386.473 -2817.71 4846.83
-386.859 -2815.8 4843.44
-386.979 -2813.17 4838.16
-386.698 -2815.02 4841.19
-386.642 -2814.2 4839.24
-386.573 -2813.67 4837.9
-386.297 -2815.11 4839.99
-378.79 -2825.13 4846.33
-378.126 -2825.67 4845.4
-382.861 -2820.11 4842.87
-380.789 -2822.16 4843.26
-380.04 -2823.73 4846.12
-379.67 -2824.68 4848.01
-372.959 -2829.04 4831.05
-373.357 -2828.13 4830.42
-373.796 -2826.74 4829.03
-373.747 -2825.66 4826.16
-373.935 -2825.01 4825.41
-373.556 -2825 4823.99
-373.337 -2824.86 4823.05
-373.475 -2824.23 4822.36
-373.1 -2824.24 4821.41
-385.349 -2817.74 4843.09
-385.112 -2818.23 4843.67
-384.581 -2818.98 4844.27
-385.67 -2817.19 4842.76
-386.015 -2816.62 4842.5
-372.373 -2824.59 4820.43
-363.195 -2843.54 4815.14
-363.237 -2843.23 4815.79
-363.258 -2843.15 4816.57
-363.298 -2842.38 4818.11
-363.31 -2842.07 4818.1
-363.191 -2844.69 4815.95
-363.263 -2846.18 4816.95
-363.431 -2848.08 4818.5
-363.668 -2849.38 4820.06
-362.602 -2854.71 4822.64
-362.758 -2854.59 4823.11
-362.931 -2854.21 4823.23
-363.063 -2853.91 4823.45
-363.322 -2853.02 4822.78
-363.438 -2852.52 4822.5
-363.121 -2853.77 4823.87
-363.744 -2850.14 4820.95
-363.725 -2851.23 4822.1
-363.638 -2851.69 4822.36
-363.761 -2850.73 4821.63
-363.541 -2852.14 4822.63
-362.356 -2855.38 4823.33
-361.931 -2856.24 4824.45
-356.909 -2861.96 4823.09
-355.967 -2862.9 4822.3
-353.478 -2865.24 4816.59
-352.886 -2865.84 4814.57
-352.257 -2866.55 4813.74
-354.259 -2864.44 4818.75
-354.874 -2863.94 4820.87
-361.027 -2858.05 4826.48
-360.696 -2858.61 4826.86
-360.263 -2859.2 4826.99
-359.301 -2860.12 4826.12
-359.885 -2859.72 4827.3
-358.051 -2861.12 4824.89
-361.463 -2857.27 4826.06
-351.437 -2867.7 4813.3
-350.079 -2870.3 4808.65
-350.586 -2869.2 4811.3
-349.643 -2870.99 4807.91
-349.133 -2871.58 4807.69
-345.234 -2875.5 4801.85
-347.706 -2872.94 4804.67
-347.027 -2873.57 4804.91
-348.529 -2872.21 4806.95
-382.25 -2827.75 4870.86
-381.823 -2830.21 4870.2
-381.833 -2830.02 4870.63
-381.994 -2829.25 4868.5
-381.675 -2830.99 4870.09
-381.666 -2831.06 4869.82
-382.018 -2829.02 4868
-381.648 -2831.05 4870.47
-382.113 -2828.45 4867.32
-382.375 -2827 4865
-382.31 -2827.49 4866.12
-382.119 -2828.29 4866.78
-384.124 -2822.29 4855.84
-383.381 -2823.9 4858.44
-382.913 -2825.25 4861.58
-382.438 -2826.6 4863.66
-384.86 -2820.87 4853.37
-385.835 -2819.19 4850.21
-386.107 -2818.64 4848.82
-386.483 -2817.39 4845.79
-386.532 -2816.93 4844.79
-386.216 -2818.19 4847.32
-386.599 -2816.2 4843.4
-386.35 -2815.95 4842.07
-383.78 -2820.3 4845.93
-382.259 -2821.35 4844.96
-381.756 -2822.61 4847.52
-381.147 -2823.84 4849.73
-380.803 -2824.77 4851.39
-380.3 -2825.71 4852.73
-372.079 -2830.23 4830.14
-372.464 -2829.4 4829.58
-371.406 -2831.44 4830.92
-373.336 -2827.45 4828.7
-372.462 -2829.17 4828.75
-373.442 -2826.44 4826.65
-373.192 -2826.25 4825.12
-373.412 -2825.53 4824.55
-373.054 -2825.56 4823.39
-372.939 -2824.92 4822.09
-372.682 -2825.68 4822.51
-372.498 -2825.03 4821.23
-385.748 -2817.83 4844.47
-385.525 -2818.35 4845.2
-384.958 -2819.12 4845.7
-384.182 -2820.32 4846.99
-386.028 -2817.29 4844.01
-386.338 -2816.82 4843.85
-371.737 -2825.43 4820.4
-370.373 -2825.85 4818.9
-370.326 -2826.19 4819.25
-363.201 -2844.34 4816.02
-363.213 -2844.09 4816.46
-363.281 -2842.73 4818.59
-363.224 -2843.89 4817.2
-363.26 -2845.68 4817.03
-363.506 -2848.08 4818.89
-363.728 -2849.16 4820.33
-363.765 -2849.75 4820.87
-362.609 -2855 4824.17
-362.366 -2855.48 4824.07
-362.846 -2854.5 4824.24
-362.827 -2854.55 4825.02
-363.193 -2853.51 4824.06
-363.347 -2853.02 4823.58
-363.462 -2852.62 4823.36
-362.916 -2854.26 4825.33
-363.808 -2850.31 4821.62
-363.736 -2851.34 4822.7
-363.784 -2850.86 4822.23
-363.646 -2851.78 4822.93
-363.562 -2852.26 4823.42
-361.919 -2856.35 4825.46
-356.621 -2862.4 4823.89
-355.375 -2863.59 4822.78
-353.06 -2865.73 4817.06
-352.645 -2866.15 4815.24
-351.993 -2866.91 4814.35
-353.633 -2865.18 4819.15
-354.261 -2864.61 4821.29
-361.167 -2858.12 4828.1
-360.961 -2858.49 4828.58
-360.678 -2858.9 4828.64
-360.331 -2859.35 4828.86
-359.278 -2860.32 4827.17
-359.884 -2859.87 4828.82
-358.119 -2861.28 4826.13
-361.482 -2857.5 4827.52
-351.096 -2868.09 4813.98
-350.362 -2869.41 4812.06
-349.744 -2870.61 4809.9
-344.871 -2875.61 4805.17
-347.433 -2873.12 4809.06
-381.77 -2828.22 4873.75
-381.228 -2828.96 4875.31
-381.995 -2828.23 4872.28
-381.829 -2829.68 4871.29
-381.381 -2831.98 4871.82
-381.316 -2832.52 4871.82
-381.326 -2831.95 4872.25
-381.65 -2831.15 4869.57
-381.392 -2832.55 4870.99
-381.34 -2832.65 4871.43
-381.868 -2829.65 4868.15
-381.902 -2829.29 4867.65
-382.137 -2827.54 4865.06
-382.077 -2827.95 4865.86
-381.969 -2828.52 4866.47
-381.858 -2829.23 4867.32
-383.551 -2823.45 4857.11
-384.187 -2822.03 4854.49
-382.848 -2825.18 4860.53
-382.403 -2826.45 4862.78
-382.075 -2827.43 4864.32
-385.185 -2820.31 4851.58
-385.71 -2819.29 4849.2
-386.188 -2817.88 4846.01
-386.163 -2817.52 4845
-385.911 -2818.72 4847.75
-379.514 -2826.6 4852.9
-382.997 -2822.04 4849.02
-382.236 -2823.54 4851.63
-381.778 -2824.55 4853.44
-380.609 -2826.43 4855.47
-370.032 -2833.67 4831.54
-371.225 -2831.44 4828.44
-370.674 -2832.48 4828.69
-371.054 -2831.57 4827.24
-370.234 -2833.29 4829.2
-372.635 -2828.54 4827.86
-372.899 -2827.6 4826.79
-371.149 -2831.22 4826.56
-372.742 -2827.35 4825.49
-372.536 -2827.25 4824.49
-372.887 -2826.24 4823.98
-372.606 -2826.3 4823.18
-372.311 -2825.72 4821.72
-372.218 -2826.45 4822.41
-371.752 -2825.84 4820.92
-385.587 -2818.7 4846.39
-385.899 -2818.01 4845.42
-385.157 -2819.22 4846.56
-384.517 -2820.29 4847.76
-383.559 -2821.74 4849.66
-370.273 -2826.51 4819.55
-363.261 -2845.23 4817.13
-363.271 -2845.01 4817.47
-364.077 -2842.87 4825.76
-364.464 -2842.91 4827.51
-363.276 -2843.1 4819.09
-363.264 -2843.68 4819.04
-363.278 -2844.83 4818.11
-368.139 -2829.18 4818.83
-367.722 -2829.64 4818.54
-367.42 -2830.28 4818.52
-370 -2826.9 4819.57
-363.459 -2847.33 4818.56
-363.715 -2848.69 4820.17
-363.83 -2849.84 4821.49
-363.82 -2849.32 4821.18
-362.522 -2855.22 4825.24
-362.126 -2856.02 4825.68
-362.253 -2855.83 4827.04
-362.369 -2855.53 4827.47
-363.046 -2853.82 4825.28
-363.197 -2853.35 4825
-363.334 -2852.92 4824.82
-362.522 -2855.12 4827.65
-363.839 -2850.47 4822.24
-363.748 -2851.42 4823.29
-363.799 -2850.96 4822.85
-363.642 -2851.9 4823.7
-363.439 -2852.51 4824.92
-356.047 -2863.09 4824.77
-354.18 -2864.88 4824.37
-352.047 -2866.83 4818.64
-352.08 -2866.79 4816.3
-351.606 -2867.36 4815.22
-353.076 -2865.86 4822.42
-361.363 -2858.05 4830.28
-361.264 -2858.34 4831.66
-361.022 -2858.7 4831.5
-360.734 -2859.07 4831.46
-360.396 -2859.47 4831.17
-359.28 -2860.47 4828.54
-359.965 -2859.93 4830.8
-357.704 -2861.79 4827.16
-361.665 -2857.3 4828.74
-361.581 -2857.78 4831.09
-350.634 -2868.61 4814.9
-379.839 -2830.29 4879.41
-380.407 -2829.79 4877.66
-381.387 -2830.36 4873.22
-381.071 -2830.65 4874.31
-380.76 -2830.92 4875.33
-380.33 -2831.42 4876.45
-381.433 -2830.78 4872.59
-381.208 -2831.96 4872.82
-378.869 -2832.16 4880.68
-381.133 -2832.75 4872.57
-381.237 -2833.08 4871.81
-381.17 -2833.12 4872.18
-381.011 -2832.63 4873.12
-381.579 -2831.57 4869.6
-381.35 -2832.82 4870.8
-381.248 -2833.15 4871.23
-381.207 -2833.27 4871.49
-381.601 -2831.06 4868.9
-381.652 -2830.04 4867.9
-381.845 -2828.3 4865.41
-381.797 -2828.73 4866.17
-381.783 -2829.27 4867.05
-381.542 -2830.12 4867.6
-383.479 -2823.44 4856.36
-382.82 -2824.98 4859.16
-383.96 -2822.33 4854.21
-384.75 -2821 4852.16
-382.298 -2826.39 4861.93
-381.935 -2827.46 4863.74
-381.804 -2828.07 4864.68
-385.205 -2820.1 4849.94
-385.898 -2818.44 4846.65
-385.482 -2819.4 4848.32
-379.091 -2828.03 4855.41
-382.837 -2823.13 4852.21
-382.294 -2824.31 4854.31
-381.525 -2826.07 4857.19
-379.93 -2828.03 4858.25
-367.617 -2837.31 4829.63
-368.975 -2835.29 4829.4
-370.157 -2833.19 4826.84
-369.726 -2833.92 4826.62
-369.539 -2834.32 4827.36
-370.179 -2833.01 4826.16
-371.577 -2830.25 4826.32
-371.709 -2829.69 4825.73
-370.341 -2832.53 4825.59
-371.661 -2829.43 4825
-371.957 -2828.31 4824.3
-372.356 -2827.12 4823.74
-372.194 -2827.01 4823.08
-371.956 -2826.22 4821.65
-371.799 -2826.93 4822.16
-371.84 -2827.4 4822.76
-371.391 -2826.43 4821
-385.331 -2819.46 4847.85
-384.892 -2820.04 4848.15
-383.942 -2821.56 4850.3
-363.462 -2846.97 4818.73
-363.482 -2846.76 4819.04
-364.915 -2842.95 4829.5
-365.489 -2842.5 4831.48
-364.145 -2843.42 4826.28
-364.706 -2844.38 4829.44
-365.026 -2844.39 4830.9
-363.317 -2844.02 4820.01
-363.484 -2846.39 4819.48
-369.737 -2827.26 4819.56
-369.208 -2828.08 4819.52
-369.501 -2827.62 4819.56
-369.254 -2828.57 4819.89
-366.994 -2832.22 4818.93
-366.668 -2832.29 4818.49
-368.682 -2830.07 4820.05
-369.137 -2829.28 4820.17
-367.977 -2831.22 4819.77
-367.38 -2832.16 4819.47
-370.972 -2827.01 4820.99
-363.757 -2848.55 4820.59
-363.877 -2850.17 4822.46
-363.885 -2849.71 4822.16
-363.867 -2849.14 4821.68
-362.022 -2856.37 4826.98
-362.027 -2856.71 4830.57
-361.855 -2857.08 4830.27
-362.158 -2856.23 4830.42
-362.76 -2854.42 4827.48
-362.919 -2853.87 4827.46
-363.033 -2853.39 4827.71
-362.295 -2855.67 4829.87
-363.847 -2850.59 4823.03
-363.789 -2851.03 4823.83
-363.678 -2851.51 4824.51
-363.531 -2852.1 4825
-363.229 -2852.63 4827.55
-355.325 -2863.95 4826.48
-350.513 -2868.58 4816.94
-361.719 -2857.89 4833.86
-361.576 -2858.28 4835.25
-361.973 -2857.82 4836.12
-361.389 -2858.54 4835.41
-361.079 -2858.89 4835
-360.657 -2859.35 4834.22
-359.544 -2860.39 4831.05
-358.683 -2861.09 4829.31
-360.255 -2859.77 4834.08
-356.727 -2862.86 4829.13
-361.887 -2857.41 4832.76
-362.044 -2857.49 4834.86
-379.9 -2831.9 4877.43
-379.49 -2832.33 4878.36
-380.777 -2832.33 4874.23
-380.538 -2832.49 4875.03
-380.328 -2832.83 4875.5
-380.894 -2832.45 4873.7
-378.291 -2833.74 4880.93
-379.254 -2833.41 4878.19
-381.023 -2833.12 4872.75
-381.178 -2833.38 4871.72
-381.145 -2833.42 4872.02
-380.867 -2832.92 4873.47
-381.297 -2833.1 4870.59
-381.374 -2832.86 4870.24
-381.211 -2833.36 4870.89
-381.165 -2833.51 4871.14
-381.143 -2833.59 4871.38
-381.47 -2831.63 4869.06
-381.384 -2831.77 4868.9
-381.599 -2828.75 4865.34
-381.624 -2829.04 4866.07
-381.672 -2829.43 4866.86
-381.426 -2830.24 4867.35
-381.287 -2831.93 4868.75
-382.799 -2824.67 4857.51
-383.49 -2823.08 4854.83
-382.211 -2826.21 4860.71
-384.207 -2821.77 4852.64
-381.988 -2827.09 4862.66
-381.55 -2828.16 4863.99
-381.537 -2828.5 4864.64
-384.627 -2820.95 4850.69
-378.256 -2829.41 4856.68
-378.331 -2829.86 4858.75
-383.222 -2822.92 4852.9
-382.637 -2824.2 4855.13
-381.726 -2826.34 4858.83
-380.915 -2827.74 4860.56
-379.469 -2829.26 4860.69
-373.705 -2832.54 4843.43
-372.644 -2833.99 4842.73
-367.138 -2837.82 4828
-368.404 -2836.07 4827.9
-369.679 -2833.86 4825.83
-369.266 -2834.55 4825.73
-369.136 -2834.88 4826.45
-369.692 -2833.71 4825.25
-370.459 -2832.09 4824.94
-370.407 -2831.96 4824.49
-369.962 -2833.16 4825.18
-370.884 -2830.72 4824.24
-371.121 -2829.92 4823.94
-371.787 -2828.15 4823.59
-371.559 -2826.82 4821.63
-371.352 -2827.58 4822.07
-371.535 -2827.73 4822.54
-371.476 -2828.51 4823.23
-384.307 -2821.28 4850.61
-363.778 -2848.31 4820.89
-366.36 -2836.51 4821.4
-366.417 -2836.12 4820.97
-365.517 -2844.12 4832.76
-366.19 -2843.11 4834.76
-365.932 -2843.98 4834.39
-366.499 -2842.59 4835.45
-363.84 -2844.21 4824.71
-363.957 -2844.06 4825.41
-363.78 -2844.51 4824.23
-364.249 -2844.49 4827.14
-364.544 -2845.14 4829.06
-364.612 -2846.16 4830.04
-364.82 -2846.06 4831.06
-365.105 -2846.11 4832.46
-363.391 -2844.93 4820.2
-363.802 -2847.96 4821.32
-363.662 -2846.19 4821.73
-370.527 -2827.64 4820.89
-370.448 -2828.26 4821.2
-370.063 -2829.23 4821.27
-366.809 -2833.91 4819.52
-366.58 -2834.46 4819.51
-369.015 -2831.49 4821.19
-367.554 -2833.54 4820.39
-371.088 -2827.49 4821.55
-366.497 -2835.1 4819.88
-363.897 -2850.07 4823.13
-363.913 -2849.52 4822.72
-363.901 -2848.88 4822.17
-362.289 -2856.47 4832.8
-362.163 -2856.96 4833.39
-362.403 -2855.87 4831.91
-362.52 -2854.99 4829.9
-362.738 -2854.26 4829.91
-362.973 -2853.27 4829.96
-362.53 -2855.23 4831.46
-363.853 -2850.56 4823.8
-363.628 -2851.09 4826.38
-363.725 -2850.65 4825.88
-363.456 -2851.76 4826.93
-363.364 -2851.63 4829.12
-356.392 -2863.33 4831.72
-362.57 -2857.14 4837.62
-362.393 -2857.58 4839.05
-362.624 -2857.25 4838.87
-363.136 -2856.77 4840.79
-362.15 -2857.9 4839.28
-361.532 -2858.52 4838.07
-361.128 -2858.94 4837.96
-359.612 -2860.41 4834.05
-358.622 -2861.28 4831.58
-360.616 -2859.45 4837.63
-362.534 -2856.94 4836.25
-362.852 -2856.73 4837.99
-380.196 -2833.16 4875.72
-380.73 -2832.9 4874.02
-380.6 -2832.91 4874.5
-380.506 -2833.23 4874.64
-377.616 -2835.35 4881.13
-378.181 -2834.9 4879.97
-378.979 -2834.47 4878.1
-377.409 -2835.78 4881.27
-380.126 -2833.68 4875.59
-381.04 -2833.48 4872.44
-380.887 -2833.23 4873.19
-381.12 -2833.67 4871.62
-381.1 -2833.73 4871.86
-381.242 -2833.38 4870.25
-381.174 -2833.57 4870.54
-381.32 -2833.12 4869.96
-381.131 -2833.72 4870.79
-381.104 -2833.81 4871.02
-381.08 -2833.9 4871.26
-381.189 -2833.28 4869.69
-381.374 -2829.1 4865.22
-381.461 -2829.36 4866.01
-381.498 -2829.69 4866.7
-381.314 -2830.38 4867.12
-381.186 -2832.07 4868.58
-381.028 -2833.42 4869.42
-382.738 -2824.41 4856.2
-382.035 -2826.16 4859.55
-383.52 -2822.72 4853.42
-381.779 -2827.12 4861.81
-381.55 -2827.88 4863.18
-381.221 -2828.96 4864.6
-381.178 -2828.68 4863.96
-377.314 -2831.73 4860.92
-381.396 -2827.49 4861.48
-380.833 -2828.38 4862.17
-380.234 -2829.08 4862.3
-378.488 -2830.58 4861.57
-374.182 -2833.22 4845.94
-372.72 -2834.94 4844.51
-371.298 -2836.63 4843.23
-371.072 -2835.81 4841.43
-366.646 -2838.17 4826.47
-368.009 -2836.51 4826.92
-369.197 -2834.52 4825.09
-368.631 -2835.37 4825.1
-368.748 -2835.37 4825.76
-369.083 -2834.52 4824.62
-369.419 -2833.93 4824.55
-369.869 -2833.14 4824.64
-370.011 -2832.64 4824.26
-370.095 -2832.15 4823.76
-370.763 -2830.38 4823.46
-371.095 -2828.63 4822.56
-370.841 -2828.38 4821.88
-370.525 -2830.54 4823.01
-367.252 -2835.98 4822.47
-367.415 -2835.63 4822.27
-367.437 -2835.39 4821.95
-367.508 -2835.1 4821.69
-366.504 -2835.65 4820.53
-365.566 -2845.88 4834.39
-366.461 -2844.3 4837.11
-366.04 -2844.97 4835.86
-364.132 -2845.9 4826.51
-364.249 -2845.71 4827.44
-363.811 -2845.15 4824.08
-364.039 -2846.28 4825.64
-364.366 -2846.32 4828.69
-364.441 -2847.23 4830.43
-364.328 -2847.13 4829.45
-364.594 -2847.41 4831.5
