3676.64 -3025.28 -959.454
3671.92 -3025.3 -899.617
3667.21 -3025.32 -839.779
3662.5 -3025.34 -779.942
3657.79 -3025.36 -720.104
3653.08 -3025.37 -660.267
3648.36 -3025.39 -600.429
3643.65 -3025.41 -540.592
3638.94 -3025.43 -480.754
3634.3 -3025.45 -420.923
3629.75 -3025.48 -361.081
3625.27 -3025.51 -301.248
3620.88 -3025.54 -241.407
3616.57 -3025.58 -181.545
3612.35 -3025.62 -121.681
3608.22 -3025.67 -61.8014
3604.19 -3025.72 -1.92539
3600.24 -3025.78 57.9597
3596.4 -3025.84 117.865
3592.65 -3025.9 177.773
3589.01 -3025.97 237.664
3585.48 -3026.04 297.58
3582.05 -3026.12 357.503
3578.74 -3026.21 417.414
3575.54 -3026.29 477.354
3572.46 -3026.38 537.277
3569.5 -3026.48 597.224
3566.66 -3026.58 657.178
3563.95 -3026.69 717.126
3561.37 -3026.8 777.08
3558.91 -3026.91 837.03
3556.6 -3027.03 896.991
3554.42 -3027.16 956.953
3552.38 -3027.29 1016.93
3550.48 -3027.42 1076.9
3548.72 -3027.55 1136.88
3547.11 -3027.7 1196.87
3545.64 -3027.84 1256.87
3544.33 -3027.99 1316.87
3543.16 -3028.14 1376.86
3542.14 -3028.29 1436.86
3541.26 -3028.45 1496.87
3540.54 -3028.61 1556.87
3539.96 -3028.77 1616.87
3539.52 -3028.93 1676.87
3539.23 -3029.09 1736.88
3539.07 -3029.26 1796.89
3539.05 -3029.42 1856.89
3539.15 -3029.59 1916.91
3539.38 -3029.75 1976.92
3539.73 -3029.91 2036.94
3540.18 -3030.07 2096.95
3540.73 -3030.22 2156.95
3541.38 -3030.38 2216.96
3542.11 -3030.53 2276.96
3542.92 -3030.67 2336.97
3543.79 -3030.81 2396.98
3544.71 -3030.94 2456.98
3545.67 -3031.06 2516.99
3546.67 -3031.18 2576.99
3547.69 -3031.29 2636.99
3548.73 -3031.4 2696.99
3549.76 -3031.49 2756.98
3550.78 -3031.58 2816.98
3551.79 -3031.66 2876.98
3552.77 -3031.72 2936.99
3553.71 -3031.78 2997
3554.6 -3031.83 3057
3555.45 -3031.87 3117
3556.24 -3031.89 3177.01
3556.96 -3031.91 3237.02
3557.61 -3031.92 3297.03
3558.18 -3031.92 3357.03
3558.68 -3031.91 3417.03
3559.09 -3031.88 3477.05
3559.41 -3031.85 3537.07
3559.64 -3031.81 3597.07
3559.79 -3031.76 3657.09
3559.83 -3031.7 3717.1
3559.78 -3031.63 3777.12
3559.64 -3031.55 3837.13
3559.4 -3031.46 3897.15
3559.06 -3031.36 3957.16
3558.62 -3031.26 4017.17
3558.08 -3031.15 4077.18
3557.45 -3031.03 4137.18
3556.72 -3030.9 4197.18
3555.9 -3030.76 4257.18
3554.98 -3030.62 4317.18
3553.96 -3030.47 4377.19
3552.95 -3030.31 4437.2
3551.93 -3030.16 4497.22
